# .PCD v0.7 - Point Cloud Data file format
VERSION 0.7
FIELDS x y z rgb
SIZE 4 4 4 4
TYPE F F F U
COUNT 1 1 1 1
WIDTH 1340
HEIGHT 1
VIEWPOINT 0 0 0 1 0 0 0
POINTS 1340
DATA ascii
-381.38879 881.54852 2010.8589 458752
-366.61194 874.8327 1995.5398 458752
-355.20435 875.97632 1998.1484 458752
-344.03229 877.80023 2002.3088 458752
-331.79401 876.93689 2000.3395 458752
-319.96686 877.13623 2000.7943 458752
-313.40488 892.34241 2035.4802 458752
-301.70532 893.55487 2038.246 458752
-289.77487 894.15643 2039.6183 458752
-277.83862 894.79193 2041.0679 458752
-265.77829 895.06757 2041.6967 458752
-253.64282 895.10455 2041.7809 458752
-241.16389 893.87213 2038.9697 458752
-228.31049 891.04773 2032.5271 458752
-215.7093 888.94684 2027.7349 458752
-203.21367 887.0578 2023.4259 458752
-191.04903 886.46661 2022.0774 458752
0 0 0 0
-166.55035 884.1297 2016.7467 393216
-154.05421 881.27716 2010.24 458752
-141.8627 879.83392 2006.9478 458752
-129.50789 877.01947 2000.5281 458752
-117.33343 874.98041 1995.8767 458752
-105.40179 874.49689 1994.7738 458752
-93.19088 871.27954 1987.4348 524544
-81.175804 869.22424 1982.7466 458752
-68.633057 859.85919 1961.3844 458752
-57.096062 861.83911 1965.9006 458752
-44.85445 851.46338 1942.2332 393216
-33.271034 850.71716 1940.531 458752
-21.703442 849.79755 1938.4331 458752
-10.092906 843.20496 1923.3953 458752
1.3457856 841.03418 1918.4436 458752
12.707681 837.68457 1910.803 458752
23.92041 832.30792 1898.5385 458752
35.091187 829.38855 1891.8793 458752
46.13628 825.63782 1883.3237 458752
57.219021 823.89502 1879.3483 458752
68.133362 820.69342 1872.0453 458752
78.92112 817.08093 1863.8051 590080
89.232582 810.03473 1847.7322 458752
99.661591 805.48413 1837.3521 458752
110.46651 804.57086 1835.2689 458752
120.64916 799.69739 1824.1522 458752
135.58263 824.51947 1880.7726 458752
146.34444 822.12183 1875.3035 524544
150.31181 784.59821 1789.7102 393216
167.44348 816.2085 1861.8149 393216
170.46509 779.38379 1777.8158 393216
187.60309 807.63275 1842.2532 393216
198.84239 808.771 1844.8496 393216
207.32976 799.18256 1822.9777 393216
218.48372 800.31494 1825.5609 393216
227.96573 795.5058 1814.5909 393216
239.55727 798.16003 1820.6454 393216
248.17412 791.10229 1804.5464 393216
254.82545 778.62421 1776.0831 393216
263.76944 773.86591 1765.2292 393216
273.79614 772.52698 1762.175 459008
285.87543 776.86475 1772.0697 393216
296.41748 776.86505 1772.0703 393216
305.89258 774.16498 1765.9114 393216
316.71967 774.95233 1767.7073 393216
322.01141 762.58044 1739.4863 393216
332.35953 762.58044 1739.4865 458752
359.461 799.8595 1824.5219 393216
369.16641 797.3786 1818.8629 393216
384.13199 806.07715 1838.7048 393216
388.35663 792.37897 1807.4585 393472
398.27194 790.71692 1803.6672 393216
400.13205 773.56903 1764.552 524800
411.13663 774.52484 1766.7322 393216
417.45566 766.82605 1749.1709 327680
424.74213 761.23572 1736.4191 327680
432.41342 756.58411 1725.8085 393216
440.84665 753.45044 1718.6604 393216
447.08789 746.79749 1703.4846 459264
451.53561 737.50995 1682.2993 393216
467.7699 747.45923 1704.9941 327680
475.8111 744.17212 1697.4961 721920
488.32968 747.87878 1705.9512 393216
500.47168 750.86951 1712.7732 393216
508.66214 747.9306 1706.0693 393216
517.21613 745.63074 1700.8234 393216
527.19086 745.42804 1700.3608 393216
536.55054 744.3797 1697.9695 721664
546.45636 744.11371 1697.3629 458752
555.65985 742.9184 1694.6364 393216
565.23596 742.255 1693.123 393216
575.73303 742.8031 1694.3733 393216
583.42157 739.77112 1687.4572 393216
588.57758 733.68481 1673.574 262144
600.51294 736.11108 1679.1085 196608
612.77039 738.84637 1685.3478 196608
614.37781 728.85907 1662.5662 65536
623.30731 727.73706 1660.0068 0
631.5816 725.89703 1655.8096 0
638.03265 722.05011 1647.0345 256
638.6828 711.85406 1623.7769 256
644.28558 707.39972 1613.6162 66306
649.55084 702.71094 1602.9209 256
653.85767 697.13599 1590.2041 0
660.45282 694.12506 1583.3361 0
664.3399 688.3927 1570.2603 0
686.47815 701.46893 1600.0879 0
691.23035 696.66492 1589.1295 65536
699.15417 695.1438 1585.6599 65536
708.28571 694.84802 1584.9852 65536
712.79187 690.08209 1574.1139 196608
720.33807 688.34473 1570.1509 458752
730.54083 689.1579 1572.0057 786432
670.7478 624.75446 1425.098 1245184
658.96564 606.11914 1382.59 1179648
662.68042 602.02191 1373.2439 1048576
674.65515 605.43683 1381.0336 786432
717.51508 636.15259 1451.0978 393216
719.13214 630.00659 1437.0785 262144
719.87286 623.24634 1421.658 196608
719.19019 615.42505 1403.8171 196608
722.89697 611.49634 1394.8556 65536
724.86609 606.20355 1382.7825 0
726.92975 601.10773 1371.1587 0
733.4762 599.79077 1368.1547 0
738.69177 597.42639 1362.7612 0
746.02289 596.80566 1361.3455 0
753.90228 596.63226 1360.9498 65536
763.92633 598.14166 1364.3929 65536
765.66748 593.20221 1353.1257 65536
767.37524 588.33997 1342.0347 65536
775.13684 588.17145 1341.6503 65536
780.02081 585.84509 1336.3438 65536
796.03339 591.8396 1350.0176 65536
809.46844 595.8172 1359.0906 65536
818.02972 596.16425 1359.8822 131072
818.75592 590.85028 1347.7609 196608
832.18634 594.71838 1356.5842 196608
835.77222 591.54443 1349.3442 393216
844.59027 592.09894 1350.609 524288
857.84662 595.72504 1358.8804 786432
865.28235 595.27911 1357.8632 917504
874.01892 595.72815 1358.8875 983040
880.15887 594.41522 1355.8927 851968
884.75043 592.08997 1350.5886 851968
893.72949 592.71637 1352.0176 589824
895.75153 588.75879 1342.9901 524288
906.40094 590.49182 1346.9431 393216
916.35382 591.74457 1349.8008 262144
912.63831 584.22571 1332.6499 196608
917.8009 582.47083 1328.6469 196608
920.49249 579.19104 1321.1655 65536
929.9657 580.19781 1323.462 65536
938.36072 580.52063 1324.1984 65536
948.82806 582.10944 1327.8225 65536
954.3299 580.65082 1324.4954 65536
966.93634 583.50342 1331.0023 65536
977.90228 585.32776 1335.1637 0
984.93689 584.78857 1333.9337 0
993.35718 585.07404 1334.585 65536
1000.9707 584.88373 1334.1508 65536
1008.2791 584.51935 1333.3197 65536
1018.488 585.82916 1336.3074 65536
1023.0157 583.8761 1331.8524 65536
1034.8113 586.06927 1336.8551 65536
1041.9427 585.60767 1335.8021 65536
1043.557 582.07556 1327.7452 65536
1048.7467 580.57593 1324.3245 0
1080.3137 593.59198 1354.0148 196608
1078.9758 588.46918 1342.3293 262144
1092.1359 591.27063 1348.7196 196608
1124.3817 604.2887 1378.4146 196608
1097.7706 585.71521 1336.0475 327936
1118.5284 592.50073 1351.5256 1315080
1131.2744 594.97571 1357.1711 1315333
1187.246 619.98828 1414.2262 1315333
1190.2117 617.16357 1407.7828 1315077
1196.4766 616.07721 1405.3048 1249284
1198.9297 613.05676 1398.4149 1512200
1238.2292 628.78906 1434.3011 1445380
1253.3248 632.09906 1441.8514 1774857
1266.6503 634.47729 1447.2764 1906443
1262.2043 627.98169 1432.4596 2893338
1268.071 626.66968 1429.4668 3353889
1258.9297 618.00769 1409.7084 3485729
1270.6874 619.65179 1413.4586 2959128
1272.2074 616.31458 1405.8463 2695956
1274.8239 613.54877 1399.5374 3024924
1277.6471 610.91772 1393.5358 2498579
1274.6212 605.54181 1381.2729 2367250
1278.1592 603.33307 1376.2347 1841419
1278.9706 599.87366 1368.3436 1512201
1279.3948 596.27753 1360.1406 788225
1295.7413 600.10071 1368.8616 2038029
1287.6036 592.60754 1351.7693 1643271
1290.0219 590.03552 1345.9023 1379587
1282.9387 583.17627 1330.256 2497810
1281.7521 579.06494 1320.8779 4077097
0 0 0 0
0 0 0 0
0 0 0 0
0 0 0 0
0 0 0 0
0 0 0 0
0 0 0 0
0 0 0 0
0 0 0 0
0 0 0 0
0 0 0 0
0 0 0 0
0 0 0 0
-1344.9835 703.10114 1582.3389 131072
-1340.9894 705.95398 1588.7593 196608
-1333.2045 706.83759 1590.7478 131072
-1329.6372 709.9859 1597.8331 65792
-1322.4127 711.21259 1600.5938 65536
-1314.5984 712.13751 1602.6754 65536
-1305.2521 712.24011 1602.9062 65536
-1301.4825 715.40967 1610.0394 65536
-1291.8594 715.38464 1609.983 65536
-1283.149 715.86853 1611.0721 65536
-1273.7693 715.9834 1611.3307 196608
-1266.1422 717.09271 1613.8271 196608
-1256.1046 716.84332 1613.2659 327680
-1248.3552 717.90594 1615.6573 327680
-1238.9572 718.0296 1615.9357 393216
-1226.5481 716.39667 1612.2606 393216
-1217.0115 716.42871 1612.3328 393216
-1206.2527 715.73621 1610.7743 393216
-1196.8987 715.87286 1611.0818 393216
-1185.901 715.02063 1609.1638 393216
-1177.1639 715.52863 1610.3071 458752
-1167.1 715.23181 1609.6392 393216
-1157.9833 715.51544 1610.2773 458752
-1149.4576 716.172 1611.755 458752
-1142.229 717.65454 1615.0914 458752
-1130.8309 716.52039 1612.5391 458752
-1120.9927 716.36353 1612.186 393216
-1107.953 714.14056 1607.1832 393472
-1097.6095 713.63177 1606.0382 458752
-1087.6862 713.38965 1605.4933 458752
-1076.7014 712.44104 1603.3584 458752
-1065.7095 711.47058 1601.1743 458752
-1054.5374 710.36115 1598.6777 458752
-1043.5348 709.34686 1596.395 327680
-1032.5009 708.29248 1594.0221 393216
-1021.7179 707.39233 1591.9962 393216
-1010.5659 706.21729 1589.3519 327680
-999.83649 705.3183 1587.3286 393216
-988.12622 703.70361 1583.6947 393216
-977.09387 702.54523 1581.0878 393216
-965.83875 701.20258 1578.0662 458752
-955.1308 700.23474 1575.8881 458752
-943.85425 698.82678 1572.7194 458752
-933.4599 698.05023 1570.9718 524288
-923.24158 697.39105 1569.4883 524288
-912.79181 696.54175 1567.5769 458752
-902.42792 695.74109 1565.775 458752
-893.44202 695.99725 1566.3516 393216
-883.17377 695.24939 1564.6683 393216
-872.7135 694.3327 1562.6053 393216
-861.85107 693.07294 1559.7703 393216
-850.91034 691.72205 1556.7301 393216
-840.76221 690.99274 1555.0889 393216
-830.21631 689.91681 1552.6675 393216
-819.73212 688.86853 1550.3082 393216
-809.28271 687.82599 1547.9619 393216
-798.91956 686.8335 1545.7284 393216
-788.71417 685.95514 1543.7516 393216
-778.36292 684.92773 1541.4393 393216
-768.03589 683.8974 1539.1206 393216
-757.68793 682.8233 1536.7034 393216
-747.32587 681.71014 1534.1981 393216
-737.15637 680.74731 1532.0312 393216
-727.17279 679.93414 1530.2013 393216
-717.16486 679.07733 1528.2731 393216
-707.10608 678.14978 1526.1855 393216
-697.2688 677.41333 1524.5281 393216
-687.39331 676.61981 1522.7423 393216
-676.58136 674.87097 1518.8065 393216
-666.39368 673.70599 1516.1847 393216
-655.86792 672.16248 1512.7109 393216
-645.6532 670.89923 1509.868 393216
-635.09912 669.2428 1506.1401 393216
-624.78876 667.79938 1502.8917 393216
-614.58466 666.42926 1499.8083 393216
-601.55255 661.9071 1489.6311 393216
-591.13232 660.16663 1485.7141 393216
-581.56885 659.3446 1483.8643 393216
-571.23248 657.60748 1479.9548 393216
-561.66357 656.71332 1477.9425 393216
-551.00769 654.49951 1472.9603 393216
-539.8017 651.55029 1466.323 393216
-529.13739 649.1687 1460.9631 393216
-518.52313 646.77002 1455.5649 458752
-508.81342 645.43726 1452.5656 458752
-495.0639 638.8454 1437.7305 1575936
-485.80872 637.92322 1435.6552 1510144
-478.77026 639.93115 1440.174 1641984
-472.63828 643.24579 1447.6335 786432
-566.79126 785.70111 1768.2313 524288
-559.76593 790.63593 1779.3372 524288
-554.49323 798.28412 1796.5496 524288
-562.27002 825.38904 1857.5494 589824
-557.83484 835.29468 1879.8422 524288
-552.43298 844.12848 1899.7229 524288
-543.8548 848.37634 1909.2828 524288
-532.82709 848.90295 1910.4679 524288
-521.49701 848.96021 1910.5968 524288
-517.59332 861.37897 1938.5454 524288
-473.95972 806.73859 1815.5765 458752
-491.47736 856.06409 1926.5841 524288
-437.62567 780.46454 1756.4463 524288
-431.56149 788.47571 1774.4756 458752
-426.4151 798.60742 1797.2772 458752
-420.15833 807.12744 1816.4515 458752
-423.99216 835.99292 1881.4137 458752
-414.7634 839.96967 1890.3635 458752
-417.12155 868.28766 1954.0935 458752
-406.77774 871.03058 1960.2665 458752
-404.21368 891.08588 2005.4011 458752
-393.28552 893.36163 2010.5228 458752
-378.11523 885.8418 1993.5992 458752
-365.8537 884.87018 1991.4125 458752
-354.14304 885.21033 1992.1782 458752
-342.46017 885.64618 1993.1591 458752
-330.87088 886.36377 1994.774 458752
-319.03992 886.46338 1994.998 458752
-307.19055 886.51746 1995.1199 458752
-299.64355 899.49109 2024.3171 458752
-284.18073 888.79395 2000.2432 458752
-275.98004 900.86725 2027.4143 458752
-264.04749 901.30548 2028.4006 458752
-251.95604 901.21759 2028.2026 458752
-239.57477 900.03186 2025.5342 458752
-226.61641 896.43774 2017.4457 524288
-214.06856 894.15637 2012.3113 458752
-201.77733 892.74011 2009.124 458752
-189.82281 892.729 2009.099 458752
-177.69284 891.83582 2007.0889 458752
-165.60555 891.04358 2005.306 458752
-153.38995 889.38446 2001.5721 458752
-141.21208 887.68323 1997.7435 458752
-129.04153 885.71948 1993.324 458752
-115.82265 875.43457 1970.1777 458752
-104.93317 882.42279 1985.9049 458752
-92.949554 880.81573 1982.2882 458752
-80.911438 878.15027 1976.2893 458752
-68.138191 865.24341 1947.2423 458752
-56.374374 862.49274 1941.0519 458752
-44.632988 858.75659 1932.6437 458752
-33.027462 855.94873 1926.3246 458752
-21.49156 852.92035 1919.509 393216
-10.080855 853.62671 1921.0988 393216
1.3450067 851.95355 1917.3333 393216
12.685354 847.56018 1907.4459 393216
24.000698 846.43378 1904.9109 393216
35.202614 843.31262 1897.8868 393216
47.330357 858.50043 1932.0671 458752
58.457085 853.14386 1920.0122 458752
69.7715 851.8299 1917.0551 458752
80.875397 848.67603 1909.9573 458752
91.584969 842.67108 1896.4429 458752
102.87792 842.76227 1896.6481 458752
113.9061 840.88062 1892.4136 458752
124.94943 839.43945 1889.1702 458752
135.95915 838.02893 1885.9958 458752
146.31541 833.11267 1874.9316 458752
157.2728 832.07318 1872.5923 393216
167.29817 826.56641 1860.1992 393216
178.31546 826.33972 1859.689 393216
188.6534 823.17517 1852.5671 393216
199.4257 822.15063 1850.2615 393216
209.16959 817.21533 1839.1545 459008
219.73851 815.8338 1836.0454 393216
229.39345 811.35052 1825.9556 393216
239.28957 808.08698 1818.611 458752
253.3734 818.63611 1842.3519 458752
236.69048 733.02631 1649.6859 524288
261.45261 777.47766 1749.7242 458752
280.66379 802.65027 1806.3757 393216
282.65543 778.53754 1752.1096 458752
295.70142 785.50482 1767.7894 393216
300.19928 770.06598 1733.0442 393216
306.8902 761.09113 1712.8462 458752
322.60956 774.36426 1742.7175 393216
329.06494 765.26672 1722.2434 393216
344.67816 777.3728 1749.4883 393216
356.17227 779.7514 1754.8414 393216
379.06314 806.23456 1814.442 393216
388.93317 804.32373 1810.1417 393216
380.05771 764.79413 1721.1798 393216
393.26044 770.6012 1734.2488 393472
403.16058 769.80542 1732.4578 393472
413.18781 769.28577 1731.2883 393472
416.72125 756.99524 1703.6283 393216
436.15695 773.48969 1740.7493 393216
443.01236 767.42627 1727.1035 327680
438.69708 742.72552 1671.5142 327680
451.00919 746.6463 1680.3379 393216
460.78796 746.29419 1679.5454 327680
474.47641 752.15466 1692.7345 525056
483.5155 750.55438 1689.1331 459008
494.3093 751.68768 1691.6836 393216
506.06094 754.20331 1697.345 393216
514.34558 751.5545 1691.3839 393216
525.71289 753.42517 1695.5939 393216
534.59265 751.72772 1691.7737 393216
541.69641 747.64166 1682.5779 393216
552.84503 749.18524 1686.0518 393216
557.60303 742.16791 1670.2592 393216
570.48846 746.02454 1678.9386 393216
577.83325 742.62756 1671.2937 393216
587.79547 742.65259 1671.35 262144
598.55243 743.66425 1673.6267 196608
606.25214 740.90643 1667.4202 131072
613.59552 737.80896 1660.4492 0
617.66669 730.93732 1644.9846 256
631.86859 736.0816 1656.5619 256
639.96906 734.06934 1652.0332 256
644.85535 728.48694 1639.47 256
654.93335 728.84845 1640.2836 1
659.39233 723.03802 1627.2072 256
652.2735 704.88409 1586.3514 256
654.45917 697.15961 1568.9673 256
663.74963 697.11414 1568.865 256
680.71997 705.02405 1586.6664 256
683.41211 698.13184 1571.1554 0
686.20099 691.52313 1556.2825 0
694.63348 690.70215 1554.4348 131072
713.00604 699.65656 1574.5868 196608
718.5658 695.96893 1566.2878 393216
690.85223 660.56128 1486.6023 655360
0 0 0 0
657.87714 613.32941 1380.3063 983040
650.40594 598.88898 1347.808 917504
669.3551 608.83173 1370.1842 655360
673.79376 605.49554 1362.6761 393216
679.51727 603.37952 1357.9141 262144
689.36932 604.93622 1361.4174 131072
710.92151 616.60461 1387.6772 196608
716.31317 614.14948 1382.1519 65536
719.61926 609.98224 1372.7734 0
718.59064 602.27539 1355.4292 0
721.9068 598.34082 1346.5742 0
729.9176 598.34088 1346.5745 0
734.61041 595.65057 1340.5199 0
739.38593 593.08441 1334.7448 0
747.67346 593.36005 1335.365 65536
751.18719 589.88104 1327.5355 65536
781.74133 607.48749 1367.1591 65536
789.26306 607.01721 1366.1007 65536
795.3374 605.45471 1362.5842 65536
781.97827 589.27924 1326.1812 65536
796.48285 594.21442 1337.2878 65536
814.48059 601.63245 1353.9822 196608
812.45239 594.25739 1337.3845 196608
821.12714 594.77795 1338.5562 196608
831.39001 596.42786 1342.2693 393216
830.4104 590.05798 1327.9336 524288
844.30341 594.27631 1337.4271 655360
852.52484 594.46124 1337.8433 786432
860.71075 594.61816 1338.1964 786432
869.67786 595.30695 1339.7466 786432
876.48212 594.51624 1337.967 655360
885.64667 595.32623 1339.7899 458752
892.48761 594.57379 1338.0966 458752
898.45532 593.25812 1335.1356 196608
905.80597 592.87067 1334.2637 262144
915.26581 593.85846 1336.4867 196608
925.45319 595.29718 1339.7246 196608
910.61255 580.74957 1306.985 0
917.29309 580.05743 1305.4272 65536
928.66113 582.3161 1310.5105 131072
931.2417 579.07288 1303.2115 196608
943.6651 581.95325 1309.694 196608
953.00842 582.90253 1311.8303 131072
967.51788 586.97058 1320.9855 0
975.29108 586.91931 1320.87 65536
982.06305 586.27106 1319.4113 65536
990.24878 586.4704 1319.8599 65536
995.27991 584.81311 1316.13 65536
1003.148 584.83551 1316.1805 65536
1010.8885 584.78387 1316.0642 65536
1019.9288 585.47906 1317.6288 65536
1027.0823 585.08887 1316.7506 65536
1033.5837 584.33588 1315.056 65536
1040.9261 584.0661 1314.4489 65536
1053.3254 586.61658 1320.1888 196608
1074.6835 594.08179 1336.9894 196608
1077.8269 591.4422 1331.049 196608
1080.9517 588.83099 1325.1724 196608
1081.9955 585.13226 1316.8483 262144
1141.0096 612.61108 1378.6898 327680
1152.2786 614.24615 1382.3695 393216
1137.9613 602.31537 1355.5192 262144
1130.2394 594.01886 1336.8477 196864
1170.9556 611.11792 1375.3293 854275
1166.4557 604.54535 1360.5377 1117445
1174.0122 604.2688 1359.9154 1249030
1213.5161 620.32703 1396.0546 1380614
1216.5627 617.65729 1390.0463 1577478
1220.2144 615.32867 1384.8058 1972237
1257.9414 630.09961 1418.048 1708808
1270.6062 632.20374 1422.7833 2432787
1264.1226 624.81555 1406.1561 3682596
1268.1754 622.69818 1401.3909 3287838
1275.8191 622.35999 1400.6299 3418910
1277.2505 619.01556 1393.1031 2893079
1270.7579 611.89862 1377.0863 2695957
1273.2041 609.14948 1370.8994 2498322
1278.7347 607.90173 1368.0913 2564630
1280.8057 605.03534 1361.6405 1907213
1282.9072 602.21948 1355.3032 1709578
1278.1211 596.22571 1341.8142 1314309
1281.9403 594.29572 1337.4707 1116676
1284.9036 591.99506 1332.2932 1906189
1288.5798 590.04926 1327.9141 1116162
0 0 0 0
0 0 0 0
0 0 0 0
0 0 0 0
0 0 0 0
0 0 0 0
0 0 0 0
0 0 0 0
0 0 0 0
0 0 0 0
0 0 0 0
0 0 0 0
0 0 0 0
-1345.4498 712.76141 1582.8876 196608
-1337.8567 713.73419 1585.0479 131072
-1336.7345 718.19745 1594.9597 196608
-1328.3535 718.79663 1596.2904 131072
-1321.1842 720.06482 1599.1068 65792
-1312.9773 720.78186 1600.6991 65536
-1304.5575 721.3916 1602.0532 65536
-1298.106 723.10675 1605.8622 65536
-1288.9365 723.32208 1606.3405 0
-1280.4247 723.91248 1607.6516 131072
-1270.8427 723.9021 1607.6284 262144
-1264.0284 725.4801 1611.1329 196608
-1252.7051 724.47449 1608.8997 393216
-1244.4832 725.26086 1610.6461 393216
-1235.5176 725.62268 1611.4496 393216
-1221.7163 723.12799 1605.9093 458752
-1215.7642 725.27631 1610.6803 393216
-1205.2549 724.71869 1609.442 393216
-1194.7881 724.1778 1608.2407 393216
-1184.7826 723.9101 1607.6462 393216
-1175.5791 724.13202 1608.1392 458752
-1165.4938 723.80994 1607.424 458752
-1156.5587 724.20282 1608.2964 458752
-1148.4764 725.14062 1610.379 393216
-1140.1102 725.91351 1612.0955 327680
-1128.5945 724.67712 1609.3497 393216
-1118.848 724.56549 1609.1017 393472
-1106.9124 723.02179 1605.6736 393216
-1097.0741 722.83325 1605.2549 393216
-1086.6875 722.27692 1604.0194 458752
-1075.5134 721.18268 1601.5894 393216
-1064.5027 720.17938 1599.3612 393216
-1053.5748 719.21454 1597.2185 393216
-1042.5717 718.18036 1594.9218 393216
-1031.7722 717.26868 1592.8971 393216
-1020.5117 716.01666 1590.1167 393216
-1009.9615 715.24426 1588.4014 393216
-998.7406 713.97772 1585.5887 393216
-986.78363 712.15594 1581.5428 393216
-976.14496 711.25958 1579.5522 393216
-965.11316 710.05658 1576.8807 458752
-954.56946 709.1925 1574.9618 458752
-945.276 709.24957 1575.0884 458752
-932.90839 706.97797 1570.0437 458752
-922.34357 706.04041 1567.9617 458752
-912.60065 705.71936 1567.2487 458752
-901.8703 704.62012 1564.8075 458752
-890.91223 703.3183 1561.9164 393216
-882.36353 703.91107 1563.2328 393216
-871.84167 702.92566 1561.0444 393216
-861.28949 701.89423 1558.7538 393216
-850.38525 700.55035 1555.7694 393216
-840.32245 699.87775 1554.2756 393216
-829.75293 698.76337 1551.8009 393216
-819.25336 697.68353 1549.4028 393216
-808.91992 696.72217 1547.2679 327680
-798.64648 695.79102 1545.2 262144
-788.61078 695.04773 1543.5492 393216
-778.0481 693.81696 1540.8159 393216
-767.58502 692.64667 1538.217 393216
-757.30969 691.61969 1535.9363 393216
-746.90308 690.44623 1533.3303 393216
-736.95868 689.67621 1531.6204 393216
-726.91724 688.7951 1529.6636 393216
-716.76843 687.78857 1527.4282 393216
-706.67603 686.8111 1525.2574 393216
-696.73523 685.95734 1523.3616 393216
-686.29321 684.58118 1520.3053 393216
-675.87299 683.19025 1517.2164 393216
-665.80817 682.12579 1514.8524 393216
-655.76038 681.0498 1512.4629 393216
-645.19446 679.39825 1508.7953 393216
-634.59686 677.66632 1504.949 393216
-622.58044 674.34802 1497.5798 393216
-612.33655 672.88123 1494.3223 393216
-601.55255 670.76886 1489.6312 393216
-591.56146 669.49072 1486.7927 393216
-580.74408 667.22449 1481.7599 393216
-570.94122 666.07184 1479.2002 393216
-561.1983 664.95422 1476.7181 393216
-550.50494 662.65698 1471.6165 393216
-539.85834 660.34271 1466.4769 393216
-529.05939 657.76288 1460.7478 393216
-519.05975 656.10736 1457.0713 458752
-507.58109 652.49432 1449.0475 393216
-497.2865 650.30481 1444.1851 1444864
-485.28455 645.76642 1434.1062 1378816
-479.96545 650.11749 1443.769 1313536
-473.26611 652.72357 1449.5565 721664
-561.35474 788.58307 1751.271 524288
-569.59766 815.29376 1810.5895 524288
-558.41742 814.69684 1809.2638 524288
-561.40967 835.15961 1854.7072 524288
-554.8739 841.98468 1869.8643 655616
0 0 0 0
-544.18268 860.25299 1910.434 590336
-533.01624 860.57355 1911.146 524288
-522.40955 861.83167 1913.9401 524288
-514.87103 868.32031 1928.3497 524288
-497.94861 858.91809 1907.4696 524288
-452.89703 799.42572 1775.3499 524288
-445.22256 804.64331 1786.9371 458752
-439.33792 813.42999 1806.4503 458752
-449.01395 852.19012 1892.5282 458752
-444.41376 865.15204 1921.3138 458752
-434.65256 868.48615 1928.718 458752
-425.65375 873.56555 1939.9984 458752
-415.94333 877.427 1948.5739 458752
-405.08521 879.01947 1952.1102 458752
-394.28326 880.8313 1956.134 524288
-383.45038 882.68213 1960.2444 458752
-376.28085 893.34644 1983.9275 458752
-365.04294 894.72968 1986.9994 458752
-353.38269 895.1358 1987.9011 458752
-341.67581 895.44775 1988.5939 458752
-330.0159 895.90955 1989.6194 458752
-318.40421 896.54144 1991.0228 458752
-306.86594 897.43701 1993.0116 458752
-298.25717 907.31622 2014.9513 458752
-283.30835 897.92834 1994.1029 458752
-271.45786 897.96906 1994.1932 458752
-262.91446 909.45312 2019.6968 458752
-249.87651 905.74542 2011.4629 458752
-238.39255 907.58087 2015.5389 458752
-225.57535 904.26611 2008.1776 458752
-213.40105 903.302 2006.0365 458752
-201.15991 901.92401 2002.9763 458752
-189.01639 900.83765 2000.5637 458752
-177.4212 902.39423 2004.0206 458752
-165.28883 901.24622 2001.4709 458752
-153.01445 899.08533 1996.6722 458752
-140.89966 897.57745 1993.3236 458752
-128.86575 896.35498 1990.6088 458752
-114.66624 878.29749 1950.507 458752
-104.69314 892.19135 1981.3622 458752
-92.825424 891.41632 1979.641 458752
-80.713669 887.73193 1971.4589 458752
-67.803535 872.52087 1937.6785 458752
-56.002415 868.27295 1928.2448 458752
-44.574059 869.1048 1930.092 458752
-32.96032 865.64502 1922.4086 458752
-21.501677 864.74628 1920.4126 458752
-10.042205 861.73853 1913.7332 458752
1.3441496 862.80945 1916.1115 458752
12.689905 859.21564 1908.1302 458752
23.831226 851.70917 1891.4601 458752
35.003262 849.76343 1887.1389 458752
46.987202 863.68652 1918.0592 458752
58.373383 863.328 1917.2631 458752
69.527985 860.22144 1910.3641 458752
80.779793 859.02161 1907.6995 458752
91.638916 854.45593 1897.5601 458752
102.88287 854.08624 1896.7391 458752
113.93985 852.39099 1892.9744 590080
124.99278 850.97321 1889.8256 458752
136.00989 849.56549 1886.6995 458752
147.23996 849.60132 1886.7791 458752
158.39664 849.23853 1885.9734 393216
168.06148 841.45428 1868.6864 393216
178.31546 837.40289 1859.689 393216
188.59947 833.95752 1852.0376 393216
199.47853 833.37842 1850.7516 459008
207.49335 821.51978 1824.416 327680
219.57535 826.14246 1834.6821 393216
231.03143 828.08398 1838.9938 590848
240.36147 822.57404 1826.7574 393216
254.14462 832.12128 1847.9597 393216
259.31857 813.85724 1807.3993 327680
272.31866 820.63141 1822.4434 393216
284.55579 824.6759 1831.425 458752
288.90216 806.39703 1790.8317 458752
305.77621 823.14246 1828.0197 458752
298.03488 774.74933 1720.5491 458752
307.77719 773.50995 1717.7968 393216
314.2428 764.37982 1697.5208 393216
324.76257 765.37286 1699.726 393216
335.93558 767.79877 1705.1134 524800
360.12329 798.95648 1774.3079 393472
356.52838 768.45734 1706.5759 393216
367.47733 770.12683 1710.2836 393472
372.81006 760.25354 1688.3572 393472
385.36908 765.2478 1699.4484 459008
401.86221 777.59937 1726.8784 393216
410.14511 773.8443 1718.5392 393216
406.71741 748.71417 1662.7307 393216
426.81812 767.06189 1703.4771 393216
436.78326 766.76562 1702.8191 393216
440.78333 756.2486 1679.463 590848
443.28741 743.68799 1651.5687 524544
452.35913 742.45154 1648.8228 393216
467.18039 750.50391 1666.7053 459264
483.12445 759.98779 1687.767 327680
489.29843 754.02948 1674.5348 393216
499.2291 753.9826 1674.4308 393216
506.15796 749.49261 1664.4595 393216
525.15698 762.7049 1693.8011 393216
527.4621 751.63086 1669.2081 393216
537.9845 752.45947 1671.0482 393216
547.47699 751.84363 1669.6805 393216
555.32452 749.03094 1663.4342 393216
564.72626 748.37634 1661.9805 393216
574.85193 748.68713 1662.6707 393216
584.27356 748.08606 1661.3358 262144
595.758 750.10211 1665.813 196608
603.71741 747.68652 1660.4486 196608
611.58716 745.23956 1655.0144 131072
621.60492 745.44604 1655.4729 0
622.53986 734.92358 1632.1049 0
627.77997 729.72864 1620.568 0
634.02582 725.84222 1611.9371 256
637.91016 719.40833 1597.6489 2
657.9826 731.15167 1623.7283 256
664.41296 727.61542 1615.875 256
669.07355 722.26953 1604.0029 256
678.06104 721.6792 1602.692 256
644.2309 676.16522 1501.6154 0
687.00397 711.19696 1579.4132 65536
682.7417 697.2486 1548.4369 131072
642.27747 647.19269 1437.2737 196608
677.85004 674.06403 1496.9491 196608
679.91846 667.35352 1482.0465 196608
690.02545 668.60388 1484.8232 327680
0 0 0 0
690.48969 652.35199 1448.7313 458752
643.27637 600.25427 1333.0337 589824
684.47076 630.91583 1401.1263 524288
714.46973 650.64423 1444.9388 393216
718.44983 646.49084 1435.715 196608
676.85687 601.90826 1336.7068 196608
707.09949 621.50043 1380.2168 131072
704.28412 611.92029 1358.9413 65536
708.38586 608.49933 1351.3442 65536
714.6145 606.96167 1347.9293 65536
719.99017 604.74164 1342.9991 65536
741.29303 615.80127 1367.5602 65536
722.24554 593.46509 1317.9564 0
747.96686 607.99994 1350.2351 0
752.90137 605.50848 1344.7021 65536
764.86639 608.66412 1351.7101 65536
774.42554 609.8595 1354.3647 65536
784.07056 611.09711 1357.1133 65536
791.23419 610.39532 1355.5547 65536
780.77594 596.25037 1324.142 65536
794.45087 600.63367 1333.8763 65536
808.45551 605.17712 1343.9662 196608
813.12042 602.70856 1338.4841 196608
821.60425 603.09119 1339.3339 196608
826.89319 601.1438 1335.0092 262144
828.2829 596.42572 1324.5314 262144
837.17505 597.14807 1326.1355 393216
842.52747 595.35553 1322.1547 393216
857.21136 600.12909 1332.7557 458752
865.14001 600.12921 1332.756 393216
873.06885 600.12939 1332.7565 393216
875.74707 596.55298 1324.814 393216
877.09796 592.14423 1315.0231 262144
892.89172 597.47784 1326.8679 196608
903.45898 599.2514 1330.8065 196608
911.37317 599.24957 1330.8025 196608
905.46771 590.23938 1310.7928 196608
917.01453 592.66229 1316.1736 0
926.55408 593.758 1318.6068 65536
938.3421 596.26398 1324.1721 65536
952.35718 600.13165 1332.7614 0
958.4635 598.9928 1330.2323 0
943.91211 585.06836 1299.3091 65536
952.83105 585.79962 1300.9331 65536
967.64514 590.11426 1310.5149 65536
1001.9226 606.13464 1346.0928 65536
980.51953 588.48297 1306.8922 65536
988.7226 588.7381 1307.4587 65536
996.94263 588.99921 1308.0387 65536
1002.1406 587.48474 1304.6754 65536
1012.9776 589.27393 1308.6487 65536
1020.2166 588.95862 1307.9485 65536
1029.0352 589.55316 1309.2688 65536
1034.1482 588.03168 1305.89 65536
1043.9806 589.19635 1308.4764 196608
1066.0482 597.19806 1326.2465 196608
1065.8416 592.69574 1316.2478 196608
1066.0142 588.46851 1306.8601 196608
1072.2744 587.63867 1305.0172 196608
1126.1753 612.74164 1360.7654 196608
1136.8165 614.11707 1363.8199 262144
1149.207 616.41132 1368.9149 262144
1151.3121 613.19513 1361.7725 262144
1152.8745 609.73688 1354.0925 196608
1140.8151 599.1723 1330.6309 196608
1148.1658 598.87756 1329.9763 131072
1166.6433 604.35077 1342.1311 1249287
1176.3589 605.24152 1344.1093 920064
1196.9183 611.66174 1358.3673 1445637
1240.2372 629.54877 1398.0903 1511429
1231.3663 620.88214 1378.8438 1380100
1243.431 622.81665 1383.1398 1445893
1255.4943 624.72498 1387.3777 2498581
1262.8398 624.27612 1386.381 2695959
1262.8438 620.22742 1377.3896 3222302
1267.8314 618.66272 1373.9149 3024923
1270.3 615.89691 1367.7726 3024924
1273.3549 613.44861 1362.3354 2235408
1277.3253 611.46967 1357.9406 2235408
1281.5182 609.62128 1353.8358 2301458
1283.4318 606.71857 1347.3895 2235407
1285.8203 604.07507 1341.5188 1906187
1282.6842 598.88464 1329.9921 1577222
1291.621 599.36017 1331.0481 1050628
0 0 0 0
0 0 0 0
0 0 0 0
0 0 0 0
0 0 0 0
0 0 0 0
0 0 0 0
0 0 0 0
0 0 0 0
0 0 0 0
0 0 0 0
0 0 0 0
0 0 0 0
-1343.8138 721.2998 1580.9629 196608
-1332.6108 720.32794 1578.8328 196608
-1335.8379 727.19763 1593.8899 196608
-1327.6677 727.91693 1595.4664 196608
-1319.5609 728.68146 1597.1421 131072
-1310.5526 728.95563 1597.743 65792
-1301.6392 729.28705 1598.4695 65792
-1294.53 730.6416 1601.4385 65792
-1285.7263 731.05286 1602.3397 196608
-1277.8442 731.99811 1604.4116 262144
-1268.7861 732.27881 1605.0269 262144
-1260.1431 732.80524 1606.1807 196608
-1250.0568 732.4939 1605.4984 393216
-1237.7811 730.88507 1601.972 393216
-1230.3461 732.13171 1604.7045 393216
-1220.3014 731.83282 1604.0494 393216
-1214.6871 734.20715 1609.2534 393216
-1202.6071 732.67999 1605.9062 393216
-1193.4451 732.92041 1606.4331 393216
-1182.5479 732.09039 1604.6139 393216
-1174.5259 733.04138 1606.6984 393216
-1164.9387 733.02313 1606.6583 327680
-1154.0067 732.15143 1604.7477 458752
-1146.4259 733.40894 1607.5039 458752
-1138.3429 734.36371 1609.5966 458752
-1127.0961 733.27625 1607.2131 458752
-1115.9291 732.2226 1604.9037 524288
-1104.3523 730.87958 1601.96 458752
-1095.0543 731.03442 1602.2994 458752
-1084.9868 730.67377 1601.5089 458752
-1073.7976 729.54462 1599.0341 393216
-1062.9567 728.63409 1597.0383 393216
-1051.4847 727.27075 1594.05 393216
-1041.13 726.66223 1592.7163 393216
-1029.9918 725.49066 1590.1484 393216
-1019.2754 724.59735 1588.1904 393216
-1010.2183 724.87781 1588.8053 393216
-999.58582 724.02258 1586.9307 327680
-988.12488 722.54523 1583.6925 393216
-977.33148 721.53223 1581.4723 393216
-966.54028 720.50116 1579.2124 393216
-955.6369 719.36542 1576.723 393216
-944.8158 718.26978 1574.3215 458752
-934.0769 717.21527 1572.0103 524288
-923.86493 716.5481 1570.548 524288
-913.22455 715.53168 1568.3201 524288
-902.6441 714.54169 1566.1503 524288
-892.04773 713.51831 1563.9071 458752
-881.93054 712.86066 1562.4657 393216
-871.38074 711.83563 1560.219 393216
-860.69904 710.67969 1557.6853 393216
-850.18958 709.64221 1555.4115 393216
-840.10565 708.94104 1553.8746 393216
-829.41827 707.70941 1551.175 393216
-818.86774 706.56812 1548.6736 393216
-808.53094 705.5874 1546.5239 393216
-798.49243 704.84735 1544.902 393216
-787.94244 703.63336 1542.2411 393216
-777.17114 702.1908 1539.0792 393216
-767.22217 701.4657 1537.4899 393216
-756.80969 700.29419 1534.9222 393216
-746.54193 699.22961 1532.5889 393216
-736.41803 698.27515 1530.4968 393216
-726.28729 697.29022 1528.338 393216
-715.89197 696.02301 1525.5605 393216
-705.69232 694.91602 1523.1342 393216
-695.46881 693.75641 1520.5925 393216
-685.38776 692.71021 1518.2994 393216
-674.92151 691.24158 1515.0804 262144
-665.3244 690.63538 1513.7517 262144
-655.22736 689.48645 1511.2335 262144
-644.87659 688.03485 1508.0519 262144
-633.6571 685.60236 1502.7203 196608
-624.81946 685.71436 1502.9657 196608
-614.03735 683.66443 1498.4728 196608
-602.56152 680.77051 1492.1296 262144
-591.85266 678.66949 1487.5247 262144
-580.50873 675.76526 1481.1592 262144
-570.8443 674.75696 1478.949 262144
-561.15796 673.69073 1476.6121 262144
-550.5343 671.44733 1471.6949 262144
-538.49414 667.37598 1462.7712 196608
-529.57904 667.10748 1462.1827 393216
-518.35315 663.87048 1455.0878 458752
-506.40961 659.58881 1445.7031 393216
-493.32217 653.64362 1432.6722 1248000
-485.06757 654.00525 1433.465 1313024
-479.96545 658.70642 1443.769 1313024
-472.3418 660.05524 1446.7255 984576
-589.71362 839.36578 1839.7428 524288
-586.98456 851.2804 1865.8575 524288
-568.02301 839.65924 1840.3859 524288
-562.22107 847.41608 1857.3877 524288
-558.19177 858.20959 1881.045 655360
-550.28308 863.35815 1892.3298 655360
-514.39508 823.90717 1805.8602 655360
-517.40607 846.40674 1855.1753 655360
-521.82788 872.2453 1911.809 589824
-501.14243 856.33301 1876.932 524288
-454.14102 793.70288 1739.6578 524288
-448.79163 802.64471 1759.2566 524288
-439.95691 805.63135 1765.8029 458752
-433.77533 813.74127 1783.5782 458752
-439.72086 845.57812 1853.3593 458752
-431.25208 850.62115 1864.4126 458752
-421.36551 853.06012 1869.7584 458752
-411.08722 854.81677 1873.6086 458752
-402.31876 859.89844 1884.7468 458752
-396.40402 871.54572 1910.2755 458752
-386.04391 873.81824 1915.2566 458752
-382.00662 890.9762 1952.8636 458752
-370.85129 892.08789 1955.3004 458752
-363.83319 903.5459 1980.4144 458752
-352.01813 903.45947 1980.2249 458752
-340.30811 903.64594 1980.6337 458752
-328.62341 903.91553 1981.2244 458752
-317.12381 904.73303 1983.0164 458752
-305.43704 905.05927 1983.7313 458752
-293.81439 905.60925 1984.9369 458752
-282.30765 906.57745 1987.0591 458752
-270.73535 907.41089 1988.8856 458752
-259.07315 908.005 1990.188 458752
-248.64423 913.18573 2001.5431 458752
-237.04277 914.36456 2004.1268 458752
-223.53467 907.92407 1990.0105 458752
-211.60738 907.54303 1989.1754 458752
-200.31145 909.98511 1994.528 393216
-187.8045 906.8869 1987.7372 393216
-176.85571 911.40186 1997.6333 458752
-164.80275 910.46735 1995.585 458752
-152.63226 908.68805 1991.6851 458752
-140.44479 906.49963 1986.8885 458752
-126.71793 893.06 1957.4312 458752
-113.93787 884.24823 1938.1172 458752
-104.38909 901.35309 1975.608 458752
-92.089218 896.02972 1963.9402 458752
-80.23983 894.17957 1959.8851 458752
-68.418854 892.07086 1955.2631 458752
-55.720531 875.31598 1918.5392 458752
-44.315216 875.47327 1918.8839 393216
-32.805237 872.95453 1913.3634 458752
-21.383018 871.33545 1909.8148 458752
-9.9936705 868.90344 1904.4841 458752
1.3365231 869.24805 1905.2395 458752
12.614445 865.39014 1896.7836 458752
23.747616 859.93365 1884.824 458752
35.501583 873.24719 1914.005 458752
46.923164 873.9043 1915.4451 458752
58.163334 871.58606 1910.364 458752
69.461945 870.75836 1908.5498 458752
80.523781 867.612 1901.6536 524288
91.802254 867.28741 1900.9421 458752
103.26218 868.56036 1903.7323 458752
114.13799 865.15405 1896.2661 458752
124.61814 859.63129 1884.1613 458752
136.08005 861.2334 1887.6727 393216
146.90457 858.86481 1882.4812 393216
158.22108 859.50439 1883.8832 393216
166.52045 844.75354 1851.5518 393216
178.44875 849.10028 1861.0791 393216
189.39336 848.53204 1859.8336 393216
198.80885 841.55365 1844.5383 393216
207.22578 831.29974 1822.0635 393216
218.82812 834.20831 1828.4386 393216
229.23364 832.49512 1824.6835 327680
238.79196 827.99921 1814.8292 524800
250.03204 829.47137 1818.056 327680
262.79651 835.66888 1831.6399 393216
243.92114 744.76666 1632.3981 458752
282.99683 830.99316 1821.3915 458752
265.85376 751.86682 1647.9604 458752
279.45828 762.23395 1670.6832 458752
294.96753 776.90576 1702.8414 458752
305.02405 776.71838 1702.4307 393216
311.49414 767.70404 1682.6727 393216
323.09152 771.49414 1690.9801 393216
332.69592 770.44019 1688.6699 393216
337.8389 759.41919 1664.5139 459264
345.91669 755.43518 1655.7816 393216
352.70187 748.92706 1641.5168 393216
369.58698 763.63794 1673.7606 393216
372.17923 748.81995 1641.2822 393216
381.25986 747.48035 1638.3461 393472
391.88928 749.16846 1642.046 459008
402.72342 751.15619 1646.4027 393216
415.38651 756.37982 1657.8522 393216
422.79974 752.0235 1648.3038 393216
426.7222 741.79633 1625.8876 459008
436.35712 741.73279 1625.7483 393216
446.17273 741.97247 1626.2737 393216
455.21652 740.94568 1624.0232 393216
471.46753 751.44885 1647.0442 393216
485.81567 758.55316 1662.6157 327680
496.43646 759.67023 1665.0641 393216
506.31616 759.63171 1664.9796 393216
510.6377 751.41571 1646.9717 393216
525.33411 758.48846 1662.4739 393216
535.22418 758.48871 1662.4744 393216
545.09338 758.45978 1662.411 393216
553.92206 757.00995 1659.2332 393216
560.83142 753.03375 1650.5181 393216
570.49579 752.8299 1650.0713 393216
580.44733 753.00543 1650.4561 393216
587.21594 749.11481 1641.9285 327680
595.9306 747.79333 1639.032 262144
604.01196 745.7326 1634.5153 196608
613.18164 745.05945 1633.0398 131072
622.80536 744.95044 1632.8009 0
622.27563 732.88654 1606.3589 0
629.29089 729.93927 1599.899 2
636.25763 727.02435 1593.5101 2
638.69745 719.09839 1576.1377 2
642.47601 712.88708 1562.5237 2
640.60815 700.67706 1535.7615 2
658.10992 709.69849 1555.5347 256
660.92047 702.8465 1540.5164 0
632.08276 662.98639 1453.15 0
667.79889 690.99823 1514.5471 65536
671.50287 685.58105 1502.6736 131072
671.56104 676.63281 1483.0605 196608
679.44568 675.70001 1481.016 262144
672.53857 660.26917 1447.1943 393216
676.23944 655.51123 1436.7657 458752
668.74988 640.15997 1403.1185 458752
637.43494 602.66162 1320.9287 524288
709.04651 662.20319 1451.4333 458752
662.22955 611.03821 1339.2887 393216
717.04932 653.75488 1432.9163 196608
723.59283 651.97015 1429.0044 196608
720.66266 641.78998 1406.6913 65536
706.99121 622.3877 1364.1648 65536
724.66467 630.70654 1382.3983 65536
681.41479 586.40948 1285.3069 65536
722.51715 614.88153 1347.7126 65536
730.46478 614.82281 1347.5839 65536
740.9549 616.88208 1352.0974 65536
707.25946 582.50543 1276.7499 65536
751.20764 612.12787 1341.6771 65536
760.90125 613.50824 1344.7026 65536
769.84009 614.25775 1346.3453 0
774.57941 611.67542 1340.6854 0
776.2854 606.77484 1329.9442 0
787.55011 609.3692 1335.6305 65536
793.35803 607.73163 1332.0414 65536
802.25543 608.46979 1333.6592 0
801.67847 602.07794 1319.6494 196608
813.83911 605.28363 1326.6757 196608
818.4494 602.86609 1321.3768 196608
827.1521 603.48029 1322.7231 262144
837.78955 605.48126 1327.1089 393216
844.59003 604.69763 1325.3914 393216
843.84637 598.57721 1311.9764 458752
848.49774 596.36084 1307.1184 458752
854.24426 594.94733 1304.0204 458752
867.64349 598.84119 1312.5551 393216
864.76727 591.53259 1296.5359 262144
875.26715 593.42206 1300.6772 262144
891.96539 599.44403 1313.8763 196608
890.55225 593.29529 1300.3994 196608
913.97162 603.65381 1323.1034 196608
905.15466 592.72589 1299.1514 65536
918.42944 596.32697 1307.0443 65536
928.99036 598.12036 1310.9751 65536
932.06787 595.10583 1304.3677 65536
940.96356 595.8252 1305.9445 65536
952.4718 598.17358 1311.0917 65536
940.76312 586.02142 1284.4563 65536
955.83221 590.61115 1294.5162 65536
967.23108 592.87787 1299.4844 65536
971.58246 590.82294 1294.9803 65536
1010.8386 609.85913 1336.7043 65536
1018.892 609.9198 1336.8374 65536
1010.1689 600.01483 1315.1273 65536
1002.5618 590.91974 1295.1926 65536
1009.4652 590.45087 1294.1649 65536
1030.0325 597.92084 1310.5377 65536
1036.4564 597.13013 1308.8047 65536
1045.0468 597.59009 1309.8129 196608
1054.6698 598.62933 1312.0907 196608
1055.7468 594.83832 1303.7814 196608
1060.5164 593.16791 1300.1201 196608
1062.0341 589.716 1292.5542 196608
1080.036 595.40112 1305.015 196608
1085.9237 594.37445 1302.7646 262144
1094.7408 594.95428 1304.0356 196608
1112.3735 600.28333 1315.7159 196609
1133.2522 607.27728 1331.0454 262146
1149.3342 611.62164 1340.5675 262146
1155.3374 610.57965 1338.2836 262146
1162.0287 609.91296 1336.8224 262144
1169.9818 609.91321 1336.8229 196608
1161.3007 601.30048 1317.9453 262400
1181.3743 607.5921 1331.7355 1445639
1197.5742 611.82092 1341.0044 1445380
1214.4827 616.35352 1350.9388 1248258
1227.5789 618.9043 1356.5298 1314565
1234.0288 618.09296 1354.7515 1709321
1252.0717 623.06091 1365.6404 1972236
1261.2458 623.58008 1366.7783 3353632
1270.8199 624.28912 1368.3324 3551268
1272.418 621.09576 1361.3331 3287583
1274.3997 618.12885 1354.8302 2432530
1275.9764 615.00415 1347.9813 2630166
1282.7704 614.41736 1346.6952 2103822
1286.5063 612.3822 1342.2345 2234897
1287.6077 609.12579 1335.097 2103567
1295.7444 609.21716 1335.2974 2037262
0 0 0 0
0 0 0 0
0 0 0 0
0 0 0 0
0 0 0 0
0 0 0 0
0 0 0 0
0 0 0 0
0 0 0 0
0 0 0 0
0 0 0 0
0 0 0 0
0 0 0 0
-1336.4921 726.72357 1572.3489 196608
-1329.0789 727.78625 1574.6481 196608
-1334.4124 735.89349 1592.1891 131328
-1324.9591 735.90381 1592.2113 256
-1316.7994 736.63794 1593.7997 65792
-1307.6399 736.81934 1594.1921 131584
-1299.5447 737.60748 1595.8973 256
-1291.4192 738.38989 1597.5902 65792
-1282.0723 738.48035 1597.7859 196608
-1274.4996 739.60168 1600.2122 196608
-1265.6028 739.96582 1601 327680
-1258.2086 741.22064 1603.715 458752
-1249.3135 741.60376 1604.5438 393216
-1239.0883 741.19702 1603.6638 327680
-1228.8575 740.7807 1602.7631 393216
-1219.3702 740.80951 1602.8254 393216
-1210.6211 741.29077 1603.8667 393216
-1201.0266 741.258 1603.7957 393216
-1191.0839 741.008 1603.2549 393216
-1182.3484 741.51111 1604.3434 393216
-1172.7423 741.47192 1604.2585 458752
-1163.6466 741.75739 1604.8762 458752
-1150.9673 739.74445 1600.521 458752
-1144.583 741.77753 1604.9198 458752
-1136.6722 742.84717 1607.2341 524288
-1123.9281 740.74957 1602.6957 524288
-1113.9298 740.4411 1602.0283 524288
-1103.0446 739.53278 1600.063 458752
-1094.0427 739.88232 1600.8193 524288
-1083.7427 739.35229 1599.6726 524288
-1072.2249 737.97473 1596.692 458752
-1061.1157 736.85645 1594.2725 524288
-1050.3058 735.92749 1592.2626 458752
-1039.5631 735.0293 1590.3192 393216
-1028.8619 734.14423 1588.4042 393216
-1018.0816 733.18567 1586.3303 393216
-1007.1058 732.06708 1583.9102 196608
-995.79315 730.68018 1580.9094 196608
-983.89362 728.83215 1576.911 393216
-973.74249 728.2561 1575.6647 393216
-962.83289 727.09613 1573.1549 393216
-951.88684 725.88556 1570.5358 393216
-941.09741 724.77167 1568.1257 458752
-933.46759 726.09314 1570.9849 524288
-923.00342 725.21429 1569.0834 524288
-912.33551 724.15582 1566.7932 458752
-901.83673 723.21118 1564.7494 458752
-891.41809 722.31165 1562.8032 458752
-881.23096 721.58289 1561.2263 393216
-870.4895 720.37976 1558.6233 393216
-860.72479 719.96777 1557.7319 393216
-849.67401 718.45929 1554.4681 393216
-839.20996 717.41931 1552.218 393216
-829.08405 716.64838 1550.55 393216
-818.80853 715.72931 1548.5615 393216
-807.62091 713.98303 1544.7833 393216
-797.5647 713.20831 1543.1071 393216
-787.48438 712.39368 1541.3446 393216
-776.77301 710.9823 1538.2908 393216
-766.57239 710.01025 1536.1877 393216
-756.07837 708.73981 1533.439 393216
-745.82349 707.66522 1531.114 393216
-735.79486 706.78137 1529.2017 393216
-725.58588 705.70001 1526.8621 393216
-715.25549 704.47168 1524.2043 393216
-705.07593 703.36212 1521.8037 393216
-695.00488 702.3335 1519.5781 393216
-685.09009 701.43768 1517.64 393216
-674.72601 700.05182 1514.6415 393216
-665.17316 699.48151 1513.4076 393216
-655.11005 698.35162 1510.963 262144
-644.659 696.77094 1507.543 262144
-634.18732 695.12317 1503.9778 262144
-623.88934 693.62128 1500.7283 262144
-613.64307 692.13409 1497.5106 262144
-604.03088 691.32886 1495.7683 262144
-590.28741 685.70038 1483.5906 262144
-581.03845 685.20142 1482.511 262144
-570.6557 683.32935 1478.4606 262144
-560.76831 682.0011 1475.5867 262144
-550.54565 680.21637 1471.7253 262144
-540.078 678.06653 1467.0737 262144
-527.57416 673.24738 1456.6471 393216
-518.02863 672.10559 1454.1766 458752
-506.66946 668.53204 1446.4449 458752
-496.66443 666.65265 1442.3785 1247744
-485.08258 662.55334 1433.5093 1510400
-478.09827 664.69934 1438.1525 1313024
-532.22717 753.43738 1630.1472 919040
-589.43976 849.91547 1838.8885 458752
-585.43231 860.09979 1860.9235 458752
-576.5166 863.32654 1867.9048 458752
-569.34662 869.34583 1880.9282 524288
-560.7132 873.32697 1889.542 524288
-553.42816 879.61426 1903.1453 458752
-489.54663 794.33142 1718.6261 458752
-515.07892 853.58661 1846.8314 458752
-513.26489 869.11877 1880.437 524288
-503.26907 871.18018 1884.897 524288
-493.94193 874.51917 1892.1215 524288
-450.86887 816.87402 1767.3995 524288
-441.61325 819.20862 1772.4507 458752
-436.36636 829.2757 1794.2321 458752
-439.55756 856.28546 1852.6708 458752
-430.3096 859.82922 1860.338 458752
-420.36841 862.13824 1865.3339 458752
-410.41992 864.55713 1870.5674 458752
-401.40179 869.12524 1880.451 458752
-395.61301 881.14795 1906.4635 458752
-385.37213 883.67163 1911.9237 458752
-374.38684 884.58978 1913.9104 458752
-369.18317 899.65479 1946.5051 458752
-358.37341 901.59167 1950.6958 458752
-350.24652 910.63361 1970.259 458752
-335.92316 903.63312 1955.1128 458752
-327.42133 912.35205 1973.9772 458752
-315.51938 911.89294 1972.9838 458752
-303.89944 912.24487 1973.7451 458752
-292.48856 913.27771 1975.9799 458752
-281.03961 914.27338 1978.1342 458752
-269.76114 915.93488 1981.7289 393216
-258.04672 916.20026 1982.3031 458752
-246.37717 916.65802 1983.2937 458752
-234.60875 916.77551 1983.5479 458752
-222.19986 914.27026 1978.1274 458752
-209.61037 910.70007 1970.4028 458752
-196.86917 906.00879 1960.2527 458752
-185.20781 906.00903 1960.2534 458752
-176.23747 920.05817 1990.65 458752
-164.15259 918.70032 1987.7123 458752
-151.85683 915.85974 1981.5664 458752
-139.76788 913.89355 1977.3123 458752
-126.24171 901.30469 1950.0748 458752
-113.11935 889.34283 1924.194 458752
-103.14095 902.18805 1951.9862 393216
-91.455261 901.46423 1950.4202 393216
-79.880402 901.78113 1951.1058 393216
-67.135719 886.75439 1918.5938 393216
-55.03072 875.75171 1894.7881 393216
-44.145424 883.49048 1911.5319 458752
-32.664639 880.54688 1905.163 458752
-21.255404 877.42883 1898.4167 458752
-9.961833 877.42883 1898.4169 458752
1.3239933 872.32697 1887.3783 458752
12.554994 872.54218 1887.844 458752
23.70023 869.40808 1881.0631 458752
35.504093 884.69617 1914.1404 458752
46.852612 883.96808 1912.5652 458752
58.108078 882.11188 1908.5492 458752
65.914589 837.06354 1811.0818 458752
80.539261 879.09375 1902.019 458752
91.618637 876.83868 1897.14 393216
103.05325 878.10529 1899.8804 393216
110.10081 845.43445 1829.1932 458752
124.38358 869.20093 1880.6147 458752
136.00511 871.9826 1886.6333 590080
141.53844 838.28186 1813.7179 458752
158.2442 870.83875 1884.1583 393216
166.69893 856.68555 1853.5363 393216
179.33524 864.44482 1870.3245 459008
180.51297 819.29077 1772.6285 393216
189.42433 812.2843 1757.4694 393216
209.5024 851.39093 1842.0808 393216
219.61908 848.1402 1835.0475 393216
229.19138 843.19446 1824.3469 524288
239.24922 840.40161 1818.3043 458752
224.97707 756.08411 1635.8738 458752
260.85492 840.31055 1818.1072 524288
272.55621 843.04944 1824.0331 853248
253.56274 754.27112 1631.9512 393216
263.61154 755.24646 1634.0614 458752
