# .PCD v0.7 - Point Cloud Data file format
VERSION 0.7
FIELDS x y z rgb
SIZE 4 4 4 4
TYPE F F F U
COUNT 1 1 1 1
WIDTH 1424
HEIGHT 1
VIEWPOINT 0 0 0 1 0 0 0
POINTS 1424
DATA ascii
1205.4961 416.41644 1857.0776 1907988
1188.4094 406.78622 1814.13 1842192
1196.7347 405.94946 1810.3983 2105107
1201.3251 403.87195 1801.1332 1973264
1221.1877 406.92017 1814.7273 2104593
1225.9583 404.93005 1805.8521 2038803
1223.4441 400.58929 1786.4938 2103829
1227.4756 398.44815 1776.9448 1249289
1218.0574 392.01486 1748.2546 854531
1225.7616 391.15454 1744.418 920066
1234.1604 390.52841 1741.6257 1578509
1243.4768 390.20068 1740.1641 3222559
1244.364 387.25516 1727.028 2893081
1253.1125 386.78433 1724.9282 2827543
1248.5154 382.23529 1704.641 2892568
1247.3472 378.80093 1689.325 2761239
1241.1134 373.89539 1667.4479 2761752
1240.0276 370.6062 1652.7793 2893337
1223.175 362.69366 1617.4919 2761495
1232.7974 362.69366 1617.4919 2696216
1240.8961 362.24887 1615.5083 2828059
1256.7709 364.06354 1623.6011 1972750
1262.3927 362.90302 1618.4255 3354913
1261.0188 359.76425 1604.4277 3223071
1272.0238 360.17776 1606.2719 3223071
1274.0193 358.05304 1596.7963 3288350
1281.5953 357.51654 1594.4037 3485216
1285.6667 356.01746 1587.7183 3090713
1287.3844 353.89316 1578.2448 3156763
1292.1316 352.62646 1572.5956 3091483
1292.5115 350.19464 1561.7505 3157276
1295.7517 348.56702 1554.4918 3420449
1301.6589 347.67477 1550.5128 3025692
1292.4891 342.79639 1528.7567 3288862
1305.9863 343.9559 1533.9279 3552034
1310.6493 342.78885 1528.7231 4274987
1314.6595 341.46829 1522.834 4011815
1321.2498 340.83142 1519.9937 3682850
1328.4017 340.34705 1517.8336 3353628
1333.325 339.30212 1513.1735 3485213
1287.95 325.55722 1451.8759 3353628
1353.689 339.89481 1515.8167 3616800
1358.1479 338.75778 1510.746 3353628
1340.8424 332.24274 1481.691 3485214
1377.0249 338.97986 1511.7365 3551007
1307.3042 319.72876 1425.8828 3419679
1386.5492 336.92365 1502.5663 3617058
1357.6244 327.78195 1461.7974 3222301
1384.7616 332.20599 1481.5272 3485473
1352.1516 322.33127 1437.4893 3353887
1356.2456 321.27539 1432.7803 3617829
1363.2173 320.91003 1431.151 3354657
1370.3014 320.57556 1429.6594 3354400
1366.6804 317.75629 1417.0863 3552037
1363.4443 315.06046 1405.0638 3617827
0 0 0 0
0 0 0 0
0 0 0 0
0 0 0 0
0 0 0 0
0 0 0 0
0 0 0 0
0 0 0 0
0 0 0 0
0 0 0 0
0 0 0 0
0 0 0 0
0 0 0 0
-1452.9031 393.44931 1709.3036 1381128
-1450.8105 395.65176 1718.8718 1644298
-1443.4292 396.43289 1722.2654 1184262
-1446.2158 400.03772 1737.9263 1447433
-1445.5706 402.73834 1749.6589 1513739
-1444.1086 405.24899 1760.5662 1382153
-1426.4186 403.20911 1751.704 1447945
-1432.233 407.83212 1771.7882 1316359
-1430.4917 410.3562 1782.7539 1382154
-1354.3051 391.40283 1700.4128 987397
-1462.4049 425.82498 1849.9565 1118982
-1461.7656 428.86627 1863.1692 1250568
-1461.572 432.08578 1877.156 987396
-1464.321 436.23145 1895.1665 1052676
-1453.0468 436.23145 1895.1665 1052676
-1384.3979 418.87189 1819.7494 1052676
-1337.2944 407.8089 1771.6873 986883
-1395.2334 428.85742 1863.1306 789505
-1370.5636 424.64792 1844.843 723712
0 0 0 0
0 0 0 0
-1179.3888 374.40964 1626.5875 328960
-1153.541 369.23346 1604.1001 1052676
-1140.2947 368.03812 1598.9069 1184774
-1130.6829 368.00555 1598.7655 1052933
-1123.8665 368.88998 1602.6078 987653
-1115.0988 369.14355 1603.7095 855810
-1122.5317 374.81094 1628.3309 921604
-1096.8024 369.40778 1604.8573 855811
-1100.4391 373.88715 1624.3175 592899
-1101.1758 377.45187 1639.8041 658433
-1107.7705 383.1062 1664.3688 658434
-1111.7592 387.95312 1685.4259 790016
-1105.0298 389.11417 1690.4698 921603
-1104.0004 392.32208 1704.4064 790786
-1123.7303 403.03497 1750.9475 527360
-1109.7126 401.7312 1745.2834 658944
-1102.8007 402.99951 1750.7933 527360
-1102.8064 406.84406 1767.4956 921860
-1093.5637 407.31778 1769.5538 593153
-999.2843 375.81943 1632.7122 724483
-993.79181 377.4223 1639.6757 856067
-1047.7323 401.85205 1745.8085 921860
-1004.7141 389.21075 1690.8895 922117
-1012.018 396.00488 1720.406 1185033
-1002.4202 396.25665 1721.4996 856068
-953.01257 380.61432 1653.5431 592897
-949.31036 383.08994 1664.2981 658691
-895.6499 365.24481 1586.7716 790279
-891.37354 367.37277 1596.0165 724486
-886.7608 369.40646 1604.8516 724485
-860.61993 362.41864 1574.4937 856071
-845.05017 359.77762 1563.02 592901
-842.05341 362.49036 1574.8052 263682
-813.11115 353.96936 1537.7865 527108
-800.76013 352.5592 1531.6603 658692
-804.92047 358.46991 1557.3387 263680
-772.72821 348.14014 1512.4622 395521
-745.94281 340.03171 1477.2358 198144
-755.53412 348.50964 1514.0674 198144
-728.08124 339.89841 1476.6566 198144
-718.79095 339.65942 1475.6184 263680
-715.30042 342.18903 1486.608 197888
-696.65131 337.43958 1465.9745 198144
-687.85834 337.4043 1465.8212 329728
-675.07867 335.38742 1457.0591 395521
-670.65277 337.52237 1466.3341 131840
-658.07599 335.55731 1457.7972 66304
-652.97278 337.40158 1465.8093 66048
-636.74103 333.46759 1448.7186 256
-627.87042 333.33371 1448.1368 0
-620.19043 333.83688 1450.323 65792
-614.39972 335.38565 1457.0514 66048
-604.12146 334.49405 1453.1779 263425
-597.76288 335.77829 1458.7572 526854
-588.4408 335.41122 1457.1625 329475
-580.5462 335.85895 1459.1077 263937
-572.07373 335.9809 1459.6375 197888
-562.42316 335.40411 1457.1316 132096
-551.98767 334.33377 1452.4816 198144
-540.55176 332.61383 1445.0095 256
-531.88617 332.5705 1444.8212 66560
-523.31519 332.58585 1444.8879 66048
-514.13666 332.20917 1443.2515 256
-506.39651 332.76489 1445.6658 66048
-498.21194 333.04272 1446.8727 256
-488.45352 332.25977 1443.4712 256
-481.51566 333.4017 1448.4323 256
-473.02249 333.48871 1448.8103 65792
-464.86783 333.82208 1450.2587 262144
-476.45901 348.61572 1514.5282 458752
-486.56445 362.87155 1576.4613 655360
-476.40515 362.27765 1573.8811 655360
-442.05746 342.89731 1489.6852 655360
-481.29868 380.97363 1655.1041 589824
-482.56836 389.95612 1694.1277 524288
-502.85562 415.01749 1803.0043 458752
-507.78336 428.21835 1860.3544 458752
0 0 0 0
0 0 0 0
0 0 0 0
0 0 0 0
0 0 0 0
0 0 0 0
0 0 0 0
0 0 0 0
0 0 0 0
0 0 0 0
-581.8866 645.4549 2804.1179 0
-589.39417 673.07849 2924.1262 256
-569.2995 669.90228 2910.3274 0
-571.16595 693.17926 3011.4521 0
-575.72577 721.33838 3133.7869 0
-560.61316 725.9093 3153.6448 0
-524.44971 702.5954 3052.3596 0
-503.31604 698.46643 3034.4216 65536
-485.24597 698.43988 3034.3062 0
-468.91251 701.00732 3045.4604 196608
-444.38507 691.03931 3002.155 262144
-424.94946 688.48596 2991.0623 327680
-410.19125 693.61877 3013.3613 262144
-393.034 694.97858 3019.269 262144
-375.75909 696.25073 3024.7959 196608
-358.71408 698.09821 3032.822 262144
-339.17014 695.02063 3019.4519 262144
-321.39941 695.43567 3021.2549 262144
-304.46869 697.8252 3031.6357 196608
-287.31351 699.96869 3040.948 262144
-269.93884 701.82959 3049.0327 262144
-252.70641 704.35504 3060.0042 262144
-242.61665 728.72644 3165.8833 196608
-225.06474 732.90033 3184.0164 196608
-198.97635 707.48865 3073.6177 196608
-180.72594 707.62317 3074.2021 196608
-167.61952 730.19659 3172.2705 0
-147.95871 726.32275 3155.4407 196608
-126.85716 713.22278 3098.5293 196608
-107.81436 709.21124 3081.1016 196608
-90.770889 719.40198 3125.3743 196608
-72.00148 717.64032 3117.7209 131072
-53.527096 718.61713 3121.9646 65536
-35.106407 721.73572 3135.5129 65536
-16.455372 721.82117 3135.884 65536
2.1978605 721.17859 3133.0925 131072
21.419571 741.36145 3220.7751 196608
40.425442 738.54199 3208.5261 131072
59.253197 735.32062 3194.5312 460291
76.868874 722.27496 3137.8555 2039320
95.022964 718.39789 3121.012 2434332
112.98808 714.59296 3104.4819 1776663
131.19249 713.15808 3098.248 1118991
149.68454 713.44763 3099.5061 987404
167.98694 712.8689 3096.9919 921611
185.98438 711.23828 3089.908 724488
204.27512 710.92181 3088.533 592902
223.75005 714.43872 3103.8118 790023
239.96518 707.80426 3074.989 1382418
258.63251 708.83044 3079.447 1447954
281.69244 720.9632 3132.1567 1250060
296.52661 711.84369 3092.5378 1381903
313.09357 707.7063 3074.5635 1513232
332.83176 710.79822 3087.9961 1250316
350.07562 708.51849 3078.0918 1447952
368.07419 707.91687 3075.478 1645074
384.65585 704.77606 3061.8333 1447694
397.98395 696.22754 3024.6951 1776660
416.15253 696.52014 3025.9663 1710867
428.95102 688.17322 2989.7039 1710867
459.33301 707.57727 3074.0029 1579281
458.0397 678.5697 2947.9822 1447694
474.92331 677.6369 2943.9297 1513487
490.74448 675.30835 2933.8137 1513488
510.89374 678.89111 2949.3787 1579281
527.40118 677.55737 2943.5842 1316108
573.28912 712.84167 3096.8735 1381902
571.26367 688.20709 2989.8508 1447695
592.0849 691.75275 3005.2546 1447695
610.17554 691.99371 3006.3015 1842455
656.67023 723.5166 3143.2498 1381904
652.64703 699.1745 3037.4978 1645076
718.17615 748.64728 3252.4277 1381648
693.37524 703.83209 3057.7322 1579796
714.32104 706.55768 3069.5735 1382417
735.29517 709.17474 3080.9429 1382417
757.10706 712.45276 3095.1841 1711126
777.47424 714.24799 3102.9832 1382162
800.9527 718.75189 3122.55 1316368
818.11279 717.51025 3117.1558 987660
836.81915 717.64966 3117.7615 987147
855.36658 717.64966 3117.7615 789768
869.49731 714.02277 3102.0049 723975
890.84839 716.35266 3112.1267 657926
903.39453 711.65155 3091.7031 460550
919.69031 710.03296 3084.6714 526085
940.19055 711.66016 3091.7405 0
957.8042 711.08185 3089.228 65536
982.40283 715.6134 3108.9153 131072
989.42932 707.41394 3073.2932 131072
1022.1759 717.56744 3117.4043 196608
1037.9546 715.65997 3109.1174 196608
1052.7886 713.17932 3098.3403 196608
1064.8964 708.96893 3080.0488 65792
1087.2484 711.6059 3091.5049 65792
1100.7075 708.43158 3077.7144 1052938
1107.4331 701.09814 3045.855 921351
1107.5188 689.86499 2997.0537 855558
1121.7637 687.66766 2987.5076 921351
1128.0209 680.71863 2957.3179 921094
1140.2745 677.54608 2943.5352 1184523
1144.7581 669.92224 2910.4143 921094
1157.6638 667.3811 2899.3743 1250059
1156.7379 657.05774 2854.5254 1184266
1165.9563 652.71191 2835.6455 1250059
1176.2748 649.09717 2819.9414 1315851
1163.3973 632.96393 2749.8521 1974293
1154.0917 619.19446 2690.032 2171672
1158.2559 612.92963 2662.8152 2237465
1152.4695 601.63922 2613.7651 1711121
1152.3335 593.55994 2578.6653 1645328
1150.6984 584.93079 2541.1768 921606
1159.366 581.69482 2527.1184 1316363
1176.6147 582.79193 2531.8848 1118985
1167.3481 570.89398 2480.1951 2763809
1182.2253 570.95319 2480.4524 3290152
1182.9984 564.28339 2451.4761 2829601
1185.2543 558.47473 2426.2407 2763810
1192.8805 555.30579 2412.4736 2631711
1191.0404 547.85791 2380.1169 2039318
1194.8527 543.15436 2359.6831 2171161
1200.2372 539.26654 2342.7927 2105368
1202.777 534.20447 2320.801 2171161
1199.3318 526.62927 2287.8914 1907989
1203.4188 522.49445 2269.928 2039575
1197.817 514.29138 2234.2905 1710610
1200.6609 509.8548 2215.0161 1842196
1201.1714 504.53436 2191.9021 2105368
1191.7438 495.19879 2151.3445 2105368
1193.5186 490.6669 2131.6562 2171161
1205.8912 490.54147 2131.1113 1973782
1199.9177 483.03326 2098.4924 1974036
1190.5042 474.30914 2060.5913 2171159
1193.2593 470.56152 2044.3103 2236951
1173.9602 458.28027 1990.9554 2302744
1173.0823 453.36353 1969.5951 2302744
1176.8408 450.31821 1956.3651 2500124
1174.1932 444.90527 1932.8491 2302745
1133.9332 425.48404 1848.4753 2237208
1144.0693 425.16434 1847.0863 2303002
1138.4827 419.06332 1820.5811 2369051
1164.9091 424.74985 1845.2856 2302743
1144.1155 413.27359 1795.4282 2368535
1148.3811 410.97772 1785.454 2170642
1158.3538 410.74762 1784.4545 1841680
1161.527 408.13254 1773.0934 2038803
1165.0547 405.68799 1762.4733 2367767
1162.6412 401.23666 1743.1349 2499095
1189.2958 406.80695 1767.3346 4998975
1180.2992 400.19183 1738.5957 2696476
1201.6591 403.89481 1754.683 2169621
1219.5227 406.36902 1765.4319 2564634
1223.717 404.28494 1756.3779 2104595
1237.5962 405.40872 1761.26 1906960
1235.2303 401.23685 1743.1356 2433302
1248.7126 402.23947 1747.4915 3091232
1251.8505 399.92078 1737.4182 3091231
1255.584 397.82889 1728.3301 3616804
1252.5663 393.6492 1710.172 3156767
1248.9056 389.33646 1691.4355 2959388
1262.032 390.28406 1695.5522 2695959
1227.8745 376.70993 1636.5809 2170129
1222.5325 372.12048 1616.6425 2762266
1218.6257 368.03607 1598.8981 2433301
1238.0734 371.01355 1611.8335 2630681
1258.3386 374.18842 1625.6263 1840908
1263.4037 372.82932 1619.7218 3288610
1266.5831 370.93848 1611.5073 3223072
1270.0928 369.17206 1603.8333 3091741
1277.2893 368.4957 1600.8948 3223328
1280.642 366.72855 1593.2177 3223071
1285.7633 365.49011 1587.8374 3223071
1286.3717 362.99631 1577.0033 3157277
1289.542 361.25626 1569.4438 3091482
1292.4661 359.47278 1561.6956 3091483
1295.9435 357.86752 1554.7218 3223068
1300.6385 356.61893 1549.2974 2894103
1303.5697 354.90762 1541.8628 3354655
1304.8986 352.78708 1532.6503 2828311
1315.8582 353.28159 1534.7986 3157019
1304.3049 347.76672 1510.8397 3354398
1285.517 340.41153 1478.8859 3353885
1328.2982 349.34933 1517.7153 3551264
1287.4354 336.31619 1461.094 3551263
1344.7469 348.93188 1515.9017 3222299
1344.8562 346.63568 1505.926 3551007
1301.0468 333.12473 1447.229 3616800
1377.4283 350.36325 1522.1202 3485214
1379.7712 348.66711 1514.7515 3551264
1388.7823 348.66711 1514.7515 3485471
1359.6066 339.14172 1473.3693 3551264
1361.8383 337.52246 1466.3346 3485471
1401.5608 345.15659 1499.5002 3419677
1390.7394 340.32559 1478.5125 3617057
1384.6666 336.71002 1462.8051 3485473
1393.4215 336.72278 1462.8605 3091485
1377.2799 330.75644 1436.9402 3223071
1397.7479 333.60132 1449.2996 3157022
1370.5503 325.10468 1412.3867 3223071
0 0 0 0
0 0 0 0
0 0 0 0
0 0 0 0
0 0 0 0
0 0 0 0
0 0 0 0
0 0 0 0
0 0 0 0
0 0 0 0
0 0 0 0
0 0 0 0
0 0 0 0
-1457.8403 404.98941 1715.1121 1579275
-1446.1031 404.56027 1713.2946 1381639
-1436.5267 404.7338 1714.0294 1447689
-1430.3746 405.88147 1718.8898 1316360
-1429.7024 408.61182 1730.4528 1447945
-1430.353 411.7626 1743.7963 1447946
-1441.9531 418.13452 1770.781 1316360
-1432.4275 418.4292 1772.0288 1250567
-1458.6235 429.24026 1817.8132 1250568
-1455.5789 431.54373 1827.5682 1250568
-1444.7067 431.54373 1827.5682 1118981
-1389.8348 418.30103 1771.486 1118981
-1461.6738 443.28372 1877.2867 1118982
-1463.7994 447.34628 1894.4916 1118469
-1451.1422 446.91913 1892.6825 921092
-1421.5125 441.21725 1868.5353 1118469
-1395.1827 436.45789 1848.3795 921090
-1380.526 435.3035 1843.4908 1052676
-1354.3549 430.47098 1823.0251 920834
-1286.1035 412.07755 1745.1298 592384
0 0 0 0
-1203.6514 391.98764 1660.05 131840
-1170.9252 384.48441 1628.2742 256
-1176.6462 389.58582 1649.8784 512
-1157.955 386.62219 1637.3276 512
-1147.8855 386.51141 1636.8584 132096
-1139.5543 386.98901 1638.8811 66048
-1124.5697 385.19586 1631.2872 66048
-1118.262 386.36948 1636.2573 66048
-1109.9319 386.8588 1638.3296 256
-1092.3666 384.10941 1626.686 66048
-1083.1685 384.2793 1627.4055 131584
-1075.073 384.84698 1629.8097 0
-1065.8435 385.01541 1630.5229 65792
-1035.7231 377.57111 1598.9967 256
-1026.8555 377.80832 1600.0013 256
-1037.2792 385.2142 1631.3649 256
-1015.0907 380.53439 1611.546 256
-1004.1757 380.0318 1609.4176 256
-992.37994 379.18301 1605.823 256
-981.60437 378.7113 1603.8254 256
-964.96179 375.94458 1592.1084 512
-956.85645 376.48206 1594.3845 66304
-942.76782 374.65256 1586.6367 256
-928.5058 372.71643 1578.4374 66048
-921.9447 373.86362 1583.2955 256
-910.01984 372.83691 1578.9476 0
-905.88812 375.01498 1588.1716 256
-892.68225 373.4429 1581.5139 256
-885.64575 374.44571 1585.7607 256
-868.7049 371.23752 1572.1742 512
-858.31946 370.79138 1570.2849 256
-852.21118 372.20352 1576.2653 256
-835.74689 369.07376 1563.0107 256
-824.24542 368.08984 1558.844 256
-806.96075 364.47153 1543.5205 65536
-806.50531 368.45847 1560.405 256
-784.07361 362.38132 1534.6686 0
-769.25159 359.71945 1523.3956 256
-770.0213 364.37204 1543.0992 256
-758.56885 363.28366 1538.49 256
-748.16821 362.67856 1535.9275 65536
-737.69769 362.02423 1533.1564 65536
-728.24762 361.86053 1532.4631 65536
-714.31439 359.4368 1522.1987 131072
-704.92743 359.26791 1521.4834 0
-693.95557 358.27628 1517.2839 0
-681.27179 356.36304 1509.1815 256
-667.57538 353.862 1498.5896 65536
-657.57605 353.27948 1496.1227 65536
-647.50049 352.6394 1493.4121 131072
-637.995 352.29636 1491.9592 131072
-630.04071 352.81226 1494.144 131072
-614.91168 349.2677 1479.1331 196608
-604.23877 348.18802 1474.5607 131072
-594.79108 347.793 1472.8877 196608
-586.51202 348.07968 1474.1018 131072
-577.86798 348.15515 1474.4215 262144
-568.39563 347.72626 1472.6051 327680
-554.41248 344.48117 1458.8622 458752
-544.12231 343.46396 1454.5544 393216
-536.08429 343.85846 1456.2251 393216
-527.03033 343.60352 1455.1455 393216
-517.04291 342.72137 1451.4097 458752
-506.02121 341.11209 1444.5944 262144
-496.99286 340.81409 1443.3323 196864
-495.90155 346.04416 1465.4814 197376
-483.06122 343.11612 1453.0814 262400
-485.50208 351.1333 1487.0338 393216
-486.34607 358.27176 1517.2648 524288
-450.37772 338.04916 1431.623 655360
-486.56445 372.24985 1576.4613 655360
-478.9245 373.60587 1582.2041 655360
-426.9585 339.74463 1438.8032 655360
-475.37888 386.01282 1634.7469 524288
-474.90933 393.68527 1667.2395 458752
-495.20813 419.26868 1775.584 458752
-507.16275 438.74863 1858.0808 458752
0 0 0 0
0 0 0 0
0 0 0 0
0 0 0 0
0 0 0 0
0 0 0 0
0 0 0 0
0 0 0 0
0 0 0 0
-592.47046 655.39124 2775.5525 65536
-568.10669 646.45612 2737.7126 65536
0 0 0 0
-548.10547 661.63184 2801.981 65536
-552.10913 687.36871 2910.9758 65536
-562.09888 722.46643 3059.6128 65536
-547.74103 727.57202 3081.2349 0
-522.91943 718.65063 3043.4531 0
-490.33447 698.03754 2956.1575 65536
-481.69833 711.25244 3012.1221 0
-461.94403 708.43768 3000.2019 196608
-442.54007 705.95563 2989.6904 262144
-423.80551 704.3783 2983.0105 262144
-405.70236 703.7583 2980.3848 262144
-390.50101 708.34534 2999.8108 262144
-374.8692 712.55353 3017.6323 196608
-356.17606 711.07336 3011.3638 262144
-334.37976 702.91315 2976.8057 262144
-318.06616 706.01019 2989.9214 262144
-302.09305 710.2746 3007.981 196608
-285.08795 712.49695 3017.3926 196608
-270.07202 720.32336 3050.5371 196864
-255.83118 731.49341 3097.8418 196864
-236.98424 730.20526 3092.3865 196608
-224.18918 748.91699 3171.6299 196608
-205.47661 749.48334 3174.0283 262144
-183.79073 738.22162 3126.3352 196608
-167.22595 747.30951 3164.8223 196608
-147.15546 741.04919 3138.3101 196608
-128.33102 740.15637 3134.5288 196608
-108.68169 733.39331 3105.8877 131072
-89.110901 724.49841 3068.2183 65792
-70.429359 720.11322 3049.647 65792
-52.959347 729.3703 3088.8506 65792
-34.619301 730.11572 3092.0073 196608
-16.971277 763.69165 3234.2 196608
2.2570565 759.74316 3217.478 196608
21.384199 759.26575 3215.4563 196608
39.528107 740.81201 3137.3054 196608
58.736034 747.74097 3166.6494 394240
76.71479 739.45667 3131.5657 2302490
95.040428 737.09991 3121.5852 2500125
112.6223 730.68823 3094.4319 2302746
130.30141 726.62024 3077.2041 2171673
149.39124 730.45227 3093.4326 2237980
168.63335 734.10669 3108.9089 2040345
185.84178 729.06061 3087.5388 2171931
203.11798 725.16412 3071.0376 1908759
221.75914 726.38184 3076.1946 1908759
239.71584 725.34271 3071.7939 1777173
257.65823 724.41064 3067.8467 1908500
275.32974 722.89056 3061.4092 1974292
293.32501 722.35651 3059.1475 1908500
311.83615 723.08105 3062.2158 1908244
329.3671 721.57819 3055.8511 2039832
345.93646 718.23608 3041.6975 1908246
364.17282 718.5152 3042.8796 1710866
378.56854 711.54913 3013.3787 1711124
396.36563 711.31702 3012.3958 1710868
418.9632 719.34735 3046.4038 1447696
429.08328 706.17651 2990.6257 1447696
458.63623 724.76331 3069.3401 987402
456.08752 693.14026 2935.418 1118731
470.3309 688.42822 2915.4626 1118733
491.67529 694.0755 2939.3787 789768
511.97336 697.90857 2955.6116 657667
524.69751 691.50537 2928.4941 526339
539.95966 688.75098 2916.8296 460803
561.13367 693.47437 2936.8328 197376
601.88989 721.38232 3055.0217 196864
581.59161 676.62354 2865.4702 262656
622.84998 703.9895 2981.3638 327680
0 0 0 0
667.35419 713.64838 3022.2688 262144
691.68695 720.26428 3050.2869 262144
708.77924 719.19513 3045.7593 327680
729.39734 721.66766 3056.2302 327680
748.7749 722.82251 3061.1208 327680
761.67969 717.82239 3039.9456 327680
779.11536 717.2251 3037.416 327680
0 0 0 0
0 0 0 0
0 0 0 0
0 0 0 0
0 0 0 0
0 0 0 0
0 0 0 0
928.4411 720.92938 3053.1035 393216
896.23523 682.56885 2890.6484 393216
968.80365 723.94611 3065.8792 393216
943.78113 692.21613 2931.5042 458752
961.2959 692.27045 2931.7341 458752
995.14197 703.87415 2980.8752 393216
990.27081 688.16583 2914.3513 393216
1008.4004 688.70691 2916.6428 393216
1060.5612 712.07886 3015.6218 262144
1078.8358 712.29999 3016.5583 131072
1098.5885 713.47382 3021.5295 394753
1093.037 698.44061 2957.8645 1381902
1101.9103 692.95508 2934.6335 658435
1120.1868 693.46173 2936.7793 855302
1132.1893 690.12872 2922.6641 723972
1143.7363 686.62286 2907.8169 986887
1144.7554 676.99536 2867.0449 1184266
1154.9703 673.00916 2850.1636 1381645
1159.4991 665.8728 2819.9414 1381645
1173.1243 664.08936 2812.3884 1316107
1167.4011 651.55725 2759.3157 1316362
1165.7876 641.63458 2717.2937 1447947
1147.3568 622.85394 2637.7583 2237463
1148.4656 615.04419 2604.6843 2632221
1152.7543 609.12256 2579.6067 1908500
1159.2552 604.51031 2560.074 1908500
1150.2435 592.03314 2507.2339 1711378
1155.6017 587.17694 2486.668 1250569
1163.9202 583.92877 2472.9121 1184262
1172.0999 580.69281 2459.208 1250312
1171.0924 573.04126 2426.804 2434584
1179.5465 570.14935 2414.5569 3290149
1184.2036 565.51379 2394.9255 3092771
1189.7367 561.40186 2377.5117 2698014
1187.0023 553.53119 2344.1797 2895392
1201.9812 554.00745 2346.1968 2303256
1185.1184 539.96515 2286.7283 2105366
1191.3042 536.62384 2272.5779 2039574
1197.2037 533.22998 2258.2048 2039575
1197.3975 527.39825 2233.5078 2171161
1189.4215 518.13574 2194.2815 1973782
1208.9705 520.93445 2206.134 2105368
1191.0475 507.70016 2150.0874 2105368
1196.5999 504.64752 2137.1597 2105368
1188.0962 495.79346 2099.6631 2105368
1178.6694 486.74243 2061.3323 2368540
1178.2015 481.53928 2039.2972 2302745
1180.8207 477.69107 2023.0002 2302744
1174.6582 470.40384 1992.1392 2171159
1150.5298 456.13934 1931.7297 2302745
1139.2559 447.20297 1893.8844 2368538
1143.9735 444.65741 1883.1041 2500124
1131.8318 435.6716 1845.0497 2302745
1114.7981 424.99347 1799.8282 2303258
1113.0587 420.29364 1779.9247 2434844
1123.6473 420.29364 1779.9247 2894881
1125.7172 417.13696 1766.5563 3881776
1119.1406 410.86438 1739.9922 4276534
1129.9489 411.03067 1740.6964 4276276
1140.0659 410.94476 1740.3326 4144435
1145.2987 409.11575 1732.5868 3882033
1157.6379 409.83514 1735.6335 5658445
1172.5538 411.44601 1742.4554 6053207
1173.413 408.13943 1728.4521 4402209
1195.3199 412.14758 1745.4264 2628370
1205.1587 411.9614 1744.6379 2497554
1214.3905 411.57266 1742.9918 2432535
1230.2363 413.41312 1750.786 2695704
1237.3777 412.32214 1746.1658 3616806
1242.6594 410.63486 1739.0201 3551013
1251.7358 410.21906 1737.2592 3222560
1263.6451 410.7308 1739.4264 3879974
1258.2623 405.65927 1717.9489 3683364
1237.5992 395.78293 1676.1229 3420450
1246.89 395.56705 1675.2087 3090715
1223.6536 385.11743 1630.9551 2433301
1223.9719 382.18726 1618.5458 2762266
1222.0859 378.61984 1603.4381 2104336
1235.6196 379.84796 1608.639 2235923
1247.4557 380.53931 1611.5669 2038544
1263.4877 382.49033 1619.8293 2499094
1261.3879 378.96442 1604.8973 2828059
1266.5117 377.64542 1599.3114 2959645
1276.6353 377.82574 1600.0751 2828313
1278.4358 375.55838 1590.4729 2959899
1283.6637 374.32382 1585.2446 3157278
1286.635 372.45404 1577.326 3091485
1288.4323 370.27386 1568.0931 3025692
1293.113 368.94781 1562.4774 3157278
1294.9976 366.84851 1553.587 3420193
1302.6941 366.41376 1551.7458 3157277
1302.8232 363.87158 1540.9799 3354655
1312.2833 363.95282 1541.3239 3288862
1320.1135 363.58405 1539.7621 3419677
1323.739 362.07028 1533.3513 3353885
1309.7097 355.78125 1506.7177 3288092
1334.8263 360.13947 1525.1744 3353371
1326.084 355.36523 1504.9558 3551007
1346.0239 358.28979 1517.3412 3353628
1357.0714 358.82416 1519.6042 3551007
1350.3555 354.68567 1502.0779 3682592
1384.53 361.27133 1529.9679 3616800
1347.743 349.37561 1479.5901 3551264
1402.9661 361.33127 1530.2217 3485471
1369.0945 350.33456 1483.6511 3617057
1404.4211 357.07227 1512.1849 3485471
1410.1898 356.25696 1508.7323 3288092
1413.6213 354.86526 1502.8385 3287836
1406.7317 350.91644 1486.1154 3486242
1414.4874 350.64743 1484.9762 3354657
1367.8132 336.97247 1427.0634 3157277
1347.3418 329.88174 1397.0343 3223069
1386.0028 337.26706 1428.3109 3157275
0 0 0 0
0 0 0 0
0 0 0 0
0 0 0 0
0 0 0 0
0 0 0 0
0 0 0 0
0 0 0 0
0 0 0 0
0 0 0 0
0 0 0 0
0 0 0 0
0 0 0 0
-1456.3685 414.77335 1713.3805 1381896
-1446.7988 414.95212 1714.1189 1381896
-1433.1031 413.94156 1709.9445 1447689
-1443.2742 419.85962 1734.3912 1382153
-1425.835 417.77304 1725.7719 1513739
-1417.4778 418.33658 1728.0996 1382153
-1440.5176 428.24207 1769.0181 1250566
-1423.6631 426.34622 1761.1865 1250567
-1441.8246 434.98627 1796.8776 1382153
-1405.5641 427.21405 1764.7716 1316359
-1404.1444 429.99429 1776.2565 1118982
-1470.2876 453.66351 1874.0312 1184774
-1460.2744 454.01651 1875.4894 1184774
-1405.51 440.3541 1819.0516 1381384
-1447.3374 456.97726 1887.72 1250055
-1317.0638 419.09695 1731.2407 1250054
-1374.8245 440.92459 1821.4082 986885
-1272.2301 411.26248 1698.8776 987396
-1263.8915 411.83859 1701.2573 790017
-1279.5198 420.2966 1736.1963 789760
-1228.166 406.711 1680.0758 263424
-1200.0391 400.65714 1655.0681 256
-1189.105 400.29083 1653.5548 65792
-1180.5079 400.71167 1655.2933 196864
-1167.9263 399.7757 1651.4269 65792
-1150.6312 397.19678 1640.7737 131328
-1138.4037 396.33798 1637.2262 131072
-1124.2532 394.78912 1630.828 196608
-1117.9777 396.00272 1635.8412 196608
-1100.8263 393.35147 1624.8892 196608
-1094.3918 394.51654 1629.7019 196608
-1086.495 395.17056 1632.4036 196608
-1077.3357 395.37305 1633.24 196608
-1068.2325 395.60004 1634.1777 196608
-1054.9597 394.27283 1628.6951 196608
-1044.2998 393.90659 1627.1824 65536
-1033.7114 393.56076 1625.7537 65536
-1022.7455 393.06326 1623.6986 131072
-1003.8154 389.46634 1608.8401 65792
-1002.408 392.66415 1622.0499 196608
-974.54376 385.45969 1592.2891 196608
-963.72626 384.92242 1590.0698 196608
-953.99573 384.81299 1589.6178 196608
-942.07257 383.80807 1585.4666 196608
-925.92761 381.04547 1574.0544 65792
-914.38379 380.13922 1570.3109 131072
-906.03461 380.55612 1572.0331 131072
-898.5965 381.36835 1575.3882 131072
-887.83112 380.77072 1572.9196 131328
-875.7746 379.60068 1568.0863 262400
-867.50317 380.06378 1569.9993 327680
-856.92108 379.51361 1567.7266 458752
-846.28418 378.92679 1565.3025 589824
-837.48932 379.16089 1566.2695 524288
-830.12054 380.0531 1569.9552 524288
-826.24121 382.58142 1580.3994 524288
-800.05774 374.72137 1547.9304 524288
-786.19336 372.51535 1538.8176 458752
-779.24957 373.5751 1543.1953 458752
-769.87366 373.48026 1542.8035 458752
-757.67297 371.99622 1536.6731 524288
-746.56299 371.01797 1532.6321 589824
-735.96979 370.27554 1529.5652 655360
-725.29694 369.47397 1526.2539 655360
-716.02142 369.37286 1525.8364 720896
-705.69971 368.7226 1523.1501 524288
-694.62537 367.65701 1518.7484 458752
-684.31952 366.97549 1515.9331 393216
-672.1629 365.27002 1508.8879 393216
-662.06927 364.6546 1506.3457 458752
-646.39801 360.90805 1490.8693 458752
-636.3678 360.25076 1488.1539 524288
-627.39874 360.18408 1487.8785 458752
-616.38544 358.92517 1482.6781 458752
-606.82025 358.48514 1480.8605 458752
-596.10913 357.34521 1476.1515 524288
-587.73364 357.59229 1477.1721 458752
-579.06311 357.66458 1477.4708 458752
-569.7793 357.35452 1476.1899 524288
-556.95087 354.77682 1465.5417 524288
-547.14307 354.07184 1462.6295 524288
-537.2016 353.25613 1459.26 524288
-528.64008 353.33603 1459.5901 458752
-517.9549 351.97546 1453.9697 393216
-506.7865 350.23477 1446.7791 656384
-498.52707 350.479 1447.788 788736
-491.40314 351.5441 1452.1877 854528
-485.45062 353.50034 1460.2688 656640
-484.88422 359.52148 1485.1414 458752
-486.34607 367.29788 1517.2648 589824
-483.02246 371.68597 1535.3915 720896
-486.56445 381.62811 1576.4613 720896
-478.9245 383.01831 1582.2041 720896
-425.54422 347.15027 1434.0374 720896
-478.88931 398.66013 1646.8186 655360
-474.90933 403.60361 1667.2395 589824
0 0 0 0
-497.12216 440.89722 1821.2952 458752
0 0 0 0
0 0 0 0
-433.00772 410.90094 1697.384 393216
0 0 0 0
0 0 0 0
0 0 0 0
0 0 0 0
0 0 0 0
0 0 0 0
-524.73639 595.08765 2458.2378 65536
0 0 0 0
0 0 0 0
0 0 0 0
0 0 0 0
0 0 0 0
0 0 0 0
0 0 0 0
-479.67294 700.06348 2891.8806 65536
-478.27554 723.99017 2990.719 0
-467.53946 735.08313 3036.543 196608
-433.34271 708.69958 2927.5557 196608
-417.98566 712.20758 2942.0466 196608
-400.79337 712.75842 2944.3223 196608
-383.33643 712.86755 2944.7729 196608
-365.59958 712.44165 2943.0134 196608
-349.39633 715.11169 2954.0432 196608
-329.33649 709.75323 2931.908 196608
-310.05649 705.57007 2914.6279 196608
-291.07385 701.60809 2898.2615 196608
-274.49573 703.30798 2905.2834 196608
-270.63791 740.01813 3056.9287 196608
-253.43349 742.89398 3068.8086 196608
-232.67708 734.99597 3036.1829 196608
-214.61501 734.99597 3036.1829 196608
-195.66017 731.65747 3022.3921 196608
-178.28078 734.13092 3032.6094 196608
-160.40034 734.86566 3035.6448 196608
-141.85402 732.34906 3025.2488 196608
-123.38915 729.58282 3013.8218 196608
-105.32649 728.65851 3010.0037 196608
-88.274284 735.77783 3039.4126 256
-71.616211 750.69617 3101.0386 131328
-53.101387 749.75122 3097.1353 131072
-34.29715 741.54462 3063.2346 196608
-16.252508 749.77283 3097.2244 196608
2.129987 735.03351 3036.3379 196608
20.286749 738.44666 3050.4373 262144
38.443295 738.63251 3051.2051 262144
58.861797 768.22052 3173.4297 196608
76.624146 757.19037 3127.8655 1051912
94.134315 748.46558 3091.8242 920841
112.90845 751.00012 3102.2942 855304
130.39096 745.43842 3079.3193 526595
147.91275 741.44366 3062.8176 657924
166.66911 743.83514 3072.6965 460803
185.55602 746.27887 3082.7913 198146
204.33809 747.89929 3089.4851 263681
220.60892 740.8194 3060.2388 197378
240.09334 744.78766 3076.6313 197634
256.0607 738.0564 3048.8252 131840
274.58224 739.09076 3053.0981 65536
292.8638 739.39081 3054.3374 65536
310.01535 736.96954 3044.3354 131072
321.94077 723.0777 2986.95 196608
291.49051 620.44189 2562.9734 327680
0 0 0 0
0 0 0 0
0 0 0 0
301.47476 530.66394 2192.1108 327680
0 0 0 0
0 0 0 0
0 0 0 0
0 0 0 0
0 0 0 0
0 0 0 0
0 0 0 0
0 0 0 0
0 0 0 0
0 0 0 0
0 0 0 0
0 0 0 0
0 0 0 0
0 0 0 0
0 0 0 0
0 0 0 0
0 0 0 0
0 0 0 0
0 0 0 0
0 0 0 0
0 0 0 0
0 0 0 0
0 0 0 0
0 0 0 0
0 0 0 0
0 0 0 0
0 0 0 0
0 0 0 0
0 0 0 0
0 0 0 0
0 0 0 0
0 0 0 0
0 0 0 0
0 0 0 0
0 0 0 0
0 0 0 0
0 0 0 0
1077.3865 717.33215 2963.2158 393216
1093.4851 716.33026 2959.0771 262144
1105.0814 712.45746 2943.0789 854791
1116.8088 708.7887 2927.9236 1118475
1128.2277 705.03967 2912.437 1052169
1140.2001 701.74487 2898.8264 1052424
1155.6613 700.66339 2894.3589 921094
1160.298 693.14722 2863.3105 986887
1158.2858 681.93408 2816.9905 1052680
1169.8252 678.90546 2804.4795 1184521
1155.1244 660.94763 2730.2979 921605
1156.0021 652.27808 2694.4849 987398
1159.0078 645.02997 2664.5437 1382156
1160.8103 637.31683 2632.6816 1316363
1152.8615 624.52661 2579.8467 1842963
1149.3777 614.45941 2538.2603 2566430
1144.6396 603.99152 2495.0188 2105879
1151.2761 599.71674 2477.3601 2171416
1162.9661 598.14923 2470.8848 1776398
1168.1311 593.3067 2450.8811 1710349
1169.8226 586.84119 2424.1726 1381897
1187.4634 588.43652 2430.7629 1513225
1190.493 582.84033 2407.6455 1974290
1190.0913 575.71704 2378.2202 2895135
1191.7853 569.76312 2353.6252 3290150
1197.2618 565.73492 2336.9851 3355686
1197.2587 559.2395 2310.1533 2960673
1185.6458 547.53021 2261.7834 2631453
1190.3645 543.54095 2245.3044 1842451
1192.1492 538.31537 2223.7183 2039572
1203.1562 537.32318 2219.6196 2171160
1184.6141 523.29926 2161.6885 2434333
1184.3984 517.58527 2138.0845 2171161
1184.2791 512.03436 2115.1543 2302234
1175.0763 502.71411 2076.6536 2170904
1197.6515 507.04141 2094.5291 2170904
1215.4762 509.28912 2103.8142 2171158
1179.2999 489.09512 2020.395 2237208
1174.047 482.00403 1991.1025 2039573
1132.2854 460.21573 1901.0975 2171159
1121.0817 451.15576 1863.6719 2236952
1121.8707 447.05219 1846.7206 2434330
1111.1711 438.49451 1811.3698 2434331
1102.038 430.71347 1779.2273 2434331
1107.9894 428.91992 1771.8182 3552812
1114.6371 427.42719 1765.652 3092260
1111.5681 422.27106 1744.3527 1842196
1117.9019 420.74927 1738.0663 2303003
1131.0642 421.80188 1742.4146 2565918
1135.0232 419.43442 1732.6349 2368797
1142.9811 418.57407 1729.0807 2434075
1153.701 418.73148 1729.7311 2696733
1163.4189 418.52567 1728.8809 4538421
1162.9489 414.69052 1713.0383 3613465
1183.1245 418.22006 1727.6184 2366991
1196.6337 419.35263 1732.2969 2498322
1208.6978 419.96365 1734.821 2432531
1221.2122 420.71954 1737.9435 2630168
1232.3656 420.99783 1739.093 3090718
1238.5228 419.57883 1733.2313 3485989
1248.4697 419.45654 1732.7262 3749160
1255.5983 418.39713 1728.3499 4078636
1254.7026 414.70273 1713.0887 4012586
1248.6694 409.38351 1691.1156 3683620
1249.0725 406.24261 1678.141 3485986
1222.3654 394.40427 1629.2382 3091485
1222.6658 391.39771 1616.8185 2630680
1221.3451 387.92328 1602.4659 2762266
1234.9009 389.19113 1607.7034 1906957
1244.5953 389.2319 1607.8717 1709578
1262.6543 391.86795 1618.761 2564887
1262.261 388.78079 1606.0083 2433301
1266.3315 387.10449 1599.0837 2696473
1269.5211 385.18597 1591.1584 2696473
1273.5493 383.5484 1584.3938 2762267
1274.6119 381.04831 1574.0663 2893852
1280.4138 379.99115 1569.6992 2893849
1285.5042 378.73972 1564.5297 2762520
1291.4908 377.7684 1560.5173 2893592
1295.8687 376.34372 1554.6321 2893593
1300.6405 375.05283 1549.2997 3025693
1307.064 374.25302 1545.9957 3091485
1313.0051 373.32733 1542.1718 3157275
1310.1592 369.93332 1528.1515 3288861
1321.2961 370.50702 1530.5215 3222812
1313.9271 365.91913 1511.5695 3420704
1331.7803 368.37009 1521.694 3419934
1339.1664 367.91229 1519.8029 3682849
1346.2002 367.3645 1517.54 3354141
1317.5198 357.14285 1475.3156 3419421
1319.7909 355.39108 1468.0792 3485214
1379.4089 369.00308 1524.3088 3353628
1326.225 352.45895 1455.9669 3551264
1395.5095 368.46567 1522.0887 3617057
1332.833 349.64807 1444.3555 3419678
1371.1012 357.38318 1476.3083 3485471
1418.6364 367.41989 1517.7689 3353885
1416.9219 364.65503 1506.3474 3353628
1394.301 356.57822 1472.9832 3288606
1399.1189 355.57568 1468.8418 3157276
1422.6206 359.30444 1484.2449 3223069
1408.429 353.52594 1460.3745 3288605
1403.9794 350.2486 1446.8362 3288861
0 0 0 0
0 0 0 0
0 0 0 0
0 0 0 0
0 0 0 0
0 0 0 0
0 0 0 0
0 0 0 0
0 0 0 0
0 0 0 0
0 0 0 0
0 0 0 0
0 0 0 0
-1453.7476 424.20139 1710.297 1579275
-1437.7675 422.49533 1703.4187 1447689
-1438.6802 425.76443 1716.5989 1447689
-1443.073 430.11746 1734.1495 1447689
-1432.0914 429.91776 1733.3444 1579275
-1418.4008 428.896 1729.2247 1513482
-1437.2596 437.77353 1765.0172 1250567
-1412.5684 433.41922 1747.4615 1250567
-1454.675 449.64792 1812.8926 1382154
-1448.3444 451.035 1818.485 1184775
-1395.5759 437.87274 1765.4174 1382154
-1461.8683 462.15039 1863.2999 1053189
-1417.6382 451.59186 1820.73 1184006
-1404.2524 450.77191 1817.4242 1052676
-1424.288 460.75079 1857.6572 1250311
-1400.9078 456.73126 1841.4512 1184518
-1370.9913 450.50049 1816.33 987396
-1340.2273 443.89001 1789.6779 921603
-1280.397 427.46973 1723.4744 724224
-1223.61 411.80856 1660.3317 526848
-1237.6299 419.91666 1693.0219 460800
-1195.325 408.89044 1648.5664 460800
-1186.1409 409.10538 1649.433 65792
-1184.427 411.92188 1660.7885 196864
-1169.2919 410.07889 1653.3579 196864
-1156.9833 409.20425 1649.8315 196608
-1143.3086 407.82739 1644.2803 196864
-1134.3021 408.10632 1645.4049 262144
-1115.7318 404.91925 1632.5552 262144
-1107.4598 405.44641 1634.6807 262144
-1098.7655 405.82687 1636.2147 196608
-1086.496 404.88196 1632.4049 262144
-1077.7681 405.25168 1633.8955 262144
-1066.5017 404.66489 1631.5298 196608
-1054.899 403.9386 1628.6014 196608
-1044.136 403.52328 1626.927 196608
-1022.9184 399.02206 1608.7791 196608
-1012.2549 398.59174 1607.0439 196608
-999.11688 397.16949 1601.3097 196608
-988.19507 396.60931 1599.0511 262144
-977.76099 396.23593 1597.5458 196608
-966.96283 395.70618 1595.41 393216
-960.01837 396.75861 1599.6532 393216
-948.24805 395.81769 1595.8596 458752
-937.8175 395.4227 1594.267 458752
-925.52905 394.22821 1589.451 458752
-918.95935 395.47012 1594.4584 393216
-906.49762 394.1759 1589.2402 393216
-896.11188 393.76666 1587.5901 393216
-882.14459 391.75806 1579.4919 393216
-872.13409 391.48236 1578.3804 393216
-865.90399 392.91605 1584.1608 458752
-854.90253 392.19244 1581.2433 524288
-842.83044 390.95605 1576.2584 524288
-825.17084 387.07089 1560.5942 524288
-823.40717 390.63861 1574.9785 524288
-801.35883 384.55429 1550.4478 524288
-790.94238 383.97519 1548.1129 524288
-780.31909 383.28082 1545.3134 524288
-766.21869 380.84161 1535.479 524288
-756.34613 380.47031 1533.9819 524288
-748.08221 380.90909 1535.751 524288
-739.44421 381.16583 1536.7861 524288
-728.86267 380.41461 1533.7574 524288
-718.53082 379.77634 1531.184 524288
-707.28387 378.63177 1526.5693 524288
-693.96313 376.33286 1517.3005 524288
-687.42346 377.6991 1522.809 524288
-669.95221 373.01541 1503.9253 524288
-660.40686 372.67761 1502.5632 524288
-649.83582 371.7438 1498.7983 524288
-639.40997 370.86823 1495.2682 524288
-632.52234 372.0491 1500.0293 524288
-625.24261 373.02985 1503.9834 524288
-616.47882 373.14084 1504.4309 524288
-604.56628 371.32111 1497.0941 524288
-596.03876 371.55713 1498.0458 458752
-581.44385 367.9606 1483.5453 458752
-572.15521 367.66302 1482.3455 458752
-559.8844 365.40976 1473.2607 524288
-545.54028 361.71021 1458.3448 524288
-536.64948 361.56525 1457.7604 524288
-529.27246 362.45215 1461.3362 458752
-518.33319 360.88846 1455.0317 393216
-508.8439 360.29837 1452.6526 787968
-500.32272 360.38519 1453.0027 854528
-493.914 362.02347 1459.6079 1052160
-485.58762 362.28961 1460.6809 1117184
-481.10431 365.48495 1473.564 787456
-484.71155 375.05923 1512.1655 589824
-478.59033 377.32559 1521.303 720896
-484.5838 389.4147 1570.0441 720896
-476.33102 390.30566 1573.6362 720896
-477.83276 399.38544 1610.244 720896
-476.1929 406.15714 1637.5461 655360
-474.90933 413.52191 1667.2395 655360
-494.10843 439.41641 1771.641 524288
-496.7742 451.41583 1820.0204 458752
0 0 0 0
0 0 0 0
-382.34497 371.74094 1498.7867 393216
0 0 0 0
0 0 0 0
0 0 0 0
0 0 0 0
0 0 0 0
0 0 0 0
-502.92499 584.36804 2356.0576 65536
0 0 0 0
0 0 0 0
0 0 0 0
0 0 0 0
0 0 0 0
0 0 0 0
-475.16931 685.93152 2765.5417 256
-462.93207 692.23407 2790.9524 65536
-478.1904 741.64972 2990.1868 0
-446.83496 719.79498 2902.0728 196608
-425.91074 713.66229 2877.3469 196608
-414.28644 723.25165 2916.0093 196608
-397.43304 724.15137 2919.6367 196608
-376.53528 717.42737 2892.5269 262144
-370.1861 739.10675 2979.9341 262144
-343.67023 720.67749 2905.6309 262144
-318.53247 703.33899 2835.7253 262144
-302.85696 706.12305 2846.9502 262144
-292.01453 721.17279 2907.6277 262144
-286.98282 753.37177 3037.4478 262144
-268.94995 753.47473 3037.8628 262144
-244.01453 732.86163 2954.7549 196608
-232.82945 753.55115 3038.1711 262144
-217.14253 761.92688 3071.9402 262144
-194.20496 744.06219 2999.9133 262144
-180.58389 761.88855 3071.7859 262144
-162.16048 761.18665 3068.9558 196608
-143.84135 760.85828 3067.6318 196608
-124.5574 754.58929 3042.3567 196608
-102.64174 727.53503 2933.2791 262144
-84.251663 719.50604 2900.9077 262144
-66.194283 710.91357 2866.2646 262144
-50.020977 723.61401 2917.4702 196608
-32.216854 713.68384 2877.4338 393216
-14.984961 708.28564 2855.6692 393216
1.8410032 650.9209 2624.386 393216
16.946123 632.005 2548.1206 393216
33.637318 662.1748 2669.7595 327680
50.701706 677.98242 2733.4927 262144
68.327469 691.79645 2789.188 262144
75.315979 613.5564 2473.7395 262144
99.376167 677.23492 2730.4788 262144
120.1041 703.50238 2836.384 262144
132.91789 682.65228 2752.3206 262144
146.78625 671.19769 2706.1379 196608
158.87946 654.69244 2639.592 393216
171.95114 644.82574 2599.8113 393216
174.82683 601.50726 2425.1597 458752
188.45947 598.98212 2414.9788 458752
205.87228 607.97827 2451.2495 458752
220.8354 609.02838 2455.4834 458752
244.44838 632.32312 2549.4031 393216
262.09985 638.3761 2573.8076 393216
262.23297 603.44794 2432.9841 327680
263.00598 573.56915 2312.5188 393216
277.62488 575.35541 2319.7205 458752
280.47205 553.73157 2232.5374 458752
293.50565 553.26477 2230.6555 524288
312.83563 564.19385 2274.7192 458752
311.87207 539.13495 2173.6868 458752
333.29489 553.23016 2230.5159 393216
340.51346 543.57129 2191.5732 327680
337.03918 518.18506 2089.2207 327680
344.97366 511.52115 2062.3533 393216
366.20767 524.35803 2114.1091 393216
391.00058 541.26917 2182.2915 393216
402.12408 538.77863 2172.2502 262144
0 0 0 0
0 0 0 0
0 0 0 0
402.35083 477.6799 1925.912 393216
413.60251 477.44269 1924.9557 393216
0 0 0 0
422.40561 462.02057 1862.7767 393216
428.2767 456.46713 1840.3864 393216
434.60693 451.66772 1821.036 458752
442.96542 449.15839 1810.9189 458752
450.00589 445.4635 1796.0219 458752
583.79492 564.49927 2275.9507 458752
462.76224 437.32443 1763.2065 458752
468.24683 432.69974 1744.5608 458752
479.18094 433.20224 1746.5867 458752
655.78174 580.27527 2339.5564 458752
0 0 0 0
0 0 0 0
0 0 0 0
0 0 0 0
0 0 0 0
0 0 0 0
0 0 0 0
0 0 0 0
0 0 0 0
0 0 0 0
0 0 0 0
0 0 0 0
0 0 0 0
0 0 0 0
0 0 0 0
0 0 0 0
1109.911 721.72144 2909.8398 131072
1125.6859 720.73828 2905.8757 789766
1138.1919 717.72345 2893.7207 789508
1137.8259 706.80267 2849.6902 986888
1142.5447 699.3147 2819.5002 855301
1167.7312 704.38977 2839.9619 1052680
1156.149 687.45715 2771.6929 986887
1163.177 681.91089 2749.3315 1316109
1177.4316 680.69629 2744.4343 987144
1193.5668 680.58716 2743.9944 1185033
1158.2682 651.54846 2626.9163 1513229
1143.8956 634.89758 2559.783 1381643
1148.8199 629.25385 2537.0286 1381643
1150.6649 622.09174 2508.1523 1908243
1147.1099 612.23083 2468.395 2435100
1156.9619 609.68433 2458.1282 2435098
1164.6313 606.06567 2443.5383 2105877
1171.2864 602.01471 2427.2058 1842705
1181.9635 600.10468 2419.5046 1645326
1178.5428 591.16888 2383.4773 1447946
1180.0419 584.88403 2358.1382 1250311
1184.2203 580.05927 2338.6855 1513482
1189.4196 575.84076 2321.6775 3092514
1193.4524 571.16089 2302.8091 3618086
1190.2983 563.18677 2270.6589 3552291
1195.5564 559.32715 2255.0977 3157536
1184.5742 548.03967 2209.5889 2960414
1184.9911 542.21576 2186.1079 2762780
1184.0638 535.90997 2160.6843 1775886
1186.3149 531.16272 2141.5442 1973521
1177.8352 521.7627 2103.6453 2433561
1212.192 531.33679 2142.2461 2367767
1212.6187 525.9939 2120.7046 2104342
1182.6152 507.69739 2046.9366 2170389
1179.2999 501.11432 2020.395 2499353
1180.0951 496.39301 2001.3596 2367511
1186.2577 494.00128 1991.7167 2039316
1123.2135 463.12164 1867.2159 2171159
1113.5702 454.64926 1833.057 2434333
1111.2504 449.30225 1811.4989 2763298
1112.4061 445.4498 1795.9664 3815987
1102.1899 437.16019 1762.5443 2302748
1104.1012 433.79144 1748.9624 2367768
1115.9967 434.3718 1751.3021 2301975
1122.1466 432.72574 1744.6656 2367768
1129.4065 431.53403 1739.8608 2499353
1134.1814 429.42307 1731.3499 2499354
1142.4695 428.6683 1728.3069 2499354
1156.4517 430.0444 1733.855 2630683
1154.2596 425.43472 1715.2697 2104338
1160.4661 423.97421 1709.3812 3288097
1176.3018 426.02658 1717.6559 2366738
1192.0411 428.00894 1725.6484 2498837
1203.9287 428.58627 1727.9761 2630422
1215.991 429.21545 1730.5129 2366994
1230.3724 430.6459 1736.2802 3024667
1235.7878 428.9404 1729.4039 3682854
1250.6393 430.51126 1735.7373 4077355
1254.3259 428.24454 1726.5983 3814696
1251.5378 423.82205 1708.7677 3946538
1250.3442 420.0065 1693.384 4077355
1240.158 413.25519 1666.1642 3485474
1220.6392 403.52585 1626.9374 2893336
1223.2787 401.21713 1617.629 2696215
1216.5085 395.88232 1596.1202 2894107
1228.0903 396.55609 1598.8367 1841163
1243.535 398.45724 1606.5018 2104592
1258.5189 400.18289 1613.4594 1973006
1261.5654 398.11536 1605.1233 3025951
1265.3749 396.31778 1597.8757 2367765
1268.8832 394.45337 1590.359 2433554
1271.2228 392.25595 1581.4994 2367762
1273.89 390.19119 1573.1747 2696727
1279.8331 389.15265 1568.9874 3024922
1285.7958 388.13501 1564.8845 2827543
1288.6735 386.20746 1557.1129 3024922
1293.2795 384.82172 1551.526 2959129
1298.9905 383.78201 1547.3341 2893335
1303.9471 382.53571 1542.3092 3025692
1311.9669 382.19913 1540.9523 3156764
1313.8883 380.103 1532.501 3090715
1316.556 378.25015 1525.0308 2894106
1326.6041 378.52863 1526.1534 3223071
1334.4677 378.18414 1524.7645 2959129
1334.6321 375.67719 1514.657 3682852
1342.7502 375.42764 1513.6509 3946024
1351.28 375.29578 1513.1193 3748645
1342.7117 370.4483 1493.5752 3617059
1366.998 374.66956 1510.5944 3288351
1376.6282 374.84479 1511.3009 3551264
1392.1532 376.61252 1518.428 3353884
1407.3964 378.28165 1525.1577 3485471
1412.8544 377.31625 1521.2654 3222298
1422.7023 377.52795 1522.119 2959127
1421.3259 374.7774 1511.0293 3353885
1425.2233 373.4433 1505.6504 3222815
1430.5936 372.50934 1501.8849 3157278
1372.9656 355.28482 1432.439 3091485
1430.5748 367.909 1483.3372 3354657
1435.6249 366.94431 1479.4478 3420450
0 0 0 0
0 0 0 0
0 0 0 0
0 0 0 0
0 0 0 0
0 0 0 0
0 0 0 0
0 0 0 0
0 0 0 0
0 0 0 0
0 0 0 0
0 0 0 0
0 0 0 0
-1451.4512 433.68973 1707.5955 1381896
-1445.7665 435.03586 1712.8958 1710861
-1419.7849 430.25034 1694.0535 1513482
-1432.6604 437.25583 1721.6366 1316103
-1426.6342 438.55176 1726.7391 1250310
-1413.2167 437.57785 1722.9047 1381896
-1423.1932 443.88629 1747.7432 1447688
-1487.353 467.31131 1839.9761 1381896
-1444.1973 457.11627 1799.8345 1315848
-1445.4926 460.94366 1814.9043 1381641
-1425.8494 458.10144 1803.7135 1578764
-1380.0083 446.73541 1758.9612 1249799
-1415.1256 461.60364 1817.5029 1184262
-1403.6493 461.38538 1816.6436 1315848
-1346.718 446.10651 1756.485 1118982
-1351.6716 451.24872 1776.7317 1118982
-1363.6909 458.8493 1806.6582 921602
-1336.2535 453.18903 1784.3715 724226
-1325.2225 453.04688 1783.8118 526848
-1281.3937 441.59943 1738.739 592640
-1259.9978 437.75952 1723.62 197632
-1209.5397 423.67682 1668.171 591616
-1199.4459 423.61682 1667.9348 196608
-1177.7179 419.41257 1651.3812 262400
-1163.854 417.96179 1645.6688 262400
-1149.0552 416.14774 1638.5264 262144
-1136.2875 415.04456 1634.1827 262144
-1124.8722 414.42059 1631.726 393216
-1116.6443 414.97031 1633.8904 393216
-1106.558 414.83292 1633.3495 327680
-1097.6193 415.12717 1634.5079 393216
-1087.993 415.16434 1634.6543 458752
-1076.1678 414.35547 1631.4695 393216
-1065.2734 413.89355 1629.6508 393216
-1055.4725 413.85187 1629.4867 393216
-1042.9457 412.73074 1625.0724 393216
-1031.8384 412.15561 1622.8079 393216
-1017.9537 410.44977 1616.0913 458752
-1008.6014 410.55634 1616.5109 458752
-998.96454 410.54791 1616.4778 458752
-988.43201 410.16772 1614.981 393216
-977.14917 409.46567 1612.2167 393216
-965.14685 408.44519 1608.1986 393216
-952.83673 407.27274 1603.5822 458752
-937.64648 404.83304 1593.9762 458752
-932.81036 406.85962 1601.9557 458752
-921.37756 406.02109 1598.6541 458752
-910.71979 405.51019 1596.6423 458752
-898.7326 404.39029 1592.2329 458752
-885.66388 402.75476 1585.7932 458752
-871.97638 400.79956 1578.0948 458752
-864.80817 401.83099 1582.156 458752
-850.90771 399.72256 1573.8544 524288
-834.27661 396.27017 1560.2611 524288
-814.60266 391.27853 1540.6072 524288
-822.80817 399.71707 1573.8328 524288
-794.19232 390.25626 1536.5822 524288
-783.2149 389.34341 1532.9878 524288
-773.0553 388.82034 1530.9283 524288
-764.91492 389.31253 1532.8662 524288
-753.43195 388.09479 1528.0717 524288
-743.55273 387.68353 1526.4523 524288
-733.8103 387.33426 1525.0771 524288
-723.29065 386.56091 1522.0321 524288
-714.17438 386.52744 1521.9004 524288
-706.13818 387.08521 1524.0966 524288
-694.68811 385.76178 1518.8856 458752
-683.8609 384.75388 1514.9171 458752
-680.74512 388.11557 1528.1534 524288
-672.66632 388.70044 1530.4562 524288
-658.46198 385.71307 1518.694 524288
-648.89386 385.39624 1517.4464 524288
-632.81232 381.14734 1500.7169 524288
-621.98962 379.98965 1496.1587 589824
-615.20905 381.30359 1501.3322 589824
-605.37488 380.73578 1499.0966 589824
