# .PCD v0.7 - Point Cloud Data file format
VERSION 0.7
FIELDS x y z rgb
SIZE 4 4 4 4
TYPE F F F U
COUNT 1 1 1 1
WIDTH 1343
HEIGHT 1
VIEWPOINT 0 0 0 1 0 0 0
POINTS 1343
DATA ascii
-1322.9501 687.49994 1589.7971 65792
-1306.8905 684.04437 1581.8063 65536
-1299.8381 685.28735 1584.6807 256
-1290.5144 685.34229 1584.8077 256
-1281.2556 685.4328 1585.017 256
-1292.6063 696.63177 1610.9139 256
-1285.942 698.21667 1614.5789 256
-1278.0044 699.12885 1616.6881 256
-1272.2108 701.23663 1621.5623 65536
-1263.2625 701.62433 1622.4589 0
-1256.8479 703.43628 1626.6488 65536
-1245.5845 702.54138 1624.5795 65536
-1232.8757 700.81091 1620.5779 196608
-1222.8116 700.56842 1620.0171 196608
-1212.5787 700.22449 1619.2218 262144
-1197.9547 697.31909 1612.5033 327680
-1193.6141 700.40094 1619.6299 393216
-1183.6346 700.1972 1619.1587 393216
-1173.7449 700.04364 1618.8036 393216
-1164.0946 700.03156 1618.7756 458752
-1157.1121 701.63696 1622.488 524288
-1147.9749 701.95178 1623.2161 524288
-1137.5288 701.46478 1622.09 524288
-1125.9747 700.2804 1619.3511 524288
-1114.1893 698.93048 1616.2295 524288
-1102.0992 697.36432 1612.6078 524288
-1090.6189 696.15973 1609.8224 458752
-1080.913 696.07648 1609.6299 524288
-1068.8119 694.43567 1605.8356 458752
-1057.744 693.4425 1603.5389 458752
-1046.369 692.22821 1600.731 393216
-1035.7563 691.50043 1599.048 393216
-1024.4559 690.29584 1596.2625 393216
-1013.2515 689.13391 1593.5756 393216
-1001.97 687.89716 1590.7156 393216
-991.33167 687.08258 1588.832 458752
-980.17346 685.88861 1586.071 458752
-968.80591 684.52344 1582.9142 458752
-953.75812 680.50568 1573.6233 524288
-948.30084 683.31879 1580.1285 524288
-934.55579 680.15668 1572.8163 524288
-924.02014 679.28986 1570.8119 524288
-920.97467 683.96802 1581.6298 393216
-902.93134 677.48944 1566.6486 458752
-900.27325 682.5401 1578.3279 524288
-890.10529 681.9436 1576.9485 458752
-879.46814 680.97107 1574.6996 393216
-868.00305 679.32965 1570.9039 393216
-857.79987 678.65088 1569.3344 393216
-846.88818 677.3905 1566.4198 393216
-815.03461 659.16516 1524.2748 393216
-805.05573 658.41992 1522.5516 393216
-806.96625 667.49237 1543.531 393216
-790.80835 661.65613 1530.035 393216
-778.91095 659.29004 1524.5637 393216
-768.69409 658.3075 1522.2916 393216
-758.01819 656.90369 1519.0454 458752
-749.08856 656.99762 1519.2626 458752
-737.91144 655.09863 1514.8712 393216
-727.14819 653.52454 1511.2313 393216
-719.56677 654.80658 1514.1959 393216
-709.7688 654.07849 1512.5122 393216
-701.65399 654.90265 1514.4181 393216
-691.29395 653.62543 1511.4646 458752
-681.24084 652.60852 1509.113 458752
-671.22748 651.60303 1506.788 458752
-660.09863 649.47284 1501.8621 458752
-651.01385 649.323 1501.5155 458752
-641.11157 648.34216 1499.2474 458752
-631.48022 647.61157 1497.558 458752
-621.15668 646.13995 1494.155 458752
-613.3429 647.27429 1496.7781 458752
-601.95874 644.61865 1490.637 458752
-591.32269 642.69672 1486.1926 458752
-581.32574 641.42151 1483.2439 458752
-571.14508 639.90118 1479.7283 393216
-560.7337 638.0708 1475.4956 393216
-552.35669 638.53394 1476.5665 393216
-542.36206 637.11182 1473.278 393216
-531.0365 634.05389 1466.2068 393216
-518.42877 629.33734 1455.3 458752
-507.47495 626.50238 1448.7444 458752
-496.83322 623.96149 1442.8688 1576704
-485.63358 620.61823 1435.1377 1248000
-478.38052 622.28906 1439.0015 1248256
-485.40604 642.93329 1486.7397 1182464
-580.33801 782.93903 1810.4935 458752
-574.99628 790.40155 1827.7501 458752
-558.65247 782.73657 1810.0254 524288
-549.58014 785.15875 1815.6265 458752
-557.40912 812.30811 1878.4077 524288
-549.26331 816.81213 1888.8229 589824
-535.77222 813.38934 1880.9078 524288
-506.14413 784.79932 1814.7954 524288
-488.18588 773.45203 1788.5555 524288
-477.8093 773.87872 1789.5422 524288
-472.43582 782.61267 1809.7389 458752
-478.71317 811.50427 1876.5487 458752
-462.89413 803.42383 1857.8633 458752
-461.17642 820.02179 1896.245 458752
-449.60605 819.49377 1895.0239 458752
-436.85333 816.72803 1888.6283 458752
-426.96286 819.30865 1894.5958 458752
-422.34103 832.41351 1924.9 458752
-402.32449 815.06097 1884.7736 458752
-375.44968 782.42133 1809.2963 458752
-380.82816 817.05304 1889.38 458752
-370.31595 818.6615 1893.0995 458752
-359.05371 818.66095 1893.098 458752
-348.54904 820.44342 1897.22 458752
-338.09882 822.47766 1901.924 458752
-327.92184 825.34052 1908.5441 458752
-316.83511 826.03687 1910.1544 458752
-305.63983 826.49139 1911.2056 458752
-289.17841 812.19061 1878.1359 458752
-277.37869 810.35938 1873.9012 458752
-267.88269 815.38696 1885.5272 458752
-253.7709 806.19037 1864.2607 458752
-242.78122 806.52484 1865.0342 458752
-233.39409 812.47003 1878.7821 458752
-221.53938 809.99139 1873.0504 458752
-211.48273 814.1723 1882.7184 458752
-199.94498 812.80011 1879.5454 458752
-188.68814 812.47479 1878.7931 458752
-176.47327 807.72369 1867.8065 458752
-165.2057 806.96124 1866.0433 458752
-158.38344 829.36652 1917.854 458752
-144.31815 814.37836 1883.1948 458752
-134.27525 821.47589 1899.6074 458752
-122.28582 816.87469 1888.9675 458752
-110.99306 816.46716 1888.0251 458752
-100.74554 824.52234 1906.6521 458752
-89.285873 823.44232 1904.1548 458752
-77.700325 820.71881 1897.8567 458752
-65.756584 812.64258 1879.181 458752
-55.318851 823.68182 1904.7086 458752
-43.524864 815.01239 1884.6611 458752
-32.276337 814.08453 1882.5154 458752
-20.301842 784.13098 1813.2499 393216
-9.8349371 810.50336 1874.2343 393216
1.3117844 808.66107 1869.9741 393472
12.396426 806.078 1864.001 393216
23.406723 803.38239 1857.7676 393472
34.155773 796.3252 1841.4481 393216
44.711704 789.28638 1825.1714 393216
55.119884 782.8996 1810.4025 393216
66.143562 785.91418 1817.3733 393216
76.937073 785.73096 1816.9497 393216
86.258476 772.41071 1786.1476 393216
97.160286 774.61212 1791.2382 393216
107.52994 772.55499 1786.4812 393216
117.42072 767.737 1775.3398 393216
128.0901 768.38477 1776.8379 459008
137.18924 760.23236 1757.986 459008
145.66008 749.99976 1734.3237 393216
155.64531 748.40259 1730.6304 393216
173.59506 782.92419 1810.4591 393216
176.43192 749.23395 1732.5529 393216
188.37093 755.78247 1747.6958 458752
206.0849 783.60419 1812.0319 458752
208.07935 751.86035 1738.6262 458752
217.67778 749.29742 1732.6996 458752
228.09152 749.64581 1733.5054 458752
238.69005 750.54517 1735.585 393216
0 0 0 0
258.94376 749.39893 1732.9344 458752
265.64722 739.3634 1709.7279 458752
278.71048 747.11627 1727.6559 458752
291.28159 753.04535 1741.3665 393216
309.3298 772.24072 1785.7544 459008
316.6391 764.24188 1767.2577 393216
319.10965 745.45367 1723.8112 393216
331.48169 750.24548 1734.892 327680
344.1882 755.48212 1747.0013 393216
354.76743 755.87933 1747.9199 327680
364.54526 754.59509 1744.9501 459008
378.3067 761.39948 1760.6848 525056
375.96906 736.30841 1702.6635 328448
396.91983 756.94586 1750.3862 262400
396.5209 736.85425 1703.9257 327680
414.05655 750.26123 1734.9283 722176
423.76981 749.18683 1732.444 393216
433.62256 748.40424 1730.6342 393216
437.43411 737.47302 1705.3564 393728
449.30219 740.31201 1711.9215 327680
457.23788 736.68939 1703.5444 393216
471.16968 742.67517 1717.3861 458752
485.62723 749.21802 1732.516 393216
494.4758 747.01526 1727.4224 524288
504.3017 746.34863 1725.8807 589824
499.83041 724.9715 1676.4475 458752
511.85666 727.89124 1683.1992 458752
524.79498 731.97101 1692.6335 458752
530.49725 725.99457 1678.8134 393216
536.57184 720.73907 1666.6603 458752
543.91553 717.34808 1658.8188 393216
551.646 714.5788 1652.4153 393216
553.82001 704.83514 1629.8837 196608
560.68695 701.29645 1621.7007 262144
563.81305 693.27771 1603.1578 131072
541.53461 654.80731 1514.1976 196608
559.27026 665.18805 1538.2024 131072
550.69031 644.43903 1490.2217 65536
573.14569 660.0907 1526.4152 0
608.00391 689.3158 1593.9962 0
614.08441 685.51794 1585.2139 0
602.41333 662.31812 1531.5659 66048
613.81189 664.79553 1537.2947 0
623.24677 665.10461 1538.0094 0
628.52032 661.02814 1528.5829 65536
0 0 0 0
639.16528 653.31915 1510.7563 65536
647.42474 652.58545 1509.0597 65536
657.78412 653.95947 1512.2371 65536
663.61102 650.85114 1505.0492 65536
666.59497 645.07434 1491.6908 65536
673.38525 643.08435 1487.0891 196608
665.78882 627.58484 1451.2476 393216
697.71356 649.25873 1501.3668 655360
672.55548 617.93756 1428.9387 983040
659.94049 598.77875 1384.6354 1376256
663.51941 594.60437 1374.9824 1310720
660.82239 584.97601 1352.7175 917504
675.36896 590.66016 1365.8617 655360
685.39813 592.30536 1369.6661 262144
697.43701 595.62823 1377.35 196608
708.62439 598.15515 1383.1934 196608
714.83484 596.47125 1379.2994 196608
725.95569 598.87628 1384.861 196608
734.07922 598.78259 1384.6443 196608
717.51263 578.7749 1338.3778 65536
738.77081 589.38245 1362.9071 65536
734.82886 579.87366 1340.9186 65536
741.41071 578.78448 1338.4 65536
750.64435 579.76654 1340.671 0
757.80121 579.14087 1339.2241 0
764.75592 578.37537 1337.4539 0
773.25189 578.77917 1338.3877 0
780.17401 578.00873 1336.6061 0
788.01154 577.92523 1336.4131 0
799.11951 580.21802 1341.7148 0
823.46936 591.98486 1368.9249 65536
814.44666 579.76495 1340.6672 262144
821.40247 579.04608 1339.005 196608
827.27985 577.58807 1335.6334 524288
850.57025 588.19958 1360.1718 786432
863.04639 591.20306 1367.1172 1048576
863.1662 585.76514 1354.5424 1114112
875.6568 588.74542 1361.434 1310720
864.84796 576.14923 1332.3062 983040
872.31512 575.84644 1331.606 720896
879.26208 575.2088 1330.1315 458752
885.29846 573.99219 1327.3181 393216
892.26849 573.39703 1325.9419 196608
896.62219 571.14569 1320.7358 196608
906.99249 572.73279 1324.4059 131072
913.32275 571.76337 1322.1641 196608
921.41016 571.90106 1322.4825 65536
936.23267 576.18146 1332.3806 65536
958.22925 584.76801 1352.2365 65536
952.21503 576.26001 1332.5624 65536
952.36542 571.59247 1321.7689 65536
962.95044 573.21271 1325.5156 65536
982.60468 580.16138 1341.584 65536
1000.9642 586.23987 1355.64 131072
1007.9991 585.6416 1354.2566 196608
1015.98 585.59802 1354.1559 196608
1000.7437 572.27844 1323.3552 196608
1009.4072 572.72723 1324.3929 196608
1027.5094 578.48297 1337.7028 196608
1025.0842 572.68225 1324.2891 65536
1061.5653 588.53998 1360.9589 131072
1040.666 572.58624 1324.067 196608
1046.027 571.2124 1320.8901 196608
1081.6877 586.28174 1355.7368 196608
1089.6587 586.23102 1355.6196 262144
1040.3746 555.60443 1284.7977 262144
1141.3593 605.08923 1399.2279 591616
1135.1917 597.46222 1381.5909 525824
1176.7845 614.90094 1421.9169 1182979
1191.201 617.9917 1429.0641 1249028
1234.8344 636.08893 1470.9126 1314821
1226.9248 627.56738 1451.2072 1446407
1243.085 631.3905 1460.0479 1446407
1245.8169 628.38745 1453.1035 1314822
1249.5266 625.91553 1447.3873 2104338
1241.6155 617.69623 1428.3807 2959645
1252.179 618.7171 1430.7415 3091232
1253.7906 615.33087 1422.911 3091231
1257.4403 612.98352 1417.4829 2696474
1263.4545 611.8125 1414.775 2367252
1265.7123 608.84998 1407.9244 2432787
1276.2483 609.88239 1410.3118 2564374
1272.0105 603.88739 1396.4487 2235153
1268.9452 598.52325 1384.0446 2563862
1273.3522 596.72998 1379.8977 1248520
1278.6105 595.35608 1376.7207 1182722
1281.2468 592.7865 1370.7788 1708809
1277.7087 587.41095 1358.3481 1577480
1282.5278 585.92084 1354.9023 1445637
1277.4314 579.94775 1341.0901 2892568
1284.8335 579.68793 1340.4891 4142635
1294.7064 580.53925 1342.4578 4800306
1306.7382 582.3421 1346.6267 4997686
0 0 0 0
0 0 0 0
0 0 0 0
0 0 0 0
0 0 0 0
0 0 0 0
0 0 0 0
0 0 0 0
0 0 0 0
0 0 0 0
0 0 0 0
0 0 0 0
0 0 0 0
-1343.3787 692.86023 1580.4509 65536
-1334.7979 693.28674 1581.4238 65536
-1326.4113 693.82092 1582.6423 65792
-1334.1929 702.88049 1603.3076 65792
-1325.8199 703.4986 1604.7177 65792
-1299.2932 694.42328 1584.0164 256
-1287.5865 693.19397 1581.2122 256
-1278.1731 693.19019 1581.2036 256
-1267.7251 692.62122 1579.9058 256
-1261.2023 694.20416 1583.5165 256
-1247.7422 691.96381 1578.4061 256
-1237.4271 691.44684 1577.2269 0
-1253.5664 705.81689 1610.0059 131072
-1218.1184 691.13867 1576.524 196608
-1234.9574 706.12952 1610.7189 196608
-1224.6593 705.71692 1609.7778 262144
-1219.9294 708.5318 1616.1986 262144
-1209.7174 708.18213 1615.401 262144
-1200.6514 708.50305 1616.1331 393216
-1191.6575 708.87213 1616.9749 393216
-1180.5037 707.95178 1614.8756 393216
-1170.5391 707.73547 1614.3822 393216
-1161.3461 707.98602 1614.9536 458752
-1153.8469 709.28186 1617.9095 458752
-1144.9446 709.72974 1618.9312 393216
-1133.8296 708.80194 1616.8148 458752
-1122.5791 707.77295 1614.4677 655360
-1110.7509 706.35876 1611.2418 655360
-1099.4689 705.27032 1608.759 655360
-1088.7434 704.52289 1607.0541 524288
-1077.8824 703.67371 1605.1171 524288
-1067.2133 702.93573 1603.4337 458752
-1056.2594 701.9953 1601.2885 458752
-1044.5475 700.52917 1597.9442 393216
-1033.3407 699.37817 1595.3187 393216
-1022.6034 698.52643 1593.3759 393216
-1010.794 696.91956 1589.7106 393216
-999.13019 695.38379 1586.2073 393216
-988.05267 694.23059 1583.5768 393216
-977.8031 693.64258 1582.2355 458752
-968.12714 693.45392 1581.8052 524288
-956.73706 692.02173 1578.5383 524288
-946.00677 691.04315 1576.306 524288
-931.98096 687.61353 1568.4829 524288
-920.48218 685.9978 1564.7974 524288
-912.60162 687.07318 1567.2504 458752
-903.22754 687.03473 1567.1626 458752
-894.33844 687.3681 1567.9231 393216
-884.42407 686.91229 1566.8834 393216
-870.66437 683.42841 1558.9364 393216
-860.86804 683.01398 1557.9911 393216
-850.42401 682.07104 1555.8403 393216
-839.48547 680.70642 1552.7275 393216
-835.5329 685.03912 1562.6106 393216
-816.0434 676.58752 1543.332 393216
-803.66626 673.90759 1537.219 393216
-788.05157 668.41992 1524.7013 393216
-778.35352 667.88129 1523.4727 393216
-768.80548 667.46027 1522.5122 327680
-758.42255 666.29565 1519.8557 393216
-748.17371 665.22217 1517.4071 393216
-738.80847 664.91779 1516.7126 393216
-729.28369 664.46039 1515.6694 393216
-718.60907 662.93091 1512.1805 393216
-709.72565 663.03595 1512.4202 393216
-699.27783 661.66345 1509.2894 458752
-689.96802 661.34607 1508.5654 458752
-679.46393 659.86041 1505.1766 458752
-672.90863 662.22131 1510.5619 458752
-662.75586 661.0578 1507.9078 458752
-651.93634 659.18817 1503.6431 393216
-641.63092 657.79352 1500.4619 393216
-632.39117 657.46753 1499.7183 393216
-623.28088 657.26862 1499.2646 393216
-613.37543 656.21332 1496.8574 393216
-601.82129 653.3371 1490.2966 393216
-591.17535 651.37561 1485.8223 393216
-580.82471 649.68488 1481.9656 393216
-571.21985 648.789 1479.9221 393216
-561.46576 647.69299 1477.422 393216
-551.53766 646.35815 1474.3772 327680
-541.03467 644.29559 1469.6724 393216
-529.53979 640.9646 1462.0743 393216
-518.91724 638.59595 1456.6711 458752
-508.05533 635.84729 1450.4014 458752
-496.40625 632.0014 1441.6287 1248256
-487.33191 631.35602 1440.1566 1116672
-478.27081 630.70496 1438.6714 1248512
-534.39044 717.55139 1636.7728 590592
-584.56396 799.48926 1823.6774 393216
-586.68652 817.56543 1864.9102 393216
-573.33209 814.3551 1857.5872 458752
-570.87061 826.7948 1885.9628 524288
-566.03876 836.23151 1907.4885 524288
-546.85156 824.41284 1880.5294 524288
-541.229 832.97699 1900.0646 524288
-525.72107 826.36792 1884.9889 524288
-519.78198 834.83966 1904.3135 524288
-502.50598 825.07465 1882.0389 458752
-493.42181 828.62122 1890.129 458752
-473.75211 814.14215 1857.1016 458752
-476.89752 839.11554 1914.067 458752
-461.15784 831.26898 1896.1686 458752
-448.53726 828.7923 1890.519 458752
-436.79691 827.85645 1888.3844 458752
-434.19324 844.6449 1926.6798 458752
-421.65515 842.49426 1921.774 458752
-413.8952 850.03687 1938.9791 458752
-401.54684 848.31818 1935.0587 393216
-389.57895 847.32562 1932.7947 393216
-368.7287 826.36633 1884.9854 393216
-367.55276 849.56763 1937.9089 393216
-355.9122 849.30023 1937.299 458752
-343.96191 848.25128 1934.906 458752
-326.48615 833.03107 1900.1881 458752
-314.49524 831.21588 1896.0476 458752
-312.3656 856.29871 1953.2628 458752
-293.04883 834.38354 1903.2731 458752
-282.30359 836.0932 1907.1729 458752
-276.69879 853.80756 1947.5804 458752
-253.82849 817.46625 1864.6838 458752
-243.37825 819.63055 1869.6206 458752
-240.62851 849.17706 1937.0179 458752
-229.0513 848.97693 1936.5614 458752
-216.12209 843.479 1924.0203 458752
-205.50378 846.88953 1931.7998 458752
-196.95926 859.75635 1961.1498 458752
-182.98793 849.06317 1936.7582 458752
-171.18875 847.68896 1933.6235 458752
-163.35217 867.15216 1978.0201 458752
-147.43036 843.38501 1923.8059 458752
-135.61142 841.06335 1918.5101 458752
-122.92725 832.45581 1898.8759 458752
-111.33105 830.21948 1893.7745 458752
-100.63895 834.98059 1904.6349 393216
-87.613777 819.13696 1868.4948 393216
-77.560989 830.51697 1894.4534 393216
-66.970161 839.02582 1913.8624 393216
-54.530899 823.11914 1877.5784 458752
-43.48806 825.52557 1883.0675 458752
-32.400002 828.44543 1889.7281 393216
-21.097042 826.05389 1884.2728 393216
-9.7278814 812.70923 1853.8329 393472
1.2917002 807.23413 1841.3439 393216
12.387537 816.58093 1862.6644 393216
23.393536 813.9754 1856.7211 393216
33.558121 793.15411 1809.2267 393216
44.34103 793.51068 1810.04 393216
54.412495 783.48395 1787.1685 393216
65.011879 783.09387 1786.2788 393216
75.032043 776.81677 1771.9603 393216
85.455376 775.74603 1769.5178 393216
95.787521 774.17316 1765.9301 393216
106.29138 774.16187 1765.9043 393216
116.53518 772.42877 1761.951 393216
126.5121 769.35883 1754.9482 393216
136.21085 765.19421 1745.4486 393216
149.83235 782.09558 1784.0016 327680
155.93799 760.12469 1733.8848 393216
166.39565 760.77789 1735.3748 393216
176.19263 758.51062 1730.203 393216
186.9985 760.59723 1734.9626 393216
197.17363 760.03424 1733.6783 393216
0 0 0 0
215.15845 750.81366 1712.6459 393216
225.02193 749.73108 1710.1764 393216
236.1075 752.6377 1716.8065 393216
241.5993 738.21143 1683.8994 393216
259.06888 760.07507 1733.7716 327680
262.48465 740.61115 1689.3733 393216
272.41879 740.29639 1688.6553 393216
287.07709 752.38525 1716.2307 393216
297.64343 753.28772 1718.2893 393216
315.99484 773.17883 1763.6619 393216
315.22174 746.50128 1702.809 393216
329.60464 756.25952 1725.0681 393216
339.37753 755.17047 1722.5839 393216
350.93524 758.00031 1729.0389 393216
360.31079 756.08984 1724.681 393216
372.27957 759.57635 1732.6339 327680
379.96689 754.37463 1720.7686 656640
392.27457 758.37836 1729.9012 459008
388.53409 731.94476 1669.6049 393216
403.17801 740.59943 1689.3466 393216
419.89984 752.55713 1716.6228 459008
427.89624 748.68042 1707.7798 327680
438.81528 749.97858 1710.741 459264
448.7923 749.64447 1709.9788 459008
466.62064 762.14886 1738.502 393216
463.54007 740.70026 1689.5765 524544
485.51215 759.3446 1732.1053 590080
490.21371 750.76416 1712.533 458752
489.14868 733.88135 1674.0222 458752
509.46677 749.11371 1708.7682 458752
516.17639 744.13184 1697.4042 458752
525.74243 743.38007 1695.6893 458752
535.81049 743.35297 1695.6276 458752
535.37634 729.02594 1662.9469 393216
538.13159 719.48309 1641.1792 393216
551.31317 723.97192 1651.4183 393216
545.62439 703.95728 1605.7639 262144
0 0 0 0
552.56915 688.79895 1571.1869 196608
550.84454 675.22736 1540.2295 196608
583.17102 703.15692 1603.9384 196608
588.43445 698.08154 1592.361 65536
558.67804 652.27966 1487.8845 65536
589.04773 677.01147 1544.2991 0
598.56213 677.38202 1545.1443 256
598.55725 667.13153 1521.7623 0
600.43549 659.25403 1503.7935 256
621.25427 672.09857 1533.0924 256
590.65094 629.74567 1436.4833 256
628.61182 660.66071 1507.0021 0
632.08557 654.97058 1494.0226 0
641.00323 655.00104 1494.092 0
645.23395 650.30676 1483.3843 65536
655.75037 651.98901 1487.2214 65536
654.31384 641.90021 1464.2084 65536
663.46008 642.32208 1465.1707 131072
662.17474 632.76471 1443.3699 458752
660.39679 622.98737 1421.0671 851968
660.63025 615.33063 1403.6018 1179648
648.94592 596.90308 1361.5675 1376256
656.82281 596.70044 1361.1053 1114112
660.29303 592.54822 1351.6339 851968
677.3269 600.52155 1369.8215 655360
666.43573 583.84113 1331.7726 327680
691.32727 598.53235 1365.2841 196608
699.54071 598.6106 1365.4625 131072
709.60553 600.25311 1369.2092 131072
712.3222 595.71313 1358.8533 131072
705.22656 583.16113 1330.2214 131072
710.46674 580.9751 1325.235 65536
717.26428 580.09662 1323.2312 65536
726.79858 581.42657 1326.2649 65536
731.95349 579.26215 1321.3278 65536
739.21979 578.79694 1320.2665 0
746.10718 578.04791 1318.5579 0
755.84167 579.49731 1321.8641 0
762.67847 578.71814 1320.0867 0
769.2569 577.76068 1317.9028 0
795.95691 591.78278 1349.8879 0
788.45917 580.35315 1323.8163 0
795.81299 579.97308 1322.9493 65536
803.51764 579.85364 1322.6769 196608
809.62823 578.59735 1319.8112 196608
815.9126 577.48816 1317.2811 393216
839.42816 588.47998 1342.3541 458752
852.83276 592.24323 1350.9382 786432
858.06134 590.31134 1346.5315 851968
872.55804 594.73236 1356.6161 983040
857.71509 579.25781 1321.3179 851968
865.08014 578.92633 1320.5616 655360
893.34766 592.46313 1351.4398 524288
873.64709 574.23004 1309.8492 458752
879.68469 573.08704 1307.2419 196608
894.1532 577.40833 1317.099 196608
894.24402 572.45062 1305.7903 196608
901.81494 572.3255 1305.5049 131072
912.53168 574.18195 1309.7395 65536
920.59509 574.35156 1310.1263 65536
929.08093 574.77966 1311.1029 65536
935.42493 573.88654 1309.0657 65536
946.56726 575.9278 1313.7218 65536
953.6958 575.51337 1312.7765 65536
980.23346 586.72308 1338.3466 196608
988.07013 586.64886 1338.1771 131072
979.79462 577.08588 1316.3635 131072
1004.6557 587.03687 1339.0623 196608
990.8916 574.43951 1310.327 196608
1001.884 576.27863 1314.5221 196608
1009.5343 576.18176 1314.3011 131072
1015.3705 575.05896 1311.74 65536
1046.5294 588.18555 1341.6824 131072
1043.0812 581.81012 1327.1398 131072
1046.8438 579.52246 1321.9215 196608
1045.8278 574.64325 1310.7917 196608
1046.6997 570.86591 1302.1754 196608
1083.5848 586.64117 1338.1597 196608
1038.314 558.03241 1272.9015 196608
1101.4652 587.6864 1340.5439 196864
1145.2935 606.67853 1383.866 788481
1155.6261 607.78308 1386.3854 1117444
1181.7488 617.11761 1407.678 1446407
1198.5948 621.51056 1417.6986 1380614
1216.2678 626.26788 1428.5503 1249028
1226.1115 626.95575 1430.1194 1380614
1241.4482 630.42365 1438.0298 1643786
1239.4396 625.09613 1425.8774 1380871
1256.6406 629.46338 1435.8394 1512713
1247.6691 620.75006 1415.9637 2630680
1257.0487 621.22253 1417.0416 3354659
1265.541 621.25317 1417.1115 3485476
1266.5231 617.62103 1408.8263 2761497
1270.4308 615.45398 1403.8832 2498069
1276.7092 614.45618 1401.6072 2564117
1275.9336 610.09839 1391.6669 2498325
1280.0415 608.11682 1387.1467 2761497
1282.4215 605.34503 1380.8241 2300691
1273.693 597.39825 1362.6971 1971727
1275.632 594.52374 1356.1403 984835
1281.0731 593.30743 1353.3657 1642248
1276.5878 587.5376 1340.2045 1839881
1283.481 587.04382 1339.0781 524800
1292.0212 587.30481 1339.6735 3024155
1298.8322 586.78137 1338.4794 4273965
0 0 0 0
0 0 0 0
0 0 0 0
0 0 0 0
0 0 0 0
0 0 0 0
0 0 0 0
0 0 0 0
0 0 0 0
0 0 0 0
0 0 0 0
0 0 0 0
0 0 0 0
-1333.8644 697.28857 1569.2576 65792
-1325.4916 697.79535 1570.3981 65792
-1318.1622 698.86249 1572.7997 65792
-1307.9257 698.39252 1571.7422 65792
-1301.1132 699.75739 1574.8137 65792
-1298.9495 703.66028 1583.5973 256
-1283.7504 700.5072 1576.5012 256
-1280.902 704.09674 1584.5795 256
-1267.6436 701.97473 1579.804 256
-1257.4581 701.53558 1578.8156 65792
-1243.3799 698.90161 1572.8878 65792
-1237.3115 700.76422 1577.0796 65792
-1225.0221 699.10498 1573.3455 131072
-1249.5544 718.59564 1617.2095 262144
-1239.3082 718.23315 1616.3937 262144
-1226.1348 716.15515 1611.7172 327680
-1211.5591 713.21906 1605.1095 393216
-1201.1143 712.68732 1603.9127 393216
-1196.9528 715.90515 1611.1545 393216
-1185.9547 715.05298 1609.2367 393216
-1177.2173 715.56104 1610.3801 393216
-1167.1536 715.26465 1609.713 393216
-1158.0364 715.54828 1610.3513 458752
-1149.5101 716.20465 1611.8285 524288
-1142.2809 717.68707 1615.1647 524288
-1130.5723 716.35645 1612.1702 655360
-1121.0439 716.3963 1612.2598 655360
-1108.0043 714.17352 1607.2574 655360
-1097.6603 713.66479 1606.1125 655360
-1087.7368 713.42285 1605.5681 524288
-1076.752 712.47443 1603.4336 524288
-1065.7589 711.50348 1601.2485 458752
-1054.5868 710.39453 1598.7528 393216
-1043.5841 709.38037 1596.4705 393216
-1032.5493 708.32568 1594.0968 393216
-1021.1954 707.03052 1591.182 393216
-1004.0328 701.65179 1579.0771 393216
-992.77893 700.3396 1576.124 393216
-982.25629 699.52319 1574.2867 458752
-973.83441 700.2016 1575.8135 458752
-960.28387 697.16974 1568.9901 524288
-949.3009 695.96069 1566.2692 524288
-940.06702 696.02271 1566.4088 524288
-929.05115 694.75336 1563.5521 524288
-918.02295 693.44904 1560.6167 589824
-906.90533 692.0498 1557.4678 458752
-895.96057 690.75507 1554.5538 524288
-887.16632 691.10846 1555.3492 458752
-877.23981 690.578 1554.1554 458752
-866.76752 689.60205 1551.959 393216
-856.03314 688.39423 1549.2408 393216
-845.67621 687.46704 1547.1542 393216
-835.25726 686.46857 1544.907 262144
-820.10999 681.51843 1533.7667 262144
-814.69409 684.63477 1540.7802 262144
-801.67047 681.3562 1533.4016 196608
-791.60431 680.54462 1531.5751 262144
-778.93195 677.44745 1524.6049 196608
-771.87701 679.2204 1528.595 393216
-761.51917 678.09454 1526.0613 393216
-751.83362 677.54749 1524.83 393216
-740.67114 675.63977 1520.5366 393216
-730.89233 674.96265 1519.0128 393216
-721.18921 674.33929 1517.61 458752
-711.59698 673.80524 1516.4081 458752
-701.75031 673.01337 1514.626 393216
-691.56628 671.87317 1512.0599 393216
-681.40637 670.72668 1509.4797 393216
-668.30273 666.61328 1500.2224 393216
-658.38 665.60431 1497.9518 393216
-648.60699 664.72119 1495.9642 393216
-639.53705 664.54388 1495.5653 393216
-627.34302 661.0697 1487.7466 393216
-618.35236 660.91986 1487.4094 393216
-610.91345 662.44836 1490.8494 196608
-600.23358 660.45581 1486.365 327680
-591.06793 660.09467 1485.5522 196608
-580.73621 658.40057 1481.7397 196608
-571.12524 657.48401 1479.6769 262144
-560.91205 655.83466 1475.965 262144
-551.52521 655.11432 1474.3439 262144
-541.41437 653.49689 1470.7039 393216
-526.63269 646.09583 1454.0476 327680
-516.55695 644.3175 1450.0455 393216
-507.23346 643.43304 1448.0551 393216
-493.10422 636.31653 1432.0392 1248256
-489.40305 642.64301 1446.2771 1050880
-478.48932 639.55566 1439.3289 1116416
-549.30872 747.5918 1682.4658 590336
-591.37762 819.78345 1844.9341 458752
-585.57562 827.09058 1861.3789 393216
-575.40491 828.38995 1864.3031 393216
0 0 0 0
-551.93549 826.461 1859.962 458752
-539.23804 823.96631 1854.3475 524288
-538.35675 839.79987 1889.9812 524288
-524.91382 836.29553 1882.0947 524288
-487.36414 793.39429 1785.5449 458752
-480.57986 799.78125 1799.9188 458752
-495.29468 843.05334 1897.3033 458752
-473.23145 824.28308 1855.0605 458752
-465.91516 830.91614 1869.9884 458752
-456.78226 834.55487 1878.1772 458752
-445.42419 834.2085 1877.3978 458752
-434.75354 835.16492 1879.5503 458752
-424.14984 836.30389 1882.1135 458752
-418.35663 847.2467 1906.7405 458752
-400.6395 833.97827 1876.8798 458752
-391.72662 838.80182 1887.7351 458752
-380.1391 838.01367 1885.9614 458752
-371.29935 843.41925 1898.1267 458752
-359.91998 843.21429 1897.6654 458752
-347.72485 841.02283 1892.7336 458752
-337.16208 842.76501 1896.6544 458752
-324.01709 837.94995 1885.818 458752
-313.67184 840.28961 1891.0834 458752
-302.98038 841.84137 1894.5757 458752
-279.39069 806.2901 1814.5671 458752
-281.48511 844.98187 1901.6433 458752
-257.57956 805.59705 1813.0073 458752
-247.31535 807.29865 1816.8368 458752
-266.01535 908.02271 2043.5177 458752
-253.90411 908.18555 2043.8843 458752
-212.18819 797.14624 1793.9888 458752
-200.51884 793.20233 1785.1129 458752
-191.16983 798.50928 1797.0562 458752
-180.18755 797.21863 1794.1516 458752
-178.38152 838.92102 1888.0034 458752
-158.74278 796.72601 1793.0428 458752
-148.22224 797.51245 1794.8129 458752
-144.31876 836.7879 1883.2029 458752
-132.80031 834.80536 1878.741 458752
-120.16908 824.8205 1856.27 393216
-110.40785 834.50745 1878.0707 393216
-99.146057 833.75677 1876.3811 458752
-87.139854 825.76147 1858.3876 458752
-76.139305 826.35718 1859.7283 458752
-65.279488 828.94257 1865.5468 458752
-54.076305 827.33374 1861.926 458752
-41.508919 798.64832 1797.3691 458752
-32.145344 833.08759 1874.8752 393216
-20.975128 832.42505 1873.384 393216
-9.7467022 825.33118 1857.4194 327680
1.2503558 791.99982 1782.4066 327680
12.307004 822.28107 1850.5549 327680
23.230803 819.2818 1843.8051 262144
33.699162 807.29596 1816.8307 524800
45.056248 817.25153 1839.236 393216
55.82893 814.7876 1833.6909 393216
66.189407 808.09662 1818.6328 393216
75.966705 797.16614 1794.0334 524800
85.637779 787.95111 1773.2949 393216
95.80619 784.83148 1766.2742 327680
106.32096 784.88544 1766.3956 393216
114.83928 771.51703 1736.3098 393216
126.60875 780.39465 1756.2889 393216
135.51086 771.59204 1736.4786 393216
145.2287 768.35223 1729.1874 393216
153.87111 760.22766 1710.903 393216
163.28491 756.68591 1702.9323 393216
175.91473 767.59094 1727.4741 393216
185.58897 765.10748 1721.8851 459008
195.01924 761.9306 1714.7355 393216
204.2372 758.28131 1706.5227 393216
212.0544 750.02338 1687.938 393216
220.99416 746.30292 1679.5651 327680
238.73924 771.35388 1735.9426 393216
240.47926 744.76007 1676.0929 458752
253.54822 753.97253 1696.8257 458752
0 0 0 0
276.04794 760.33801 1711.1514 393216
283.73325 753.7124 1696.2402 393216
299.47891 768.21808 1728.8854 327680
306.46118 760.02716 1710.4517 393216
309.77347 743.55359 1673.3777 393216
323.38284 752.05255 1692.5048 393216
333.02005 751.07959 1690.3151 393216
346.86642 759.3786 1708.9921 393216
360.95078 767.71112 1727.7445 459008
373.56058 772.53284 1738.5958 393216
379.07761 762.82184 1716.7412 393216
377.48929 739.69733 1664.6991 393216
387.3446 739.60596 1664.4934 393216
410.02905 763.40479 1718.053 393216
419.01083 761.15436 1712.9884 327680
422.69824 749.6217 1687.0341 656640
443.25626 767.84875 1728.0543 590592
449.17276 760.46106 1711.4282 459008
459.57077 760.82007 1712.2361 327680
467.38962 756.98621 1703.608 393216
476.9841 756.12988 1701.6809 721408
483.71463 750.86353 1689.8287 655616
495.69855 753.80029 1696.438 524288
505.98883 754.09576 1697.103 458752
513.00079 749.58942 1686.9614 458752
520.92914 746.5694 1680.1648 458752
527.44928 741.68292 1669.1677 393216
533.20312 735.91937 1656.1968 458752
540.03882 731.83093 1646.9957 393216
543.60614 723.53815 1628.3326 393216
540.21674 706.43829 1589.8492 196608
541.37122 695.76685 1565.8329 262144
537.10455 678.60693 1527.2144 262144
547.88568 680.71393 1531.9562 262144
555.93243 679.41022 1529.0221 196608
581.88593 699.68024 1574.64 196608
572.2381 677.1778 1523.998 65536
579.05292 674.55511 1518.0957 256
609.18268 698.7561 1572.5604 0
593.78192 670.78967 1509.6216 256
602.8573 670.89514 1509.8589 256
613.20312 672.39062 1513.2244 256
621.09143 671.18695 1510.5156 0
619.95514 660.4043 1486.249 258
625.09192 656.51318 1477.4921 258
617.00586 639.03516 1438.1575 2
639.24518 653.01361 1469.6162 0
645.52332 650.53003 1464.0269 0
639.45764 635.83856 1430.9635 196608
652.54016 640.32275 1441.0553 196608
662.43524 641.60352 1443.9376 393216
656.98859 628.18237 1413.7333 720896
646.90094 610.71912 1374.4319 917504
645.54041 601.828 1354.4222 1179648
644.76208 593.69214 1336.1124 983040
651.56274 592.64813 1333.7628 655360
652.29504 586.17603 1319.1973 458752
678.16376 602.17773 1355.2094 262144
684.27704 600.46765 1351.3607 196608
682.18756 591.68274 1331.5902 196608
691.70868 593.0542 1334.6766 196608
695.94629 589.91589 1327.6139 65536
695.15686 582.63477 1311.2277 131072
702.02979 581.86603 1309.4976 65536
712.66681 584.19977 1314.7496 65536
716.00055 580.56104 1306.5607 0
722.28845 579.37006 1303.8804 0
732.4884 581.30902 1308.244 0
740.73285 581.67163 1309.0601 0
745.4577 579.29163 1303.7039 0
753.56036 579.55853 1304.3046 0
762.53815 580.48615 1306.3922 0
772.30774 581.99176 1309.7805 0
776.35693 579.19958 1303.4967 0
812.89105 600.45825 1351.3396 65536
811.74689 593.74133 1336.2231 196608
825.27625 597.78339 1345.3198 196608
809.69318 580.86292 1307.24 327680
832.42828 591.49176 1331.1604 458752
821.60419 578.29913 1301.4702 589824
829.02625 578.07574 1300.9675 720896
837.46295 578.55756 1302.0518 720896
845.05066 578.44928 1301.8081 786432
853.33771 578.81738 1302.6366 655360
860.51526 578.43304 1301.7716 524288
865.94128 576.88867 1298.296 393216
874.02319 577.12531 1298.8286 262144
879.05151 575.35925 1294.854 196608
888.58844 576.54913 1297.5319 196608
925.52197 595.34143 1339.8241 65536
902.76733 575.74628 1295.725 65536
906.81775 573.43323 1290.5194 65536
917.51562 575.32733 1294.7821 65536
945.33112 587.83411 1322.9288 0
936.75958 577.69464 1300.1099 196608
940.12811 575.02435 1294.1003 196608
950.83136 576.84729 1298.2029 196608
957.23169 576.05139 1296.4116 196608
967.04053 577.30298 1299.2284 196608
973.37885 576.47931 1297.3748 196608
980.37921 576.05762 1296.4257 196608
988.07068 576.04547 1296.3983 196608
997.06299 576.78601 1298.0649 196608
1005.9488 577.45404 1299.5682 196608
1013.5956 577.40601 1299.4602 196608
1021.8177 577.6839 1300.0857 196608
1028.0482 576.84027 1298.1871 131072
1035.5269 576.70428 1297.881 196608
1069.0182 590.95001 1329.9413 196608
1080.5826 592.95441 1334.4521 131072
1089.2915 593.37402 1335.3965 196608
1095.124 592.23199 1332.8264 327680
1105.9714 593.79895 1336.3528 393216
1117.0242 595.45306 1340.0753 393216
1121.3479 593.52203 1335.7295 393216
1142.3574 600.38776 1351.1809 196608
1128.1799 588.79346 1325.0878 788483
1153.1576 597.65326 1345.027 1051650
1197.7228 616.47272 1387.3805 1183235
1181.7524 604.08997 1359.5129 1314821
1200.1849 609.34216 1371.333 1314822
1208.1232 609.23132 1371.0836 1380871
1255.551 628.90228 1415.3533 1775629
1259.0663 626.46191 1409.8612 2828060
1260.9183 623.23187 1402.5919 3354146
1274.1213 625.61774 1407.9614 3419682
1278.7126 623.77155 1403.8065 3024924
1277.0326 618.90991 1392.8654 2827545
1277.3833 615.08893 1384.2661 2366994
1280.1704 612.48242 1378.4003 2366994
1276.0873 606.64313 1365.2588 2498323
1275.8792 602.70813 1356.4031 2564118
1281.1616 601.40002 1353.4591 1182467
1283.6896 598.8233 1347.6602 1182722
1290.2234 598.13562 1346.1125 1577736
1290.1016 594.39001 1337.683 1971981
1298.1176 594.41663 1337.7429 788226
0 0 0 0
0 0 0 0
0 0 0 0
0 0 0 0
0 0 0 0
0 0 0 0
0 0 0 0
0 0 0 0
0 0 0 0
0 0 0 0
0 0 0 0
0 0 0 0
0 0 0 0
-1340.1813 709.9704 1576.6892 65792
-1327.2128 708.05579 1572.4373 65792
-1323.0092 710.82312 1578.5829 65792
-1331.9785 720.75818 1600.6466 256
-1323.7255 721.44989 1602.1827 65792
-1314.6958 721.72522 1602.7942 256
-1305.4733 721.89795 1603.1779 65792
-1295.5143 721.66296 1602.656 65792
-1287.3848 722.45129 1604.4066 65792
-1285.5674 726.82001 1614.1085 131072
-1276.3506 727.03949 1614.5959 196608
-1268.0173 727.76953 1616.2173 196608
-1257.366 727.17004 1614.8859 262144
-1249.0592 727.92767 1616.5685 393216
-1240.0579 728.28925 1617.3713 393216
-1230.744 728.47137 1617.7759 393216
-1220.2997 727.98206 1616.6892 393216
-1196.1598 719.24988 1597.2969 393216
-1187.6604 719.8576 1598.6466 393216
-1177.9218 719.71808 1598.3368 393216
-1170.0925 720.75244 1600.6338 458752
-1160.8538 720.92841 1601.0245 458752
-1150.6261 720.48798 1600.0465 458752
-1145.8215 723.46442 1606.6565 524288
-1140.1626 725.94684 1612.1694 524288
-1127.094 723.71375 1607.2102 655360
-1118.7007 724.46997 1608.8896 655360
-1106.1696 722.53662 1604.5961 655360
-1096.2804 722.3103 1604.0935 655360
-1086.125 721.90302 1603.189 524288
-1075.4399 721.13342 1601.4799 524288
-1059.6476 716.89478 1592.0668 458752
-1048.9814 716.07892 1590.255 393216
-1041.9912 717.78052 1594.0338 196608
-1031.2646 716.91589 1592.1136 196608
-1020.069 715.70599 1589.4268 327680
-1009.4011 714.84741 1587.52 393216
-989.34814 707.26337 1570.6775 393216
-978.73218 706.34521 1568.6385 393216
-966.91504 704.53424 1564.6168 393216
-964.29559 709.45508 1575.5448 458752
-946.67419 703.32684 1561.9353 458752
-946.11072 709.87579 1576.4791 524288
-926.9917 702.49414 1560.0862 524288
-916.76929 701.77344 1558.4856 524288
-906.979 701.37213 1557.5944 524288
-895.94812 699.99329 1554.5322 458752
-885.27448 698.86761 1552.0325 458752
-875.54138 698.46869 1551.1465 393216
-864.93909 697.36041 1548.6852 393216
-864.68909 704.66461 1564.9064 393216
-844.95575 696.07751 1545.8362 327680
-834.80969 695.28632 1544.0791 327680
-823.86096 693.80157 1540.7819 262144
-814.48584 693.62347 1540.3862 262144
-803.89752 692.39648 1537.6614 262144
-793.62573 691.41693 1535.4861 262144
-780.87994 688.23407 1528.4176 196608
-765.44238 682.57587 1515.8521 393216
-753.46442 679.9046 1509.9198 393216
-742.49072 678.08612 1505.8812 393216
-732.70532 677.32159 1504.1833 393216
-731.16632 684.25555 1519.5822 393216
-713.64905 676.22272 1501.743 458752
-707.15283 678.56177 1506.9375 458752
-694.99829 675.46161 1500.0527 393216
-689.68683 679.01794 1507.9507 393216
-679.05579 677.36176 1504.2726 393216
-670.3125 677.56952 1504.734 393216
-660.79425 676.98895 1503.4447 393216
-650.81653 675.91528 1501.0603 393216
-640.44086 674.39264 1497.6788 393216
-629.44006 672.15955 1492.7197 393216
-619.92981 671.47705 1491.2039 393216
-610.45215 670.81042 1489.7235 393216
-599.13165 668.06934 1483.6362 393216
-589.37836 667.01996 1481.3058 393216
-578.80713 664.99902 1476.8176 393216
-568.9939 663.80011 1474.1552 393216
-561.20703 664.9646 1476.7412 393216
-550.53552 662.69379 1471.6982 393216
-539.88855 660.37958 1466.559 393216
-529.40985 658.19867 1461.7156 393216
-519.57819 656.7627 1458.5266 393216
-509.45023 654.89716 1454.3835 327680
-496.87411 649.7655 1442.9874 1379584
-489.26434 651.06238 1445.8673 1314048
-478.55936 648.21301 1439.5396 1314048
-550.5293 759.28412 1686.2042 524800
-581.94562 817.50897 1815.5089 458752
-587.75732 841.28662 1868.3138 458752
-578.68524 844.26642 1874.9313 458752
-535.51807 796.64301 1769.1702 458752
-572.40186 868.58221 1928.9315 458752
-539.20996 834.95428 1854.2511 458752
-526.53094 832.34882 1848.465 393216
-510.5062 824.23035 1830.4357 458752
-524.39868 865.11328 1921.2277 458752
-492.88443 831.24023 1846.0032 458752
-485.66705 837.73352 1860.4233 458752
-464.06027 819.13037 1819.1096 458752
-465.7988 841.83032 1869.5214 458752
-459.60721 850.95837 1889.7927 458752
-453.53381 860.76837 1911.5787 458752
-439.57364 855.72974 1900.3889 458752
-435.05542 869.29102 1930.5056 458752
-418.63516 859.16144 1908.01 458752
-415.49994 876.4917 1946.4968 458752
-409.33276 888.23639 1972.5792 458752
-395.72571 884.05377 1963.2903 458752
-376.03186 865.60504 1922.3199 458752
-364.98669 866.53247 1924.3794 458752
-341.89587 837.99567 1861.0054 458752
-331.03632 838.53131 1862.1949 458752
-340.44504 892.22211 1981.4305 458752
-309.76242 840.92645 1867.514 458752
-316.13959 890.16492 1976.8619 458752
-279.29346 816.8006 1813.9358 458752
-268.19308 815.85938 1811.8456 458752
-257.32504 815.57574 1811.2158 458752
-246.41534 815.1297 1810.2251 458752
-256.60086 887.61365 1971.196 458752
-228.49055 828.2262 1839.3096 458752
-217.48862 827.99774 1838.8022 458752
-216.29047 867.04572 1925.5193 458752
-196.16794 830.3562 1844.0399 458752
-188.99983 847.40289 1881.8967 458752
-183.62357 875.13593 1943.4857 458752
-176.90347 899.76099 1998.1727 458752
-162.37813 885.37543 1966.2255 458752
-151.50394 890.20978 1976.9617 458752
-138.3237 881.16766 1956.8811 458752
-126.53769 880.16156 1954.6467 393216
-107.53983 823.71198 1829.2845 393216
-102.76878 875.79205 1944.943 393216
-90.932564 873.23883 1939.2728 393216
-77.936043 857.18213 1903.6144 458752
-66.32515 853.49652 1895.4296 458752
-54.934956 851.7229 1891.4907 458752
-43.398289 846.17963 1879.1802 458752
-32.073692 842.35919 1870.6959 458752
-21.081249 847.83765 1882.8623 393216
-9.848588 845.12396 1876.8359 393216
1.3098187 840.77252 1867.1721 393216
12.307667 833.33478 1850.6545 393216
23.866066 852.95428 1894.2252 393216
34.947613 848.41241 1884.1388 327680
44.861263 824.60895 1831.2765 393216
55.055313 814.25452 1808.2816 393216
65.775238 813.79138 1807.2529 393216
76.562302 814.1723 1808.099 393216
86.321945 804.87958 1787.4619 393216
96.466789 800.82294 1778.4529 393216
106.26192 794.95203 1765.4148 393216
116.02134 789.89392 1754.182 393216
125.92098 786.54669 1746.7484 393216
136.31229 786.54669 1746.7484 393216
146.7774 786.94238 1747.6272 393216
156.2014 782.07312 1736.8136 459008
163.99547 770.1535 1710.3428 393216
174.88315 773.30609 1717.344 393216
187.35953 782.74792 1738.3123 393216
194.13423 768.62756 1706.954 327680
202.74843 762.83197 1694.0833 459264
212.45522 761.5014 1691.1284 393472
222.6154 761.84283 1691.8866 393216
232.5554 761.43378 1690.9781 393216
239.74084 752.41364 1670.9464 393216
254.358 766.50714 1702.245 393216
263.58835 763.90979 1696.4769 393216
272.47498 760.54468 1689.0037 327680
281.58585 758.02252 1683.4026 393472
289.08667 751.48822 1668.8914 393216
304.72885 765.84882 1700.7831 393216
311.43683 757.5545 1682.3632 393216
322.12979 759.16803 1685.9465 393216
335.34598 766.45117 1702.1207 459008
347.96527 771.98315 1714.406 393472
355.25909 765.72162 1700.5005 459008
366.78583 768.67767 1707.0653 393216
377.58066 769.98199 1709.9619 458752
376.39935 747.43616 1659.8926 393472
396.32916 766.89294 1703.1018 393216
396.49866 748.09674 1661.3595 393216
413.60623 761.39563 1690.8936 393216
425.99884 765.58954 1700.2072 459008
441.09186 774.32928 1719.6163 327680
449.06128 770.45105 1711.0035 327680
449.74976 754.52966 1675.6456 393472
471.17059 773.3266 1717.3895 458752
477.01572 766.30383 1701.7936 458752
485.88507 764.33044 1697.4111 458752
493.8934 761.11053 1690.2604 590080
502.95139 759.60431 1686.9154 458752
509.22678 754.03674 1674.551 458752
517.27808 751.26202 1668.3889 458752
523.94208 746.61487 1658.0687 524288
531.03137 742.73438 1649.4509 458752
537.33716 737.91864 1638.7562 393216
0 0 0 0
528.6369 700.55066 1555.7701 327680
534.8172 696.54596 1546.8765 262144
540.38483 691.89227 1536.5416 262144
550.86963 693.58441 1540.2996 196608
545.44604 675.51917 1500.1807 196608
0 0 0 0
568.74091 682.04999 1514.6842 0
578.88391 683.38666 1517.6526 0
580.64917 674.94403 1498.9033 0
569.92303 652.45636 1448.9631 256
586.58051 661.52094 1469.0936 256
591.87738 657.69543 1460.5979 256
596.54749 653.29419 1450.8237 256
611.48969 660.1073 1465.9542 256
606.23108 645.22858 1432.9119 0
604.98096 634.96967 1410.129 65536
611.49243 633.02618 1405.813 65536
617.94434 631.07446 1401.4786 196608
623.76379 628.53729 1395.8441 262144
634.39832 630.85504 1400.9913 262144
637.49646 625.71552 1389.5776 196608
649.06818 628.91809 1396.6898 327680
646.28052 618.302 1373.1138 524288
637.50531 602.29407 1337.5637 458752
643.474 600.43866 1333.4432 524288
651.77087 600.77448 1334.189 458752
659.03015 600.15729 1332.8184 393216
666.95667 600.15515 1332.8136 196608
669.01135 594.93146 1321.2129 196608
679.12354 596.91113 1325.6094 196608
688.20044 597.94592 1327.9073 131072
687.72705 590.75354 1311.9347 65536
691.77582 587.56348 1304.8502 65536
697.50397 585.85474 1301.0555 0
704.12061 584.92169 1298.9834 65536
714.5882 587.17316 1303.9834 0
720.04187 585.30054 1299.8247 0
730.47321 587.47101 1304.6449 0
738.75336 587.88397 1305.5619 0
740.49884 583.14215 1295.0315 0
739.57117 576.41467 1280.0912 65536
750.06036 578.63184 1285.015 65536
763.40558 582.98529 1294.6831 65536
769.2063 581.54785 1291.4908 65536
804.68634 602.35565 1337.7003 65536
788.87561 584.73761 1298.5746 131072
792.82489 581.96594 1292.4193 196608
801.94879 583.00946 1294.7368 262144
807.07092 581.15155 1290.6107 327680
816.32666 582.27704 1293.1102 458752
822.76123 581.38812 1291.1361 458752
826.72034 578.78253 1285.3496 458752
835.19843 579.35938 1286.6307 458752
843.12524 579.54681 1287.047 393216
848.97015 578.31274 1284.3064 393216
856.94342 578.5376 1284.8057 262144
865.31085 579.02216 1285.8818 262144
873.89008 579.63873 1287.2511 196608
879.77246 578.47144 1284.6587 196608
888.42053 579.12701 1286.1146 65536
894.93536 578.3927 1284.4839 65536
902.10547 578.0907 1283.8132 65536
905.51007 575.401 1277.8401 65536
918.79712 578.98364 1285.7963 65536
926.49487 579.01404 1285.8638 65536
935.62115 579.92932 1287.8965 65536
943.33337 579.96045 1287.9656 65536
950.37952 579.58484 1287.1315 196608
987.17737 597.21423 1326.2823 196608
965.62524 579.54382 1287.0403 196608
973.18866 579.48834 1286.9171 196608
981.44025 579.84039 1287.6989 196608
988.16364 579.29102 1286.4789 196608
994.05347 578.26526 1284.2009 196608
1004.6034 579.94525 1287.9319 196608
1011.8252 579.69324 1287.3721 196608
1017.741 578.70233 1285.1715 196608
1026.3116 579.22449 1286.3311 196608
1036.2786 580.52106 1289.2106 196608
1072.0585 596.15283 1323.9253 196608
1079.3022 595.80389 1323.1504 196608
1088.6038 596.58765 1324.8909 196608
1097.2598 597.00885 1325.8264 262144
1109.5616 599.39374 1331.1227 262144
1110.5391 595.67053 1322.8542 262144
1115.7638 594.2619 1319.726 262144
1135.3423 600.46436 1333.5002 262144
1148.8339 603.38385 1339.9839 196608
1149.3766 599.50903 1331.3787 393728
1154.806 598.21881 1328.5133 1315080
1202.2324 618.55353 1373.6724 1183238
1212.7512 619.75293 1376.3359 1577736
1237.7017 628.26166 1395.2321 1644043
1254.2256 632.40833 1404.4408 1249284
1260.1732 631.20258 1401.7631 1708809
1266.6311 630.26654 1399.6843 2301200
1272.4777 629.04053 1396.9617 3288352
1276.5178 626.94318 1392.304 3353375
1276.9056 623.09076 1383.7485 3221788
1278.5078 619.8764 1376.6101 2761237
1281.6226 617.43164 1371.1809 2103309
1279.4813 612.50171 1360.2325 2366480
1282.2261 609.95801 1354.5836 2432274
1286.7992 608.31049 1350.9248 2037517
1288.5753 605.36938 1344.3932 1708553
1293.668 604.01294 1341.381 1182467
1297.746 602.20233 1337.36 1050371
0 0 0 0
0 0 0 0
0 0 0 0
0 0 0 0
0 0 0 0
0 0 0 0
0 0 0 0
0 0 0 0
0 0 0 0
0 0 0 0
0 0 0 0
0 0 0 0
0 0 0 0
-1328.7819 713.23132 1563.2782 65536
-1316.0822 711.39355 1559.25 65792
-1307.2159 711.61652 1559.7388 65792
-1310.9279 718.73895 1575.3499 65792
-1301.6392 718.78479 1575.4504 65792
-1290.7239 717.92651 1573.5691 65792
-1282.4114 718.51404 1574.8569 65792
-1291.3381 728.84009 1597.4899 197376
-1264.8423 719.17841 1576.313 65792
-1282.6505 734.75134 1610.4462 196608
-1272.5737 734.46484 1609.8182 196608
-1254.5452 729.54987 1599.0455 393216
-1254.0533 734.83582 1610.6313 327680
-1243.276 734.1297 1609.0837 393216
-1236.1373 735.57782 1612.2578 327680
-1223.2753 733.61633 1607.9585 393216
-1215.1177 734.46741 1609.8239 393216
-1198.8854 730.4126 1600.9364 393216
-1193.5001 732.9541 1606.5071 393216
-1176.464 728.32397 1596.3586 458752
-1174.5792 733.07471 1606.7714 458752
-1164.9922 733.05682 1606.7321 524288
-1154.0597 732.18494 1604.8212 524288
-1146.4778 733.44214 1607.5767 655360
-1138.395 734.39728 1609.6703 655360
-1127.1483 733.31024 1607.2876 655360
-1115.9802 732.25623 1604.9773 655360
-1104.403 730.91309 1602.0334 655360
-1095.1047 731.06805 1602.3732 655360
-1085.0371 730.7077 1601.5833 589824
-1073.847 729.57831 1599.1078 458752
-1063.0059 728.66785 1597.1123 458752
-1051.5338 727.30463 1594.1244 458752
-1041.1792 726.69659 1592.7916 393216
-1026.6058 723.10571 1584.921 327680
-1019.3237 724.63153 1588.2655 393216
-1009.0826 724.06287 1587.019 393216
-997.85699 722.77039 1584.186 393216
-988.17175 722.57953 1583.7677 458752
-969.84454 716.00482 1569.3572 393216
-957.78528 713.97485 1564.9078 458752
-955.92236 719.58032 1577.1941 458752
-938.46246 713.43988 1563.7352 458752
-925.57733 710.68903 1557.7059 458752
-914.50751 709.29053 1554.6406 458752
-903.71136 708.07788 1551.9827 458752
-893.48535 707.29156 1550.2592 458752
-883.1261 706.3822 1548.2661 393216
-870.58826 703.69275 1542.3712 393216
-860.40021 702.8656 1540.5582 393216
-852.30609 703.74963 1542.4958 196608
-841.82037 702.65649 1540.1 262144
-829.37329 699.8844 1534.0239 262144
-819.7337 699.44592 1533.063 262144
-808.0603 697.2428 1528.2341 262144
-797.12939 695.63751 1524.7156 262144
-782.52069 690.74866 1514.0001 262144
-771.10339 688.59607 1509.282 262144
-761.24457 687.80084 1507.5389 393216
-751.69983 687.27374 1506.3837 393216
-747.7309 691.89331 1516.509 393216
-731.84375 685.46295 1502.4147 393216
-721.8349 684.44733 1500.1887 393216
-714.87231 686.33099 1504.3173 393216
-704.95697 685.39148 1502.2582 393216
-693.98688 683.38934 1497.8698 393216
