# .PCD v0.7 - Point Cloud Data file format
VERSION 0.7
FIELDS x y z rgb
SIZE 4 4 4 4
TYPE F F F U
COUNT 1 1 1 1
WIDTH 1378
HEIGHT 1
VIEWPOINT 0 0 0 1 0 0 0
POINTS 1378
DATA ascii
1039.0236 239.27057 3168.7859 2501148
1055.2379 238.67424 3160.8882 1448460
1065.2314 236.71638 3134.9595 2435355
1092.1558 238.52354 3158.8923 3159077
1116.3024 239.67317 3174.1177 2106389
1102.6194 232.79758 3083.0603 1711631
1112.7783 231.09836 3060.5566 1776912
1142.6998 233.49199 3092.2571 1776911
1142.2672 229.7057 3042.113 1776912
1157.983 229.23427 3035.8696 1513740
1173.876 228.8118 3030.2747 1842707
1221.5997 234.51277 3105.7756 1776914
1212.1295 229.22778 3035.7839 1842707
1231.0107 229.38086 3037.811 1776914
1253.2948 230.1544 3048.0557 1776404
1272.042 230.26564 3049.5288 1711121
1288.495 229.96431 3045.5381 1908499
1294.235 227.78581 3016.6873 1777170
1278.9358 222.01465 2940.2566 1974292
1250.149 214.08945 2835.2991 1842707
1232.0648 208.18369 2757.0859 1974292
1192.1095 198.78606 2632.6282 2040086
1201.5662 197.76486 2619.1038 2171672
1186.0336 192.70947 2552.1526 2105879
1196.7062 191.98595 2542.5706 2040086
1208.7548 191.49846 2536.1145 2237466
1096.0015 171.49484 2271.1963 2039832
1185.6802 183.26787 2427.1125 2171419
1180.9586 180.34195 2388.363 2698277
1172.0243 176.84991 2342.1162 3290160
1182.8434 176.38554 2335.9663 3750968
1202.2119 177.19205 2346.6472 3817018
1206.844 175.83299 2328.6487 3751482
1221.8704 176.002 2330.887 3751483
1233.0515 175.61958 2325.8223 4212290
1237.9158 174.35591 2309.0869 4409926
1235.4924 172.10483 2279.2744 4607049
1238.9183 170.70856 2260.783 5330771
1247.1169 169.99284 2251.3044 5133393
1231.9358 166.13934 2200.2705 5067599
1236.2394 164.96695 2184.7439 4935501
1229.9745 162.42336 2151.0576 4737866
1209.9067 158.12817 2094.1743 5133394
1214.8217 157.15237 2081.2512 5001808
1218.0211 155.97658 2065.6797 5199187
1194.3901 151.42274 2005.3708 5462359
1207.837 151.61319 2007.8929 6317409
1222.9824 152.01099 2013.1613 132097
1241.687 152.83919 2024.1295 1776659
1260.4785 153.66206 2035.0275 4276277
1264.1959 152.64914 2021.6127 4604982
1257.3937 150.39705 1991.7869 4604983
1257.1893 148.96878 1972.8718 4539189
1252.2825 147.01491 1946.9955 4473396
1258.4476 146.38472 1938.6498 4604727
1258.5999 145.07294 1921.2771 4670519
1254.7125 143.32333 1898.1061 4801849
1258.2551 142.44606 1886.4879 4802362
1264.9086 141.93335 1879.6979 4868155
1260.194 140.16522 1856.2816 4801850
1261.6071 139.10345 1842.2201 4538676
1250.6968 136.71291 1810.5608 4670516
1210.0457 131.13998 1736.7556 4670773
1199.8077 128.9296 1707.4823 4670773
1198.0111 127.65578 1690.6125 4933433
1206.1968 127.45799 1687.993 4867897
1204.7656 126.25567 1672.0701 4801847
1213.0551 126.08338 1669.7883 4933689
1243.7168 128.22035 1698.0894 4801589
1218.6385 124.62271 1650.4438 4932919
1219.2985 123.6936 1638.1393 4735540
1224.7874 123.26524 1632.4663 4209196
1240.0876 123.8233 1639.8568 4669747
1251.7209 124.00934 1642.3207 4603954
1262.7018 124.12836 1643.897 4734770
1270.2941 123.91501 1641.0714 4077096
1286.0347 124.49371 1648.7354 4735027
1280.1654 122.98754 1628.7885 5063991
1290.7839 123.07611 1629.9615 5063992
1300.3212 123.06103 1629.7618 5195578
1311.9836 123.24582 1632.209 4998452
1337.8524 124.75261 1652.1643 4998452
1354.309 125.36614 1660.2896 5195832
1345.6598 123.66363 1637.7423 5195833
1348.5376 123.03728 1629.4473 5129784
1397.2788 126.57449 1676.2922 5130039
1407.9888 126.64083 1677.1709 5195832
1410.4773 125.97199 1668.3132 5393211
1426.9652 126.55405 1676.0219 5459004
1431.6847 126.09158 1669.8971 5327418
1439.8557 125.93739 1667.8549 5393211
1363.7789 118.46696 1568.92 5261625
1444.0822 124.58997 1650.0103 5130039
1451.6217 124.39491 1647.427 4932660
1454.8085 123.83195 1639.9716 4998453
1453.1747 122.86892 1627.2175 5130037
1414.3956 118.7987 1573.3135 5195829
1466.8107 122.39127 1620.8917 5195830
1470.6324 121.90874 1614.5015 5261110
1463.8333 120.55777 1596.6097 5129524
1479.939 121.09845 1603.7703 5129525
1424.0912 115.7822 1533.3644 5063733
1485.8192 120.03198 1589.6466 5063733
1491.2363 119.70771 1585.3521 4932403
1486.2522 118.55781 1570.1233 5326905
1495.5928 118.55781 1570.1233 5129525
1506.5844 118.68787 1571.8457 5195319
1513.6829 118.51153 1569.5104 5261112
1481.2726 115.26304 1526.4889 4997940
0 0 0 0
0 0 0 0
0 0 0 0
0 0 0 0
0 0 0 0
0 0 0 0
0 0 0 0
0 0 0 0
0 0 0 0
0 0 0 0
0 0 0 0
-1702.8606 160.93706 1975.717 2565395
-1714.7095 163.1832 2003.2915 2368272
-1707.0541 163.59164 2008.3057 2565397
-1668.197 160.99464 1976.4241 2302997
-1658.4567 161.19069 1978.8308 1973775
-1646.3816 161.16103 1978.4667 2434582
-1634.1555 161.11604 1977.9144 2237203
-1622.5496 161.13199 1978.1101 1974289
-1610.252 161.07896 1977.4594 2105876
-1595.0712 160.73465 1973.2323 2171412
-1580.2838 160.42516 1969.4329 1776654
-1578.0104 161.39088 1981.2885 2039826
-1562.042 160.95998 1975.9985 2039826
-1550.0737 160.93785 1975.7268 1974033
-1542.9333 161.42047 1981.6516 1842703
-1547.1986 163.11295 2002.4291 1842447
-1520.8966 161.58414 1983.661 1842447
-1512.5535 161.95438 1988.2059 1710861
-1498.5846 161.7233 1985.3693 1645068
-1487.3534 161.78635 1986.1433 1513481
-1474.6947 161.69389 1985.0083 1381896
-1461.1425 161.50117 1982.6425 1316103
-1457.7546 162.43794 1994.1425 855552
-1443.9415 162.21887 1991.453 592384
-1438.7003 162.96713 2000.639 723200
-1432.3997 163.60687 2008.4927 394752
-1424.1395 164.03169 2013.7079 197376
-1417.621 164.666 2021.495 131328
-1407.7529 164.91879 2024.5981 65792
-1391.2576 164.39284 2018.1414 65792
-1379.9608 164.47734 2019.1788 65536
-1364.052 164.00879 2013.4268 65536
-1350.1289 163.77283 2010.53 256
-1334.0911 163.27383 2004.4041 256
-1318.7722 162.8546 1999.2576 256
-1303.2681 162.40466 1993.734 256
-1288.4661 162.03477 1989.193 0
-1273.3408 161.61696 1984.064 0
-1265.8942 162.17508 1990.9155 256
-1250.0616 161.65924 1984.583 512
-1219.1583 159.16605 1953.9756 256
-1209.3177 159.40114 1956.8616 256
-1204.0707 160.25217 1967.3091 132099
-1193.3469 160.38382 1968.9253 263685
-1188.6823 161.34048 1980.6697 329478
-1175.2574 161.1154 1977.9066 592650
-1160.5859 160.7131 1972.9679 592650
-1148.255 160.63004 1971.948 526857
-1135.6995 160.5135 1970.5175 658443
-1124.4336 160.57872 1971.3181 461064
-1115.1335 160.92899 1975.6182 329478
-1102.0879 160.74043 1973.3032 256
-1088.3759 160.44958 1969.7328 256
-1078.5793 160.73592 1973.2478 256
-1068.7804 161.02817 1976.8356 66306
-1059.7188 161.43925 1981.8822 197891
-1045.1289 161.00792 1976.587 921613
-1041.4486 162.2666 1992.0389 789771
-1028.4996 162.09348 1989.9137 66049
0 0 0 0
0 0 0 0
0 0 0 0
0 0 0 0
0 0 0 0
0 0 0 0
0 0 0 0
0 0 0 0
0 0 0 0
-648.66821 115.5285 1418.2665 4
-641.23682 115.70998 1420.4945 260
-634.117 115.95331 1423.4816 131844
-624.33801 115.71037 1420.4991 4935764
-618.05542 116.11766 1425.4993 4475726
-610.64105 116.32069 1427.9917 5002326
-603.07812 116.50076 1430.2023 4739413
-594.30078 116.44801 1429.5548 4542289
-586.28827 116.54579 1430.755 4805718
-578.41229 116.67398 1432.3287 4805974
-574.3205 117.58073 1443.4603 2041127
-562.76447 116.96367 1435.8851 261
-554.44971 117.01162 1436.4738 517
-550.51184 117.99924 1448.5983 1975591
-538.9021 117.3477 1440.5996 5134940
-529.11401 117.07819 1437.2909 4805718
-518.97528 116.72095 1432.9054 260
-511.74271 117.01631 1436.5314 260
-502.57269 116.87115 1434.7494 261
-493.81622 116.81882 1434.1069 517
-486.12122 117.02017 1436.5787 4016205
-479.35568 117.45647 1441.9349 3818565
0 0 0 0
0 0 0 0
0 0 0 0
0 0 0 0
0 0 0 0
0 0 0 0
0 0 0 0
0 0 0 0
0 0 0 0
-881.57397 263.0918 3229.8027 658439
-899.18933 274.32779 3367.7395 724232
-879.12744 274.31924 3367.6348 987404
-851.40289 271.86346 3337.4871 724232
-783.5578 256.17365 3144.873 724232
-803.37958 269.07877 3303.3008 658441
-768.87451 263.97894 3240.6938 197890
-739.18494 260.31262 3195.6848 263683
-715.72528 258.70459 3175.9443 132097
-670.65131 248.98489 3056.6218 131585
-662.02911 252.63358 3101.4143 0
-646.34589 253.71971 3114.748 0
-629.95514 254.58406 3125.3589 0
-611.27405 254.54718 3124.9062 0
-594.0838 255.1483 3132.2859 0
-577.09833 255.87914 3141.2578 0
-558.70178 256.0123 3142.8928 0
-543.12988 257.49384 3161.0803 0
-525.62305 258.13138 3168.9072 256
-509.07446 259.3045 3183.3088 256
-497.04495 262.95905 3228.1731 263424
-481.7348 265.10196 3254.4805 65792
-468.65393 268.70251 3298.6819 65792
-454.39111 271.91049 3338.064 328960
-429.2428 268.60001 3297.4233 132096
-414.8999 272.0578 3339.8726 132096
-401.59415 276.5777 3395.3604 592900
-381.39532 276.5777 3395.3604 790281
-358.14566 274.24158 3366.6812 658693
-336.07034 272.58118 3346.2976 921611
-312.05774 269.04147 3302.843 0
-294.21445 270.70233 3323.2322 256
-271.17902 267.48114 3283.6877 256
-250.06764 265.80499 3263.1108 263168
-231.79057 267.11295 3279.1677 256
-211.89282 266.62201 3273.1406 256
-191.38496 265.18628 3255.5154 256
-170.65968 263.09213 3229.8069 256
-151.59949 263.35922 3233.0857 256
-132.069 262.76816 3225.8298 256
-112.44563 261.75998 3213.4531 0
-93.170586 261.31573 3207.9993 65536
-74.025246 261.10007 3205.3518 0
-54.952724 261.08069 3205.114 0
-35.872276 260.98315 3203.9163 65536
-16.770308 260.33023 3195.9011 65536
2.2401915 260.12946 3193.4363 65536
20.797609 254.73836 3127.2532 65536
39.363792 254.49484 3124.2639 65536
57.982117 254.63654 3126.0032 1710869
75.686913 251.67177 3089.6069 3553325
94.972183 254.09409 3119.344 2632222
113.10181 253.138 3107.6067 3093031
131.59058 253.14148 3107.6494 2895652
150.49515 253.84543 3116.2915 3093032
169.07986 253.91464 3117.1409 2698274
185.93703 251.63222 3089.1213 3158823
203.59187 250.74281 3078.2026 3093031
220.83485 249.53482 3063.3728 3421995
238.32394 248.7679 3053.9578 3224617
255.97302 248.26477 3047.7812 3158824
273.15967 247.40938 3037.2803 3158824
288.69379 245.25626 3010.8477 3356202
283.73007 226.95827 2786.2156 3356205
320.10605 241.92299 2969.9275 3225389
337.12167 241.45581 2964.1921 3225389
353.09955 240.32875 2950.356 3422768
369.83047 239.79669 2943.8242 3488561
386.1955 239.08621 2935.1023 3290925
403.24686 238.84373 2932.1255 3554097
400.57452 227.42337 2791.9253 3488818
437.64999 238.58047 2928.8936 3685168
453.83371 237.93033 2920.9121 3356203
469.22772 236.92937 2908.624 3685168
485.80597 236.57634 2904.29 3882548
499.74857 235.00812 2885.0381 3882549
515.40814 234.32462 2876.6472 3685170
521.90021 229.65109 2819.2737 1579795
563.80536 240.3662 2950.8159 790278
579.8877 239.75764 2943.345 1053451
599.27972 240.51305 2952.6187 2303515
625.76984 243.99304 2995.3401 2764322
651.04578 246.82004 3030.0452 2830369
647.68036 238.92891 2933.1711 3027238
684.97882 246.05917 3020.7046 3027494
698.19867 244.39645 3000.2925 3158824
724.63074 247.3261 3036.2578 2961699
753.32898 250.86792 3079.7385 3159078
769.35889 250.12303 3070.594 3027492
785.55316 249.46486 3062.5139 3027492
794.86627 246.70087 3028.5823 3159078
819.0556 248.57414 3051.5791 2895906
834.16919 247.67151 3040.4983 3027492
854.22253 248.24272 3047.5105 3159078
869.04279 247.30104 3035.9502 2895906
888.52417 247.69708 3040.8123 2896162
914.3847 249.82019 3066.8762 2764321
944.38446 252.96899 3105.5317 3158822
969.59088 254.73759 3127.2439 3158822
992.89453 255.94913 3142.1172 2895906
1013.0963 256.33105 3146.8057 2764065
1042.2205 258.91571 3178.5359 3093030
1061.8052 259.0806 3180.5601 1579791
1070.502 256.62958 3150.4705 2895394
1082.8804 255.13031 3132.0649 3092773
1100.4596 254.88637 3129.0701 2566428
1099.6202 250.4554 3074.6741 1579533
1113.8759 249.5513 3063.5752 1776911
1142.7028 251.88831 3092.2649 1776913
1151.0717 249.7131 3065.5615 1645327
1162.0608 248.16528 3046.5601 1908498
1177.7729 247.65819 3040.3347 1776914
1195.2097 247.52354 3038.6819 1776915
1212.9124 247.4472 3037.7446 1908500
1233.1935 247.8914 3043.1978 1974293
1254.049 248.43649 3049.8896 1645074
1276.8378 249.34367 3061.0261 1908246
1279.8549 246.41849 3025.1157 2039832
1281.6489 243.34222 2987.3506 1974293
1274.0583 238.59268 2929.0435 1908500
1246.4259 230.26866 2826.8552 2040086
1207.4064 220.09061 2701.9058 1974293
1192.6393 214.54274 2633.7983 1908500
1193.0721 211.83759 2600.5891 2237465
1193.1431 209.13826 2567.4512 1974549
1200.6937 207.80165 2551.0425 1974293
1195.9611 204.39911 2509.2717 1645329
1188.7581 200.66345 2463.4116 723972
1201.1997 200.29443 2458.8816 987144
1200.3173 197.73932 2427.5139 1316112
1216.8533 198.08029 2431.7 1908248
1223.031 196.74698 2415.3318 2369312
1225.8816 194.9156 2392.8491 2369056
1228.9181 193.15547 2371.2412 2369826
1230.2817 191.17538 2346.9329 2238241
1237.5321 190.1442 2334.2737 2501670
1237.748 188.06705 2308.7739 2501670
1229.9679 184.83391 2269.0828 2764072
1239.4218 184.23265 2261.7017 3487795
1237.7666 182.01077 2234.425 4211519
1242.8752 180.82014 2219.8086 4738119
1237.484 178.14304 2186.9436 4606535
1227.0914 174.80914 2146.0156 4146241
1215.1117 171.32014 2103.1833 4409670
1212.6111 169.22511 2077.4641 4804171
1214.1332 167.72807 2059.0859 4804686
1206.3699 164.99101 2025.4849 5659737
1209.1384 163.73424 2010.0563 6448736
1229.7871 164.8996 2024.3625 394755
1238.5077 164.45844 2018.9468 1710866
1256.2594 165.21347 2028.2158 4144946
1264.6621 164.73633 2022.3582 4473396
1261.6637 162.79704 1998.5509 4736823
1272.2708 162.63315 1996.5388 4933689
1256.3252 159.10945 1953.2809 4670517
1266.3978 158.91528 1950.8972 4736820
1272.0128 158.17035 1941.7522 4736821
1263.536 155.70233 1911.454 4671028
1255.4296 153.32356 1882.2513 4671028
1260.3052 152.55832 1872.8569 4539442
1259.8351 151.16508 1855.7531 4802357
1253.1938 149.062 1829.9348 4867894
1252.4821 147.69434 1813.1451 4867893
1233.2314 144.1826 1770.0339 4736308
1198.4788 138.93323 1705.5908 4867894
1195.4639 137.4203 1687.0177 4999480
1202.2579 137.05077 1682.481 4933685
1200.1089 135.67625 1665.6072 4933941
1253.4846 140.55013 1725.4403 5130293
1205.3984 134.06055 1645.7721 4867122
1213.3773 133.86069 1643.3185 4932403
1228.8365 134.48264 1650.9539 4800817
1224.0728 132.89911 1631.5138 4142887
1236.7939 133.22391 1635.5012 5130040
1250.7771 133.67853 1641.0823 4735540
1261.3519 133.76465 1642.1395 4932406
1265.641 133.18799 1635.0602 4471855
1283.4941 134.03664 1645.4784 4143404
1278.6213 132.51707 1626.824 4998200
1286.2931 132.31073 1624.2906 4800822
1294.4786 132.1599 1622.4391 5656130
1309.735 132.72786 1629.4116 5327164
1320.2117 132.80666 1630.379 5195577
1335.0947 133.32436 1636.7344 4998453
1354.2446 134.25755 1648.1906 5130039
1327.4618 130.65636 1603.9812 5130039
1370.1693 133.8974 1643.7693 5393211
1355.0173 131.47836 1614.0724 5195832
1362.2817 131.25314 1611.3075 5393211
1413.8171 135.26668 1660.579 5393210
1387.3136 131.80997 1618.1433 5195831
1434.9965 135.40085 1662.2261 4866868
1435.1378 134.48744 1651.0128 5393210
1360.0065 126.58056 1553.9453 5261625
1360.4758 125.76936 1543.9867 5195830
1442.2579 132.43559 1625.8236 5130037
1430.9191 130.51912 1602.2964 4866865
1441.2581 130.59225 1603.1941 5195830
1395.5424 125.61868 1542.137 5261111
1466.5703 131.15005 1610.0419 5260855
1459.6125 129.68091 1592.0062 5326904
1475.3551 130.23454 1598.8029 5195318
1479.3025 129.74655 1592.8121 5195319
1485.8192 129.48869 1589.6466 5195575
1484.6936 128.57228 1578.3964 5261112
1483.7615 127.68404 1567.4919 5195319
1493.0864 127.68404 1567.4919 4998196
1507.5123 128.11755 1572.814 5195062
1494.89 126.26118 1550.0244 4800305
1460.7163 122.61845 1505.3051 5194806
0 0 0 0
0 0 0 0
0 0 0 0
0 0 0 0
0 0 0 0
0 0 0 0
0 0 0 0
0 0 0 0
0 0 0 0
0 0 0 0
0 0 0 0
0 0 0 0
-1731.9701 176.86327 2023.4572 2170895
-1677.1588 172.46475 1973.1346 2565398
-1667.0149 172.62987 1975.0236 2301969
-1657.2999 172.84201 1977.4508 2433555
-1645.8696 172.87703 1977.8514 2368019
-1634.1775 172.88486 1977.9409 2171153
-1622.7996 172.9263 1978.415 2105617
-1611.8815 173.01767 1979.4604 2171410
-1593.9255 172.3494 1971.8148 2237203
-1583.3992 172.48055 1973.3153 2171410
-1627.0073 178.5546 2042.8073 2039826
-1551.262 171.52313 1962.3617 1908240
-1537.7672 171.32028 1960.0409 2039826
-1524.7853 171.17189 1958.3433 2105619
-1513.3665 171.19806 1958.6426 1974033
-1504.8325 171.55351 1962.7092 1907727
-1503.3264 172.72195 1976.0771 1842447
-1479.1865 171.28787 1959.6702 1513483
-1470.4202 171.62538 1963.5315 1513481
-1472.7673 173.27583 1982.4141 1513482
-1461.8383 173.37833 1983.5865 1052931
-1453.2688 173.76462 1988.0061 921091
-1440.8649 173.69502 1987.2098 920576
-1435.5386 174.48453 1996.2424 591616
-1435.781 175.96971 2013.2341 525824
-1427.5361 176.43089 2018.5105 262400
-1411.8467 175.97206 2013.261 65792
-1404.8744 176.60117 2020.4584 65792
-1393.6105 176.69696 2021.5544 256
-1377.3188 176.15143 2015.3131 256
-1363.8584 175.96158 2013.141 256
-1350.6251 175.79794 2011.2689 256
-1334.7867 175.28926 2005.4492 256
-1320.9647 175.0386 2002.5814 256
-1306.0167 174.63281 1997.9388 256
-1290.2317 174.10661 1991.9188 0
-1274.6553 173.59908 1986.1122 0
-1270.9097 174.70839 1998.8036 512
-1246.7725 173.00899 1979.3611 256
-1234.3779 172.92223 1978.3685 0
-1231.175 174.13383 1992.2301 329478
-1217.1149 173.81842 1988.6216 658443
-1204.0449 173.63962 1986.576 395014
-1191.7817 173.5748 1985.8344 592650
-1174.245 172.73291 1976.2025 526857
-1160.5859 172.45018 1972.9679 526857
-1146.0448 172.02928 1968.1523 461064
-1134.5568 172.06271 1968.5349 263942
-1125.5491 172.47691 1973.2737 131843
-1111.5398 172.12532 1969.2512 256
-1097.7996 171.80838 1965.6251 256
-1086.2568 171.8322 1965.8976 256
-1075.1482 171.92598 1966.9706 256
-1068.2272 172.69879 1975.8121 395271
-1054.5973 172.39217 1972.3041 526855
-1046.2449 172.951 1978.6976 658185
-1040.574 173.97089 1990.366 197634
-1023.1046 173.019 1979.4756 1184786
0 0 0 0
0 0 0 0
0 0 0 0
0 0 0 0
0 0 0 0
0 0 0 0
0 0 0 0
0 0 0 0
0 0 0 0
-648.5614 123.94527 1418.033 4
-641.25726 124.16438 1420.5397 4
-635.96545 124.78419 1427.6309 131845
-625.80695 124.45296 1423.8413 5001812
-618.3407 124.65538 1426.1572 4344652
-613.49164 125.39839 1434.6578 3028538
-603.6814 125.134 1431.6329 3094331
-595.41473 125.18657 1432.2344 3620418
-585.09308 124.80231 1427.8383 4739413
-579.81763 125.49899 1435.8087 5002583
-576.00952 126.53883 1447.7054 2699574
-562.36115 125.41571 1434.856 260
-555.07361 125.69841 1438.0902 261
-549.07452 126.2863 1444.8162 1909799
-541.27057 126.47117 1446.9312 5199708
-529.97327 125.83255 1439.625 4804694
-518.91217 125.22999 1432.7312 4
-510.22748 125.19038 1432.278 260
-501.74661 125.20026 1432.3911 260
-493.25552 125.20792 1432.4786 519
-484.70212 125.19973 1432.385 3950411
-479.50854 126.07465 1442.3947 3687492
0 0 0 0
0 0 0 0
0 0 0 0
0 0 0 0
0 0 0 0
0 0 0 0
0 0 0 0
0 0 0 0
0 0 0 0
-894.01898 286.29092 3275.397 658439
-889.26343 291.11288 3330.564 724232
-863.9729 289.27899 3309.5828 526853
-852.88678 292.22644 3343.304 329475
-821.10779 288.0553 3295.583 592646
-788.4917 283.3793 3242.0857 526855
-754.25903 277.8732 3179.0916 263683
-737.30646 278.61371 3187.5635 197890
-718.34375 278.61371 3187.5635 197890
-695.5033 277.06888 3169.8894 131585
-658.44751 269.61716 3084.6355 0
-638.6109 268.99109 3077.4731 0
-620.87769 269.24023 3080.3235 0
-612.27521 273.58441 3130.0244 0
-593.72015 273.6145 3130.3684 0
-577.79828 274.89932 3145.0679 0
-559.33069 275.01843 3146.4307 0
-541.62036 275.53101 3152.2947 0
-523.94727 276.09998 3158.8044 0
-508.25775 277.79544 3178.2017 256
-501.89362 284.91577 3259.6641 723713
-486.38791 287.21033 3285.9155 256
-468.64313 288.31955 3298.606 256
-449.9053 288.88806 3305.1104 132096
-427.17316 286.82654 3281.5247 592386
-415.9111 292.63803 3348.0127 395265
-399.99338 295.59354 3381.8264 395522
-379.00327 294.91513 3374.0649 790537
-357.61713 293.83548 3361.7126 592646
-335.23895 291.76453 3338.0193 724233
-313.96777 290.45688 3323.0586 256
-292.85156 289.12646 3307.8379 256
-270.98581 286.8111 3281.3481 256
-250.377 285.56985 3267.1475 256
-233.43445 288.65326 3302.4238 256
-213.62947 288.43848 3299.9668 256
-190.9061 283.84116 3247.3696 256
-171.06412 282.9751 3237.4612 256
-151.59827 282.59036 3233.0596 256
-132.00397 281.81961 3224.2415 0
-112.39175 280.74207 3211.9136 0
-93.199165 280.48593 3208.9832 65536
-74.034492 280.20352 3205.7522 65536
-54.97636 280.26825 3206.4929 65536
-35.885151 280.14359 3205.0664 65536
-16.794498 279.74542 3200.5112 65536
2.2412758 279.26215 3194.9822 65536
20.805817 273.45007 3128.4873 0
39.452293 273.69489 3131.2883 0
58.559273 275.95273 3157.1196 1513491
75.689987 270.06265 3089.7324 3421485
94.57917 271.52258 3106.4353 2698016
112.45375 270.0686 3089.8008 2764323
132.23466 272.95822 3122.8601 2961447
151.03392 273.35919 3127.4478 2961447
168.29831 271.19891 3102.7324 3224618
185.81985 269.83908 3087.1748 3093033
203.22575 268.57104 3072.6672 3224617
220.60986 267.48584 3060.2517 3027238
237.34181 265.83566 3041.3726 3158824
255.20918 265.60089 3038.6865 3158824
270.6922 263.07986 3009.844 3224617
270.65244 246.72147 2822.6907 3553582
303.89896 260.84479 2984.2727 3487532
320.57233 259.96909 2974.2539 3356458
337.12167 259.0896 2964.1921 3356457
354.70847 259.05527 2963.7993 3421739
370.85953 258.0253 2952.0154 3290409
388.81705 258.28842 2955.0261 3421741
404.96689 257.37994 2944.6323 3488048
408.33655 248.76105 2846.0251 3357232
438.79547 256.67435 2936.5596 3553584
454.52429 255.69514 2925.3567 3487789
469.81363 254.55006 2912.2561 3553583
485.73569 253.81703 2903.8699 3619889
500.84869 252.72615 2891.3892 3423024
515.18451 251.32852 2875.3992 3948342
526.40723 248.55086 2843.6204 1645078
562.52032 257.33258 2944.0903 592644
578.13239 256.48871 2934.4355 1447951
596.34229 256.81302 2938.146 2764066
632.08716 264.4552 3025.5789 2632735
645.64557 262.6488 3004.9121 2764319
664.20312 262.91855 3007.9983 2698526
702.28235 270.69891 3097.012 2961698
725.59845 272.53644 3118.0344 2764319
727.55115 266.45819 3048.4946 2961698
763.6618 272.88138 3121.981 2830113
773.87726 269.96603 3088.6272 2961699
778.31647 265.21762 3034.3015 3093285
804.17548 267.81799 3064.0518 2961699
821.56012 267.5434 3060.9102 2764320
835.20288 266.08859 3044.2661 2895906
853.31305 266.08859 3044.2661 2895906
873.22791 266.63962 3050.5706 3224616
898.08612 268.64697 3073.5361 2895652
917.16986 268.88135 3076.2175 2764066
940.73657 270.39511 3093.5361 2895654
964.14661 271.80658 3109.6843 3092520
979.07349 270.81842 3098.3792 2895141
1008.2428 273.73352 3131.7305 2895397
1037.434 276.54868 3163.938 2764068
1051.4006 275.27744 3149.394 1513999
1070.7614 275.43829 3151.2339 2369051
1080.1218 273.06537 3124.0862 3092774
1098.7069 273.06537 3124.0862 2369052
1116.6953 272.91959 3122.4182 1513742
1120.1735 269.29028 3080.896 1711121
1133.6116 268.13367 3067.6633 1842707
1156.4266 269.19647 3079.8228 1776914
1175.132 269.28439 3080.8284 1645328
1197.465 270.18814 3091.1682 1711121
1205.2742 267.83704 3064.2698 1776914
1221.8762 267.48083 3060.1946 1776914
1236.8469 266.78323 3052.2136 1842707
1252.17 266.18073 3045.3203 1645074
1264.2351 264.91269 3030.813 1776660
1272.4043 262.87546 3007.5054 1710867
1264.6456 257.64969 2947.7183 2105626
1251.0616 251.39629 2876.1743 2039832
1202.0876 238.29608 2726.2976 2040086
1221.5642 238.93332 2733.5881 1908500
1188.7823 229.46655 2625.2808 1974293
1183.6265 225.5087 2579.9998 2040086
1194.5723 224.68068 2570.5266 2105879
1193.226 221.59084 2535.1763 1908500
1188.0037 217.86731 2492.5762 1974038
1197.019 216.81444 2480.5305 526593
1202.4913 215.15329 2461.5256 592389
1210.728 214.02075 2448.5686 461059
1207.6655 210.94156 2413.3398 263682
1218.0217 210.25096 2405.439 395267
1226.3264 209.22643 2393.7175 66304
1220.9894 205.92465 2355.9426 395525
1223.2841 203.97035 2333.5837 132097
1215.6486 200.42271 2292.9961 263941
1220.0294 198.91298 2275.7234 1185811
1220.5768 196.81821 2251.7576 1514777
1204.1614 192.06337 2197.3584 2764586
1231.6801 194.34286 2223.4377 3356722
1237.8354 193.23891 2210.8074 2962220
1195.8005 184.71422 2113.2783 2830120
1233.0336 188.48399 2156.4075 2896427
1230.4025 186.14519 2129.6497 2830634
1213.7738 181.75795 2079.4561 2962220
1205.5419 178.70393 2044.5157 2830377
1197.7439 175.77461 2011.002 3619893
1199.3351 174.26749 1993.7593 3882549
1216.724 175.06288 2002.8593 4408380
1229.7441 175.22037 2004.661 4539708
1237.2546 174.59732 1997.5328 4408120
1266.2108 176.98367 2024.8346 4539190
1264.0243 175.01314 2002.2902 4473398
1239.4001 170.00172 1944.9557 4539190
1264.9463 171.90099 1966.6847 4539191
1259.1754 169.54855 1939.771 4538933
1272.4016 169.77362 1942.3458 4209966
1275.8433 168.70084 1930.0723 4341294
1260.9061 165.23866 1890.4624 4538929
1247.3314 162.01469 1853.5776 4670771
1242.8774 160.02153 1830.7742 4538929
1244.8638 158.88498 1817.7712 4670514
1225.1218 155.01866 1773.5374 4999480
1220.876 153.1624 1752.3003 4999480
1197.5436 148.96338 1704.2601 4999480
1194.1592 147.29536 1685.1766 4999480
1249.8813 152.88503 1749.1268 5065273
1218.854 147.85883 1691.6232 5065273
1210.2218 145.60944 1665.8883 4802101
1205.6499 143.88115 1646.1154 4802100
1207.9424 142.9933 1635.9576 5064246
1222.8423 143.60014 1642.9004 4603952
1220.8263 142.22667 1627.1868 4340779
1239.9166 143.31435 1639.6306 4472366
1249.6707 143.31435 1639.6306 4669743
1260.0106 143.38101 1640.3933 4735792
1261.9305 142.49588 1630.2667 4801331
1285.6652 144.06876 1648.2617 4538159
1282.2535 142.59889 1631.4453 4998710
1282.3785 141.54147 1619.3475 5130038
1291.5609 141.49205 1618.7821 5064245
1307.47 142.17482 1626.5936 5195832
1317.86 142.25185 1627.4749 5130039
1330.412 142.55942 1630.9937 5327419
1329.089 141.38651 1617.5747 5195832
1354.9485 143.10133 1637.1936 5327415
1364.9468 143.12846 1637.504 5261366
1371.8447 142.83241 1634.1168 5195830
1385.8767 143.27806 1639.2156 5064244
1329.5247 136.49173 1561.5745 5195830
1324.1696 134.9987 1544.4929 5327416
1332.0664 134.86797 1542.9972 5195830
1417.3917 142.52478 1630.5974 5459001
1351.1416 134.93956 1543.8163 5524794
1415.7998 140.44238 1606.7731 5261622
1418.4697 139.76364 1599.0077 5064244
1427.5272 139.71912 1598.4984 5459001
1427.558 138.79753 1587.9547 5260853
1362.8331 131.63344 1505.9918 5392695
1450.9047 139.22487 1592.8438 5327160
1400.828 133.54745 1527.8896 5458489
1466.6312 138.9194 1589.349 5195573
1467.3629 138.09843 1579.9564 5327159
1440.2715 134.68605 1540.916 5195060
1468.2739 136.43631 1560.9403 5326646
1472.5583 135.97447 1555.6566 5129011
1470.3179 134.91966 1543.5887 5260597
1497.1714 136.53111 1562.025 5129011
1476.7068 133.83423 1531.1705 5194803
1454.101 130.97755 1498.4878 5391926
0 0 0 0
0 0 0 0
0 0 0 0
0 0 0 0
0 0 0 0
0 0 0 0
0 0 0 0
0 0 0 0
0 0 0 0
0 0 0 0
0 0 0 0
0 0 0 0
-1680.7672 183.31615 1963.6368 2499604
-1668.4967 183.25146 1962.944 2236432
-1659.6842 183.56834 1966.3383 2433811
-1650.667 183.86693 1969.5366 2565140
-1643.3883 184.36479 1974.8696 2368531
-1637.1499 184.98738 1981.5387 2171410
-1622.1335 184.61993 1977.6028 2105617
-1605.9209 184.11002 1972.1406 2105618
-1596.3376 184.35818 1974.799 1974032
-1576.6772 183.43761 1964.938 2171412
-1557.3715 182.54488 1955.3751 2039826
-1548.813 182.90788 1959.2637 1908240
-1532.2577 182.32486 1953.0184 1710861
-1518.2238 182.03523 1949.916 2039826
-1503.0134 181.59901 1945.2434 1974033
-1497.2877 182.31088 1952.8687 1710605
-1487.8059 182.57295 1955.676 1710861
-1475.3883 182.47607 1954.6381 1710606
-1476.0558 184.00887 1971.057 1710860
-1449.4507 182.1391 1951.0287 1184517
-1447.7137 183.38934 1964.4208 1184517
-1440.0499 183.90302 1969.9232 1052930
-1443.6565 185.87624 1991.0599 921089
-1436.0695 186.42897 1996.9806 658176
-1428.4991 186.9931 2003.0234 526336
-1421.5419 187.64766 2010.0349 197120
-1412.3995 188.02242 2014.0493 66048
-1412.3312 189.6219 2031.1825 65792
-1394.6556 188.86461 2023.0706 65792
-1377.2609 188.13248 2015.2281 65792
-1363.0293 187.82339 2011.9174 65536
-1349.2958 187.57805 2009.2893 0
-1332.8966 186.95445 2002.6095 65536
-1321.0269 186.96063 2002.6757 65536
-1307.3433 186.70787 1999.9681 256
-1291.3191 186.11314 1993.5975 0
-1276.7172 185.71425 1989.3248 256
-1265.6309 185.8241 1990.5013 512
-1243.7158 184.33107 1974.5084 132098
-1235.1162 184.8019 1979.5518 526854
-1231.7397 186.0708 1993.1439 592650
-1217.2629 185.6712 1988.8635 658443
-1204.5753 185.53934 1987.4512 461064
-1185.3573 184.38905 1975.1295 592650
-1172.8008 184.26231 1973.772 395271
-1160.5459 184.18089 1972.8998 132099
-1146.3453 183.78589 1968.6686 256
-1132.8131 183.49097 1965.5094 256
-1119.6943 183.25757 1963.0093 256
-1108.1072 183.27257 1963.1699 256
-1096.1682 183.22908 1962.7041 256
-1084.5682 183.24191 1962.8417 0
-1074.9006 183.58508 1966.5176 66306
-1060.9144 183.19009 1962.2866 330249
-1052.4948 183.75818 1968.3718 856850
-1048.1562 185.05962 1982.3125 395015
-1037.3337 185.23286 1984.1682 724750
-1039.2595 187.71271 2010.7317 527114
-1023.9099 187.09363 2004.1003 1251094
0 0 0 0
0 0 0 0
0 0 0 0
0 0 0 0
0 0 0 0
0 0 0 0
0 0 0 0
-655.85327 132.15057 1415.564 263
-648.94379 132.45911 1418.8689 5
-642.0116 132.7711 1422.2108 260
-635.72467 133.22664 1427.0905 132101
-626.29108 133.02614 1424.9427 4672591
-617.56268 132.97198 1424.3627 4344140
-611.04901 133.39984 1428.9458 132101
-602.76929 133.44876 1429.4698 262
-595.40143 133.70384 1432.2023 4
-584.68237 133.20288 1426.8361 4475212
-579.47278 133.96082 1434.9548 4935764
-572.56091 134.342 1439.038 2764596
-562.89856 134.07961 1436.2273 261
-555.48413 134.35281 1439.1538 261
-548.00793 134.6194 1442.0094 1844005
-537.87744 134.23207 1437.8605 5331292
-530.216 134.45836 1440.2844 4936792
-517.32855 133.34505 1428.3588 5
-509.70319 133.57352 1430.8062 261
-501.65427 133.69688 1432.1276 262
-493.0365 133.67027 1431.8425 262
-483.28302 133.32941 1428.1913 3621445
-480.06003 134.81024 1444.0536 3818053
-468.3642 133.92233 1434.5426 1028
0 0 0 0
0 0 0 0
0 0 0 0
0 0 0 0
0 0 0 0
0 0 0 0
0 0 0 0
0 0 0 0
-888.34998 303.83719 3254.6279 724232
-892.17285 311.94345 3341.4604 592646
-881.67926 315.29953 3377.4099 263681
-851.54791 311.62561 3338.0557 329220
-826.43646 309.65714 3316.9702 395013
-791.09485 303.6655 3252.7891 592648
-771.58301 303.60208 3252.1096 395269
-748.9895 302.29163 3238.0725 132097
-721.823 299.01764 3203.0022 131841
-699.51453 297.63309 3188.1714 0
-662.9729 289.94662 3105.8359 0
-643.06104 289.30084 3098.9185 0
-624.70282 289.33655 3099.3008 0
-613.77063 292.91843 3137.6692 0
-595.57483 293.14978 3140.1475 0
-577.79468 293.60733 3145.0483 0
-560.12183 294.15182 3150.8809 0
-542.68121 294.8602 3158.469 0
-524.23816 295.05524 3160.5581 256
-507.13791 296.04865 3171.1992 256
-503.38281 305.21024 3269.3359 197632
-480.8335 303.25494 3248.3914 0
-467.21887 307.00687 3288.5811 65792
-447.87167 307.15527 3290.1707 197376
-428.25815 307.12625 3289.8596 395008
-412.2547 309.80737 3318.5793 263937
-398.86884 314.82422 3372.3186 329729
-378.8071 314.82422 3372.3186 724487
-357.49631 313.72809 3360.5769 658694
-334.54575 310.97784 3331.1169 394755
-313.55334 309.81604 3318.6721 256
-292.85931 308.81281 3307.9255 256
-270.36154 305.62595 3273.7888 512
-252.32481 307.37875 3292.5645 256
-234.03484 309.0921 3310.9175 256
-213.95799 308.54355 3305.0415 256
-190.69907 302.83081 3243.8481 256
-170.95241 302.03717 3235.3469 256
-151.43608 301.50073 3229.6006 256
-131.74867 300.4183 3218.0059 0
-112.24418 299.45584 3207.696 0
-93.093224 299.23547 3205.3357 0
-74.020691 299.21857 3205.1545 0
-54.980679 299.367 3206.7446 0
-35.897675 299.31476 3206.1848 65536
-16.758699 298.14816 3193.689 65536
2.2384408 297.89163 3190.9407 65536
20.790943 291.85245 3126.2507 65536
39.427986 292.14264 3129.3591 0
58.445621 294.16223 3150.9924 1381903
75.184868 286.51834 3069.113 3355948
94.479874 289.69812 3103.1741 2632480
114.17635 292.86823 3137.1313 2632480
132.213 291.48816 3122.3486 2961445
150.00644 289.97797 3106.1719 2961444
167.89568 288.96393 3095.3093 3027238
183.04749 283.90457 3041.115 3224618
203.3365 287.00647 3074.3418 3158825
219.95639 284.84485 3051.187 3158824
237.34181 283.92862 3041.3726 3290409
254.58998 282.98959 3031.314 3356203
271.01141 281.31662 3013.3936 3421995
271.95178 264.77853 2836.2417 3421996
301.67139 276.55597 2962.3984 3290411
319.76114 276.96011 2966.7275 3421996
337.66742 277.17139 2968.9907 3158825
354.86533 276.80911 2965.1101 3356203
372.9726 277.15686 2968.8352 3487792
361.36835 256.39273 2746.4148 3750963
406.56213 275.98026 2956.2317 3291182
413.86319 269.28787 2884.5447 3356975
432.02344 269.91284 2891.239 3421741
443.59308 266.52997 2855.0024 3421996
466.51453 269.96576 2891.8059 3685169
483.92535 270.08163 2893.0471 3553585
502.08875 270.59515 2898.5476 3684913
516.40637 269.07074 2882.2188 3487535
527.31006 265.92267 2848.4973 1381904
563.04114 275.10129 2946.8162 1118730
579.42438 274.55765 2940.9932 1316108
600.10077 276.02063 2956.6641 2566686
633.26917 282.98239 3031.2368 2566940
653.37988 283.88528 3040.9084 2698526
673.60095 284.78619 3050.5586 2698526
692.28033 285.00513 3052.9038 2764319
706.53186 283.43655 3036.1018 2764319
726.36584 284.12988 3043.5283 2895905
769.98877 293.86856 3147.8467 3159078
779.86816 290.57227 3112.5376 2961699
791.03583 287.89771 3083.8884 3093286
813.57416 289.38898 3099.8623 3224617
825.00208 286.94974 3073.7339 3158824
839.63904 285.70825 3060.4355 2764066
862.68701 287.32074 3077.7083 3027237
913.36761 297.87814 3190.7964 2829859
901.36194 287.97784 3084.7471 2829859
919.90265 288.03726 3085.3835 2764066
953.52643 292.72473 3135.5942 2895654
968.23639 291.53735 3122.8752 3027239
986.79346 291.53122 3122.8096 2895910
1005.5875 291.59406 3123.4827 2763555
1030.4496 293.3822 3142.6372 2829603
1054.233 294.80502 3157.8779 1448463
1070.4485 294.09882 3150.313 2698016
1081.9608 292.14691 3129.405 2895396
1100.5775 292.14691 3129.405 2171929
1111.0555 290.02252 3106.6489 1711121
1126.0515 289.12759 3097.0627 1711121
1141.4321 288.35873 3088.8267 1842707
1157.2295 287.71777 3081.9609 1842707
1177.2289 288.12524 3086.3259 1842707
1193.5676 287.63809 3081.1074 1776914
1204.2288 285.81805 3061.6118 1842707
1211.323 283.21832 3033.7639 1908500
1229.3706 283.21832 3033.7639 1908500
1247.0128 283.12625 3032.7778 1645330
1253.9873 280.64929 3006.2454 1711121
1244.6332 274.63901 2941.8645 1776914
1259.0825 273.97495 2934.7515 1382156
1245.5621 267.32614 2863.531 1908497
1252.0854 265.10056 2839.6909 1908497
1236.4498 258.30502 2766.8989 1842704
1193.6624 246.09029 2636.0579 2040086
1193.0146 242.7674 2600.4636 2171672
1193.1399 239.68486 2567.4443 2040343
1198.4819 237.71495 2546.3433 1974550
1200.392 235.12202 2518.5684 1579538
1199.7133 232.09221 2486.1138 790279
1205.6586 230.40202 2468.009 1053453
1214.7545 229.34735 2456.7117 987403
1217.637 227.1586 2433.2664 856075
1211.8119 223.41591 2393.1753 921610
1220.6848 222.43846 2382.7053 987404
1205.9774 217.23589 2326.9766 856589
1220.1327 217.29147 2327.572 1053199
1207.8969 212.69861 2278.3745 921612
1206.583 210.10963 2250.6418 526855
1222.6046 210.56303 2255.4985 395269
1186.7632 202.17145 2165.6101 526854
1201.6974 202.51711 2169.3127 329476
1221.2916 203.63242 2181.2598 461063
1219.6948 201.22815 2155.5056 723979
1226.7932 200.2935 2145.4941 658440
1189.5913 192.21986 2059.0112 1118991
1214.5444 194.25175 2080.7764 2105885
1207.0154 191.09991 2047.0146 2434849
1211.1959 189.84644 2033.5876 2895656
1208.6128 187.56808 2009.1825 2764068
1213.557 186.4911 1997.6461 3092774
1224.5284 186.35223 1996.1587 2829346
1233.0948 185.85356 1990.8169 3092773
1244.2623 185.75267 1989.7362 3618604
1252.3687 185.201 1983.827 3947568
1253.3145 183.61063 1966.7911 4079410
1267.1221 183.91649 1970.0675 4473653
1258.7539 181.02753 1939.1217 4736824
1263.6853 180.08635 1929.04 4999737
1251.9969 176.81497 1893.9979 4671028
1243.5214 174.05164 1864.3977 4670515
1250.9316 173.54099 1858.9277 4341805
1233.944 169.68423 1817.6151 4407084
1236.6011 168.57243 1805.7058 4472620
1229.0117 166.09502 1779.1685 4406827
1232.0299 165.08125 1768.3092 4406827
1235.8148 164.18651 1758.725 4406826
1210.572 159.48264 1708.3381 4669744
1214.9142 158.72218 1700.1925 4735794
1220.7723 158.17073 1694.2854 4868150
1220.0002 156.77629 1679.3485 4933686
1205.6499 153.6738 1646.1154 4933687
1210.6932 153.07332 1639.6832 5261884
1214.3239 152.30525 1631.4558 4932917
1221.3003 151.9657 1627.8186 4406317
1233.1331 152.23097 1630.6603 4867379
1245.2576 152.52786 1633.8405 4998964
1259.9812 153.13605 1640.3551 5064757
1265.0796 152.57402 1634.3348 4604206
1289.6226 154.34781 1653.3351 4209449
1277.3596 151.72298 1625.2186 4801586
1287.028 151.72298 1625.2186 4998965
1294.2245 151.43375 1622.1206 5261880
1304.6417 151.52286 1623.0751 5393210
1315.6216 151.67554 1624.7106 5261624
1319.7327 151.03987 1617.9015 5458746
1323.4547 150.36922 1610.7175 5459004
1318.9484 148.78001 1593.6943 5195832
1331.3269 149.10454 1597.1707 5392952
1347.7805 149.87766 1605.452 5459002
1325.9314 146.41045 1568.3123 5327417
1325.4604 145.3358 1556.8009 5524796
1393.2568 151.70961 1625.0754 5656382
1367.9525 147.92783 1584.5659 5590589
1337.978 143.69623 1539.2382 5459001
1369.2996 146.0605 1564.5636 5393209
1390.5916 147.33023 1578.1646 5590587
1378.343 145.05321 1553.7738 5458744
1378.0271 144.05392 1543.0697 5524537
1381.4163 143.45262 1536.6287 5458744
1395.6387 143.97679 1542.2434 5524280
1435.4934 147.12114 1575.9249 5195572
1455.3301 148.18636 1587.3353 5195571
1443.536 146.03787 1564.3213 5392950
1453.2577 146.07967 1564.7689 5063986
1462.7656 146.09956 1564.9821 5457974
1465.1127 145.40851 1557.5796 5524537
1455.5189 143.54849 1537.6556 5327157
1464.1923 143.50203 1537.158 5524280
1472.1774 143.38911 1535.9484 5392695
1451.9962 140.55113 1505.5486 5261109
1453.8503 139.86784 1498.2295 5260853
0 0 0 0
0 0 0 0
0 0 0 0
0 0 0 0
0 0 0 0
0 0 0 0
0 0 0 0
0 0 0 0
0 0 0 0
0 0 0 0
0 0 0 0
0 0 0 0
-1675.0273 194.3318 1956.931 2631191
-1664.8086 194.49803 1958.6051 2434582
-1655.9042 194.82124 1961.8597 2237203
-1641.1615 194.45729 1958.1948 2171408
-1634.3846 195.03873 1964.0499 2039822
-1632.5699 196.22496 1975.9954 2039824
-1620.8873 196.23373 1976.0836 2105617
-1598.6998 194.96158 1963.2729 2039824
-1589.7062 195.29149 1966.5953 1908237
-1573.9615 194.79083 1961.5536 2302995
-1553.0927 193.64378 1950.0027 1908241
-1581.9576 198.7271 2001.192 1908240
-1536.1941 194.4415 1958.0358 2039826
-1508.8379 192.43808 1937.8613 2039826
-1499.7554 192.75243 1941.0267 1842447
-1491.7521 193.21141 1945.6487 1645068
-1492.1267 194.77116 1961.3556 1710861
-1463.7229 192.56938 1939.1836 1118726
-1494.0702 198.12338 1995.1125 1381896
-1440.426 192.53934 1938.881 1316104
-1444.2748 194.61218 1959.7545 1052419
-1438.2306 195.37483 1967.4344 986369
-1433.8038 196.37155 1977.4714 658176
-1432.444 197.80824 1991.9391 460544
-1423.8695 198.26434 1996.5319 526592
-1439.1714 202.08067 2034.9626 131584
-1408.4656 199.44681 2008.4396 66048
-1401.1942 200.11473 2015.1655 65792
-1390.2522 200.26541 2016.683 512
-1375.9908 199.9364 2013.3699 256
-1362.3215 199.68843 2010.8727 256
-1349.3546 199.5399 2009.377 256
-1334.8967 199.16626 2005.6144 0
-1320.1454 198.74174 2001.3394 0
-1304.8341 198.2244 1996.1296 256
-1290.5377 197.85313 1992.3912 0
-1280.879 198.19263 1995.8098 132353
-1276.4266 199.35153 2007.4801 790027
-1260.5343 198.72882 2001.2094 724234
-1234.9844 196.55716 1979.3405 658440
-1231.4323 197.87846 1992.6462 526857
-1217.8248 197.59399 1989.7816 461064
-1202.7506 197.06363 1984.4407 395271
-1185.047 196.08763 1974.6123 257
-1170.4359 195.60895 1969.7921 0
-1155.5137 195.06805 1964.3452 256
-1143.6862 195.0439 1964.1019 256
-1131.2009 194.90588 1962.7122 256
-1118.4095 194.71173 1960.757 256
-1106.2703 194.62816 1959.9155 256
-1094.7201 194.6476 1960.1111 256
-1084.6427 194.93213 1962.9764 131843
-1070.6949 194.51971 1958.8234 592650
-1066.0902 195.81429 1971.8597 790029
-1056.7627 196.26054 1976.3536 0
-1049.5029 197.10519 1984.8594 197636
-1043.4684 198.2018 1995.9023 197635
-1034.9891 198.85396 2002.4695 461064
-1025.1985 199.26639 2006.6227 461578
-1009.5089 198.52846 1999.1918 724234
0 0 0 0
0 0 0 0
0 0 0 0
0 0 0 0
0 0 0 0
0 0 0 0
0 0 0 0
0 0 0 0
-642.86298 141.41904 1424.0968 4
-636.76489 141.94818 1429.4254 132101
-621.26562 140.3676 1413.5089 5132630
-617.56268 141.44543 1424.3627 4606542
-610.70746 141.82123 1428.147 66308
-601.09894 141.55922 1425.5085 260
-594.05707 141.90283 1428.9686 260
-584.58508 141.66747 1426.5986 4277834
-576.28381 141.71307 1427.0579 4804178
-570.13214 142.29657 1432.9337 2304045
-563.19434 142.69858 1436.9819 5
-555.97137 143.03961 1440.4161 6
-548.34247 143.28526 1442.8899 1777700
-536.9325 142.53499 1435.3345 5331550
-530.6416 143.14133 1441.4404 4607828
-516.09772 141.50479 1424.9604 3
-509.5014 142.02904 1430.2396 261
-501.64926 142.21509 1432.1132 262
-492.87598 142.14192 1431.3763 519
-482.72107 141.66072 1426.5306 3358533
-480.31351 143.47655 1444.816 3490114
-468.07614 142.36873 1433.6603 515
0 0 0 0
0 0 0 0
0 0 0 0
0 0 0 0
0 0 0 0
0 0 0 0
0 0 0 0
0 0 0 0
0 0 0 0
-884.24579 328.87335 3311.7712 526853
-862.15643 327.96503 3302.6245 526855
-847.36932 329.85687 3321.6755 526855
-821.08533 327.25681 3295.4927 724234
-797.67438 325.70267 3279.8425 592648
-762.46918 319.13406 3213.6963 197890
-745.29706 319.96948 3222.1091 263683
-722.34125 318.30042 3205.3015 66048
-698.93372 316.33646 3185.5242 197378
-670.67975 312.00836 3141.9402 0
-651.34711 311.70142 3138.8491 0
-633.18054 311.95084 3141.3608 0
-613.4494 311.42117 3136.0271 0
-596.53168 312.3313 3145.1921 0
-577.3089 312.05444 3142.4041 0
-560.39667 313.04977 3152.427 0
-542.80023 313.71857 3159.1619 0
-524.62677 314.08984 3162.9009 256
-511.20609 317.44012 3196.6382 65536
-508.82803 328.17126 3304.7012 263168
-488.32828 327.60748 3299.0242 65792
-467.397 326.69495 3289.835 65792
-451.70432 329.52423 3318.3259 197120
-429.08774 327.33026 3296.2324 66304
-411.04651 328.58359 3308.8535 197632
-396.36429 332.78317 3351.1433 395008
-377.78619 333.9834 3363.23 460802
-358.76767 334.90677 3372.5281 855561
-334.06497 330.31906 3326.3298 0
-315.64795 331.76019 3340.8418 0
-295.05646 330.9559 3332.7427 0
-270.08417 324.76801 3270.4302 256
-252.79823 327.5795 3298.7422 256
-233.80322 328.46317 3307.6409 256
-211.4711 324.39023 3266.6262 256
-190.72597 322.17371 3244.3057 256
-170.87708 321.14249 3233.9211 256
-151.43253 320.70593 3229.5251 256
-131.6223 319.25552 3214.9194 256
-112.04811 317.98178 3202.0928 0
-93.116386 318.38303 3206.1331 0
-74.0541 318.42947 3206.6011 0
-54.996613 318.53604 3207.6741 0
-35.892761 318.34457 3205.7461 65536
-16.756292 317.10168 3193.2302 65536
2.2159278 313.68744 3158.8484 65536
20.88143 311.80151 3139.8569 65536
39.430229 310.77667 3129.5369 0
58.602974 313.74973 3159.4758 1052940
74.615036 302.4664 3045.8518 3355949
93.873878 306.18219 3083.2703 2895652
112.05544 305.7439 3078.8567 2764066
131.96098 309.47183 3116.397 2895654
149.69073 307.80722 3099.6345 2895654
166.88324 305.5242 3076.6443 3027240
183.72487 303.11356 3052.3689 3093031
202.58536 304.16772 3062.9846 3093031
220.58003 303.85526 3059.8379 3224617
237.07449 301.6814 3037.9468 3158824
254.31325 300.6955 3028.0188 3224871
269.75836 297.85956 2999.4609 3093285
285.59412 295.78009 2978.5205 3159078
299.99313 292.54251 2945.918 3356457
320.03546 294.86172 2969.2727 3290663
338.32013 295.40366 2974.7297 3488042
349.83041 290.27066 2923.0403 3356457
366.48712 289.69183 2917.2114 3421997
391.23346 295.27072 2973.3911 3158823
408.29303 294.81653 2968.8176 3356203
424.72629 293.96655 2960.2583 3421996
433.11871 287.84052 2898.5686 3421997
448.15079 286.42722 2884.3364 3421996
472.42554 290.80756 2928.4468 3356203
488.76633 290.16614 2921.9878 3685169
505.27411 289.66455 2916.9368 3487791
512.70428 284.16504 2861.5564 3685170
522.93341 280.52042 2824.855 1777174
563.60126 292.92279 2949.7476 856071
578.75641 291.71677 2937.6028 1185035
601.68652 294.3855 2964.4768 2237722
633.15173 300.95923 3030.6748 2698527
660.06061 305.06314 3072.0015 2632734
668.90973 300.82404 3029.3135 2764320
708.1723 310.12613 3122.9861 2764321
728.55682 310.89688 3130.7473 2830113
728.48462 303.11725 3052.406 2830113
768.84332 312.12988 3143.1638 2830113
760.33234 301.34583 3034.5679 2764320
805.08795 311.68378 3138.6716 2830113
823.22473 311.48135 3136.6331 2764320
837.44434 309.83862 3120.0908 2632734
846.28632 306.32065 3084.6646 2961445
865.05249 306.4679 3086.1475 2895652
882.45972 306.13763 3082.8215 2764066
901.95172 306.5293 3086.7654 2829860
921.86224 307.04474 3091.9561 2698274
942.97882 307.93384 3100.9094 2764068
963.94122 308.73944 3109.022 3027239
986.89514 310.14059 3123.1316 2698273
1005.3358 310.09781 3122.7007 2829859
1025.6866 310.63513 3128.1116 2830114
1062.0958 315.92996 3181.4307 1448459
1063.9663 310.9454 3131.2361 2434841
1082.0941 310.80188 3129.7908 3026978
1105.6776 312.20367 3143.9067 2303255
1112.8102 308.99097 3111.5549 1842705
1129.1005 308.38461 3105.4487 1776912
1140.0469 306.36169 3085.0779 1776914
1155.4556 305.58304 3077.2366 1513741
1170.2325 304.66418 3067.9839 1842707
1184.1589 303.55554 3056.8196 1974293
1196.5137 302.08359 3041.9971 1908500
1214.0466 301.94342 3040.5854 1711121
1212.4573 297.12128 2992.0264 1711121
1225.6804 296.01605 2980.8967 1579536
1231.416 293.15982 2952.1343 1579535
1250.8325 293.59506 2956.5173 1776914
1245.9357 288.39059 2904.1079 1579535
1230.5568 280.93542 2829.0339 1711121
1236.9381 278.58221 2805.3372 1974293
1211.7983 269.28702 2711.7341 2105879
1202.2504 263.6554 2655.0232 2105879
1201.3595 260.0437 2618.6533 1908500
1193.0431 254.93771 2567.2358 2237465
1194.3988 252.00153 2537.6682 1974293
1196.5397 249.30219 2510.4856 1974292
1194.1425 245.73557 2474.5696 1250570
1200.3949 244.01407 2457.2341 2105369
1208.5527 242.71666 2444.1692 2106138
1197.8901 237.7153 2393.8052 2040089
1206.934 236.69612 2383.542 2106139
1208.8932 234.32738 2359.6887 1776920
1209.8435 231.81972 2334.4363 1646104
1204.6868 228.21205 2298.1069 1448470
1205.3162 225.76915 2273.5068 1185042
1207.328 223.63655 2252.0315 987919
1205.9343 220.92685 2224.7446 987664
1207.4698 218.80682 2203.3958 988176
1210.1836 216.9435 2184.6321 1185555
1217.2727 215.89581 2174.0818 988432
1220.3667 214.16902 2156.6929 592904
1220.4226 211.95055 2134.3528 658439
1192.1235 204.90405 2063.3943 526852
1208.838 205.65933 2071 395267
1225.1165 206.32597 2077.7129 395523
1224.9955 204.24495 2056.7571 329474
1224.5741 202.1555 2035.7163 395779
1220.6077 199.52751 2009.2522 329474
1224.0902 198.15633 1995.4443 1118473
1235.2219 198.03786 1994.2512 1382158
1233.0254 195.80505 1971.767 2039828
1244.7157 195.79883 1971.7041 3223845
1259.4413 196.26573 1976.4059 3224101
1257.7496 194.18925 1955.4957 3816236
1241.5503 189.93146 1912.6194 3421733
1238.8574 187.79845 1891.1399 3487268
1231.2844 184.9707 1862.6643 3487268
1241.7402 184.87764 1861.7273 3092510
1240.5762 183.07149 1843.5392 3289375
1233.9917 180.50409 1817.6853 3683622
1226.1932 177.80528 1790.5082 4209965
1228.4911 176.60435 1778.4149 4670515
1222.4653 174.23759 1754.5814 4867894
1231.7924 174.08061 1753.0006 5723202
1223.7261 171.4888 1726.9009 4999480
1215.4175 168.90649 1700.897 5196858
1204.2505 165.97287 1671.3552 4736307
1215.7064 166.1797 1673.438 4867381
1209.8163 164.03133 1651.8038 4604722
1212.7307 163.10173 1642.4426 4801332
1214.8291 162.07809 1632.1346 4274987
1217.323 161.12305 1622.5173 3683364
1230.5143 161.58778 1627.1971 4736306
1243.8574 162.06505 1632.0033 4670514
1253.9866 162.11942 1632.5508 5064504
1265.5895 162.362 1634.9937 5064503
1273.895 162.18111 1633.172 3682850
1286.5166 162.54825 1636.8691 5656639
1293.6732 162.22461 1633.61 5261882
1288.752 160.40251 1615.2615 5327930
1299.1665 160.50203 1616.2635 5327159
1297.6271 159.13409 1602.4884 5393209
1319.0308 160.57924 1617.041 5393209
1327.068 160.38797 1615.115 5458745
1327.0651 159.23473 1603.5018 5459002
1329.3325 158.36842 1594.7781 5261622
1335.2318 157.94402 1590.5043 5393208
1343.0558 157.75163 1588.5669 5195829
1334.7732 155.68333 1567.7391 5195829
1374.8566 159.24582 1603.6135 5261621
1371.8276 157.80006 1589.0546 5459000
1356.7131 154.99341 1560.7914 5459255
1318.1288 149.56187 1506.0957 5261877
1375.4026 155.00685 1560.9269 5195829
1338.7544 149.86484 1509.1465 5459001
1367.6869 152.08376 1531.4911 5524794
1373.8094 151.75366 1528.1671 5590073
1404.0195 154.0712 1551.5048 5392951
