# .PCD v0.7 - Point Cloud Data file format
VERSION 0.7
FIELDS x y z rgb
SIZE 4 4 4 4
TYPE F F F U
COUNT 1 1 1 1
WIDTH 1362
HEIGHT 1
VIEWPOINT 0 0 0 1 0 0 0
POINTS 1362
DATA ascii
-397.63513 685.57227 2032.7585 393216
-386.79453 687.79883 2039.3605 458752
-372.92975 684.61786 2029.9287 458752
-361.61823 686.06812 2034.2288 393216
-343.9231 675.08838 2001.6733 393216
-340.00772 691.33948 2049.8586 393216
-326.08185 687.68811 2039.0322 393216
-315.73901 691.60297 2050.6399 393216
-303.58124 691.69714 2050.9192 393216
-294.13089 698.22632 2070.2786 393216
-341.46219 846.00879 2508.4614 393216
-325.87421 844.2851 2503.3506 393216
-310.9819 844.2851 2503.3506 393216
-297.36795 847.93011 2514.1584 393216
-280.70187 842.79749 2498.9399 393216
-263.46713 835.28784 2476.6733 393216
-211.10582 708.9278 2102.009 393216
-233.41711 833.20734 2470.5044 393216
-216.4032 824.38068 2444.333 393216
-172.51749 704.54108 2089.0022 393216
-160.21407 705.08649 2090.6194 393216
-148.82405 710.08185 2105.4309 393216
-135.19046 704.30682 2088.3076 393216
-122.85026 704.78308 2089.7197 458752
-110.9776 708.35083 2100.2983 458752
-98.364433 707.49762 2097.7686 458752
-98.443558 810.95221 2404.5171 393216
-84.390656 813.37567 2411.7026 458752
-59.888504 695.45068 2062.0486 393216
-48.116978 702.68646 2083.5032 393216
-35.530067 698.90436 2072.2891 393216
-23.226053 699.62457 2074.4246 393216
-10.904134 700.82715 2077.9902 393216
1.4163381 680.93787 2019.0175 393216
13.546904 687.00061 2036.9937 393216
25.772141 689.87225 2045.5084 458752
37.774433 686.84814 2036.5416 458752
49.350788 679.42883 2014.543 393216
62.465351 691.94806 2051.6631 393216
74.376312 689.22113 2043.5778 393216
82.33593 655.78888 1944.4493 393216
100.33775 700.72455 2077.686 393216
112.50783 699.54346 2074.1841 459008
115.51726 647.26691 1919.1812 458752
127.39606 649.62115 1926.1617 458752
139.29103 651.66266 1932.2148 458752
151.90912 656.51801 1946.6111 458752
162.92456 654.24976 1939.8857 458752
174.66756 655.01001 1942.14 458752
186.38538 655.5874 1943.8519 458752
198.91653 658.79095 1953.3506 458752
207.80208 650.2334 1927.9771 458752
221.87801 657.96283 1950.8953 458752
232.96037 656.48785 1946.5219 458752
245.56511 659.23962 1954.6809 458752
259.51581 665.19244 1972.3313 458752
277.32043 680.08136 2016.4777 458752
285.03168 670.00952 1986.6144 458752
282.60532 637.85858 1891.285 458752
289.28439 627.9342 1861.8588 393216
310.11224 648.32129 1922.3075 458752
314.81091 634.73773 1882.0316 458752
316.15482 615.55542 1825.155 393216
317.19397 597.07336 1770.3546 393216
357.7251 651.72833 1932.4095 393216
352.17654 621.64258 1843.2036 393216
353.80081 605.65253 1795.7922 393216
371.87347 617.93164 1832.2004 393216
379.78162 613.10223 1817.8811 393216
390.32272 612.67316 1816.6088 393216
372.2178 568.51416 1685.675 327680
388.54428 577.8819 1713.4509 393216
404.13156 585.6994 1736.6301 393216
418.98044 592.08368 1755.5599 459008
435.73666 600.78729 1781.3666 393216
443.11984 596.461 1768.5388 393216
457.19455 601.13354 1782.3933 393216
474.34036 609.54089 1807.3214 393216
481.67828 605.25134 1794.6028 393216
483.36285 594.19818 1761.8296 393216
487.17624 586.1756 1738.0421 393216
498.56161 587.4079 1741.6959 393216
509.46677 588.03564 1743.5573 393216
520.31616 588.57526 1745.1573 327680
529.51257 587.26056 1741.2592 393472
537.6676 584.86353 1734.1517 196608
544.48553 581.12964 1723.0807 262144
552.14221 578.41241 1715.0238 262400
559.0296 575.00244 1704.9132 327936
567.039 572.8476 1698.524 262144
575.90405 571.61743 1694.8765 327936
589.65387 575.19464 1705.483 393216
601.29968 576.63312 1709.7482 393216
608.84613 574.1579 1702.4091 393216
618.80603 574.00244 1701.948 393216
620.41077 566.2265 1678.892 458752
617.80469 554.91479 1645.3522 458752
621.80157 549.79425 1630.1694 393216
631.0755 549.42523 1629.0752 393216
646.05029 553.95551 1642.5078 393216
666.93402 563.34198 1670.3394 262144
659.1626 548.60394 1626.6401 262144
682.46021 559.77618 1659.7665 262144
0 0 0 0
679.75983 541.88135 1606.7073 262144
720.67529 566.53168 1679.7969 196608
700.38586 543.05182 1610.1779 196608
709.37604 542.60156 1608.8429 196608
747.09521 563.84558 1671.8324 262144
751.42432 559.66235 1659.429 393216
742.36725 545.74689 1618.1688 393216
749.00696 543.57935 1611.7419 458752
756.65515 542.18921 1607.6201 524288
765.40759 541.61523 1605.9182 524288
778.87427 544.3501 1614.0273 524288
785.30573 542.16132 1607.5375 524288
794.18689 541.69623 1606.1584 524288
805.51129 542.88873 1609.6943 524288
812.91351 541.44092 1605.4015 524288
823.21014 541.93213 1606.8579 458752
831.3714 541.02252 1604.1609 393216
831.66913 535.07434 1586.524 393216
846.42035 538.45422 1596.5458 393216
856.19513 538.62854 1597.0625 327680
864.90747 538.13794 1595.6079 393216
875.9577 539.0968 1598.451 327680
884.00336 538.20581 1595.8092 262144
889.26605 535.65747 1588.2532 196608
902.21185 537.74194 1594.4338 196608
914.38379 539.32666 1599.1326 196608
921.58386 537.97644 1595.129 196608
936.47833 541.09955 1604.3892 196608
937.47235 536.20892 1589.8883 196608
966.34546 547.20288 1622.4858 196608
984.40558 551.91693 1636.4634 196608
989.01239 549.06976 1628.0214 328448
1041.6115 572.66333 1697.9775 1446665
1052.4835 573.08301 1699.222 1248772
1083.8611 584.55396 1733.234 1445892
1133.4871 605.5578 1795.5114 1577476
1167.5326 617.9234 1832.1761 1577733
1199.6469 629.04761 1865.1599 1643269
1199.3573 623.13232 1847.6207 1774854
1195.4022 615.43732 1824.8047 2169356
1215.1859 619.99237 1838.3108 2695957
1213.22 613.46851 1818.967 2368019
1227.2838 615.09387 1823.7863 2302226
1226.0646 609.09808 1806.0085 2302226
1233.1696 607.30603 1800.6951 2104337
1236.9397 603.91669 1790.6455 1709322
1234.4905 597.57458 1771.8408 986627
1239.3273 594.83698 1763.7236 1052164
1253.2791 596.48346 1768.6056 394496
1249.6393 589.7998 1748.7881 197632
1264.6283 591.94623 1755.1523 526338
1263.7504 586.69135 1739.5713 1052676
1251.0588 576.08185 1708.1136 2433299
1252.2976 572.00629 1696.0294 3945764
1262.8265 572.20538 1696.6198 3682845
1262.7836 567.64899 1683.1097 3748382
1271.6267 567.12732 1681.5631 3682588
1271.2032 562.51337 1667.8824 3813920
1257.1324 551.97864 1636.6464 3353886
1247.6344 543.59814 1611.7979 2366994
1244.517 538.10437 1595.5084 2433046
1242.6331 533.22308 1581.035 2367766
1244.0704 529.82959 1570.9731 2301718
1244.0228 525.85901 1559.2002 1906960
1243.1084 521.58344 1546.5229 1511947
1253.1262 521.92401 1547.5327 1380362
1260.7542 521.27142 1545.5978 1051399
1274.7445 523.23993 1551.4344 986116
1275.0594 519.60718 1540.6631 1709581
1280.1606 517.96277 1535.7875 1183238
1273.947 511.79611 1517.5029 2499094
1281.2909 511.12442 1515.5114 2367251
1283.8405 508.56305 1507.9167 2630423
1290.1932 507.53333 1504.8635 2301458
1294.7756 505.82605 1499.8015 2564373
1296.4104 502.9986 1491.4178 2366996
1303.3619 502.25842 1489.2233 2563862
1309.493 501.21414 1486.127 2629910
1314.3457 499.69791 1481.6311 2630167
1318.5471 497.9559 1476.4659 2366994
1327.3306 497.9559 1476.4659 2498580
1332.4033 496.573 1472.3656 2564373
1329.884 492.39713 1459.9839 2301201
1336.6427 491.68835 1457.8824 2103822
1349.7579 493.31201 1462.6965 2498580
1360.9896 494.23077 1465.4209 2366994
1355.1307 488.97113 1449.8257 2564372
1347.0676 482.9877 1432.0845 2366993
1331.9406 474.56262 1407.1036 2301457
1405.641 497.69376 1475.6888 2169358
1394.6375 490.73294 1455.0496 2235409
1380.1653 482.64499 1431.0684 2366995
1407.5959 489.21988 1450.5632 2432532
0 0 0 0
0 0 0 0
0 0 0 0
0 0 0 0
0 0 0 0
0 0 0 0
0 0 0 0
0 0 0 0
0 0 0 0
0 0 0 0
0 0 0 0
0 0 0 0
0 0 0 0
-1353.911 546.68079 1592.8419 256
-1345.7203 547.20331 1594.3644 65536
-1339.9414 548.72089 1598.7861 65536
-1331.9238 549.33691 1600.5809 196608
-1327.4712 551.44263 1606.7163 131072
-1321.4277 552.91333 1611.0013 65536
-1318.3071 555.63739 1618.9384 65792
-1319.944 560.42151 1632.8777 526341
-1316.3527 563.04022 1640.5078 987147
-1321.2642 569.36218 1658.9279 592389
-1317.8461 572.16296 1667.0883 723975
-1322.2374 578.42236 1685.3262 723976
-1327.8696 585.32452 1705.4366 790283
-1333.0629 592.13788 1725.2885 724234
-1340.1932 599.92413 1747.9749 526855
-1343.442 606.08099 1765.9139 592648
-1328.9694 604.27716 1760.6581 526855
-1319.7401 604.8476 1762.3202 658441
-1321.3329 610.42676 1778.576 658442
-1298.0312 604.50256 1761.3148 526596
-1295.7684 608.3595 1772.5527 394753
-1283.9188 607.74188 1770.7532 256
-1265.9418 604.18964 1760.4031 196608
-1191.0393 573.18298 1670.0603 196864
-1176.2726 570.8382 1663.2284 262400
-1169.1157 572.17798 1667.1321 327936
-1149.118 567.20251 1652.6354 393472
-1142.0386 568.57263 1656.6273 393216
-1127.3269 566.13373 1649.5211 458752
-1110.4725 562.56653 1639.1276 393216
-1099.6698 562.02899 1637.5614 393216
-1082.7178 558.31097 1626.7283 393216
-1069.2058 556.3158 1620.915 262144
-1058.0038 555.49713 1618.5297 196608
-1046.6162 554.56506 1615.814 196608
-1048.3265 560.62018 1633.4565 196608
-1041.1307 561.98126 1637.4222 196608
-1030.2222 561.34509 1635.5686 196608
-1020.4606 561.32764 1635.5178 262144
-1008.1309 559.88361 1631.3104 327680
-978.28375 548.58838 1598.3999 393216
-967.41034 547.81561 1596.1483 393216
-958.41571 548.10193 1596.9827 393216
-950.99933 549.30573 1600.49 458752
-936.88196 546.62402 1592.6765 393216
-910.87982 536.88263 1564.2935 393216
-914.46313 544.55811 1586.6571 327680
-920.29913 553.74915 1613.4366 196608
-908.95386 552.68683 1610.3414 196608
-899.31177 552.64856 1610.23 65536
-889.30981 552.38593 1609.4647 65536
-878.89526 551.85858 1607.9281 256
-866.94025 550.34161 1603.5083 256
-856.40039 549.69934 1601.6368 256
-846.21606 549.27338 1600.3958 256
-835.65381 548.58954 1598.4033 0
-822.48816 546.16125 1591.3282 0
-812.37738 545.72858 1590.0675 0
-801.65906 544.8728 1587.5741 0
-791.67151 544.49927 1586.4857 0
-780.80261 543.50317 1583.5834 256
-769.20636 541.97028 1579.1171 65536
-739.7417 527.65399 1537.4043 0
-729.07446 526.55536 1534.2031 0
-717.70013 524.9115 1529.4137 65536
-707.31067 523.9552 1526.6272 65536
-696.84216 522.91461 1523.5952 65536
-685.1842 520.9422 1517.8485 65536
-675.21509 520.21838 1515.7395 196608
-665.72351 519.84784 1514.6598 196608
-655.35358 518.77185 1511.5247 196608
-645.8866 518.39056 1510.4138 262144
-637.15027 518.59326 1511.0044 262144
-626.95026 517.59338 1508.0912 327680
-616.72174 516.54059 1505.0237 262144
-606.16675 515.17932 1501.0574 262144
-595.51636 513.69501 1496.7327 262144
-586.04517 513.19836 1495.2854 196608
-576.08411 512.25079 1492.5245 327680
-568.15198 513.10577 1495.0159 327680
-557.27783 511.28888 1489.7219 262144
-545.18195 508.27414 1480.938 393216
-538.01202 509.82831 1485.4663 393216
-518.83929 499.87042 1456.4524 458752
-508.04446 497.78299 1450.3704 459008
-496.97525 495.34995 1443.2812 1378560
-487.9368 494.89102 1441.9441 1510400
-480.40601 495.97217 1445.0942 1641984
-474.84641 499.16489 1454.3967 918272
-556.87024 596.25366 1737.2805 655360
-548.76062 598.68158 1744.3545 655360
-556.75739 619.11322 1803.8854 524288
-597.71692 677.72284 1974.6539 458752
-560.10596 647.8092 1887.4957 458752
-552.2915 651.83875 1899.2363 524288
0 0 0 0
0 0 0 0
-547.39423 688.30127 2005.4758 458752
-542.41553 697.2373 2031.5123 458752
-530.67627 697.69232 2032.8381 393216
-500.3537 673.16687 1961.3793 393216
-497.49173 685.29736 1996.7235 393216
-484.6232 683.90015 1992.6523 458752
0 0 0 0
0 0 0 0
0 0 0 0
0 0 0 0
-449.00214 721.92529 2103.4448 393216
-426.65909 705.66748 2056.075 393216
-411.99899 701.5321 2044.026 393216
-393.48309 690.38007 2011.5327 458752
-387.20908 700.68097 2041.5461 458752
-368.92795 689.21777 2008.1461 393216
-356.79239 688.85248 2007.0819 393216
-382.39252 763.83997 2225.5698 393216
-339.43344 702.3457 2046.3965 393216
-327.83963 703.59064 2050.0239 393216
-313.58884 699.00922 2036.675 393216
-299.84854 695.24316 2025.702 393216
-292.17056 705.8067 2056.4807 393216
-334.30984 842.89825 2455.9187 393216
-315.65988 832.24701 2424.8848 393216
-303.82825 839.41327 2445.7649 393216
-287.8815 835.35944 2433.9534 393216
-233.20561 712.54224 2076.1057 393216
-257.09683 829.46893 2416.7905 393216
-243.25298 831.29211 2422.1025 393216
-229.16797 832.46887 2425.5312 393216
-180.66881 700.39178 2040.7034 393216
-167.26253 695.12927 2025.3704 393216
-156.43483 700.59802 2041.3044 393216
-143.19208 695.26111 2025.7545 393216
-154.76491 820.50653 2390.677 393216
-120.33596 702.53595 2046.9508 458752
-125.79591 817.09644 2380.7412 393216
-111.094 813.151 2369.2456 393216
-95.438049 800.0614 2331.1067 393216
-72.690369 712.96368 2077.3337 393216
-59.254673 700.22754 2040.2249 393216
-47.837215 710.92346 2071.3892 393216
-35.485718 710.34454 2069.7024 393216
-26.138271 801.2356 2334.5278 393216
-10.793014 705.92108 2056.814 393216
1.4538687 711.31091 2072.5181 393216
13.369902 689.98389 2010.3784 393216
26.070427 710.16632 2069.1831 458752
38.190182 706.65625 2058.9561 458752
47.522449 665.79785 1939.9084 458752
58.990543 664.98273 1937.5336 458752
73.37278 691.91479 2016.0044 458752
85.253777 691.00629 2013.3573 458752
98.775314 701.98065 2045.3329 458752
110.20048 697.28314 2031.646 458752
122.31705 697.45673 2032.1516 458752
128.45 666.54889 1942.0968 458752
139.97702 666.42328 1941.7307 458752
150.33832 661.18988 1926.4824 458752
160.88841 657.46936 1915.6421 458752
172.28461 657.46991 1915.6438 458752
183.58725 657.13556 1914.6696 458752
193.62259 652.56903 1901.3644 458752
205.04892 652.93597 1902.4335 458752
216.93001 654.63684 1907.389 458752
227.47536 652.33813 1900.6914 458752
238.198 650.74146 1896.0392 458752
253.74307 661.86798 1928.4583 393216
264.91959 661.12988 1926.3077 393216
271.39215 649.20056 1891.5497 458752
281.31967 646.15674 1882.681 393216
291.9136 644.81805 1878.7805 393216
301.43616 641.29877 1868.5266 393216
310.91336 637.93683 1858.731 393216
318.70963 631.47516 1839.9039 393216
329.66208 631.48853 1839.9427 524544
336.94861 624.70447 1820.1763 393216
349.3822 627.58832 1828.5789 393216
0 0 0 0
369.12015 624.17548 1818.635 393216
383.35571 629.78833 1834.989 458752
397.74509 635.33612 1851.1534 458752
0 0 0 0
397.04382 600.93939 1750.9331 393216
411.16739 606.40723 1766.8644 393216
422.43115 607.48981 1770.0187 393216
433.18219 607.80029 1770.9233 393216
438.9003 601.20203 1751.6981 393216
444.25192 594.41937 1731.9359 393216
459.79483 601.27136 1751.9003 393472
470.1669 601.20758 1751.7145 393216
476.61435 596.23694 1737.2316 393216
487.01306 596.31525 1737.46 327680
483.88571 580.17291 1690.4265 393216
502.26468 589.94855 1718.9094 393216
513.94183 591.61945 1723.7778 327680
526.92053 594.69379 1732.7355 196608
538.27618 595.85364 1736.1147 262144
552.66132 600.26013 1748.9539 262144
559.62762 596.59485 1738.2745 262144
567.10303 593.59552 1729.5355 262144
567.93646 583.87469 1701.2123 327936
572.08295 577.84064 1683.6311 262144
588.69897 584.39252 1702.7211 393216
591.87701 577.6087 1682.9554 393216
598.86127 574.70337 1674.4902 393216
615.63245 581.13147 1693.2195 458752
621.47821 577.20551 1681.7805 458752
632.04272 577.71704 1683.2711 458752
647.54657 582.6571 1697.6647 393216
654.64252 579.99615 1689.9116 393216
663.58374 579.02594 1687.0846 393216
671.15167 576.90411 1680.9023 327680
678.62 574.76025 1674.6559 327680
689.80554 575.78119 1677.6306 262144
673.6947 554.31366 1615.0814 196608
683.05695 554.11432 1614.5006 131072
690.97882 552.76813 1610.5784 196608
699.203 551.69739 1607.4585 196608
710.82697 553.30188 1612.1334 196608
722.35138 554.78717 1616.4611 262144
728.41595 552.09528 1608.6178 262144
739.39551 553.15009 1611.6912 393216
744.46912 549.81616 1601.9773 393216
753.41223 549.38812 1600.7301 458752
764.82202 550.74701 1604.6896 524288
775.0343 551.22076 1606.0698 524288
780.16144 548.11035 1597.0072 524288
794.198 551.25885 1606.1808 524288
802.48779 550.39111 1603.6525 524288
810.48438 549.34491 1600.6044 524288
819.87665 549.25812 1600.3513 458752
826.12982 547.09436 1594.047 458752
826.60852 541.1991 1576.8702 458752
843.30609 545.93591 1590.6716 458752
856.61731 548.3996 1597.85 655360
871.19867 551.61346 1607.2141 720896
876.29364 548.81635 1599.0641 917504
884.2019 547.82227 1596.1677 917504
887.66113 544.12207 1585.3867 655360
895.72205 543.29083 1582.9647 458752
910.33173 546.40771 1592.0461 196608
945.31281 561.56189 1636.2003 196608
954.73334 561.37781 1635.6639 0
959.30481 558.37488 1626.9146 131072
961.51996 554.07422 1614.3838 196608
951.72754 543.00763 1582.1396 196608
981.7666 554.66113 1616.094 196608
981.41785 549.08716 1599.8531 196608
974.67572 540.07758 1573.6024 1117957
990.52295 543.63733 1583.9742 1380613
1053.9899 573.01923 1669.5831 1117698
1121.8695 604.22913 1760.5182 1380099
1130.4211 603.2038 1757.5306 1380100
1187.692 627.95599 1829.6503 1643272
1191.6333 624.31836 1819.0514 1709321
1198.1683 622.0929 1812.567 1577478
1198.3809 616.65363 1796.719 2038029
1210.9377 617.60651 1799.4954 2762008
1209.1965 611.31427 1781.1619 3090717
1224.8749 613.86133 1788.583 2038543
1233.7209 612.96991 1785.9858 1577993
1236.428 609.06964 1774.6217 1841678
1246.2148 608.69342 1773.5256 1907215
1250.0505 605.4411 1764.0496 1052420
1246.5846 598.73608 1744.5133 65792
1253.1357 596.91321 1739.202 197376
1263.7001 597.01617 1739.5021 459776
1242.1127 582.05121 1695.8992 1052164
1252.2178 582.05878 1695.9213 2893847
1253.5663 578.0285 1684.1785 3814432
1270.6115 581.24261 1693.5432 3945501
1269.9332 576.3623 1679.3237 4011294
1270.149 571.96082 1666.4993 3946015
1264.4734 564.995 1646.2034 4011554
1261.3525 559.2691 1629.52 4012325
1250.1018 550.05334 1602.6685 3024921
1238.6006 540.86768 1575.9044 2498837
1241.3656 538.00293 1567.5575 2301459
1242.0176 534.27197 1556.6868 2433304
1249.5204 533.52142 1554.4999 2038546
1268.6183 537.69641 1566.6644 1183236
1275.0986 536.50159 1563.1832 2104342
1269.8176 530.41132 1545.4382 1906704
1280.96 531.21942 1547.7927 1183500
1279.9457 527.01056 1535.5295 459776
1275.9828 521.65588 1519.9277 986117
1279.4523 519.39374 1513.3367 1775371
1274.9578 513.95276 1497.4836 2104337
1286.9061 515.16974 1501.0294 2367508
1291.6444 513.50348 1496.1746 2367508
1293.0565 510.54672 1487.5596 2827545
1298.0758 509.04471 1483.1832 2366994
1306.5571 508.91153 1482.795 2629910
1310.6438 507.07974 1477.458 2432531
1317.2351 506.23505 1474.9968 2498581
1308.3406 499.48947 1455.3424 2564629
1320.0068 500.63046 1458.6669 2498580
1325.3508 499.37445 1455.0073 2366994
1302.8168 487.69876 1420.9883 2301201
1340.3883 498.52866 1452.543 2432787
1348.6696 498.39569 1452.1555 2564373
1350.1385 495.76297 1444.4847 2366994
1328.3374 484.67294 1412.1721 2169615
1369.8229 496.6687 1447.1237 2432787
1357.1024 488.98346 1424.7314 2498066
1393.9186 499.13156 1454.2996 2235408
1396.8815 497.10715 1448.4011 2432787
1398.7063 494.70502 1441.4022 2103822
0 0 0 0
0 0 0 0
0 0 0 0
0 0 0 0
0 0 0 0
0 0 0 0
0 0 0 0
0 0 0 0
0 0 0 0
0 0 0 0
0 0 0 0
0 0 0 0
0 0 0 0
-1361.1097 559.11359 1601.311 196608
-1349.7225 558.34375 1599.1061 196608
-1341.6771 558.95514 1600.8572 196608
-1333.3673 559.46429 1602.3156 196608
-1327.2002 560.88641 1606.3884 0
-1321.8062 562.65808 1611.4626 855048
-1322.6667 567.1377 1624.2922 855560
-1315.7483 568.32312 1627.6873 460802
-1315.998 572.64526 1640.0659 658181
-1315.9779 576.9137 1652.2908 526596
-1319.5593 582.8371 1669.2556 921354
-1322.2374 588.4483 1685.3262 789768
-1324.99 594.17871 1701.7382 592648
-1330.4536 601.22241 1721.9114 658440
-1334.9099 607.91675 1741.0841 592646
-1340.5343 615.25183 1762.0919 658440
-1339.4879 619.61688 1774.5934 395270
-1338.2743 623.97314 1787.0699 329476
-1328.0723 624.17493 1787.6477 526855
-1319.095 624.96008 1789.8965 66049
-1296.8325 619.4126 1774.0084 0
-1290.6183 621.5022 1779.993 986888
-1272.1349 617.66913 1769.0151 197120
-1187.4509 581.36121 1665.0286 196864
-1171.4121 578.33301 1656.3558 262400
-1171.5558 583.31055 1670.6116 262400
-1154.4991 579.73615 1660.3743 197120
-1141.1765 577.99121 1655.3768 393472
-1129.0712 576.83777 1652.0734 393216
-1112.5378 573.38208 1642.1761 327680
-1108.1252 576.16718 1650.1528 327680
-1088.8568 571.2088 1635.952 196608
-1079.3524 571.32941 1636.2975 196608
-1067.4451 570.1687 1632.973 262144
-1055.7506 569.10132 1629.9161 262144
-1044.5903 568.30487 1627.635 262144
-1033.1787 567.35547 1624.9159 262144
-1021.8501 566.43408 1622.2771 262144
-1010.5703 565.52246 1619.6663 196608
-978.3587 552.76703 1583.1344 393216
-964.77502 550.39056 1576.3281 393216
-960.07379 553.08447 1584.0436 458752
-970.51538 564.64185 1617.144 393216
-957.01666 562.36285 1610.6169 393216
-945.34161 561.12018 1607.0579 458752
-933.98608 560.04364 1603.9747 393216
-923.56812 559.513 1602.4548 327680
-902.36652 552.37018 1581.9977 262144
-903.85315 559.11145 1601.3048 65536
-891.90497 557.59717 1596.968 256
-883.27167 558.14502 1598.537 256
-872.86835 557.57416 1596.902 256
-863.52869 557.67761 1597.1984 256
-853.33807 557.22766 1595.9097 256
-843.76965 557.17853 1595.769 256
-833.26215 556.5011 1593.8287 0
-821.4671 554.93817 1589.3527 256
-811.2384 554.40942 1587.8383 256
-799.64368 552.92371 1583.583 0
-790.38208 553.03491 1583.9016 0
-778.47406 551.27484 1578.8607 256
-766.12463 549.15533 1572.7905 256
-740.02863 537.00818 1538.0007 256
-744.38269 546.92975 1566.4164 256
-719.12054 535.06683 1532.4407 65536
-709.07245 534.36469 1530.4298 65536
-699.03143 533.64966 1528.382 65536
-687.35712 531.65253 1522.6621 65536
-675.28442 529.28979 1515.8951 196608
-666.64081 529.58716 1516.7468 196608
-655.27069 527.69708 1511.3335 196608
-644.50964 526.25165 1507.1938 196608
-636.5509 527.08588 1509.583 196608
-627.00519 526.61102 1508.2231 262144
-616.87695 525.62616 1505.4025 262144
-606.72272 524.58972 1502.4341 393216
-596.52722 523.48608 1499.2733 327680
-586.00659 522.05933 1495.187 393216
-575.32977 520.44733 1490.5701 393216
-565.48236 519.54681 1487.9911 393216
-557.26941 520.14331 1489.6995 393216
-547.09125 518.89508 1486.1245 393216
-540.3064 520.87714 1491.8013 393216
-531.47797 520.92236 1491.9308 524288
-508.22455 506.59064 1450.8844 655616
-496.22058 503.17065 1441.0895 1576192
-488.38382 503.9303 1443.2651 1641984
-480.88846 505.07574 1446.5457 1378560
-474.69675 507.65695 1453.9384 786944
-556.88837 606.60852 1737.3373 655360
-561.01874 622.6637 1783.3196 655360
-557.08258 630.21228 1804.939 655360
-566.1853 653.09814 1870.4844 655360
-560.78595 659.83795 1889.7872 655360
0 0 0 0
0 0 0 0
-546.75165 684.49115 1960.3947 458752
0 0 0 0
-530.39722 693.60614 1986.5001 458752
-529.61914 708.37164 2028.7886 393216
-506.29626 692.96863 1984.6741 393216
-494.80231 693.40686 1985.9293 393216
-494.16376 709.45129 2031.8809 393216
-487.51648 717.45752 2054.8108 393216
0 0 0 0
0 0 0 0
0 0 0 0
0 0 0 0
-423.90714 713.26849 2042.8134 393216
-408.46707 707.57373 2026.5034 393216
-397.76508 709.98975 2033.4229 393216
-390.60898 719.08502 2059.4719 393216
-374.05832 710.91461 2036.0718 393216
-366.96518 720.77338 2064.3074 393216
-341.73367 694.45477 1988.9305 393216
-336.33282 707.99268 2027.7034 393216
-318.15857 694.64905 1989.4869 393216
-308.09705 698.67145 2001.0072 393216
-300.66806 709.22699 2031.2385 393216
-290.39594 713.67926 2043.9897 393216
-330.33777 847.31989 2426.7388 393216
-309.27261 829.54047 2375.8181 393216
-250.80646 704.93591 2018.9487 393216
-241.40608 712.64142 2041.0175 393216
-267.25668 830.73682 2379.2446 393216
-216.23506 709.72937 2032.6772 327680
-203.88913 708.84741 2030.1514 327680
-191.98978 709.50488 2032.0343 393216
-180.53336 711.99756 2039.1733 393216
-168.73181 713.3902 2043.1619 393216
-156.02235 710.86237 2035.9221 393216
-165.61095 818.05267 2342.917 393216
-152.16846 820.72449 2350.5691 393216
-136.58304 811.20959 2323.3184 458752
-122.25256 807.84485 2313.6816 393216
-108.63128 808.90729 2316.7244 393216
-84.842079 723.56287 2072.2966 393216
-71.324799 711.69562 2038.3086 393216
-59.442135 714.61835 2046.6794 393216
-45.757828 691.80798 1981.3501 393216
-34.774418 708.17157 2028.2157 393216
-22.743944 709.27118 2031.3651 393216
-10.644682 708.28711 2028.5466 393216
1.4232203 708.38544 2028.8281 458752
13.505589 709.06738 2030.7814 458752
24.955463 691.57739 1980.6896 524288
36.812309 692.96735 1984.6705 524288
47.63422 678.93134 1944.4711 458752
58.823002 674.58765 1932.0308 458752
71.117546 682.27216 1954.0393 458752
0 0 0 0
94.007103 679.67389 1946.5978 458752
103.86905 668.61334 1914.9203 458752
114.38371 663.52545 1900.3485 458752
127.20372 671.52307 1923.2538 458752
137.37901 665.39111 1905.6917 458752
149.77565 670.13287 1919.2721 458752
161.4294 671.11444 1922.0835 458752
170.64824 662.51306 1897.4489 458752
181.76073 661.87457 1895.6204 458752
193.71649 664.20215 1902.2865 458752
202.80411 656.98138 1881.6062 393216
213.95425 656.84814 1881.2244 393216
224.60504 655.27124 1876.7081 458752
237.3167 659.57141 1889.024 458752
247.93898 657.93835 1884.3468 393216
257.35101 653.37396 1871.2743 393216
272.38184 662.86182 1898.4478 393216
278.72559 651.29517 1865.3206 393216
290.22406 652.19806 1867.9066 393216
302.12622 653.90814 1872.8042 393216
313.4538 654.29712 1873.9183 393216
323.26596 651.6048 1866.2075 393216
332.09064 647.16693 1853.4974 393216
358.33932 675.87848 1935.7277 393216
354.47952 647.78131 1855.257 393216
0 0 0 0
0 0 0 0
375.25787 627.17059 1796.2275 393216
395.72711 643.06927 1841.7615 393216
388.84912 614.86841 1760.9938 393216
409.13156 629.96796 1804.2391 393216
416.42477 624.8064 1789.4564 393216
421.24777 616.28821 1765.0602 393216
446.71033 637.64587 1826.2288 393216
444.55536 619.5033 1774.2682 393216
458.41751 624.005 1787.1611 393216
459.10587 610.77679 1749.2753 393216
459.9086 598.28369 1713.4948 393216
474.0087 603.25549 1727.7343 393216
473.49219 589.80896 1689.2231 459008
495.4592 604.34607 1730.8577 393216
504.99948 603.44214 1728.2688 393216
526.34534 616.39966 1765.3793 393216
536.01697 615.44611 1762.6483 393216
544.74011 613.461 1756.9629 393216
548.47058 606.034 1735.6918 327680
562.69794 610.26556 1747.8113 327936
575.83313 613.18073 1756.1603 262144
572.57117 598.84241 1715.0951 262144
581.99139 598.03809 1712.7915 262144
584.10974 589.88727 1689.4474 327680
599.27795 594.96832 1703.9995 327680
604.40961 590.0816 1690.004 393216
637.84528 612.53583 1754.3131 393216
626.08826 591.56622 1694.2559 458752
633.29987 588.89984 1686.6193 458752
642.6297 588.25555 1684.7742 458752
651.24207 586.98444 1681.1337 458752
659.97705 585.86072 1677.9152 458752
668.17322 584.29913 1673.4429 393216
677.99561 584.18469 1673.1151 327680
691.40582 587.12024 1681.5226 196608
667.29553 558.56519 1599.7404 131072
680.49219 561.60217 1608.4384 920071
701.36462 570.80182 1634.7864 196608
707.99731 568.31934 1627.6765 196608
715.60175 566.6734 1622.9625 196608
723.93152 565.63806 1619.9972 262144
733.14203 565.30896 1619.0547 262144
723.22131 550.4281 1576.4357 458752
733.02209 550.74561 1577.3451 393216
741.41364 550.00977 1575.2375 458752
749.48737 549.05939 1572.5156 524288
759.79572 549.74933 1574.4916 524288
770.84796 550.95416 1577.9423 524288
777.62067 549.10803 1572.655 524288
788.34381 550.06219 1575.3877 524288
797.479 549.89905 1574.9203 524288
810.32129 552.26611 1581.6997 393216
821.68878 553.58527 1585.4779 458752
826.61615 550.58496 1576.8849 458752
832.99817 548.60992 1571.2284 458752
877.32892 571.39435 1636.4834 589824
887.32196 571.56036 1636.9589 655360
872.08771 555.64929 1591.3892 655360
904.95703 570.39984 1633.635 589824
880.67328 549.19574 1572.9061 393216
894.27747 551.81647 1580.4119 327680
931.37518 568.72845 1628.8481 196608
941.67108 569.09467 1629.8971 196608
963.72205 576.48523 1651.0636 131072
967.34583 572.81488 1640.5516 65536
978.82227 573.82135 1643.4343 196608
988.37543 573.69159 1643.0626 196608
994.4989 571.59314 1637.0527 196608
1000.5389 569.48785 1631.0232 196608
980.97211 552.98822 1583.7678 196608
990.86096 553.24902 1584.5148 196608
991.84857 548.58167 1571.1475 1380614
1018.4084 558.01331 1598.1598 1314564
1016.357 551.73853 1580.1886 1380612
1093.886 588.38373 1685.1412 1380356
1138.7633 606.96014 1738.3444 1577991
1187.6321 627.31042 1796.6279 1511942
1191.7933 623.89374 1786.8424 1314821
1209.4666 627.54828 1797.3092 1512200
1202.7097 618.57397 1771.6066 1775371
1212.2048 618.04169 1770.0822 1840908
1228.5818 620.99701 1778.5463 1841165
1243.5997 623.22083 1784.9152 2302229
1243.0519 617.67236 1769.0243 1775632
1257.2654 619.49036 1774.2311 1577996
1243.5109 607.61218 1740.2118 526336
1247.9805 604.76135 1732.0471 592129
1255.6564 603.49841 1728.4298 526083
1258.5842 599.99231 1718.3884 657667
1250.8715 591.51111 1694.098 986113
1257.576 589.92859 1689.5657 1512454
1255.6262 584.34351 1673.5701 2301451
1261.7217 582.5611 1668.4651 3814175
1266.1206 580.02924 1661.2137 4143396
1261.3304 573.35956 1642.1117 4274726
1257.5076 567.22864 1624.5527 3748637
1259.6642 563.86792 1614.9275 3748638
1242.5188 551.98328 1580.8896 3814178
1247.1553 549.88098 1574.8687 3616803
1246.7499 545.60358 1562.618 2893339
1254.8101 545.06683 1561.0808 2564376
1271.3744 548.20477 1570.068 1249031
1279.0437 547.4895 1568.0195 1972753
1283.3541 545.35736 1561.9128 2235924
1287.4385 543.16034 1555.6207 2433304
1288.8931 539.89325 1546.2635 1972754
1285.4358 534.62952 1531.1881 2170131
1275.6301 526.81799 1508.8158 1249031
1266.929 519.5686 1488.0536 854531
1275.8851 519.6109 1488.1747 2367511
1286.2596 520.22626 1489.937 2367511
1295.1232 520.22626 1489.937 2433302
1298.0758 517.8681 1483.1832 2301460
1304.1819 516.79138 1480.0995 2235153
1305.9786 514.0329 1472.1992 2564117
1308.4691 511.5824 1465.1809 2300945
1310.6973 509.06253 1457.9639 2498323
1313.8756 506.94232 1451.8916 2301200
1316.1498 504.50327 1444.9061 2366738
1329.8323 506.44049 1450.4543 2366738
1338.2021 506.34256 1450.1738 2432787
1345.319 505.77475 1448.5477 2630165
1313.0619 490.50583 1404.8171 2301201
1349.4158 500.89807 1434.5807 2498580
1352.2179 498.78372 1428.5253 2630165
1376.7225 504.651 1445.3292 2366994
1375.6945 501.14429 1435.286 2366994
1362.9464 493.43781 1413.2145 2169615
1381.7074 497.16333 1423.8844 2038029
0 0 0 0
0 0 0 0
0 0 0 0
0 0 0 0
0 0 0 0
0 0 0 0
0 0 0 0
0 0 0 0
0 0 0 0
0 0 0 0
0 0 0 0
0 0 0 0
0 0 0 0
-1366.9357 571.07367 1608.1652 196608
-1353.3154 569.36829 1603.3628 196608
-1346.0953 570.35052 1606.1288 0
-1337.0121 570.55176 1606.6954 986634
-1334.5695 573.61011 1615.3079 723974
-1325.3259 573.76843 1615.7538 592389
-1318.9351 575.17316 1619.7095 526596
-1318.3342 579.14209 1630.8861 723975
-1317.5648 583.09528 1642.0186 460803
-1319.0807 588.1264 1656.1864 592389
-1319.6743 592.81903 1669.401 526596
-1323.2479 598.93158 1686.6141 723975
-1324.4697 604.06494 1701.0698 592646
-1323.6357 608.33252 1713.0876 658439
-1332.684 617.24335 1738.1808 395011
-1339.1682 625.09674 1760.2963 0
-1335.936 628.50275 1769.8877 0
-1341.2134 635.99805 1790.9948 131841
-1332.4542 636.90405 1793.546 131584
-1333.4897 642.54419 1809.4288 987405
-1316.5802 639.55896 1801.0223 1382161
-1288.9287 631.26373 1777.6626 789766
0 0 0 0
-1180.1082 587.61023 1654.7328 131328
-1172.0806 588.52228 1657.301 262144
-1162.8644 588.84784 1658.2179 327936
-1153.4675 589.08673 1658.8907 393472
-1140.8831 587.68774 1654.951 393216
-1126.4918 585.32568 1648.2993 393216
-1112.4708 583.11615 1642.0773 393216
-1102.9984 583.27271 1642.5182 327680
-1085.6372 579.22327 1631.1147 262144
-1069.1959 575.59595 1620.9001 196608
-1062.9014 577.41479 1626.022 196608
-1052.3256 576.91992 1624.6284 196608
-1044.624 578.00616 1627.6875 196608
-1032.7465 576.78058 1624.2361 196608
-1024.9568 577.83643 1627.2094 196608
-1013.832 577.01422 1624.8939 262144
-989.44556 568.55579 1601.0747 262144
-961.97083 558.14105 1571.7465 327680
-958.07251 561.33533 1580.7417 393216
-948.47968 561.22345 1580.4265 393216
-938.94763 561.14557 1580.2074 393216
-926.62848 559.38379 1575.246 393216
-915.61383 558.38141 1572.4233 393216
-902.0282 555.77429 1565.0815 262144
-916.71667 570.71527 1607.156 196608
-906.29431 570.17328 1605.6296 0
-894.74084 568.90057 1602.0457 65536
-883.54169 567.82812 1599.0256 65536
-873.72748 567.63214 1598.4738 0
-862.20374 566.30902 1594.7477 0
-850.18372 564.62677 1590.0105 0
-840.3681 564.38715 1589.3357 0
-829.82666 563.64917 1587.2574 0
-818.42279 562.30164 1583.4628 0
-808.75391 562.12854 1582.9755 256
-797.91339 561.1275 1580.1564 256
-787.22778 560.21283 1577.5806 256
-776.92413 559.55115 1575.7173 256
-766.35748 558.68158 1573.2686 0
-754.66022 556.95612 1568.4095 65536
-738.82251 552.09332 1554.7159 65536
-712.31628 539.03418 1517.9408 65536
-705.88892 541.02905 1523.5585 65536
-696.2511 540.58319 1522.303 65536
-686.6792 540.17743 1521.1603 65536
-676.30664 539.12262 1518.1898 196608
-666.50439 538.5 1516.4365 196608
-656.11633 537.38049 1513.2839 196608
-646.46063 536.83801 1511.7563 196608
-636.8728 536.33728 1510.3463 262144
-626.59406 535.23218 1507.2343 262144
-616.62201 534.36072 1504.7802 327680
-606.61993 533.43726 1502.1797 393216
-595.78448 531.74231 1497.4065 393216
-586.18555 531.11627 1495.6437 458752
-576.14203 530.06189 1492.6746 458752
-565.62573 528.53278 1488.3684 458752
-555.60101 527.42163 1485.2394 458752
-545.53448 526.23425 1481.8956 458752
-536.20667 525.73218 1480.4817 458752
-522.92572 521.27264 1467.9236 524288
-508.60654 515.60913 1451.975 655616
-493.01126 508.43393 1431.7693 1378560
-488.83087 512.98535 1444.5862 1246976
-481.58539 514.4256 1448.642 1510144
-477.82361 519.70734 1463.5156 918016
-553.0321 612.67169 1725.3068 655360
-552.19366 623.31085 1755.2671 655360
-559.44391 643.66663 1812.5897 655360
-564.07581 661.75073 1863.5153 655360
-561.0174 671.35712 1890.5671 655360
-555.12891 677.90051 1908.9937 524288
-541.29865 674.81659 1900.3092 524288
0 0 0 0
-525.02161 683.0553 1923.5096 458752
-532.28406 707.93323 1993.5669 458752
-534.43402 726.99042 2047.2327 393216
-506.5715 705.15839 1985.7529 393216
-502.54712 716.2594 2017.0138 458752
-493.06247 719.93079 2027.3525 458752
-550.88043 824.52026 2321.8806 393216
0 0 0 0
-440.02124 693.36456 1952.541 393216
-429.58377 695.2713 1957.9104 393216
0 0 0 0
-410.5137 702.50128 1978.2703 393216
-381.1337 671.47382 1890.8959 393216
-378.57727 687.2536 1935.3324 393216
-367.63373 688.32019 1938.3358 393216
-356.10284 688.3205 1938.3367 393216
-363.85483 726.84045 2046.8104 393216
-346.55566 716.25281 2016.9951 393216
-338.60947 724.92944 2041.4288 393216
-325.7915 723.43365 2037.2167 393216
-309.08414 712.85199 2007.4183 393216
-301.89871 724.26312 2039.5525 393216
-289.84467 724.46088 2040.1095 393216
-321.88251 839.6991 2364.6245 393216
-258.88065 706.20819 1988.7092 393216
-292.29568 835.5462 2352.9299 393216
-278.03943 834.76917 2350.7417 393216
-260.97235 825.0238 2323.2983 393216
-246.13831 821.64258 2313.7769 393216
-229.53053 811.58936 2285.4663 393216
-216.22865 812.69519 2288.5806 393216
-202.64731 812.82867 2288.9565 393216
-190.97749 821.20093 2312.5332 393216
-175.61887 813.77991 2291.6353 393216
-163.65128 822.14563 2315.1934 393216
-147.87296 811.1452 2284.2158 393216
-134.2227 810.77332 2283.1685 458752
-120.12334 807.29913 2273.385 393216
-106.60182 807.31976 2273.4431 393216
-84.199196 730.3147 2056.594 393216
-71.520409 725.80646 2043.8987 393216
-59.229923 724.19928 2039.3728 393216
-46.907005 721.26532 2031.1105 458752
-34.727474 719.26501 2025.4777 393216
-22.63254 717.82245 2021.4153 393216
-10.751163 727.56073 2048.8386 393216
1.4088179 713.16412 2008.2972 393216
13.413368 716.22412 2016.9144 393216
25.385538 715.48187 2014.8242 458752
37.450111 716.98474 2019.0564 524288
48.737885 706.49744 1989.5237 458752
60.05484 700.44867 1972.4901 458752
71.42746 696.92053 1962.5547 458752
82.566017 692.42072 1949.8831 458752
93.642708 688.57458 1939.0522 458752
104.32341 682.97974 1923.2969 458752
118.04543 696.43359 1961.1835 458752
129.62035 695.93945 1959.792 458752
137.37906 676.72821 1905.6924 458752
146.632 667.24536 1878.9884 458752
159.57626 674.7135 1900.0188 458752
171.03163 675.3147 1901.7119 458752
181.55223 672.37933 1893.4459 393216
192.91536 672.7251 1894.4194 393216
203.67352 671.03949 1889.6727 393216
213.769 667.461 1879.5955 393216
225.66858 669.59131 1885.5946 393216
235.2867 665.07098 1872.8652 458752
246.19684 664.44647 1871.1064 393216
259.293 669.52045 1885.395 393216
274.45239 679.28021 1912.8789 393216
278.56497 662.01007 1864.2456 393216
288.90973 660.30621 1859.4474 393216
0 0 0 0
309.42996 656.90265 1849.8628 393216
317.35153 650.58209 1832.0638 393216
329.27142 652.60571 1837.7625 393216
338.18698 648.73621 1826.8658 393216
352.66013 655.43671 1845.7347 393216
358.78412 646.68372 1821.0861 393216
0 0 0 0
377.32465 641.36932 1806.1205 393216
392.16605 648.14038 1825.188 393216
402.58411 647.43292 1823.1957 393216
0 0 0 0
425.07449 648.651 1826.6259 458752
435.20792 647.56024 1823.5543 458752
439.08359 637.43793 1795.0494 393216
449.2164 636.66431 1792.871 393216
460.6929 637.7868 1796.0319 393216
466.79077 631.58099 1778.556 393216
457.54004 605.34344 1704.6702 393216
482.70895 624.79486 1759.446 393216
479.61795 607.61871 1711.0774 327680
506.9458 628.89258 1770.9855 393216
510.30194 620.1676 1746.4155 525056
520.85248 620.35956 1746.9562 393216
532.5202 621.84875 1751.1497 393216
542.08215 620.86884 1748.3903 393216
550.80389 618.98157 1743.0757 393216
550.84088 607.58472 1710.9817 458752
564.51361 611.36896 1721.6383 196608
572.62451 609.10217 1715.2549 262400
586.8421 613.29675 1727.067 262400
596.50134 612.6651 1725.2882 459008
602.80005 608.66162 1714.0143 393216
601.45538 597.20203 1681.7437 393216
617.3476 602.95233 1697.9368 393216
625.48077 601.06146 1692.6119 393216
631.69574 597.41626 1682.3469 393216
637.96289 593.93347 1672.5392 393216
642.02454 588.53583 1657.3392 393216
649.27448 586.17987 1650.705 458752
657.90045 585.11804 1647.7147 393216
671.7002 588.62122 1657.5797 393216
671.51892 579.94849 1633.157 196608
675.87439 575.38531 1620.3069 262144
678.29199 569.32397 1603.2379 459520
687.71576 569.22968 1602.9725 196608
698.99847 570.65576 1606.9884 196608
700.67871 564.30969 1589.1176 196608
704.37079 559.73126 1576.2246 196608
727.61786 570.60852 1606.8552 196608
719.00671 556.54388 1567.2488 327680
727.78363 556.12628 1566.0728 458752
736.49731 555.67151 1564.7921 458752
746.55768 556.23138 1566.3688 524288
755.10944 555.66736 1564.7804 524288
761.99188 553.90363 1559.8137 524288
773.88617 555.78162 1565.1023 524288
781.1499 554.3291 1561.0118 524288
792.27509 555.61859 1564.6432 458752
802.42358 556.20129 1566.2839 458752
835.32422 572.36011 1611.7878 458752
816.14362 552.8714 1556.907 524288
828.86151 555.18628 1563.4257 524288
874.50079 579.25641 1631.2081 655360
883.19739 578.5965 1629.3497 589824
893.97064 579.29657 1631.3212 589824
902.96252 578.83966 1630.0344 589824
872.72424 553.51135 1558.709 458752
908.57037 570.18793 1605.6709 393216
928.44904 576.60114 1623.7307 196608
939.53412 577.47742 1626.1984 196608
915.315 556.85748 1568.1318 196608
922.9837 555.85773 1565.3165 196608
931.60455 555.44568 1564.1561 196608
941.724 555.92639 1565.51 196608
950.95667 555.87939 1565.3776 262144
960.86993 556.22723 1566.3571 262144
970.13226 556.19525 1566.267 262144
978.15234 555.45844 1564.192 262144
989.52441 556.62097 1567.4658 196608
998.19153 556.25452 1566.4338 787969
1022.0092 564.25958 1588.9764 1248260
1007.5351 551.17041 1552.1169 1511431
1010.8207 547.94623 1543.0375 1314053
1036.1543 556.62427 1567.4751 1314566
1016.309 541.09375 1523.7406 723205
1187.1296 626.453 1764.1156 591105
1197.4709 626.37286 1763.8898 525314
1050.9207 544.94012 1534.5721 262144
1245.0344 640.03522 1802.3636 920325
1224.4156 624.0614 1757.3806 2499612
1240.1744 626.74194 1764.9292 2828319
1239.3212 621.05286 1748.9086 2039059
1236.8007 614.62994 1730.8213 657921
1245.3741 613.7807 1728.4298 526337
1258.0885 614.96954 1731.7776 460544
1246.2188 604.2196 1701.5054 1841167
1237.098 594.96503 1675.4441 1578250
1243.7012 593.36011 1670.9246 657409
1251.6476 592.41638 1668.2671 1446408
1251.2408 587.56506 1654.6056 1709835
1255.9561 585.17578 1647.8773 2104075
1252.4071 579.00299 1630.4944 3025174
1256.2079 576.29681 1622.8738 4208678
1247.7021 568.02917 1599.5918 4405799
1250.4071 564.95197 1590.9261 4404774
1253.3292 562.01825 1582.6648 4076579
1256.5928 559.28033 1574.9547 3551010
1246.1774 550.53979 1550.3411 2695447
1269.2522 556.61438 1567.4473 1971982
1276.751 555.81946 1565.2089 1907217
1280.548 553.43628 1558.4977 2235925
1280.2883 549.34668 1546.9811 2235925
1279.1942 544.95996 1534.6281 2301718
1283.6614 542.98779 1529.0743 2564888
1279.2205 537.30188 1513.0625 2235923
1278.0703 533.06787 1501.1394 1906958
1278.9602 529.73767 1491.7614 1841166
1277.241 525.38007 1479.4902 2433301
1286.2006 525.4447 1479.6722 2104337
1294.4012 525.20056 1478.9847 2433302
1297.4979 522.90265 1472.5138 2235666
1303.3698 521.74658 1469.2583 2498068
1303.2666 518.22998 1459.3553 2234896
1309.2426 517.16119 1456.3457 2169360
1311.598 514.68579 1449.3748 2300946
1307.6393 509.7811 1435.563 2629911
1312.9838 508.5434 1432.0775 2366739
1323.415 509.27914 1434.1494 2432532
1319.8506 504.65411 1421.1252 2498325
1324.3115 503.13696 1416.8528 2300689
1327.1284 501.0184 1410.8868 2432532
1337.722 501.84381 1413.2113 2629911
1360.7006 507.27612 1428.5089 2235407
1339.6754 496.33801 1397.7068 2432787
1374.5358 506.11221 1425.2313 2235408
1378.3824 504.41714 1420.4579 2366737
0 0 0 0
0 0 0 0
0 0 0 0
0 0 0 0
0 0 0 0
0 0 0 0
0 0 0 0
0 0 0 0
0 0 0 0
0 0 0 0
0 0 0 0
0 0 0 0
0 0 0 0
-1375.6387 584.33728 1618.4039 65792
-1356.9401 580.45715 1607.6572 921355
-1346.8516 580.23108 1607.0311 723975
-1339.9536 581.38617 1610.2303 592389
-1337.5188 584.50836 1618.8776 592388
-1330.1228 585.49194 1621.6018 855559
-1323.7987 586.96527 1625.6824 592389
-1319.4319 589.33447 1632.2441 723975
-1318.2858 593.18793 1642.917 658182
-1315.7856 596.48529 1652.0494 789768
-1321.2372 603.46405 1671.3781 658182
-1327.8325 611.07507 1692.4578 921100
-1323.4342 613.70435 1699.74 789771
-1329.9669 621.48212 1721.2816 0
-1334.4883 628.43335 1740.5341 0
-1335.3063 633.73572 1755.2197 0
-1335.5295 638.83728 1769.3491 0
-1336.8053 644.52722 1785.1083 460806
-1328.0593 645.43774 1787.6301 1645078
-1332.7029 652.92285 1808.3611 921354
-1321.5427 652.72418 1807.8108 460802
0 0 0 0
0 0 0 0
-1181.1816 597.99756 1656.2379 131584
-1172.5261 598.60889 1657.9309 328448
-1163.7943 599.19128 1659.5439 393472
-1152.9135 598.66772 1658.0939 393472
-1141.2827 597.74231 1655.5309 393472
-1126.2228 594.98914 1647.9056 393216
-1115.1544 594.31494 1646.0383 393216
-1103.6361 593.38678 1643.4678 196608
-1092.5543 592.67902 1641.5074 262144
-1068.9761 585.11829 1620.5669 196608
-1057.72 584.22601 1618.0956 196608
-1060.1581 590.95074 1636.7207 196608
-1034.3798 581.92596 1611.7253 196608
-1037.5419 589.16614 1631.778 131072
-1029.0343 589.85382 1633.6826 131072
-1017.9811 589.08154 1631.5437 196608
-1006.1682 587.85059 1628.1344 196608
-979.5033 577.83417 1600.3925 196608
-980.36835 584.02106 1617.528 393216
-970.77722 584.03998 1617.5804 393216
-959.83881 583.2406 1615.3665 458752
-950.08551 583.15247 1615.1223 458752
-939.06006 582.27374 1612.6886 393216
-928.00006 581.35529 1610.1447 262144
-918.13525 581.17407 1609.6429 196608
-906.888 580.10486 1606.6815 196608
-895.74567 579.08063 1603.8447 0
-885.17065 578.40509 1601.9738 65536
-873.61841 577.06927 1598.274 0
-851.41608 568.59186 1574.7947 0
-849.34167 573.51709 1588.4357 0
-839.8374 573.47968 1588.3322 0
-830.92023 573.84686 1589.3491 0
-821.47192 573.85156 1589.3621 0
-786.49762 555.81708 1539.4131 0
-777.39307 555.85516 1539.5187 0
-767.46973 555.30182 1537.9861 65536
-756.33002 553.84436 1533.9493 0
-748.31018 554.66376 1536.2189 65536
-737.63776 553.51306 1533.0317 65536
-727.7713 552.94586 1531.4608 0
-716.69415 551.43274 1527.27 131072
-706.0708 550.23438 1523.951 196608
-695.92548 549.38226 1521.5909 196608
-687.7218 550.06067 1523.47 196608
-675.66064 547.63068 1516.7397 262144
-664.9635 546.25537 1512.9307 262144
-656.17584 546.4325 1513.4211 262144
-646.03223 545.4696 1510.7544 262144
-633.65033 542.56311 1502.7043 262144
-625.93298 543.62451 1505.6442 262144
-616.00769 542.77136 1503.2811 327680
-604.90875 540.84369 1497.9421 393216
-596.57965 541.37189 1499.4052 393216
-585.11163 539.02448 1492.9036 458752
-575.06311 537.9325 1489.8793 458752
-567.5697 539.23389 1493.4836 458752
-557.40265 537.99615 1490.0555 458752
-546.62897 536.12341 1484.8688 458752
-535.41589 533.75116 1478.2985 458752
-520.21429 527.25714 1460.3124 458752
-507.2485 522.84705 1448.098 589824
-496.18561 520.27997 1440.988 1575680
-489.07465 521.83923 1445.3066 1444096
-480.28381 521.62982 1444.7268 1444096
-486.75562 538.29138 1490.8733 1246720
-547.88068 617.13281 1709.2356 720896
-558.21509 640.66357 1774.4075 720896
-560.84613 656.09003 1817.1329 720896
-564.71368 673.59753 1865.6226 655360
-561.0174 682.60394 1890.5671 655360
-556.84711 691.39038 1914.9023 524288
0 0 0 0
0 0 0 0
-553.16302 731.72363 2026.6108 458752
-549.43799 742.98956 2057.8135 458752
-542.69427 750.59387 2078.8748 458752
-508.11896 719.1618 1991.8191 458752
-497.99176 721.65717 1998.7305 458752
-492.66681 731.40399 2025.7257 393216
-481.84329 733.27191 2030.899 393216
-449.9834 702.39923 1945.3929 393216
0 0 0 0
-441.22568 726.07654 2010.9705 393216
-417.20425 705.68054 1954.481 393216
-426.01279 741.2373 2052.9604 393216
-409.01898 732.6734 2029.2415 458752
-398.49884 735.53748 2037.174 458752
-374.59982 713.1123 1975.0643 458752
-354.10202 695.91931 1927.4459 458752
-354.58112 720.18121 1994.6426 458752
-352.30225 740.32764 2050.4409 458752
-335.83728 731.03937 2024.7157 393216
-317.26978 716.31305 1983.9291 393216
-335.48376 786.70038 2178.8767 393216
-299.91498 731.5575 2026.1509 393216
-309.85837 787.45923 2180.9785 393216
-317.89236 843.18256 2335.312 393216
-265.44986 736.25952 2039.1737 393216
-289.97705 842.80463 2334.2651 393216
-275.48965 840.97003 2329.1841 393216
-258.06729 829.50726 2297.4363 393216
-241.62335 820.08313 2271.335 393216
-228.27692 820.67847 2272.9839 393216
-213.89455 817.39008 2263.8762 393216
-199.58528 813.95782 2254.3701 393216
-187.50757 819.78754 2270.5161 393216
-174.15736 820.52698 2272.5642 393216
-159.53516 814.89368 2256.9619 393216
-132.25436 737.62408 2042.9531 393216
-121.67509 747.29199 2069.7297 458752
-108.49693 741.37817 2053.3506 393216
-95.980896 739.06219 2046.9362 393216
-83.984093 740.65222 2051.3398 393216
-71.135094 733.98975 2032.8872 393216
-58.938236 732.70514 2029.3293 393216
-46.788956 731.50262 2025.9988 393216
-34.584023 728.29358 2017.111 393216
-22.592119 728.54419 2017.8051 393216
-10.554997 726.25165 2011.4556 393216
1.3945327 717.75885 1987.9335 393216
13.220748 717.76514 1987.9509 393216
25.059143 718.1145 1988.9185 458752
36.321732 707.03125 1958.2219 458752
48.326672 712.27222 1972.7375 458752
59.323021 703.50433 1948.4537 458752
70.855453 702.92102 1946.838 458752
82.155418 700.51935 1940.1863 458752
93.628662 700.00488 1938.7615 458752
103.90367 691.62738 1915.5587 458752
114.9579 689.57996 1909.8881 458752
125.72647 686.34143 1900.9186 393216
136.67783 684.55286 1895.9648 458752
148.4528 686.84772 1902.3208 458752
158.32414 680.63373 1885.1102 458752
167.99312 674.42938 1867.9264 393216
180.93541 681.32074 1887.0131 393216
191.34621 678.43127 1879.0104 393216
201.52835 675.09491 1869.7698 393216
212.21494 673.70892 1865.9312 393216
223.93771 675.58685 1871.1323 458752
235.73363 677.49713 1876.423 393216
242.62941 665.78833 1843.9939 393216
257.04388 674.83179 1869.041 393216
0 0 0 0
284.80841 688.18646 1906.0287 393216
0 0 0 0
0 0 0 0
294.54453 635.77704 1760.8733 393216
317.5683 661.93268 1833.3152 393216
329.79486 664.5932 1840.6838 393216
340.86273 664.82294 1841.3201 393216
343.87424 649.81433 1799.7516 393216
361.01871 661.61249 1832.4282 393216
0 0 0 0
377.26141 652.00458 1805.8177 393216
0 0 0 0
0 0 0 0
399.72754 636.46112 1762.7681 327680
0 0 0 0
0 0 0 0
430.51047 635.46204 1760.001 393216
447.09412 644.27173 1784.4006 458752
0 0 0 0
460.72943 633.82294 1755.4612 393216
461.99612 621.47876 1721.2723 459008
476.38007 626.93268 1736.3777 327680
486.24362 626.33234 1734.715 393216
496.76877 626.59143 1735.4326 393216
