# .PCD v0.7 - Point Cloud Data file format
VERSION 0.7
FIELDS x y z rgb
SIZE 4 4 4 4
TYPE F F F U
COUNT 1 1 1 1
WIDTH 1319
HEIGHT 1
VIEWPOINT 0 0 0 1 0 0 0
POINTS 1319
DATA ascii
-291.33911 -1013.8094 3527.8052 2961449
-266.7981 -1000.4808 3481.425 3158828
-244.6042 -994.45123 3460.4434 2698277
-223.10744 -990.40808 3446.3743 2764070
-203.87312 -996.60645 3467.9429 2961449
-184.9203 -1005.7313 3499.6953 2895656
-161.63512 -990.61957 3447.1104 2632484
-142.755 -1002.0369 3486.8396 2764070
-122.22716 -1003.8038 3492.988 2698277
-104.27783 -1031.8086 3590.4377 2961448
-82.091301 -1021.5148 3554.6182 2764070
-61.33083 -1027.9803 3577.1167 2698275
-40.262764 -1033.4216 3596.0508 1974809
-18.858292 -1032.7765 3593.8062 3093033
0 0 0 0
22.24601 -961.2879 3345.0435 1251344
0 0 0 0
57.08691 -884.47101 3077.7397 5264719
75.649559 -887.44318 3088.082 3488308
93.663582 -884.07538 3076.363 4540996
112.89672 -891.43469 3101.9717 4540997
131.20973 -890.48169 3098.6553 4409410
149.02663 -886.81116 3085.8828 4475203
167.46538 -887.24042 3087.3765 4212029
185.32663 -884.82758 3078.9805 4474689
203.82935 -885.63586 3081.7932 4343100
221.91515 -884.6488 3078.3584 4277307
238.90953 -879.79309 3061.4617 4145721
257.03824 -879.50653 3060.4646 3947573
272.32034 -870.16193 3027.9475 3553073
283.03177 -848.27814 2951.7974 256
298.8847 -843.46051 2935.0332 0
315.71304 -841.77539 2929.1694 0
331.22507 -836.94055 2912.3455 0
346.30115 -831.53955 2893.5513 0
362.37991 -828.94366 2884.5183 0
378.68338 -827.0733 2878.01 65536
395.04117 -825.47827 2872.4595 65536
411.15314 -823.52307 2865.656 65536
427.49362 -822.16321 2860.9238 65536
443.97781 -821.1731 2857.4785 65536
460.24365 -819.86707 2852.9341 65536
475.99957 -817.77802 2845.6643 65536
492.03159 -816.29041 2840.488 65536
508.58704 -815.74115 2838.5767 65536
524.27991 -813.88812 2832.1287 65536
539.32825 -811.18109 2822.7087 65536
553.66254 -807.59589 2810.2334 65536
571.17194 -808.71661 2814.1331 0
590.99963 -812.96252 2828.9077 0
614.39685 -821.74731 2859.4768 3553847
646.96332 -841.99213 2929.9238 3751739
663.72137 -841.14069 2926.9609 4080450
683.4458 -843.99597 2936.8965 4080706
722.47888 -869.95905 3027.2415 4212292
739.1109 -868.34149 3021.6128 4211523
778.90497 -893.36633 3108.6934 4146240
805.92352 -902.91754 3141.929 4212033
827.50507 -906.08234 3152.9417 4212033
845.58325 -905.35596 3150.4141 4014654
885.97974 -928.03882 3229.3447 3883066
911.83716 -934.85278 3253.0557 3883066
936.24615 -939.92944 3270.7212 3817273
948.45428 -932.79987 3245.9121 3817272
966.30151 -931.3902 3241.0068 3751480
984.67664 -930.53461 3238.0295 3750710
992.96606 -920.36346 3202.6365 3684917
1009.9368 -918.4704 3196.0491 3684661
1019.5594 -910.0882 3166.8811 2763817
1052.238 -922.21716 3209.0869 3487540
1063.1893 -915.21075 3184.7063 3684919
1082.4956 -915.51569 3185.7673 3619126
1103.965 -917.60822 3193.0488 3290159
1093.2916 -893.36493 3108.6885 2237471
1114.7665 -895.7608 3117.0251 2500898
1126.6812 -890.52167 3098.7944 2500898
1130.0459 -878.80243 3058.0142 2303519
1160.9083 -888.49963 3091.7583 2237982
1152.8508 -868.57184 3022.4143 2566180
1187.7341 -881.11127 3066.0486 2500643
1197.8538 -875.17859 3045.4043 2434853
1184.8875 -852.80676 2967.5559 2632231
1200.6567 -851.4704 2962.9055 2566438
1212.8883 -847.70007 2949.7859 2829609
1235.3022 -851.05231 2961.4507 2829607
1230.964 -836.13867 2909.5552 2763815
1245.3383 -834.1731 2902.7153 2763815
1254.4409 -828.77844 2883.9434 2632229
1261.9005 -822.45844 2861.9512 2698022
1266.7921 -814.65515 2834.7979 2895656
1269.672 -805.7804 2803.9158 3027241
1260.1334 -789.35663 2746.7654 3027240
1247.3016 -771.31702 2683.9917 2961703
1246.3584 -760.99207 2648.0635 2764069
1219.4237 -735.25336 2558.4993 3093549
1194.7579 -711.50043 2475.845 3356469
0 0 0 0
0 0 0 0
1175.8429 -675.26282 2349.7471 6191497
1199.0071 -680.47595 2367.8875 12504534
1206.5928 -676.82947 2355.1985 5464426
1209.8456 -670.86401 2334.4402 5727595
1229.6066 -674.08392 2345.6448 1184799
1263.5946 -684.94354 2383.4336 1119260
1219.0885 -653.48578 2273.9683 6
1230.5497 -652.3902 2270.156 5
0 0 0 0
0 0 0 0
1256.3599 -644.84271 2243.8926 5
1247.8141 -633.72314 2205.1992 7
1251.4562 -628.96045 2188.6262 7
1270.0969 -631.75629 2198.355 6
1281.8962 -631.12677 2196.1646 8
1272.3011 -620.08295 2157.7349 268
1214.498 -585.99921 2039.1318 132107
1208.6017 -577.38715 2009.1639 6059650
1210.4177 -572.59216 1992.4785 9086402
1229.2673 -575.86969 2003.8837 9152973
1237.4662 -574.14276 1997.8744 8430537
1236.1439 -568.0733 1976.754 7970499
1243.4861 -566.06232 1969.7565 7643074
1254.3275 -565.66699 1968.3809 8893648
1252.5281 -559.6311 1947.3773 11520726
1239.1815 -548.59381 1908.9702 12702422
1244.2762 -545.84692 1899.4119 13226964
1241.1096 -539.55798 1877.5278 13423059
1248.7373 -538.03198 1872.2179 13488594
1249.6344 -533.65869 1856.9999 13554134
1251.106 -529.60529 1842.8949 13158870
1260.4762 -528.93677 1840.5687 6775417
0 0 0 0
1233.2295 -508.66589 1770.0311 5723999
0 0 0 0
1252.1578 -507.80157 1767.0234 5921375
1211.1211 -487.07053 1694.8845 5723996
1206.738 -481.3009 1674.8076 6184803
1187.9475 -469.92642 1635.2274 4868428
1219.4192 -478.45795 1664.915 5460819
1230.7124 -478.99847 1666.7959 5395024
1244.6741 -480.56064 1672.2317 5460559
1254.7953 -480.62695 1672.4625 5854802
1278.8491 -485.98691 1691.1139 5591629
1288.671 -485.897 1690.801 4341303
1258.27 -470.7598 1638.1273 5656907
1279.0883 -474.87079 1652.4325 5525575
1281.9205 -472.29257 1643.4609 6051662
1288.0522 -470.95978 1638.8231 5920331
1292.0702 -468.87994 1631.5858 5722952
1298.0258 -467.52896 1626.8848 5656644
1301.8613 -465.44009 1619.6161 5919815
1309.8259 -464.84729 1617.5532 5985095
1310.4108 -461.66321 1606.4734 5984837
1311.881 -458.8349 1596.6316 5985094
1318.9619 -457.99554 1593.7108 6116166
1328.9381 -458.16626 1594.3049 5984835
1322.8218 -452.82587 1575.7217 6116164
1330.6573 -452.30301 1573.9022 5853505
1343.8569 -453.59793 1578.4083 5919554
1343.0675 -450.18594 1566.5353 5985349
1361.2096 -453.12289 1576.7552 5721922
1358.0582 -448.97998 1562.3389 6379852
1372.7998 -450.76865 1568.563 6313546
1373.811 -448.05511 1559.1206 6248263
1373.3422 -444.89853 1548.1365 5984836
1382.2683 -444.80725 1547.8188 6116421
1384.2037 -442.48248 1539.7292 6182212
1389.303 -441.19305 1535.2423 6116419
1392.0525 -439.17911 1528.2343 6050627
1383.7548 -433.72858 1509.2678 6050625
1395.7762 -434.67621 1512.5654 5984832
1398.2618 -432.66107 1505.5531 6248005
1445.2089 -444.34161 1546.1985 6182212
1404.4701 -429.08514 1493.1097 6248006
1419.6263 -430.98984 1499.7375 6050885
1411.4448 -425.82977 1481.782 6248263
1417.9316 -425.13168 1479.3528 6248007
1440.9552 -429.36984 1494.1005 6050628
1445.1517 -427.98035 1489.2654 6182213
0 0 0 0
0 0 0 0
0 0 0 0
0 0 0 0
0 0 0 0
0 0 0 0
0 0 0 0
0 0 0 0
0 0 0 0
0 0 0 0
0 0 0 0
0 0 0 0
-1658.8652 -545.42102 1938.049 4012336
-1713.1921 -567.22546 2015.527 3552296
-1709.3912 -569.95605 2025.2296 3355172
-1683.1815 -565.20062 2008.332 3553065
-1652.8359 -558.97852 1986.2229 3553065
-1580.7822 -538.45972 1913.3135 3553322
-1532.9567 -525.95605 1868.884 3553065
-1532.0577 -529.48785 1881.4335 3355431
-1520.0472 -529.203 1880.4215 3421224
-1555.802 -545.66675 1938.9222 3487017
-1543.3782 -545.35254 1937.8057 3289895
-1542.4915 -549.14087 1951.2668 3487017
-1573.9597 -564.59265 2006.1719 3421480
-1538.1761 -555.97247 1975.5416 3355430
-1551.4532 -565.08905 2007.9357 3092259
-1545.2855 -567.20966 2015.4708 3355430
-1541.0378 -570.07373 2025.6477 3223845
-1532.7958 -571.49371 2030.6932 3092259
-1521.1517 -571.65771 2031.276 2960672
-1498.8268 -567.77826 2017.4912 2368793
-1477.2755 -564.13165 2004.5337 1776656
-1454.373 -559.90546 1989.5167 1579278
-1464.5521 -568.4502 2019.8788 723717
-1433.3961 -560.95978 1993.2631 256
-1422.9841 -561.53033 1995.2904 256
-1413.4933 -562.47705 1998.6543 256
-1396.676 -560.49969 1991.6281 789519
-1378.272 -557.84619 1982.1993 460555
-1366.306 -557.77509 1981.9469 527375
-1341.7139 -552.50348 1963.2153 921622
-1335.4836 -554.76697 1971.2582 1251356
-1326.8799 -556.07587 1975.9089 1382942
-1321.7581 -558.88037 1985.8743 1382942
-1309.5963 -558.73193 1985.3469 790806
-1304.8901 -561.79065 1996.2153 790805
-1293.2623 -561.89819 1996.5975 1185563
-1275.812 -559.45453 1987.9144 1711907
-1269.3247 -561.81744 1996.3107 1448736
-1261.1143 -563.4552 2002.1301 1448479
-1245.0875 -561.59857 1995.5328 726038
-1232.3285 -561.19434 1994.0966 791318
-1218.5918 -560.3327 1991.0348 725526
-1205.6383 -559.81775 1989.2052 593425
-1191.2688 -558.6286 1984.9796 1383199
-1177.1224 -557.5213 1981.045 1317148
-1165.895 -557.78821 1981.9934 461839
-1158.5216 -559.92316 1989.5795 724754
-1152.9559 -562.98486 2000.4586 658961
-1154.4034 -569.57062 2023.8601 527117
-1145.7579 -571.263 2029.8737 658702
-1137.5852 -573.22968 2036.8619 658958
-1126.4611 -573.73541 2038.6588 658444
-1127.2815 -580.4021 2062.3477 256
-1233.5522 -642.10602 2281.6006 256
-1236.0845 -650.58264 2311.7207 256
-1231.2062 -655.30579 2328.5034 256
-1218.48 -655.91193 2330.6572 256
-1134.1371 -617.53674 2194.2983 0
-1183.573 -651.95844 2316.6094 0
-1179.3024 -657.25903 2335.4441 0
-1160.2758 -654.36407 2325.1572 0
-1145.2981 -653.71027 2322.8342 0
-1138.1769 -657.57959 2336.583 0
-1127.6979 -659.58063 2343.6934 0
-1145.2667 -678.24207 2410.0032 0
-1151.9535 -690.8504 2454.8044 0
-1149.4816 -698.21936 2480.9888 0
-1140.196 -701.58752 2492.9568 0
-1127.3433 -702.82043 2497.3376 0
-1116.4059 -705.29626 2506.1353 0
-1104.1219 -706.97717 2512.1079 0
-1077.9727 -699.7041 2486.2644 0
-1069.3577 -703.76843 2500.7063 65536
-1044.4567 -697.078 2476.9331 65536
-1065.6503 -721.40033 2563.3577 197376
0 0 0 0
-1293.1211 -901.17993 3202.1699 461056
-1278.8441 -904.55566 3214.165 592640
-1286.2247 -923.58521 3281.783 724227
-1320.5295 -962.83258 3421.241 461056
-1339.588 -992.01819 3524.9465 1118984
-1321.7876 -994.40253 3533.4187 1447694
-1325.1703 -1013.0579 3599.7068 789768
-1293.3516 -1004.9733 3570.98 1119245
-1276.1427 -1008.1608 3582.3062 1514003
-1212.6053 -974.23505 3461.7576 1645589
-1168.4075 -954.94336 3393.2083 1908761
-1138.1512 -946.5683 3363.449 1711383
-1072.316 -907.77386 3225.6003 1908761
-1066.4653 -919.27112 3266.4536 2040348
-992.50415 -871.39569 3096.3376 2237470
-964.83063 -863.11755 3066.9229 2106912
-942.28229 -859.19366 3052.98 2304034
-994.89331 -924.99438 3286.7903 2566437
-905.7738 -859.01874 3052.3584 2698022
-923.00006 -893.26324 3174.0398 2369827
-871.60529 -861.14105 3059.8997 2764587
-854.53735 -862.28656 3063.97 2567207
-835.37775 -861.32538 3060.5544 2896430
-825.49249 -870.0968 3091.7222 2699305
-827.43628 -892.02039 3169.6235 2501926
-801.22675 -883.9079 3140.7974 2698792
-769.84192 -869.56244 3089.8232 2567206
-750.54236 -868.49969 3086.0471 2896172
-731.97693 -868.25446 3085.1758 2896428
-738.37604 -898.37061 3192.1877 3028013
-694.17133 -866.88257 3080.3013 2961707
-675.84686 -866.88257 3080.3013 2764844
-660.62006 -870.96674 3094.8135 2961966
-668.97705 -907.26947 3223.8081 2962223
-645.59076 -901.3941 3202.9309 3225138
-617.20892 -887.97418 3155.2461 3159345
-619.54645 -919.29443 3266.5366 3093552
-596.97644 -914.48816 3249.4583 3028015
-579.37689 -917.22894 3259.1973 3225138
-570.69604 -934.76801 3321.5188 3093549
-566.77509 -961.64111 3417.0073 3093550
-551.05261 -969.74518 3445.8035 2896170
-545.0152 -996.1778 3539.7271 3159342
-527.88232 -1003.6397 3566.2415 1514005
-517.38794 -1024.8767 3641.7029 2567205
-492.99744 -1019.2404 3621.6753 2764584
-471.45233 -1019.2404 3621.6753 2895913
-447.82376 -1014.5204 3604.9038 2961962
-429.05707 -1020.8941 3627.5513 2764839
-402.6329 -1008.7577 3584.427 2764838
-381.68173 -1009.7429 3587.9277 2764068
-357.66116 -1002.2435 3561.28 2829863
-337.44113 -1005.1204 3571.5027 2895656
-313.29126 -995.8916 3538.71 2764070
-291.11014 -992.04236 3525.0325 2961449
-266.84525 -979.94318 3482.0403 2895656
-243.76083 -970.50751 3448.5122 2764070
-223.25824 -970.56128 3448.7036 2961449
-207.39531 -992.8371 3527.8564 2764069
-188.04932 -1001.5774 3558.9133 2829862
-161.77339 -970.94287 3450.0593 2632482
-144.63774 -994.23566 3532.8259 2566689
-122.00894 -981.2691 3486.7517 2764070
-104.16625 -1009.3681 3586.5959 2829863
-82.065826 -1000.0583 3553.5154 2829863
-61.19418 -1004.4573 3569.1465 2303518
-40.689922 -1022.7657 3634.2021 2171933
-18.688622 -1002.2975 3561.4722 2961449
0 0 0 0
22.318668 -944.46313 3355.9688 1185551
0 0 0 0
57.252262 -868.67065 3086.6545 5001802
75.389893 -866.08923 3077.4822 3751478
94.289635 -871.56116 3096.9255 4540994
112.52345 -870.09509 3091.7161 4409409
131.04161 -870.93066 3094.6851 4343616
149.05675 -868.62891 3086.5063 4474688
167.40096 -868.53955 3086.1887 4474688
186.09511 -870.10394 3091.7476 4540478
204.13437 -868.60034 3086.4048 4277307
222.24965 -867.64172 3082.9985 4277306
239.28558 -862.93677 3066.2805 3948339
257.33099 -862.28088 3063.95 4079926
274.64819 -859.43323 3053.8311 4211514
282.64056 -829.56982 2947.7173 256
298.70154 -825.49396 2933.2346 0
314.10007 -820.13843 2914.2046 0
330.9119 -818.84027 2909.5918 0
345.37219 -812.14154 2885.7893 0
361.27368 -809.30566 2875.7126 0
377.40433 -807.21649 2868.2891 65536
393.84137 -805.93506 2863.7356 65536
410.04166 -804.29529 2857.9092 65536
426.19577 -802.6994 2852.2383 65536
442.56027 -801.60657 2848.3552 65536
458.72296 -800.24237 2843.5078 65536
474.7186 -798.69409 2838.0063 65536
490.41415 -796.76477 2831.1506 65536
506.66379 -795.83374 2827.8425 0
522.76318 -794.73413 2823.9353 0
536.37286 -790.03583 2807.241 0
553.03503 -789.98175 2807.0486 0
569.05609 -789.04175 2803.7085 256
589.24219 -793.76593 2820.4951 512
611.45697 -800.8858 2845.7942 2172964
633.21136 -807.03522 2867.645 3489083
663.36609 -823.28748 2925.3943 3752511
686.91547 -830.72058 2951.8064 3752511
715.86322 -844.14893 2999.5212 3949119
740.82019 -852.33252 3028.6003 4145986
771.03455 -866.03284 3077.2817 3948860
798.69 -876.29004 3113.7285 4343618
825.58801 -885.27002 3145.6375 4212033
854.27002 -895.72253 3182.7783 4080448
876.56384 -899.16888 3195.0244 4014652
901.32996 -904.95105 3215.5703 4014652
920.11932 -904.61694 3214.3828 3817273
948.23706 -913.28088 3245.1687 4014652
966.27228 -912.08203 3240.9087 3751480
976.0202 -903.26056 3209.5632 3882809
994.56769 -902.76495 3207.8022 3750710
1008.5493 -898.22162 3191.6582 3553330
1017.0013 -889.01245 3158.9355 2500643
1041.9938 -894.33398 3177.8442 3290159
1060.8986 -894.33398 3177.8442 3684917
1076.2483 -891.38947 3167.3816 3684917
1095.1602 -891.44586 3167.582 3026730
1101.7324 -881.62604 3132.689 2171421
1118.2209 -879.93604 3126.6841 2500129
1122.4548 -868.8158 3087.1704 2369313
1128.1906 -859.19751 3052.9937 2500643
1143.3618 -856.95575 3045.0281 2303264
1156.2357 -853.08911 3031.2886 2566436
1176.359 -854.60773 3036.6846 2566436
1158.0684 -828.59521 2944.2544 2500645
1175.3202 -828.40961 2943.5947 2698025
1201.5559 -834.46869 2965.1245 2698022
1214.5178 -831.26721 2953.7488 2763816
1207.0884 -814.39948 2893.8123 2763815
1227.3346 -816.41577 2900.9768 2566691
1235.4139 -810.39496 2879.5833 2698277
1242.2563 -803.73859 2855.9309 2829861
1254.1379 -800.47821 2844.3459 2764068
1252.2002 -788.60162 2802.1445 3093289
1217.9338 -756.94489 2689.6584 2961447
1249.4534 -766.46472 2723.4856 3158826
1233.7495 -747.14307 2654.8296 3027496
1241.6508 -742.42407 2638.0615 3159085
1215.2354 -717.55988 2549.7114 3093293
1210.0922 -705.71454 2507.6213 3356726
1211.7607 -698.08191 2480.5002 3291961
1157.8306 -658.9884 2341.5891 5594974
1179.4109 -663.29089 2356.877 6059399
1194.5887 -663.9339 2359.1619 11977935
1202.4348 -660.53448 2347.0825 5658728
1208.6014 -656.30096 2332.0396 5923693
0 0 0 0
1225.7274 -650.66321 2312.0071 855827
1217.1533 -638.9422 2270.3586 65796
0 0 0 0
0 0 0 0
0 0 0 0
1239.6549 -623.09741 2214.0571 7
1240.568 -617.00067 2192.3936 7
1242.7692 -611.66486 2173.4338 7
1252.0107 -609.86835 2167.0503 8
1251.8854 -603.59229 2144.7495 267
1276.8102 -609.3988 2165.3818 268
0 0 0 0
1203.3966 -562.99963 2000.5112 6254972
1210.519 -560.78595 1992.6454 8303810
1227.4534 -563.11658 2000.9268 8701390
1244.0017 -565.22705 2008.4259 8832972
1250.8755 -562.94348 2000.3116 10800594
1251.312 -557.83313 1982.1532 12112597
1244.5553 -549.64148 1953.0457 13161174
1246.2659 -545.30615 1937.641 13488853
1246.3036 -540.3252 1919.9419 13488596
1249.3905 -536.74457 1907.2189 13488596
1252.8265 -533.37701 1895.2529 13422806
0 0 0 0
1258.5941 -526.35858 1870.3145 6644080
0 0 0 0
0 0 0 0
1234.4064 -502.90546 1786.9781 5526614
1234.6561 -498.71234 1772.0787 5526869
1237.4147 -495.595 1761.0018 5789784
1231.765 -489.19067 1738.2454 5526612
1225.822 -482.77753 1715.4574 5658196
1190.7394 -465.08865 1652.6033 5723989
1184.2532 -458.76743 1630.1421 5066059
1210.0723 -464.96201 1652.1533 5197387
1228.1562 -468.10852 1663.3339 5592144
1239.5833 -468.68781 1665.3922 5526351
1251.1541 -469.31174 1667.6094 5854801
1263.974 -470.39078 1671.4435 5591629
1281.9005 -473.33856 1681.9178 4209461
1273.1766 -466.47629 1657.5341 5919823
1275.7251 -463.81781 1648.0876 5854284
1277.2848 -460.84314 1637.5177 5787976
1284.2095 -459.83453 1633.9338 5656645
1292.4236 -459.29929 1632.032 5919559
1301.4579 -459.06134 1631.1865 5853511
1306.2881 -457.35501 1625.1234 5985350
1311.163 -455.68927 1619.2045 6182474
1317.4174 -454.52377 1615.0631 6116680
1318.0414 -451.44666 1604.1292 6182473
1325.9838 -450.9024 1602.1953 6248266
1331.9174 -449.68771 1597.8792 5985348
1338.6558 -448.76004 1594.5828 5853762
1344.3997 -447.51434 1590.1565 5853762
1351.2203 -446.64206 1587.0569 5787966
1347.8417 -442.43381 1572.1038 5853760
1351.4803 -440.5712 1565.4854 5787967
1362.512 -441.12766 1567.4625 6116933
1372.5177 -441.34662 1568.2406 5919555
1380.545 -440.93079 1566.7629 5787966
1387.9519 -440.32361 1564.6056 5919810
1387.5973 -437.27869 1553.786 6248775
1386.6556 -434.0903 1542.4567 5919297
1392.3186 -432.99777 1538.5746 5984833
1387.7788 -428.7673 1523.5424 6379590
1393.1847 -427.64462 1519.5531 6511177
1395.8624 -425.70438 1512.6588 6313800
1400.968 -424.52463 1508.4669 6313800
1405.4705 -423.17834 1503.6831 6248007
1406.6826 -420.86469 1495.4619 6248263
1437.1038 -427.26416 1518.2013 6378568
1425.9718 -421.30676 1497.0328 6246982
1431.6278 -420.3526 1493.6423 6378569
1432.9493 -418.14536 1485.7993 6313030
1460.8907 -423.68536 1505.4847 6181701
0 0 0 0
0 0 0 0
0 0 0 0
0 0 0 0
0 0 0 0
0 0 0 0
0 0 0 0
0 0 0 0
0 0 0 0
0 0 0 0
0 0 0 0
0 0 0 0
-1610.0017 -518.16534 1880.9617 3552812
-1599.73 -518.46283 1882.0416 3487273
-1610.3823 -525.59369 1907.927 3684907
-1670.6353 -549.12927 1993.3621 3815723
-1515.6818 -501.75842 1821.4039 3553063
-1564.9359 -521.79401 1894.1339 3487272
-1554.1831 -521.96704 1894.7621 3487271
-1523.0168 -515.23676 1870.3309 3421479
-1516.1091 -516.67444 1875.5498 3487272
-1565.8975 -537.59821 1951.5038 3552552
-1582.4896 -547.35248 1986.9124 3420967
-1554.9132 -541.86176 1966.9806 3421224
-1551.9855 -544.94238 1978.1636 3289894
-1559.0558 -551.60754 2002.3583 3224101
-1536.5953 -547.84662 1988.7061 3223845
-1532.1276 -550.49213 1998.3092 3223845
-1523.5067 -551.67511 2002.6036 2961186
-1520.8342 -555.04767 2014.8462 2763807
-1511.0099 -555.84296 2017.733 2895393
-1495.1903 -554.42786 2012.5962 2566428
-1432.9581 -535.64093 1944.3988 1908500
-1454.488 -548.11328 1989.6741 1513488
-1445.4661 -549.18262 1993.5558 921353
-1435.1244 -549.76404 1995.6664 256
-1423.2897 -549.77844 1995.7188 0
-1413.5203 -550.59766 1998.6925 2
-1392.1666 -546.88007 1985.1975 395017
-1362.1918 -539.68341 1959.0731 658703
-1350.3677 -539.61554 1958.8269 527374
-1342.9296 -541.31445 1964.9941 527120
-1338.6345 -544.32129 1975.9089 987928
-1345.1168 -551.80255 2003.0663 1119770
-1324.2659 -548.10449 1989.6421 1317149
-1313.4705 -548.53918 1991.2201 1185562
-1300.0529 -547.87671 1988.8153 593425
-1290.4512 -548.82495 1992.2574 725012
-1283.9158 -551.10706 2000.5415 856598
-1272.3 -551.23065 2000.9902 1317149
-1256.4641 -549.51093 1994.7477 1383201
-1241.661 -548.21448 1990.0414 1186080
-1231.8219 -549.10571 1993.2767 922908
-1218.9146 -548.63336 1991.562 922907
-1203.4581 -546.9931 1985.6078 857371
-1183.2965 -543.16058 1971.6956 857115
-1173.7671 -544.1806 1975.3983 791320
-1170.3401 -548.07904 1989.5499 1712423
-1161.6012 -549.54407 1994.8679 1647141
-1154.4814 -551.81335 2003.1055 1712163
-1144.0438 -552.52753 2005.698 1645855
-1142.0624 -557.38379 2023.3264 1514526
-1136.8461 -560.74792 2035.5382 1514268
-1126.6418 -561.69775 2038.9861 593165
-1122.327 -565.63641 2053.2837 1
-1222.5023 -622.90259 2261.1624 2
-1233.5686 -635.53424 2307.0156 2
-1111.7007 -579.19177 2102.4902 256
-1135.5352 -598.34125 2172.0037 256
-1147.7928 -611.76129 2220.719 0
-1141.1593 -615.3078 2233.593 0
-1165.8088 -636.00421 2308.7219 0
-1155.4988 -637.89471 2315.5845 0
-1152.7493 -644.05499 2337.9463 0
-1141.1071 -645.33649 2342.5984 0
-1129.986 -646.94812 2348.4485 0
-1125.8069 -652.62427 2369.0532 0
-1151.8628 -676.19373 2454.6113 0
-1145.8655 -681.31012 2473.1841 0
-1128.1188 -679.48279 2466.5508 0
-1113.9242 -679.77484 2467.6111 0
-1115.0645 -689.55792 2503.124 0
-1100.8761 -689.99829 2504.7227 0
-1097.67 -697.42859 2531.6948 0
0 0 0 0
-1052.2256 -687.41833 2495.3572 65536
-1035.8007 -686.37122 2491.5562 0
0 0 0 0
0 0 0 0
-1302.7839 -902.00995 3274.3337 790016
-1300.5851 -914.15576 3318.4236 658433
-1320.4865 -942.4491 3421.1296 592640
-1326.2111 -961.35168 3489.7468 1184524
-1321.0129 -972.81195 3531.3479 1513488
-1313.9457 -983.24377 3569.2161 658694
-1291.3131 -982.17938 3565.3521 1382417
-1249.6271 -966.34509 3507.873 1645589
-1204.5875 -947.33582 3438.8684 1842968
-1181.3473 -945.10962 3430.7871 1842968
-1112.4176 -905.60974 3287.4011 1975324
-1109.3239 -919.25189 3336.9226 1909275
-1067.8749 -901.02838 3270.7708 1909276
-1013.3583 -870.89825 3161.3967 2040861
-969.44617 -848.91437 3081.5945 2172448
-983.95172 -878.22369 3187.9885 2304034
-927.93256 -844.50128 3065.5747 2238241
-905.16364 -840.29401 3050.3022 2369827
-971.42285 -920.25323 3340.5576 2501413
-873.13556 -844.41779 3065.272 2698792
-854.23206 -843.75757 3062.8752 2501412
-843.45538 -851.27081 3090.1484 2501412
-830.63458 -857.0097 3110.981 2239008
-810.38782 -855.17389 3104.3167 2567716
-795.35376 -858.88135 3117.7751 2567462
-775.73029 -857.69165 3113.4565 2699048
-759.83514 -860.66699 3124.2568 2830378
-734.61334 -852.96216 3096.2881 2962222
-712.19116 -848.19519 3078.9839 2830124
-691.90637 -845.78931 3070.2505 2961196
-674.77179 -847.20831 3075.4016 3093039
-654.86292 -845.12604 3067.8428 3027245
-642.75281 -853.27753 3097.4331 3224624
-630.33301 -861.487 3127.2336 3093552
-615.82312 -867.2522 3148.1616 3093552
-602.49207 -875.09131 3176.6179 3027759
-601.46051 -901.88116 3273.866 2961966
-577.83624 -895.45276 3250.5308 3093808
-569.74683 -913.48657 3315.9944 3027758
-556.90503 -924.92102 3357.502 2830378
-551.26569 -949.61334 3447.136 3027756
-536.33661 -959.59277 3483.3618 2896683
-525.3465 -977.70508 3549.1101 1251089
-514.96497 -998.51416 3624.6479 2830376
-492.71426 -997.12213 3619.595 2830376
-465.59973 -985.30981 3576.7158 2698534
-448.84073 -995.33026 3613.0903 2895656
-426.53931 -993.44983 3606.2644 2961448
-402.94611 -988.20221 3587.2153 3027240
-379.9386 -983.8844 3571.5415 2961191
-356.01846 -976.55182 3544.9238 2961447
-333.00842 -970.94928 3524.5862 2895654
-311.172 -968.24579 3514.7725 2829861
-292.74792 -976.53546 3544.8643 2895655
-269.61728 -969.19342 3518.2124 2961449
-247.63956 -965.1087 3503.3848 2895656
-228.0094 -970.26318 3522.0957 2632484
-203.13171 -951.87091 3455.3313 2895657
-183.18724 -955.05688 3466.8962 2961447
-162.31267 -953.58691 3461.5603 2764068
-142.0584 -955.86353 3469.8245 2764068
-122.95482 -967.97314 3513.783 2500896
-103.90469 -985.55066 3577.5901 2764068
-81.916275 -977.1347 3547.0396 2632482
-61.216248 -983.57928 3570.4338 2698274
-40.573872 -998.29083 3623.8372 1974809
-18.787056 -986.27814 3580.2307 2764068
2.4247651 -952.2066 3456.5496 1251086
22.498629 -931.95312 3383.0286 1251088
0 0 0 0
57.024529 -846.92603 3074.3767 5067595
76.39547 -859.08948 3118.5305 2896170
94.639427 -856.30267 3108.4146 4475202
111.9353 -847.25079 3075.5557 4474946
130.77597 -850.7923 3088.4116 4277823
147.90202 -843.68073 3062.5959 4475202
167.51596 -850.76404 3088.3088 4409409
185.27075 -847.93848 3078.052 4540480
204.67542 -852.4931 3094.5854 4540479
222.74214 -851.18317 3089.8303 4343100
240.86798 -850.28168 3086.5579 4277306
259.37576 -850.76068 3088.2966 4014134
273.33353 -837.23932 3039.2134 4211259
0 0 0 0
297.27792 -804.19312 2919.2546 0
313.07278 -800.17627 2904.6733 0
329.59973 -798.35291 2898.0544 0
344.26007 -792.41431 2876.4968 0
360.19943 -789.84271 2867.1619 0
376.55569 -788.37646 2861.8394 65536
392.98767 -787.18884 2857.5281 65536
409.32486 -785.91748 2852.9133 65536
425.35468 -784.18091 2846.6094 65536
441.52411 -782.82471 2841.6863 65536
457.69672 -781.57416 2837.1465 65536
473.61121 -779.98718 2831.386 65536
489.48901 -778.45105 2825.8098 65536
505.62421 -777.41266 2822.0403 65536
521.7326 -776.40106 2818.3682 65536
537.51996 -774.98969 2813.2449 0
552.98566 -773.21368 2806.7979 0
566.73102 -769.20691 2792.2532 0
587.34229 -774.48175 2811.4009 256
607.0033 -778.24622 2825.0662 256
631.20172 -787.46863 2858.5439 3553850
655.24017 -796.01276 2889.5596 3554361
683.56934 -809.19934 2937.4272 4080448
705.55951 -814.41162 2956.3481 3949888
731.25385 -823.54193 2989.4917 4015424
761.23969 -836.95709 3038.1892 3949116
789.38806 -847.77673 3077.4648 3883581
818.14941 -858.74921 3117.2952 4015421
847.26123 -869.59497 3156.6658 3948859
869.24402 -872.81201 3168.344 4080445
894.29059 -878.90363 3190.4568 3883066
918.65204 -884.08276 3209.2573 4014652
937.42877 -883.78577 3208.1792 3751480
956.04596 -883.35333 3206.6094 3882552
974.31824 -882.62524 3203.9666 3816503
990.62604 -880.17981 3195.0891 3619124
1005.3834 -876.47473 3181.6396 3421745
1030.416 -881.69873 3200.603 2500643
1043.5835 -876.76483 3182.6929 3684917
1052.8909 -868.82129 3153.8577 3619124
1073.3387 -870.18805 3158.8191 3684917
1099.4633 -876.03076 3180.0283 2961194
1096.2211 -858.67279 3117.0181 2369312
1110.2726 -855.2132 3104.4595 2303520
1115.675 -845.3136 3068.5237 2237471
1130.822 -842.99707 3060.1145 2105884
1142.1528 -837.95422 3041.8086 2171678
1150.8433 -831.16162 3017.1514 2040092
1147.8357 -816.25885 2963.0537 2237471
1156.8887 -810.25378 2941.2551 2369057
1168.7197 -806.34448 2927.064 2566179
1182.8037 -804.08136 2918.8489 2631972
1198.8346 -803.18823 2915.6067 2500386
1199.3636 -792.08276 2875.2935 2698021
1215.7032 -791.58441 2873.4844 2566691
1216.9315 -781.39685 2836.5032 2961450
1233.8507 -781.42529 2836.6064 2632483
1234.0808 -771.02612 2798.8569 2829861
1221.3615 -752.92096 2733.1345 3224618
1237.6208 -752.92096 2733.1345 2829860
1247.8119 -749.27716 2719.9075 3027240
1220.2799 -723.36505 2625.8452 3027240
1211.2863 -708.95825 2573.5479 3027499
1211.0822 -699.99127 2540.9976 3027759
1201.0251 -685.62085 2488.8323 3356984
1205.5206 -679.80664 2467.7266 3291962
1174.6655 -654.43768 2375.636 5792099
1188.2252 -654.12231 2374.4912 6059651
1189.2124 -646.97443 2348.5442 12043211
1199.1359 -644.79785 2340.6431 5199202
1210.1594 -643.25592 2335.0457 6187120
1226.3406 -644.45947 2339.4146 790551
1204.8376 -626.05457 2272.6042 790293
1189.2281 -611.08655 2218.2695 7
1213.9391 -616.93842 2239.5122 7
1216.4955 -611.52625 2219.8657 7
1239.4105 -616.35461 2237.3928 7
1238.1417 -609.18158 2211.3545 7
1234.588 -601.047 2181.8257 7
1238.0112 -596.44293 2165.1128 7
1245.3618 -593.8064 2155.542 7
1252.3308 -591.04346 2145.5125 8
1260.8668 -589.06842 2138.343 267
0 0 0 0
1199.116 -549.13837 1993.3951 6256505
1210.7112 -549.01892 1992.9614 8895682
1227.1268 -551.06653 2000.3945 12571347
1232.8173 -548.30469 1990.3688 13226708
1242.9563 -547.55511 1987.6478 13423316
1246.6294 -543.99811 1974.7357 13423060
1252.5532 -541.48041 1965.5964 13423060
1258.9152 -539.19708 1957.3079 13423061
0 0 0 0
1267.4843 -533.00745 1934.8392 6315379
0 0 0 0
1246.3687 -514.77826 1868.6665 5658204
1219.2538 -499.12741 1811.8533 5527900
1232.9404 -500.3075 1816.137 5526872
1232.8009 -495.90527 1800.1569 5592663
1227.3115 -489.44543 1776.7073 5460821
1225.233 -484.44455 1758.5538 5526614
1222.225 -479.16388 1739.3849 5658201
1223.4868 -475.63181 1726.5632 5592150
1207.4673 -465.49634 1689.7711 5986904
1197.3477 -457.784 1661.7749 5920855
1189.4233 -451.0303 1637.2589 5197387
1213.4009 -456.38538 1656.698 5460302
1225.7694 -457.32294 1660.1013 5657422
1233.4983 -456.52835 1657.2169 5657422
1247.8113 -458.16385 1663.1538 5788751
1260.8882 -459.32336 1667.3629 5525579
1269.7614 -458.94528 1665.9906 3814957
1272.3293 -456.31186 1656.431 5985870
1267.5529 -451.10501 1637.53 5985868
1272.1398 -449.28455 1630.9216 5919561
1281.2216 -449.06708 1630.1322 5788231
1289.3066 -448.50616 1628.0961 5919815
1297.7913 -448.09155 1626.5909 5919557
1303.5438 -446.7467 1621.7092 5853764
1317.6544 -448.26508 1627.2209 6182472
1317.5399 -444.95724 1615.2133 5919554
1328.626 -445.45255 1617.0112 5787969
1331.5417 -443.22107 1608.911 6050628
1336.2754 -441.62231 1603.1073 5984835
1341.9768 -440.36374 1598.5387 6182213
1350.7389 -440.12015 1597.6545 6050628
1331.3101 -430.75854 1563.6715 5919041
1353.9083 -435.03079 1579.1798 6116419
1361.3688 -434.41364 1576.9396 6116420
1385.4954 -439.08676 1593.9032 6051140
1379.3639 -434.17218 1576.0631 6181957
1388.4863 -434.09293 1575.7754 6182213
1389.683 -431.5535 1566.5571 6182212
1396.7301 -430.85257 1564.0128 6182212
1405.3433 -430.64078 1563.244 6050626
1399.7806 -426.11649 1546.8206 5919040
1401.0494 -423.71729 1538.1113 6182468
1406.5469 -422.61972 1534.1272 6445897
1402.5632 -418.70599 1519.9203 5788223
1414.3773 -419.52829 1522.9052 6051139
1410.7966 -415.8028 1509.3815 5919553
1413.613 -413.99792 1502.8297 6051138
1419.4183 -413.08554 1499.5178 6116678
1415.6713 -409.42203 1486.219 6380106
1423.1429 -409.02832 1484.7898 6248519
1433.6572 -409.50861 1486.5333 5985860
1453.1099 -412.52045 1497.4664 5984835
0 0 0 0
0 0 0 0
0 0 0 0
0 0 0 0
0 0 0 0
0 0 0 0
0 0 0 0
0 0 0 0
0 0 0 0
0 0 0 0
0 0 0 0
0 0 0 0
-1539.0427 -484.63123 1798.0605 3487019
-1557.2378 -493.7926 1832.0508 3026466
-1556.7224 -497.10831 1844.3525 3355941
-1586.4843 -510.20819 1892.9552 3881258
-1562.5052 -506.08893 1877.672 3553320
-1531.9849 -499.77637 1854.2513 3684651
-1500.8341 -493.16504 1829.7223 3553065
-1483.3671 -490.98639 1821.6392 3355942
-1463.29 -487.90543 1810.2083 3421481
-1465.9657 -492.42148 1826.9635 3355431
-1557.0001 -526.90656 1954.9088 3355432
-1554.1008 -529.88324 1965.9529 3223845
-1538.5665 -528.56439 1961.0597 3289638
-1542.4174 -533.93585 1980.9888 3092258
-1534.8077 -535.3924 1986.3926 3224102
-1536.1758 -540.0274 2003.5892 3026978
-1519.2588 -538.25677 1997.0199 3026982
-1507.3787 -538.25677 1997.0199 2763809
-1504.5947 -541.5307 2009.1666 2829602
-1492.3066 -541.40894 2008.7148 2500638
-1481.8593 -541.95831 2010.7533 2105879
-1448.5586 -534.09064 1981.5629 1184266
-1444.3387 -536.90405 1992.001 592387
-1436.4789 -538.39966 1997.55 131584
-1424.1187 -538.21942 1996.8812 256
-1414.3385 -539.01941 1999.8495 256
-1395.0844 -536.19171 1989.3583 66050
-1361.8049 -527.87897 1958.5167 856593
-1363.7551 -533.19684 1978.2467 856339
-1355.5648 -534.60797 1983.4823 658961
-1334.7356 -531.01562 1970.1541 395533
-1328.5089 -533.22058 1978.3348 790805
-1327.5123 -537.58295 1994.5199 1185563
-1316.7046 -538.01501 1996.123 1317148
-1307.5186 -539.12366 2000.2363 1053977
-1297.9656 -540.09998 2003.8586 790807
-1286.248 -540.18542 2004.1755 659219
-1273.4463 -539.81281 2002.793 1119771
-1252.9441 -536.13806 1989.1592 1514786
-1238.7314 -535.11023 1985.3458 1449507
-1229.7435 -536.34143 1989.9137 1515043
-1209.4625 -532.62323 1976.1185 1186078
-1198.1073 -532.80133 1976.7795 1186079
-1184.465 -531.95587 1973.6426 725528
-1175.2837 -533.117 1977.9507 1778215
-1162.5139 -532.65741 1976.2455 1712678
-1159.7941 -536.84033 1991.7646 1778983
-1149.8795 -537.74487 1995.1207 1910312
-1140.498 -538.92023 1999.4816 1844263
-1136.4595 -542.67169 2013.3999 1647138
-1137.9138 -549.15393 2037.4502 1843748
-1122.3676 -547.48285 2031.2504 1646112
-1118.7527 -551.659 2046.7444 257
-1228.0117 -612.19763 2271.3525 2
-1235.9934 -623.03217 2311.5503 2
-1227.0031 -625.45905 2320.5544 256
-1192.0725 -614.56775 2280.146 256
-1182.7275 -616.76813 2288.3098 0
-1165.8458 -615.0437 2281.9119 0
-1154.014 -615.97412 2285.364 0
-1143.7539 -617.7757 2292.0481 0
-1132.468 -619.05994 2296.8127 0
-1119.1329 -619.24176 2297.4873 0
-1110.96 -622.31964 2308.9067 0
-1099.0453 -623.35242 2312.7385 0
-1092.8748 -627.71063 2328.9082 0
-1141.8436 -664.25757 2464.5034 0
-1124.1624 -662.47778 2457.9001 0
-1119.2662 -668.28479 2479.4451 0
-1095.6886 -662.94366 2459.6287 0
-1082.9503 -664.10516 2463.938 0
-1077.2262 -669.65881 2484.5427 0
-1052.2434 -663.22821 2460.6843 65536
-1046.2974 -668.78436 2481.2983 65536
0 0 0 0
0 0 0 0
0 0 0 0
-1280.9429 -867.73553 3219.4397 395264
-1331.0521 -915.36682 3396.1594 592640
-1323.4366 -924.15704 3428.7727 592640
-1318.9365 -935.43207 3470.6047 1052938
-1327.0798 -956.17535 3547.5659 1316111
-1301.7148 -953.05597 3535.9922 526596
-1272.8942 -947.26227 3514.4966 1842712
-1238.0891 -936.74725 3475.4844 1711383
-1240.1997 -954.28015 3540.5342 1777175
-1172.2595 -917.58655 3404.395 1974554
-1113.6278 -887.01727 3290.9778 1777945
-1112.0188 -901.58557 3345.0288 1975068
-1048.4028 -865.49591 3211.1304 1909275
-1013.4128 -852.13715 3161.5669 1975324
-989.81647 -848.03448 3146.3457 1909276
-961.57904 -839.72101 3115.5012 2040862
-936.60297 -833.98468 3094.2185 2369826
-912.74939 -829.03796 3075.8652 2172448
-915.46228 -848.51245 3148.1189 2566949
-889.80505 -841.95581 3123.7925 2435620
-871.77386 -842.48926 3125.7717 2369826
-856.74438 -846.01025 3138.8352 2567205
-831.09216 -838.9646 3112.6948 2501412
-816.81586 -843.3432 3128.9402 2435876
-798.22473 -843.36725 3129.0295 2765097
-779.15222 -842.87177 3127.1909 2699047
-754.87762 -836.58679 3103.8728 2896171
-735.13245 -835.13214 3098.4758 2632999
-734.50507 -855.87964 3175.4524 2764587
-715.78271 -856.08087 3176.199 2962223
-705.64075 -866.83344 3216.0928 3027759
-700.55438 -884.56891 3281.894 2698794
-641.40778 -833.10413 3090.9514 3093039
-647.86072 -866.32135 3214.1926 3026989
-628.79559 -866.39844 3214.4785 3290161
-601.6322 -854.97198 3172.0847 3290161
-592.51019 -869.27399 3225.1475 2961709
-582.00647 -882.43842 3273.9897 3225138
-576.25391 -903.96753 3353.8662 2961965
-558.86243 -908.12817 3369.303 2896173
-552.30615 -930.86023 3453.6423 3027756
-538.73114 -943.06226 3498.9138 2699561
-525.29102 -956.49054 3548.7351 1185807
-516.58044 -980.01624 3636.019 2632997
-492.34747 -974.86316 3616.9004 2698791
-464.67673 -962.12115 3569.6255 2764327
-448.84073 -973.83618 3613.0903 3356207
-425.18472 -968.90955 3594.8118 3158827
-402.90302 -966.75873 3586.8315 3027240
-377.47028 -956.38361 3548.3384 3027240
-354.97119 -952.65265 3534.4958 2961448
-332.91122 -949.70441 3523.5574 2829862
-310.42349 -945.05774 3506.3176 2961449
-291.43945 -951.1767 3529.0198 2961449
-265.7215 -934.56201 3467.3767 2895656
-244.51503 -932.35327 3459.1819 2829863
-223.76004 -931.61835 3456.4551 2961449
-203.39346 -932.5155 3459.7837 2829864
-183.77892 -937.45068 3478.0942 2895654
-164.44463 -945.24902 3507.0273 2961447
-144.13049 -948.86316 3520.4363 3027496
-124.03661 -955.40247 3544.6982 2764067
-104.01814 -965.32068 3581.4963 2961447
-82.299706 -960.50854 3563.6423 2829861
-61.70734 -970.05908 3599.0767 2961447
-40.418598 -972.995 3609.9692 2171931
-18.51358 -950.9328 3528.115 2895397
2.4895642 -956.54095 3548.9221 1119243
22.019972 -892.42865 3311.0549 1514001
0 0 0 0
57.022305 -828.60431 3074.2566 5198923
76.596931 -842.75415 3126.7546 2370081
94.083954 -832.89349 3090.1702 4475458
112.1612 -830.62744 3081.7625 4475202
130.77856 -832.4361 3088.4729 4475199
148.0658 -826.37543 3065.9868 4278077
167.31725 -831.40448 3084.6455 4146491
186.64986 -835.8028 3100.9641 4211511
204.88637 -834.94318 3097.7747 4277304
220.88254 -825.84924 3064.0344 4079926
240.56177 -830.8623 3082.634 4211512
259.92303 -834.1449 3094.813 4211513
277.28571 -831.00354 3083.158 4408637
0 0 0 0
297.62524 -787.74597 2922.6655 0
312.69058 -781.9408 2901.1274 0
329.14728 -780.04034 2894.0762 0
343.45062 -773.47919 2869.7334 0
359.56656 -771.42834 2862.1243 0
375.65604 -769.50867 2855.002 65536
392.05771 -768.36694 2850.7661 65536
408.79126 -767.94336 2849.1943 65536
424.54907 -765.7934 2841.2178 65536
440.7341 -764.54926 2836.6018 65536
456.83273 -763.25256 2831.7908 65536
472.7175 -761.70343 2826.0435 65536
488.60175 -760.25989 2820.6875 65536
504.89111 -759.52161 2817.9485 0
520.78198 -758.25067 2813.2332 0
535.88678 -755.95001 2804.6973 0
551.38306 -754.32373 2798.6636 0
566.56329 -752.37323 2791.4268 0
585.89673 -755.89197 2804.4817 256
604.35077 -758.11267 2812.7209 512
626.21185 -764.37256 2835.946 1909281
650.38098 -773.0473 2868.1309 3554360
676.19666 -783.18555 2905.7456 3620153
696.85559 -786.99463 2919.8779 3685946
726.77185 -800.81903 2971.1687 4080704
750.94171 -807.80542 2997.0891 3949118
776.42603 -815.84888 3026.9316 4080959
811.43561 -833.30975 3091.7144 3949371
843.12598 -846.66345 3141.2588 4080188
866.02435 -850.80066 3156.6084 3948859
925.82751 -890.24872 3302.9673 4014652
911.75677 -858.4986 3185.1689 3751480
930.09381 -857.93463 3183.0767 3751480
953.31061 -861.80463 3197.4348 3619894
974.263 -863.51617 3203.7852 3619894
992.54639 -862.8418 3201.283 3422771
1009.5599 -861.10962 3194.8564 3487794
1033.2316 -865.01575 3209.3486 1974555
1042.7616 -857.15564 3180.1863 3421745
1046.7584 -845.10815 3135.4885 3684917
1061.2435 -841.80225 3123.2229 3487538
1065.8025 -830.87201 3082.6699 3355952
1101.8081 -844.41174 3132.9045 2171676
1118.9781 -843.30585 3128.8015 2171676
1123.639 -832.96283 3090.4275 2369312
1131.0825 -824.9826 3060.8193 2500898
1142.4583 -820.07788 3042.6221 2369057
1143.017 -807.68243 2996.6331 2303264
1143.4094 -795.55212 2951.6274 2303264
1153.4811 -790.42139 2932.5916 2303519
1167.3579 -788.01227 2923.6533 2303519
1166.3408 -775.76733 2878.2227 2764068
1189.8177 -779.9328 2893.6772 2829861
1213.936 -784.39386 2910.2285 2632483
1210.886 -771.42126 2862.0981 2764069
1216.9758 -764.55048 2836.6064 2961447
1223.2073 -757.95538 2812.1375 2829861
1229.6294 -751.65479 2788.7612 2829861
1235.8018 -745.37128 2765.4485 3093033
1233.2477 -734.05872 2723.4771 3093033
1225.3157 -719.88 2670.8716 3027240
1225.9005 -711.00391 2637.9399 3290157
1205.7062 -690.45294 2561.6924 3093291
1214.3123 -686.70166 2547.7747 2896174
1206.9575 -674.12842 2501.1257 3291189
1201.851 -663.10162 2460.2146 3160375
1159.5708 -632.07703 2345.1084 5594205
1186.9202 -639.29364 2371.8831 6056822
1182.8186 -629.59973 2335.9172 10601934
1198.8995 -630.74915 2340.1816 4672600
1202.5015 -625.3822 2320.2695 6382959
1218.8914 -626.71222 2325.2041 725014
1212.6161 -616.4895 2287.2761 921880
1182.8683 -594.69281 2206.4067 4
1213.0541 -603.1756 2237.8794 5
1216.9409 -598.53955 2220.6787 4
1262.4468 -614.25293 2278.978 4
1255.0173 -604.15015 2241.4949 4
1231.3225 -586.51202 2176.0547 5
1234.7122 -582.00781 2159.3433 5
1243.042 -579.901 2151.5269 7
1245.118 -574.94934 2133.1555 8
1256.5178 -574.35956 2130.9673 267
0 0 0 0
1198.1082 -536.82819 1991.7196 6320770
1213.9072 -538.58087 1998.2225 10995913
1224.994 -538.22913 1996.9175 13161429
1235.282 -537.53662 1994.348 13226964
1243.79 -536.09003 1988.9811 13423316
1232.9731 -526.41992 1953.1033 13422809
1235.1494 -522.42596 1938.2852 8091542
1201.6111 -503.53967 1868.2139 6578555
1268.9004 -526.86438 1954.7524 6249582
0 0 0 0
1245.1677 -507.70468 1883.6667 6118754
1236.5364 -499.68842 1853.9252 5461079
1220.095 -488.68573 1813.1033 5526871
1230.2579 -488.43839 1812.1855 5592405
1216.7496 -478.87894 1776.7185 5789781
1224.2881 -477.69623 1772.3304 5657936
1214.541 -469.84677 1743.2078 5460556
1212.6986 -465.16232 1725.8276 5394250
1219.1779 -463.72168 1720.4827 5525579
1204.7869 -454.43298 1686.02 5723215
1194.9426 -446.9985 1658.437 5722958
1194.9521 -443.34164 1644.8694 5064771
1209.2262 -444.99353 1650.9983 5656909
1221.0662 -445.73029 1653.7316 5591372
1231.3995 -445.90967 1654.3972 5722959
1245.4985 -447.43903 1660.0713 5657420
1256.4918 -447.83731 1661.5492 5525833
1264.7903 -447.27646 1659.4683 4012336
1269.5046 -445.46667 1652.7535 6315090
1266.3867 -440.95743 1636.0236 5854795
1274.1907 -440.29095 1633.5509 6051146
1282.7683 -439.89993 1632.1002 6248781
1295.6201 -440.96954 1636.0685 6051402
1303.1215 -440.2157 1633.2716 5919303
1305.5964 -437.78757 1624.2628 6050888
1316.1991 -438.10043 1625.4237 5985093
1323.9429 -437.46414 1623.063 5919302
1331.8978 -436.90631 1620.9933 6116167
1334.0367 -434.46234 1611.9257 5853251
1341.8684 -433.89401 1609.8171 6313799
1345.9153 -432.11862 1603.2302 6182214
1350.4874 -430.53561 1597.3571 6050628
1359.3331 -430.32767 1596.5856 5853249
1368.8315 -430.32785 1596.5862 6182214
1372.9901 -428.66083 1590.4011 6182214
1350.8881 -418.87393 1554.0902 5984836
1387.6565 -427.35013 1585.5383 6050628
1398.7189 -427.84872 1587.3882 6051396
1401.7374 -425.8967 1580.1458 6116932
1404.7367 -423.96481 1572.9783 6051140
1409.991 -422.73459 1568.4139 6248517
1414.0052 -421.15121 1562.5393 5919552
1410.5349 -417.37387 1548.5248 6116931
1414.7157 -415.89474 1543.037 6314310
1412.1013 -412.44998 1530.2563 6116930
1418.5437 -411.67773 1527.3912 6116931
1417.9987 -408.90039 1517.0868 6051141
1409.1044 -403.76575 1498.0365 6116933
1420.515 -404.47729 1500.6764 6116421
1416.5547 -400.8306 1487.1465 6182214
1424.4474 -400.56226 1486.1509 6248008
1431.6702 -400.10999 1484.4729 5787456
1441.6863 -400.43912 1485.6942 6182214
0 0 0 0
0 0 0 0
0 0 0 0
0 0 0 0
0 0 0 0
0 0 0 0
0 0 0 0
0 0 0 0
0 0 0 0
0 0 0 0
0 0 0 0
0 0 0 0
-1523.7526 -469.22617 1780.197 4013363
-1500.9619 -465.44293 1765.8436 3618346
-1472.8027 -459.92981 1744.9274 3553063
-1521.1974 -478.41446 1815.0564 3618086
-1543.4076 -488.86963 1854.7223 3552292
-1476.2762 -470.9729 1786.8239 3552293
-1465.0045 -470.76657 1786.0411 3552292
-1451.7853 -469.92691 1782.8553 3552295
-1498.661 -488.67007 1853.9651 3815467
-1534.6384 -504.11118 1912.5471 3421479
-1507.0664 -498.75174 1892.214 3289638
-1539.1694 -513.20929 1947.0646 3289638
-1525.2695 -512.43091 1944.1113 3355431
-1561.9116 -528.75049 2006.0261 3289638
-1546.6292 -527.60809 2001.6921 3421480
-1527.0187 -524.96008 1991.6459 3026979
-1517.6624 -525.82349 1994.9214 3026979
-1528.5969 -533.78601 2025.1305 2829601
-1495.4672 -526.3656 1996.978 2632221
-1500.6855 -532.43188 2019.9932 2566428
-1468.1086 -525.07849 1992.0948 2500635
-1455.1134 -524.66583 1990.5294 1382155
-1439.6962 -523.36597 1985.5979 1053190
-1431.2374 -524.59515 1990.2612 256
-1422.8164 -525.85876 1995.0552 256
-1413.3092 -526.73883 1998.394 256
-1396.5862 -524.92163 1991.4999 0
-1368.2091 -518.65558 1967.7271 1119764
-1357.8473 -519.16949 1969.6769 922131
-1342.285 -517.68665 1964.051 461582
-1344.2457 -522.99524 1984.1915 527375
-1339.2521 -525.66833 1994.3329 790548
-1328.8586 -526.25079 1996.5426 659476
-1320.1963 -527.53546 2001.4165 1251356
-1306.9983 -527.01459 1999.4404 1251356
-1296.7296 -527.67627 2001.9507 1119770
-1285.1929 -527.82935 2002.5314 725012
-1268.822 -525.98132 1995.5201 790805
-1252.4055 -524.07935 1988.3042 593682
-1237.9899 -522.98627 1984.1575 1054491
-1223.8398 -521.9856 1980.3607 1449248
-1207.9331 -520.20874 1973.6198 1054746
-1194.4041 -519.43109 1970.6694 922390
-1171.5592 -514.54663 1952.1381 462096
-1176.4845 -521.88293 1979.9714 264461
-1166.6503 -522.75427 1983.2772 131588
-1155.2374 -522.92883 1983.9393 132101
-1146.5726 -524.36371 1989.3832 197894
-1139.3971 -526.51672 1997.5515 395788
-1137.3811 -531.12445 2015.0327 988182
-1136.601 -536.41364 2035.0994 527116
-1120.3386 -534.43134 2027.5786 264201
-1123.2631 -541.65796 2054.9958 514
-1109.7096 -541.01031 2052.5388 1
-1238.1587 -610.34827 2315.5999 256
-1227.4618 -611.88281 2321.4219 256
-1193.1443 -601.54364 2282.196 256
-1193.9807 -608.89392 2310.0823 0
-1173.118 -605.22058 2296.146 0
-1171.4611 -611.48578 2319.9155 0
-1160.4229 -612.94513 2325.4521 0
-1149.0072 -614.23792 2330.3569 0
-1129.8248 -611.35962 2319.437 0
-1124.1112 -615.78833 2336.239 0
-1106.8042 -613.89764 2329.0659 0
-1092.8744 -613.85583 2328.9075 0
-1084.1399 -616.76868 2339.9583 0
-1124.347 -647.96234 2458.304 0
-1123.7433 -656.14886 2489.3628 0
-1111.5751 -657.71149 2495.2913 0
-1093.8707 -655.99634 2488.7842 0
-1072.403 -651.94617 2473.4182 0
-1059.2072 -652.88208 2476.969 0
-1046.4545 -654.1214 2481.6709 65536
-1032.2616 -654.48315 2483.0432 196608
0 0 0 0
0 0 0 0
-1293.9863 -857.22412 3252.2222 592640
-1306.9351 -878.94397 3334.6252 461056
-1322.7587 -903.29651 3427.0161 395264
-1318.5498 -914.51752 3469.5874 855558
-1313.1866 -925.28186 3510.4265 1513488
-1301.5786 -931.92291 3535.6218 987145
-1289.0706 -938.12714 3559.1599 724489
-1228.5807 -909.0365 3448.793 1579797
-1229.5472 -925.20203 3510.1235 1842713
-1164.9165 -891.71313 3383.0698 1842968
-1147.4989 -893.82257 3391.073 1711896
-1090.973 -864.99963 3281.7217 1975068
-1053.5472 -850.54633 3226.8872 2106654
-1016.0486 -835.49646 3169.7896 2304289
-992.99487 -831.98016 3156.4492 2041631
-971.8457 -829.95483 3148.7651 2107424
-951.68817 -828.71338 3144.0552 2238754
-922.19922 -819.13348 3107.7102 2435620
-918.66693 -832.68921 3159.1389 2501413
-902.6167 -835.2276 3168.7698 2501670
-875.92896 -827.82123 3140.6704 2435875
-856.74438 -827.33746 3138.8352 2698792
-838.34692 -827.60919 3139.866 2764585
-819.05896 -826.9942 3137.5327 2830377
-799.9679 -826.55396 3135.8628 2698792
-778.37073 -823.44147 3124.0542 2567207
-758.02374 -821.5318 3116.8088 2632999
-732.98145 -814.30988 3089.4097 2896427
-739.28113 -842.43164 3196.1008 2961966
-694.0451 -811.76135 3079.741 2699051
-675.91473 -811.9906 3080.6106 2896173
-688.04773 -849.60187 3223.304 2961966
-669.86328 -850.86041 3228.0789 2961966
-650.60162 -850.78455 3227.791 3027759
-616.349 -830.50433 3150.8501 3224881
-603.63092 -838.87909 3182.6228 3093295
-613.25592 -879.85223 3338.0708 2962222
-589.25061 -873.70276 3314.7405 3027759
-573.18311 -879.30475 3335.9937 2896171
-568.99524 -904.18646 3430.3923 3028013
-555.57233 -915.69794 3474.0659 2831146
-547.45782 -937.18646 3555.5911 3028269
-528.61682 -941.30164 3571.2036 1251345
-521.27789 -967.10059 3669.0823 2830377
-493.40924 -955.40228 3624.7002 2304033
-465.96271 -943.48944 3579.5042 2698791
-447.82581 -950.18866 3604.9202 3027242
-425.18472 -947.52429 3594.8118 2895656
-401.79929 -942.83093 3577.0059 3027242
-377.29633 -934.84375 3546.7034 3027241
-354.26715 -929.77844 3527.4858 2829862
-331.32327 -924.31305 3506.7507 2829863
-309.0239 -920.03204 3490.509 3027242
-286.31204 -913.81769 3466.9326 3158828
-265.92599 -914.63818 3470.0452 2895912
-248.55872 -926.85333 3516.3884 2961449
-223.78226 -911.14655 3456.7983 2895656
-211.69798 -949.16742 3601.0459 2764068
-184.33499 -919.53363 3488.6182 2961447
-165.07826 -927.94781 3520.5408 2764068
-146.46846 -942.97223 3577.542 2764068
-124.0484 -934.40411 3545.0352 2632481
-103.35288 -937.97699 3558.5906 2895653
-83.150894 -949.02344 3600.4995 2829861
-61.844887 -950.76294 3607.0989 2764068
-40.426903 -951.71497 3610.7109 2303517
-18.467615 -927.63544 3519.3555 3093033
2.455183 -922.51019 3499.9111 1316622
22.432281 -889.07269 3373.0525 1383183
0 0 0 0
56.750298 -806.45044 3059.592 5067593
76.429787 -822.35486 3119.9316 3488561
94.14679 -815.0542 3092.2339 4278077
112.32005 -813.44476 3086.1274 4343870
130.70036 -813.57617 3086.6262 4146491
148.8797 -812.57831 3082.8406 4278078
167.29163 -812.92963 3084.1731 4146748
184.46968 -807.80823 3064.7432 4474684
205.17432 -817.66229 3102.1284 4145720
223.50714 -817.21777 3100.4421 4014133
242.69319 -819.72302 3109.9468 4079926
261.77646 -821.55072 3116.8809 3948341
280.4852 -822.03894 3118.7332 4145979
0 0 0 0
296.29865 -766.92554 2909.6384 0
312.33917 -763.82281 2897.8669 0
328.53159 -761.39673 2888.6626 0
342.82706 -755.03406 2864.5232 0
358.97836 -753.16766 2857.4424 0
375.11118 -751.43298 2850.8611 65536
391.62079 -750.5705 2847.5891 65536
408.11401 -749.74945 2844.4741 65536
