# .PCD v0.7 - Point Cloud Data file format
VERSION 0.7
FIELDS x y z rgb
SIZE 4 4 4 4
TYPE F F F U
COUNT 1 1 1 1
WIDTH 1302
HEIGHT 1
VIEWPOINT 0 0 0 1 0 0 0
POINTS 1302
DATA ascii
-408.05573 -1463.4948 3449.9912 2566180
-384.0174 -1450.2223 3418.7031 2369570
-369.24799 -1472.4264 3471.0464 2500387
-349.67526 -1476.9727 3481.7634 2369056
-323.45633 -1452.2512 3423.4861 2303263
-311.81415 -1494.052 3522.0256 2369056
-288.49966 -1481.9183 3493.4224 2237728
-271.76801 -1504.3395 3546.2771 2238241
-244.15779 -1465.2496 3454.1279 2172448
-228.54657 -1497.6016 3530.3933 2369827
-199.25879 -1437.8136 3389.4514 2238243
-180.07379 -1445.6705 3407.9729 2303266
-166.62419 -1507.4077 3553.51 2434852
-141.07896 -1461.76 3445.9016 2368802
-125.80105 -1525.0596 3595.1221 2500644
-105.3067 -1538.1001 3625.8633 2434850
-83.687874 -1537.2042 3623.7512 2171935
-61.141186 -1512.7296 3566.0557 1777176
-40.521938 -1535.2729 3619.1987 1776920
-18.75239 -1515.9404 3573.6248 1447955
2.4127145 -1458.9899 3439.3713 1185296
0 0 0 0
39.110771 -1316.8016 3104.1819 5067342
58.016426 -1326.8429 3127.853 4935756
75.554718 -1308.3297 3084.2107 3554103
95.079956 -1324.735 3122.8838 4343619
114.46055 -1334.0912 3144.9399 4541255
132.98831 -1332.275 3140.6584 4541255
151.16121 -1327.7891 3130.0835 4475462
169.73975 -1327.4595 3129.3064 4475462
188.17458 -1326.1823 3126.2954 4541257
208.63715 -1338.1401 3154.4846 4672843
227.03999 -1336.0042 3149.4492 4738636
243.65376 -1324.4685 3122.2556 4738636
260.96335 -1318.0815 3107.1992 4936015
278.70557 -1314.5803 3098.9456 5002065
291.73318 -1290.6554 3042.5459 5000782
298.52502 -1243.55 2931.5012 5132881
324.6391 -1277.6915 3011.9851 5198674
340.63336 -1270.5156 2995.0691 5198674
356.13586 -1262.3104 2975.7263 5198675
373.15173 -1259.9922 2970.2612 5067602
387.39658 -1248.95 2944.2307 5199443
404.18372 -1246.7046 2938.9375 5199187
420.12622 -1242.1483 2928.1968 5068115
437.12677 -1240.9584 2925.3918 4937041
455.37988 -1243.2794 2930.8633 4936785
470.18225 -1236.3555 2914.541 5199956
480.39914 -1218.2952 2871.9663 5133910
506.00449 -1239.1604 2921.1533 5133396
533.41754 -1262.9199 2977.1631 2304813
552.99426 -1267.1954 2987.2419 2765365
567.45178 -1259.8391 2969.9004 3950154
592.71265 -1276.188 3008.4407 4147789
614.46704 -1284.2499 3027.4456 4345169
639.78094 -1299.0806 3062.4067 4410962
659.95917 -1302.9503 3071.5293 4345169
689.73486 -1325.0493 3123.6248 4278863
719.68341 -1346.3123 3173.7493 4410449
738.77423 -1346.6958 3174.6533 4475729
775.55554 -1378.504 3249.637 4278604
804.89258 -1395.855 3290.5396 4212298
827.87964 -1401.6315 3304.1567 4212296
844.80029 -1397.1073 3293.4917 4146501
870.11658 -1406.3582 3315.2993 4014915
875.83893 -1384.2313 3263.1384 3949122
899.12811 -1390.226 3277.2698 4145988
913.80969 -1382.9395 3260.093 3882814
921.00543 -1364.8623 3217.4785 4014400
938.21692 -1362.0618 3210.8767 3817021
958.66833 -1363.9827 3215.4048 3554359
974.7843 -1359.7808 3205.4993 3488310
991.72278 -1356.8654 3198.6267 3488567
999.2356 -1341.4062 3162.1841 2829610
1040.7069 -1371.2634 3232.5681 3487540
1044.7313 -1351.5911 3186.1934 3355954
1069.3063 -1358.7328 3203.0291 3355954
1086.6161 -1356.5547 3197.8943 3487540
1124.9073 -1380.1941 3253.6213 2632231
1123.2194 -1354.8118 3193.7856 2369059
1144.3048 -1357.2856 3199.6177 2500645
1189.1294 -1387.3756 3270.5505 2500645
1187.3998 -1363.0555 3213.2192 2500643
1246.45 -1408.1719 3319.575 2500645
1288.7501 -1433.2528 3378.6997 2566438
1242.432 -1360.5221 3207.2471 2698024
1410.8311 -1521.5608 3586.874 2632231
1244.499 -1322.1769 3116.8535 2698026
1233.7048 -1291.4672 3044.4595 3027247
1235.7573 -1274.8997 3005.4038 3026991
1222.6141 -1243.3514 2931.033 3026991
1231.213 -1234.4902 2910.144 3224370
1365.8142 -1350.4608 3183.5288 3224370
1236.6802 -1206.0548 2843.1113 3158577
1497.4395 -1440.6536 3396.1462 3421749
0 0 0 0
1279.4683 -1198.605 2825.5496 3355699
1296.2203 -1198.5525 2825.4255 3224884
1306.0878 -1192.2168 2810.49 3093300
1371.3416 -1235.9596 2913.6079 3554107
0 0 0 0
0 0 0 0
0 0 0 0
0 0 0 0
1152.2142 -976.73828 2302.5286 8890301
1175.1135 -984.44696 2320.7007 13030102
1194.6379 -989.18213 2331.8633 8157074
1204.1023 -985.5744 2323.3584 6978193
1201.0167 -971.89276 2291.106 4740459
0 0 0 0
1212.1199 -959.10895 2260.9697 1252917
1208.2333 -945.54126 2228.9858 660521
1238.976 -959.07434 2260.8882 6583173
1249.1846 -956.59216 2255.0369 659234
1297.8826 -983.32391 2318.0532 199711
1306.4899 -979.4386 2308.8943 67615
1326.6603 -984.21246 2320.1479 198943
1344.2272 -986.97638 2326.6636 2077
1356.3018 -985.69263 2323.6372 2847
1368.604 -984.59845 2321.0579 266275
0 0 0 0
0 0 0 0
0 0 0 0
1226.3352 -848.02484 1999.1039 13489106
1227.3871 -840.60034 1981.6018 13488848
1218.7551 -826.74805 1948.9469 13685456
1225.4906 -823.48322 1941.2505 13685457
1226.3668 -816.37885 1924.5029 13619921
1227.7614 -809.74786 1908.8711 13750737
1231.4326 -804.72601 1897.033 13750737
1227.8843 -795.12054 1874.3893 13750737
1230.5221 -789.65753 1861.511 13750737
1230.4355 -782.55945 1844.7782 13750737
1237.4124 -780.03937 1838.8374 13750737
1236.7279 -772.77637 1821.7158 13750737
1238.0074 -766.85596 1807.7594 13750739
1245.7815 -765.02582 1803.4451 13684946
1226.9154 -747.00714 1760.9685 13684692
1144.446 -690.89661 1628.6954 11249087
0 0 0 0
1158.4098 -687.68243 1621.1184 4276823
1162.8583 -684.62366 1613.9077 5921647
1167.2296 -681.56995 1606.709 3553351
1166.8289 -675.80188 1593.1117 6119277
1173.4352 -674.1524 1589.2233 3487812
1170.4777 -667.07874 1572.5481 3355963
1177.8032 -665.93127 1569.843 4211271
1179.3492 -661.55994 1559.5381 1514269
1179.687 -656.58423 1547.8086 5855581
1180.5764 -651.99023 1536.9789 1842209
1180.5811 -646.98206 1525.1727 3816256
1177.167 -640.19092 1509.1637 4605772
1177.7493 -635.65961 1498.4817 2171174
1174.7821 -629.29504 1483.478 5132116
1183.8992 -629.45026 1483.844 1645084
1181.0815 -623.30475 1469.3567 1447448
1181.9155 -619.16254 1459.592 7434870
1171.7137 -609.34161 1436.4406 7960445
1179.1128 -608.74982 1435.0454 7829115
1183.0972 -606.41632 1429.5444 7828858
1182.8562 -601.96576 1419.053 4736587
1192.8452 -602.7475 1420.8959 1841693
1193.188 -598.67828 1411.3032 1841180
1194.3049 -595.05176 1402.7542 1775898
1202.069 -594.76434 1402.0765 1644570
1206.7217 -592.95203 1397.8043 1578520
1216.3763 -593.60559 1399.345 1776412
1216.1565 -589.46417 1389.5822 1842206
1223.6194 -589.07727 1388.67 1579031
1243.5123 -594.63953 1401.7823 921102
1247.5579 -592.60004 1396.9745 1315859
1258.3604 -593.77588 1399.7465 855052
1263.8226 -592.43304 1396.5808 986382
1266.9294 -590.01074 1390.8706 394245
1269.4907 -587.36749 1384.6395 394245
1273.1306 -585.25415 1379.6576 131329
1278.6014 -584.00415 1376.7108 196608
1294.6002 -587.54816 1385.0654 196608
1297.4707 -585.12677 1379.3573 196608
1300.1226 -582.63782 1373.49 196608
1303.0945 -580.32263 1368.0321 196608
1304.1218 -577.17542 1360.613 196608
1309.6571 -576.04987 1357.9597 131072
1318.178 -576.24329 1358.4158 65536
0 0 0 0
0 0 0 0
0 0 0 0
0 0 0 0
0 0 0 0
0 0 0 0
0 0 0 0
0 0 0 0
0 0 0 0
0 0 0 0
0 0 0 0
0 0 0 0
-1615.2277 -789.27252 1887.0671 3947310
-1610.8638 -792.64911 1895.1403 3947054
-1642.1272 -813.72778 1945.5372 3815468
-1587.6918 -792.33771 1894.3959 3815468
-1576.7455 -792.50031 1894.7845 3947310
-1609.3033 -814.68854 1947.8342 3750189
-1601.7972 -816.76971 1952.8102 3750446
-1716.8215 -881.81696 2108.3313 3882031
-1526.5238 -789.84399 1888.4336 3553579
-1639.5663 -854.62323 2043.3138 3487530
-1550.7505 -814.36554 1947.062 3750701
-1472.7662 -779.23297 1863.0637 3487530
-1461.7683 -779.2785 1863.1726 3619116
-1454.3912 -781.26971 1867.9333 3553323
-1454.2219 -787.1933 1882.0961 3619116
-1448.582 -790.22455 1889.3434 3421738
-1449.0402 -796.6557 1904.7196 3421738
-1545.2698 -856.25665 2047.2192 3421737
-1466.4218 -819.02075 1958.1921 3290153
-1480.5187 -833.51556 1992.8475 2895141
-1483.2633 -841.80151 2012.6584 2500386
-1457.8171 -834.0929 1994.228 987148
-1450.2218 -836.55505 2000.1147 131843
-1451.2983 -844.1015 2018.1576 856083
-1423.3367 -834.74402 1995.7848 988184
-1410.8271 -834.36743 1994.8844 1448735
-1394.7219 -831.8399 1988.8414 1383459
-1385.7035 -833.5321 1992.8872 1186082
-1374.6027 -833.98999 1993.9819 725530
-1360.8313 -832.82147 1991.1882 857373
-1351.5419 -834.39954 1994.9612 1317668
-1341.4362 -835.49701 1997.5852 1317667
-1333.0483 -837.69385 2002.8374 1252644
-1323.1628 -838.98047 2005.9138 1318180
-1316.0646 -842.07391 2013.3099 1449769
-1307.3148 -844.1579 2018.2924 1186596
-1313.0027 -855.68958 2045.8634 1383718
-1286.4474 -846.22729 2023.2402 1054497
-1268.2678 -842.14801 2013.4869 791325
-1261.1711 -845.42029 2021.3107 791325
-1249.3973 -845.59003 2021.7166 988704
-1244.3436 -850.35553 2033.1101 1317669
-1228.1614 -847.53485 2026.3665 1449253
-1219.4707 -849.87933 2031.9717 1186081
-1210.0028 -851.72369 2036.3813 1580836
-1202.7465 -855.1778 2044.6398 1317665
-1193.0675 -856.96234 2048.9065 857114
-1203.2059 -873.16534 2087.646 856342
-1194.8961 -876.17865 2094.8506 1184794
-1208.5945 -895.56335 2141.1975 658706
-1199.5283 -898.31311 2147.7717 197897
-1199.3264 -907.83185 2170.53 5
-1201.3622 -919.27002 2197.8774 3
-1199.5883 -928.01251 2218.78 855570
-1204.7222 -942.35321 2253.0669 658448
-1208.8529 -956.22302 2286.2283 198153
-1218.469 -974.79688 2330.6362 658959
-1217.3397 -985.10272 2355.2766 724753
-1209.1334 -989.85504 2366.6389 658962
-1224.5773 -1014.3086 2425.1047 197638
-1226.3232 -1027.8643 2457.5146 1
-1226.2052 -1040.1655 2486.9258 2
-1229.6586 -1055.834 2524.3875 1
-1228.6781 -1068.0358 2553.5605 0
-1222.1179 -1075.632 2571.7224 394758
-1218.5527 -1086.0901 2596.7268 1184272
-1208.1011 -1090.6005 2607.5105 723977
-1306.7303 -1194.9805 2857.072 1118990
-1319.7191 -1222.7628 2923.4968 1645334
-1325.3564 -1244.3849 2975.1929 1513748
-1330.511 -1266.1328 3027.1899 1579541
-1358.89 -1310.8817 3134.1797 1513748
-1319.1395 -1290.2386 3084.8242 1711126
-1305.0814 -1294.4972 3095.0059 1776923
-1286.6694 -1294.4972 3095.0059 1842715
-1275.6057 -1301.9974 3112.9385 1579543
-1246.8016 -1291.3446 3087.4688 2040094
-1231.1377 -1294.1863 3094.2627 2040351
-1211.7806 -1293.1731 3091.8401 2106400
-1192.0891 -1291.7661 3088.4763 2106657
-1176.6747 -1295.0225 3096.262 2106657
-1161.6998 -1298.8739 3105.4702 1909024
-1137.0105 -1291.8126 3088.5874 2237989
-1115.6321 -1288.3429 3080.2917 2106403
-1090.2119 -1280.0118 3060.373 2237989
-1064.6565 -1271.2363 3039.3918 2238246
-1040.2834 -1263.5938 3021.1194 2041121
-1057.3944 -1306.9575 3124.7974 2041121
-997.1015 -1254.4886 2999.3499 2106914
-1097.0898 -1405.4375 3360.2527 2238243
-959.85132 -1252.4476 2994.47 2435622
-945.19763 -1256.649 3004.5151 2369829
-1035.5974 -1403.3741 3355.3193 2435622
-902.83929 -1247.5144 2982.675 2435622
-947.57581 -1335.5782 3193.2266 2633001
-997.01965 -1434.0159 3428.5806 2501415
-930.39886 -1366.1428 3266.3032 2698794
-969.43768 -1453.8278 3475.9487 2567208
-867.42792 -1329.1997 3177.9761 2501673
-904.36938 -1416.6833 3387.1404 2764844
-880.93298 -1411.4177 3374.5508 2435879
-832.90027 -1365.58 3264.9573 2699052
-815.18335 -1368.4438 3271.8047 2699309
-805.74237 -1385.6805 3313.0159 2567723
-794.53827 -1400.6736 3348.8625 2567467
-792.63348 -1433.2531 3426.7566 2567467
-750.42993 -1392.7599 3329.9419 2699053
-751.25262 -1432.0907 3423.9775 2699053
-739.23688 -1448.458 3463.1104 2699053
-731.05737 -1473.4962 3522.9739 2895663
-700.62598 -1453.8384 3475.9739 2830126
-685.43237 -1465.5656 3504.0125 2895919
-678.61157 -1496.4926 3577.9556 2895919
-650.12439 -1480.0958 3538.7529 2764333
-622.74915 -1465.2181 3503.1816 2698540
-597.10449 -1453.5226 3475.219 2830639
-569.61755 -1436.3429 3434.1443 2896432
-563.23846 -1473.0902 3522.0032 2896429
-524.86542 -1425.7675 3408.8596 2830380
-516.57471 -1459.642 3489.8499 2632999
-486.61362 -1432.5576 3425.0938 2632999
-466.073 -1432.0507 3423.8818 2632999
-441.99643 -1420.1366 3395.3965 2632998
-441.7435 -1487.2924 3555.959 2632998
-411.34503 -1454.6025 3477.801 2567205
-384.41348 -1431.3594 3422.2292 2369826
-365.59531 -1437.4161 3436.7102 2566435
-344.85077 -1436.1677 3433.7253 2500898
-324.16318 -1435.0143 3430.9675 2500898
-304.26093 -1437.4159 3436.7097 2435105
-282.46622 -1430.5791 3420.3635 2369057
-269.91101 -1473.1078 3522.0452 2303521
-247.44214 -1464.135 3500.5923 2303521
-227.83415 -1471.9967 3519.3887 2434850
-209.42253 -1489.9612 3562.3398 2500644
-187.96207 -1487.8374 3557.262 2237472
-163.12994 -1455.0997 3478.99 2369057
-144.94058 -1480.7107 3540.2229 2500643
-119.64628 -1430.1058 3419.2322 2500642
-103.8382 -1495.3821 3575.3008 2040604
-83.709595 -1516.04 3624.6914 1843224
-62.603783 -1527.1948 3651.3616 1645587
-40.148102 -1499.7775 3585.8096 2040602
-18.784321 -1497.2262 3579.7097 1843225
2.4108999 -1437.4473 3436.7847 922381
0 0 0 0
38.452621 -1276.4869 3051.9453 5264721
58.720188 -1324.1049 3165.7949 5264721
75.522903 -1289.4387 3082.9116 3488310
95.142159 -1307.0115 3124.9265 4475205
113.96605 -1309.6995 3131.353 4540998
132.92303 -1312.9468 3139.1169 4672584
151.38806 -1311.1332 3134.781 4672841
171.68756 -1323.8628 3165.2161 4672584
190.91798 -1326.6473 3171.8738 4935502
210.34151 -1330.1523 3180.2537 4738636
229.14165 -1329.4619 3178.6028 4869965
247.20714 -1324.9392 3167.7898 4804429
265.67426 -1323.0575 3163.2905 4936015
281.01306 -1306.8761 3124.6025 4870222
294.8851 -1286.3046 3075.4182 5067601
308.93787 -1268.8785 3033.7546 4936015
327.93301 -1272.5555 3042.5459 5067088
344.49417 -1266.8966 3029.0159 5067345
359.24173 -1255.4622 3001.6775 5264467
373.4762 -1243.4025 2972.844 5264467
389.35138 -1237.6486 2959.0872 5199187
403.785 -1228.0083 2936.0383 5133394
420.15332 -1224.8076 2928.3857 4937042
435.56805 -1219.1925 2914.9604 4871505
457.08563 -1230.4357 2941.8418 5003091
473.6387 -1227.9785 2935.9668 5002837
491.15759 -1228.111 2936.2837 5265751
487.35596 -1176.7545 2813.4956 5265498
533.72272 -1245.9215 2978.8667 2173484
554.95972 -1253.8651 2997.8591 2502194
577.52747 -1264.2273 3022.6338 3620420
598.49683 -1270.5704 3037.7996 4278863
614.81012 -1266.9468 3029.136 4344658
640.172 -1281.6451 3064.2783 4542037
661.52661 -1287.7291 3078.8242 4542036
690.6629 -1308.2251 3127.8279 4278863
715.87805 -1320.413 3156.968 4344397
738.94183 -1328.1112 3175.3735 4212811
765.48193 -1341.5178 3207.4275 4475212
790.77649 -1352.1427 3232.8303 4343626
818.36517 -1366.0927 3266.1833 4343881
837.21252 -1365.142 3263.9104 3883585
863.41632 -1375.9579 3289.77 3949122
880.82526 -1372.5892 3281.7161 4080708
897.13416 -1367.6898 3270.002 3882815
913.96277 -1363.7738 3260.6392 3948863
918.66022 -1342.2952 3209.2859 4014399
935.36133 -1338.873 3201.104 3817276
956.84332 -1342.2942 3209.2837 3619898
974.50433 -1340.3263 3204.5786 3553846
984.52777 -1328.1307 3175.4202 3487540
985.2417 -1304.0723 3117.8989 3092782
1027.4172 -1334.7677 3191.2888 3553333
1056.8567 -1348.1034 3223.1729 3487540
1082.1509 -1355.7705 3241.5042 3290160
1081.5542 -1331.2997 3182.9971 3355953
1117.6616 -1352.0732 3232.6643 2500643
1145.8884 -1362.7716 3258.2432 2566436
1166.6306 -1364.3611 3262.0435 2303264
1196.5239 -1376.4257 3290.8884 2500643
1205.1193 -1363.9958 3261.1699 2566436
1322.8402 -1473.5151 3523.0193 2500645
1360.8956 -1492.2629 3567.843 2698024
1240.3687 -1339.2147 3201.9209 2698024
1253.285 -1332.6945 3186.3318 2829610
1261.2042 -1321.134 3158.6919 2961198
1456.4757 -1503.2866 3594.1997 3092784
1237.4175 -1258.7096 3009.4417 3092784
1242.7662 -1246.1215 2979.3447 3158577
1241.1616 -1227.0132 2933.6589 3290163
1257.9967 -1226.4116 2932.2207 3290163
1251.0006 -1202.9114 2876.0339 3290163
1247.2239 -1183.0991 2828.665 3421749
1262.4218 -1181.5737 2825.0181 3224370
1281.046 -1183.2534 2829.0339 3422263
1341.9292 -1223.4161 2925.0588 3422006
1317.5884 -1185.8479 2835.2371 3356470
1296.9946 -1152.5592 2755.6475 3488056
0 0 0 0
0 0 0 0
0 0 0 0
0 0 0 0
1173.693 -980.99304 2345.4507 8693178
1186.8905 -980.36908 2343.959 12899031
1198.8977 -978.78778 2340.1782 7896219
1206.4767 -973.66907 2327.9399 6780815
1194.441 -953.01648 2278.5618 4607844
0 0 0 0
1201.8618 -937.65546 2241.8352 1383477
1215.8457 -938.15503 2243.0295 531
1242.449 -948.27509 2267.2256 6584455
1251.1656 -944.67297 2258.6133 197645
1294.5852 -967.07074 2312.1641 17
1303.5853 -963.55621 2303.7612 531
1320.6573 -966.0191 2309.6497 273
1346.0205 -974.43353 2329.7676 1044
1360.3182 -974.7475 2330.5183 1562
1376.4432 -976.3512 2334.3525 397347
0 0 0 0
0 0 0 0
0 0 0 0
1228.1356 -837.35986 2002.0389 13488851
1229.3917 -830.16553 1984.8383 13488851
1217.8352 -814.53864 1947.4758 13685203
1224.3269 -811.16388 1939.4071 13685457
1225.8019 -804.55933 1923.6165 13619921
1227.5192 -798.23462 1908.4946 13750737
1230.4769 -792.82495 1895.5608 13750737
1227.8636 -783.95667 1874.3575 13750737
1230.4082 -778.51147 1861.3387 13750737
1230.6702 -771.73206 1845.1299 13750737
1239.7101 -770.52844 1842.2521 13750737
1236.6567 -761.89526 1821.6111 13750737
1236.552 -755.21289 1805.6343 13750739
1247.3256 -755.23224 1805.6804 13553873
1228.1313 -737.26129 1762.7139 13619154
0 0 0 0
0 0 0 0
1161.2272 -679.68756 1625.0612 4342610
1162.1278 -674.59857 1612.8939 4869464
1174.4724 -676.18164 1616.6788 4211279
1169.9817 -668.12506 1597.4164 4277325
1170.9783 -663.30652 1585.8959 5658976
1173.7064 -659.53809 1576.886 1447707
1172.4813 -653.62561 1562.7498 4343114
1177.9946 -651.53308 1557.7468 2829361
1181.6249 -648.43982 1550.3512 3816511
1180.7593 -642.94647 1537.217 4605772
1176.8302 -635.88214 1520.327 987155
1181.6251 -633.60358 1514.8793 4211013
1172.6409 -624.02679 1491.9822 3026739
1182.3593 -624.4718 1493.0461 2828847
1184.6985 -621.04193 1484.8457 6842221
1182.6733 -615.39191 1471.337 7763322
1175.804 -607.32275 1452.0446 7697270
1176.3248 -603.16064 1442.0934 6974061
1181.239 -601.2951 1437.6331 4473671
1190.3303 -601.5675 1438.2843 2368040
1193.8108 -599.02057 1432.1949 1907231
1189.6619 -592.70874 1417.104 1446936
1199.2725 -593.2926 1418.5 1249813
1199.5433 -589.28027 1408.9069 1710107
1216.0427 -593.24048 1418.3754 1776414
1224.5031 -593.2514 1418.4014 1973790
1223.5521 -588.73376 1407.6002 1250067
1238.8374 -592.03674 1415.4973 986895
1247.4271 -592.117 1415.6892 986895
1260.5931 -594.35382 1421.0372 789515
1264.8536 -592.38995 1416.3418 460550
1268.806 -590.30872 1411.3658 263172
1275.1812 -589.37463 1409.1324 262659
1279.9805 -587.72925 1405.1985 328708
1281.9526 -584.81531 1398.2317 65536
1287.0403 -583.3512 1394.7312 65536
1298.4816 -584.76709 1398.1165 196609
1303.6028 -583.33698 1394.697 196610
1300.266 -578.164 1382.3291 196610
1306.7225 -577.3833 1380.4624 196610
1310.7736 -575.55609 1376.0939 196609
1319.3306 -575.7179 1376.4807 0
1377.5404 -597.41107 1428.3468 65536
1333.9841 -574.97491 1374.7043 65536
0 0 0 0
0 0 0 0
0 0 0 0
0 0 0 0
0 0 0 0
0 0 0 0
0 0 0 0
0 0 0 0
0 0 0 0
0 0 0 0
0 0 0 0
0 0 0 0
-1588.754 -765.29425 1856.1381 3552040
-1609.0856 -780.51251 1893.0483 4078639
-1656.5612 -809.20471 1962.6382 4144432
-1593.7756 -784.06104 1901.655 3946797
-1584.3258 -784.98419 1903.8938 3881005
-1573.1786 -785.07343 1904.1104 4012590
-1560.9688 -784.62994 1903.0347 3815726
-1540.9486 -780.22528 1892.3518 3750189
-1530.3275 -780.54987 1893.139 3750702
-1510.0305 -775.90747 1881.8794 4013874
-1493.3942 -773.0907 1875.0476 3684909
-1613.728 -841.67108 2041.3817 3750705
-1465.8143 -770.32092 1868.3297 3553323
-1515.1656 -802.3399 1945.9884 3487532
-1576.6942 -841.35004 2040.603 3553324
-1454.0375 -781.91864 1896.4586 3355944
-1453.3104 -787.63898 1910.3328 3487531
-1472.4938 -804.3252 1950.8035 3224357
-1490.8419 -820.81671 1990.8018 3092774
-1494.8553 -829.61676 2012.1454 2895140
-1483.7263 -830.0874 2013.2867 2500386
-1460.4437 -823.71088 1997.8212 1118733
-1451.6986 -825.49615 2002.1514 256
-1439.4008 -825.27423 2001.613 856336
-1422.8887 -822.61218 1995.1565 1053464
-1407.6459 -820.64539 1990.3862 1382943
-1393.5121 -819.29712 1987.1162 1645862
-1382.1735 -819.58331 1987.8103 1317411
-1372.9563 -821.14325 1991.5938 1054495
-1361.6777 -821.48669 1992.4268 659737
-1351.0709 -822.245 1994.266 988701
-1346.0734 -826.46075 2004.4907 1186081
-1335.7208 -827.43451 2006.8527 1251876
-1327.8182 -829.95734 2012.9713 1515047
-1319.4769 -832.24927 2018.5302 1383975
-1309.1187 -833.29944 2021.0773 1515303
-1299.9281 -835.11932 2025.4912 1580840
-1287.7644 -835.04523 2025.3115 1317925
-1273.9868 -833.91339 2022.5663 1317669
-1260.6975 -833.08264 2020.5515 988705
-1248.6128 -833.03955 2020.447 1054754
-1237.5033 -833.65265 2021.934 1054497
-1229.2092 -836.19293 2028.0952 922909
-1215.3655 -834.97101 2025.1315 1449253
-1212.2898 -841.19629 2040.2303 1317665
-1202.9338 -843.14569 2044.9584 1646630
-1197.8778 -848.17957 2057.1675 659735
-1197.3831 -856.58044 2077.5427 988184
-1195.4171 -864.09302 2095.7637 329997
-1189.243 -868.69025 2106.9138 1118999
-1188.5623 -877.44055 2128.137 3
-1189.9625 -887.93225 2153.5833 3
-1197.4668 -903.25665 2190.751 4
-1196.8842 -912.7511 2213.7786 5
-1205.0154 -929.17603 2253.6155 460554
-1208.707 -942.50861 2285.9524 724755
-1217.5437 -960.20227 2328.8662 198153
-1211.656 -966.55731 2344.2798 593169
-1210.5416 -976.91248 2369.395 658961
-1221.0466 -996.99896 2418.1128 790546
-1232.3108 -1018.1917 2469.5134 197893
-1232.4823 -1030.62 2499.6567 2
-1231.3665 -1042.2621 2527.8936 257
-1231.2249 -1055.0269 2558.8533 256
-1240.4517 -1076.2396 2610.3022 0
-1250.2269 -1098.4719 2664.2244 0
-1272.5762 -1132.4648 2746.6704 790025
-1288.5345 -1161.5808 2817.2881 921867
-1321.2964 -1206.8116 2926.9907 1382162
-1327.8892 -1229.0298 2980.8784 1382162
-1325.4263 -1243.3544 3015.6211 1382418
-1308.3662 -1244.1909 3017.6501 1514002
-1300.2755 -1253.6989 3040.7104 1580052
-1289.1561 -1260.5137 3057.239 1513748
-1275.2252 -1264.7351 3067.4775 1513748
-1256.6223 -1264.3782 3066.6121 1908506
-1238.9696 -1264.981 3068.074 1711129
-1216.4338 -1260.5416 3057.3069 1842715
-1211.4713 -1274.4545 3091.0508 2040094
-1189.625 -1270.7607 3082.0923 2171680
-1174.0389 -1273.7433 3089.3262 1974301
-1163.6517 -1282.5509 3110.688 2237475
-1142.2832 -1279.3441 3102.9102 2369061
-1119.7968 -1274.7593 3091.7903 2105889
-1094.902 -1267.2341 3073.5386 2303011
-1076.9635 -1267.6411 3074.5259 2039839
-1050.4589 -1257.8052 3050.6699 2368802
-1107.2699 -1349.1384 3272.1887 2237730
-1002.3252 -1243.1244 3015.0632 2303523
-984.38879 -1243.1244 3015.0632 2238243
-968.79578 -1246.1387 3022.374 2501415
-1013.1534 -1327.8381 3220.5273 2435622
-1015.8795 -1357.0732 3291.4338 2763817
-971.34216 -1323.0793 3208.9854 2763561
-973.36133 -1352.4088 3280.1208 2567208
-919.50452 -1303.715 3162.0193 2567208
-944.45233 -1367.0535 3315.6399 2501415
-899.3465 -1329.5316 3224.6348 2501415
-869.61029 -1313.5907 3185.9714 2567211
-848.91803 -1310.905 3179.458 2830126
-842.26978 -1330.2782 3226.4456 2764590
-839.00812 -1356.0284 3288.8997 2567211
-825.37238 -1365.8411 3312.6992 2567467
-815.68524 -1382.8278 3353.8987 2633260
-839.62958 -1459.1113 3538.916 2633004
-790.55133 -1409.1561 3417.7551 2764846
-767.66241 -1404.478 3406.4089 2699054
-760.14771 -1428.437 3464.5188 2764847
-742.20862 -1433.5963 3477.0322 2764846
-727.34967 -1445.1714 3505.1062 2830126
-696.64062 -1425.0077 3456.2014 2830126
-692.72589 -1460.0934 3541.2979 2632747
-681.99561 -1482.5638 3595.7976 2764333
-661.87769 -1485.4214 3602.7285 2764333
-649.53522 -1506.5042 3653.8623 2764333
-604.29303 -1450.0989 3517.0574 3093811
-576.4306 -1432.8486 3475.219 2699052
-562.9115 -1451.2952 3519.9587 2764844
-536.92804 -1437.7898 3487.2031 2764844
-500.76666 -1394.8491 3383.0549 2961964
-484.22653 -1405.2542 3408.2915 2698791
-466.72113 -1413.6453 3428.6431 2501412
-446.6254 -1414.5989 3430.9561 2435619
-425.06137 -1410.7705 3421.6707 2304033
-405.7052 -1414.2534 3430.1182 2632742
-384.37399 -1410.8558 3421.8777 2567206
-364.38696 -1412.2881 3425.3513 2632485
-341.90363 -1403.6415 3404.3801 2566437
-319.96304 -1396.2748 3386.5129 2632229
-295.59482 -1376.6124 3338.824 2500643
-280.2308 -1399.0712 3393.2952 2303264
-266.7222 -1434.9991 3480.4346 2435107
-249.15379 -1453.2941 3524.8071 2303777
-230.39864 -1467.3931 3559.0027 2237984
-203.97592 -1430.5698 3469.6917 2040606
-179.81161 -1403.0771 3403.0112 2106655
-158.33295 -1392.2235 3376.6868 2238241
-140.27441 -1412.6586 3426.25 2369827
-124.48871 -1466.8223 3557.6182 2105884
-103.45736 -1468.7064 3562.188 2369312
-83.860092 -1497.1638 3631.2083 2237726
-61.867142 -1487.7587 3608.397 1711382
-40.168587 -1479.2002 3587.6394 2106139
-18.737568 -1472.2572 3570.8 1843225
2.4171495 -1420.6753 3445.6936 1251346
0 0 0 0
39.012417 -1276.6499 3096.3757 5133135
58.815437 -1307.3892 3170.9304 5198928
76.20089 -1282.5096 3110.5879 3619896
94.83757 -1284.2969 3114.9226 4540998
114.18597 -1293.5625 3137.3955 4540998
133.14081 -1296.3927 3144.2598 4738377
152.0072 -1297.7705 3147.6013 4672584
169.73407 -1290.1842 3129.2019 4672583
191.15388 -1309.3942 3175.7932 4606794
209.31923 -1304.8606 3164.7976 4541257
229.58351 -1313.0797 3184.7324 4738636
247.52495 -1307.7733 3171.8623 4804429
265.06958 -1301.2706 3156.0908 4936015
282.3429 -1294.3845 3139.3892 4870222
296.65485 -1275.6189 3093.8752 5133138
311.62811 -1261.7233 3060.1729 5198418
327.57605 -1253.0901 3039.2339 4935502
343.04865 -1243.6367 3016.3059 5264467
361.40186 -1245.0471 3019.7266 5198674
375.22421 -1231.4541 2986.7581 5264467
387.71036 -1214.903 2946.6152 5331029
403.98694 -1211.1476 2937.5068 5264980
424.2941 -1219.286 2957.2461 5133394
442.06345 -1219.774 2958.4297 5199957
458.18146 -1215.8428 2948.8945 5266007
475.72424 -1215.8428 2948.8945 5331546
493.45593 -1216.3082 2950.0237 5397338
510.39941 -1214.8657 2946.5249 5725278
544.5246 -1253.0576 3039.155 132103
565.69556 -1259.9424 3055.8535 3225659
579.57794 -1250.6705 3033.3657 3752007
600.82245 -1257.3656 3049.6038 4147277
617.7959 -1254.9919 3043.8467 4344656
642.1637 -1267.3467 3073.812 4410450
664.22729 -1274.5957 3091.3936 4542035
688.82336 -1286.1829 3119.4968 4542035
709.72443 -1290.4437 3129.8311 4475729
742.46503 -1315.4634 3190.5134 4344397
766.58203 -1324.3376 3212.0371 4213067
793.29474 -1337.1556 3243.1257 4278603
817.26666 -1344.8546 3261.7988 4343627
837.77728 -1346.6331 3266.1123 4014660
861.93115 -1354.0541 3284.1113 4212037
878.33954 -1349.2482 3272.4548 4277830
906.33514 -1362.0643 3303.5391 4342852
911.13391 -1340.2153 3250.5466 4145729
917.10803 -1320.9675 3203.8633 3948349
936.25916 -1321.0967 3204.1765 3750712
952.4162 -1317.0802 3194.4351 3553333
974.97449 -1321.8999 3206.1248 3750712
987.62854 -1313.3638 3185.4211 3619126
1004.9673 -1311.2616 3180.3228 3224368
1023.2961 -1310.505 3178.4875 3421747
1046.3867 -1315.7635 3191.2417 3355954
1068.9912 -1320.2344 3202.0852 3553333
1109.1187 -1345.811 3264.1187 3882298
1139.5676 -1358.9659 3296.0242 2500646
1151.0421 -1349.4305 3272.8975 2500645
1173.027 -1352.3293 3279.9282 2566436
1248.428 -1415.7072 3433.6438 2566437
1216.4866 -1357.2783 3291.9312 2829608
1231.9226 -1352.724 3280.8853 2763817
1240.7115 -1341.127 3252.7578 2829610
1247.946 -1328.2314 3221.4812 2895403
1415.6432 -1483.929 3599.1084 2829610
1265.6211 -1306.9041 3169.7539 2829612
1277.2632 -1299.5634 3151.95 2895405
1363.0198 -1366.7529 3314.9106 3026991
1279.3977 -1264.6053 3067.1631 3026991
1340.4803 -1306.3511 3168.4126 3092784
1304.0288 -1253.2061 3039.5151 3092784
1275.3093 -1208.8439 2931.9194 3092784
1279.469 -1196.4237 2901.7959 3290163
1273.0114 -1174.5385 2848.7153 3553335
1296.0115 -1180.0499 2862.083 3421749
1297.8759 -1166.4237 2829.0339 3619128
1317.8074 -1169.1757 2835.7085 3422263
1278.8219 -1120.2467 2717.0369 3225141
1248.4872 -1080.0227 2619.478 3751232
0 0 0 0
0 0 0 0
1173.688 -978.67047 2373.6589 5268335
1171.1664 -964.95831 2340.4016 8430262
1186.8972 -966.43048 2343.9722 12965079
1201.0098 -966.56592 2344.3008 8619942
1198.0966 -953.1535 2311.7703 6451597
1196.6781 -941.22095 2282.8291 4740450
0 0 0 0
1208.545 -929.45886 2254.3015 1449264
1202.2876 -914.4986 2218.0171 12
1243.6912 -935.72217 2269.4924 6847624
1252.0066 -931.86249 2260.1313 10
1285.1204 -946.34607 2295.2595 15
1303.2136 -949.58038 2303.1042 17
1325.7385 -955.94299 2318.5359 274
1342.5527 -958.09918 2323.7656 530
1365.3021 -964.40375 2339.0566 534
1351.8883 -945.29449 2292.7092 397093
0 0 0 0
0 0 0 0
0 0 0 0
1225.823 -823.89545 1998.269 13423315
1229.5569 -818.46777 1985.1049 13488595
1217.9031 -802.99792 1947.5844 13684947
1221.2092 -797.59027 1934.4685 13685457
1223.1021 -791.36908 1919.3796 13619665
1226.8154 -786.42993 1907.4004 13750737
1229.0261 -780.62683 1893.3257 13750737
1227.7703 -772.7475 1874.2151 13750737
1228.4945 -766.24493 1858.4438 13750737
1230.6715 -760.75635 1845.132 13750737
1239.4486 -759.40881 1841.8635 13750737
1236.7303 -751.10321 1821.7194 13750738
1238.8899 -745.87878 1809.048 13750739
1243.4683 -742.18799 1800.0964 13618898
1231.5284 -728.78522 1767.5895 13619155
0 0 0 0
0 0 0 0
1161.4894 -670.17145 1625.4281 5526370
1166.2434 -667.35864 1618.606 4211021
1175.4625 -667.12604 1618.0417 5724518
1171.7036 -659.59137 1599.7672 3224639
1173.1375 -655.07782 1588.8201 5264219
1169.0417 -647.57343 1570.619 2435119
1172.8242 -644.51733 1563.2068 2039588
1176.3691 -641.37982 1555.5972 5263701
1177.0737 -636.75488 1544.3798 921361
1175.6405 -631.05402 1530.553 3947839
1179.2318 -628.117 1523.4296 2895150
1179.3246 -623.37561 1511.9298 855568
1182.9866 -620.57831 1505.1453 8224387
1168.3457 -608.29376 1475.3505 7763322
1184.4819 -612.09686 1484.5745 7698043
1181.8988 -606.2417 1470.3735 6908526
1185.8131 -603.78101 1464.4053 4013889
1186.2733 -599.61017 1454.2894 2171685
1193.7286 -599.00995 1452.8336 1513243
1202.3267 -598.98767 1452.7795 1184275
1204.1815 -595.63031 1444.6366 1381654
1209.723 -594.1311 1441.0005 1513239
1210.1378 -590.15283 1431.3516 1842205
1222.1351 -591.83917 1435.4417 1710620
1225.4067 -589.30585 1429.2974 1249556
1236.3831 -590.48718 1432.1626 1315860
1246.1935 -591.09937 1433.6473 855309
1259.5597 -593.3783 1439.1747 789516
1264.066 -591.48077 1434.5724 854539
1268.9192 -589.7699 1430.4229 394501
1275.6375 -588.94293 1428.4171 394245
1280.1571 -587.11853 1423.9923 525831
1285.6348 -585.75458 1420.6842 131074
1295.533 -586.40942 1422.2723 131074
1304.0002 -586.41223 1422.2792 196610
1303.6262 -582.46472 1412.7048 196610
1308.199 -580.76373 1408.5795 196610
1307.0583 -576.56427 1398.394 196610
1308.4119 -573.51117 1390.989 2
1315.8381 -573.14154 1390.0925 2
1320.0604 -571.38965 1385.8435 65538
1327.7872 -571.16699 1385.3036 65538
1384.2838 -591.79675 1435.3389 65538
1345.821 -571.82629 1386.9026 65536
0 0 0 0
0 0 0 0
0 0 0 0
0 0 0 0
0 0 0 0
0 0 0 0
0 0 0 0
0 0 0 0
0 0 0 0
0 0 0 0
0 0 0 0
0 0 0 0
-1621.2814 -769.69427 1894.1395 4012591
-1660.7299 -793.94031 1953.8065 4210225
-1607.3102 -773.81793 1904.2874 4078895
-1595.9818 -773.81793 1904.2874 4013616
-1585.3832 -774.17432 1905.1644 3816237
-1608.109 -790.92603 1946.3888 3882030
-1564.3158 -774.96704 1907.1152 3947567
-1550.0909 -773.53003 1903.579 3684909
-1579.2563 -793.88397 1953.668 3619116
-1517.9205 -768.70795 1891.7123 3619116
-1508.9747 -769.88544 1894.61 3619116
-1614.1178 -829.72748 2041.875 3684909
-1476.0074 -764.48572 1881.3218 3684908
-1465.9229 -765.0636 1882.7439 3619116
-1457.5536 -766.55249 1886.408 3487529
-1454.5421 -770.90417 1897.1169 3553323
-1452.2882 -775.72852 1908.9891 3355944
-1472.7156 -792.83936 1951.0973 3355944
-1495.8984 -811.71735 1997.554 3290150
-1488.2162 -814.0152 2003.2087 2895652
-1489.0259 -821.03259 2020.4779 1579281
-1455.8798 -809.28888 1991.5778 1447697
-1448.4077 -811.74121 1997.6127 0
-1440.3188 -813.8855 2002.8896 658443
-1426.4933 -812.79694 2000.2108 856340
-1414.0315 -812.47369 1999.4152 856597
-1402.4442 -812.65167 1999.8533 1646116
-1389.1548 -811.83789 1997.8506 1251616
-1378.4209 -812.51654 1999.5206 1317668
-1368.5234 -813.70416 2002.4435 791325
-1357.7985 -814.41644 2004.1963 528153
-1361.6544 -823.96454 2027.693 1120290
-1342.0648 -819.36908 2016.3842 1252389
-1348.3257 -830.61554 2044.0605 1186596
-1305.7065 -811.68091 1997.4644 1449769
-1313.171 -823.81848 2027.3336 1449767
-1300.3915 -823.3631 2026.213 1318438
-1285.7692 -821.72168 2022.1736 1515560
-1275.1403 -822.62543 2024.3977 1581097
-1260.7118 -821.07184 2020.5745 1383718
-1248.6156 -821.02185 2020.4514 1186081
-1237.9746 -821.93713 2022.704 1186081
-1224.6401 -821.06451 2020.5565 1317667
-1214.9817 -822.66376 2024.4919 1054237
-1213.322 -829.76501 2041.9675 1186079
-1196.5986 -826.604 2034.1886 857114
-1192.7692 -832.37659 2048.3943 922907
-1189.8311 -838.89667 2064.4395 791061
-1183.0275 -842.79895 2074.0427 856342
-1182.0299 -850.96344 2094.1345 856084
-1185.5128 -862.56171 2122.6768 3
-1185.5386 -871.86725 2145.5769 2
-1194.0555 -887.68799 2184.51 2
-1195.0948 -898.23657 2210.469 2
-1193.1643 -906.763 2231.4517 2
-1199.429 -921.77924 2268.4053 65794
-1201.625 -933.97504 2298.4177 1053718
-1208.1586 -949.86169 2337.5132 790546
-1210.5416 -962.81702 2369.395 593167
-1218.3387 -980.43469 2412.7502 724751
-1214.2041 -988.75598 2433.228 790545
-1238.3951 -1020.6227 2511.6489 1119510
-1234.5758 -1029.901 2534.4819 2
-1223.2898 -1033.103 2542.3618 256
-1234.8232 -1055.8981 2598.4583 0
-1239.968 -1073.739 2642.3628 0
-1250.5737 -1096.8276 2699.1816 0
-1251.0768 -1111.5409 2735.3894 197634
-1264.9833 -1138.7075 2802.2437 987404
-1310.4127 -1195.3547 2941.6467 1250576
-1287.4235 -1190.2795 2929.157 1316369
-1293.3385 -1212.1547 2982.9897 1316369
-1297.6965 -1233.1591 3034.6794 1645335
-1278.7622 -1232.3099 3032.5896 1711128
-1266.7402 -1238.193 3047.0674 1579543
-1252.1425 -1241.6926 3055.6794 1645336
-1235.9171 -1243.6576 3060.5151 1776922
-1217.7103 -1243.6576 3060.5151 1908508
-1206.3707 -1250.7776 3078.0369 1908508
-1193.103 -1256.0873 3091.1033 1974557
-1185.8804 -1268.0269 3120.4854 2105887
-1170.1965 -1271.155 3128.1836 2434854
-1146.0935 -1265.0909 3113.2605 1908510
-1120.3232 -1256.9572 3093.2441 2105889
-1098.4636 -1253.0125 3083.5366 2171424
-1109.2976 -1286.8606 3166.8335 2237730
-1066.8313 -1258.9784 3098.218 2106143
-1042.5736 -1251.9814 3080.9993 2369059
-1103.1555 -1348.4374 3318.3677 2171424
-995.25012 -1238.7061 3048.3301 2369059
-972.96552 -1233.4447 3035.3823 2369315
-964.32428 -1245.6074 3065.3135 2369572
-998.56146 -1314.692 3235.3237 2698537
-928.58899 -1246.5947 3067.7432 2566694
-1028.7577 -1408.754 3466.8005 2632231
-923.27789 -1290.1772 3174.9954 2632231
-921.86505 -1315.1064 3236.3438 2698538
-905.758 -1319.6901 3247.6233 2698794
-950.5351 -1415.1149 3482.4541 2566955
-903.35065 -1374.8331 3383.325 2699053
-858.5036 -1336.354 3288.6316 2633261
-883.41315 -1407.1962 3462.9668 2633260
-859.83154 -1402.3348 3451.0039 2633260
-816.5246 -1364.2781 3357.3501 2699053
-802.15558 -1373.8757 3380.9688 2501674
-820.48401 -1441.4091 3547.1614 2633260
-772.24933 -1392.4845 3426.7629 2633261
-753.11761 -1394.8066 3432.4775 2830639
-730.35443 -1390.3453 3421.4988 3093555
-724.05774 -1417.8734 3489.2427 3093298
-701.625 -1414.4956 3480.9302 2830127
-687.22662 -1427.6024 3513.1848 2830379
-671.04688 -1437.7151 3538.071 2764844
-650.89471 -1439.696 3542.9458 2699051
-629.69647 -1439.4183 3542.2625 2633513
-608.07843 -1438.1287 3539.0886 2765098
-587.31091 -1438.8302 3540.8152 2699303
-556.17407 -1413.2354 3477.8286 2765353
-533.97101 -1409.2406 3467.998 2764328
-524.38538 -1439.5624 3542.6169 2699044
-504.18396 -1442.0605 3548.7646 2567459
-475.27261 -1418.7762 3491.4644 2632996
-448.82318 -1401.049 3447.8391 2567205
-426.2757 -1394.3875 3431.4458 2567205
-406.54919 -1396.7476 3437.2539 2435362
-384.65109 -1391.5017 3424.3445 2238240
-363.90228 -1390.0594 3420.7952 2566691
-341.51404 -1381.8127 3400.501 2698275
-321.25681 -1381.6931 3400.2065 2632226
-292.48584 -1342.48 3303.707 2435104
-271.77603 -1337.2827 3290.917 2303518
-263.07755 -1394.9684 3432.8757 2304031
-237.61977 -1366.0189 3361.634 2304032
-215.20969 -1350.8792 3324.3765 2040861
-203.97592 -1409.9288 3469.6917 2304035
-175.47115 -1349.4526 3320.866 2304034
-159.46111 -1381.9125 3400.7463 2238241
-142.68718 -1416.2236 3485.1826 2369827
-124.08673 -1440.9902 3546.1306 2303264
-103.83777 -1452.8376 3575.2859 2369312
-83.060356 -1461.4902 3596.5791 2500898
-61.07019 -1447.4043 3561.915 1777175
-40.124279 -1456.2493 3583.6819 2303519
-18.841946 -1459.0975 3590.6912 1645590
2.3988121 -1389.5547 3419.5532 1185555
0 0 0 0
39.429825 -1271.692 3129.5051 5330514
58.351608 -1278.3639 3145.9238 5199184
76.163727 -1263.3884 3109.0708 3817275
93.73835 -1251.0955 3078.8188 4540998
114.30946 -1276.2771 3140.7886 4540485
132.94208 -1275.7806 3139.5667 4869450
153.45679 -1291.2429 3177.6177 5001035
170.29498 -1275.7709 3139.5427 4803400
192.84705 -1301.9323 3203.9231 4869709
211.48567 -1299.3436 3197.553 4672330
229.64989 -1294.5081 3185.6531 4869709
248.23517 -1292.6023 3180.9631 4803916
266.71991 -1290.4802 3175.741 4870479
280.08228 -1265.4944 3114.2532 5001808
301.70911 -1278.6333 3146.5869 5001808
316.13971 -1261.5216 3104.4766 5199187
330.71976 -1246.8621 3068.4011 5133138
346.03296 -1236.3557 3042.5459 5264467
363.97437 -1235.8175 3041.2214 5198674
372.18448 -1203.8538 2962.562 5198931
388.1572 -1198.7537 2950.0112 5198674
405.133 -1197.0587 2945.8401 5330003
426.28281 -1207.3262 2971.1072 5199187
444.15619 -1207.8657 2972.4351 5396309
462.99765 -1210.8959 2979.8918 5462359
478.02481 -1204.0948 2963.155 5396566
493.35391 -1198.511 2949.4138 5330519
510.6839 -1198.0044 2948.1672 5724763
549.48126 -1246.2195 3066.8196 197637
571.52893 -1254.5684 3087.3652 2304042
580.45551 -1234.4917 3037.9587 2698801
594.3869 -1225.9502 3016.939 3817797
619.09259 -1239.4803 3050.2356 4147534
641.24139 -1247.267 3069.3972 4344656
661.02649 -1250.1519 3076.4968 4278350
685.46356 -1261.4423 3104.2815 4410190
713.21613 -1278.0817 3145.2292 4344395
734.9032 -1283.2787 3158.0188 4344653
762.32892 -1297.9878 3194.2163 4606798
792.73822 -1316.9379 3240.8503 4474955
816.80542 -1324.7023 3259.958 4278087
838.51636 -1328.374 3268.9937 4080708
858.74622 -1329.5859 3271.9761 4409160
877.55249 -1328.589 3269.5227 4145988
893.37341 -1323.2135 3256.2942 4146243
911.15332 -1320.9061 3250.616 4014399
947.92957 -1345.6615 3311.5364 3553847
939.888 -1307.0818 3216.5957 3817275
952.31494 -1297.9387 3194.0955 3948091
970.70697 -1297.1243 3192.0911 3816505
989.948 -1297.4537 3192.9021 3684919
1010.5701 -1299.547 3198.0532 3092782
1022.675 -1290.8125 3176.5586 3750712
1058.1578 -1311.3668 3227.1409 3487540
1091.1559 -1328.1646 3268.478 3619126
1121.3347 -1341.0022 3300.0703 3816505
1119.5283 -1315.8053 3238.0635 2698024
1153.2319 -1332.4905 3279.124 2566438
1176.0703 -1336.2754 3288.4382 2698022
1197.9054 -1338.8149 3294.6877 2500644
1214.9121 -1335.9634 3287.6704 2763815
1227.2399 -1328.1385 3268.4143 2566438
1248.542 -1330.1185 3273.2869 2632231
1392.6855 -1460.8955 3595.1157 2698024
1411.1958 -1457.9235 3587.8018 2829609
1269.5044 -1291.9995 3179.4797 2895405
1286.9408 -1290.5171 3175.8318 2632233
1311.6599 -1296.2753 3190.0017 2763819
1441.1758 -1403.9594 3455.0015 3026991
1434.223 -1377.5402 3389.9866 3092784
1309.652 -1240.4502 3052.6221 3355956
1327.8197 -1240.4575 3052.6401 3355956
1305.9973 -1203.6097 2961.9614 3355956
1305.9045 -1187.5023 2922.3228 3290163
1281.046 -1149.5939 2829.0339 3355956
1305.4951 -1156.3428 2845.6421 3619128
1284.4351 -1123.125 2763.8967 3553335
1262.0992 -1089.6455 2681.5071 3619128
1302.9839 -1110.9026 2733.8186 3751229
0 0 0 0
0 0 0 0
1176.9513 -967.23145 2380.2585 5725033
1172.174 -951.85364 2342.4153 7905460
1183.9512 -950.12207 2338.1541 12964313
1189.1379 -943.20331 2321.1277 8094348
1207.4092 -946.7027 2329.7393 6518160
1193.2439 -924.97839 2276.2778 4213595
1193.4399 -914.74933 2251.1055 2502465
1206.0194 -914.13373 2249.5903 1252140
1198.493 -898.45923 2211.0168 14
1242.6954 -921.48273 2267.6755 6391956
1253.7941 -919.72833 2263.3582 13
1293.1617 -938.52783 2309.6218 17
1308.601 -939.74823 2312.625 19
1333.6094 -947.74365 2332.301 18
1351.1388 -950.31415 2338.6267 273
1367.6572 -952.12848 2343.0916 19
1386.9698 -955.83179 2352.2051 132379
0 0 0 0
0 0 0 0
0 0 0 0
1225.823 -812.00787 1998.269 13423569
1232.3649 -808.50079 1989.6384 13554131
1218.3466 -791.70007 1948.2935 13684947
1221.271 -786.12189 1934.5663 13685457
1222.9457 -779.85107 1919.1343 13619665
1225.2406 -774.08795 1904.9519 13750737
1231.16 -770.69946 1896.6132 13750737
1228.1462 -761.83105 1874.7889 13750737
1226.495 -753.95996 1855.4189 13750737
1232.538 -750.91693 1847.9304 13750737
1234.4926 -745.45892 1834.4987 13750737
1236.3746 -740.0531 1821.1956 13750738
1238.2866 -734.75891 1808.1671 13750739
1227.6493 -722.17371 1777.1963 13618899
1231.3439 -718.16235 1767.3247 13684946
1175.6416 -679.86987 1673.0908 10525619
0 0 0 0
1164.3422 -662.12421 1629.4204 6315889
1164.3831 -656.68048 1616.024 3882059
1169.9215 -654.40094 1610.4144 5263456
1173.016 -650.80255 1601.5591 5394784
1180.1746 -649.49878 1598.3507 2763058
1173.1847 -640.49164 1576.1849 4671311
1175.6085 -636.72595 1566.918 1118739
1174.3722 -631.05267 1552.9565 5395541
1175.8732 -626.92737 1542.8046 3881789
1175.4055 -621.82446 1530.2469 1316118
1183.7902 -621.4472 1529.3185 6777452
1170.6039 -609.83807 1500.7496 7698553
1171.7566 -605.81812 1490.8569 7895420
1181.7742 -606.40753 1492.3074 7434870
1187.2568 -604.67847 1488.0524 4408392
1196.9159 -605.0863 1489.0559 1974307
1204.9077 -604.65143 1487.9858 1381912
1204.7397 -600.15808 1476.9281 1447449
1215.1594 -600.96588 1478.9161 1644826
1216.7643 -597.43402 1470.2246 2105378
1215.7582 -592.67981 1458.5249 1973792
1225.3792 -593.1369 1459.6498 1842206
1219.2227 -586.00433 1442.0972 1315862
1226.233 -585.25562 1440.2548 1183506
1243.0549 -589.16772 1449.882 920846
1247.7338 -587.31018 1445.3107 526344
1257.2977 -587.76166 1446.4219 526344
1264.0946 -586.9223 1444.3562 394501
1270.9128 -586.10413 1442.3428 262659
1276.1746 -584.58392 1438.6017 131074
1281.5033 -583.11444 1434.9855 131074
1294.0183 -584.91272 1439.4109 131073
1300.8801 -584.14886 1437.531 196611
1310.603 -584.67133 1438.8168 196610
1315.0084 -582.8302 1434.2859 131074
1316.6177 -579.78143 1426.7833 131073
1319.9413 -577.52191 1421.2228 65538
1323.7668 -575.50934 1416.2701 65537
1311.4635 -566.55457 1394.2333 65537
1311.1747 -562.87 1385.1659 65538
1323.533 -564.62677 1389.4891 65538
1336.5918 -566.65869 1394.4895 65538
1346.5005 -567.33832 1396.162 65538
1347.3038 -564.19659 1388.4307 65539
0 0 0 0
0 0 0 0
0 0 0 0
0 0 0 0
0 0 0 0
0 0 0 0
0 0 0 0
0 0 0 0
0 0 0 0
0 0 0 0
0 0 0 0
0 0 0 0
-1550.9065 -725.50519 1811.9208 4013361
-1614.2556 -760.42468 1899.1307 4144688
-1603.7395 -760.79547 1900.0569 4079409
-1590.7115 -759.97156 1897.9991 3947823
-1585.0963 -762.70258 1904.8197 3947568
-1575.4714 -763.52985 1906.8857 3881519
-1601.1276 -781.59143 1951.9938 4013105
-1550.5499 -762.43146 1904.1426 3750702
-1536.3357 -761.00165 1900.5717 3750702
-1576.9702 -786.92053 1965.3032 3684909
-1511.7445 -760.00696 1898.0876 3684909
-1504.9596 -762.28973 1903.7887 3619116
-1493.634 -762.28973 1903.7887 3553323
-1481.1763 -761.70746 1902.3345 3619116
-1583.3855 -820.5387 2049.2632 3487529
-1521.2194 -794.43976 1984.082 3355944
-1548.1097 -814.80499 2034.9436 3355943
-1472.7156 -781.23242 1951.0973 3158565
-1522.9957 -814.32251 2033.7384 3224102
-1491.7843 -804.02124 2008.0116 3158567
-1466.6086 -796.83319 1990.0596 1974295
-1458.1735 -798.69739 1994.7155 1185038
-1448.9033 -800.13123 1998.2963 256
-1439.7411 -801.64874 2002.0863 256
-1426.2794 -800.77777 1999.9111 1053718
-1415.6118 -801.474 2001.6499 1185304
-1388.4443 -792.76111 1979.8896 1185565
-1394.6772 -803.13293 2005.793 1448483
-1381.5042 -802.41223 2003.9932 1252131
-1369.5825 -802.41223 2003.9932 1054497
-1361.6616 -804.77679 2009.8984 987934
-1360.6709 -811.31549 2026.2285 725532
-1350.8694 -812.67047 2029.6125 857118
-1335.0725 -810.41071 2023.9689 1251619
-1324.9656 -811.59497 2026.9266 1384231
-1315.4012 -813.1366 2030.7767 1252388
-1302.3621 -812.53876 2029.2836 1581352
-1288.7961 -811.59796 2026.9341 1581093
-1274.9551 -810.4646 2024.1035 1383458
-1259.8827 -808.51947 2019.2456 1515044
-1246.2073 -807.44189 2016.5544 1514787
-1232.3101 -806.19836 2013.4487 1252128
-1221.6257 -807.05298 2015.5831 1778470
-1209.687 -807.08759 2015.6694 1646884
-1198.6289 -807.71631 2017.2396 1646884
-1190.4353 -810.30743 2023.7111 1449248
-1188.8502 -817.49597 2041.6641 856598
-1185.9875 -823.94519 2057.7708 922391
-1178.9391 -827.5907 2066.8752 1053720
-1174.8267 -833.39575 2081.373 724498
-1180.3579 -846.2384 2113.447 260
-1179.2977 -854.58093 2134.2822 2
-1177.8975 -862.85602 2154.949 2
-1189.2959 -880.79187 2199.7432 2
-1187.6541 -889.36182 2221.1462 257
-1191.9048 -902.58685 2254.1753 1
-1189.2355 -910.81293 2274.7195 2
-1183.3644 -916.74792 2289.542 658702
-1222.5757 -958.15302 2392.9495 658959
-1220.9614 -968.16101 2417.9441 856338
-1228.5275 -985.77393 2461.9316 790545
-1224.8113 -994.64984 2484.0989 658958
-1232.8391 -1013.396 2530.9167 723982
-1233.6724 -1026.6188 2563.9399 1
-1235.6775 -1041.1599 2600.2559 1
-1234.0372 -1052.9592 2629.7244 256
-1237.9363 -1069.8488 2671.9053 256
-1241.9768 -1087.3015 2715.4929 256
-1235.5929 -1095.968 2737.137 66305
-1218.675 -1095.3973 2735.7117 66561
-1291.8138 -1176.8536 2939.1458 256
-1261.7195 -1165.2087 2910.063 790027
-1268.0815 -1187.3757 2965.4243 1382162
-1244.0011 -1181.2614 2950.1538 1382162
-1235.4011 -1189.8818 2971.6831 1579541
-1235.0328 -1206.7961 3013.9258 1645334
-1222.1256 -1211.776 3026.363 1447955
-1210.8558 -1218.5527 3043.2876 1447958
-1205.7234 -1231.8053 3076.3853 1842715
-1189.7124 -1234.181 3082.3186 1842715
-1184.9147 -1248.4458 3117.9443 1974301
-1157.3192 -1238.7622 3093.7598 1974301
-1152.1503 -1253.1582 3129.7134 1908509
-1131.6016 -1251.0242 3124.3838 2303266
-1111.2645 -1249.057 3119.4707 2303011
-1094.5889 -1251.208 3124.8428 2237732
-1083.6252 -1260.0757 3146.9895 2171680
-1063.8461 -1258.824 3143.8633 1975071
-1031.1144 -1241.9265 3101.6628 2435622
-1005.4562 -1233.0885 3079.5901 2172450
-986.63672 -1232.465 3078.033 2435622
-975.51428 -1241.6145 3100.8833 2369829
-959.58246 -1244.8773 3109.0322 2698794
-933.86035 -1235.3179 3085.158 2566438
-931.53766 -1256.9485 3139.1797 2895147
-929.96417 -1280.496 3197.9883 2566182
-929.82361 -1307.041 3264.2837 2829610
-924.01257 -1326.5778 3313.0757 2763817
-965.18335 -1415.8864 3536.1204 2632747
-933.84167 -1400.4318 3497.5232 2764333
-871.15466 -1336.1946 3337.0935 2764333
-885.17175 -1389.3555 3469.8608 2566954
-845.22223 -1358.3269 3392.3682 2764077
-828.12866 -1363.4102 3405.0632 2765102
-807.66663 -1363.0634 3404.197 2501674
-789.14471 -1366.057 3411.6736 2633260
-773.8822 -1375 3434.0085 2896432
-764.32678 -1394.843 3483.5657 2698797
-740.13892 -1388.3446 3467.3362 2830126
-724.61462 -1398.1906 3491.926 2961712
-711.01477 -1412.4407 3527.5151 3159091
-699.64514 -1432.1227 3576.6702 2896173
-675.29163 -1425.6285 3560.4512 2896173
-651.95276 -1420.9253 3548.7053 3027759
-631.05005 -1421.3944 3549.8767 2830636
-613.08124 -1428.7335 3568.2058 2831147
-597.38422 -1442.0829 3601.5454 2765098
-566.95422 -1419.5372 3545.2383 2765097
-541.90961 -1409.2542 3519.5569 2961963
-515.27533 -1393.8446 3481.072 2698791
-503.76776 -1419.7761 3545.8352 2830121
-482.58243 -1419.5074 3545.1641 2698791
-452.64206 -1392.2844 3477.1758 2895656
-427.79999 -1378.887 3443.7161 2501412
-407.31354 -1378.887 3443.7161 2435873
-386.40314 -1377.3759 3439.9421 2370336
-364.99854 -1373.8354 3431.1001 2238494
-343.0701 -1367.7874 3415.9951 2435872
-315.72226 -1338.0103 3341.6282 2435872
-291.59042 -1318.7767 3293.593 2303774
-272.62131 -1321.8035 3301.1521 2566691
-247.84456 -1294.9562 3234.1021 2567205
-231.54817 -1311.6277 3275.7385 2501412
-212.061 -1311.6277 3275.7385 2435619
-186.02 -1266.9894 3164.2561 2238241
-174.73723 -1324.1355 3306.9763 2435620
-156.54535 -1336.7832 3338.5637 2304033
-139.56911 -1364.9956 3409.0229 2106655
-120.74348 -1381.6387 3450.5881 2040092
-103.81857 -1431.3038 3574.625 2435361
-81.902367 -1420.0172 3546.4373 2106140
-62.489597 -1459.3629 3644.7017 1777175
-40.223709 -1438.4862 3592.5627 1909018
-18.549015 -1415.3848 3534.8677 1975068
2.3901298 -1364.2562 3407.1765 1382932
21.638166 -1302.781 3253.6445 1777690
