# .PCD v0.7 - Point Cloud Data file format
VERSION 0.7
FIELDS x y z rgb
SIZE 4 4 4 4
TYPE F F F U
COUNT 1 1 1 1
WIDTH 1318
HEIGHT 1
VIEWPOINT 0 0 0 1 0 0 0
POINTS 1318
DATA ascii
1462.655 -251.6059 1671.2317 5985093
1472.5796 -251.60289 1671.2118 5787715
1489.4587 -252.78023 1679.032 5985863
1492.5385 -251.61554 1671.2958 5919814
1497.4764 -250.77745 1665.729 5919814
1505.7081 -250.49837 1663.8752 5853762
1516.2407 -250.60316 1664.5714 5853762
1517.4207 -249.17087 1655.0577 5919555
1531.0211 -249.78345 1659.1266 5919555
1544.9589 -250.44286 1663.5065 5985348
1544.3761 -248.75497 1652.2953 5919555
1554.2058 -248.75505 1652.2957 5853762
1679.9528 -267.19138 1774.7545 5787969
1564.9984 -247.3537 1642.9875 5853250
1573.2596 -247.11607 1641.4092 5655870
1608.4747 -251.08899 1667.7983 5655613
1597.554 -247.85536 1646.3198 5721663
0 0 0 0
0 0 0 0
0 0 0 0
0 0 0 0
0 0 0 0
0 0 0 0
0 0 0 0
0 0 0 0
0 0 0 0
0 0 0 0
0 0 0 0
0 0 0 0
-1594.0927 -269.30359 1862.3751 0
0 0 0 0
-1522.1387 -260.77261 1803.3789 3092255
-1589.4508 -274.23737 1896.4948 3223838
-1592.191 -276.67404 1913.3456 3289375
-1580.1726 -276.56271 1912.5757 3289375
-1557.0541 -274.49292 1898.2622 3158303
-1553.6787 -275.8989 1907.985 3289889
-1538.843 -275.27542 1903.6735 3092512
-1525.3633 -274.88708 1900.9879 3158306
-1521.1499 -276.17532 1909.8967 3092512
-1530.0625 -279.88397 1935.5441 3026719
-1528.3206 -281.68515 1948.0001 3026719
-1517.9475 -281.91089 1949.5612 2697754
-1521.6646 -284.77704 1969.3822 2763547
-1507.6514 -284.34372 1966.3856 2631960
-1555.0479 -295.57611 2044.0635 2828569
-1487.6238 -284.98901 1970.848 2828569
-1520.7445 -293.64838 2030.7322 2762776
-1465.9513 -285.33478 1973.2393 2170640
-1459.6022 -286.39227 1980.5524 1775628
-1447.8199 -286.39227 1980.5524 1250310
-1439.4967 -287.08209 1985.3229 1250311
-1430.8876 -287.72586 1989.7748 921349
-1458.5876 -295.74237 2045.2131 263424
-1444.9486 -295.44138 2043.1315 256
-1430.5835 -294.98553 2039.9791 256
-1416.9459 -294.67322 2037.8193 0
-1401.4741 -293.97073 2032.9614 0
-1388.4474 -293.77338 2031.5966 0
-1367.4149 -291.8638 2018.3907 460807
-1350.5376 -290.81512 2011.1387 132099
-1339.2568 -290.96359 2012.1654 526601
-1326.3479 -290.75781 2010.7422 527371
-1315.3885 -290.97955 2012.2758 461577
-1295.0225 -289.10538 1999.3148 329737
-1288.4642 -290.30756 2007.6287 66822
-1272.3997 -289.37027 2001.1469 132615
-1245.4186 -285.90924 1977.2118 772
-1244.8448 -288.50226 1995.144 66821
-1221.5249 -285.82288 1976.6146 198406
-1214.7871 -287.00916 1984.8184 264198
-1198.9595 -286.05002 1978.1855 198406
-1184.6283 -285.43246 1973.9147 593422
-1170.4014 -284.82788 1969.7339 921361
-1160.4781 -285.26904 1972.7845 789775
-1149.9824 -285.57703 1974.9146 592652
-1141.3741 -286.36493 1980.3633 856338
-1125.1261 -285.23254 1972.5321 527630
-1122.1213 -287.46893 1987.998 1581344
-1119.198 -289.77408 2003.9392 1515295
-1111.5333 -290.88806 2011.6429 1581088
-1109.3424 -293.4743 2029.5283 462606
-1096.4995 -293.26855 2028.1053 395789
-1083.3822 -292.98401 2026.1376 921617
-1248.9764 -341.56656 2362.1113 258
-1250.2211 -345.79745 2391.3701 256
-1202.6714 -336.47443 2326.8967 0
-1210.3998 -342.57965 2369.1174 0
-1188.5275 -340.35214 2353.7131 0
-1176.6287 -340.96167 2357.9282 0
-1164.1216 -341.40744 2361.011 0
-1150.6309 -341.57211 2362.1499 0
-1138.5817 -342.17413 2366.313 0
-1129.8612 -343.80408 2377.585 0
-1088.6437 -335.46152 2319.8918 0
-1099.5331 -343.16742 2373.1821 0
-1099.1832 -347.52039 2403.2852 0
-1092.9148 -350.09213 2421.0703 0
-1087.3856 -352.9726 2440.99 0
-1096.0601 -360.604 2493.7651 0
-1086.4203 -362.33679 2505.7483 0
-1092.5331 -369.44455 2554.9023 0
-1068.0084 -366.24652 2532.7861 0
-1060.9473 -369.03137 2552.0449 0
-999.77161 -352.80106 2439.8037 65536
-1008.0296 -360.95532 2496.1948 256
-1011.5803 -367.64267 2542.4412 65792
-1187.0715 -437.97052 3028.7952 65792
-1169.0533 -437.97052 3028.7952 394496
-1357.3069 -516.45715 3571.5713 328960
-1336.3654 -516.57526 3572.3879 1052677
-1301.1472 -511.08936 3534.4502 790018
-1284.0924 -512.67499 3545.4155 789765
-1271.9948 -516.32568 3570.6621 987657
-1245.1973 -514.03217 3554.8013 1185035
-1199.7903 -503.84451 3484.3481 1316622
-1181.1305 -504.72833 3490.4604 1316624
-1145.3933 -498.2157 3445.4219 1842968
-1119.8341 -495.97345 3429.9158 1777175
-1087.5492 -490.61392 3392.8518 1711382
-1060.9078 -487.64569 3372.325 1777175
-1041.9125 -488.14536 3375.7803 1777176
-1006.1871 -480.67239 3324.1011 2040347
-977.83466 -476.49261 3295.1956 1908761
-956.27954 -475.52188 3288.4824 2171677
-936.7428 -475.53516 3288.5745 2171933
-922.07733 -478.07468 3306.1365 2237726
-902.72748 -478.24329 3307.3022 2172187
-900.09979 -487.47571 3371.1494 2106394
-905.70764 -501.69077 3469.4539 2435616
-877.03046 -497.13477 3437.9468 2501412
-846.60144 -491.34442 3397.9038 2304033
-818.86365 -486.871 3366.9675 2435620
-805.96002 -491.21429 3397.0037 2501413
-779.62555 -487.38467 3370.5198 2501413
-746.67371 -479.10675 3313.2739 2633255
-748.9585 -493.60284 3413.5217 2698791
-731.87103 -495.78369 3428.6035 2764582
-701.54425 -488.86392 3380.7495 2633253
-690.06445 -495.05661 3423.5754 2764583
-662.04095 -489.39651 3384.4329 2698791
-647.02814 -493.30081 3411.4329 2764584
-628.77606 -494.90836 3422.55 2764585
-619.48267 -503.9108 3484.8064 2698792
-597.88776 -503.18362 3479.7778 2764585
-581.04028 -506.54309 3503.0103 2830377
-572.11316 -517.31415 3577.4978 2961963
-555.63562 -521.8266 3608.7036 2764584
-539.33282 -526.87244 3643.5984 725003
-524.40118 -533.73639 3691.0664 2435873
-500.41663 -531.58356 3676.1782 2304287
-487.57312 -541.60974 3745.5144 2304287
-459.13019 -534.43805 3695.9185 2764838
-434.88068 -531.67175 3676.7881 2764838
-411.30682 -529.48224 3661.6462 2830631
-383.66791 -521.52209 3606.5981 2567459
-351.55472 -506.17688 3500.4775 2699043
-337.57156 -516.64685 3572.8831 2764836
-312.84753 -510.98059 3533.698 2304285
-292.23508 -511.69724 3538.6541 2501664
-268.95615 -507.4938 3509.5852 2633250
-243.81339 -498.77005 3449.2556 2501665
-221.7419 -495.30322 3425.2808 2699045
-199.97975 -491.8956 3401.7153 2632740
-179.53764 -491.33322 3397.8262 2566690
-159.29143 -491.23224 3397.1279 2698276
-139.34105 -492.14679 3403.4524 2698275
-117.28599 -484.67484 3351.78 256
-96.151398 -478.72488 3310.6328 256
-75.480774 -472.61465 3268.3774 256
-55.339321 -466.72717 3227.6624 2105878
-38.381214 -495.69656 3428.0007 1579535
-18.839792 -519.1626 3590.281 2237465
2.4040284 -495.55029 3426.9893 1777170
0 0 0 0
0 0 0 0
56.63068 -441.49124 3053.1428 4145720
76.996933 -454.4968 3143.083 4145719
93.789261 -445.44589 3080.4912 3356203
113.77199 -452.0296 3126.021 3685168
133.2765 -455.13034 3147.4644 3882547
152.62154 -456.98969 3160.3225 3816754
171.21364 -456.43387 3156.4788 3816754
191.80602 -460.79346 3186.6277 4014643
210.40724 -460.0155 3181.2476 3882802
231.05392 -463.46887 3205.1296 3487787
249.15279 -461.67468 3192.7219 3685423
264.11383 -454.73224 3144.7112 3817009
281.00775 -451.81595 3124.5437 3553580
295.00928 -444.89957 3076.7131 3685168
311.42331 -442.21695 3058.1616 3618864
0 0 0 0
328.58432 -417.77408 2889.1262 65536
342.43268 -413.7399 2861.2278 65536
358.22229 -412.32227 2851.4241 196608
374.73886 -411.83167 2848.0315 65536
391.19791 -411.32309 2844.5142 65536
407.50049 -410.69897 2840.198 65536
423.82001 -410.14093 2836.3389 65536
440.17075 -409.65463 2832.9761 65536
456.26437 -408.97375 2828.2676 65536
473.11478 -408.99561 2828.4185 65536
489.92386 -408.98138 2828.3201 65536
506.00629 -408.38165 2824.1729 65536
521.83423 -407.62167 2818.9172 65536
538.76398 -407.74289 2819.7554 65536
555.29181 -407.56183 2818.5032 65536
571.87732 -407.43243 2817.6084 65536
588.86505 -407.58884 2818.6899 65536
606.20349 -407.97256 2821.3438 0
623.40594 -408.24664 2823.239 0
643.39526 -410.28342 2837.3242 461063
664.73438 -413.05478 2856.49 593675
697.29327 -422.48605 2921.7119 791310
709.36053 -419.34473 2899.988 1054224
730.22937 -421.43216 2914.4238 1185553
749.18188 -422.34247 2920.719 1514517
777.41565 -428.3251 2962.0923 1909272
816.40247 -439.83575 3041.6943 2040601
835.27979 -440.24814 3044.5461 2764067
858.97931 -443.13077 3064.481 2895652
894.37775 -451.80334 3124.4563 3356203
909.49811 -450.08768 3112.5918 3356204
933.6958 -452.84302 3131.6462 3290412
962.03339 -457.45908 3163.5688 3158824
986.64844 -460.1619 3182.2603 3158825
1009.2839 -461.85706 3193.9832 3356202
1035.9603 -465.30457 3217.8245 3027238
1047.1965 -461.81784 3193.7119 2566687
1061.7069 -459.87347 3180.2656 3093031
1077.8429 -458.68906 3172.0747 3290411
1094.5452 -457.78223 3165.8035 3421996
1112.3844 -457.37357 3162.9773 1777171
1130.2776 -457.00031 3160.396 1909012
1164.2174 -463.02112 3202.0332 1974291
1165.4554 -456.05164 3153.8357 1974292
1202.7013 -463.16998 3203.0625 1974293
1207.9932 -457.95236 3166.9802 1974293
1226.0361 -457.65485 3164.9226 2237209
1222.2448 -449.3392 3107.4155 2105625
1263.0908 -457.4371 3163.4167 2105880
1272.9646 -454.24506 3141.3423 2105623
1292.5109 -454.54703 3143.4304 2039830
1313.5516 -455.35849 3149.042 2105880
1281.3032 -437.9335 3028.5391 2303260
1342.0996 -452.35239 3128.2532 2500383
1284.1772 -426.91016 2952.3069 2500383
1276.9935 -418.79431 2896.1816 2566686
1214.1541 -392.88504 2717.0056 2500894
1379.3225 -440.46783 3046.0654 2435101
1401.4647 -441.73538 3054.8311 2632223
1317.5011 -409.95447 2835.0496 2763809
1230.8698 -378.15735 2615.1558 2763810
0 0 0 0
1186.0867 -355.41434 2457.876 3421998
1179.4635 -349.12573 2414.387 3093035
1164.818 -340.6424 2355.7202 4475458
1175.9644 -339.81375 2349.9897 4343876
1187.7631 -339.19083 2345.6819 3949632
1202.4594 -339.40024 2347.1301 5726300
1217.803 -339.78552 2349.7944 1974045
1228.6772 -338.92911 2343.8721 256
1214.2163 -331.18173 2290.2947 0
1231.9423 -332.28787 2297.9443 0
1235.7953 -329.66898 2279.8333 65536
1240.1519 -327.23975 2263.0339 0
1224.2101 -319.56412 2209.9529 0
1223.6891 -316.03415 2185.5415 0
1228.698 -313.99167 2171.4165 0
1233.2524 -311.87668 2156.7903 0
1233.0173 -308.60654 2134.1755 0
1251.4182 -310.01981 2143.949 2
1252.2864 -307.10495 2123.7913 260
0 0 0 0
1206.0443 -289.91483 2004.9126 6185828
1217.2836 -289.75113 2003.7805 4803916
1236.4253 -291.45331 2015.5521 2237984
0 0 0 0
1236.8556 -286.00757 1977.892 4606010
1262.1932 -289.11618 1999.3895 4606264
1260.3571 -286.00046 1977.8428 4671546
1253.8271 -281.88715 1949.397 4605752
1253.2031 -279.16483 1930.5707 4539958
1246.6 -275.17212 1902.959 4803385
1245.9501 -272.55353 1884.8502 4539956
1246.2943 -270.1972 1868.5551 4671542
1247.2825 -268.02094 1853.505 4737078
1239.1101 -263.93158 1825.2249 4671285
1213.0239 -256.13077 1771.2781 4868406
1198.2056 -250.82303 1734.5724 4934199
1209.5491 -251.03568 1736.043 4933946
1202.7683 -247.51497 1711.6954 4999739
1197.7014 -244.40314 1690.1755 4999227
1194.0294 -241.62538 1670.9658 4933435
1196.0188 -240.02965 1659.9305 5131070
1209.3992 -240.72743 1664.7561 4341298
1222.5282 -241.36423 1669.1599 5065021
1247.4512 -244.30049 1689.4657 4999228
1257.6721 -244.33359 1689.6946 4933692
1263.0197 -243.42694 1683.4246 5262143
1262.7998 -241.46992 1669.8907 4669749
1280.4387 -242.93173 1679.9999 5064507
1278.1342 -240.61641 1663.9883 5590851
1281.2072 -239.34126 1655.1699 5722434
1282.0735 -237.67645 1643.6569 5656642
1283.4271 -236.12651 1632.9384 5590849
1301.5083 -237.65433 1643.5039 5722435
1300.467 -235.69363 1629.9447 5788485
1314.0938 -236.40068 1634.8342 5721921
1314.95 -234.81683 1623.8812 5590336
1319.5421 -233.91837 1617.6678 5721922
1337.803 -235.43848 1628.1802 5919300
1348.0332 -235.53357 1628.8378 6314313
1371.4268 -237.91084 1645.2778 5721920
1380.3784 -237.76685 1644.282 5393211
1405.391 -240.37187 1662.2971 5853762
1426.6576 -242.30426 1675.6606 5853506
1435.2325 -242.06923 1674.0353 5721922
1451.7445 -243.1669 1681.6262 5853508
1479.0566 -246.04619 1701.538 5853508
1467.2554 -242.42389 1676.4879 5853507
1472.5819 -241.6613 1671.2144 5656129
1482.3396 -241.63129 1671.0067 6050888
1488.0013 -240.93842 1666.2152 5919303
1495.9891 -240.62889 1664.0746 6116679
1502.1597 -240.03304 1659.954 5985093
1511.1266 -239.8889 1658.9572 5853762
1515.4336 -239.01166 1652.8905 5853761
1524.6144 -238.90945 1652.1838 5656383
1534.6917 -238.94812 1652.4513 5656383
1545.6096 -239.11641 1653.6151 5722176
1543.1315 -237.22319 1640.5223 5722176
1552.9921 -237.23865 1640.6293 5656383
1567.3323 -237.93398 1645.4377 5787456
1577.0364 -237.92122 1645.3496 5721663
1593.6676 -238.94724 1652.4451 5326905
1609.2173 -239.79951 1658.3391 5852738
0 0 0 0
0 0 0 0
0 0 0 0
0 0 0 0
0 0 0 0
0 0 0 0
0 0 0 0
0 0 0 0
0 0 0 0
0 0 0 0
0 0 0 0
0 0 0 0
-1591.3916 -257.7869 1859.2195 65536
0 0 0 0
-1553.7994 -255.24539 1840.8895 3223330
-1555.9403 -257.41135 1856.5109 3091743
-1584.1188 -263.94666 1903.6453 3420962
-1493.4692 -250.63434 1807.6335 3092769
-1556.1147 -263.0415 1897.1169 3092512
-1551.9099 -264.24719 1905.8129 3026718
-1573.0151 -269.81195 1945.947 3026718
-1523.2006 -263.20453 1898.2926 2829338
-1528.6874 -266.12564 1919.3606 2895133
-1529.3523 -268.245 1934.6458 2895132
-1523.1492 -269.18268 1941.4087 2829340
-1513.0165 -269.43497 1943.2281 2763547
-1509.2366 -270.83112 1953.2975 3026718
-1499.8081 -271.22745 1956.156 2960924
-1500.8994 -273.54727 1972.887 2434580
-1495.391 -274.69135 1981.1383 2368788
-1481.4973 -274.30103 1978.3234 2105616
-1473.6757 -275.03772 1983.6366 1974029
-1466.5769 -275.92233 1990.0165 1776652
-1453.8496 -275.75372 1988.8007 1316614
-1443.1385 -275.96796 1990.3456 1316103
-1434.3837 -276.56287 1994.6362 658691
-1452.3922 -282.37103 2036.526 263168
-1442.9979 -282.90445 2040.3733 256
-1429.3506 -282.60605 2038.2212 256
-1416.7913 -282.51953 2037.5969 0
-1400.5868 -281.69827 2031.6741 0
-1384.4619 -280.87894 2025.7648 0
-1366.7 -279.71017 2017.3353 197635
-1351.9132 -279.13501 2013.1871 263685
-1333.2152 -277.73474 2003.0881 263428
-1329.8831 -279.53912 2016.1017 592907
-1309.3275 -277.72305 2003.0037 790029
-1302.9635 -278.91144 2011.5747 395786
-1288.9081 -278.46021 2008.3202 395787
-1270.5018 -277.05176 1998.1621 461580
-1260.2307 -277.40741 2000.7273 658959
-1244.4161 -276.53799 1994.4569 987924
-1228.9833 -275.73746 1988.6833 725008
-1215.7648 -275.42307 1986.4156 856338
-1201.0979 -274.77115 1981.7139 1185303
-1181.8563 -273.04935 1969.296 856337
-1169.4731 -272.89349 1968.1718 856338
-1161.6475 -273.80872 1974.7726 264458
-1152.6912 -274.47342 1979.5667 658960
-1140.6035 -274.39853 1979.0264 1119512
-1135.355 -275.98453 1990.465 1251098
-1125.9874 -276.59213 1994.8474 1711649
-1121.5586 -278.43878 2008.1658 1185305
-1104.3729 -277.12411 1998.684 516
-1101.1661 -279.32675 2014.5699 515
-1091.8655 -280.01505 2019.5341 131845
-1083.5243 -280.96747 2026.4033 264199
-1078.3019 -282.75912 2039.3252 2
-1216.2397 -322.55911 2326.3721 256
-1206.113 -323.55511 2333.5554 256
-1213.0582 -329.2074 2374.321 0
-1201.5933 -329.93771 2379.5881 0
-1176.6407 -326.93784 2357.9524 0
-1164.3115 -327.41534 2361.3962 0
-1151.5128 -327.7709 2363.9607 0
-1141.3182 -328.88565 2372.0005 0
-1129.8612 -329.65997 2377.585 0
-1088.9701 -321.75705 2320.5874 0
-1096.3411 -328.09427 2366.2927 0
-1096.4456 -332.39343 2397.2993 0
-1092.979 -335.70905 2421.2124 0
-1101.8759 -342.96143 2473.5181 0
-1105.7117 -348.81348 2515.7246 0
-1089.8574 -348.52936 2513.6755 0
-1077.2649 -349.29501 2519.1975 0
-1067.0538 -350.86526 2530.5225 0
-1060.9219 -353.84091 2551.9836 0
-1000.19 -338.42838 2440.8247 65536
-1008.5746 -346.29269 2497.5442 65536
-1006.7914 -350.849 2530.4053 65536
-1187.62 -420.14642 3030.1946 65792
-1123.4126 -403.55713 2910.5486 131328
-1294.7781 -472.39661 3407.0352 131840
-1330.0992 -493.00079 3555.6375 921345
-1297.0857 -488.53339 3523.4172 724227
-1277.5446 -489.07681 3527.3367 723973
-1273.6228 -495.71768 3575.2324 724485
-1240.5769 -491.056 3541.6111 1119243
-1219.5081 -491.056 3541.6111 1185036
-1169.5676 -479.22598 3456.29 1448211
-1136.9202 -474.18509 3419.9341 1711382
-1122.7042 -476.78799 3438.7068 1711382
-1084.7826 -469.23334 3384.2207 1908761
-1065.7031 -469.69748 3387.5684 2040347
-1043.6809 -468.85748 3381.51 1908761
-1017.3784 -466.02383 3361.0732 2040092
-985.85883 -460.63892 3322.2361 1776920
-970.15094 -462.57278 3336.1836 1908506
-949.56348 -462.21228 3333.5833 1974554
-926.91315 -460.81079 3323.4756 2171933
-932.28925 -473.58517 3415.6072 2237468
-903.32513 -469.09586 3383.2295 2303259
-905.45569 -480.91742 3468.4893 2370080
-892.70715 -485.20319 3499.3992 2370081
-863.60638 -480.59372 3466.1545 2238240
-829.25769 -472.76682 3409.7051 2567207
-810.3681 -473.58182 3415.583 2567205
-773.82806 -463.85843 3345.4558 2632999
-767.22937 -472.04333 3404.4873 2501412
-742.98145 -469.51883 3386.28 2830377
-706.47198 -458.88919 3309.6165 2567205
-709.92627 -474.35269 3421.1426 2632998
-670.57294 -461.28192 3326.8733 2698791
-653.30603 -463.07129 3339.7788 2764584
-642.06213 -469.37601 3385.2498 2896170
-629.83405 -475.34628 3428.3088 2698791
-613.37335 -478.41479 3450.4395 2698791
-594.18567 -479.49512 3458.2312 2698791
-587.89801 -491.4364 3544.3545 2896169
-559.2713 -484.89774 3497.196 2896170
-547.01019 -492.59131 3552.6841 2632998
-542.18079 -507.86456 3662.8384 724745
-520.74445 -508.20972 3665.3276 2435873
-503.08109 -512.42816 3695.752 2435620
-486.90121 -518.61224 3740.353 2238239
-459.47369 -512.83466 3698.6838 2633252
-434.94299 -509.8718 3677.3149 2633251
-411.36786 -507.77463 3662.1897 2633250
-384.79282 -501.53287 3617.1726 2764836
-359.87854 -496.84445 3583.3589 2501664
-335.66449 -492.59329 3552.6982 2567457
-315.58792 -494.25064 3564.6514 2501664
-291.62161 -489.61609 3531.2258 2501664
-269.01715 -486.72592 3510.3813 2435870
-245.04776 -480.67191 3466.7185 2172699
-222.12871 -475.75491 3431.2559 2304287
-201.41895 -475.05344 3426.1968 2435360
-180.92661 -474.7645 3424.1128 2698277
-160.46065 -474.48026 3422.063 2632484
-140.19991 -474.80847 3424.4302 256
-117.03648 -463.7467 3344.6499 256
-96.025192 -458.42764 3306.2876 0
-75.735367 -454.6998 3279.4014 0
-54.866463 -443.70203 3200.083 986888
-37.406933 -463.23834 3340.9834 1448206
-18.4575 -487.70294 3517.428 1448206
2.4049218 -475.33987 3428.2627 1382412
22.011019 -458.90198 3309.7087 527105
0 0 0 0
56.945404 -425.68094 3070.1108 4080181
76.887383 -435.17871 3138.6111 4080180
94.768433 -431.57941 3112.6519 3421992
114.24155 -435.22192 3138.9226 3816751
133.38594 -436.76462 3150.0488 4014388
152.57726 -438.06192 3159.4053 3948850
171.526 -438.45462 3162.2375 3882801
187.00522 -430.77747 3106.8682 3882800
210.93047 -442.18732 3189.1584 3685422
228.92279 -440.3028 3175.5669 3948339
248.42354 -441.38568 3183.377 3685168
265.55426 -438.4025 3161.8616 3948340
280.13071 -431.87613 3114.7917 3553582
297.08475 -429.5976 3098.3584 3619375
311.4635 -424.07889 3058.5562 4013622
314.92209 -405.12149 2921.8313 0
329.59003 -401.81293 2897.969 65536
342.94574 -397.31305 2865.5149 65536
358.56482 -395.73734 2854.1504 65536
375.10373 -395.27341 2850.8044 196608
391.57822 -394.78467 2847.2795 131072
407.90347 -394.19217 2843.0066 196608
424.27713 -393.69186 2839.3982 0
440.57877 -393.16556 2835.6023 65536
456.52536 -392.37292 2829.8855 65536
473.34174 -392.35764 2829.7751 65536
489.99274 -392.211 2828.7178 65536
505.98029 -391.5607 2824.0276 65536
521.92096 -390.91711 2819.3857 65536
538.65643 -390.89032 2819.1926 65536
555.22223 -390.74576 2818.1499 65536
571.90607 -390.69034 2817.7502 65536
588.70001 -390.71112 2817.9001 65536
605.56226 -390.77478 2818.3594 65536
623.57306 -391.55624 2823.9956 0
645.90906 -394.94138 2848.4099 131842
678.32269 -404.15793 2914.8816 461575
689.79022 -400.74591 2890.2734 856590
718.24176 -407.12708 2936.2959 1185554
752.46442 -416.3989 3003.1663 1251345
768.42371 -415.36838 2995.7341 1711639
793.67474 -419.29337 3024.0422 1909016
826.69482 -427.05777 3080.0408 2106394
843.58282 -426.33255 3074.8103 2303774
860.30829 -425.55774 3069.2222 3027496
893.48981 -432.78604 3121.3542 3159337
916.74683 -435.01071 3137.3992 3224617
948.55359 -441.12265 3181.4797 3093031
974.23456 -444.20236 3203.6917 3158824
997.75671 -446.19849 3218.0879 3356203
1020.1723 -447.63388 3228.4404 3356205
1037.632 -446.88187 3223.0168 3158826
1040.9508 -440.17755 3174.6638 2764069
1070.119 -444.44806 3205.4634 3290414
1077.2422 -439.57346 3170.3066 3356207
1095.9946 -439.5303 3169.9958 3619377
1119.4028 -441.32425 3182.9338 1777172
1140.6127 -442.20609 3189.2939 1777171
1163.1603 -443.56927 3199.1257 2105878
1182.9978 -443.87173 3201.3071 2040085
1183.1388 -436.89142 3150.9634 2105625
1215.3121 -441.77274 3186.1685 2171418
1222.071 -437.40765 3154.6868 2237211
1240.838 -437.40765 3154.6868 2039832
1239.5758 -430.45236 3104.5234 2171418
1268.1935 -433.92493 3129.5684 2040087
1270.3917 -428.38818 3089.636 2237466
1295.4034 -430.59256 3105.5344 2171416
1302.0309 -426.70993 3077.532 2237468
1274.9723 -412.04822 2971.7883 2434846
1345.6638 -428.94659 3093.6633 2500638
1210.5035 -380.65656 2745.3843 2369563
1379.0123 -427.87317 3085.9219 2501404
1277.724 -391.23764 2821.6975 2369562
1376.6866 -416.07373 3000.8213 2566941
1351.0643 -403.10281 2907.272 2698528
0 0 0 0
1215.051 -353.47229 2549.325 2829861
1184.7942 -340.4212 2455.1975 3158829
1179.3632 -334.73422 2414.1816 3290159
1169.9313 -328.06219 2366.0615 4606019
1177.2172 -326.18091 2352.4932 4606534
1195.5626 -327.37222 2361.0852 4014397
1195.4471 -323.53952 2333.4429 6053467
1218.4996 -325.9931 2351.1387 1645081
1206.9659 -319.24295 2302.4548 0
1220.0297 -319.07724 2301.26 0
1230.1052 -318.14243 2294.5178 65536
1238.662 -316.8396 2285.1216 65536
1238.651 -313.39737 2260.2952 0
1226.5897 -307.01285 2214.2485 0
1224.1699 -303.15158 2186.4004 0
1227.2311 -300.71457 2168.824 0
1231.6831 -298.66556 2154.0459 0
1231.5814 -295.56586 2131.6902 256
1239.2911 -294.38489 2123.1729 256
1254.3928 -294.96594 2127.3635 514
0 0 0 0
1208.973 -278.66278 2009.7812 6054750
1224.9132 -279.57211 2016.3396 4146494
1245.3232 -281.47409 2030.0571 1777175
0 0 0 0
1228.6121 -272.41342 1964.7095 4539705
1256.7997 -276.03732 1990.8458 4868413
1238.0146 -269.37302 1942.7815 4736828
1240.183 -267.34903 1928.1838 4539960
1234.4559 -263.67563 1901.6906 4474166
1247.5366 -264.04974 1904.3888 4737335
1235.5016 -259.14908 1869.0439 4539700
1265.3992 -263.05286 1897.1989 4539955
1235.5154 -254.57002 1836.0187 4737335
1235.7542 -252.38802 1820.2815 4671284
1203.702 -243.70616 1757.666 4934200
1174.6154 -235.76912 1700.4221 4934199
1248.6523 -248.48985 1792.1671 4933946
1186.868 -234.19473 1689.0674 5065532
1226.0468 -239.89456 1730.1759 5131070
1193.1562 -231.51546 1669.7438 5065533
1198.7643 -230.68314 1663.741 4933436
1207.8301 -230.5244 1662.5961 4933434
1218.1014 -230.59648 1663.1158 4802103
1234.1138 -231.74544 1671.4025 4999482
1247.5833 -232.40234 1676.1401 5261627
1257.3083 -232.35686 1675.8121 5195836
1270.932 -233.02689 1680.6445 4472370
1276.317 -232.18767 1674.5919 5130299
1288.3193 -232.55597 1677.2482 5525316
1277.1705 -228.77167 1649.955 5525057
1283.215 -228.10135 1645.1204 5722438
1287.0792 -227.05653 1637.5851 5656641
1295.4567 -226.81766 1635.8621 5590849
1297.5636 -225.49261 1626.3057 5525056
1302.4905 -224.67361 1620.3988 5853763
1297.6633 -222.1965 1602.5333 5590333
1306.952 -222.15491 1602.2334 5656127
1361.4608 -229.74474 1656.973 5721920
1336.7832 -223.95892 1615.2443 5590336
1357.689 -225.83806 1628.797 5853508
1370.6288 -226.37485 1632.6685 5721921
1395.7743 -228.90582 1650.9225 5721922
1427.978 -232.55087 1677.2114 5787715
1425.2759 -230.50027 1662.422 5853509
1439.1256 -231.13631 1667.0092 5590336
1464.1514 -233.5463 1684.3906 5787716
1463.8066 -231.90421 1672.5475 5787716
1460.4994 -229.8181 1657.5021 5853509
1470.3597 -229.8181 1657.5021 5853510
1513.7465 -235.02341 1695.0438 5985095
1502.3837 -231.71565 1671.1876 6116680
1504.3931 -230.50027 1662.422 5853508
1509.5483 -229.77962 1657.2245 5721666
1512.894 -228.79465 1650.1206 5919043
1515.4966 -227.71071 1642.3031 5985347
1532.968 -228.8605 1650.5956 5919555
1535.9852 -227.85144 1643.3181 5722176
1539.7976 -226.97237 1636.978 5787969
1549.3262 -226.94168 1636.7566 5722176
1566.6481 -228.04576 1644.7195 5787969
1577.5278 -228.20422 1645.8623 5722176
1597.3363 -229.64438 1656.2491 5787969
1603.3704 -229.09869 1652.3136 5721152
0 0 0 0
0 0 0 0
0 0 0 0
0 0 0 0
0 0 0 0
0 0 0 0
0 0 0 0
0 0 0 0
0 0 0 0
0 0 0 0
0 0 0 0
0 0 0 0
0 0 0 0
0 0 0 0
-1540.0034 -242.125 1824.5446 3420453
-1547.0804 -244.96417 1845.9395 3157535
-1576.2363 -251.36493 1894.1726 3223581
-1565.5562 -251.4594 1894.8844 2697755
-1550.7148 -250.88205 1890.5338 2960926
-1553.3751 -253.14841 1907.6121 3092512
-1541.0708 -252.99146 1906.4294 3092512
-1532.7493 -253.49088 1910.1927 3026718
-1614.4579 -268.99841 2027.0505 3026718
-1605.967 -269.59738 2031.5641 2960925
-1588.6748 -268.71671 2024.9279 2960925
-1518.3146 -258.7778 1950.0327 2697753
-1585.6146 -272.32898 2052.1482 2895131
-1569.0656 -271.57764 2046.4865 2698008
-1502.8015 -262.14246 1975.3872 2631959
-1509.4781 -265.38232 1999.8014 2434837
-1485.6735 -263.27216 1983.9 2105873
-1481.0422 -264.55307 1993.5524 2105873
-1468.8844 -264.49933 1993.1476 1645068
-1455.9996 -264.31277 1991.7418 1250567
-1450.5997 -265.49307 2000.6359 1053189
-1440.9515 -265.90891 2003.7695 921603
-1447.7251 -269.38742 2029.9819 197888
-1441.4801 -270.48157 2038.2271 256
-1428.4038 -270.30164 2036.871 256
-1414.9849 -270.05319 2034.9989 256
-1399.8912 -269.47809 2030.6652 256
-1382.483 -268.44354 2022.8694 0
-1365.7219 -267.51761 2015.8918 197635
-1347.2614 -266.23938 2006.2598 461064
-1333.1425 -265.80399 2002.9788 132099
-1324.2571 -266.4136 2007.5726 329478
-1308.7738 -265.69489 2002.1566 790285
-1305.058 -267.37378 2014.8082 987924
-1291.7897 -267.10864 2012.8101 988180
-1273.0017 -265.68655 2002.0939 1316890
-1259.6011 -265.37256 1999.7278 1514527
-1242.4509 -264.2551 1991.3071 1119770
-1223.1818 -262.66113 1979.2958 1382941
-1204.911 -261.25262 1968.6819 1316635
-1189.2322 -260.38403 1962.1364 1250842
-1176.6104 -260.17413 1960.5547 1250842
-1163.3696 -259.82181 1957.8998 1316891
-1153.0037 -260.11087 1960.0781 987924
-1148.301 -261.69656 1972.027 1053717
-1142.2739 -263.00998 1981.9244 1119510
-1129.3225 -262.73987 1979.8889 1316376
-1127.0072 -264.96466 1996.6541 460552
-1112.1429 -264.2551 1991.307 66821
-1109.1151 -266.37296 2007.2664 658958
-1103.6643 -267.94867 2019.1403 1251609
-1089.3131 -267.37448 2014.8132 1185560
-1087.2688 -269.84183 2033.406 1317145
-1089.7533 -273.50131 2060.9824 258
-1237.5853 -314.13788 2367.2012 256
-1214.5675 -311.84363 2349.9128 256
-1210.1703 -314.33261 2368.6685 0
-1200.0365 -315.37256 2376.5051 0
-1185.619 -315.29813 2375.9443 0
-1174.9562 -316.23251 2382.9854 0
-1160.7808 -316.2327 2382.9868 0
-1126.8514 -310.78482 2341.9341 0
-1110.4419 -310.09299 2336.7207 0
-1088.0054 -307.6792 2318.5315 0
-1087.0496 -311.35602 2346.2383 0
-1095.668 -317.90643 2395.5994 0
-1088.6227 -320.02478 2411.5623 0
-1085.4386 -323.34998 2436.6194 0
-1098.0105 -331.52237 2498.2029 0
-1085.4028 -332.21228 2503.4016 0
-1081.6941 -335.68295 2529.5552 0
-1065.67 -335.37582 2527.2407 0
-1064.6841 -339.86026 2561.0334 0
-999.87366 -323.8056 2440.0527 65536
-1008.3568 -331.3634 2497.0049 65536
-1201.8361 -400.84915 3020.6179 65536
-1189.2064 -402.65717 3034.2424 65792
-1214.6687 -417.61734 3146.9756 329216
-1188.6545 -415.07068 3127.7854 132096
-1278.3937 -453.50613 3417.4175 1053190
-1290.684 -465.26508 3506.0276 724738
-1274.2539 -466.88718 3518.251 921862
-1266.6638 -471.85651 3555.6975 921862
-1239.6459 -469.63446 3538.9531 1053451
-1219.5081 -469.98718 3541.6111 1250828
-1189.0497 -466.30493 3513.8633 1514004
-1153.2845 -460.37247 3469.1592 1382417
-1122.3901 -456.20361 3437.7444 1777175
-1086.6191 -449.86118 3389.9504 1842968
-1070.2003 -451.44205 3401.8633 1711382
-1045.1888 -449.38943 3386.3958 1579796
-1009.2925 -442.4841 3334.3604 1842968
-987.08368 -441.42288 3326.3635 1777175
-1006.2015 -459.17761 3460.1553 2369311
-984.4397 -458.62906 3456.0215 2172703
-998.12506 -474.92337 3578.8081 2172446
-967.6319 -470.44897 3545.0911 2304289
-939.50885 -466.95319 3518.7483 2370080
-926.15851 -470.80771 3547.7944 2304287
-895.30048 -465.73453 3509.5652 2369826
-821.66534 -437.63516 3297.8208 2238240
-859.20947 -468.82584 3532.8596 2369827
-780.59662 -436.61066 3290.1006 2567206
-767.83295 -440.51706 3319.5376 2632999
-783.1239 -461.14987 3475.0173 2501413
-762.44763 -461.14771 3475.001 2698792
-717.12964 -445.82617 3359.5444 2632998
-711.8288 -455.21716 3430.311 2698791
-691.72162 -455.41437 3431.7971 2567205
-650.63257 -441.3895 3326.1118 2567205
-656.79242 -459.54382 3462.9148 2632998
-631.72089 -456.31433 3438.5789 2567205
-611.19696 -456.26361 3438.1965 2830377
-607.16742 -468.94882 3533.7864 2896171
-582.93359 -466.37943 3514.4246 2896170
-558.3288 -463.31104 3491.3025 2764584
-543.66571 -468.57404 3530.9624 2698790
-534.18286 -478.90427 3608.8064 855820
-530.46405 -495.48355 3733.7402 2370080
-500.68552 -488.10696 3678.1536 2238494
-483.0282 -492.41284 3710.6006 2172701
-466.03452 -497.84 3751.4973 2567459
-439.02191 -492.57211 3711.801 2633252
-409.37277 -483.6315 3644.4285 2435873
-386.3858 -482.00171 3632.1472 2567459
-361.75031 -478.00055 3601.9963 2501665
-340.27652 -477.93637 3601.5125 2435873
-315.68976 -473.19733 3565.8015 2501666
-294.29849 -472.91049 3563.6399 2567458
-269.66986 -466.97311 3518.8984 2304286
-246.29442 -462.38904 3484.355 2501664
-222.74374 -456.6033 3440.7563 2435871
-201.6409 -455.17218 3429.9719 2435102
-180.53679 -453.41562 3416.7354 2369310
-160.11682 -453.1496 3414.7305 2369568
-137.44389 -445.50357 3357.1138 256
-116.66576 -442.44357 3334.0552 256
-95.896866 -438.17239 3301.8691 0
-76.04493 -436.96957 3292.8054 0
-56.129177 -434.43829 3273.731 263169
-36.646317 -434.34787 3273.0493 1316364
-17.560892 -444.10333 3346.562 1579791
2.4535742 -464.14905 3497.6174 1645585
0 0 0 0
0 0 0 0
56.054462 -401.04276 3022.0771 4145719
76.740059 -415.70926 3132.5972 4080181
94.425362 -411.56708 3101.3835 3093031
113.97654 -415.5824 3131.6414 4145973
132.97673 -416.74271 3140.3848 3948594
152.69568 -419.59225 3161.8577 3882545
171.8963 -420.54858 3169.0645 3817008
191.05638 -421.22659 3174.1733 3685422
208.15106 -417.63855 3147.1353 3751215
228.94292 -421.44855 3175.8459 3751214
247.83582 -421.44855 3175.8459 3817008
265.55426 -419.59277 3161.8616 3751215
282.60846 -417.00241 3142.3418 3882289
296.40201 -410.22073 3091.238 3619375
308.02347 -401.40082 3024.7754 3816245
0 0 0 0
330.55746 -385.70193 2906.4756 256
343.7515 -381.1597 2872.2473 65536
358.91144 -379.12427 2856.9094 65536
375.59216 -378.80676 2854.5166 65536
391.64465 -377.91043 2847.7625 65536
408.0238 -377.39059 2843.8452 65536
424.55563 -377.04779 2841.2617 65536
440.42328 -376.16391 2834.6013 65536
456.25504 -375.3157 2828.2097 65536
473.04321 -375.28662 2827.9905 65536
489.62408 -375.10068 2826.5894 65536
505.93216 -374.7251 2823.759 65536
522.03809 -374.22873 2820.0186 65536
539.19305 -374.49182 2822.0012 65536
555.65533 -374.27249 2820.3484 65536
572.6272 -374.39914 2821.303 65536
589.00818 -374.14334 2819.3752 65536
606.01923 -374.29074 2820.4861 65536
624.43823 -375.27646 2827.9138 0
648.44464 -379.48026 2859.5918 263427
672.88043 -383.71396 2891.4951 593160
697.89215 -388.05685 2924.2212 1185809
731.50427 -396.85437 2990.5154 1515031
757.47369 -401.18631 3023.1589 1580568
776.1698 -401.55441 3025.9326 1646617
797.75757 -403.36795 3039.5986 1581081
834.14252 -412.41708 3107.7888 2172447
854.07794 -413.11716 3113.0645 2435616
873.05219 -413.33249 3114.687 2896424
905.56317 -419.81442 3163.532 3028008
932.61609 -423.55359 3191.7087 3093799
951.88708 -423.67993 3192.6604 3028006
977.32153 -426.49088 3213.8428 2962469
1004.1733 -429.80063 3238.7834 3159077
1026.9058 -431.25586 3249.7493 3159333
1048.6501 -432.24997 3257.2407 3356202
1066.3054 -431.5531 3251.9893 2895651
1062.8658 -422.49576 3183.7371 3290410
1083.0587 -422.98511 3187.4248 3356204
1097.0076 -421.06104 3172.9258 3553582
1115.6915 -420.98868 3172.3806 1842964
1146.6593 -425.47684 3206.2012 1842964
1161.6586 -423.98978 3194.9956 1842707
1178.673 -423.27432 3189.604 2237464
1200.5215 -424.28992 3197.2571 1776914
1219.864 -424.40201 3198.1021 1974293
1221.2013 -418.34274 3152.4419 2039576
1222.6754 -412.51282 3108.5103 2171672
1239.8497 -412.07474 3105.2092 2171672
1273.7924 -417.14087 3143.3853 2171672
1275.8152 -411.75848 3102.8259 2171672
1293.0529 -411.37009 3099.8992 2105878
1290.4192 -404.75964 3050.0859 2303257
1207.7935 -373.58975 2815.2036 2369050
1330.7196 -405.98331 3059.3069 2434844
1243.8939 -374.3739 2821.1125 2435356
1300.1277 -386.08945 2909.3958 2304025
1203.2802 -352.63489 2657.2974 2501147
1395.9075 -403.78183 3042.7175 2369562
1417.03 -404.64471 3049.2197 2764065
1221.2496 -344.33017 2594.7166 2764067
1199.9635 -334.10565 2517.6692 2698273
1201.8468 -330.50479 2490.5349 2961448
1189.116 -323.02176 2434.146 3158828
1158.999 -311.05264 2343.9521 4672324
1175.0736 -311.61761 2348.2097 4409922
1188.9457 -311.59213 2348.0176 4080703
1205.2113 -312.18723 2352.502 5528664
1220.5322 -312.52676 2355.0605 1776411
1206.9116 -305.53198 2302.3511 256
1217.1472 -304.66568 2295.823 0
1236.5236 -306.08121 2306.4897 0
1237.9309 -303.06659 2283.7729 65536
1236.6641 -299.46985 2256.6694 0
1236.5255 -296.22061 2232.1848 0
1218.839 -288.88132 2176.8792 0
1226.4918 -287.63901 2167.5176 0
1230.1659 -285.49911 2151.3923 0
1231.9214 -282.96262 2132.2786 256
1236.3832 -281.09311 2118.1907 2
1251.4397 -281.64575 2122.3552 258
1225.957 -273.15482 2058.3713 2503476
1206.1141 -266.07605 2005.0288 6055523
1222.8937 -267.13586 2013.0151 3817275
1236.1244 -267.40744 2015.0616 2040348
1211.5782 -259.58014 1956.0787 4145460
1247.3737 -264.70691 1994.7117 4474168
1231.1472 -258.80145 1950.2109 4539958
1241.1732 -258.47333 1947.7383 4474422
1226.6271 -253.08147 1907.1075 4474166
1228.7802 -251.20227 1892.9468 4539958
1230.3685 -249.24284 1878.1814 4605749
1218.866 -244.69061 1843.8779 4803128
1216.7605 -242.08928 1824.2755 4606006
1241.4287 -244.81375 1844.8059 4671542
1210.7632 -236.67415 1783.4695 4605492
1267.4313 -245.5992 1850.7247 4934200
1197.5947 -230.06793 1733.6881 4933946
1210.444 -230.55089 1737.3274 5065533
1244.1725 -234.96881 1770.6189 4868156
1249.1492 -233.92824 1762.7776 4999998
1190.9073 -221.1646 1666.5966 4999741
1198.1179 -220.66661 1662.844 5262913
1206.0259 -220.30417 1660.1127 4933690
1214.3363 -220.02052 1657.9753 4736310
1240.136 -222.88474 1679.5586 5196604
1251.5055 -223.13036 1681.4097 5261627
1258.985 -222.6841 1678.0468 5261627
1279.5533 -224.54175 1692.0452 4801078
1276.1432 -222.19537 1674.3639 5195836
1271.4227 -219.65897 1655.2507 5327423
1273.8574 -218.38818 1645.6748 5656644
1279.0627 -217.6082 1639.7971 5459265
1284.3893 -216.86049 1634.1627 5393472
1284.0734 -215.17845 1621.4877 5393472
1287.8848 -214.20799 1614.1747 5459265
1289.399 -212.87263 1604.1121 5787718
1294.9259 -212.21451 1599.1527 5853510
1301.7112 -211.77069 1595.8083 5853510
1311.9369 -211.88899 1596.6997 5919303
1321.9938 -211.97849 1597.3741 6050889
1333.5585 -212.30676 1599.8479 5919303
1358.1808 -214.69447 1617.8406 5788486
1352.5787 -212.30449 1599.8307 5920072
1455.4324 -226.85246 1709.4576 5788230
1397.311 -216.2821 1629.8042 6182987
1441.308 -221.55481 1669.5371 5854022
1483.5516 -226.48772 1706.7091 5787716
1471.7118 -223.15297 1681.58 5853509
1463.9396 -220.47585 1661.4064 5787716
1472.1196 -220.22099 1659.486 5985093
1515.9464 -225.26659 1697.5072 5853508
1490.9464 -220.08554 1658.4653 5919301
1501.3273 -220.16104 1659.0342 5656130
1501.0736 -218.68622 1647.9205 5919301
1514.1368 -219.15804 1651.4761 5919301
1503.5743 -216.22624 1629.3833 5787714
1519.6532 -217.13867 1636.259 5919300
1541.4988 -218.85825 1649.2169 6051140
1536.1898 -216.72511 1633.1426 5722176
1550.6283 -217.38724 1638.1321 5787969
1574.4349 -219.34627 1652.8944 5656383
1585.6885 -219.54294 1654.3763 5787969
1597.624 -219.83104 1656.5475 5853762
1608.6376 -219.98952 1657.7417 5918789
0 0 0 0
0 0 0 0
0 0 0 0
0 0 0 0
0 0 0 0
0 0 0 0
0 0 0 0
0 0 0 0
0 0 0 0
0 0 0 0
0 0 0 0
0 0 0 0
-1586.983 -235.01328 1854.0691 131072
-1559.7412 -232.59566 1834.996 2499607
-1457.9348 -218.94618 1727.3124 3289122
-1519.9025 -229.87239 1813.5115 3157536
-1468.9138 -223.74898 1765.2026 3421218
-1521.278 -233.39369 1841.292 3487267
-1532.3033 -236.79019 1868.0876 2829338
-1545.1927 -240.52647 1897.5638 2895133
-1538.2814 -241.21281 1902.9786 3026718
-1524.5216 -240.82753 1899.939 3289891
-1527.4009 -243.08456 1917.7452 3026719
-1529.2656 -245.21289 1934.536 2895133
-1526.2627 -246.58708 1945.3772 2895132
-1515.7626 -246.7617 1946.755 2895387
-1511.3717 -247.94127 1956.0608 2763801
-1529.7988 -252.9115 1995.272 2566423
-1509.4277 -251.49504 1984.0973 2566423
-1499.6047 -251.82761 1986.7208 2566166
-1491.313 -252.42462 1991.4308 2434325
-1487.7976 -253.84613 2002.6455 2171410
-1471.1805 -253.03717 1996.2633 1710862
-1463.5637 -253.7756 2002.0891 1250309
-1452.6975 -253.95815 2003.5292 1316103
-1441.767 -254.13234 2004.9034 987139
-1446.0712 -257.01721 2027.6627 329472
-1441.8085 -258.41516 2038.6914 256
-1428.7461 -258.24628 2037.3593 256
-1411.6946 -257.34732 2030.267 256
-1397.9279 -257.03677 2027.8171 256
-1379.2894 -255.81732 2018.1965 0
-1363.1932 -255.05208 2012.1593 0
-1346.05 -254.07564 2004.4561 197379
-1326.136 -252.55405 1992.452 256
-1318.1733 -253.30162 1998.3497 66563
-1311.3219 -254.27824 2006.0546 659470
-1305.0636 -255.38893 2014.8169 856851
-1288.8059 -254.54524 2008.161 1054230
-1268.375 -252.85385 1994.8171 1185816
-1250.6312 -251.67123 1985.4873 1317402
-1233.8679 -250.66528 1977.5511 1185560
-1218.4506 -249.916 1971.6399 1382941
-1200.1521 -248.55548 1960.9064 1185563
-1186.7799 -248.19852 1958.0903 1382942
-1169.7347 -247.05869 1949.098 1053977
-1157.296 -246.87874 1947.6782 988184
-1151.7222 -248.17438 1957.8998 856597
-1148.4133 -249.98955 1972.2201 1053975
-1142.1161 -251.18494 1981.6508 922389
-1128.6907 -250.82123 1978.7814 132359
-1116.9121 -250.81967 1978.7692 263431
-1113.2561 -252.66158 1993.3003 1382684
-1110.1035 -254.65858 2009.0551 987926
-1105.6962 -256.40814 2022.8575 1382684
-1092.6769 -256.17709 2021.0349 856853
-1092.4084 -258.96362 2043.0183 132614
-1092.9252 -262.00104 2066.9812 2
-1217.0977 -295.08823 2328.0129 256
-1214.8772 -297.94012 2350.5122 256
-1211.0233 -300.45312 2370.3379 0
-1205.3065 -302.55777 2386.9417 0
-1195.4945 -303.6723 2395.7346 0
-1181.0791 -303.63031 2395.4033 0
-1158.9893 -301.5903 2379.3091 0
-1149.0637 -302.70428 2388.0979 0
-1113.8479 -297.10046 2343.8879 0
-1105.4086 -298.58725 2355.6177 0
-1086.6555 -297.29059 2345.3879 0
-1095.6503 -303.65024 2395.5605 0
-1093.2582 -306.98016 2421.8311 0
-1087.6592 -309.48648 2441.604 0
-1100.4332 -317.35944 2503.7151 0
-1089.7535 -318.59158 2513.436 0
-1084.8042 -321.55667 2536.8281 0
-1073.843 -322.79822 2546.623 0
-1064.4281 -324.54678 2560.4177 0
-1040.5518 -321.87277 2539.3218 65536
-1004.9088 -315.42664 2488.4668 65536
-1167.3357 -371.88852 2933.9067 65536
-1196.4971 -386.96451 3052.8442 65536
-1095.5444 -359.77585 2838.3472 65536
-1143.1407 -381.28299 3008.0217 256
-1286.9432 -436.07309 3440.2722 1250568
-1311.5956 -451.60825 3562.8323 1251081
-1282.8833 -448.97739 3542.0769 790531
-1291.3728 -459.49579 3625.0591 1119241
-1239.3655 -448.47995 3538.1526 987656
-1215.6799 -447.50919 3530.4939 1382415
-1191.5411 -446.33438 3521.2258 1382417
-1152.5435 -439.45209 3466.9299 1514003
-1121.455 -435.38962 3434.8804 1382417
-1090.3835 -431.18311 3401.6943 1711382
-1073.209 -432.41678 3411.427 1908761
-1048.0063 -430.40103 3395.5242 1645589
-1023.2675 -428.50027 3380.5288 1842968
-1007.7401 -430.45801 3395.9736 1842968
-1005.95 -438.48376 3459.2905 1909018
-1011.2289 -449.99042 3550.0688 2041371
-981.33038 -446.00034 3518.5903 2172701
-960.39856 -446.00034 3518.5903 2172702
-945.88843 -449.04904 3542.6421 2238240
-926.15851 -449.70212 3547.7944 2238240
-903.56866 -448.96463 3541.9763 2567205
-884.56738 -450.01755 3550.2832 2238239
-859.88635 -448.1618 3535.6428 2501413
-834.99915 -446.10287 3519.3994 2435619
-805.65546 -441.49588 3483.054 2501412
-775.8681 -436.39615 3442.8208 2501412
-762.44763 -440.47513 3475.001 2698792
-734.73132 -436.29251 3442.0032 2698792
-712.21851 -435.04849 3432.189 2632999
-692.66486 -435.59198 3436.4768 2567206
-653.61426 -423.53473 3341.3545 2501413
-655.96698 -438.39151 3458.5627 2567206
-604.58514 -417.13605 3290.874 2632998
-618.26587 -440.85043 3477.9617 2567206
-597.57568 -440.85043 3477.9617 2567205
-571.31207 -436.59125 3444.3601 2896170
-554.42126 -439.44431 3466.8684 2764584
-539.13165 -443.83591 3501.5146 2764583
-536.74915 -459.63333 3626.1438 725002
-520.73926 -464.59549 3665.2913 2435873
-506.88089 -471.99481 3723.666 2238494
-484.74365 -472.00903 3723.7786 2304287
-460.98871 -470.37399 3710.8794 2567459
-436.89456 -468.21106 3693.8152 2304287
-411.55579 -464.41443 3663.863 2370080
-389.77185 -464.42886 3663.9771 2370080
-362.47061 -457.48163 3609.1687 2172701
-340.90079 -457.34866 3608.1196 2238494
-317.45822 -454.51657 3585.7769 2435873
-293.32465 -450.21582 3551.8474 2501666
-269.09909 -445.09531 3511.4504 2370080
-246.29442 -441.66083 3484.355 2567459
-223.06227 -436.75812 3445.6765 2238494
-200.82356 -433.00516 3416.0688 2501411
-179.95552 -431.69528 3405.7346 2369826
-156.62946 -423.40833 3340.3572 1448468
-137.27199 -425.00006 3352.9148 256
-116.37649 -421.56168 3325.7886 0
-95.748886 -417.88388 3296.7739 256
-76.089989 -417.62823 3294.7568 256
-56.214462 -415.59354 3278.7048 0
-36.631897 -414.71344 3271.7615 987402
-18.267221 -441.25668 3481.1667 987911
2.4143355 -436.2518 3441.6821 1250827
0 0 0 0
0 0 0 0
57.034012 -389.75867 3074.8879 4343357
76.452797 -395.58725 3120.8711 4211512
94.278252 -392.50467 3096.5518 3224617
113.93394 -396.80411 3130.4709 3948083
132.7401 -397.35242 3134.7966 3816497
152.55257 -400.40692 3158.8943 4014132
171.78972 -401.44696 3167.0996 4014389
188.87097 -397.74136 3137.8652 4014133
209.30157 -401.12131 3164.5303 3948083
226.32642 -397.95502 3139.5508 3948596
246.47939 -400.35242 3158.4641 3948595
265.66864 -400.95566 3163.2236 3750961
284.36398 -400.78305 3161.8616 3816754
297.06171 -392.70322 3098.1184 3553582
308.59875 -384.12271 3030.4248 3618865
0 0 0 0
329.26434 -366.97028 2895.1055 0
343.13638 -363.42142 2867.1079 262144
358.73828 -361.95401 2855.5312 196608
375.45651 -361.69473 2853.4856 0
391.54001 -360.87283 2847.0017 65536
407.6214 -360.11728 2841.0408 65536
424.32767 -359.9519 2839.7361 65536
440.00531 -358.96005 2831.9114 65536
456.30029 -358.52643 2828.4902 65536
473.14798 -358.54245 2828.6167 65536
489.73758 -358.36853 2827.2446 65536
506.33362 -358.21072 2825.9998 65536
522.5448 -357.79956 2822.7559 65536
539.86176 -358.14755 2825.5012 65536
556.38446 -357.96347 2824.0491 65536
573.00488 -357.85129 2823.1641 65536
589.85376 -357.88406 2823.4226 65536
606.88367 -358.02182 2824.5095 65536
625.14038 -358.85641 2831.0935 0
646.8136 -361.55698 2852.3989 0
667.87115 -363.78415 2869.9695 987406
694.79407 -369.01541 2911.24 856590
738.17651 -382.52151 3017.7927 1185553
764.05389 -386.53061 3049.4211 1448726
780.28198 -385.58539 3041.9641 1646105
813.76349 -393.01575 3100.5837 1777946
836.93292 -395.24683 3118.1853 1975069
858.38684 -396.58853 3128.7703 2369826
890.12946 -402.52594 3175.6118 2501668
912.53076 -404.08011 3187.873 3159596
934.93951 -405.57422 3199.6604 3225387
960.10596 -408.18115 3220.2268 3291179
982.56848 -409.55899 3231.0969 3356973
1011.8433 -413.66901 3263.5217 3291180
1033.6986 -414.64813 3271.2461 3356205
1048.6893 -412.88828 3257.3623 3487790
1054.3866 -407.5997 3215.6396 2500897
1063.0487 -403.62534 3184.2852 3421999
1079.333 -402.63345 3176.46 3421999
1097.3904 -402.32584 3174.033 3421998
1122.3328 -404.51001 3191.2646 1777173
1148.818 -407.1684 3212.2371 1842966
1160.2817 -404.5029 3191.2085 2039832
1178.9056 -404.37933 3190.2336 1908246
1197.9049 -404.38635 3190.2888 2040085
1212.5372 -402.94193 3178.8936 1974293
1224.595 -400.69943 3161.2021 1776914
1219.4349 -392.9762 3100.2717 2171672
1251.3562 -397.25491 3134.0276 2105879
1266.3402 -396.11002 3124.9951 2171672
1269.0553 -391.21609 3086.3857 2237465
1313.3582 -399.09927 3148.5781 2369051
1278.9852 -383.18921 3023.0603 2237465
1299.5425 -383.94946 3029.0581 2303257
1257.1008 -366.33051 2890.0583 2369051
1249.1326 -359.09729 2832.9939 2500894
1334.2692 -378.46585 2985.7966 2500638
1332.6019 -373.02704 2942.8887 2500894
1200.4252 -331.67029 2616.6167 2829603
0 0 0 0
1226.3748 -330.27457 2605.6055 2632223
1199.9635 -319.12817 2517.6692 2566686
1207.774 -317.24564 2502.8176 3290410
1188.9777 -308.50525 2433.8628 3026982
1186.4073 -304.1347 2399.3826 4475456
1182.3843 -299.50006 2362.8188 4804422
1189.9966 -297.88696 2350.0928 4146750
1208.1455 -298.91833 2358.2295 5857370
1219.6659 -298.30475 2353.3889 1118993
1227.535 -296.82227 2341.6931 0
1230.1147 -294.10837 2320.2827 0
1243.1866 -293.93546 2318.9187 0
1242.6885 -290.59308 2292.5498 65536
1236.7703 -286.06961 2256.8633 0
1236.6578 -282.97174 2232.4236 0
1221.6702 -276.57214 2181.9358 0
1224.8282 -274.37192 2164.5776 0
1230.8911 -272.86136 2152.6606 0
1231.0103 -270.07791 2130.7014 256
1243.177 -269.96747 2129.8301 256
1260.1797 -270.8988 2137.1777 513
0 0 0 0
1198.0829 -252.45589 1991.6776 6120030
1224.54 -255.50407 2015.7253 3817273
1231.7872 -254.52376 2007.9915 2106139
1234.7299 -252.6814 1993.4565 4474681
1227.0802 -248.72705 1962.2599 4737340
1224.4615 -245.85738 1939.6205 4539958
1217.7982 -242.23672 1911.0564 4999739
1217.9154 -240.01933 1893.563 4407602
1222.811 -238.77565 1883.7513 4868407
1224.0543 -236.84787 1868.5426 4802614
1215.0054 -232.98122 1838.0377 4802614
1208.5205 -229.67079 1811.9213 4868407
1234.1422 -232.46661 1833.9779 4933690
1203.666 -224.73926 1773.0153 4867897
1207.078 -223.41855 1762.5958 4999739
1196.9985 -219.64493 1732.825 4933946
1207.9083 -219.75433 1733.6881 5131327
1208.225 -217.95099 1719.4611 4933948
1227.329 -219.5385 1731.9854 4999740
1193.3578 -211.6848 1670.0259 5394499
1200.6317 -211.21669 1666.3329 4868155
1204.7811 -210.21106 1658.3993 5131327
1214.6006 -210.20305 1658.3359 4539188
1239.0288 -212.70305 1678.0591 5065275
1248.6019 -212.6333 1677.5089 5065019
1258.807 -212.67142 1677.8096 5064764
1267.6189 -212.47543 1676.2633 4604214
1280.6447 -212.98329 1680.27 4802106
1271.3481 -209.79967 1655.1536 5591110
1275.3752 -208.84671 1647.6356 5524547
1280.1332 -208.02708 1641.1694 5524802
1281.9459 -206.74487 1631.0538 5590596
1281.7676 -205.16325 1618.5759 5788230
1279.8967 -203.3363 1604.1627 5656644
1287.5913 -203.0448 1601.863 5458752
1294.6405 -202.65656 1598.8002 5590337
1303.9852 -202.63069 1598.5962 5721924
1300.5463 -200.6331 1582.8367 5722181
1302.5455 -199.49712 1573.8748 5853766
1318.105 -200.43939 1581.3086 5722181
1333.105 -201.28389 1587.9708 5788230
1349.8334 -202.3756 1596.5835 5721923
1379.2013 -205.3338 1619.9215 5656131
1370.0585 -202.55728 1598.0171 6116682
1388.8599 -203.92206 1608.7839 5919303
1389.9634 -202.68738 1599.0432 5919303
1429.9497 -207.10091 1633.8625 5919303
1527.9156 -219.79539 1734.012 5721923
1470.8363 -210.16545 1658.0393 5787715
1471.5995 -208.87376 1647.849 5721922
1489.1066 -209.96002 1656.4188 5656129
1490.5017 -208.77519 1647.0714 5590336
1500.3 -208.77519 1647.0714 5590336
1496.3695 -206.87715 1632.0973 5656129
1500.8467 -206.15846 1626.4274 5853765
1520.7375 -207.55266 1637.4265 5853507
1525.494 -206.87671 1632.0939 5787969
1535.9137 -206.97244 1632.8491 5722176
1550.6473 -207.64464 1638.1522 5722177
1558.2119 -207.35446 1635.8629 5656128
1582.4865 -209.27769 1651.0356 5722176
1599.1384 -210.17537 1658.1177 5590590
1605.0868 -209.66391 1654.0825 5787199
0 0 0 0
0 0 0 0
0 0 0 0
0 0 0 0
0 0 0 0
0 0 0 0
0 0 0 0
0 0 0 0
0 0 0 0
0 0 0 0
0 0 0 0
0 0 0 0
-1584.9218 -223.69258 1851.6608 196608
-1560.903 -221.84445 1836.3625 2367765
-1433.0179 -205.1042 1697.7917 3091488
-1427.6055 -205.77989 1703.3848 3289121
-1437.3551 -208.66638 1727.2783 3289375
-1428.5566 -208.88234 1729.066 3092253
-1517.1327 -223.44272 1849.5925 2895133
-1535.7081 -227.83087 1885.9163 3092255
-1540.8372 -230.27408 1906.1404 3026462
