# .PCD v0.7 - Point Cloud Data file format
VERSION 0.7
FIELDS x y z rgb
SIZE 4 4 4 4
TYPE F F F U
COUNT 1 1 1 1
WIDTH 1454
HEIGHT 1
VIEWPOINT 0 0 0 1 0 0 0
POINTS 1454
DATA ascii
1182.3888 633.72748 2281.4614 1381643
1189.4197 630.26129 2268.9829 2301975
1187.8118 622.34656 2240.4893 3091491
1189.683 616.41016 2219.1179 2631195
1193.8716 611.79163 2202.491 2499608
1199.0828 607.79175 2188.0911 2630682
1200.7797 602.11542 2167.656 2630423
1206.3136 598.46344 2154.5085 1709578
1214.1871 596.03674 2145.7722 1446919
1198.1589 582.04938 2095.4167 1841677
1212.4382 582.92133 2098.5559 1842448
1210.2623 575.94489 2073.4402 3289893
0 0 0 0
0 0 0 0
0 0 0 0
1068.5175 488.57294 1758.8954 5329484
1065.7365 482.57565 1737.3047 3487539
1090.7828 489.17313 1761.056 3289392
1100.2594 488.72891 1759.4569 5460305
1109.4431 488.16437 1757.4244 6380894
1110.4336 484.03882 1742.5723 6906719
1120.6926 483.99243 1742.4053 3419434
1132.2197 484.4895 1744.1946 2301462
1149.0153 487.21149 1753.994 2498840
1160.0397 487.45944 1754.8867 2433304
1166.2382 485.69312 1748.5278 2236183
1171.8862 483.7308 1741.4634 2170390
1172.4886 479.73843 1727.0906 1644047
1179.2644 478.31937 1721.9818 1907989
1177.2869 473.40494 1704.2896 2170390
1182.9998 471.64041 1697.9373 2301975
1188.1542 469.68503 1690.8977 1578252
1200.1705 470.45227 1693.6598 854532
1211.735 471.03107 1695.7435 65536
1223.3551 471.62173 1697.87 854532
1229.6932 470.18323 1692.691 2433302
1239.7673 470.18488 1692.6971 2893853
1247.3354 469.24374 1689.309 2170131
1268.4276 473.36478 1704.1449 2564632
1255.3124 464.75568 1673.1517 3024669
1257.7688 462.00192 1663.2379 2761496
1252.6364 456.52533 1643.5219 2761497
1251.1359 452.44696 1628.8395 2563861
1245.4791 446.93982 1609.0133 2235923
1249.036 444.79779 1601.3019 1972752
1252.6002 442.6908 1593.7166 1380615
1260.479 442.12878 1591.6934 2696730
1259.6101 438.52979 1578.7366 2827801
1265.1161 437.18689 1573.9022 2564373
1267.9913 434.9614 1565.8903 2761239
1275.8662 434.47083 1564.1241 2892822
1269.5238 429.18106 1545.0806 2564114
1283.8925 430.91867 1551.3361 3222301
1282.271 427.30289 1538.3191 2827541
1280.9 423.82129 1525.7852 3090713
1282.8795 421.4895 1517.3905 4077608
1284.8015 419.17151 1509.0455 4077609
1274.9296 413.06461 1487.0602 2695701
1293.4841 416.1882 1498.3055 2629908
1295.9392 414.12448 1490.8759 2367250
1295.8621 411.28506 1480.6538 2564371
1302.3392 410.5502 1478.0082 2564371
1301.6946 407.59515 1467.3699 2695957
1302.957 405.27264 1459.0087 2695957
1307.5651 404.01462 1454.4797 2564371
1325.0697 406.73175 1464.2616 2761751
1302.9634 397.33417 1430.4296 2695958
1301.5625 394.33167 1419.6204 2827542
1297.4603 390.55469 1406.0231 3156508
1304.4296 390.13742 1404.5209 2893336
1327.8623 394.61819 1420.6519 3090458
1313.5836 387.90588 1396.4872 3419167
1317.1252 386.50732 1391.4523 3550753
1355.3845 395.2504 1422.928 3222041
1349.9927 391.23462 1408.4709 3353627
1354.7882 390.20258 1404.7555 3221786
1368.7356 391.80286 1410.5166 3221529
0 0 0 0
0 0 0 0
0 0 0 0
0 0 0 0
0 0 0 0
0 0 0 0
0 0 0 0
0 0 0 0
0 0 0 0
0 0 0 0
0 0 0 0
0 0 0 0
0 0 0 0
-1406.8667 469.5997 1655.1429 1710092
-1423.4788 478.49356 1686.49 1447434
-1420.5531 480.89957 1694.9702 1447434
-1413.7144 482.00577 1698.8691 1710606
-1414.5438 485.7612 1712.1055 1513227
-1409.0242 487.37497 1717.7933 1842192
-1406.3361 489.99896 1727.0417 1710606
-1411.7854 495.51761 1746.4928 1710606
-1413.3828 499.7562 1761.432 1381641
-1411.3805 502.77576 1772.0746 1644813
-1400.0554 502.49466 1771.0839 1513227
-1395.589 504.68964 1778.8203 2039571
-1384.3262 504.44153 1777.9459 1776400
-1375.0957 504.936 1779.6886 1645583
-1365.0247 505.12701 1780.3619 2040085
-1358.7662 506.74289 1786.0573 1579534
-1345.8875 505.89581 1783.0715 1842708
-1332.2581 504.75089 1779.0361 1974038
-1312.5189 501.25424 1766.712 2171417
-1298.6925 499.97748 1762.2119 2039832
-1268.3417 492.26657 1735.0342 2105624
-1239.5082 485.02286 1709.5031 920837
-1197.4263 472.43219 1665.1263 196608
-1181.6221 470.08557 1656.8555 262144
-1178.8528 472.92889 1666.8768 327680
-1168.6453 472.81097 1666.4613 393216
-1146.9043 467.98495 1649.4515 458752
-1136.8521 467.88626 1649.1038 458752
-1127.5511 468.09778 1649.8494 524288
-1112.4653 465.89035 1642.069 524288
-1101.5742 465.41608 1640.3973 524288
-1090.0067 464.64502 1637.6797 524288
-1081.0052 464.96371 1638.803 524288
-1068.6041 463.81268 1634.7461 524288
-1056.0387 462.56848 1630.3608 524288
-1044.8835 461.92474 1628.0919 524288
-1034.4105 461.57327 1626.8531 655360
-1024.458 461.44965 1626.4174 589824
-1011.6575 460.02866 1621.4089 655360
-1006.5349 462.10516 1628.7278 655360
-995.54388 461.50171 1626.6008 655360
-979.6405 458.58682 1616.3271 655360
-969.22931 458.2106 1615.0011 655360
-958.73163 457.78558 1613.5031 655360
-950.23071 458.31503 1615.3691 655360
-940.15039 458.08575 1614.561 655360
-928.67267 457.16376 1611.3115 655360
-917.63245 456.44028 1608.7615 655360
-907.94226 456.3801 1608.5493 655360
-895.58344 454.96289 1603.5543 655360
-889.22449 456.59601 1609.3103 655360
-877.27985 455.36533 1604.9728 655360
-866.89484 454.92603 1603.4244 655360
-855.97705 454.19427 1600.8452 655360
-845.88702 453.89017 1599.7734 655360
-835.099 453.20038 1597.3422 655360
-801.35345 439.89246 1550.4373 720896
-789.35266 438.35016 1545.0012 720896
-777.88599 437.07159 1540.4949 720896
-769.03369 437.24899 1541.1201 720896
-757.87335 436.10257 1537.0795 720896
-750.00922 436.84799 1539.7069 655360
-739.40924 435.99869 1536.7134 655360
-731.91211 436.98065 1540.1743 655360
-721.26038 436.08017 1537.0006 655360
-709.70996 434.60632 1531.8058 655360
-701.42419 435.11917 1533.6135 655360
-687.57324 432.14786 1523.1409 655360
-678.65936 432.24161 1523.4712 589824
-666.86761 430.48016 1517.2629 720896
-657.9165 430.52924 1517.4359 720896
-647.0705 429.32245 1513.1824 720896
-639.59668 430.35059 1516.8062 720896
-634.22705 432.84418 1525.595 720896
-623.90332 431.98004 1522.5493 720896
-612.69482 430.46881 1517.2229 720896
-602.64612 429.73944 1514.6521 720896
-591.22784 427.99652 1508.509 720896
-581.01416 427.08527 1505.2974 720896
-570.67523 426.052 1501.6555 720896
-560.13928 424.83643 1497.3711 720896
-552.48718 425.8042 1500.7821 720896
-532.92291 417.4722 1471.4153 720896
-521.69342 415.50009 1464.4644 720896
-507.30441 410.90189 1448.2576 918272
-497.98257 410.31995 1446.2065 1444608
-488.36777 409.47198 1443.2178 1576448
-483.17859 412.37067 1453.4344 1313024
-476.29749 413.90469 1458.8413 720896
-500.96796 443.423 1562.8811 655360
-579.70844 522.82184 1842.7288 655360
0 0 0 0
0 0 0 0
0 0 0 0
0 0 0 0
0 0 0 0
0 0 0 0
-552.50604 574.3103 2024.204 458752
-559.83191 594.89087 2096.7419 393216
0 0 0 0
0 0 0 0
0 0 0 0
0 0 0 0
0 0 0 0
0 0 0 0
0 0 0 0
0 0 0 0
0 0 0 0
0 0 0 0
0 0 0 0
0 0 0 0
0 0 0 0
0 0 0 0
0 0 0 0
0 0 0 0
0 0 0 0
0 0 0 0
0 0 0 0
0 0 0 0
0 0 0 0
-368.16522 767.36127 2704.6282 327680
0 0 0 0
-349.28589 797.7373 2811.6912 393216
-335.78613 805.47778 2838.9729 393216
-307.36993 776.36188 2736.3516 327680
-286.40967 763.87494 2692.3403 327680
-283.79398 801.73315 2825.7747 393216
-269.41318 809.02893 2851.4893 393216
-253.72327 813.11005 2865.8733 393216
-232.98174 800.42383 2821.1597 393216
-214.72978 794.98492 2801.99 393216
-172.13615 690.92712 2435.2297 393216
-181.05399 793.50342 2796.7683 393216
-171.00116 825.28381 2908.7808 393216
-126.16541 677.4516 2387.7341 393216
-110.6663 669.6181 2360.1243 393216
0 0 0 0
-82.087502 665.57764 2345.8833 393216
-67.939957 663.70178 2339.2717 393216
-54.168613 665.48126 2345.5437 393216
-40.088493 663.38599 2338.1587 393216
-26.233843 664.77771 2343.064 458752
-12.306414 665.38977 2345.2212 458752
1.6524627 668.33948 2355.6177 458752
15.660873 668.12531 2354.8628 393216
28.950609 651.92981 2297.7803 393216
0 0 0 0
0 0 0 0
71.418068 665.52942 2345.7134 458752
92.937202 724.50006 2553.5603 458752
108.63074 727.86743 2565.429 458752
116.72591 685.76477 2417.0344 458752
133.12874 696.35181 2454.3494 458752
146.80289 691.98395 2438.9546 393216
158.08443 678.13812 2390.1538 393216
170.37674 670.55573 2363.429 393216
185.64085 674.9339 2378.8601 393216
207.37672 700.5545 2469.1621 393216
209.07442 659.57092 2324.7122 393216
0 0 0 0
244.10609 680.11176 2397.1099 393216
253.20456 666.52405 2349.219 393216
263.78601 658.05731 2319.3774 393216
273.44507 648.24567 2284.7954 458752
285.5361 644.85565 2272.8469 458752
293.39035 632.63641 2229.7793 458752
305.66821 630.60028 2222.6028 458752
317.01572 626.89319 2209.5369 458752
325.7193 618.46124 2179.8176 458752
336.41806 614.31818 2165.2151 458752
339.43555 596.97144 2104.0752 458752
352.20389 597.39777 2105.5776 393216
363.49411 595.37372 2098.4438 458752
374.85681 593.59888 2092.1882 458752
402.99527 617.64935 2176.9563 458752
396.89655 589.36249 2077.2568 458752
404.49826 582.51385 2053.1182 458752
412.28793 576.32935 2031.3203 458752
437.10913 593.62714 2092.2878 393216
459.73438 607.06732 2139.6589 393216
472.98083 607.7326 2142.0039 393216
476.16214 595.76947 2099.8389 393216
473.72607 577.56946 2035.6912 393216
518.58179 616.49774 2172.8972 393216
508.5444 589.86194 2079.0171 393216
488.93335 553.65009 1951.3855 458752
499.07043 552.0224 1945.6484 458752
508.27136 549.45642 1936.6045 458752
538.93182 569.68842 2007.9138 458752
584.50836 604.46851 2130.499 458752
598.09753 605.39453 2133.7632 458752
599.42633 594.13013 2094.0608 458752
556.64557 540.49469 1905.0181 458752
564.9046 537.56964 1894.7086 458752
613.65338 572.53571 2017.9495 458752
637.82068 583.66571 2057.178 458752
613.52222 550.86078 1941.5543 458752
640.60895 564.55273 1989.8129 458752
633.28583 547.97357 1931.3781 458752
607.15973 516.00513 1818.7026 458752
662.88208 553.4986 1950.8516 458752
632.34161 518.91278 1828.9508 393216
713.47192 575.58624 2028.7012 393216
703.33276 557.96832 1966.6055 393216
753.05481 587.63904 2071.1824 393216
650.67719 499.57571 1760.7959 393216
766.19586 578.94824 2040.551 393216
762.11182 566.88104 1998.0189 393216
773.99792 566.88104 1998.0189 393216
793.90741 572.66852 2018.4174 393216
811.32397 576.51208 2031.9645 393216
837.33813 586.26251 2066.3306 393216
851.22089 587.35986 2070.1982 262144
846.47186 575.75293 2029.2887 262144
0 0 0 0
936.78687 619.5127 2183.5237 196608
1007.4857 657.15479 2316.1963 196608
947.14478 609.46082 2148.095 196608
958.37091 608.47491 2144.6201 196864
0 0 0 0
0 0 0 0
0 0 0 0
1106.6853 667.11694 2351.3086 789510
1117.7582 665.38171 2345.1926 1052680
1117.4692 657.00922 2315.6831 921094
1104.3049 641.36273 2260.5359 1184267
1136.0173 651.8429 2297.4741 1380875
1134.5399 643.2561 2267.2092 1512460
1155.7538 647.58527 2282.4678 1380873
1160.3822 642.62878 2264.9983 1315336
1174.6293 643.05182 2266.4893 1578508
1172.3086 634.49811 2236.3411 1644300
1171.1716 626.7699 2209.1023 1710093
1167.1233 617.67236 2177.0374 2302229
1184.1215 619.79077 2184.5037 2960159
1191.0483 616.64886 2173.4297 3025696
1195.6473 612.38208 2158.3911 2696729
1197.5032 606.81592 2138.7729 2565143
1198.084 600.7276 2117.314 2631193
1197.9834 594.42773 2095.1096 1906702
1202.8352 590.6897 2081.9346 1315077
1194.6128 580.67279 2046.6293 1578249
0 0 0 0
0 0 0 0
0 0 0 0
1056.6874 493.51144 1739.4218 3816501
1071.351 495.50754 1746.4572 4013628
1092.1328 500.26788 1763.2355 5724502
1090.4504 494.74545 1743.7712 6710884
1104.5242 496.40842 1749.6324 2959144
1110.6261 494.49097 1742.8743 1906451
1120.8108 494.41003 1742.589 2761500
1144.4424 500.20779 1763.0237 2498327
1158.6436 501.81601 1768.6919 2432532
1168.1813 501.39355 1767.203 2630683
1171.4475 498.31091 1756.338 2499610
1175.5554 495.63773 1746.916 2433562
1173.1735 490.29901 1728.0994 2828322
1163.3544 481.97192 1698.7499 2368283
1174.5874 482.43491 1700.3817 2302236
1178.4648 479.89462 1691.4282 2301978
1188.6979 479.96359 1691.6714 2236184
1194.3822 478.21024 1685.4915 1512462
1206.6453 479.09811 1688.6208 328704
1226.4187 482.92868 1702.1219 65536
1223.4435 477.81207 1684.0881 2959391
1238.4941 479.76138 1690.9586 2827803
1247.6067 479.39761 1689.6764 2104079
1256.3041 478.88132 1687.8567 2432787
1259.3688 476.24319 1678.5585 3222303
1259.8824 472.68939 1666.0328 3024924
1266.3093 471.3924 1661.4614 2695958
1247.8136 460.9097 1624.5143 2761496
1251.3539 458.6651 1616.603 2498325
1249.4772 454.48428 1601.8674 2432535
1256.3972 453.54239 1598.5476 1051137
1262.457 452.30643 1594.1913 2564888
1267.7191 450.80515 1588.8999 2827290
1261.8242 445.38803 1569.8069 2695960
1265.6825 443.46783 1563.0389 2761239
1276.3082 443.92947 1564.6661 2761237
1278.1887 441.36469 1555.6263 2892823
1275.6315 437.3154 1541.3542 2433044
1269.707 432.17786 1523.2465 2498578
1286.0895 434.65195 1531.9667 2300942
1284.7841 431.15552 1519.6432 2695959
1288.1997 429.28119 1513.0369 2564372
1291.7729 427.48495 1506.7061 2958870
1293.2764 425.03329 1498.0649 2827030
1290.8151 421.32108 1484.9808 2695188
1296.6334 420.34341 1481.535 2827029
1313.3451 422.88657 1490.4987 2695444
1302.2679 416.50778 1468.0161 2432272
1312.8203 417.08578 1470.0533 2498321
1306.6757 412.38651 1453.4904 2498322
1324.1942 415.16806 1463.2941 2564114
1302.3618 405.65634 1429.7693 2761750
1302.738 403.14069 1420.9026 2761237
1300.4757 399.84613 1409.2908 2629651
1305.4869 398.81583 1405.6593 3155995
1311.3207 398.04834 1402.9542 3090202
1332.6807 401.97372 1416.7896 3287580
1338.3585 401.14923 1413.8837 2958616
1319.9443 393.15906 1385.7216 3353373
1341.9359 397.22864 1400.0652 3024664
1356.2598 398.99228 1406.2812 3550750
1377.8385 402.85547 1419.8973 3090712
0 0 0 0
0 0 0 0
0 0 0 0
0 0 0 0
0 0 0 0
0 0 0 0
0 0 0 0
0 0 0 0
0 0 0 0
0 0 0 0
0 0 0 0
0 0 0 0
0 0 0 0
-1419.469 483.74081 1669.9692 1775883
-1419.0654 487.01175 1681.2612 1710091
-1419.5548 490.63776 1693.7789 1579274
-1415.2407 492.64359 1700.7034 1710605
-1408.7876 493.92828 1705.1384 1710605
-1403.3647 495.59543 1710.8938 1842447
-1402.6439 498.95963 1722.5077 1776654
-1403.5831 502.9682 1736.3461 1907986
-1406.3719 507.70392 1752.6947 1907984
-1392.6998 506.52359 1748.6199 1776398
-1396.0747 511.57205 1766.0482 1710606
-1389.2593 512.93469 1770.7523 1776399
-1373.3158 510.92221 1763.8049 1842194
-1359.0533 509.50897 1758.9261 1513741
-1370.9183 517.94501 1788.0488 2434846
-1358.0214 517.08447 1785.0782 2106136
-1345.1674 516.22687 1782.1176 2303515
-1330.657 514.71497 1776.8981 2303515
-1309.5599 510.6106 1762.7291 2237722
-1296.5144 509.60471 1759.2566 1053195
-1281.5303 507.81421 1753.0754 658182
-1263.2856 504.6918 1742.2964 920838
0 0 0 0
-1188.616 482.7829 1666.6624 262144
-1174.7372 481.15933 1661.0575 262400
-1154.4672 476.86819 1646.2437 393216
-1144.4154 476.76056 1645.8721 458752
-1133.3701 476.23355 1644.0529 458752
-1126.0197 477.26352 1647.6084 524288
-1111.6774 475.32199 1640.9059 458752
-1102.2006 475.44492 1641.3302 458752
-1088.9233 473.91595 1636.0519 458752
-1076.8542 472.88998 1632.51 524288
-1065.2605 472.05603 1629.6311 524288
-1053.4985 471.13147 1626.4393 524288
-1042.109 470.35788 1623.7687 655360
-1030.6538 469.53989 1620.9448 655360
-1020.4601 469.28656 1620.0703 720896
-1008.2034 468.07068 1615.8729 720896
-998.29608 467.93262 1615.3962 720896
-987.39105 467.31958 1613.28 720896
-974.51196 465.7511 1607.8654 720896
-963.05029 464.83572 1604.7052 851968
-953.70032 464.93146 1605.0356 786432
-942.63995 464.18683 1602.4651 786432
-932.57739 463.9234 1601.5557 720896
-922.66656 463.73071 1600.8905 655360
-911.84406 463.07111 1598.6134 720896
-902.87683 463.3497 1599.5751 720896
-893.15314 463.24182 1599.2028 720896
-883.54138 463.19037 1599.0251 720896
-872.48407 462.3717 1596.1989 720896
-862.41827 462.06625 1595.1444 655360
-852.6272 461.9028 1594.5802 655360
-815.17206 446.58038 1541.6841 655360
-804.92938 445.98682 1539.635 720896
-795.07935 445.59964 1538.2983 720896
-789.74017 447.76096 1545.7598 720896
-779.70001 447.27649 1544.0873 720896
-767.99811 445.81589 1539.0449 720896
-758.33704 445.51895 1538.0199 720896
-753.67957 448.19031 1547.2418 720896
-741.21143 446.22549 1540.459 720896
-732.85126 446.71552 1542.1506 720896
-722.53748 446.01205 1539.7222 720896
-709.05127 443.30707 1530.384 655360
-702.5553 444.95895 1536.0867 655360
-690.85742 443.31641 1530.4161 655360
-680.09613 442.23895 1526.6965 655360
-667.79388 440.11676 1519.3704 655360
-659.05383 440.31622 1520.059 655360
-647.02258 438.29181 1513.0704 655360
-637.62592 438.02011 1512.1324 655360
-629.37146 438.53653 1513.9152 655360
-619.03992 437.59964 1510.6809 589824
-610.76019 438.10693 1512.4321 589824
-601.37482 437.82446 1511.4569 589824
-592.99762 438.27853 1513.0245 589824
-581.93829 436.7337 1507.6915 655360
-572.07965 436.05573 1505.351 655360
-561.86694 435.08203 1501.9895 655360
-551.97437 434.32877 1499.389 720896
-541.06726 432.73932 1493.902 720896
-521.02014 423.66464 1462.5743 720896
-508.67328 420.64951 1452.1655 918528
-495.08664 416.48718 1437.7964 1642240
-490.50238 419.88486 1449.5259 1444864
-483.21338 421.04736 1453.5391 1247232
-474.5264 421.0119 1453.4167 1181184
-472.74487 427.21555 1474.8329 589824
-577.09259 531.37555 1834.4138 589824
0 0 0 0
-574.57257 549.85046 1898.193 524288
0 0 0 0
0 0 0 0
0 0 0 0
0 0 0 0
0 0 0 0
-473.1366 513.30804 1772.0414 393216
-463.09979 513.86841 1773.9758 393216
-462.29492 524.93781 1812.1895 262144
0 0 0 0
0 0 0 0
-577.383 704.93774 2433.585 262144
0 0 0 0
0 0 0 0
0 0 0 0
0 0 0 0
-364.1951 508.38916 1755.0603 262144
0 0 0 0
0 0 0 0
0 0 0 0
0 0 0 0
0 0 0 0
0 0 0 0
0 0 0 0
0 0 0 0
0 0 0 0
0 0 0 0
0 0 0 0
-368.16522 783.45093 2704.6282 393216
0 0 0 0
0 0 0 0
-328.54355 804.62897 2777.739 393216
-312.01895 804.62897 2777.739 393216
-291.59747 794.01794 2741.1074 393216
-276.43167 797.30853 2752.4673 393216
-260.0574 797.30853 2752.4673 393216
-243.72385 797.44171 2752.927 393216
-228.46065 801.34851 2766.4141 393216
-211.50685 799.4715 2759.9343 393216
-194.16283 795.67944 2746.8435 393216
-179.20369 801.862 2768.1865 393216
-164.99933 813.01465 2806.688 393216
-148.99861 816.83081 2819.8621 393216
-126.01464 778.47516 2687.4507 393216
-109.58443 775.34265 2676.6367 393216
-91.998016 761.57397 2629.1045 393216
-75.072273 748.75415 2584.8479 393216
-59.01284 740.19574 2555.3027 393216
-39.429428 666.16071 2299.719 393216
-28.691139 742.29108 2562.5361 393216
-13.483515 744.31995 2569.5403 458752
1.7486025 722.05206 2492.667 458752
16.924259 737.16309 2544.8333 458752
30.51119 701.47815 2421.6418 458752
0 0 0 0
57.852757 684.08606 2361.6008 393216
72.586739 690.60284 2384.0981 393216
85.404404 679.73718 2346.5876 393216
97.023041 663.72223 2291.3008 458752
120.88086 725.06567 2503.0706 458752
128.15909 684.4129 2362.7292 458752
143.34724 689.86267 2381.543 458752
155.28264 680.08618 2347.7925 458752
167.86995 674.54266 2328.6553 458752
171.75597 637.54584 2200.9348 458752
181.15691 624.8111 2156.9719 393216
197.62782 636.53259 2197.4368 393216
0 0 0 0
221.08855 628.8974 2171.0786 393216
248.85559 668.8114 2308.8696 393216
260.53912 663.58545 2290.8286 393216
271.54208 657.23193 2268.895 458752
279.93539 645.46289 2228.2659 458752
290.66641 639.90448 2209.0771 458752
289.02304 608.763 2101.5708 458752
300.62473 606.94507 2095.2949 458752
321.0907 622.45587 2148.8413 458752
324.24612 604.50623 2086.8755 458752
336.12805 603.54962 2083.573 458752
347.1268 601.13153 2075.2253 458752
359.30463 600.85132 2074.2581 458752
365.2597 590.52911 2038.6238 458752
374.56677 586.11554 2023.3872 458752
388.35294 588.76733 2032.5419 458752
396.81561 583.43207 2014.1232 458752
406.01044 579.45435 2000.3914 393216
420.73465 583.36993 2013.9088 393216
431.49026 581.71844 2008.2075 393216
443.59149 581.92114 2008.9073 393216
457.17505 584.00684 2016.1074 393216
457.67639 569.70148 1966.7225 458752
466.41464 566.10675 1954.3129 458752
484.09714 573.27887 1979.0725 458752
482.4938 557.81403 1925.6846 458752
501.34036 566.16034 1954.4978 458752
511.7236 564.78735 1949.7581 458752
527.52802 569.32599 1965.4263 458752
538.23712 568.28796 1961.8429 458752
552.48407 570.9502 1971.0333 458752
547.96887 554.51538 1914.2972 458752
577.22223 572.22607 1975.438 458752
578.84009 562.38037 1941.4486 458752
585.65417 557.86957 1925.8763 458752
608.77417 568.76611 1963.4934 458752
612.79852 561.74762 1939.2642 458752
628.17236 565.2002 1951.1832 458752
645.47418 570.23071 1968.5496 458752
651.46045 565.26367 1951.4023 458752
661.15204 563.62921 1945.76 458752
672.16583 563.15887 1944.1362 458752
683.02673 562.57849 1942.1327 393216
696.66583 564.26758 1947.9637 393216
718.18433 572.17896 1975.2754 393216
735.29309 576.37897 1989.7747 393216
739.55823 570.5376 1969.6089 393216
731.61243 555.6051 1918.059 393216
750.34058 561.07697 1936.9492 458752
754.64191 555.75873 1918.5895 393216
770.44995 558.94684 1929.5955 393216
788.00586 563.29077 1944.5916 393216
797.20367 561.62079 1938.8264 393216
824.53766 572.59296 1976.7046 393216
822.39307 563.0733 1943.8409 393216
826.07581 557.7522 1925.4712 327680
877.71906 584.51575 2017.8645 327680
882.4928 579.76575 2001.4663 393216
852.83801 552.82483 1908.4611 393216
913.79419 584.55591 2018.0029 262144
931.71387 588.29047 2030.8955 196608
0 0 0 0
0 0 0 0
0 0 0 0
0 0 0 0
0 0 0 0
0 0 0 0
1144.2893 662.38708 2286.6917 1117701
1155.7538 661.16357 2282.4678 1249287
1163.9657 658.12927 2271.9929 1249287
1156.0988 646.17773 2230.7339 1249287
1156.2142 638.90845 2205.6387 1644045
1157.0187 632.17871 2182.4065 1644045
1145.2666 618.81378 2136.2681 1512459
1168.1782 624.2663 2155.0911 1644302
1169.8125 618.35327 2134.6782 1973781
1162.0938 607.67651 2097.8198 2434329
1183.6487 612.37158 2114.0283 3092259
1190.8376 609.61383 2104.5078 2566170
1198.0548 606.92761 2095.2346 2565143
1204.3604 603.83972 2084.5745 2433814
1191.8439 591.47394 2041.8854 1906958
0 0 0 0
0 0 0 0
0 0 0 0
1067.1329 508.83984 1756.6162 2105115
1071.4564 505.94687 1746.629 3618356
1089.1584 509.36624 1758.4333 6250332
1086.5972 503.33411 1737.6093 4408129
1106.3363 507.64838 1752.5029 3156780
1123.6956 510.80026 1763.3839 3749169
1140.1367 513.48029 1772.636 3683375
1175.6069 524.60278 1811.033 2367511
1172.7977 518.59662 1790.2985 2433046
1176.6069 515.59875 1779.9493 2367509
1178.6942 511.90652 1767.203 1841424
1189.891 512.20093 1768.2192 2301977
1175.5538 501.59503 1731.6056 2104341
1176.9232 497.81702 1718.5632 2170904
1169.6383 490.47507 1693.2172 2631200
1182.6118 491.681 1697.3804 2433307
1190.4895 490.76584 1694.2211 2499614
1195.1786 488.56265 1686.6152 1446413
1199.7109 486.33258 1678.9166 65536
1222.3547 491.42065 1696.4817 196864
1226.1785 488.9212 1687.853 2170134
1233.1945 487.72488 1683.723 2827294
1251.0634 490.80545 1694.3578 1577480
1258.5804 489.80817 1690.915 2103822
1244.9186 480.64978 1659.2983 2630166
1259.3883 482.41132 1665.3795 2762008
1260.5636 479.09253 1653.9226 2893339
1255.0001 473.28397 1633.8702 2695704
1255.0161 469.65259 1621.334 2761242
1252.3265 465.0719 1605.5205 2366484
1256.7062 463.16589 1598.9406 1445641
1272.7843 465.56766 1607.2321 2169363
1269.4459 460.88437 1591.0643 2827292
1264.2122 455.58725 1572.7776 2695961
1264.5092 452.34653 1561.59 2564117
1277.7886 453.76331 1566.481 2498580
1274.663 449.37601 1551.3352 2564372
1267.9423 443.79352 1532.0634 2827545
1281.9331 445.48822 1537.9138 2827543
1282.4596 442.51306 1527.6429 2432785
1284.7246 440.17542 1519.5729 2695956
1281.1049 435.86829 1504.7037 2695956
1289.8829 435.80972 1504.5016 2301198
1291.1487 433.23126 1495.6003 2432785
1293.1113 430.92035 1487.6226 2433042
1300.9746 430.59384 1486.4954 2629908
1301.9093 427.99402 1477.5203 2827030
1311.5 428.25558 1478.4232 2563858
1316.991 427.1839 1474.7235 2563858
1309.5154 421.94827 1456.6492 2629908
1309.3007 419.10574 1446.8362 2630164
1329.9254 422.92737 1460.0293 2564371
1308.036 413.26736 1426.681 2630163
1314.7358 412.7063 1424.744 2630421
1307.6091 407.83994 1407.9445 2629650
1314.5731 407.4024 1406.434 2695444
1317.6105 405.7612 1400.7682 2958616
1314.5674 402.27985 1388.75 3024152
1318.4519 400.94882 1384.1549 3156248
1348.1941 407.44888 1406.5944 3155992
1332.7878 400.30826 1381.9436 3287835
1335.5043 398.66504 1376.2709 3485213
0 0 0 0
0 0 0 0
0 0 0 0
0 0 0 0
0 0 0 0
0 0 0 0
0 0 0 0
0 0 0 0
0 0 0 0
0 0 0 0
0 0 0 0
0 0 0 0
0 0 0 0
-1412.6047 491.28802 1661.8936 1710091
-1412.4233 494.68713 1673.3918 1841677
-1411.1827 497.76086 1683.7896 1513482
-1412.3984 501.75122 1697.2877 1644811
-1404.1979 502.42978 1699.5831 1710861
-1398.0833 503.86996 1704.455 1776654
-1398.0063 507.52313 1716.8125 1908240
-1402.4996 512.90137 1735.0056 1842192
-1397.5094 514.86548 1741.6497 1644813
-1385.6609 514.31342 1739.7821 1776399
-1379.1271 515.74042 1744.6093 1315849
-1376.1788 518.5401 1754.08 1447436
-1363.9569 517.86163 1751.7849 2302745
-1362.4186 521.26019 1763.2814 2697762
-1358.545 523.81122 1771.9106 2435103
-1351.7648 525.27258 1776.8541 2566689
-1347.5267 527.75262 1785.2434 2435102
-1331.3004 525.53955 1777.7572 526598
-1323.2189 526.5321 1781.1147 460806
-1307.5914 524.51373 1774.2871 1052940
-1278.3112 516.94141 1748.672 986890
-1255.772 511.99319 1731.9336 1052680
0 0 0 0
-1183.3154 490.50061 1659.23 131328
-1173.3173 490.4473 1659.0497 393472
-1156.1438 487.36841 1648.6345 393216
-1148.2737 488.19211 1651.4209 393216
-1131.837 485.35654 1641.829 458752
-1126.1981 487.14224 1647.8696 524288
-1112.1628 485.29553 1641.6226 589824
-1101.4199 484.86539 1640.1676 655360
-1089.1505 483.74969 1636.3934 655360
-1076.8541 482.60162 1632.5099 655360
-1065.788 481.98911 1630.4379 655360
-1054.2898 481.16812 1627.6608 655360
-1043.0918 480.47028 1625.3 589824
-1032.2865 479.94189 1623.5127 589824
-1021.8233 479.56406 1622.2346 655360
-1015.266 481.02963 1627.1923 655360
-1001.6803 479.16138 1620.8724 655360
-992.6474 479.45575 1621.8683 655360
-980.00098 477.99353 1616.9219 720896
-977.29669 481.39957 1628.4436 655360
-967.32507 481.25818 1627.9655 720896
-956.41156 480.64066 1625.8765 720896
-945.86298 480.19574 1624.3715 720896
-930.21631 477.1268 1613.99 655360
-893.35248 462.99756 1566.1946 655360
-910.0849 476.64056 1612.3452 655360
-871.20508 461.13809 1559.9045 655360
-860.93329 460.60733 1558.1091 655360
-850.99426 460.24506 1556.8837 655360
-840.78943 459.72943 1555.1394 655360
-831.09601 459.48502 1554.3126 589824
-820.95288 458.98373 1552.6169 589824
-809.58771 457.78009 1548.5453 524288
-801.60071 458.4808 1550.9158 524288
-790.4848 457.38745 1547.2172 524288
-779.78784 456.51361 1544.2612 524288
-770.42877 456.4115 1543.9159 458752
-766.9809 459.85107 1555.5509 393216
-756.65155 459.19836 1553.343 458752
-747.54889 459.28323 1553.63 589824
-740.73517 460.79407 1558.7408 458752
-731.28076 460.67975 1558.354 721664
-711.26111 453.8212 1535.1536 721408
-702.19812 453.86621 1535.3057 393216
-693.87415 454.3963 1537.0989 393216
-687.76251 456.40866 1543.9062 458752
-673.6131 453.0694 1532.6104 458752
-663.13336 452.1405 1529.4681 524288
-657.63666 454.63058 1537.8915 524288
-645.93768 452.8428 1531.8439 524288
-634.24506 451.00833 1525.6383 458752
-622.38281 448.9982 1518.8386 458752
-611.58917 447.71118 1514.485 524288
-600.24213 445.97446 1508.6101 524288
-590.05707 445.06149 1505.5217 524288
-576.55658 441.58102 1493.7484 524288
-565.05444 439.5462 1486.8651 524288
-555.57629 439.04608 1485.1733 524288
-545.80853 438.29718 1482.64 589824
-532.65118 434.75714 1470.6649 655360
-521.03888 432.38098 1462.6271 720896
-508.21582 428.90225 1450.8595 786944
-497.95251 427.50095 1446.1193 1576448
-491.06229 428.99716 1451.1805 1576448
-482.20245 428.79544 1450.4982 1379072
-474.75415 429.86441 1454.1143 919040
-469.57364 433.06458 1464.9395 524288
-570.85852 536.43024 1814.5974 524288
-577.37012 553.00647 1870.6703 524288
-563.68939 550.51385 1862.2385 524288
-558.9563 556.83508 1883.6215 524288
0 0 0 0
0 0 0 0
0 0 0 0
0 0 0 0
-470.89011 521.36261 1763.6277 393216
-462.59479 523.84985 1772.0414 393216
0 0 0 0
0 0 0 0
0 0 0 0
0 0 0 0
0 0 0 0
0 0 0 0
0 0 0 0
0 0 0 0
0 0 0 0
0 0 0 0
-348.1315 526.1109 1779.6901 327680
0 0 0 0
0 0 0 0
0 0 0 0
-446.28693 767.85455 2597.4429 393216
0 0 0 0
0 0 0 0
0 0 0 0
0 0 0 0
-406.93918 846.74109 2864.2944 393216
-358.9581 779.54559 2636.9905 393216
0 0 0 0
0 0 0 0
0 0 0 0
0 0 0 0
-297.91388 827.87726 2800.4834 393216
-267.48602 787.35101 2663.394 393216
-250.43886 783.58777 2650.6638 393216
-234.18828 781.97845 2645.2202 393216
-220.483 789.24866 2669.8132 393216
-208.5498 804.4834 2721.3481 393216
-192.53699 805.22083 2723.8428 393216
-173.5437 792.48346 2680.7559 393216
-137.96609 693.77283 2346.8445 458752
-123.19511 689.24249 2331.5198 393216
-104.65102 659.77509 2231.8394 393216
-94.255196 680.57953 2302.2151 393216
-80.26844 678.12091 2293.8984 393216
-66.519867 677.07965 2290.376 393216
-52.021748 665.90723 2252.5828 393216
-39.261387 676.94421 2289.918 393216
-25.072626 661.99542 2239.3503 393216
-11.71626 660.04608 2232.7561 458752
1.6050456 676.38416 2288.0234 458752
15.452482 686.87994 2323.5278 458752
29.275015 686.88007 2323.5281 458752
43.488544 693.11163 2344.6079 458752
56.58498 682.83624 2309.8491 458752
70.915031 688.55414 2329.1912 458752
85.395027 693.62073 2346.3301 458752
99.46508 694.40179 2348.9722 458752
119.04093 728.69336 2464.9712 458752
133.08516 725.31586 2453.5459 458752
147.50174 724.43457 2450.5649 458752
154.6694 691.31207 2338.5205 458752
159.93288 655.8476 2218.554 458752
174.50395 661.04889 2236.1484 458752
186.28568 655.69525 2218.0383 393216
198.41913 652.20593 2206.2351 393216
209.26126 645.16846 2182.4292 393216
230.01709 667.7323 2258.7566 393216
245.70296 673.89984 2279.6196 393216
253.258 658.28778 2226.8083 458752
259.21341 640.27667 2165.8816 458752
275.16983 647.50476 2190.3323 458752
286.57141 643.84583 2177.9551 458752
297.0173 638.4491 2159.6995 458752
310.65921 640.08508 2165.2334 458752
320.37482 633.823 2144.0505 458752
329.40207 626.73083 2120.0596 458752
339.08499 621.36316 2101.9023 393216
344.3125 608.50323 2058.4006 393216
355.09982 606.01508 2049.9839 458752
364.5881 601.54877 2034.8756 393216
377.90363 603.48126 2041.4128 393216
382.53705 591.86053 2002.103 458752
387.00034 580.68628 1964.3036 458752
396.19061 577.05194 1952.0095 393216
408.12192 577.50323 1953.5361 393216
427.7504 588.51971 1990.8018 393216
444.7178 595.37988 2014.0081 393216
448.6235 584.85217 1978.3956 393216
463.89273 589.29822 1993.4353 393216
0 0 0 0
477.27206 576.80383 1951.1704 393216
490.08264 578.22345 1955.9724 458752
485.22256 559.21198 1891.6617 458752
496.36874 559.09119 1891.2533 458752
510.90628 562.71106 1903.4983 458752
530.96747 572.12579 1935.3457 458752
541.7663 571.37231 1932.7969 458752
545.37311 563.22272 1905.229 458752
558.40869 564.94409 1911.052 458752
603.44733 598.32843 2023.9821 458752
0 0 0 0
607.35309 579.09186 1958.9099 458752
612.36829 572.88171 1937.9027 458752
608.81085 559.0293 1891.0438 458752
623.02716 561.70392 1900.0913 458752
0 0 0 0
646.65198 562.58936 1903.0865 458752
660.12866 564.43225 1909.3206 458752
672.7771 565.5166 1912.9885 393216
689.4549 569.89545 1927.8011 393216
713.21692 579.89093 1961.6132 393216
730.29907 584.22095 1976.2603 393216
730.09814 574.80676 1944.4148 393216
728.82538 564.85553 1910.7523 393216
0 0 0 0
744.59808 559.6236 1893.0542 393216
728.87939 539.64789 1825.4818 393216
738.93536 539.06152 1823.4984 458752
767.26691 551.63159 1866.0193 458752
783.79114 555.47516 1879.0211 458752
798.82623 558.1701 1888.1375 458752
802.99323 553.3017 1871.6688 458752
823.13959 559.42639 1892.3871 458752
836.30579 560.70593 1896.7155 458752
878.4126 581.09656 1965.6913 393216
814.54639 531.76801 1798.8263 393216
0 0 0 0
0 0 0 0
0 0 0 0
0 0 0 0
0 0 0 0
0 0 0 0
0 0 0 0
0 0 0 0
0 0 0 0
1127.0359 650.33563 2199.9082 1117702
1165.1122 664.58954 2248.1255 1578253
1128.5155 636.40948 2152.7998 1380873
1117.9617 623.3833 2108.7358 1644044
1145.2992 631.54028 2136.3289 1446921
1142.1772 622.90674 2107.1238 1710347
1156.095 623.65247 2109.6465 1907470
1162.7786 620.52179 2099.0562 1973263
1176.1034 620.96405 2100.5522 2170643
1175.629 614.18787 2077.6304 2565143
1185.408 612.85364 2073.1169 2828571
1180.8177 604.19452 2043.8256 2696986
1195.2826 605.36255 2047.7766 2368021
0 0 0 0
0 0 0 0
0 0 0 0
1057.7908 514.74377 1741.2379 1116167
1087.0317 523.84326 1772.019 1642509
1078.5669 514.77197 1741.3334 2366746
1083.2357 512.08197 1732.2339 3551789
1104.8201 517.36389 1750.1012 3946291
1169.8737 542.71289 1835.8499 3880751
1181.2958 542.94299 1836.6283 3420199
1192.7585 543.1875 1837.4553 3288868
1194.1569 538.88574 1822.9037 3420712
1198.3628 535.91699 1812.8612 3289126
1202.6635 533.04309 1803.1398 2367768
1199.4521 526.92017 1782.4275 2499356
1158.8832 504.63702 1707.0496 2104858
1178.762 508.83441 1721.2482 986890
1179.558 504.793 1707.5771 1776150
1185.4701 502.99139 1701.4829 2499873
1192.0527 501.50235 1696.4459 2104858
1201.1394 501.08289 1695.027 2301979
1207.6261 499.59482 1689.9933 394499
1224.2363 502.28494 1699.0931 131072
1231.8723 501.27911 1695.6907 1577999
1237.0165 499.28381 1688.9412 1183240
1252.9764 501.65103 1696.9487 1314825
1261.749 501.12579 1695.1721 788739
0 0 0 0
1257.5659 491.60611 1662.9696 2629911
1259.5465 488.53714 1652.5881 2564373
1256.9977 483.77258 1636.4709 2629911
1259.2065 480.89819 1626.7476 2432531
1253.6747 475.134 1607.2489 1906190
1245.3018 468.38846 1584.4305 2300689
1258.4869 469.79187 1589.178 1116674
1274.0461 472.05396 1596.83 2892827
1275.078 468.93979 1586.2957 2761753
1277.7797 466.48099 1577.9781 3024669
1278.8481 463.46622 1567.7799 2366994
1282.4586 461.40961 1560.823 2432785
1284.6373 458.87112 1552.2361 2695958
1282.7031 454.91028 1538.8375 2301200
1281.7694 451.35785 1526.8207 2695958
1280.5537 447.75687 1514.6395 2564372
1283.5896 445.68237 1507.6221 2630166
1285.3323 443.19077 1499.1937 2564373
1287.9058 441.01801 1491.8439 2630166
1289.3235 438.48196 1483.265 2695446
1301.9897 439.77982 1487.6553 2498323
1296.6675 435.02512 1471.5714 2563860
1299.0079 432.88773 1464.3412 2563860
1303.6718 431.54791 1459.8091 2629652
1308.5946 430.311 1455.6249 2564373
1321.9365 431.84067 1460.7993 2564371
1308.26 424.58179 1436.2445 2564370
1308.036 421.75461 1426.681 2498578
1310.6194 419.86331 1420.2832 2630164
1345.0736 428.14078 1448.2837 2433041
1334.0054 421.91519 1427.2241 2892566
1318.3857 414.33795 1401.5924 2695444
1316.8452 411.25287 1391.1565 2760981
1321.4204 410.10434 1387.2712 2958356
1324.3138 408.45139 1381.6798 2826771
1393.8698 427.25235 1445.2783 2959127
1330.6162 405.36331 1371.2336 2893077
0 0 0 0
0 0 0 0
0 0 0 0
0 0 0 0
0 0 0 0
0 0 0 0
0 0 0 0
0 0 0 0
0 0 0 0
0 0 0 0
0 0 0 0
0 0 0 0
0 0 0 0
-1414.8813 501.98227 1664.572 1907470
-1436.1599 513.12286 1701.5142 1973263
-1406.7275 506.17459 1678.4738 1776911
-1406.0376 509.54312 1689.6438 1842447
-1397.3513 510.0415 1691.2964 2039826
-1392.4337 511.93262 1697.5674 1908240
-1389.7849 514.69159 1706.7162 1973778
-1382.621 515.80676 1710.4141 2105366
-1381.2491 519.11536 1721.3853 1776658
-1373.1864 519.93988 1724.1195 1908244
-1373.6031 524.01166 1737.6215 2434845
-1357.1107 521.64563 1729.7758 2763810
-1350.3813 523.0249 1734.3494 2697506
-1351.7727 527.59485 1749.5033 2764326
-1350.1376 531.04535 1760.9451 1974553
-1344.722 533.05127 1767.5967 329220
-1334.0897 533.00452 1767.4417 460803
-1327.8983 534.74536 1773.2144 921354
-1306.1667 530.20599 1758.1617 987146
-1285.9344 526.20679 1744.9005 1184526
-1270.0724 523.94537 1737.4016 921610
-1244.9323 517.78796 1716.9838 723972
0 0 0 0
-1188.9729 502.76352 1667.1627 196864
-1175.0088 501.03818 1661.4414 196864
-1161.1422 499.3255 1655.7622 393472
-1150.1389 498.82529 1654.1035 458752
-1139.7291 498.57611 1653.2772 458752
-1127.5416 497.53818 1649.8354 589824
-1115.4849 496.54013 1646.526 655360
-1101.4795 494.64944 1640.2563 655360
-1089.7538 493.75781 1637.2997 655360
-1077.869 492.77734 1634.0486 524288
-1065.0082 491.32877 1629.245 458752
-1053.3564 490.41644 1626.2198 524288
-1042.1339 489.68896 1623.8074 524288
-1031.0475 489.01245 1621.5641 524288
-1020.7409 488.69641 1620.5162 458752
-1018.4004 492.22464 1632.2158 524288
-974.67816 475.6272 1577.1787 524288
-990.31085 487.95288 1618.0507 524288
-955.99829 475.66962 1577.3193 458752
-945.25067 474.9841 1575.0461 655360
-967.81891 491.19351 1628.7966 655360
-956.85358 490.53946 1626.6278 720896
-917.05688 474.94046 1574.9015 655360
-901.60016 471.75513 1564.3389 589824
-894.54034 472.94278 1568.2771 458752
-886.69501 473.73575 1570.9066 458752
-875.62585 472.80487 1567.8199 458752
-864.10864 471.60944 1563.8558 458752
-852.80212 470.50421 1560.1909 458752
-844.58698 471.09906 1562.1635 524288
-830.63062 468.46909 1553.4424 458752
-821.15784 468.3371 1553.0046 458752
-815.11444 470.18024 1559.1166 458752
-805.63275 470.05969 1558.7168 458752
-794.69788 469.07858 1555.4634 458752
-785.06763 468.85355 1554.7172 458752
-778.33923 470.37674 1559.7682 458752
-766.9093 469.06113 1555.4056 458752
-749.89435 464.2558 1539.4711 458752
-768.8136 481.8533 1597.8245 458752
-739.80664 469.47766 1556.7869 524288
-720.87836 463.26526 1536.1865 327680
-717.81665 467.22073 1549.3029 393216
-706.68329 465.95697 1545.1122 590336
-689.88403 460.87479 1528.2598 393216
-682.75183 462.20123 1532.6582 393216
-670.36517 459.95828 1525.2206 656128
-663.44507 461.45602 1530.1871 458752
-654.43549 461.52188 1530.4055 524288
-644.90985 461.22052 1529.4062 655360
-629.38281 456.55716 1513.9425 524288
-622.91754 458.42722 1520.1437 458752
-612.98407 457.76242 1517.9392 393216
-602.10468 456.36075 1513.2913 458752
-582.27045 448.02634 1485.6543 458752
-571.64111 446.6268 1481.0134 393216
-564.12219 447.6517 1484.412 393216
-552.05945 445.0462 1475.7721 393216
-541.03888 443.21011 1469.6837 458752
-531.05634 442.1781 1466.2616 458752
-520.38452 440.52808 1460.79 524288
-508.8609 438.08868 1452.701 590336
-497.31519 435.54568 1444.2684 1576448
-489.92645 436.61789 1447.8239 1576192
-481.71872 436.98557 1449.0431 1313536
-472.07028 436.03586 1445.8939 787712
-469.34949 441.56848 1464.2401 524288
-464.26257 445.04224 1475.759 458752
0 0 0 0
0 0 0 0
-442.47937 449.67065 1491.1069 524288
-433.18307 449.22913 1489.6427 524288
0 0 0 0
-484.43689 523.81317 1736.9634 458752
-474.85098 524.63873 1739.7008 458752
-465.67773 525.9671 1744.1057 393216
-462.51874 534.30371 1771.75 393216
0 0 0 0
-576.4729 697.74506 2313.7209 393216
-560.03046 694.42407 2302.7085 393216
0 0 0 0
0 0 0 0
0 0 0 0
0 0 0 0
0 0 0 0
0 0 0 0
0 0 0 0
0 0 0 0
0 0 0 0
0 0 0 0
0 0 0 0
0 0 0 0
0 0 0 0
0 0 0 0
-348.23074 682.04663 2261.665 393216
0 0 0 0
0 0 0 0
-379.32822 840.36072 2786.6343 393216
-362.79828 840.47095 2786.9998 393216
-331.95679 805.84943 2672.1948 393216
-323.59604 825.06378 2735.9094 393216
-307.62851 825.89124 2738.6533 393216
-293.72067 832.65027 2761.0662 393216
-270.84241 813.27393 2696.8142 393216
-248.83421 794.23462 2633.6802 393216
-229.9725 783.35455 2597.6018 393216
-216.86217 791.90912 2625.9688 393216
-203.2558 799.8399 2652.2671 458752
-187.52849 800.05695 2652.9868 458752
-171.22182 797.61487 2644.8892 458752
-156.03532 800.42505 2654.2075 458752
-141.70584 808.75909 2681.8433 458752
-104.52596 672.24786 2229.1724 458752
-96.052605 707.51477 2346.1174 458752
-77.602585 668.79242 2217.7141 393216
-64.430397 669.00909 2218.4326 393216
-51.691647 674.99719 2238.2891 393216
-37.944675 667.40723 2213.1208 393216
-26.553341 715.1994 2371.5996 458752
-12.281105 705.79004 2340.3982 458752
1.5403266 662.17346 2195.7656 458752
14.750138 668.85431 2217.9192 458752
28.053505 671.46545 2226.5779 458752
40.16444 653.01459 2165.3948 458752
53.523663 658.89166 2184.8833 458752
66.335518 657.05048 2178.7778 458752
81.374802 674.26752 2235.8696 458752
94.035393 669.70624 2220.7444 458752
106.5414 665.30341 2206.1445 458752
121.34644 674.64825 2237.1321 458752
132.67961 664.75104 2204.313 458752
152.15215 693.74622 2300.4609 458752
163.27898 683.04333 2264.9702 458752
176.42072 681.75873 2260.7104 458752
184.66765 663.08044 2198.7732 393216
200.47395 672.22095 2229.083 393216
203.79822 640.96973 2125.4541 393216
215.8551 639.23041 2119.6865 393216
237.18326 663.6236 2200.5742 393216
253.08682 671.08112 2225.3035 393216
262.06247 660.34033 2189.687 393216
274.99783 660.12213 2188.9634 393216
285.40558 654.13031 2169.0947 458752
294.03629 644.76031 2138.0237 458752
308.7919 649.04102 2152.2185 458752
305.58862 616.73645 2045.0967 458752
316.92438 615.12469 2039.7521 458752
326.86832 611.03003 2026.1742 458752
336.85214 607.29852 2013.8004 458752
350.91983 610.93317 2025.8529 458752
359.00537 604.25751 2003.7166 458752
366.74887 597.45386 1981.1555 458752
375.30396 592.35468 1964.2467 458752
389.43427 596.09735 1976.6575 458752
398.8428 592.60504 1965.0769 393216
409.07938 590.50671 1958.119 393216
417.51013 585.99023 1943.1422 458752
437.7673 597.86865 1982.531 393216
447.22314 594.75922 1972.2201 393216
459.20779 595.08582 1973.3032 458752
485.53696 613.52179 2034.4368 393216
479.76932 591.49005 1961.3796 393216
507.46591 610.7818 2025.351 458752
490.27414 576.40442 1911.3557 458752
506.65097 582.15674 1930.4304 458752
486.50864 546.62262 1812.5994 458752
524.76892 576.82556 1912.7522 458752
537.37299 578.14374 1917.1232 458752
557.38324 587.20959 1947.1858 458752
558.02094 575.91266 1909.7251 458752
578.54602 585.18201 1940.4622 458752
590.08972 585.18201 1940.4622 458752
600.4093 583.99139 1936.514 458752
584.97504 558.26758 1851.2139 458752
622.95911 583.53186 1934.9902 458752
617.56158 567.98071 1883.4226 458752
567.25592 512.41705 1699.1737 458752
645.96979 573.30524 1901.0789 458752
651.11261 567.92657 1883.2432 458752
661.48767 567.21637 1880.8881 458752
672.97363 567.46643 1881.7174 393216
671.50549 556.96399 1846.8914 393216
0 0 0 0
715.07666 574.30957 1904.4092 458752
717.72766 567.44843 1881.6576 458752
0 0 0 0
722.802 554.17413 1837.6401 458752
747.06177 564.24036 1871.0197 458752
754.07629 561.17719 1860.8623 458752
764.7226 560.86633 1859.8314 458752
766.03021 553.81281 1836.442 458752
780.93158 556.64722 1845.8408 458752
776.91681 546.10657 1810.8882 458752
845.90869 586.46991 1944.7329 458752
820.0542 560.87421 1859.8575 458752
862.56238 582.09393 1930.222 393216
873.07361 581.4469 1928.0765 393216
888.25824 583.88873 1936.1736 393216
856.39362 555.73639 1842.8206 458752
0 0 0 0
0 0 0 0
0 0 0 0
0 0 0 0
0 0 0 0
0 0 0 0
0 0 0 0
0 0 0 0
0 0 0 0
0 0 0 0
1011.6174 575.43646 1908.146 1512201
1021.1537 574.41541 1904.7601 1380874
1025.9246 570.76556 1892.6572 1775374
1069.5337 588.56775 1951.6892 1775885
1063.9258 579.19415 1920.6064 1644299
1106.9266 596.20093 1977.0009 1841677
1164.9999 620.88281 2058.8459 1578505
1164.1555 613.97784 2035.9492 1973263
1176.2253 613.95605 2035.8768 2433813
1187.1082 613.32135 2033.7721 2762780
0 0 0 0
0 0 0 0
0 0 0 0
0 0 0 0
1139.3549 560.10693 1857.3134 1578255
0 0 0 0
1212.4683 584.70892 1938.8934 1578256
1207.042 576.60681 1912.0269 920584
1209.8322 572.54425 1898.5555 2630944
1193.0731 559.39099 1854.9392 3420457
1201.2222 558.05035 1850.4937 3683883
1214.8705 559.26556 1854.5233 3354917
1215.9254 554.71381 1839.4297 3288610
1217.7979 550.61273 1825.8307 3223328
1219.0188 546.2923 1811.504 3157279
0 0 0 0
1162.9373 512.10547 1698.1406 1446924
1196.7576 522.46002 1732.4762 920842
1203.2678 520.81689 1727.0276 1644821
1200.3507 515.15564 1708.2549 1315855
1208.7936 514.42389 1705.8284 855557
1216.7301 513.49066 1702.7339 262656
1230.7786 515.13092 1708.173 196608
1239.0575 514.34924 1705.5811 131072
1246.1631 513.09729 1701.4294 196608
1251.1591 511.00381 1694.4874 131072
1261.8594 511.25497 1695.3203 986115
1254.8478 504.38293 1672.5326 2696219
1264.1973 504.14352 1671.7388 2827549
1260.2384 498.64206 1653.496 2761500
1262.7389 495.7619 1643.9453 2893084
1258.243 490.20023 1625.5028 2564121
1255.5289 485.41232 1609.6261 2366741
1254.8206 481.4664 1596.5415 1972753
1244.1522 473.78696 1571.0765 1446152
1265.1201 478.17966 1585.6426 2038546
1275.55 478.55365 1586.8828 2762010
1279.1467 476.37741 1579.6664 2761498
1279.2014 472.9234 1568.2129 2432787
1276.1758 468.38885 1553.1764 2564372
1282.2449 467.23355 1549.3453 2498577
1280.2432 463.17474 1535.8864 2827543
1279.3687 459.57843 1523.9611 2629908
1281.4553 457.08896 1515.7059 2498580
1282.8463 454.38788 1506.7491 2695959
1284.1292 451.68619 1497.7904 2695959
1288.5684 450.12436 1492.6113 2695959
1289.5652 447.38962 1483.543 2564373
1293.423 445.67789 1477.8669 2301201
1302.2159 445.67831 1477.8683 2827032
1296.4259 440.72122 1461.4305 2564373
1302.2089 439.73822 1458.1709 2629910
1304.9448 437.74609 1451.5651 2564117
1323.6959 441.11719 1462.7435 2498068
1310.7227 433.94119 1438.948 2432274
1335.4052 439.24417 1456.5326 2760980
1312.4596 428.91388 1422.2773 2629651
1317.8856 427.92841 1419.0095 2629908
1314.4031 424.08115 1406.2521 2629907
1333.4519 427.50616 1417.6094 2564114
1359.1934 433.02026 1435.8943 2761237
1369.3636 433.5358 1437.6036 2629651
1323.6096 416.44934 1380.9451 2761237
1329.9285 415.85635 1378.9788 2695444
1332.9766 414.25421 1373.666 3024665
0 0 0 0
0 0 0 0
0 0 0 0
0 0 0 0
0 0 0 0
0 0 0 0
0 0 0 0
0 0 0 0
0 0 0 0
0 0 0 0
0 0 0 0
0 0 0 0
0 0 0 0
-1412.9321 511.17947 1662.2787 1973263
-1408.2855 513.08942 1668.4895 1907470
-1401.335 514.18109 1672.0396 2171668
-1392.6725 514.65576 1673.583 1776399
-1389.1501 517.05035 1681.37 1579275
-1388.0344 520.38208 1692.2041 1644813
-1384.8147 522.96777 1700.6125 1710605
-1381.1211 525.41132 1708.5586 2039829
-1373.9812 526.57037 1712.3276 2434590
-1363.7228 526.54266 1712.2374 2434590
-1353.9055 526.68604 1712.7037 2631970
-1353.6759 530.58972 1725.3978 3092521
-1337.7809 528.36578 1718.166 2303004
-1338.052 532.54175 1731.7456 131585
-1336.1561 535.91333 1742.7096 256
-1331.7057 538.30505 1750.4871 256
-1329.2228 541.53607 1760.9938 395010
-1322.849 543.22064 1766.4718 855561
-1302.0184 538.94806 1752.5779 1052940
-1282.1892 535.02429 1739.8185 789767
-1264.2428 531.82874 1729.427 789767
-1243.0554 527.20624 1714.3953 921094
0 0 0 0
-1186.2494 511.50702 1663.3439 196608
-1175.0443 510.93747 1661.4917 262144
-1153.1525 505.67194 1644.369 393216
-1145.5027 506.61505 1647.4359 458752
-1136.2592 506.86349 1648.2438 458752
-1129.1479 508.07578 1652.1859 458752
-1115.4324 506.3114 1646.4485 589824
-1102.7529 504.99039 1642.1527 524288
-1089.7611 503.50137 1637.3107 524288
-1078.3206 502.70868 1634.733 458752
-1065.8656 501.42441 1630.5566 458752
-1054.9841 500.86353 1628.7328 458752
-1044.7968 500.62482 1627.9567 458752
-1031.6987 498.97394 1622.5883 458752
-1021.7885 498.84824 1622.1793 393216
-1012.2879 498.922 1622.4192 393216
-1004.0618 499.63135 1624.726 393216
-993.02606 498.94287 1622.4871 458752
-981.61554 498.05066 1619.5858 458752
-971.05109 497.57428 1618.0366 524288
-933.93201 483.34534 1571.7664 458752
-955.71527 499.62112 1624.6927 589824
-914.80371 483.11957 1571.0321 524288
-934.49054 498.61041 1621.406 524288
-891.6048 480.68973 1563.1307 458752
-885.28436 482.31247 1568.4075 458752
-873.36108 480.88477 1563.7649 458752
-860.84619 479.09705 1557.9515 458752
-852.97089 479.88074 1560.4999 458752
-840.44421 478.03592 1554.5009 458752
-831.95825 478.47391 1555.9252 458752
-826.64581 480.76755 1563.3837 327680
-815.12439 479.46118 1559.1356 327680
-803.91351 478.30951 1555.3905 262144
-793.3407 477.51505 1552.807 262144
-786.06976 478.71271 1556.7017 262144
-773.69171 476.79166 1550.4547 196608
-765.30688 477.31473 1552.1558 196608
-756.09772 477.33023 1552.2061 196864
-749.22198 478.8374 1557.1072 196608
-729.02545 471.7623 1534.1 262656
-724.70392 474.91089 1544.3387 131072
-717.45917 476.20016 1548.5312 131072
-701.18201 471.44986 1533.084 328192
-700.63361 477.28922 1552.0728 196608
-689.86487 476.22919 1548.6257 196608
-673.42224 471.17065 1532.176 196608
-660.19391 468.25311 1522.6886 262656
-649.92035 467.37921 1519.8468 262144
-642.87 468.83133 1524.5688 196608
-632.72717 468.03735 1521.9871 393216
-622.37183 467.06094 1518.8119 393216
-617.45404 470.19647 1529.0082 393216
-604.3233 467.07806 1518.8676 393216
-576.93671 452.67944 1472.0454 393216
-577.86084 460.39264 1497.1276 393216
-566.71948 458.58408 1491.2465 393216
-551.15277 453.08011 1473.3483 393216
-541.05621 451.96765 1469.7308 393216
-528.90271 449.07224 1460.3153 458752
-519.35565 448.33011 1457.902 458752
