# .PCD v0.7 - Point Cloud Data file format
VERSION 0.7
FIELDS x y z rgb
SIZE 4 4 4 4
TYPE F F F U
COUNT 1 1 1 1
WIDTH 1277
HEIGHT 1
VIEWPOINT 0 0 0 1 0 0 0
POINTS 1277
DATA ascii
-1044.4706 754.87952 1613.5408 13160912
-1039.3693 758.1557 1620.5436 13095373
-1030.1344 758.44977 1621.1721 13357776
-1022.5716 759.99207 1624.4688 13488849
-1016.0494 762.34454 1629.4972 13554385
-1005.98 762.0553 1628.8789 13619921
-997.61884 763.06702 1631.0414 13685457
-989.3559 764.17438 1633.4084 13685457
-981.35815 765.51068 1636.2646 13685457
-973.3031 766.82849 1639.0815 13685457
-966.5885 769.23987 1644.2357 13685457
-956.62109 769.08527 1643.9053 13685457
-947.97052 769.99707 1645.8542 13685457
-938.72162 770.43689 1646.7943 13685457
-929.20868 770.66699 1647.2863 13685457
-919.99677 771.1543 1648.3278 13685457
-910.91406 771.76154 1649.6259 13685457
-901.74683 772.30969 1650.7974 13685457
-893.44995 773.62341 1653.6056 13685457
-884.42102 774.3255 1655.1062 13685457
-875.12042 774.8028 1656.1265 13685457
-866.69434 776.0741 1658.8439 13685457
-858.37769 777.47388 1661.8358 13685457
-848.09314 777.10297 1661.043 13685457
-838.51465 777.37793 1661.6307 13685457
-830.29236 778.93164 1664.9518 13685457
-821.06787 779.57147 1666.3193 13685457
-811.68518 780.07483 1667.3954 13685457
-797.97906 776.38422 1659.5066 13685457
-788.42853 776.69495 1660.1708 13685457
-778.97394 777.10919 1661.0563 13685457
-769.60065 777.61627 1662.1401 13685457
-760.20441 778.11304 1663.202 13685457
-750.80499 778.61957 1664.2848 13685457
-741.40387 779.13794 1665.3927 13685457
-731.82385 779.47968 1666.1232 13685457
-722.6925 780.31537 1667.9093 13685457
-712.81689 780.35944 1668.0037 13685457
-664.55493 737.78827 1577.0085 13685457
-655.85352 738.5473 1578.631 13685457
-647.07489 739.24017 1580.1119 13685457
-636.89929 738.33398 1578.175 13685457
-628.52002 739.51428 1580.6979 13685457
-619.90558 740.44946 1582.6969 13685457
-611.18298 741.28235 1584.4771 13685457
-602.36053 742.01831 1586.0502 13685457
-594.39587 743.85107 1589.9678 13685457
-618.33069 786.30853 1680.7197 13685457
-608.76569 786.86053 1681.8995 13685457
-599.1958 787.4245 1683.1051 13685457
-559.01324 747.09528 1596.9021 13685457
-549.84576 747.53876 1597.8501 13685457
-540.85883 748.24768 1599.3654 13685457
-531.99078 749.14935 1601.2927 13685457
-522.65613 749.41492 1601.8604 13685457
-513.83722 750.4436 1604.0591 13685457
-504.88168 751.3078 1605.9062 13685457
-496.78418 753.50671 1610.6064 13685457
-513.11023 793.565 1696.2303 13685457
-503.45657 794.24432 1697.6824 13685457
-493.72876 794.83203 1698.9386 13685457
-483.95392 795.367 1700.0822 13685457
-474.18539 795.93542 1701.297 13685457
-464.3938 796.48907 1702.4805 13685457
-454.6178 797.0946 1703.7749 13685457
-444.82593 797.69946 1705.0676 13685457
-435.01993 798.30652 1706.3651 13685457
-425.22244 798.9585 1707.7588 13685457
-415.40451 799.60303 1709.1365 13685457
-405.59183 800.29028 1710.6055 13685457
-395.88602 801.22906 1712.6122 13685457
-386.03497 801.91589 1714.0802 13685457
-376.1358 802.53717 1715.4082 13685457
-364.50333 799.39197 1708.6852 13685457
-354.62445 800.02234 1710.0326 13685457
-344.7449 800.68823 1711.4561 13685457
-334.86005 801.38208 1712.9392 13685457
-324.93903 802.03009 1714.3243 13685457
-315.00668 802.69141 1715.7377 13685457
-305.05658 803.3501 1717.1458 13685457
-295.06458 803.94025 1718.4071 13554128
-285.0387 804.47693 1719.5544 13553872
-274.98096 804.96057 1720.588 13160397
-264.94055 805.53418 1721.8141 12766666
-232.56631 735.52026 1572.1608 12176327
-226.04956 744.84497 1592.092 12110534
-219.23248 753.95178 1611.5577 12701644
-209.65161 753.95178 1611.5577 13292240
-214.65923 808.92731 1729.067 13488848
-204.56853 809.67456 1730.6641 13554385
-194.41972 810.25867 1731.9127 13685457
-184.32542 811.14789 1733.8135 13685457
-168.02299 783.20465 1674.0853 13685457
-158.30876 784.3858 1676.6099 13685457
-148.16722 783.46606 1674.6439 13685457
-138.61888 785.77649 1679.5824 13685457
-132.76654 811.02307 1733.5466 13685457
-118.62399 785.6153 1679.2379 13685457
-108.71469 786.1499 1680.3807 13685457
-98.843796 787.09863 1682.4084 13685457
-88.901329 787.62671 1683.5374 13685457
-79.017746 788.87677 1686.2092 13685457
-69.051765 789.54779 1687.6437 13685457
-58.966942 788.85736 1686.1677 13685457
-48.97258 789.34186 1687.2035 13685457
-38.963768 789.78326 1688.147 13685457
-28.933001 789.93152 1688.4639 13685457
-18.893997 789.89288 1688.3812 13685457
-8.8606195 790.26855 1689.1841 13685457
1.1823286 790.66016 1690.0214 13685457
11.23202 790.82581 1690.3754 13685457
21.287548 791.05188 1690.8585 13685457
31.34948 791.29456 1691.3773 13685457
41.410744 791.40668 1691.6168 13685457
51.475994 791.53625 1691.8938 13685457
61.543701 791.65497 1692.1476 13685457
71.627617 791.91962 1692.7133 13685457
81.706009 792.06555 1693.0251 13685457
91.552132 790.17462 1688.9835 13685457
101.56149 789.92725 1688.4547 13685457
111.61525 790.03864 1688.6927 13685457
121.57646 789.53064 1687.6069 13685457
131.70999 790.13379 1688.896 13685457
141.8508 790.69202 1690.0895 13685457
151.95625 790.99243 1690.7316 13685457
162.04187 791.15875 1691.0869 13685457
172.0816 791.09467 1690.95 13685457
182.07434 790.8335 1690.3918 13685457
192.19414 791.12268 1691.0099 13685457
202.59247 792.4726 1693.8954 13685457
213.07751 794.01788 1697.1984 13685457
223.25591 794.3324 1697.8705 13685457
233.39172 794.47473 1698.1748 13685457
243.68504 795.1192 1699.5522 13685457
253.90553 795.48419 1700.3324 13685457
264.13251 795.8407 1701.0945 13685457
274.39117 796.26294 1701.9971 13685457
284.6297 796.59875 1702.7148 13685457
294.89697 796.9892 1703.5494 13685457
305.17804 797.38965 1704.4055 13685457
315.45087 797.74365 1705.1621 13685457
325.78641 798.22931 1706.2001 13685457
336.14499 798.7403 1707.2924 13685457
346.55832 799.34766 1708.5906 13685457
356.94046 799.85046 1709.6654 13685457
367.32947 800.34045 1710.7126 13685457
377.83722 801.05585 1712.2417 13685457
388.31509 801.672 1713.5587 13750481
398.67221 802.01355 1714.2889 13750737
409.11179 802.5 1715.3287 13750737
419.52301 802.90845 1716.2018 13750737
429.92801 803.28589 1717.0084 13750481
440.39954 803.76727 1718.0375 13685457
450.98065 804.42224 1719.4375 13685457
461.19366 804.40625 1719.4032 13685457
471.71103 804.9101 1720.4803 13685457
482.28171 805.48187 1721.7023 13685457
492.69434 805.77124 1722.3208 13685457
503.13184 806.08862 1722.9993 13685457
513.51019 806.30054 1723.4523 13685457
524.36377 807.23566 1725.4512 13685457
534.97925 807.77545 1726.605 13685457
544.93201 807.31311 1725.6167 13685457
555.3418 807.53253 1726.0856 13685457
565.80615 807.82184 1726.704 13685457
576.41394 808.302 1727.7302 13685457
586.83679 808.51044 1728.1758 13685457
597.24127 808.68683 1728.5529 13685457
607.96082 809.27667 1729.8137 13685457
618.30872 809.36047 1729.9928 13685457
628.74036 809.54932 1730.3965 13685457
639.18561 809.74921 1730.8239 13685457
649.51233 809.79523 1730.9221 13685457
659.94342 809.96783 1731.2909 13685457
670.40228 810.16864 1731.7202 13685457
680.8371 810.33466 1732.0751 13685457
691.32275 810.55542 1732.5471 13685457
699.94391 808.61584 1728.4011 13685457
712.26459 810.94427 1733.3782 13685457
722.6601 811.04584 1733.5952 13685457
733.00104 811.08398 1733.6769 13685457
743.34528 811.12476 1733.7639 13685457
753.75421 811.23401 1733.9976 13685457
764.18506 811.36371 1734.2747 13685457
774.59052 811.4632 1734.4873 13685457
784.89844 811.45935 1734.4791 13685457
794.51044 810.74542 1732.953 13685457
805.05792 810.99207 1733.4802 13685457
814.95154 810.58221 1732.6042 13685457
826.34924 811.65985 1734.9077 13685457
836.4964 811.49786 1734.5614 13685457
846.78363 811.47406 1734.5105 13685457
856.98181 811.36639 1734.2804 13685457
867.18536 811.26636 1734.0667 13685457
877.41205 811.19006 1733.9036 13685457
887.55194 811.03625 1733.5748 13685457
897.48279 810.6972 1732.85 13685457
907.59473 810.52747 1732.4872 13685457
917.91199 810.54291 1732.5201 13685457
928.67529 810.94745 1733.3849 13685457
938.52551 810.5545 1732.545 13685457
948.52252 810.29565 1731.9917 13685457
958.95093 810.40674 1732.2292 13685457
968.41473 809.70911 1730.7379 13685457
979.00745 809.9599 1731.2742 13685457
988.90533 809.63684 1730.5836 13685457
999.34821 809.76196 1730.851 13685457
1006.9567 807.61121 1726.2539 13685457
1017.5374 807.86371 1726.7935 13685457
1026.8375 807.10461 1725.1709 13685457
1036.9279 806.9754 1724.8948 13685457
1047.6224 807.31445 1725.6194 13685457
1059.8159 808.79071 1728.7749 13685457
1066.9431 806.40948 1723.6851 13685457
1077.016 806.27869 1723.4056 13685457
1088.9854 807.55688 1726.1377 13685457
1098.7322 807.17834 1725.3286 13685457
1105.095 804.34387 1719.2698 13685457
1116.0033 804.83936 1720.329 13685455
1126.1801 804.80298 1720.2513 13685455
1135.7881 804.36456 1719.3142 13685455
1144.0771 803.00824 1716.415 13685455
1153.9238 802.75946 1715.8833 13619919
1163.3895 802.25238 1714.7994 13619663
1170.5806 800.19916 1710.4106 13685455
1232.9014 835.54297 1785.9574 13685455
1242.5406 834.88556 1784.5522 13685455
1252.4064 834.3902 1783.4933 13685454
1209.6359 799.12964 1708.1245 13685457
1220.0527 799.30121 1708.4913 13685457
1228.8121 798.39307 1706.5502 13685457
1237.0968 797.19385 1703.9869 13685457
1245.8406 796.30768 1702.0927 13685457
1254.5547 795.41681 1700.1886 13685457
1263.3718 794.6051 1698.4535 13685457
1276.5031 796.49811 1702.4996 13685457
1285.2213 795.62927 1700.6427 13685457
1295.3638 795.64893 1700.6847 13685457
1298.3395 791.30042 1691.3896 13685457
1308.4294 791.32129 1691.4343 13685457
1316.5076 790.13434 1688.8972 13685457
1326.394 790.04254 1688.701 13685457
1334.1478 788.69122 1685.8127 13685457
1343.0509 788.03448 1684.4089 13685457
1350.5331 786.56 1681.2573 13685457
1358.374 785.31451 1678.5951 13685457
1367.8218 785.00934 1677.9429 13685457
1375.7135 783.8222 1675.4052 13685457
1441.9297 815.64392 1743.4235 13685457
1451.3442 815.11011 1742.2826 13685457
1460.0619 814.19543 1740.3275 13685457
1468.6456 813.21942 1738.2412 13685457
1477.4805 812.39508 1736.4792 13685457
1486.1925 811.51514 1734.5984 13685457
1494.3348 810.33838 1732.083 13685457
1503.7869 809.88312 1731.11 13685457
1511.5508 808.53107 1728.2198 13685457
1520.975 808.07928 1727.2543 13685457
1529.438 807.1264 1725.2175 13685457
1537.7454 806.10461 1723.0334 13685457
1545.9924 805.06488 1720.811 13684945
1553.4222 803.61615 1717.7144 13619921
1561.609 802.57526 1715.4896 13685457
1569.6969 801.49744 1713.1858 13685457
1578.0879 800.58728 1711.2404 13685457
1590.2341 801.58167 1713.3657 13685457
1593.547 798.1391 1706.0074 13685457
1607.8054 800.18774 1710.3862 13685457
1612.0402 797.25317 1704.1136 13685457
1621.6638 797.00366 1703.5804 13685457
1515.3896 740.15039 1582.0575 13685457
1523.791 739.6629 1581.0156 13685457
1531.0779 738.6438 1578.8373 13685457
0 0 0 0
0 0 0 0
0 0 0 0
0 0 0 0
0 0 0 0
0 0 0 0
0 0 0 0
0 0 0 0
0 0 0 0
0 0 0 0
0 0 0 0
0 0 0 0
0 0 0 0
0 0 0 0
0 0 0 0
0 0 0 0
-1080.2758 615.45264 1299.0112 8227734
-1073.5176 616.0061 1300.1794 8227734
-1069.46 618.12854 1304.6591 8359320
-1063.1304 618.95911 1306.4122 7701390
-1065.8466 625.1073 1319.3889 7504011
-1071.451 633.0531 1336.1598 6319737
-1066.0406 634.56097 1339.3424 5793392
-1058.7002 634.93402 1340.1299 4082773
-1104.7332 667.56512 1409.0029 463643
-1118.5784 681.09589 1437.5618 528666
-1120.5389 687.54279 1451.1691 397078
-1116.826 690.58167 1457.583 790296
-1110.6743 692.14813 1460.8893 791581
-1105.1622 694.14111 1465.0958 922911
-1098.8772 695.67633 1468.3362 1054242
-1091.6857 696.65778 1470.4076 1054242
-1081.9976 696.04901 1469.1227 1120296
-1073.9393 696.4873 1470.0479 2502467
-1053.6228 688.9176 1454.0708 5925245
-1047.8988 690.84302 1458.1348 10071230
-1012.1952 672.87122 1420.2023 11059405
-1006.1324 674.46698 1423.5704 11323602
-1000.8766 676.63538 1428.1472 11455440
-992.18243 676.49646 1427.854 11126478
-978.02386 672.59729 1419.6241 10994634
-969.03333 672.21521 1418.8177 10929095
-961.42493 672.79364 1420.0386 11652046
-940.67743 664.10632 1401.7026 12505810
-1061.1698 755.86853 1595.3813 12833489
-1053.678 757.30084 1598.4045 13095634
-1047.2213 759.50995 1603.0671 13226702
-1038.9568 760.4364 1605.0227 13291982
-1031.2461 761.78931 1607.8782 13357776
-1023.1332 762.86761 1610.1541 13488336
-1015.2258 764.12079 1612.7991 13488592
-1006.8638 765.05255 1614.7657 13685457
-999.27136 766.59259 1618.0164 13685457
-991.85364 768.29797 1621.6157 13685457
-982.31122 768.37482 1621.778 13685457
-974.02405 769.44476 1624.0361 13685457
-966.22546 770.92596 1627.1626 13685457
-957.72015 771.86761 1629.15 13685457
-949.76093 773.27301 1632.1163 13685457
-941.00525 774.05237 1633.7614 13685457
-931.69098 774.38367 1634.4606 13685457
-922.13721 774.52075 1634.75 13685457
-912.89636 774.92651 1635.6063 13685457
-903.73376 775.40802 1636.6227 13685457
-894.54449 775.87689 1637.6123 13685457
-886.13715 777.04175 1640.0709 13685457
-877.11035 777.68329 1641.4249 13685457
-867.15436 777.50616 1641.0511 13685457
-857.896 777.95764 1642.004 13685457
-849.06604 778.81238 1643.8081 13685457
-839.87488 779.35193 1644.947 13685457
-830.64923 779.87177 1646.0442 13685457
-821.53912 780.51385 1647.3994 13685457
-812.25122 781.00043 1648.4264 13685457
-799.43939 778.06927 1642.2396 13685457
-789.97577 778.36444 1642.8627 13685457
-780.52734 778.68219 1643.5333 13685457
-771.16229 779.09235 1644.3989 13685457
-761.81769 779.53381 1645.3309 13685457
-752.45801 779.97125 1646.2542 13685457
-743.14667 780.47095 1647.3087 13685457
-733.82159 780.96942 1648.3608 13685457
-724.5744 781.56531 1649.6187 13685457
-715.30249 782.15051 1650.8538 13685457
-705.79688 782.49292 1651.5765 13685457
-696.44098 783.01337 1652.675 13685457
-649.30206 740.46112 1562.8617 13685457
-640.90936 741.50092 1565.0563 13685457
-630.90314 740.67694 1563.3171 13685457
-622.77411 742.06512 1566.2472 13685457
-614.04559 742.77032 1567.7356 13685457
-605.4682 743.68286 1569.6616 13685457
-630.97064 787.13885 1661.3823 13685457
-621.67322 787.87335 1662.9327 13685457
-612.24377 788.46173 1664.1746 13685457
-602.76776 789.00848 1665.3285 13685457
-561.19904 746.86328 1576.3745 13685457
-552.37457 747.60388 1577.9376 13685457
-543.41815 748.18848 1579.1715 13685457
-534.82404 749.30127 1581.5201 13685457
-526.41962 750.72424 1584.5236 13685457
-517.18353 750.99146 1585.0876 13685457
-508.78775 752.5116 1588.296 13685457
-524.83545 790.92529 1669.3744 13685457
-517.43951 794.80939 1677.5724 13685457
-507.8439 795.401 1678.8212 13685457
-498.25452 796.02631 1680.1407 13685457
-488.61209 796.5907 1681.332 13685457
-478.9614 797.16479 1682.5438 13685457
-469.28668 797.72266 1683.7213 13685457
-459.59857 798.28162 1684.901 13685457
-449.9252 798.8916 1686.1885 13685457
-440.21793 799.46777 1687.4045 13685457
-430.50397 800.05847 1688.6512 13685457
-420.82861 800.75067 1690.1124 13685457
-411.15488 801.47998 1691.6517 13685457
-401.47192 802.22748 1693.2295 13685457
-391.87924 803.19849 1695.2788 13685457
-382.16003 803.95453 1696.8746 13685457
-370.72595 801.04608 1690.736 13685457
-360.93741 801.63037 1691.9691 13685457
-351.18884 802.33942 1693.4657 13685457
-341.43216 803.07123 1695.0103 13685457
-331.66556 803.82355 1696.5981 13685457
-321.87198 804.55554 1698.1432 13685457
-312.06537 805.30139 1699.7174 13685457
-302.23959 806.04602 1701.2889 13685457
-292.37729 806.74139 1702.7567 13554385
-282.37683 807.0918 1703.4963 13423312
-272.4838 807.7868 1704.9631 13029324
-238.8566 735.45618 1552.2979 12372680
-239.71732 767.77026 1620.502 12241351
-231.64224 772.97247 1631.4821 12438473
-213.71355 744.31158 1570.9886 12964044
-222.80757 811.44543 1712.6854 13160654
-212.80823 812.14288 1714.1573 13357775
-202.77068 812.7572 1715.4541 13554385
-192.71243 813.34937 1716.7039 13685457
-182.66847 814.07135 1718.2278 13685457
-172.59334 814.73181 1719.6217 13685457
-156.29494 784.2486 1655.282 13685457
-151.84512 813.11676 1716.213 13685457
-141.70293 813.46613 1716.9503 13685457
-131.59898 814.10645 1718.3018 13685457
-121.46877 814.67816 1719.5085 13685457
-107.74638 789.04877 1665.4137 13685457
-97.90451 789.52594 1666.4209 13685457
-88.204796 791.38611 1670.3469 13685457
-78.381516 792.46881 1672.6322 13685457
-68.511421 793.32422 1674.4376 13685457
-58.587639 793.74298 1675.3215 13685457
-48.644154 794.01166 1675.8885 13685457
-38.620403 792.77118 1673.2704 13685457
-28.668215 792.64856 1673.0116 13685457
-18.727449 792.87921 1673.4984 13685457
-8.7821035 793.21906 1674.2158 13685457
1.1716933 793.50507 1674.8193 13685457
11.132812 793.80139 1675.4449 13685457
21.097525 793.95319 1675.7651 13685457
31.067381 794.13898 1676.1573 13685457
41.036533 794.22095 1676.3303 13685457
51.009472 794.3299 1676.5603 13685457
60.986969 794.46252 1676.8403 13685457
70.842934 793.19714 1674.1696 13685457
80.785362 793.09247 1673.9485 13685457
90.70649 792.82446 1673.3829 13685457
100.64544 792.74988 1673.2255 13685457
110.60077 792.80609 1673.3441 13685457
120.55 792.81287 1673.3584 13685457
130.34203 791.86359 1671.3549 13685457
140.507 793.15417 1674.0787 13685457
150.54529 793.60608 1675.0325 13685457
160.52289 793.70184 1675.2346 13685457
170.49782 793.77405 1675.3871 13685457
180.49458 793.93427 1675.7252 13685457
190.52051 794.19928 1676.2847 13685457
200.69551 795.0285 1678.0348 13685457
210.98146 796.19788 1680.5029 13685457
221.12575 796.75104 1681.6705 13685457
231.23747 797.14417 1682.5002 13685457
241.35614 797.52771 1683.3097 13685457
251.42514 797.72296 1683.7219 13685457
261.59753 798.21881 1684.7686 13685457
271.7793 798.70569 1685.796 13685457
281.93448 799.08252 1686.5914 13685457
292.14896 799.59576 1687.6747 13685457
302.36374 800.07574 1688.6877 13685457
312.60678 800.59723 1689.7885 13685457
322.87805 801.15631 1690.9686 13685457
333.17157 801.73517 1692.1903 13685457
343.54181 802.45923 1693.7186 13685457
353.88657 803.08429 1695.038 13685457
364.22104 803.6521 1696.2362 13685457
374.65738 804.40796 1697.8315 13685457
384.66989 804.23816 1697.4731 13750481
395.35638 805.45001 1700.031 13750737
405.7493 806.01813 1701.2302 13750737
416.10504 806.48676 1702.2194 13750737
426.50568 807.01801 1703.3406 13750481
436.88873 807.49225 1704.3414 13685457
447.15808 807.7395 1704.8634 13685457
457.53922 808.17316 1705.7787 13685457
467.97217 808.67761 1706.8435 13685457
478.47748 809.28308 1708.1215 13685457
488.82104 809.59552 1708.7808 13685457
499.11154 809.80908 1709.2316 13685457
509.51334 810.19104 1710.0378 13685457
520.21698 811.02875 1711.8059 13685457
530.01929 810.45605 1710.597 13685457
540.27527 810.58557 1710.8705 13685457
550.6496 810.88446 1711.5015 13685457
561.13776 811.33734 1712.4572 13685457
571.69196 811.86774 1713.5767 13685457
581.9726 811.9978 1713.8512 13685457
592.02539 811.8111 1713.457 13685457
602.85278 812.6748 1715.28 13685457
613.12732 812.77686 1715.4955 13685457
623.48828 812.98828 1715.9418 13685457
633.9314 813.29834 1716.5962 13685457
644.25311 813.44531 1716.9065 13685457
654.6377 813.66583 1717.3718 13685457
665.03638 813.89679 1717.8594 13685457
675.41479 814.0965 1718.2808 13685457
685.83264 814.33679 1718.7881 13685457
695.27802 813.43243 1716.8793 13685457
706.59711 814.71478 1719.5858 13685457
716.86243 814.7627 1719.687 13685457
727.19727 814.88721 1719.9498 13685457
737.47791 814.94843 1720.079 13685457
747.78906 815.0412 1720.2749 13685457
757.99908 815.02271 1720.2358 13685457
768.36688 815.17212 1720.5511 13685457
778.48151 815.05255 1720.2988 13685457
788.1759 814.50177 1719.1362 13685457
799.01685 815.13483 1720.4724 13685457
809.1756 815.06482 1720.3246 13685457
819.76941 815.42914 1721.0935 13685457
829.97565 815.40375 1721.04 13685457
840.10706 815.30634 1720.8344 13685457
850.19214 815.16687 1720.5402 13685457
860.27448 815.02814 1720.2472 13685457
870.43884 814.96948 1720.1234 13685457
880.51428 814.8299 1719.8287 13685457
890.67767 814.77393 1719.7107 13685457
900.76904 814.65411 1719.4579 13685457
911.03949 814.69714 1719.5486 13685457
921.23114 814.66956 1719.4904 13685457
931.44073 814.6582 1719.4664 13685457
979.21393 847.14447 1788.0338 13685457
989.78229 847.09161 1787.9224 13685457
1002.6023 848.94653 1791.8375 13685457
1013.7142 849.3313 1792.6495 13685457
1021.7947 847.19458 1788.1398 13685457
1032.3417 847.12598 1787.9949 13685457
1042.325 846.60095 1786.8866 13685457
1011.127 812.97546 1715.9147 13685457
1019.396 811.43738 1712.6683 13685457
1029.3965 811.29431 1712.3665 13685457
1039.9862 811.61395 1713.041 13685457
1051.9927 813.02228 1716.0135 13685457
1105.161 845.90961 1785.4275 13685457
1115.7068 845.85754 1785.3175 13685457
1080.572 811.50055 1712.8018 13685457
1091.8724 812.33209 1714.5569 13685457
1098.2144 809.49335 1708.5652 13685457
1107.7416 809.03296 1707.5934 13685455
1117.0259 808.40509 1706.2683 13685455
1127.9899 808.99329 1707.5096 13685455
1135.972 807.45148 1704.2554 13685455
1145.2584 806.85565 1702.9979 13619919
1153.7422 805.7099 1700.5796 13685199
1161.9106 804.36578 1697.7426 13685455
1229.316 843.70001 1780.7638 13685455
1182.0255 804.31702 1697.6396 13685455
1189.4392 802.50952 1693.8247 13685454
1200.1223 802.91974 1694.6906 13685457
1210.7273 803.2713 1695.4326 13685457
1219.799 802.60815 1694.033 13685457
1227.9996 801.38739 1691.4563 13685457
1237.4193 800.97565 1690.5873 13685457
1245.715 799.84882 1688.2087 13685457
1254.4309 799.00757 1686.4333 13685457
1265.6931 799.7887 1688.082 13685457
1274.5405 799.04376 1686.5096 13685457
1280.3225 796.4035 1680.937 13685457
1288.7698 795.44934 1678.923 13685457
1297.4985 794.68207 1677.3036 13685457
1306.9517 794.36688 1676.6383 13685457
1316.6648 794.2132 1676.3141 13685457
1323.5454 792.36621 1672.4156 13685457
1332.0687 791.52289 1670.6356 13685457
1340.5171 790.64771 1668.7886 13685457
1348.3383 789.41821 1666.1935 13685457
1357.7283 789.11853 1665.5609 13685457
1365.8333 788.08167 1663.3724 13685457
1439.533 824.63574 1740.5256 13685457
1448.1057 823.62622 1738.3949 13685457
1456.8325 822.71808 1736.478 13685457
1465.7345 821.92096 1734.7957 13685457
1474.7802 821.21503 1733.3055 13685457
1483.6986 820.44849 1731.6876 13685457
1491.7645 819.2243 1729.1039 13685457
1501.1647 818.74451 1728.0913 13685457
1509.8522 817.88538 1726.2778 13685457
1518.4569 816.99316 1724.3948 13685457
1526.275 815.69257 1721.6497 13685457
1535.2098 815.0022 1720.1924 13685457
1543.5984 814.03278 1718.1464 13619665
1550.9624 812.53943 1714.9944 13619665
1559.2366 811.53925 1712.8834 13685457
1567.3635 810.47595 1710.6392 13685457
1576.0103 809.69342 1708.9874 13685457
1584.9558 809.07336 1707.6787 13685457
1591.3835 807.1842 1703.6914 13685457
1611.3853 812.16034 1714.1943 13685457
1610.2875 806.50635 1702.2607 13685457
1619.6733 806.14093 1701.4894 13685457
1499.9536 741.92072 1565.9423 13685457
1508.4032 741.49792 1565.0499 13685457
1515.8223 740.57684 1563.1058 13685457
0 0 0 0
0 0 0 0
0 0 0 0
0 0 0 0
0 0 0 0
0 0 0 0
0 0 0 0
0 0 0 0
0 0 0 0
0 0 0 0
0 0 0 0
0 0 0 0
0 0 0 0
0 0 0 0
0 0 0 0
0 0 0 0
-1079.3829 622.66034 1297.9376 8293527
-1073.4873 623.71826 1300.1428 8293527
-1068.1033 625.09094 1303.0042 8227735
-1062.1644 626.15649 1305.2253 7635597
-1062.157 630.76013 1314.8217 7109253
-1064.0511 636.56964 1326.9316 6056565
-1064.4171 641.54492 1337.3026 5661805
-1069.4767 649.44531 1353.771 67341
-1101.2134 673.78821 1404.5138 726302
-1108.593 683.48596 1424.7289 462873
-1104.1747 686.00336 1429.9763 791580
-1110.6002 695.34906 1449.4575 1053725
-1103.1395 696.07886 1450.9788 922911
-1098.2272 698.44067 1455.902 988704
-1090.8885 699.28491 1457.6617 1054241
-1083.687 700.23114 1459.6342 1251881
-1072.1392 698.36151 1455.7371 1251884
-1074.1158 705.34277 1470.2894 3226701
-1041.2357 689.36115 1436.9757 10400706
-987.73083 659.34747 1374.412 11191245
-1001.7753 674.30078 1405.5823 11586772
-1001.6561 679.89191 1417.2369 11390415
-1087.4927 744.41681 1551.7394 11127243
-982.65253 678.40588 1414.1394 10995656
-970.47443 675.78009 1408.6659 11389898
-959.08575 673.66302 1404.2529 12112080
-952.54852 674.94641 1406.9281 12768210
-1060.6138 758.1756 1580.4196 12964562
-1054.7217 760.70258 1585.6871 13226962
-1047.0978 762.01483 1588.4225 13292240
-1040.613 764.18744 1592.9514 13423056
-1032.7556 765.38281 1595.4431 13423056
-1025.1018 766.7525 1598.2982 13488592
-1016.8883 767.72528 1600.326 13554385
-1007.9973 768.20013 1601.3159 13554385
-999.45697 768.95392 1602.8871 13685457
-990.88678 769.69891 1604.4399 13685457
-982.61676 770.69379 1606.5139 13685457
-974.02765 771.45557 1608.1018 13685457
-965.89569 772.59808 1610.4834 13685457
-957.36633 773.4425 1612.2435 13685457
-948.95868 774.4032 1614.2461 13685457
-940.98279 775.7395 1617.0316 13685457
-932.47717 776.66223 1618.9551 13685457
-923.51154 777.21698 1620.1115 13685457
-914.59509 777.82532 1621.3795 13685457
-905.35577 778.16901 1622.0959 13685457
-896.21814 778.60852 1623.0121 13685457
-887.03827 779.02045 1623.8708 13685457
-877.91107 779.48834 1624.8461 13685457
-868.90631 780.07642 1626.0719 13685457
-859.71033 780.50421 1626.9637 13685457
-850.63031 781.04816 1628.0977 13685457
-841.6051 781.65552 1629.3636 13685457
-832.48419 782.18719 1630.4719 13685457
-823.29291 782.66449 1631.4668 13685457
-813.85254 782.91345 1631.9858 13685457
-801.13049 779.97351 1625.8574 13685457
-791.8399 780.34332 1626.6283 13685457
-782.45642 780.6297 1627.2252 13685457
-773.09198 780.94238 1627.877 13685457
-763.80988 781.34717 1628.7209 13685457
-754.58575 781.82251 1629.7118 13685457
-745.35303 782.30121 1630.7096 13685457
-736.16516 782.84027 1631.8331 13685457
-726.97571 783.39191 1632.9832 13685457
-717.85046 784.02863 1634.3104 13685457
-708.66675 784.6181 1635.5392 13685457
-699.47882 785.21924 1636.7922 13685457
-689.98596 785.4903 1637.3572 13685457
-642.15027 741.49432 1545.6475 13685457
-633.83258 742.51501 1547.7751 13685457
-623.4549 741.11713 1544.8612 13685457
-615.05328 742.06146 1546.8297 13685457
-606.51685 742.86932 1548.5137 13685457
-599.21259 745.23456 1553.4441 13685457
-624.90479 789.35364 1645.4104 13685457
-615.65778 790.04028 1646.8418 13685457
-606.09552 790.3382 1647.4626 13685457
-563.53503 746.90985 1556.9362 13685457
-554.89709 747.74292 1558.6726 13685457
-546.25751 748.60199 1560.4634 13685457
-537.5141 749.34601 1562.0144 13685457
-528.81134 750.17383 1563.74 13685457
-519.97485 750.83826 1565.1249 13685457
-512.11493 752.96271 1569.5533 13685457
-503.70758 754.34607 1572.437 13685457
-494.15445 754.03357 1571.7855 13685457
-512.22766 796.6767 1660.6753 13685457
-502.74734 797.29926 1661.973 13685457
-493.27252 797.95557 1663.3412 13685457
-483.75388 798.56653 1664.6146 13685457
-474.22446 799.18481 1665.9034 13685457
-464.67593 799.79651 1667.1786 13685457
-455.12137 800.42444 1668.4874 13685457
-445.56912 801.08435 1669.863 13685457
-436.00458 801.75177 1671.2543 13685457
-426.42499 802.422 1672.6514 13685457
-416.82327 803.0816 1674.0265 13685457
-407.2153 803.76111 1675.4429 13685457
-397.61841 804.49713 1676.9771 13685457
-386.44467 801.9986 1671.7688 13685457
-376.84433 802.7196 1673.2717 13685457
-367.19843 803.38 1674.6484 13685457
-357.49997 803.95911 1675.8555 13685457
-347.83484 804.64844 1677.2924 13685457
-338.17422 805.38916 1678.8365 13685457
-328.5051 806.15424 1680.4312 13685457
-318.80341 806.88464 1681.9539 13685457
-309.08755 807.62555 1683.4982 13685457
-299.30841 808.24493 1684.7894 13685457
-289.50534 808.84058 1686.0309 13554128
-279.70386 809.4834 1687.371 13423055
-269.93707 810.27832 1689.028 12963531
-238.46532 743.46484 1549.755 12897995
-237.18192 769.18201 1603.3625 12832460
-222.46567 751.66595 1566.8503 12373706
-211.40678 745.51654 1554.0319 11585989
-203.12065 749.02985 1561.3553 11585988
-196.47594 759.22247 1582.6018 12766668
-201.00056 815.77173 1700.4789 13422800
-191.06113 816.49847 1701.9939 13554128
-181.11571 817.27954 1703.6221 13685457
-171.12473 817.93542 1704.9893 13685457
-161.05832 818.29065 1705.7296 13685457
-151.05888 819.05676 1707.3267 13685457
-140.48987 816.62244 1702.2523 13685457
-130.46013 817.18811 1703.4314 13685457
-120.42829 817.83496 1704.7797 13685457
-106.69309 791.13959 1649.1333 13685457
-96.902359 791.25006 1649.3634 13685457
-87.199348 792.18219 1651.3066 13685457
-77.3983 792.34735 1651.6508 13685457
-67.600502 792.59857 1652.1744 13685457
-57.819057 793.15955 1653.3438 13685457
-48.016766 793.60571 1654.2738 13685457
-38.196789 793.91418 1654.9169 13685457
-28.371279 794.28174 1655.6831 13685457
-18.536665 794.6496 1656.4498 13685457
-8.6933832 795.05853 1657.3022 13685457
1.160151 795.54712 1658.3208 13685457
11.024232 795.92291 1659.104 13685457
20.891315 796.05817 1659.386 13685457
30.762896 796.22314 1659.7297 13685457
40.634544 796.3092 1659.9093 13685457
50.508957 796.40527 1660.1095 13685457
60.28791 795.21075 1657.6196 13685457
70.160278 795.41107 1658.037 13685457
80.035126 795.58655 1658.4028 13685457
89.868645 795.35773 1657.926 13685457
99.698235 795.14288 1657.478 13685457
109.47283 794.56757 1656.2788 13685457
119.45816 795.4906 1658.2028 13685457
129.03513 793.76056 1654.5967 13685457
139.12329 795.19775 1657.5924 13685457
149.17354 796.24225 1659.7698 13685457
159.0961 796.51794 1660.3445 13685457
168.98878 796.62061 1660.5585 13685457
178.97867 797.14496 1661.6514 13685457
188.93477 797.47168 1662.3325 13685457
199.03339 798.33765 1664.1376 13685457
209.20346 799.39465 1666.3408 13685457
219.23907 799.8656 1667.3225 13685457
229.27342 800.29114 1668.2097 13685457
239.31476 800.70496 1669.0723 13685457
249.36766 801.12299 1669.9436 13685457
259.43134 801.54211 1670.8174 13685457
269.51382 801.98651 1671.7437 13685457
279.5625 802.30225 1672.4017 13685457
289.67957 802.78564 1673.4095 13685457
299.84317 803.36188 1674.6106 13685457
310.00766 803.90326 1675.739 13685457
320.19205 804.46082 1676.9014 13685457
330.39001 805.01794 1678.0626 13685457
340.61893 805.61554 1679.3083 13685457
350.85223 806.18921 1680.5042 13685457
361.08514 806.73022 1681.632 13685457
371.45132 807.5318 1683.3029 13685457
381.14496 806.86755 1681.9182 13750481
392.12164 808.88403 1686.1216 13750737
402.28531 809.16455 1686.7064 13750737
412.55347 809.63666 1687.6903 13750737
422.87363 810.18591 1688.8353 13750737
433.16348 810.65295 1689.809 13685457
443.38687 810.97729 1690.485 13685457
453.72079 811.48492 1691.5431 13685457
464.08017 812.01508 1692.6482 13685457
474.49884 812.62427 1693.9181 13685457
484.7905 812.99518 1694.6912 13685457
495.09689 813.37518 1695.4833 13685457
504.77719 812.73181 1694.1423 13685457
515.26648 813.39087 1695.5161 13685457
525.66241 813.88007 1696.5358 13685457
536.10883 814.42737 1697.6768 13685457
546.4198 814.75269 1698.3547 13685457
556.75885 815.10718 1699.0936 13685457
566.75659 814.95837 1698.7834 13685457
577.40002 815.72687 1700.3854 13685457
587.63721 815.90485 1700.7565 13685457
598.00897 816.26062 1701.498 13685457
608.29474 816.48901 1701.9742 13685457
618.59351 816.72717 1702.4706 13685457
628.94739 817.0293 1703.1003 13685457
639.24194 817.24597 1703.552 13685457
649.49579 817.40454 1703.8826 13685457
659.78748 817.60522 1704.3009 13685457
670.06165 817.77856 1704.6621 13685457
680.39948 818.02313 1705.172 13685457
688.97333 816.17084 1701.311 13685457
701.02032 818.427 1706.014 13685457
711.19763 818.46716 1706.0977 13685457
721.48541 818.63159 1706.4403 13685457
731.65253 818.65637 1706.4921 13685457
741.88556 818.7533 1706.694 13685457
752.05371 818.77686 1706.7432 13685457
762.42438 819.01733 1707.2445 13685457
772.71765 819.16949 1707.5618 13685457
782.30707 818.58124 1706.3354 13685457
793.15265 819.30573 1707.8456 13685457
803.30597 819.30573 1707.8456 13685457
813.18372 819.02826 1707.2671 13685457
823.69299 819.38568 1708.0122 13685457
833.77228 819.31195 1707.8585 13685457
843.81342 819.20294 1707.6315 13685457
853.83398 819.0769 1707.3685 13685457
864.00641 819.09772 1707.412 13685457
874.0484 818.99579 1707.1996 13685457
884.05048 818.85938 1706.915 13685457
894.02319 818.69891 1706.5808 13685457
942.43744 853.34991 1778.8109 13685457
955.28131 855.38141 1783.0454 13685457
966.18591 855.65076 1783.6069 13685457
976.92401 855.76855 1783.8524 13685457
987.46533 855.7132 1783.7371 13685457
996.4184 854.2973 1780.7856 13685457
1007.0297 854.31793 1780.8286 13685457
1017.917 854.56989 1781.3539 13685457
1028.0975 854.22943 1780.6442 13685457
1038.3201 853.93042 1780.0209 13685457
1048.7148 853.77759 1779.7024 13685457
1058.7233 853.31665 1778.7415 13685457
1069.1438 853.1936 1778.4849 13685457
1079.5731 853.07977 1778.2477 13685457
1090.5864 853.42523 1778.9679 13685457
1101.0642 853.349 1778.8088 13685457
1110.3698 852.37439 1776.7773 13685457
1120.3663 851.94354 1775.8792 13685457
1130.6891 851.7666 1775.5103 13685457
1092.3287 815.25818 1699.4084 13685457
1102.5571 815.35071 1699.6014 13685456
1110.547 813.80127 1696.3716 13685455
1171.3297 850.61786 1773.1158 13685455
1181.0828 850.05048 1771.9332 13685455
1137.3751 811.35657 1691.2755 13685455
1145.4954 809.98865 1688.4241 13684943
1153.3304 808.44458 1685.2054 13685455
1162.2026 807.64777 1683.5446 13685455
1172.0326 807.52454 1683.2877 13685455
1181.5665 807.20111 1682.6135 13685455
1191.5486 807.18683 1682.5836 13685457
1261.7103 847.60052 1766.8263 13685457
1270.5358 846.4823 1764.4952 13685457
1279.6738 845.58881 1762.6328 13685457
1290.381 845.7384 1762.9446 13685457
1235.778 803.42493 1674.7421 13685457
1244.865 802.86414 1673.5731 13685457
1252.599 801.44666 1670.6182 13685457
1261.9055 801.04962 1669.7906 13685457
1270.6263 800.28973 1668.2068 13685457
1279.3206 799.52527 1666.613 13685457
1287.9034 798.70337 1664.8999 13685457
1297.531 798.53699 1664.553 13685457
1307.2062 798.4021 1664.2719 13685457
1310.6907 794.5166 1656.1726 13685457
1326.319 797.99548 1663.4243 13685457
1330.7925 794.76117 1656.6824 13685457
1338.5109 793.49805 1654.0494 13685457
1347.6539 793.09174 1653.2025 13685457
1426.1577 833.21442 1736.8384 13685457
1436.3418 833.13232 1736.6672 13685457
1445.1927 832.28357 1734.8979 13685457
1454.0348 831.44189 1733.1434 13685457
1462.9078 830.62952 1731.4502 13685457
1472.0271 829.96741 1730.0698 13685457
1480.4745 828.93823 1727.9246 13685457
1489.0469 827.9928 1725.9539 13685457
1498.5461 827.57208 1725.0769 13685457
1507.2397 826.71533 1723.2909 13685457
1515.8969 825.85016 1721.4874 13685457
1523.704 824.53662 1718.7494 13685457
1532.6313 823.84283 1717.3032 13685457
1541.2218 822.97827 1715.5011 13619665
1548.5201 821.4397 1712.2938 13619665
1556.7255 820.39911 1710.1249 13685457
1565.0901 819.45544 1708.1577 13685457
1574.0386 818.82776 1706.8492 13685457
1581.3829 817.37903 1703.8293 13685457
1589.4023 816.29535 1701.5704 13685457
1597.5518 815.29175 1699.4784 13685457
1608.2936 815.61536 1700.1531 13685457
1617.6948 815.2594 1699.4111 13685457
1483.8591 743.16968 1549.1398 13685457
1492.4702 742.8717 1548.5186 13685457
1500.2205 742.15149 1547.0173 13685457
0 0 0 0
0 0 0 0
0 0 0 0
0 0 0 0
0 0 0 0
0 0 0 0
0 0 0 0
0 0 0 0
0 0 0 0
0 0 0 0
0 0 0 0
0 0 0 0
0 0 0 0
0 0 0 0
0 0 0 0
0 0 0 0
-1077.6597 629.3703 1295.8654 8161941
-1072.3545 630.78137 1298.7709 8096149
-1066.9178 632.13495 1301.5579 8096148
-1061.7042 633.64148 1304.6598 7372425
-1060.416 637.53027 1312.6666 6780288
-1060.5228 642.32141 1322.5316 5793393
-1064.8973 649.78839 1337.906 857371
-1092.1223 671.41577 1382.4365 660510
-1095.3452 678.50317 1397.0294 463130
-1105.2498 689.86945 1420.4324 725532
-1100.8047 692.38501 1425.6119 857116
-1097.0134 695.35406 1431.7252 1053725
-1091.6886 697.38995 1435.9171 922911
-1088.807 701.03101 1443.4139 1120036
-1079.0134 700.2442 1441.7939 1186346
-1068.3378 698.8678 1438.96 857897
-1048.1306 691.18365 1423.1384 3225673
-1046.7751 695.90735 1432.8644 8294050
0 0 0 0
-994.36334 672.00073 1383.641 11257547
-1098.7052 748.70966 1541.5837 11520975
-987.6308 678.67957 1397.3926 11521486
-979.30646 678.66797 1397.3688 11718351
-961.07758 671.73352 1383.0908 12177874
-1070.7312 754.83276 1554.191 12505553
-1067.74 759.27618 1563.34 12767954
-1062.0592 761.86823 1568.677 13030098
-1055.4661 763.84601 1572.7491 13095635
-1048.2605 765.41187 1575.9733 13095376
-1040.9897 766.95795 1579.1567 13226960
-1032.9076 767.92908 1581.1561 13423312
-1026.0199 769.81409 1585.0374 13357776
-1017.8148 770.73645 1586.9365 13554385
-1009.9586 771.94281 1589.4204 13554385
-1002.2093 773.25439 1592.121 13619921
-993.8302 774.10046 1593.863 13685457
-984.98987 774.6001 1594.8917 13685457
-976.16864 775.12457 1595.9717 13685457
-967.50403 775.78497 1597.3314 13685457
-958.90387 776.51074 1598.8257 13685457
-950.1908 777.15857 1600.1595 13685457
-941.32971 777.6972 1601.2687 13685457
-932.63605 778.3866 1602.6881 13685457
-923.93988 779.08813 1604.1326 13685457
-915.12708 779.70496 1605.4026 13685457
-906.14398 780.18817 1606.3975 13685457
-897.16974 780.68933 1607.4293 13685457
-888.06781 781.08893 1608.2522 13685457
-878.93054 781.46588 1609.0283 13685457
-869.76044 781.82159 1609.7607 13685457
-860.72668 782.3092 1610.7646 13685457
-851.49988 782.63031 1611.4258 13685457
-842.4505 783.12354 1612.4415 13685457
-833.48468 783.70685 1613.6423 13685457
-824.39191 784.18292 1614.6227 13685457
-811.92151 781.41956 1608.9329 13685457
-802.69232 781.7467 1609.6066 13685457
-793.51404 782.13214 1610.4001 13685457
-784.23596 782.42743 1611.0081 13685457
-774.91418 782.68579 1611.54 13685457
-765.62415 782.98309 1612.1522 13685457
-756.41046 783.36694 1612.9426 13685457
-747.23669 783.80267 1613.8397 13685457
-738.06384 784.25055 1614.762 13685457
-728.96478 784.78979 1615.8722 13685457
-719.85974 785.33691 1616.9988 13685457
-710.80859 785.95844 1618.2784 13685457
-701.71533 786.54968 1619.4958 13685457
-692.61469 787.14911 1620.7301 13685457
-683.48596 787.73303 1621.9324 13685457
-674.10028 788.03339 1622.5507 13685457
-626.27393 742.7522 1529.3174 13685457
-617.88971 743.60394 1531.071 13685457
-607.99219 742.63269 1529.0713 13685457
-637.30426 790.25153 1627.1179 13685457
-628.06927 790.80353 1628.2544 13685457
-618.85547 791.39978 1629.4822 13685457
-574.32697 746.13611 1536.2848 13685457
-565.8526 747.0061 1538.076 13685457
-557.3609 747.88141 1539.8783 13685457
-548.88348 748.80542 1541.7808 13685457
-540.35492 749.68982 1543.6018 13685457
-531.94263 750.76892 1545.8236 13685457
-523.68054 752.10168 1548.5677 13685457
-514.8194 752.60632 1549.6068 13685457
-506.99442 754.67175 1553.8596 13685457
-498.06708 755.14258 1554.829 13685457
-516.49225 797.88568 1642.8365 13685457
-507.25174 798.71448 1644.543 13685457
-497.84314 799.30591 1645.7607 13685457
-488.43198 799.91687 1647.0187 13685457
-479.00385 800.52448 1648.2697 13685457
-469.5582 801.12756 1649.5114 13685457
-460.09055 801.71796 1650.7271 13685457
-450.61664 802.32306 1651.973 13685457
-441.14291 802.95538 1653.2749 13685457
-431.65137 803.58344 1654.568 13685457
-422.1683 804.25677 1655.9546 13685457
-412.69135 804.97437 1657.432 13685457
-403.19342 805.685 1658.8951 13685457
-392.03329 803.02661 1653.4216 13685457
-382.64029 803.94421 1655.3109 13685457
-373.15207 804.70502 1656.8773 13685457
-363.62814 805.42792 1658.3657 13685457
-354.06158 806.09399 1659.7373 13685457
-344.51367 806.84198 1661.2775 13685457
-334.97614 807.65906 1662.9598 13685457
-325.43173 808.50891 1664.7097 13685457
-315.85336 809.32507 1666.39 13685457
-306.25888 810.15137 1668.0913 13685457
-296.63971 810.96545 1669.7676 13685457
-286.99332 811.75897 1671.4014 13554384
-277.31583 812.51825 1672.9647 13488335
-245.51604 746.10596 1536.2227 13292239
-236.23616 745.64233 1535.2681 13095375
-236.0452 774.98206 1595.6782 12373450
-216.64394 741.06683 1525.8472 11782858
-202.72183 723.74872 1490.1895 10928832
-196.35225 733.04376 1509.3278 11060161
-191.49727 749.15417 1542.4989 13161424
-199.05423 817.88397 1684.0127 13357518
-189.23997 818.73785 1685.7709 13554385
-179.30759 819.14752 1686.6144 13685457
-169.44359 819.93683 1688.2394 13685457
-159.56949 820.77338 1689.9619 13685457
-149.69394 821.71442 1691.8995 13685457
-139.79895 822.67664 1693.8807 13685457
-129.23282 819.53229 1687.4065 13685457
-119.30425 820.24194 1688.8677 13685457
-109.36483 821.00049 1690.4297 13685457
-95.984795 793.47052 1633.7457 13685457
-86.407585 794.71735 1636.3129 13685457
-76.712906 795.06311 1637.0248 13685457
-67.015755 795.47992 1637.8831 13685457
-57.309643 795.91406 1638.777 13685457
-47.590656 796.31061 1639.5935 13685457
-37.862125 796.71063 1640.417 13685457
-28.122938 797.08624 1641.1904 13685457
-18.375174 797.48859 1642.0188 13685457
-8.6165276 797.79541 1642.6505 13685457
1.1499178 798.30194 1643.6935 13685457
10.928159 798.76416 1644.6454 13685457
20.709703 798.91736 1644.9607 13685457
30.496082 799.09888 1645.3345 13685457
40.204033 797.63629 1642.323 13685457
49.974983 797.75092 1642.5591 13685457
59.750965 797.89526 1642.8562 13685457
69.536629 798.11023 1643.2987 13685457
79.312874 798.17737 1643.4371 13685457
89.074051 798.09479 1643.2671 13685457
98.858475 798.21631 1643.5172 13685457
108.61774 798.13104 1643.3417 13685457
118.43577 798.45599 1644.0107 13685457
128.01207 797.22595 1641.4781 13685457
137.97997 798.43628 1643.9702 13685457
147.89328 799.19147 1645.5251 13685457
157.68513 799.23737 1645.6195 13685457
167.51436 799.45624 1646.0702 13685457
177.30609 799.48187 1646.123 13685457
187.2907 800.32898 1647.8672 13685457
197.2551 801.00983 1649.269 13685457
207.29387 801.91394 1651.1307 13685457
217.22632 802.34357 1652.0153 13685457
227.16158 802.74603 1652.8438 13685457
237.10156 803.13104 1653.6366 13685457
247.05855 803.54071 1654.4801 13685457
257.00073 803.87268 1655.1636 13685457
266.98004 804.29199 1656.0271 13685457
276.95395 804.66583 1656.7968 13685457
286.97281 805.1402 1657.7734 13685457
297.0596 805.76721 1659.0645 13685457
307.13232 806.31708 1660.1965 13685457
317.26392 806.98224 1661.5663 13685457
327.40961 807.64227 1662.925 13685457
337.57462 808.30969 1664.2994 13685457
347.75311 808.97052 1665.66 13685457
357.94244 809.61926 1666.9958 13685457
368.24893 810.49097 1668.7905 13685457
377.80286 809.70398 1667.1702 13685201
388.87326 812.12421 1672.1534 13750737
398.96899 812.43909 1672.8019 13750737
409.17532 812.95837 1673.871 13750737
419.42911 813.5451 1675.079 13750737
429.6254 813.99561 1676.0066 13685457
439.7774 814.34369 1676.7233 13685457
450.04459 814.88489 1677.8376 13685457
460.31848 815.41455 1678.9281 13685457
470.66174 816.04193 1680.22 13685457
480.33005 815.49738 1679.0988 13685457
490.44778 815.72247 1679.5621 13685457
500.70029 816.15826 1680.4594 13685457
511.05493 816.74011 1681.6576 13685457
521.44794 817.35999 1682.9337 13685457
531.81885 817.92236 1684.0918 13685457
542.06622 818.27759 1684.8231 13685457
552.33215 818.6474 1685.5845 13685457
562.04852 818.20392 1684.6715 13685457
572.91492 819.4209 1687.1772 13685457
583.02441 819.53198 1687.406 13685457
593.58063 820.25671 1688.8982 13685457
603.55627 820.1684 1688.7162 13685457
613.79205 820.4306 1689.2562 13685457
624.11316 820.79663 1690.0099 13685457
634.39282 821.09741 1690.6292 13685457
644.65826 821.37067 1691.1919 13685457
654.91821 821.62872 1691.7231 13685457
665.12128 821.80865 1692.0936 13685457
675.34369 822.00671 1692.5015 13685457
685.47504 822.08984 1692.6725 13685457
695.67499 822.25159 1693.0056 13685457
705.73566 822.2464 1692.9949 13685457
715.88013 822.33771 1693.1829 13685457
726.01764 822.41858 1693.3494 13685457
736.12891 822.46783 1693.4508 13685457
746.31079 822.59369 1693.71 13685457
756.43097 822.64905 1693.824 13685457
766.62427 822.78143 1694.0966 13685457
776.11609 822.16736 1692.832 13685457
786.90662 822.927 1694.3962 13685457
796.97101 822.91772 1694.3772 13685457
805.3562 821.19653 1690.8333 13685457
816.92383 822.72272 1693.9757 13685457
826.9953 822.72339 1693.9769 13685457
836.91431 822.57422 1693.6698 13685457
846.84387 822.43866 1693.3907 13685457
856.99304 822.51727 1693.5525 13685457
866.99402 822.45337 1693.4209 13685457
877.01788 822.41235 1693.3365 13685457
928.9762 861.24945 1773.3018 13685457
940.00586 861.69617 1774.2214 13685457
950.83893 861.95459 1774.7537 13685457
961.71521 862.24622 1775.354 13685457
969.95508 860.19336 1771.1273 13685457
980.59802 860.29285 1771.332 13685457
991.84894 860.91791 1772.6191 13685457
1002.6177 861.11591 1773.0266 13685457
1013.3157 861.24945 1773.3016 13685457
1023.612 861.04242 1772.8754 13685457
1033.9121 860.84271 1772.4642 13685457
1044.0997 860.55438 1771.8705 13685457
1054.6187 860.54211 1771.8452 13685457
1065.1864 860.56958 1771.9019 13685457
1075.6138 860.48413 1771.726 13685457
1086.2563 860.57086 1771.9045 13685457
1096.2627 860.15686 1771.052 13685457
1106.5496 859.96851 1770.6642 13685457
1116.8319 859.78046 1770.277 13685457
1127.056 859.55133 1769.8052 13685457
1137.3104 859.34937 1769.3894 13685457
1147.6226 859.19434 1769.0702 13685457
1157.5166 858.73199 1768.1183 13685455
1167.8585 858.60724 1767.8613 13685455
1177.8088 858.19934 1767.0215 13685455
1187.7596 857.79901 1766.1973 13685455
1137.4126 814.24017 1676.5103 13750479
1205.5179 855.49823 1761.46 13685455
1156.3146 813.51416 1675.0153 13685455
1227.467 856.19922 1762.9033 13685455
1237.4536 855.85754 1762.1998 13685455
1247.2532 855.39337 1761.244 13685457
1257.6068 855.31366 1761.08 13685457
1267.5037 854.92712 1760.2842 13685457
1277.6208 854.69452 1759.8052 13685457
1286.828 853.86163 1758.0903 13685457
1296.3431 853.24506 1756.8207 13685457
1304.8654 851.98999 1754.2366 13685457
1313.9463 851.1167 1752.4385 13685457
1253.0667 805.29626 1658.0947 13685457
1261.3121 804.26831 1655.9783 13685457
1269.8207 803.42273 1654.2372 13685457
1278.0879 802.43872 1652.2112 13685457
1287.6091 802.25092 1651.8245 13685457
1297.3245 802.18604 1651.6909 13685457
1304.5562 800.59808 1648.4211 13685457
1312.16 799.26031 1645.6667 13685457
1320.5452 798.41473 1643.9258 13685457
1328.8458 797.53088 1642.106 13685457
1340.0693 798.40143 1643.8983 13685457
1424.5798 842.60687 1734.9167 13685457
1433.3384 841.69324 1733.0358 13685457
1442.2032 840.8548 1731.3093 13685457
1451.0869 840.03906 1729.6296 13685457
1460.0176 839.26178 1728.0293 13685457
1469.1948 838.63611 1726.7411 13685457
1477.7511 837.66724 1724.7461 13685457
1486.3484 836.73456 1722.8259 13685457
1495.8832 836.33905 1722.0115 13685457
1504.4808 835.42841 1720.1365 13685457
1513.1873 834.59009 1718.4104 13685457
1521.7416 833.67975 1716.5359 13685457
1530.0721 832.65967 1714.4357 13685457
1538.8618 831.90131 1712.8741 13619921
1546.0951 830.31702 1709.6123 13684945
1554.5052 829.38153 1707.6859 13685457
1562.7837 828.38812 1705.6406 13685457
1571.8489 827.82196 1704.475 13685457
1578.5228 826.01178 1700.7478 13685457
1587.5076 825.42609 1699.5417 13685457
1595.3772 824.27173 1697.1649 13685457
1606.6191 824.86322 1698.3829 13685457
1615.741 824.36572 1697.3585 13685457
1469.3586 745.02704 1534.0012 13685457
1477.6344 744.60181 1533.1256 13685457
1485.3977 743.92505 1531.7322 13685457
0 0 0 0
0 0 0 0
0 0 0 0
0 0 0 0
0 0 0 0
0 0 0 0
0 0 0 0
0 0 0 0
0 0 0 0
0 0 0 0
0 0 0 0
0 0 0 0
0 0 0 0
0 0 0 0
0 0 0 0
0 0 0 0
-1077.9218 637.22925 1296.1805 7964819
-1071.333 637.89441 1297.5336 7964562
-1064.4521 638.3941 1298.5499 8096148
-1060.8146 640.86035 1303.5665 6977666
-1055.6755 642.44928 1306.7985 6385785
-1058.099 648.698 1319.509 3227207
-1071.3212 661.71008 1345.9767 135191
-1086.6932 676.25592 1375.5642 331544
-1080.9218 677.76477 1378.6333 594460
-1091.7819 689.80481 1403.1238 725530
-1087.1154 692.14471 1407.8834 857372
-1084.293 695.70416 1415.1237 1317668
-1081.2957 699.20612 1422.2469 1317412
-1076.9069 701.85651 1427.6381 1317414
-1072.4819 704.52515 1433.0664 988710
-1065.3085 705.41663 1434.8798 2964049
-1057.9532 706.20117 1436.4755 4216174
-1044.9216 703.17853 1430.3273 9217209
-1002.9046 680.44055 1384.0762 11060174
-991.73987 678.43195 1379.9905 11915218
-980.49054 676.33142 1375.7178 12046801
-1086.4135 755.69952 1537.1595 12374993
-1079.717 757.41266 1540.6442 12505808
-1073.4663 759.47046 1544.83 12570832
-1067.5186 761.77997 1549.5277 12636623
-1059.179 762.40796 1550.8051 12635854
-1055.6953 766.57318 1559.2775 12832459
-1045.3873 765.81274 1557.7307 12963790
