# .PCD v0.7 - Point Cloud Data file format
VERSION 0.7
FIELDS x y z rgb
SIZE 4 4 4 4
TYPE F F F U
COUNT 1 1 1 1
WIDTH 1404
HEIGHT 1
VIEWPOINT 0 0 0 1 0 0 0
POINTS 1404
DATA ascii
-1225.3859 189.40147 1539.5392 2039834
-1219.5201 189.91335 1543.7 1908248
-1207.8848 189.52768 1540.5651 0
-1217.9506 192.56721 1565.2717 394496
-1223.2083 194.88754 1584.1323 722945
-1227.4341 197.07817 1601.9388 1380362
-1233.8383 199.65558 1622.889 1380875
-1235.2251 201.45531 1637.5181 1512461
-1238.1155 203.53079 1654.3884 2104598
-1237.0103 204.97742 1666.1473 2631712
-1233.2836 206.00955 1674.5369 2894374
-1225.6503 206.40056 1677.7152 2631972
-1226.8013 208.28941 1693.0687 1645336
-1215.1469 208.01741 1690.8578 2303270
0 0 0 0
-1106.3484 192.57875 1565.3655 65539
-1148.8779 201.67818 1639.3296 196610
-1142.0116 202.188 1643.4739 327683
-1213.3009 216.66313 1761.134 262146
-1164.1265 209.69144 1704.465 394500
-1106.4839 201.05853 1634.293 1644052
-1184.0676 217.06224 1764.3782 1841942
-1165.949 215.65114 1752.9081 2038803
-1156.1746 215.77185 1753.8894 2236436
-1143.1154 215.27617 1749.8601 2499608
-1124.3176 213.68074 1736.8917 3288868
-1114.6986 213.81631 1737.9939 3618090
-1106.4983 214.22916 1741.3495 3684399
-1097.6691 214.52684 1743.7694 3684400
-1091.6 215.37482 1750.662 3421485
-1087.0619 216.5441 1760.1664 2105883
-1097.6921 220.78702 1794.6548 256
-1099.2477 223.27003 1814.8379 1645080
-1098.7594 225.38306 1832.0134 657929
-1081.1605 223.99344 1820.7179 1250067
-1064.2495 222.71964 1810.364 0
-1050.1512 222.01448 1804.6322 131072
-1038.0619 221.72383 1802.2697 591361
-1023.5645 220.90744 1795.6337 1907217
-1010.8914 220.47171 1792.0919 2170643
-993.53271 218.99391 1780.0797 2631193
-981.34607 218.63658 1777.175 2894105
-972.13519 218.94167 1779.6549 3157532
-962.69073 219.20027 1781.757 3683363
-954.00885 219.64021 1785.333 3749927
-947.40405 220.57359 1792.92 3749671
-943.14124 222.07973 1805.1625 3355173
-932.07227 221.99944 1804.5099 2697504
-914.68854 220.39572 1791.4741 1514003
0 0 0 0
0 0 0 0
0 0 0 0
0 0 0 0
0 0 0 0
-691.1864 179.05161 1455.4109 4015677
0 0 0 0
-853.31854 226.72844 1842.9492 2829087
-843.37231 227.00035 1845.1595 3223843
-831.37891 226.72118 1842.8903 3487272
-819.4845 226.46191 1840.7828 3750442
-810.23181 226.93552 1844.6326 4145200
-800.56024 227.30319 1847.6211 4342579
-793.50629 228.43466 1856.8181 4539960
-785.27979 229.25571 1863.4921 4474167
-779.22998 230.74486 1875.5966 4277045
-787.43768 236.56044 1922.8682 1579535
-866.4007 264.11667 2146.8574 2303003
-856.70447 265.06561 2154.5708 1644817
-917.44763 288.16821 2342.3591 1513488
-927.05548 295.67395 2403.3689 1184525
-943.06354 305.48785 2483.1409 263425
-934.2702 307.45221 2499.1079 131584
-933.12848 312.03876 2536.3894 526595
-930.69183 316.33585 2571.3179 920586
0 0 0 0
-3124.5955 1098.1017 8925.8574 197122
-3135.4189 1120.9425 9111.5176 2500132
-3095.6074 1126.1656 9153.9736 1315858
-2927.5762 1084.0953 8812.0078 986892
-3009.5093 1134.7415 9223.6816 65536
-2994.3083 1149.9631 9347.4102 131072
-2960.9739 1158.6647 9418.1396 196608
-2909.8992 1160.6257 9434.0811 196608
-2859.5586 1162.9626 9453.0762 262144
-2805.4592 1163.834 9460.1582 262144
-2764.5027 1170.3044 9512.7539 262144
-2716.5093 1174.0044 9542.8281 262144
-2662.0107 1174.9906 9550.8447 262144
-2571.4597 1159.7598 9427.042 262144
-2522.3367 1162.951 9452.9814 262144
-2462.1846 1161.0869 9437.8291 262144
-2415.9343 1165.8442 9476.499 262144
-2351.886 1162.035 9445.5361 262144
-2300.1226 1164.2577 9463.6025 393216
-2265.4351 1175.452 9554.5947 262144
-2295.2305 1221.5403 9929.2207 262144
-2139.6753 1168.8127 9500.6289 196608
-2077.5547 1165.6494 9474.915 196608
-2117.9014 1221.4027 9928.1025 196608
-1946.845 1154.9407 9387.8701 196608
-1875.7675 1145.6172 9312.084 196608
-1824.0912 1147.9363 9330.9346 196608
-1764.5916 1145.3229 9309.6924 196608
-1691.3282 1133.3177 9212.1084 196608
-1631.1385 1129.5624 9181.584 196608
-1762.0002 1262.4307 10261.597 196608
-1543.9303 1145.8623 9314.0771 131328
-1462.9064 1126.1168 9153.5771 65536
-1406.7328 1124.7139 9142.1729 65536
-1353.1244 1125.3315 9147.1943 65792
-1289.9734 1117.7325 9085.4258 65792
-1249.2787 1129.7775 9183.332 65792
-1187.7649 1123.2354 9130.1553 65536
-1144.9971 1134.6431 9222.8818 131072
-1097.2258 1141.9907 9282.6074 262144
-1051.676 1152.5511 9368.4473 196608
-992.02515 1147.9751 9331.25 196608
-921.00305 1128.9185 9176.3496 196608
-868.15759 1131.1449 9194.4473 196608
-815.73761 1134.2622 9219.7861 328448
-764.98157 1140.309 9268.9365 196608
-709.10382 1139.0671 9258.8428 262144
-653.95746 1138.89 9257.4033 262144
-604.22827 1148.9817 9339.4326 393216
-554.98419 1162.1315 9446.3193 589824
-510.66864 1189.7241 9670.6055 852224
-460.02151 1207.6959 9816.6875 1508096
-407.18228 1224.299 9951.6445 1573120
-353.65009 1244.1093 10112.672 1442048
-298.90256 1266.8837 10297.792 851968
-241.54318 1287.4688 10465.117 524288
-179.91631 1291.6993 10499.505 458752
-117.33845 1289.9701 10485.448 393216
-55.529667 1302.3586 10586.148 262144
7.4260187 1305.8782 10614.757 196608
71.251518 1319.2041 10723.076 196608
135.69737 1326.0066 10778.369 196608
200.41512 1330.2499 10812.861 196608
265.00568 1331.7932 10825.405 196608
328.96588 1330.1843 10812.328 196608
393.43704 1330.8298 10817.575 65536
457.05722 1328.8198 10801.237 65536
520.67639 1327.3025 10788.903 0
586.46722 1331.0466 10819.338 1447701
616.15161 1260.203 10243.489 6910066
670.44861 1247.9155 10143.611 8422787
742.43323 1267.8615 10305.74 1316373
802.43054 1265.856 10289.438 394758
862.81342 1264.6996 10280.039 65793
928.70251 1271.2335 10333.149 197379
993.30322 1275.3022 10366.223 1710361
1061.5625 1283.3186 10431.383 0
1123.1921 1282.8778 10427.8 65536
1189.3741 1287.4106 10464.645 65536
1252.2096 1288.0507 10469.847 65536
1318.3705 1291.8885 10501.043 0
1378.542 1289.7759 10483.87 0
1441.9294 1290.7245 10491.581 0
1506.5929 1292.6893 10507.553 0
1580.9423 1302.4777 10587.116 0
1650.0696 1307.3789 10626.955 65536
1716.9501 1310.204 10649.919 65536
1785.705 1314.2076 10682.463 65536
1861.2185 1322.7397 10751.814 65536
1933.7448 1328.6526 10799.877 65536
2018.5911 1342.3783 10911.446 65536
2071.2124 1334.4867 10847.3 65792
2147.249 1341.7028 10905.955 256
2236.7957 1356.6899 11027.777 256
2320.304 1367.2655 11113.74 256
2360.7361 1352.575 10994.329 0
2472.9946 1378.7201 11206.849 256
2532.6011 1374.9095 11175.874 256
2612.7822 1382.1776 11234.953 256
2687.5659 1386.2994 11268.457 256
2765.1663 1391.6384 11311.854 512
2787.9089 1369.7708 11134.104 2106144
2859.0691 1372.1545 11153.48 2567721
2962.0984 1389.3785 11293.485 1845025
3191.05 1463.594 11896.741 1843743
3118.6077 1399.3523 11374.556 7634038
3186.4604 1399.4532 11375.377 5660248
3586.3796 1542.3585 12536.974 9409420
3429.3401 1444.7958 11743.94 6711137
3464.5027 1430.4863 11627.627 1579024
3462.8613 1401.8376 11394.758 1117963
3505.6956 1391.9475 11314.366 526083
3495.613 1361.8147 11069.434 921098
3678.1423 1406.446 11432.218 1315083
3903.7446 1465.6296 11913.287 3026215
3815.6631 1407.0323 11436.982 5985872
3720.6711 1347.9833 10957.006 1774353
3784.0117 1347.3424 10951.796 458752
4055.9189 1419.7296 11540.191 655360
4095.123 1409.6085 11457.923 655360
4143.5996 1402.9581 11403.865 851968
4186.2397 1394.5774 11335.743 851968
4230.8442 1387.1063 11275.016 851968
4248.3647 1371.1272 11145.13 851968
4243.0176 1348.3717 10960.163 720896
4317.7676 1351.3734 10984.562 458752
4454.4434 1373.3785 11163.43 1971988
4449.6621 1351.7642 10987.739 2236958
4441.0991 1329.6429 10807.928 3026731
4258.2476 1256.7159 10215.145 3553074
4249.5693 1236.5198 10050.981 2697507
4154.6206 1192.1293 9690.1553 2895144
0 0 0 0
4170.4365 1164.3765 9464.5684 4804424
0 0 0 0
0 0 0 0
0 0 0 0
0 0 0 0
0 0 0 0
0 0 0 0
0 0 0 0
0 0 0 0
0 0 0 0
0 0 0 0
1269.9137 308.73666 2509.5483 131072
1271.9216 305.63406 2484.3293 196608
1273.6338 302.53247 2459.1182 196608
1257.7911 295.37872 2400.9692 196608
1258.0951 292.13486 2374.6016 196608
1261.8329 289.75143 2355.228 196608
1268.4382 288.07156 2341.5735 196608
1258.9038 282.80255 2298.7444 65536
1253.2928 278.51855 2263.9224 2170907
1228.4695 270.10144 2195.5044 2105114
1235.5746 268.80753 2184.9868 2170907
1208.2128 260.12006 2114.3713 723718
1223.1528 260.62506 2118.4761 920326
1228.0662 259.00504 2105.3079 788740
1225.4448 255.84467 2079.6189 788740
1222.0702 252.59172 2053.1775 788740
1212.4126 248.11734 2016.8077 788738
1208.6049 244.916 1990.7858 2236184
1215.2003 243.86446 1982.2384 2828062
1223.0045 243.07335 1975.8079 3223078
1227.6782 241.68103 1964.4905 3617833
1218.9313 237.69781 1932.1133 3946798
1218.9563 235.48361 1914.1152 4341554
1223.7535 234.22379 1903.8748 4538933
1228.2218 232.92462 1893.3147 4802359
1234.4785 231.98518 1885.6783 4933689
1241.8719 231.27431 1879.9001 4868153
1254.3087 231.50697 1881.7914 4867898
1267.344 231.84503 1884.5392 4670261
1284.9729 233.0101 1894.0095 328704
1302.7485 234.18134 1903.5298 196864
1320.5808 235.34248 1912.9681 196864
1338.2471 236.4545 1922.0071 196864
1352.3506 236.92349 1925.8192 196864
1363.5201 236.87491 1925.4242 1512199
1366.996 235.50171 1914.2622 2367508
1372.4183 234.48372 1905.9877 2762266
1373.2994 232.71289 1891.5936 2959129
1370.1172 230.28786 1871.8818 2959128
1376.2189 229.44975 1865.0693 2958873
1381.0977 228.42279 1856.7217 3090714
1382.1779 226.78883 1843.4403 3353885
1385.9974 225.62656 1833.9927 3617057
1394.5493 225.24677 1830.9055 3814691
1405.9509 225.32957 1831.5786 4407086
1420.7799 225.95621 1836.6721 4407345
1437.0361 226.79848 1843.5187 5263683
1484.4095 232.50192 1889.8787 6381137
1463.6661 227.53073 1849.4706 2498581
1507.4882 232.59567 1890.6407 459264
1500.7288 229.839 1868.2334 327680
1507.5651 229.18977 1862.9562 262144
1516.7935 228.91103 1860.6904 196864
1520.0179 227.73679 1851.1455 1051651
1518.2986 225.84404 1835.7604 1183238
1520.4559 224.55081 1825.2487 1774861
1521.0538 223.04726 1813.027 2301460
1524.6273 221.99814 1804.4993 3024924
1532.1737 221.53812 1800.76 3748647
1536.1339 220.56955 1792.8871 4143403
1545.0519 220.32129 1790.8691 4406063
1552.6693 219.89227 1787.3818 4932406
1562.9008 219.83675 1786.9305 5130554
1572.3906 219.67836 1785.6432 5130555
1580.9055 219.3868 1783.2732 590849
1598.0389 220.2872 1790.592 458752
1611.4557 220.66672 1793.6769 458752
1623.3925 220.83992 1795.0847 393216
1635.8335 221.07901 1797.0282 393216
1647.5643 221.2196 1798.1711 393216
1660.5917 221.5314 1800.7054 196608
1672.7684 221.72643 1802.2906 262144
1685.3837 221.97673 1804.3253 262144
1696.6063 222.04164 1804.8528 591360
1695.5897 220.51398 1792.4353 1117185
1707.1021 220.62459 1793.3345 1446407
1711.2412 219.78687 1786.5251 1906960
1714.8215 218.88818 1779.2201 2433304
1719.9774 218.20036 1773.6293 2893855
0 0 0 0
0 0 0 0
0 0 0 0
0 0 0 0
0 0 0 0
0 0 0 0
0 0 0 0
0 0 0 0
0 0 0 0
0 0 0 0
0 0 0 0
0 0 0 0
0 0 0 0
0 0 0 0
0 0 0 0
-1195.5928 184.10101 1427.4729 3289902
-1200.7061 186.21011 1443.8263 3224109
-1224.1971 191.2202 1482.6733 3158316
-1217.2881 191.52002 1484.998 3092523
-1211.785 192.04703 1489.0844 2829351
-1215.2815 194.01859 1504.3713 2763558
-1207.1497 194.14915 1505.3837 2566179
-1219.9215 197.66876 1532.6738 2039833
-1214.3501 198.24677 1537.1555 1842454
-1209.3051 198.9201 1542.3765 65792
-1221.7019 202.49469 1570.0929 328704
-1222.3348 204.15948 1583.0012 722945
-1227.7528 206.65549 1602.3547 1117190
-1234.4377 209.4055 1623.6775 1380875
-1235.7634 211.28255 1638.2317 1512461
-1238.5603 213.44296 1654.9829 1908245
-1241.3348 215.63408 1671.9724 2565919
-1233.7596 216.04819 1675.1832 2828837
-1229.0178 216.96924 1682.325 2566179
-1227.33 218.44899 1693.7985 1974299
-1217.8425 218.55348 1694.6088 2303526
0 0 0 0
-1178.188 214.99419 1667.0109 258
-1174.1411 216.07324 1675.3776 2
-1155.7212 214.50314 1663.2034 0
-1159.6019 217.08064 1683.1887 256
-1181.9119 223.18309 1730.5056 4079161
-1173.4188 223.52501 1733.1567 1381393
-1173.0265 225.42978 1747.9258 1842200
-1166.3484 226.14981 1753.5087 1973011
-1154.5426 225.87964 1751.4138 2170133
-1142.4399 225.54591 1748.8263 2564888
-1124.1056 223.96446 1736.5641 3354660
-1113.748 223.95772 1736.5118 3552296
-1104.0785 224.09052 1737.5414 3684398
-1095.8882 224.52887 1740.9403 3618864
-1089.4751 225.34319 1747.2543 3553071
-1088.5928 227.32812 1762.6451 2303006
-1081.8741 228.12108 1768.7933 0
-1084.6891 230.95952 1790.8019 0
-1074.2123 230.99597 1791.0847 65536
-1066.9531 231.73207 1796.7921 65536
-1055.5846 231.58147 1795.6244 0
-1042.5129 231.05034 1791.5061 196608
-1036.7795 232.15138 1800.0435 328448
-1017.6463 230.24367 1785.2515 2038803
-1007.8222 230.42415 1786.6509 2367508
-991.80804 229.17816 1776.9897 2696472
-981.49933 229.23785 1777.4526 3025692
-973.07562 229.7439 1781.3765 3157535
-963.58801 230.00719 1783.4177 3617570
-954.13586 230.28482 1785.5706 3618086
-945.96497 230.88145 1790.1967 3881257
-939.36829 231.88026 1797.9412 3421222
-933.90192 233.18428 1808.0521 2829856
-918.62531 232.04063 1799.1847 3092519
0 0 0 0
0 0 0 0
0 0 0 0
0 0 0 0
0 0 0 0
0 0 0 0
0 0 0 0
-849.43628 236.60359 1834.5647 2894881
-842.93585 237.84686 1844.2047 3092514
-829.92023 237.26031 1839.6569 3618857
-819.34296 237.36452 1840.4647 3882030
-810.1225 237.86992 1844.3835 4276786
-800.95087 238.40375 1848.5226 4474165
-792.72943 239.23917 1855.0004 4605753
-785.6665 240.45271 1864.4099 4342581
-777.67126 241.41159 1871.8447 4342326
-779.08777 245.3624 1902.4783 790020
-868.95563 277.69641 2153.1882 789765
-905.42432 293.67715 2277.0989 1513488
-908.81989 299.25287 2320.3315 1776660
-930.52472 311.12213 2412.3628 1974041
-948.57855 322.12323 2497.6624 131840
-942.31018 325.08334 2520.6145 131840
-935.73639 328.03207 2543.4783 460802
-926.10016 329.98648 2558.6321 1710613
0 0 0 0
-3106.1853 1144.3842 8873.2666 4408641
-3112.4644 1166.5082 9044.8115 1316114
-3090.0386 1178.4631 9137.5059 3289648
-2939.4688 1141.1003 8847.8047 65792
-2956.4612 1168.6088 9061.0977 65536
-2938.6482 1183.125 9173.6543 526341
-2901.0122 1190.059 9227.417 394500
-2835.4729 1185.5927 9192.7871 856077
-2784.6904 1187.2424 9205.5791 1184527
-2787.6492 1212.33 9400.1016 65536
-2744.1538 1217.8281 9442.7324 394499
-2702.459 1224.3718 9493.4707 131072
-2642.9395 1222.9465 9482.4199 131072
-2581.5244 1220.5631 9463.9395 197121
-2537.6492 1226.5511 9510.3691 328707
-2484.1943 1228.0763 9522.1943 196608
-2419.2588 1223.8647 9489.5391 196608
-2347.4304 1215.8818 9427.6416 196608
-2298.4062 1219.609 9456.541 196608
-2254.8079 1226.4744 9509.7734 262144
-2199.6379 1227.2369 9515.6865 262144
-2121.8875 1215.1088 9421.6475 196608
-2070.3708 1217.7531 9442.1514 196608
-2019.6158 1221.0055 9467.3691 196608
-1949.7463 1212.5568 9401.8604 0
-1872.1429 1198.6577 9294.0908 1381394
-1824.2802 1203.5342 9331.9014 1184527
-1759.5546 1197.2427 9283.1182 329220
-1676.7256 1177.8268 9132.5723 0
-1618.0928 1174.677 9108.1494 0
-1770.6466 1329.9312 10311.951 65536
-1711.629 1331.7114 10325.755 65536
-1633.4365 1318.1501 10220.604 131072
-1433.8839 1201.8219 9318.625 131072
-1354.4487 1180.8672 9156.1465 65792
-1284.0291 1166.3467 9043.5586 65792
-1236.855 1172.595 9092.0068 65792
-1186.1206 1175.8849 9117.5156 65792
-1153.6399 1198.4524 9292.499 65536
-1098.4708 1198.5352 9293.1396 65792
-1054.3313 1211.2981 9392.1006 65792
-996.39471 1208.751 9372.3516 131584
-930.66852 1195.8926 9272.6504 262656
-877.04663 1197.9482 9288.5889 196864
-832.79242 1213.9349 9412.5459 262656
-774.12354 1209.6995 9379.7051 196864
-720.64587 1213.5483 9409.5488 262656
-673.35449 1229.3392 9531.9873 525312
-623.61578 1243.1538 9639.1016 459264
-566.96539 1244.5916 9650.25 458752
-514.78546 1257.2715 9748.5664 720896
-462.49295 1272.8588 9869.4268 1048576
-409.60989 1291.1143 10010.976 983040
-354.66864 1307.9865 10141.798 917504
-297.63541 1322.4747 10254.137 524544
-236.28552 1320.3064 10237.323 8748149
-171.14795 1288.1257 9987.8027 7827562
-117.63512 1355.7262 10511.96 262400
-55.465221 1363.7098 10573.863 262144
7.4202719 1367.9246 10606.543 262144
70.91346 1376.3922 10672.199 196608
135.17096 1384.6924 10736.557 196608
199.9726 1391.4542 10788.986 196608
263.91687 1390.4149 10780.928 196608
327.77396 1389.4122 10773.152 196608
391.94501 1389.8505 10776.551 65536
455.58289 1388.5408 10766.396 262144
517.44 1382.7947 10721.842 0
583.02423 1387.1769 10755.82 65536
629.37323 1349.4503 10463.298 1
708.14777 1381.7812 10713.984 2961715
704.24414 1260.7626 9775.6357 329734
782.63098 1294.2838 10035.552 65536
851.52515 1308.4697 10145.545 131072
920.72217 1321.2134 10244.356 131072
982.47852 1322.3611 10253.255 65536
1046.2318 1325.9054 10280.736 1052430
1123.4331 1345.1606 10430.037 6513504
1204.0548 1366.2827 10593.812 3815992
1247.371 1345.0773 10429.391 0
1302.8258 1338.3497 10377.228 0
1362.285 1336.1582 10360.234 0
1427.7506 1339.7926 10388.415 0
1492.191 1342.2036 10407.108 0
1566.7905 1353.1967 10492.346 0
1633.2502 1356.5868 10518.633 0
1705.4803 1364.3433 10578.774 256
1761.3536 1358.9283 10536.788 3355185
1828.6029 1362.3607 10563.402 3882039
1915.8119 1379.9419 10699.723 0
2005.7552 1398.2996 10842.062 65536
2070.938 1398.7896 10845.862 65536
2143.3464 1403.9834 10886.134 0
2228.7368 1417.127 10988.046 256
2298.0449 1419.5874 11007.124 256
2373.3491 1425.5132 11053.07 256
2450.8433 1432.3997 11106.466 256
2512.7788 1430.0699 11088.402 256
2580.1931 1430.8976 11094.82 256
2648.0386 1431.9174 11102.727 512
2717.4404 1433.7085 11116.615 512
2667.095 1373.7367 10651.608 8620931
3007.1152 1512.9484 11731.021 3752251
3108.8484 1528.6791 11852.993 3028784
3100.6379 1490.8494 11559.671 2369573
3112.6721 1464.183 11352.906 7436659
3280.8838 1510.5546 11712.46 3751992
3386.1917 1526.6388 11837.173 4606789
3542.0544 1564.3965 12129.937 5791576
3538.7026 1531.7312 11876.658 12172472
3384.7041 1436.412 11137.577 5000265
3371.1921 1403.2268 10880.268 65536
3359.9487 1372.2175 10639.83 3618097
3597.3855 1442.0398 11181.214 5723728
3593.1711 1414.2181 10965.492 5196871
3624.6621 1401.1907 10864.48 590851
3627.6731 1377.8027 10683.136 589824
3850.6035 1437.3085 11144.528 655360
3976.313 1459.1254 11313.691 655360
4036.7549 1456.6648 11294.612 720896
4118.1836 1461.7336 11333.915 786432
4177.7617 1459.0087 11312.786 786432
4244.9688 1458.9919 11312.656 851968
4296.5024 1453.673 11271.414 851968
4341.9492 1446.4894 11215.715 786432
4418.4155 1449.7008 11240.615 655360
4569.48 1476.9279 11451.727 524544
4523.9126 1440.7339 11171.088 1643537
4471.1548 1403.3304 10881.071 2236445
4351.8306 1346.3993 10439.642 2368545
4203.2134 1282.1335 9941.3408 3092524
4261.7974 1281.9777 9940.1328 1316370
4266.502 1265.8405 9815.0088 5263951
4199.3296 1229.101 9530.1396 4738376
4271.5845 1233.6053 9565.0654 5989215
0 0 0 0
0 0 0 0
0 0 0 0
0 0 0 0
0 0 0 0
0 0 0 0
0 0 0 0
0 0 0 0
0 0 0 0
1280.8771 326.45032 2531.2136 196608
1280.6279 322.59683 2501.3347 196608
1280.3384 318.82175 2472.0635 196608
1262.6545 310.85004 2410.2529 196608
1264.6936 307.85828 2387.0557 196608
1272.8271 306.40005 2375.749 131072
1272.389 302.93304 2348.8667 262144
1261.7209 297.13223 2303.8884 0
1237.5411 288.30817 2235.469 2302746
1228.9446 283.26343 2196.3533 2302746
1234.1362 281.46948 2182.4434 2236954
1204.6234 271.88013 2108.0901 855044
1222.8008 273.14093 2117.8662 920324
1222.7111 270.33731 2096.1274 854531
1224.8689 268.08215 2078.6416 920324
1222.8213 264.96082 2054.4395 986120
1215.1306 260.69055 2021.3289 986117
1213.1603 257.71915 1998.2893 1051910
1213.2264 255.23378 1979.0184 1644047
1216.967 253.56177 1966.0541 1907219
1219.3022 251.63152 1951.0875 2301976
1224.123 250.24577 1940.3428 2631195
1223.9985 247.88438 1922.0331 3091490
1225.1304 245.81874 1906.0167 3354917
1230.8975 244.71251 1897.4392 3552295
1235.7955 243.45515 1887.6901 4012333
1244.3857 242.94127 1883.7054 4209714
1242.8846 240.48399 1864.6523 4407092
1257.129 241.08977 1869.3495 2631195
1279.6327 243.25504 1886.1383 196608
1302.1014 245.37607 1902.5842 196608
1320.5695 246.71315 1912.9518 196864
1336.0236 247.46916 1918.8136 196864
1349.3826 247.82756 1921.5925 262656
1361.4331 247.94165 1922.4772 1512713
1357.6786 245.19942 1901.2146 2038543
1362.8389 244.09921 1892.684 2433044
1367.3462 242.90105 1883.3936 2761752
1371.028 241.57683 1873.126 3024921
1377.7544 240.80617 1867.1504 3222300
1378.6685 239.04001 1853.4561 3682849
1385.0608 238.24419 1847.2854 3748643
1390.4429 237.28844 1839.8749 3880229
1399.8677 237.0322 1837.8879 4143401
1412.012 237.23682 1839.4745 4472111
1422.5802 237.17552 1838.9994 5064505
1438.9282 238.07146 1845.946 5590593
0 0 0 0
0 0 0 0
0 0 0 0
1490.2784 239.26802 1855.224 393216
1509.8206 240.62471 1865.7434 262400
1504.5228 238.03166 1845.6377 1446408
1514.7284 237.91121 1844.7037 1972238
1510.3031 235.51102 1826.0931 2695704
1515.0468 234.56464 1818.7551 3287840
1526.5586 234.6721 1819.5885 3617061
1531.8674 233.83122 1813.0685 3880230
1530.8759 232.04707 1799.2346 4011047
1537.5084 231.43533 1794.4913 4208937
1545.2007 230.99045 1791.0417 4406315
1557.9512 231.30258 1793.462 4800561
1564.5096 230.69746 1788.77 4998197
1576.0579 230.83127 1789.8076 5063223
1591.4031 231.5157 1795.1145 2761239
1601.661 231.45586 1794.6505 393216
1612.3597 231.46008 1794.6832 524288
1623.3524 231.50613 1795.0404 393216
1637.1041 231.94252 1798.424 393216
1649.2975 232.15387 1800.0627 393216
1661.9491 232.42661 1802.1774 196608
1675.1145 232.76721 1804.8184 262144
1687.4592 232.9902 1806.5475 196608
1698.6675 233.05444 1807.0454 591104
1705.6947 232.54782 1803.1173 1051649
1714.9097 232.34395 1801.5366 1577994
1717.3473 231.2301 1792.9 2104339
1720.4314 230.21646 1785.0405 2564888
1728.0166 229.8139 1781.9191 2959648
0 0 0 0
0 0 0 0
0 0 0 0
0 0 0 0
0 0 0 0
0 0 0 0
0 0 0 0
0 0 0 0
0 0 0 0
0 0 0 0
0 0 0 0
0 0 0 0
0 0 0 0
0 0 0 0
0 0 0 0
-1196.9163 192.80067 1429.0531 3223855
-1228.2374 199.26028 1476.9323 3223853
-1239.9883 202.61513 1501.7987 3092523
-1232.7389 202.89148 1503.8469 3026730
-1192.8103 197.75398 1465.7676 2895144
-1202.3082 200.79556 1488.3119 2763558
-1207.7423 203.19852 1506.1227 2566179
-1214.1339 205.79965 1525.4026 1974041
-1216.9038 207.82143 1540.3881 1776662
-1207.9268 207.85251 1540.6184 131328
-1217.8826 211.16679 1565.1843 328704
-1224.7335 213.98967 1586.1077 722945
-1228.1803 216.25694 1602.9127 1248775
-1234.7495 219.11372 1624.0875 1446668
-1237.0962 221.26036 1639.9985 1446668
-1239.704 223.48814 1656.5111 2039831
-1245.6564 226.35942 1677.7931 2500126
-1236.5529 226.51898 1678.9758 2828837
-1231.5356 227.43581 1685.7714 2631972
-1234.9106 229.93024 1704.2603 1316370
-1231.1891 231.13367 1713.1802 790029
-1190.2998 225.32143 1670.0995 461578
-1204.9717 230.01747 1704.9069 66822
-1169.1117 225.06532 1668.2012 514
-1144.4203 222.1969 1646.9402 256
-1137.7328 222.8047 1651.4452 0
-1184.0908 233.90152 1733.6958 256
-1161.5587 231.46541 1715.639 1776149
-1171.8199 235.57878 1746.1278 1776150
-1165.9863 236.50116 1752.9644 2038803
-1154.3911 236.26094 1751.184 2170389
-1140.3462 235.51044 1745.6211 2696986
-1124.9103 234.45622 1737.8073 3486247
-1113.3995 234.20816 1735.9685 3684140
-1101.8247 233.94183 1733.9946 3815984
-1094.2483 234.52745 1738.3352 3750450
-1086.6697 235.12378 1742.7551 3487279
-1085.1395 237.05284 1757.0536 2500385
-1088.4329 240.0834 1779.5164 0
-1078.2246 240.16608 1780.129 65536
-1070.0002 240.69667 1784.0619 65536
-1061.8783 241.26115 1788.246 131072
-1051.9596 241.4247 1789.458 65536
-1040.8452 241.31433 1788.6401 196608
-1035.9861 242.66696 1798.6658 460289
-1015.7557 240.40971 1781.9349 2104595
-1004.4614 240.24213 1780.6929 2367765
-991.87366 239.75838 1777.1072 2762266
-981.54382 239.81587 1777.5333 2959899
-972.51129 240.19501 1780.3435 3288864
-963.27698 240.53209 1782.842 3617827
-954.93274 241.10141 1787.0619 3683879
-946.82153 241.74306 1791.8177 3881002
-938.26031 242.28307 1795.8204 3684394
-935.5719 244.36951 1811.2853 3157796
-909.74957 240.39163 1781.8009 1908246
-881.24579 235.60315 1746.3082 395269
0 0 0 0
0 0 0 0
0 0 0 0
0 0 0 0
0 0 0 0
-856.77002 246.48236 1826.9459 2237722
-846.21924 246.57286 1827.6167 2894880
-840.79047 248.17758 1839.511 3487272
-830.11938 248.25682 1840.0983 3553065
-820.69348 248.71556 1843.4985 3816237
-809.82318 248.74304 1843.7021 4276785
-800.88696 249.37349 1848.3751 4408372
-792.45654 250.18117 1854.3617 4408374
-784.7179 251.23311 1862.1588 4342581
-776.04199 252.0108 1867.9231 4473911
-886.02026 291.90207 2163.6001 263424
-889.54504 297.38052 2204.2068 855558
-899.48077 305.19809 2262.1514 1447695
-910.48352 313.62051 2324.5789 1974039
-935.8949 327.34219 2426.2849 1974041
-959.05994 340.69543 2525.2603 256
-952.93512 343.90305 2549.0354 197632
-942.23383 345.53604 2561.1392 263424
-926.88818 345.49149 2560.8091 1250319
0 0 0 0
-3104.3633 1196.4343 8868.0615 0
-3094.8491 1213.3744 8993.6221 0
-3054.571 1218.6365 9032.625 197378
-3019.1533 1226.0607 9087.6543 0
-2922.8706 1208.5883 8958.1475 0
-2935.8789 1236.4971 9165.0098 329220
-2819.0574 1209.7473 8966.7383 2632743
-2785.418 1218.3503 9030.5049 6909287
-2690.1135 1199.7892 8892.9277 328962
-2722.1487 1238.4156 9179.2305 0
-2675.0193 1241.8706 9204.8389 1249806
-2634.3469 1248.53 9254.1992 460803
-2618.5903 1267.5343 9395.0596 526342
-2551.7593 1262.1052 9354.8193 1052685
-2497.373 1262.7266 9359.4248 0
-2525.834 1306.2203 9681.8037 2697510
-2450.2156 1296.6635 9610.9668 6250333
-2399.6709 1300.236 9637.4473 1119248
-2322.8926 1289.4211 9557.2871 4870219
-2279.5669 1297.099 9614.1963 6120284
-2206.5305 1287.8313 9545.5029 1777434
-2163.5869 1296.1014 9606.8018 1842201
-2111.0154 1298.896 9627.5156 263171
-2008.0873 1269.9987 9413.3262 855819
-1985.0392 1291.4124 9572.0459 4475204
-1949.4757 1305.7075 9678.0029 4211777
-1912.7284 1320.0552 9784.3486 2041121
-1786.6962 1271.7507 9426.3125 8752777
0 0 0 0
0 0 0 0
0 0 0 0
-1361.7678 1108.3461 8215.1445 256
-1391.3696 1174.5648 8705.9629 131072
-1537.9933 1348.5045 9995.2178 65792
-1353.2166 1234.1775 9147.8164 65536
-1271.3799 1208.0919 8954.4688 65792
-1245.7207 1235.4404 9157.1777 0
-1205.2648 1249.9432 9264.6738 526086
-1194.8516 1298.4834 9624.457 65536
-1124.8615 1283.9058 9516.4062 65792
-1091.052 1311.2676 9719.2139 65792
-1023.6667 1299.08 9628.8789 460544
-949.4881 1276.317 9460.1582 657408
-896.61658 1281.1323 9495.8496 262656
-845.12451 1288.6981 9551.9277 460032
-788.72717 1289.3354 9556.6514 197120
-745.75885 1313.7279 9737.4512 591360
-685.99182 1310.1432 9710.8809 854528
-629.7627 1313.2777 9734.1133 787968
-575.51758 1321.6023 9795.8154 721152
-521.23505 1331.7057 9870.7031 852224
-469.42096 1351.4794 10017.268 1114624
-414.40585 1366.4446 10128.19 917504
-357.11823 1377.7306 10211.844 983040
-295.91623 1375.4457 10194.907 983040
-230.20314 1345.6146 9973.7979 1180673
-173.44562 1365.5945 10121.89 1050113
-117.37309 1415.0616 10488.544 655872
-55.281994 1421.8597 10538.932 327680
7.4046884 1427.9762 10584.268 262144
70.536926 1432.1945 10615.533 196608
134.80898 1444.6432 10707.805 262400
199.35587 1451.1066 10755.712 196864
263.09244 1449.9648 10747.249 196608
325.9198 1445.2377 10712.211 196608
389.27063 1443.9974 10703.019 65536
452.97726 1444.2402 10704.818 0
514.97943 1439.6583 10670.856 0
579.99957 1443.5931 10700.021 65536
643.18469 1442.634 10692.913 65536
696.60303 1421.9116 10539.316 65536
748.10785 1401.0259 10384.51 196608
803.98517 1390.8888 10309.373 196608
861.73346 1385.1953 10267.172 196608
921.60938 1383.4489 10254.228 196608
984.31714 1385.9065 10272.443 196608
1035.9668 1373.4167 10179.868 196608
1078.4624 1350.8397 10012.525 131329
1131.376 1342.9911 9954.3516 657930
1125.7548 1269.8933 9412.5459 131586
1257.3429 1351.1665 10014.948 0
1341.5189 1376.4441 10202.308 4276545
1407.5776 1381.7499 10241.635 65792
1468.5203 1381.8018 10242.02 65792
1541.7345 1392.9368 10324.553 256
1583.178 1375.6138 10196.153 1908768
1623.7388 1358.8295 10071.747 10462114
1637.4515 1321.5704 9795.5801 10859439
1722.7235 1342.6418 9951.7627 7830135
1875.3293 1413.0496 10473.63 0
1973.1426 1438.9728 10665.775 65536
2039.1558 1440.8127 10679.413 65536
2120.105 1452.7764 10768.089 0
2196.9214 1461.2898 10831.19 256
2276.7068 1471.2368 10904.919 256
2338.6716 1469.4363 10891.572 256
2420.1113 1479.6393 10967.198 256
2504.5984 1491.1212 11052.303 512
2579.5796 1496.5013 11092.182 512
2655.1184 1501.929 11132.411 512
2693.7668 1486.7321 11019.771 131842
2717.8677 1464.4185 10854.38 6713706
2927.3757 1540.7224 11419.951 6911086
2992.9685 1539.5394 11411.183 66305
3019.1189 1518.5698 11255.754 7963773
3051.4609 1501.5565 11129.65 9673876
3118.8782 1502.1586 11134.113 132096
3362.2175 1585.7052 11753.367 1316368
3400.6504 1571.1783 11645.692 66049
3427.7393 1552.0942 11504.24 263428
3424.0049 1520.0735 11266.899 2171167
3546.6089 1544.2925 11446.412 4143672
3569.8809 1525.1619 11304.615 789001
3591.5964 1506.0857 11163.221 1642764
3534.1147 1455.094 10785.267 393216
3608.1094 1459.0874 10814.866 655360
3703.804 1471.5625 10907.333 720896
3787.4534 1478.9052 10961.757 655360
3878.2939 1488.7599 11034.801 589824
3952.0388 1491.8333 11057.581 393216
4010.3435 1489.0731 11037.122 1709839
4095.6951 1496.2827 11090.561 3815472
4188.7817 1506.0452 11162.921 6972245
4279.2422 1514.5736 11226.134 327680
4325.8525 1507.5582 11174.136 720896
4394.4722 1508.3093 11179.702 720896
4554.168 1539.8323 11413.353 655360
4645.0195 1547.4941 11470.144 524288
4707.1626 1545.5084 11455.425 393216
4609.312 1491.7975 11057.315 196608
4537.0264 1447.7549 10730.868 657928
4457.2559 1402.5784 10396.017 394500
4420.3076 1371.9283 10168.836 3421233
4355.6865 1333.6323 9884.9834 1710873
4882.4541 1475.0179 10932.944 2237731
0 0 0 0
0 0 0 0
0 0 0 0
0 0 0 0
0 0 0 0
0 0 0 0
0 0 0 0
0 0 0 0
1272.1284 343.19818 2543.8108 65536
1279.0422 341.00943 2527.5876 196608
1271.9567 335.18246 2484.3977 196608
1268.9384 330.54874 2450.0522 196608
1269.9106 327.04794 2424.104 196608
1271.2876 323.72873 2399.5017 394498
1273.1967 320.61719 2376.4387 459776
1265.4591 315.17136 2336.074 65536
1265.2755 311.70474 2310.3792 131584
1250.2938 304.70618 2258.5051 2434332
1230.6538 296.73309 2199.408 2368540
1233.8187 294.36853 2181.8818 2565149
1209.2192 285.49796 2116.1326 986117
1223.1084 285.80374 2118.3989 986117
1222.8617 282.83383 2096.3857 986117
1225.1071 280.49442 2079.0457 986117
1220.3351 276.61111 2050.2625 986119
1214.9844 272.67471 2021.0857 986117
1214.683 269.93753 2000.7975 986117
1211.8778 266.70242 1976.8186 2367767
1216.3395 265.11337 1965.0403 2236181
1221.5609 263.71854 1954.7018 2630939
1225.3096 262.03506 1942.2236 2762523
1228.5961 260.2851 1929.2527 2630937
1227.2715 257.59961 1909.3478 2894108
1225.7036 254.91281 1889.433 3354916
1226.223 252.70493 1873.068 3749674
1238.0098 252.83791 1874.0537 3946797
1248.651 252.73665 1873.3032 3222816
1253.8579 251.54701 1864.4854 196608
1283.0194 255.14177 1891.1301 262144
1301.9347 256.65424 1902.3407 196864
1319.9343 257.96173 1912.0317 196864
1335.9121 258.8551 1918.6534 196864
1349.2444 259.22507 1921.3958 196864
1362.0264 259.48398 1923.3149 328448
1373.4172 259.4758 1923.2542 1248772
1365.4229 255.83559 1896.2726 1841164
1367.9556 254.21124 1884.2329 2432530
1370.8844 252.68631 1872.9299 2761495
1378.1469 251.97829 1867.6821 2630164
1379.952 250.29178 1855.1816 2959129
1385.3041 249.27022 1847.6097 3222301
1391.017 248.32918 1840.6346 3419680
1400.0052 247.98299 1838.0686 3748645
1410.8184 247.96288 1837.9196 4143401
1420.2352 247.69958 1835.968 4340526
1426.9663 246.97543 1830.6006 3682851
0 0 0 0
0 0 0 0
0 0 0 0
1532.3536 257.3642 1907.6028 262144
1519.0363 253.25316 1877.1316 196608
1513.8058 250.54054 1857.0254 1446406
1517.8768 249.39546 1848.538 1577993
1520.6 248.04697 1838.543 2169360
1517.8015 245.82346 1822.062 2893083
1517.0884 243.9668 1808.3003 3288096
1523.3981 243.25771 1803.0444 3551267
1526.5336 242.05518 1794.1312 3945767
1535.1362 241.73021 1791.7227 4274730
1542.8386 241.26895 1788.3037 4538158
1553.7327 241.30972 1788.6058 4866867
1563.4788 241.17287 1787.5914 4932916
1576.6409 241.5612 1790.4698 5195831
1593.1643 242.45589 1797.1013 5261628
1612.2769 243.73004 1806.5454 3484960
1612.7073 242.18181 1795.0699 393216
1623.0457 242.1321 1794.7013 393216
1637.5878 242.70599 1798.9552 393216
1649.8964 242.94362 1800.7164 262144
1664.2891 243.48305 1804.7147 262144
1676.4032 243.68439 1806.207 197120
1689.0594 243.96141 1808.2605 1775627
1702.1171 244.29257 1810.7151 1973264
1720.3193 245.35329 1818.5771 2565401
1722.15 244.08046 1809.1427 2696474
1722.0652 242.55356 1797.8253 2828060
1734.9316 242.85846 1800.0853 2828060
1736.4948 241.58711 1790.6619 3090978
0 0 0 0
0 0 0 0
0 0 0 0
0 0 0 0
0 0 0 0
0 0 0 0
0 0 0 0
0 0 0 0
0 0 0 0
0 0 0 0
0 0 0 0
0 0 0 0
0 0 0 0
0 0 0 0
0 0 0 0
-1309.1996 220.18027 1563.1133 3289648
-1231.2412 208.54959 1480.5443 3289901
-1223.5078 208.73189 1481.8385 3158316
-1241.7628 213.38263 1514.8553 3092523
-1204.2444 208.44731 1479.8182 2895144
-1215.2219 211.89546 1504.2976 2829351
-1214.4572 213.33209 1514.4966 2566179
-1229.6434 217.61307 1544.8882 2039835
-1218.1315 217.19806 1541.942 1710612
-1212.4556 217.82526 1546.3947 131328
-1220.1343 220.87962 1568.0784 394752
-1224.5762 223.39052 1585.9038 854531
-1231.298 226.35956 1606.9817 1314826
-1235.2715 228.86581 1624.7742 1446668
-1237.3627 231.06007 1640.3517 1512461
-1241.5219 233.67842 1658.9401 2104342
-1241.2766 235.50308 1671.8938 2434333
-1237.5442 236.69026 1680.3219 2894631
-1231.932 237.5343 1686.3138 2763559
-1236.9705 240.46263 1707.1029 256
-1220.4536 239.21449 1698.2419 790029
-1227.4879 242.60017 1722.2777 329222
-1169.1702 233.01797 1654.2515 3
-1179.3359 237.03795 1682.7902 2
-1170.7446 237.32439 1684.8237 0
-1098.1392 224.52733 1593.9742 592135
-1127.5635 232.55025 1650.9309 2631716
-1189.0474 247.38414 1756.2404 1315599
-1172.3888 246.0791 1746.9755 1776150
-1165.1403 246.74353 1751.6925 1906963
-1154.313 246.65521 1751.0654 2367511
-1137.5996 245.29607 1741.4166 2828573
-1120.5702 243.84323 1731.1025 3223331
-1109.1058 243.58565 1729.2739 3684140
-1091.7964 242.02754 1718.2125 3684398
-1093.1556 244.61754 1736.5995 3750961
-1083.5139 244.77171 1737.6941 3552814
-1088.2765 248.21417 1762.1329 2763555
-1081.7332 249.11987 1768.5627 0
-1073.7531 249.70921 1772.7466 0
-1066.5024 250.48158 1778.2297 65536
-1056.9723 250.72865 1779.9839 196608
-1048.6576 251.27197 1783.8411 196608
-1036.6732 250.9381 1781.4708 196608
-1031.6069 252.28925 1791.0629 723204
-1005.8745 248.56174 1764.6003 2170642
-1006.3542 251.30119 1784.0485 2368277
-985.60016 248.74017 1765.8672 2762520
-981.8595 250.46397 1778.1049 3025692
-972.29767 250.72421 1779.9523 3288862
-964.0415 251.33057 1784.257 3617827
-955.25293 251.81007 1787.6611 3749673
-947.65436 252.61758 1793.3939 3881258
-940.13818 253.4657 1799.4148 3552809
-934.64465 254.8849 1809.4901 3224103
-919.9115 253.7881 1801.7036 1908246
-895.70325 250.02068 1774.9576 0
0 0 0 0
0 0 0 0
0 0 0 0
0 0 0 0
0 0 0 0
-858.22961 257.78217 1830.0583 2237208
-848.50391 258.13324 1832.5509 2894879
-838.30475 258.3476 1834.0726 3355686
-828.13593 258.57706 1835.7017 3947823
-819.08728 259.16714 1839.8906 4013615
-810.5741 259.94482 1845.4117 4145202
-800.62695 260.27774 1847.775 4276786
-792.23962 261.13403 1853.8541 4342581
-784.09076 262.09421 1860.6707 4342581
-776.04883 263.1181 1867.9395 4210739
-884.54517 304.25745 2159.9978 329216
-880.50238 307.32852 2181.8 855559
-901.82001 319.47549 2268.0344 1513488
-907.11145 326.22763 2315.9695 2303004
-939.71124 343.16031 2436.1787 1776662
-959.14386 355.73947 2525.4812 0
-955.98846 360.20779 2557.2029 131840
-956.81085 366.34351 2600.7617 395009
-933.49921 363.28857 2579.0742 2237214
0 0 0 0
-3047.6909 1226.3516 8706.1689 0
-3075.8088 1259.0483 8938.291 1381908
-3013.2507 1255.1249 8910.4375 1184272
-2954.3477 1252.6108 8892.5898 1776663
-2893.3967 1249.121 8867.8145 0
-2931.1589 1288.9084 9150.2754 1513233
-2753.5747 1233.7166 8758.4541 2368801
-2722.4016 1243.2595 8826.2021 1842969
-2729.7942 1271.1359 9024.1035 1447442
-2710.2229 1287.3224 9139.0156 395013
-2624.6902 1272.1995 9031.6543 0
-2633.1321 1302.946 9249.9316 987405
-2619.7026 1323.9508 9399.0498 6845033
-2546.6284 1315.071 9336.0098 6910826
-2457.9746 1297.5708 9211.7715 3356723
-2491.0312 1344.9885 9548.4014 658698
-2485.3645 1373.2222 9748.8389 3422004
-2497.3816 1412.8081 10029.869 8291456
-2361.158 1368.4171 9714.7266 7831931
-2242.9084 1332.4783 9459.5879 6975853
-2208.6763 1345.8878 9554.7861 6055007
-2117.5925 1324.4478 9402.5771 2435623
-2050.689 1317.3783 9352.3896 526600
-2064.377 1363.1306 9677.1963 1052687
-2050.3904 1392.7083 9887.1758 5461587
-1931.8208 1350.8983 9590.3564 4343106
-1886.1925 1359.1035 9648.6074 0
-1712.322 1272.5197 9033.9268 658186
-1582.1356 1213.8436 8617.3721 9016461
0 0 0 0
0 0 0 0
0 0 0 0
-1078.1492 950.25696 6746.1055 256
-1246.4526 1141.0417 8100.5337 65792
-1047.2683 997.23163 7079.5903 65792
-1047.7136 1039.4294 7379.1631 256
0 0 0 0
0 0 0 0
-1169.2375 1326.6396 9418.1377 1579543
-1180.0641 1406.266 9983.4248 65792
-1114.644 1398.6523 9929.374 592128
-1033.6632 1369.5696 9722.9082 460544
-967.73499 1358.1672 9641.96 723200
-910.91864 1358.9219 9647.3184 394240
-856.46136 1363.5342 9680.0615 460032
-801.29559 1367.6014 9708.9365 262656
-755.52228 1389.5753 9864.9336 525568
-694.34149 1384.5248 9829.0791 722688
-636.62994 1386.0996 9840.2588 524800
-579.70557 1389.8804 9867.0996 524288
-529.43848 1412.2705 10026.053 721152
-480.2157 1443.4811 10247.624 720896
-418.02451 1439.1155 10216.632 786432
-358.92383 1445.7139 10263.476 1311232
-296.91705 1440.9124 10229.388 1640704
-235.51605 1437.3341 10203.985 1575680
-173.57515 1426.835 10129.449 1707778
-115.50711 1453.9293 10321.799 458752
-54.708096 1469.1036 10429.524 393216
7.3186188 1473.5709 10461.239 262144
70.054329 1485.0742 10542.903 196864
134.23383 1501.8671 10662.121 0
200.4326 1523.2333 10813.805 5198669
266.14133 1531.402 10871.796 1711387
324.61313 1502.8732 10669.263 65536
385.75366 1494.007 10606.319 0
446.17612 1485.2418 10544.094 196608
507.62415 1481.6294 10518.448 0
570.07385 1481.4125 10516.908 65536
631.68512 1479.2749 10501.733 65536
690.086 1470.6802 10440.717 65536
749.95337 1466.3712 10410.127 65536
805.68622 1455.2516 10331.186 196608
862.3573 1447.2816 10274.605 196608
919.64722 1441.3361 10232.396 196608
983.82269 1446.2502 10267.283 196608
1046.5867 1448.6365 10284.224 196608
1103.7395 1443.4214 10247.2 65536
1155.5979 1432.1902 10167.467 65536
1209.3186 1424.2688 10111.231 65536
1256.3914 1409.6389 10007.37 263428
1310.4954 1403.8639 9966.3721 460553
1491.0802 1528.22 10849.206 3157548
1431.6072 1406.4279 9984.5742 0
1518.1984 1432.1157 10166.938 65536
1551.9707 1407.9202 9995.168 131072
1596.6488 1395.0378 9903.7139 0
1689.2571 1423.4604 10105.492 4013114
1697.62 1381.3789 9806.7451 592136
1869.8208 1470.9827 10442.864 256
1939.0156 1476.397 10481.303 65536
2012.0618 1484.3156 10537.518 65536
2088.7358 1494.3512 10608.764 0
2167.4436 1505.2109 10685.859 256
2231.3816 1505.4873 10687.821 256
2312.8577 1517.2534 10771.352 256
2388.4377 1524.6219 10823.663 256
2459.4292 1528.7516 10852.98 512
2536.6858 1536.465 10907.739 512
2612.4431 1542.9082 10953.481 512
2672.9348 1540.2415 10934.55 922896
2668.6108 1501.2391 10657.662 4872016
2928.4014 1609.1787 11423.952 7898754
2982.2065 1601.6002 11370.15 8424584
3056.6138 1605.1768 11395.541 2632745
3145.1436 1615.8539 11471.341 1250836
3397.604 1708.5115 12129.14 65536
3228.709 1589.8395 11286.658 131072
3268.4431 1576.6385 11192.941 196608
3306.7219 1563.2765 11098.081 327680
3415.2129 1582.981 11237.968 327680
3506.7952 1594.2426 11317.917 327680
3602.6404 1606.9814 11408.353 262144
3477.6453 1522.5627 10809.044 393216
3478.574 1495.3379 10615.769 458752
3548.3643 1498.1577 10635.787 524288
3646.2324 1512.5259 10737.79 655360
3743.5969 1526.1943 10834.826 524288
3835.0613 1537.0358 10911.792 458752
3912.0278 1541.8026 10945.633 525315
3997.0376 1549.5315 11000.502 854535
4159.5513 1586.5737 11263.475 131072
4111.6221 1543.4451 10957.293 723207
0 0 0 0
4288.4985 1560.3981 11077.646 721921
4391.1519 1573.5837 11171.255 589824
4581.3706 1617.2886 11481.526 589824
4695.6953 1633.3118 11595.278 524288
4732.6841 1622.3607 11517.534 458752
4741.5068 1602.2042 11374.438 393216
4757.9062 1585.1389 11253.288 393216
4838.1821 1589.533 11284.481 393216
4887.5703 1583.7974 11243.765 327680
4459.6621 1425.6376 10120.949 131072
0 0 0 0
0 0 0 0
0 0 0 0
0 0 0 0
0 0 0 0
0 0 0 0
0 0 0 0
0 0 0 0
0 0 0 0
1289.1074 363.10385 2577.7627 65536
1286.3972 358.08353 2542.1223 196608
1273.8868 350.48349 2488.1677 196608
1278.2363 347.64331 2468.0046 131072
1281.9628 344.70007 2447.1099 0
1284.3203 341.45895 2424.1003 1315852
1274.455 335.07617 2378.7874 263168
1266.6167 329.36057 2338.2109 262912
1266.0792 325.64691 2311.8467 131584
1248.2371 317.60983 2254.7898 1907733
1232.6141 310.30231 2202.9116 2434332
1235.6647 307.79987 2185.1462 2434076
1224.666 301.88632 2143.1646 1183496
1227.527 299.47583 2126.052 986117
1226.4742 296.1694 2102.5789 986117
1226.3912 293.16153 2081.2251 1117703
1225.8167 290.09735 2059.4719 1051912
1221.8987 286.31039 2032.5874 1051910
1213.1716 281.48181 1998.308 1249289
1207.8329 277.52542 1970.2206 2696732
1223.3501 278.39108 1976.3662 2894112
1221.7327 275.37814 1954.9764 3223077
1222.5762 272.97144 1937.8909 3486503
1221.8621 270.26517 1918.6783 3815468
1226.8784 268.86472 1908.7362 4276018
1226.9948 266.42599 1891.4232 4604983
1228.5396 264.33893 1876.6064 4737082
1234.8246 263.30017 1869.2322 4671546
1237.9921 261.62112 1857.3121 4735798
1256.6565 263.21774 1868.6469 196608
1285.4948 266.89865 1894.7787 196864
1303.4318 268.27197 1904.5282 196608
1321.7281 269.69498 1914.6304 196864
1338.7267 270.83109 1922.6959 196864
1348.9613 270.59119 1920.9927 196864
1366.9756 271.90271 1930.3037 328704
1368.2346 269.88745 1915.9968 1183748
1362.9675 266.62875 1892.8625 1841164
1362.8051 264.41385 1877.1384 2498323
1364.8293 262.65579 1864.6575 2761750
1371.9956 261.90762 1859.3459 2892822
1376.3179 260.63284 1850.296 3090455
1381.6077 259.56003 1842.6798 3156249
1390.6193 259.19781 1840.1085 3287836
1398.6444 258.65881 1836.282 3617058
1405.0618 257.83313 1830.4203 3814438
1407.5472 256.30417 1819.5659 3946538
1413.5936 255.44202 1813.4452 3485987
0 0 0 0
0 0 0 0
0 0 0 0
1492.0809 261.64307 1857.4679 327680
1501.6991 261.39508 1855.7074 393216
1546.8777 267.29544 1897.5956 327680
1521.6628 261.0347 1853.1488 721920
1511.6001 257.44449 1827.6613 1182210
1515.4041 256.2504 1819.1841 1840395
1516.3123 254.58702 1807.3754 2300946
1520.0645 253.4212 1799.0989 2695960
1524.0625 252.31235 1791.2269 3024924
1531.645 251.8082 1787.6478 3485474
1538.5002 251.19228 1783.2751 3748901
1549.9355 251.32744 1784.2347 4011304
1560.995 251.40024 1784.7516 4274476
1577.2725 252.30673 1791.187 4340268
1582.6614 251.47099 1785.2539 4669235
1611.6095 254.36479 1805.7977 919812
1602.9091 251.31744 1784.1638 393216
1618.3796 252.07498 1789.5417 393216
1633.0018 252.69135 1793.9175 393216
1644.7463 252.8573 1795.0956 196608
1657.2526 253.13748 1797.0847 196864
1671.5522 253.68622 1800.9803 197120
1690.4077 254.91504 1809.704 1446664
1708.2344 255.97414 1817.2228 1643787
1718.0619 255.82878 1816.1909 1972752
1718.9622 254.36424 1805.7937 2499095
1722.0291 253.23651 1797.7877 2959646
1725.3481 252.15955 1790.142 3222818
1729.762 251.25479 1783.719 3485990
0 0 0 0
0 0 0 0
0 0 0 0
0 0 0 0
0 0 0 0
0 0 0 0
0 0 0 0
0 0 0 0
0 0 0 0
0 0 0 0
0 0 0 0
0 0 0 0
0 0 0 0
0 0 0 0
0 0 0 0
-1311.1692 229.81836 1565.465 3289648
-1299.1199 229.3342 1562.1671 3092269
-1251.3781 222.49695 1515.5934 3158060
-1203.7091 215.57352 1468.4327 3026730
-1240.2877 223.74716 1524.1095 2895144
-1214.7357 220.75029 1503.6957 2763558
-1217.8217 222.95189 1518.6923 2631972
-1206.3345 222.49843 1515.6035 2171420
-1212.7452 225.36414 1535.124 1513233
-1222.7955 228.95479 1559.5825 131328
-1220.6874 230.30634 1568.7891 394496
-1224.499 232.80421 1585.804 920324
-1230.6678 235.79248 1606.1592 1315082
-1236.0709 238.67961 1625.8257 1512461
-1236.9084 240.72371 1639.7495 1512461
-1244.0712 244.04109 1662.3467 2301720
-1242.6876 245.72165 1673.7943 2368796
-1235.9707 246.3663 1678.1854 3092009
-1232.0918 247.59171 1686.5326 2763558
-1240.9701 251.42186 1712.6227 263170
-1243.0214 253.92078 1729.6447 987408
-1232.7372 253.92052 1729.6428 197638
-1163.3422 241.64211 1646.0055 2
-1176.9839 246.54959 1679.434 2
-1142.9814 241.47534 1644.8695 2
-1227.5049 261.57034 1781.7516 657930
0 0 0 0
0 0 0 0
-1172.8766 256.57175 1747.7025 1645588
-1162.3094 256.53268 1747.4364 1973012
-1151.9503 256.53931 1747.4814 2236182
-1134.8809 255.03799 1737.2549 2697243
-1120.6956 254.16324 1731.2963 3223331
-1107.8728 253.58411 1727.3514 3618603
-1098.8154 253.86411 1729.2587 3618604
-1090.0507 254.21764 1731.6667 3750704
-1081.1464 254.54506 1733.8971 3750449
-1081.5022 257.07996 1751.1641 2895141
-1074.4291 257.88107 1756.6211 0
-1069.8944 259.31314 1766.3761 256
-1061.5148 259.83246 1769.9136 0
-1050.7323 259.76816 1769.4756 65536
-1044.0295 260.72131 1775.9683 65536
-1033.5118 260.7316 1776.0382 196608
-1038.7823 264.76617 1803.5206 1249546
-1014.6182 261.30429 1779.9393 2104593
-1004.6464 261.46307 1781.0209 2564887
-993.90479 261.42279 1780.7465 2696727
-982.97327 261.33112 1780.1219 2959899
-972.59167 261.38522 1780.4905 3223069
-963.41559 261.76807 1783.0985 3552291
-956.60071 262.8082 1790.1835 3683623
-950.5426 264.08191 1798.8596 3947051
-942.31659 264.77551 1803.5842 3553065
-937.03485 266.32184 1814.1176 3289639
-925.2226 266.02649 1812.1058 1842452
-921.45258 268.06381 1825.9835 256
-884.70807 260.4426 1774.0696 132355
-844.80151 251.69536 1714.4857 3554103
0 0 0 0
0 0 0 0
0 0 0 0
-862.54352 270.01245 1839.2571 2302488
-847.64539 268.75577 1830.6969 2894880
-838.05432 269.1709 1833.5247 3684650
-829.14203 269.8179 1837.9319 3816237
-819.23425 270.1539 1840.2206 4013615
-810.28961 270.82086 1844.7639 4539960
-800.51062 271.22351 1847.5066 4539960
-791.7077 271.97263 1852.6095 4408374
-783.62878 272.99512 1859.5743 4276533
-774.83179 273.79312 1865.0101 4342069
-883.51959 316.73123 2157.4937 329216
-882.24792 320.93448 2186.1252 987143
-899.61938 332.14667 2262.4998 1645074
-908.87555 340.6575 2320.4734 2631969
-939.6413 357.617 2435.9973 1579283
-954.71252 369.04077 2513.8132 256
-966.5246 379.54807 2585.3862 263425
-961.89948 383.83585 2614.5935 197632
-933.59369 378.65973 2579.3352 1316111
0 0 0 0
-3015.6069 1264.6555 8614.5166 0
-3075.291 1311.9664 8936.7861 328707
-3007.811 1305.7369 8894.3525 65536
-2908.9136 1285.4015 8755.833 131072
-2871.0935 1291.8059 8799.458 131072
-2826.4043 1295.3 8823.2598 0
-2743.9116 1281.274 8727.7178 256
-2713.7446 1291.6118 8798.1357 3554358
-2647.564 1284.8783 8752.2686 7502455
-2597.1392 1285.6743 8757.6914 256
-2650.3486 1338.8552 9119.9463 658186
-2582.8401 1332.0017 9073.2617 0
-2747.7021 1447.248 9858.291 1842457
-2613.0415 1406.3174 9579.4814 3356209
-2506.9663 1379.29 9395.3779 1053197
-2467.052 1388.2611 9456.4863 264451
-2484.1714 1430.4929 9744.1592 5856856
-2421.6602 1427.7917 9725.7598 4804426
-2254.4504 1361.7192 9275.6895 1580057
-2209.3599 1367.9445 9318.0947 658698
-2196.4475 1394.9257 9501.8838 2566952
-2162.7761 1409.7996 9603.2012 3817790
-2053.6917 1374.9896 9366.085 5462871
-2074.1262 1427.3716 9722.8975 2369574
-2040.9219 1444.7856 9841.5176 3816504
-1931.1738 1407.4424 9587.1445 4145213
-1853.0869 1391.6041 9479.2588 1973788
-1738.0751 1346.1735 9169.7959 4474948
-1584.5166 1266.9785 8630.3398 4475717
-1361.7056 1125.256 7664.9614 4277310
0 0 0 0
-1145.4653 1014.4612 6910.2554 256
-1073.811 986.37823 6718.9614 65792
-1036.3903 988.78644 6735.3652 65792
-1030.0773 1022.2599 6963.3779 65536
-941.50067 973.47876 6631.0933 256
-824.78857 890.07159 6062.9443 723721
0 0 0 0
0 0 0 0
-1164.9561 1446.8545 9855.6104 256
-1134.7832 1484.0205 10108.775 987150
-1033.3661 1426.9629 9720.1133 394756
-978.2572 1430.8804 9746.7979 65792
-923.52258 1435.8727 9780.8047 131584
-865.8053 1436.5869 9785.6699 196864
-812.82288 1445.8265 9848.6074 131328
-763.20612 1462.9521 9965.2627 131072
-709.87823 1475.2476 10049.017 855307
-641.32617 1455.2573 9912.8477 1842458
