# .PCD v0.7 - Point Cloud Data file format
VERSION 0.7
FIELDS x y z rgb
SIZE 4 4 4 4
TYPE F F F U
COUNT 1 1 1 1
WIDTH 1357
HEIGHT 1
VIEWPOINT 0 0 0 1 0 0 0
POINTS 1357
DATA ascii
-1011.9986 338.01575 1739.0688 3025179
-1004.8516 339.09283 1744.6105 3552036
-999.82068 340.914 1753.9801 3486243
-992.37805 341.9425 1759.2717 3684136
-985.6601 343.2453 1765.9746 3421480
-980.84003 345.2442 1776.2587 2435098
-973.16052 346.26913 1781.532 66048
-971.37988 349.43863 1797.8389 512
-961.34521 349.67642 1799.0623 65792
-948.69476 348.9574 1795.3628 1973263
-935.71106 348.09799 1790.9413 2170384
-925.35602 348.20795 1791.5071 2037770
-915.15149 348.37781 1792.381 2103820
-904.76227 348.48053 1792.9094 2235147
-894.10339 348.48056 1792.9095 2366733
-883.98083 348.69217 1793.9983 2629904
-874.20776 349.04849 1795.8315 3025173
-863.98236 349.23077 1796.7694 3222809
-854.89575 349.88373 1800.1288 3354655
-846.8446 350.98233 1805.7811 3618340
-837.56189 351.59222 1808.9189 3815464
-829.83087 352.87781 1815.5332 3487012
-827.28149 356.42978 1833.8077 2763545
-814.04041 355.40857 1828.5537 263424
-811.95605 359.29669 1848.558 66048
-806.33649 361.70569 1860.952 1184516
-778.03448 353.8653 1820.6138 2368277
-771.32397 355.76248 1830.3746 2433814
-760.31805 355.70438 1830.0757 2433814
-749.19482 355.58893 1829.4817 2696472
-738.09521 355.48148 1828.9288 2893852
-727.3233 355.53098 1829.1835 3223330
-718.97461 356.78445 1835.6326 3025950
-708.80676 357.15991 1837.5643 3091742
-699.22925 357.84927 1841.1111 3354915
-689.21466 358.33331 1843.6014 3354913
-679.77045 359.13434 1847.7225 3420963
-671.23218 360.44815 1854.4821 4145202
-661.11609 360.94446 1857.0355 4408374
-651.03247 361.47559 1859.7682 3618603
-637.22083 359.9194 1851.7617 3158052
-636.24194 365.6842 1881.4213 1184269
0 0 0 0
0 0 0 0
-876.64252 531.90918 2736.6379 65792
-867.88623 536.55414 2760.5359 197632
0 0 0 0
0 0 0 0
-1889.3562 1238.3073 6371.0098 3685938
-1858.5631 1243.0447 6395.3833 6383961
-1821.5684 1243.7455 6398.9893 5725518
-1801.8 1256.489 6464.5537 1580558
-1768.4604 1260.1179 6483.2241 263680
-1739.8964 1267.3872 6520.624 66048
-1691.1802 1259.9738 6482.4824 132096
-1659.3088 1265.0573 6508.6367 2434838
-1632.9838 1274.713 6558.3145 1908751
-1594.7465 1275.3146 6561.4097 1119491
-1562.7659 1281.0757 6591.0498 395264
-1529.4993 1286.0514 6616.6499 66304
-1490.8386 1286.6348 6619.6514 66560
-1449.8434 1285.1804 6612.1689 66304
-1416.1421 1290.2906 6638.4604 66304
-1376.2112 1289.8551 6636.2202 512
-1336.7302 1289.8281 6636.0811 131840
-1291.7684 1284.3501 6607.897 461312
-1245.2869 1276.9701 6569.9272 527107
-1198.4716 1268.7587 6527.6802 2698790
-1150.197 1258.4012 6474.3916 5923929
-1108.7004 1254.9989 6456.8872 6186590
-1069.1777 1253.6671 6450.0347 4738888
-1010.5979 1229.0593 6323.4297 256
-941.96967 1189.8574 6121.7383 526857
-893.03223 1173.3767 6036.9458 1
-864.69873 1183.7214 6090.1689 2171684
-833.9859 1191.5708 6130.5537 6778219
-792.11523 1183.467 6088.8604 4870994
-754.28387 1180.9113 6075.7109 3751743
-698.66327 1148.8466 5910.7402 7174006
-664.53699 1150.6017 5919.77 7569276
-627.5022 1147.2355 5902.4512 8292999
-609.76971 1180.8505 6075.3979 6516329
-587.78217 1209.9395 6225.0591 3292216
-531.6825 1168.0001 6009.2837 4279110
-511.62952 1204.9102 6199.1836 4014912
-454.23856 1152.7922 5931.0405 2237987
-427.33704 1175.7917 6049.3716 460807
-392.25824 1178.4514 6063.0552 2566182
-353.02695 1167.9117 6008.8291 526602
-325.5784 1198.368 6165.5249 592650
-284.11835 1178.4366 6062.979 1974304
-242.73085 1153.0579 5932.4072 2303269
-215.12321 1195.6377 6151.4775 1316117
-178.49345 1195.2451 6149.4575 460809
-144.64377 1218.0615 6266.8467 65794
-110.59758 1254.4808 6454.2217 5067603
-71.122757 1235.3085 6355.5811 6713198
-34.81134 1289.8933 6636.4165 7042419
4.5902281 1275.2885 6561.2754 8884879
44.762878 1309.3732 6736.6392 8358278
86.999496 1343.1316 6910.3237 6779243
123.4482 1294.5388 6660.3169 6713450
162.0192 1286.3987 6618.4365 3094064
206.11064 1316.7063 6774.3677 7437171
245.80533 1313.609 6758.4316 6845549
279.68839 1284.6875 6609.6328 7765623
311.66858 1255.2279 6458.0654 6713191
360.47986 1292.582 6650.25 6450277
413.95367 1337.6184 6881.959 8095359
453.29379 1332.9905 6858.1484 7174514
503.1192 1357.4156 6983.814 6581093
534.42615 1331.9629 6852.8613 1778460
557.38525 1290.7839 6640.9985 198147
600.00488 1297.5707 6675.916 4475717
654.07349 1326.7388 6825.9839 2764330
697.76538 1332.6801 6856.5513 3290675
736.63348 1329.2609 6838.96 5199955
794.0448 1357.9106 6986.3608 6384230
829.65826 1348.288 6936.8535 1053971
862.96222 1336.0015 6873.6396 5200216
898.31726 1327.8575 6831.7402 263943
947.62158 1340.1458 6894.9619 2765361
971.05426 1316.3438 6772.5024 5528925
1051.8752 1369.1344 7044.1064 7897729
1030.4916 1289.9451 6636.6826 7042418
1116.6112 1346.2037 6926.1299 6055779
1151.175 1338.515 6886.5718 2435883
1215.4393 1364.7021 7021.3027 5397595
1261.1404 1368.9994 7043.4121 6319466
1301.566 1367.4779 7035.5845 8227465
1346.8656 1371.0126 7053.7695 9148823
1364.1088 1346.6366 6928.3569 5662052
1423.7578 1364.3254 7019.3647 8688017
1461.4574 1360.5724 7000.0557 9477790
1507.6951 1364.756 7021.5796 8688274
1564.0244 1377.6028 7087.6763 9083032
1573.5321 1349.6167 6943.6895 8030087
1658.4324 1386.0726 7131.2524 7898244
1692.7068 1379.454 7097.2002 9608862
1684.7638 1339.5894 6892.0996 9345947
1718.3013 1333.8168 6862.3999 8885396
1768.7324 1341.1213 6899.9814 9608863
1860.3462 1378.6132 7092.8745 9082006
1954.8049 1416.5045 7287.8228 3753029
1980.1412 1403.7509 7222.2061 2830385
2041.1665 1416.3019 7286.7803 8687505
2045.7686 1389.9946 7151.4312 9937572
2105.1167 1401.1985 7209.0742 9739936
2154.7034 1405.5873 7231.6543 6845301
2202.5522 1408.6931 7247.6338 9739936
2244.7004 1408.1035 7244.6006 10134951
2292.5789 1411.0634 7259.8281 10134953
2348.1721 1418.5743 7298.4717 10200746
2399.1301 1423.0631 7321.5664 10332332
2446.9326 1425.5537 7334.3804 10332332
2497.9153 1429.7776 7356.1113 10200746
2591.3257 1457.7231 7499.8896 10201003
2583.2004 1428.5717 7349.9072 10266539
2661.2722 1447.2661 7446.0889 10200746
2720.478 1455.257 7487.2012 10134954
2771.939 1458.9142 7506.0176 10134954
2799.6267 1450.1415 7460.8828 10266539
2867.7781 1462.2749 7523.3086 10398382
2920.5564 1466.3173 7544.1064 10398122
2965.2075 1466.2188 7543.5991 10134951
2986.0493 1454.5255 7483.438 9542557
3021.1257 1450.0074 7460.1934 9805729
3102.782 1467.653 7550.9785 10463659
3156.5532 1471.7935 7572.2808 10529452
3202.8303 1472.3724 7575.2593 9805986
3279.7007 1486.8043 7649.5103 10200487
3306.3379 1478.3801 7606.1689 10529452
3385.2295 1493.233 7682.5859 10332073
3439.3757 1496.9207 7701.5581 10200486
3522.1025 1512.7869 7783.189 9936801
3569.1572 1513.1187 7784.8965 9147284
3609.7134 1510.7224 7772.5679 9541785
3680.3787 1520.8286 7824.5635 9475735
3720.1062 1518.0576 7810.3066 9673626
3797.9426 1530.7144 7875.4253 9673882
0 0 0 0
0 0 0 0
0 0 0 0
0 0 0 0
0 0 0 0
0 0 0 0
0 0 0 0
0 0 0 0
0 0 0 0
0 0 0 0
1563.8059 555.01038 2855.4922 1052425
1580.6595 554.96741 2855.2708 1315081
1577.5371 547.98621 2819.3533 1315081
1558.2443 535.59387 2755.5952 196608
1556.1719 529.31665 2723.2996 262144
1528.0815 514.41016 2646.6064 131072
1508.6842 502.70401 2586.3792 1906706
1521.8704 501.98163 2582.6626 459521
1509.9318 493.06915 2536.8083 262144
1516.1687 490.2095 2522.0957 262144
1513.3584 484.50931 2492.7686 262144
1515.1737 480.38629 2471.5559 722176
1499.8148 470.94962 2423.0049 788225
1488.1305 462.83536 2381.2576 722432
1465.7335 451.57364 2323.3167 196608
1441.2108 439.87329 2263.1194 196608
1443.5118 436.50067 2245.7673 196608
1432.1847 429.1066 2207.7253 327936
1406.7532 417.65927 2148.8296 196864
1370.9529 403.36725 2075.2981 2499354
1358.7692 396.2168 2038.5094 2300946
1353.3572 391.1499 2012.4406 1972237
1337.2552 383.10928 1971.072 1971724
1335.9755 379.41782 1952.0798 1774089
1320.3201 371.74243 1912.5905 1577223
1283.8699 358.39328 1843.9099 2366739
1295.3964 358.54944 1844.7133 2958876
1302.5564 357.50455 1839.3375 3156255
1303.1705 354.69543 1824.8846 3419170
1305.2816 352.33679 1812.7496 3617061
1302.2214 348.63226 1793.6901 3814440
1293.1296 343.38626 1766.6998 4274988
1296.7841 341.58228 1757.4183 4471854
1293.9247 338.10501 1739.5281 4669234
1298.4554 336.59863 1731.778 4800820
1303.9077 335.35297 1725.369 4866613
1310.411 334.39499 1720.4403 4998199
1318.2236 333.78336 1717.2935 5063991
1326.8601 333.38812 1715.26 4932919
1336.392 333.22217 1714.4061 4998457
1345.3687 332.92136 1712.8585 4867384
0 0 0 0
1381.8988 336.86157 1733.1307 327680
1387.1592 335.64133 1726.8525 262144
1404.1498 337.25638 1735.162 131072
1436.1432 342.42511 1761.7546 1446408
1442.1653 341.37131 1756.333 2038544
1435.9611 337.45947 1736.2069 2630680
1430.4285 333.76013 1717.1741 2892823
1434.1293 332.25241 1709.4169 3024665
1438.1703 330.84418 1702.1716 3287321
1442.8933 329.61139 1695.829 3287321
1447.0585 328.26917 1688.9233 3615258
1453.3204 327.41785 1684.5433 3812894
1458.2817 326.28717 1678.726 3944479
1465.8286 325.7464 1675.9437 3944222
1471.7074 324.84476 1671.3049 4207395
1477.6152 323.96155 1666.761 4273188
1485.3204 323.4816 1664.2916 4601896
1493.4541 323.10071 1662.3319 4865068
1499.7007 322.31921 1658.3112 4865584
1506.3593 321.63589 1654.7955 5326135
1508.1157 319.92154 1645.9753 591106
1548.5942 326.39056 1679.2581 524288
1562.0763 327.12326 1683.0277 458752
1577.5948 328.27039 1688.9296 327680
1600.3066 330.89032 1702.4089 1511176
1615.9359 332.02209 1708.2318 1511173
1622.2301 331.23364 1704.1753 2103052
1609.2352 326.54089 1680.0315 2695446
1607.8877 324.25494 1668.2705 3221274
1613.6427 323.42056 1663.9777 3287579
0 0 0 0
0 0 0 0
0 0 0 0
0 0 0 0
0 0 0 0
0 0 0 0
0 0 0 0
0 0 0 0
0 0 0 0
0 0 0 0
0 0 0 0
0 0 0 0
0 0 0 0
0 0 0 0
0 0 0 0
0 0 0 0
-1056.3781 254.45003 1270.2747 3421487
-1048.1736 254.29173 1269.4844 3355694
-1018.6876 248.93068 1242.7207 2631971
-1039.6167 255.90091 1277.5178 3026729
-1049.9911 260.35663 1299.7617 3158315
-1037.2069 259.09338 1293.4553 3158315
-1041.9878 262.23181 1309.1232 3355694
-1035.838 262.6459 1311.1903 3224108
-1033.8745 264.13577 1318.6282 3224108
-1030.7622 265.35269 1324.7032 3224107
-1022.1888 265.17163 1323.7994 3158316
-1052.7113 275.20853 1373.906 3026729
-1056.1732 278.27271 1389.203 2960936
-1067.1135 283.37103 1414.6552 2895143
-1075.9282 287.98145 1437.6714 2697764
-1047.5769 282.63824 1410.9968 2631971
-1098.7716 298.84366 1491.8982 2499870
-1145.2433 314.01785 1567.6512 657925
-1143.7996 316.19513 1578.5208 196608
-1141.4473 318.15518 1588.3059 459776
-1150.5239 323.36014 1614.2902 788481
-1149.3812 325.75629 1626.2523 920065
-1150.2151 328.75803 1641.2378 1183237
-1147.7278 330.85373 1651.7 1314823
-1149.11 334.11072 1667.9596 1643786
-1144.1359 335.56015 1675.1956 2038544
-1142.4314 338.00244 1687.3879 2039057
-1138.7797 339.90671 1696.8945 2565916
-1136.2865 342.19397 1708.3131 2500125
-1139.1993 346.16519 1728.1384 1710869
-1130.1876 346.55222 1730.0706 0
-1129.9384 349.6579 1745.5748 0
-1119.4768 349.63168 1745.4438 65792
-1110.1921 349.97598 1747.1627 0
-1109.8192 353.16266 1763.0714 1051911
-1091.0232 350.49161 1749.7369 1117190
-1080.4644 350.44086 1749.4835 1183237
-1067.2744 349.52747 1744.9237 1577993
-1057.5745 349.75031 1746.0361 1775114
-1046.7744 349.61011 1745.3363 2103820
-1031.5374 347.9704 1737.1505 2498321
-1022.2384 348.32089 1738.9001 2630164
-1011.3833 348.14285 1738.0114 3157277
-1002.834 348.76306 1741.1075 3223071
-998.1488 350.75406 1751.0471 3618086
-991.16498 351.97079 1757.1213 3684392
-984.54669 353.3446 1763.9797 3421478
-980.2334 355.58417 1775.1602 2698013
-973.17419 356.86554 1781.557 395008
-971.9256 360.32932 1798.849 512
-960.9939 360.2403 1798.4047 256
-943.22687 357.5582 1785.015 1907470
-936.52319 359.05664 1792.4956 2104336
-925.3913 358.87231 1791.5754 1971976
-915.05011 358.9939 1792.1823 1972234
-904.46808 359.02277 1792.3264 2235406
-893.87061 359.04605 1792.4427 2366990
-883.69928 359.24319 1793.4269 2564625
-874.5387 359.86105 1796.5115 2827795
-861.15369 358.73441 1790.8868 3156760
-853.26074 359.89603 1796.6859 3420448
-845.91058 361.31894 1803.7894 3618340
-837.99622 362.53433 1809.8571 3749929
-830.34418 363.8963 1816.6562 3487270
-824.52026 366.10587 1827.687 2763546
-814.05878 366.28778 1828.5951 460800
-814.93701 371.646 1855.3446 66048
-805.12146 372.20755 1858.1479 1316102
-778.02051 364.6825 1820.5812 2565400
-771.10297 366.53918 1829.8501 2631193
-759.91895 366.39194 1829.1151 2565400
-748.25409 366.00522 1827.1846 2696730
-737.88696 366.25125 1828.4127 2828314
-727.54248 366.51605 1829.7346 2959900
-718.9165 367.66772 1835.4841 3025950
-708.38574 367.86575 1836.4728 3025950
-698.75 368.54211 1839.8492 3289121
-689.38556 369.38528 1844.0586 3486499
-680.6604 370.60379 1850.1416 3684648
-671.71533 371.74063 1855.817 4145202
-662.70636 372.87949 1861.5024 4013616
-654.45819 374.49237 1869.5543 3487016
-654.11444 380.76215 1900.8545 3158052
-638.73853 378.3483 1888.8041 2565916
0 0 0 0
0 0 0 0
-885.79456 553.90167 2765.208 65792
-878.39716 559.66272 2793.9685 65792
0 0 0 0
0 0 0 0
-1806.7466 1220.384 6092.4453 592898
-1848.2408 1273.951 6359.8643 1250826
-1771.8091 1246.7738 6224.1895 1711632
-1714.9688 1232.5173 6153.0181 1646097
-1686.1605 1238.2247 6181.5103 3159594
-1624.1182 1219.2374 6086.7212 1645846
-1587.754 1219.1008 6086.0391 461058
-1633.0662 1283.1322 6405.6992 1119241
-1562.6245 1257.1001 6275.7407 395011
-1566.1893 1290.7872 6443.9146 2369306
-1532.9559 1295.0758 6465.3242 1053194
-1496.526 1296.8149 6474.0068 4080178
-1439.0089 1279.8907 6389.5166 987658
-1402.7068 1281.4292 6397.1973 592641
-1368.9242 1285.4193 6417.1167 3356199
-1351.8296 1305.7576 6518.6499 1316363
-1290.3787 1283.187 6405.9727 3355695
-1261.666 1292.7897 6453.9116 790282
-1198.9963 1267.1086 6325.7056 6975339
-1108.9253 1209.8689 6039.9512 3356982
-1091.0264 1230.1749 6141.3237 4475207
-1049.8552 1224.7383 6114.1826 855823
-1008.3661 1218.5272 6083.1758 0
-958.62115 1201.5066 5998.2046 0
-921.50708 1199.6136 5988.7549 263172
-884.2793 1197.4144 5977.7759 5067602
-848.84436 1197.5605 5978.5049 2896435
-813.20483 1197.418 5977.7935 66308
-759.57605 1169.5636 5838.7373 7502716
-719.5282 1160.954 5795.7563 5003095
-674.79834 1143.5439 5708.8413 6516334
-651.4964 1162.5256 5803.6025 8621711
-618.61932 1165.5891 5818.8965 6845299
-572.49567 1142.5782 5704.0205 6385005
-541.33801 1148.4192 5733.1797 4739665
-509.33954 1153.1415 5756.7549 4081991
-474.00772 1150.454 5743.3379 5529181
-450.85855 1179.2124 5886.9072 5002837
-403.38608 1143.8406 5710.3223 2436138
-384.31711 1189.9097 5940.3105 4673356
-344.60825 1174.9315 5865.5356 4869966
-315.49493 1196.7729 5974.5732 3422263
-281.02036 1201.2393 5996.8696 3553593
-243.22743 1190.7577 5944.5439 1842716
-207.9657 1191.2112 5946.8071 2237475
-173.13527 1194.8267 5964.8569 723978
-138.42314 1201.3314 5997.3306 1645082
-103.52184 1210.1385 6041.2974 2501161
-68.529755 1226.6785 6123.8687 6251878
-33.361698 1273.9897 6360.0576 6318443
4.5641232 1306.8213 6523.9609 3949637
42.917202 1293.7833 6458.8721 8753553
80.50415 1280.8693 6394.4019 8358796
119.64489 1293.0317 6455.1196 8161930
160.62357 1314.326 6561.4258 7438207
198.76543 1308.6213 6532.9473 6977912
238.44423 1313.2468 6556.0381 8425100
280.36703 1327.1951 6625.6714 7043446
314.46091 1305.2115 6515.9248 7305846
353.6821 1306.998 6524.8428 6845295
397.10016 1322.4075 6601.77 6845549
436.68143 1323.4171 6606.8105 6187363
472.36618 1313.4255 6556.9307 6450534
514.27679 1320.9489 6594.4888 5265489
572.21777 1365.6648 6817.7212 5199696
591.90375 1319.2045 6585.7798 7108205
634.4953 1326.3922 6621.6631 3422515
680.75739 1339.9653 6689.4233 592904
712.99976 1325.9675 6619.543 3422514
775.07776 1366.0172 6819.4805 2830635
818.60382 1371.0142 6844.4263 5463127
861.0437 1373.8051 6858.3589 6977138
904.25677 1377.5211 6876.9106 7306360
947.60114 1381.1073 6894.8135 6582637
949.22668 1326.1129 6620.2686 4345418
986.43146 1323.2244 6605.8481 1186330
1055.4891 1361.6492 6797.6743 4344904
1055.9652 1312.0281 6549.9541 6910833
1110.9139 1331.2113 6645.7212 7502970
1188.3219 1375.0656 6864.6519 4147528
1228.005 1373.8037 6858.3525 8555659
1269.4094 1374.4867 6861.7622 4871250
1317.0245 1381.6426 6897.4863 3291448
1323.2025 1346.2089 6720.5928 2369833
1382.0032 1364.8207 6813.5073 6845813
1443.5688 1385.0254 6914.3735 7701121
1504.4694 1403.4907 7006.5571 8030344
1540.7516 1398.6139 6982.2109 7898501
1554.9431 1374.4662 6861.6602 8950676
1600.5371 1378.6014 6882.3037 7832451
1646.5165 1382.854 6903.5337 9148311
1711.7759 1402.6985 7002.6021 9082521
1746.7904 1397.4053 6976.1772 9082777
1746.756 1364.9694 6814.2495 9871522
1805.2091 1378.6719 6882.6553 9477021
1933.3319 1443.7955 7207.7681 9674400
1951.132 1425.4934 7116.3994 10003365
1947.9918 1392.9939 6954.1548 9148056
1984.7772 1389.8027 6938.2231 9148057
2049.0217 1405.5774 7016.9741 8884884
2090.2659 1405.2598 7015.3887 9608607
2111.8057 1391.9667 6949.0269 9674401
2178.7366 1408.5287 7031.7075 9016470
2162.4968 1371.7103 6847.9019 9871779
2281.949 1420.734 7092.6396 9542814
2309.7271 1411.9384 7048.7295 9871780
2379.4705 1428.6525 7132.1709 9937574
2423.6074 1429.6764 7137.2822 10003367
2447.7991 1419.1018 7084.4912 10200745
2512.7817 1432.1331 7149.5469 10200746
2571.3706 1441.1476 7194.5493 10134953
2622.8499 1445.9476 7218.5122 10332332
2675.6633 1451.3168 7245.3164 10463918
2708.1335 1445.6564 7217.0581 10398125
2747.3218 1443.7025 7207.3042 10003368
2820.8264 1459.5651 7286.4937 10266539
2864.0959 1459.54 7286.3682 10332073
2895.7578 1453.6884 7257.1558 10332073
2940.2268 1454.3435 7260.4263 10266280
3005.6145 1465.1772 7314.5107 10003108
3024.8362 1453.5177 7256.3037 9608350
3075.8508 1457.2488 7274.9302 9674143
3137.3582 1465.7784 7317.5122 10134951
3221.887 1484.6836 7411.8911 10266280
3272.5383 1487.678 7426.8398 10463659
3334.0933 1495.4833 7465.8057 10595245
3401.5344 1505.6892 7516.7563 10463659
3440.0002 1502.9708 7503.1851 10463659
3455.1487 1490.2648 7439.7534 10200487
3531.3213 1503.8679 7507.6641 10003365
3667.0845 1542.1924 7698.9883 10134951
3665.6055 1522.5663 7601.0103 10266536
3709.396 1521.9926 7598.1465 9739935
3798.0176 1539.6058 7686.0762 9279125
3756.0742 1504.5024 7510.8315 9476504
0 0 0 0
0 0 0 0
0 0 0 0
0 0 0 0
0 0 0 0
0 0 0 0
0 0 0 0
0 0 0 0
1583.856 573.09882 2861.0447 1380621
1591.0408 569.58179 2843.4868 1249033
1557.8721 551.8443 2754.937 262144
1549.2628 543.08508 2711.2087 393216
1536.8185 533.1756 2661.7385 196608
1514.6548 520.13055 2596.6147 657154
1516.6454 515.55969 2573.7957 459520
1521.1915 511.94009 2555.7258 196608
1519.728 506.38965 2528.0166 196608
1519.6047 501.39001 2503.0574 196608
1510.2668 493.47662 2463.5518 327936
1501.7356 485.97617 2426.1079 262656
1474.0105 472.46622 2358.6631 722690
1473.2257 467.76483 2335.1924 985348
1433.5059 450.90424 2251.0205 920065
1435.4474 447.33881 2233.2209 722432
1433.3718 442.5983 2209.5552 262144
0 0 0 0
1370.5029 415.5687 2074.6169 2433560
1357.5586 407.97211 2036.6931 2170130
1352.5139 402.86288 2011.1866 1971981
1336.1356 394.49689 1969.4218 1774602
1334.2096 390.50626 1949.4995 1839882
1320.6461 383.20761 1913.0629 1577222
1284.0709 369.41333 1844.1986 2498325
1298.5375 370.41248 1849.1865 2958876
1300.7942 367.94116 1836.8491 3090462
1304.9935 366.05591 1827.4375 3353634
1304.6899 362.94916 1811.9279 3748647
1299.6306 358.58112 1790.1216 4011819
1295.1006 354.42886 1769.3926 4340781
1294.2991 351.35571 1754.0507 4471855
1295.1672 348.78128 1741.1986 4669234
1298.2277 346.8334 1731.4742 4932406
1304.5303 345.77548 1726.1929 4932406
1310.172 344.5603 1720.1265 5063992
1317.932 343.91672 1716.9135 4998199
1326.125 343.39511 1714.3096 4932406
1335.8259 343.26901 1713.6801 4998199
1340.5773 341.88254 1706.7584 4668981
1368.0736 346.27386 1728.6809 1182724
1381.8988 347.16522 1733.1307 393216
1385.4539 345.48239 1724.7296 393216
1396.0958 345.57849 1725.2095 196608
1476.2151 362.74561 1810.9117 1512201
1448.1377 353.26987 1763.6066 2300689
1430.9371 346.56464 1730.1324 2761495
1429.7938 343.81631 1716.4122 2893079
1436.6353 343.0134 1712.4038 3155482
1438.3529 341.00705 1702.3877 3287322
1442.4999 339.60065 1695.3666 3155992
1447.3486 338.37781 1689.262 3746845
1452.6748 337.28271 1683.7949 3944223
1458.6688 336.3566 1679.1715 3878430
1466.1003 335.77228 1676.2545 3944222
1472.153 334.88217 1671.8109 4075809
1478.7078 334.11749 1667.9934 4207395
1486.3248 333.60144 1665.4171 4536360
1494.7322 333.26837 1663.7544 4799532
1499.9628 332.23608 1658.601 4930864
1508.5769 331.96179 1657.2317 4997429
1499.1223 327.74088 1636.1598 722435
1549.9159 336.66101 1680.6913 524288
1563.4449 337.42441 1684.5023 393216
1584.3928 339.76904 1696.2073 524800
1603.6417 341.72198 1705.9568 1379846
1615.1089 342.00256 1707.3577 1379844
1614.6353 339.76697 1696.1969 2300688
1612.8353 337.28174 1683.79 2629653
1607.74 334.14227 1668.1172 3221275
1608.6262 332.27686 1658.8046 3352345
0 0 0 0
0 0 0 0
0 0 0 0
0 0 0 0
0 0 0 0
0 0 0 0
0 0 0 0
0 0 0 0
0 0 0 0
0 0 0 0
0 0 0 0
0 0 0 0
0 0 0 0
0 0 0 0
0 0 0 0
0 0 0 0
-1067.61 264.78769 1283.7809 3421487
-1041.4077 260.14877 1261.2899 3289901
-1040.6277 261.83926 1269.486 3224108
-1043.3285 264.43665 1282.079 3289901
-1040.8088 265.73941 1288.3953 3355694
-1018.205 261.89557 1269.7589 3289901
-1024.2574 265.42014 1286.8472 3289901
-1027.1085 268.16193 1300.1404 3289900
-1027.9781 270.42401 1311.1078 3289900
-1033.5542 273.96826 1328.2915 3158315
-1028.8478 274.82047 1332.4232 3026730
-1034.1215 278.37238 1349.6442 2960936
-1055.9468 286.47018 1388.9052 3026729
-1066.036 291.48669 1413.2268 2829350
-1080.448 297.77423 1443.7108 2697764
-1080.0249 300.04111 1454.7015 2631971
-1099.4725 307.90948 1492.85 2434080
-1143.9172 322.96329 1565.8361 855045
-1144.2871 325.71841 1579.1937 256
-1151.4718 330.47488 1602.2549 525568
-1151.4362 333.22125 1615.5702 656896
-1149.4141 335.43408 1626.2987 788480
-1149.4937 338.30301 1640.2083 1051651
-1148.4059 340.87451 1652.6758 1183237
-1148.9677 343.98428 1667.7531 1512200
-1144.1118 345.51205 1675.1602 1972751
-1142.7539 348.13232 1687.8641 1907471
-1138.9825 350.05728 1697.1969 2368794
-1139.6689 353.3989 1713.3983 2500126
-1134.8971 355.09305 1721.6121 1908248
-1133.6173 357.92053 1735.3207 256
-1129.624 359.93536 1745.0892 0
-1120.4896 360.33423 1747.0232 65536
-1110.8979 360.59216 1748.2736 0
-1108.4265 363.18796 1760.8589 1051910
-1091.6362 361.09677 1750.7202 985604
-1080.3745 360.81174 1749.3383 1117445
-1066.9172 359.78079 1744.3398 1512200
-1057.6654 360.16162 1746.1863 1709578
-1047.1439 360.11337 1745.9524 1841418
-1033.4866 358.97498 1740.433 2301199
-1021.2672 358.31805 1737.248 2630164
-1013.1662 359.10742 1741.0752 2827800
-1003.556 359.37268 1742.3612 3091485
-998.9903 361.46869 1752.5233 3815208
-993.4071 363.23685 1761.0961 3749672
-986.68616 364.62228 1767.813 3487270
-981.86713 366.74789 1778.1188 2829599
-972.87469 367.34396 1781.0087 658434
-971.90222 371.01468 1798.8057 512
-963.59167 371.93475 1803.2664 65792
-945.7674 369.16193 1789.8229 1973263
-936.5415 369.72046 1792.5308 1973005
-925.55664 369.58942 1791.8955 1906441
-914.93024 369.60019 1791.9476 1972234
-904.42926 369.66248 1792.2495 2301197
-893.07086 369.37155 1790.8391 2366990
-883.62939 369.87607 1793.2852 2630416
-873.35602 370.04041 1794.0819 2827795
-862.11206 369.79245 1792.8799 3222810
-853.2937 370.5918 1796.7554 3354655
-844.99066 371.63806 1801.828 3618339
-838.0556 373.32056 1809.9852 3683879
-829.80029 374.45102 1815.4662 3618855
-829.55756 379.27469 1838.8529 2829340
-814.97601 377.58392 1830.6554 592385
-814.52814 382.48425 1854.4139 66048
-804.2345 382.83218 1856.101 1118724
-778.6203 375.7955 1821.9846 2368790
-771.23785 377.48383 1830.1702 2499607
-759.23322 376.92578 1827.4646 2894365
-747.52386 376.50024 1825.4014 2762779
-737.2478 376.79468 1826.829 2762779
-727.64392 377.44662 1829.9897 3025950
-718.38153 378.29819 1834.1184 3091744
-708.05029 378.60443 1835.6033 3354917
-698.29199 379.23145 1838.6432 3486503
-689.40771 380.3606 1844.1178 3618602
-681.95886 382.33105 1853.6711 3750444
-672.42566 383.17841 1857.7794 3816237
-665.62299 385.63605 1869.6949 3553065
-655.47577 386.20657 1872.4611 3355686
-660.79138 396.06491 1920.2577 2960928
-634.22015 386.82153 1875.4426 3092259
0 0 0 0
0 0 0 0
-894.52405 575.96185 2792.4592 65792
-885.13092 580.6908 2815.387 65792
0 0 0 0
0 0 0 0
-1764.0143 1226.8837 5948.3501 512
-1753.5734 1244.5721 6034.1099 1119239
-1775.8274 1286.6887 6238.3052 461312
-1701.1937 1258.9041 6103.5957 461568
-1664.1511 1258.3323 6100.8237 658945
-1613.755 1247.413 6047.8828 3422767
-1597.6216 1263.0842 6123.8623 4937291
-1550.1584 1254.1393 6080.4941 5858395
-1516.9689 1256.5908 6092.3804 4937294
-1531.0189 1299.2507 6299.21 2107939
-1452.1942 1263.2584 6124.7075 4147007
-1426.8385 1273.1237 6172.5371 3554611
-1375.7063 1259.903 6108.439 1909786
-1369.5225 1288.2462 6245.8564 658695
-1317.7616 1274.1022 6177.2817 2961964
-1265.6896 1258.8378 6103.2744 3488824
-1252.3466 1282.3286 6217.1655 5989472
-1182.7892 1247.9374 6050.4258 4607819
-1138.871 1239.2887 6008.4941 7107439
-1098.9664 1234.589 5985.708 3093554
-1060.8726 1231.677 5971.5898 256
-1036.8154 1245.4242 6038.2407 0
-989.9502 1231.7778 5972.0781 3619386
-949.65051 1225.5894 5942.0747 2830383
-923.39697 1237.7506 6001.0366 4738895
-878.34534 1224.6792 5937.6621 3685692
-844.52417 1226.8274 5948.0771 329991
-796.00378 1206.877 5851.3506 6581611
-754.96918 1196.9713 5803.3247 4870994
-716.45038 1190.2968 5770.9644 6910833
-667.80042 1165.2725 5649.6382 6450283
-649.27228 1192.9421 5783.79 5726304
-604.15924 1172.129 5682.8809 6186855
-571.58148 1174.6106 5694.9121 5529182
-539.97467 1179.5256 5718.7417 3357757
-506.73581 1181.2961 5727.3267 5463391
-469.45892 1173.2307 5688.2222 5397853
-440.45114 1186.1824 5751.0166 6055525
-407.6586 1190.2637 5770.8037 6055525
-367.25848 1170.8417 5676.6392 5134423
-343.52322 1205.9935 5847.0674 3818307
-301.91647 1179.2562 5717.436 5068374
-277.43234 1221.0988 5920.3027 4739408
-237.73233 1198.3981 5810.2417 6186854
-203.06125 1197.6394 5806.5635 3159347
-172.29697 1224.3313 5935.9756 3225140
-139.5457 1247.0177 6045.9668 5858658
-104.72393 1260.5239 6111.4492 7568252
-67.194801 1238.4806 6004.5757 5462363
-32.464802 1276.5344 6189.0737 5988963
4.4068851 1299.2498 6299.2051 5924711
40.856686 1268.2219 6148.772 6056297
79.119347 1296.1976 6284.4077 7635072
118.06045 1313.7765 6369.6357 8226952
155.39667 1309.295 6347.9087 7898244
194.10651 1315.877 6379.8198 7700865
234.56593 1330.2291 6449.4038 6779762
275.11499 1340.9854 6501.5537 7043960
311.3591 1330.693 6451.6528 7569276
344.26349 1309.9502 6351.085 4937297
378.97849 1299.5164 6300.498 5661017
423.29211 1320.9128 6404.2354 3028784
459.34753 1315.1342 6376.2183 4870732
504.53134 1334.379 6469.5244 6318947
545.41748 1340.3364 6498.4077 4673865
590.06445 1354.1364 6565.3145 5792090
628.31598 1352.4578 6557.1758 6186078
670.29291 1358.5255 6586.5947 461062
701.15991 1342.6493 6509.6211 4343359
750.63745 1362.207 6604.4438 2370083
788.60046 1359.9634 6593.5659 5594711
819.32074 1346.0332 6526.0278 3489337
854.20685 1339.8973 6496.2788 4475720
909.75275 1365.297 6619.4253 2172965
938.74982 1350.3999 6547.1987 3226680
969.97302 1339.7635 6495.6304 8358278
1036.3813 1376.6802 6674.6143 8688013
1049.9044 1343.2141 6512.3599 6253159
1075.5385 1327.072 6434.0972 7502969
1123.1155 1338.1836 6487.9697 6713710
1196.9344 1378.786 6684.8242 9148050
1221.8119 1362.2135 6604.4751 4937042
1289.4377 1392.8496 6753.0098 4016196
1326.9503 1390.0896 6739.6279 6055526
1360.6097 1383.5731 6708.0342 4673359
1423.8372 1406.6387 6819.8633 7042421
1441.0079 1384.1864 6711.0068 6516335
1484.7341 1387.7649 6728.3574 4476751
1528.3107 1391.0194 6744.1362 8950932
1566.2195 1389.0809 6734.7378 8490381
1610.5769 1392.8158 6752.8452 7831680
1658.4348 1399.3225 6784.3921 3225400
1726.2882 1421.9911 6894.2974 4542289
1731.7395 1393.3979 6755.6685 8489868
1759.5419 1383.6777 6708.541 8030088
1798.1534 1382.7001 6703.8013 9213849
1827.1873 1374.5598 6664.334 8292491
1858.2323 1368.2458 6633.7222 9017240
1923.3165 1386.7369 6723.3735 9938085
1984.823 1401.9481 6797.1221 9543328
2053.573 1421.5667 6892.2393 10201257
2065.9844 1402.1805 6798.249 10135464
2153.0732 1433.2493 6948.8809 9805987
2151.2344 1405.0657 6812.2373 9608607
2187.731 1402.4996 6799.7959 10069159
2255.9172 1419.9734 6884.5151 9871780
2310.6418 1428.5022 6925.8652 9872038
2351.04 1428.0304 6923.5781 10003367
2377.9082 1419.498 6882.2104 9740195
2453.5334 1439.8678 6980.9692 9871781
2499.9722 1442.7164 6994.7808 10134953
2547.814 1446.2683 7012.0015 10200746
2581.6377 1441.8765 6990.7085 10134950
2644.9404 1453.8275 7048.6509 10134953
2688.7227 1454.8434 7053.5762 10200744
2733.1348 1456.1635 7059.9766 9871779
2752.9285 1444.5259 7003.5537 9608350
2802.8657 1448.8165 7024.356 9279385
2865.2065 1459.2983 7075.1758 10463659
2900.8057 1456.0541 7059.4458 10397866
2985.3833 1477.1362 7161.6597 10529452
2996.7395 1461.9059 7087.8179 10200487
3038.1079 1461.5358 7086.0234 10266280
3106.5369 1474.0156 7146.5303 10266537
3161.2444 1479.736 7174.2642 10529452
3206.1597 1480.7815 7179.333 10595245
3259.8657 1485.8062 7203.6943 10463659
3325.4185 1496.0303 7253.2642 10332073
3360.9504 1492.6597 7236.9224 10266537
3431.2729 1504.63 7294.959 10266535
3483.4888 1508.4608 7313.5317 10332072
3526.4551 1508.2413 7312.4678 10266022
3573.4451 1509.7271 7319.6714 10265766
3610.9949 1507.2367 7307.5972 9871520
3636.5544 1499.8602 7271.8335 9674397
3665.0125 1493.8386 7242.6387 9871519
3714.2944 1496.3458 7254.7944 9410970
0 0 0 0
0 0 0 0
0 0 0 0
0 0 0 0
0 0 0 0
0 0 0 0
0 0 0 0
0 0 0 0
1550.6167 565.57635 2742.1067 196608
1552.8167 560.48615 2717.4277 393216
1541.1003 550.52954 2669.1548 393216
1534.7448 542.67133 2631.0554 393216
1530.0306 535.54626 2596.5107 393216
1529.304 529.94525 2569.3552 327680
1526.3827 523.70209 2539.0862 262144
1508.1888 512.39252 2484.2534 262144
1515.0034 509.71625 2471.2781 327680
1505.2263 501.56277 2431.7473 459520
1473.1818 486.21524 2357.3372 1182983
1427.5275 466.70743 2262.7566 1117190
1429.1545 462.87744 2244.1875 1051397
1428.9875 458.54263 2223.1709 788226
1431.1097 455.01511 2206.0681 656640
1408.3931 443.72592 2151.3345 459776
1367.5686 426.9863 2070.175 2433303
1367.6099 423.1907 2051.7727 2235666
1340.0129 410.98553 1992.5978 2234896
1337.6292 406.65936 1971.623 1708809
1330.119 400.86343 1943.5226 1642503
1308.9406 391.08359 1896.1064 1445636
0 0 0 0
1299.4772 381.68207 1850.5247 2958876
1300.8599 378.88052 1836.9419 3090462
1302.5385 376.21109 1823.9996 3287841
1303.8588 373.48312 1810.7736 3617061
1295.6741 368.09949 1784.6718 4011819
1294.5774 364.80066 1768.6779 4274475
1295.3386 362.07428 1755.4594 4471855
1295.9452 359.3486 1742.2445 4668977
1300.7073 357.80927 1734.7812 4866613
1303.4349 355.73892 1724.7435 4998199
1309.6406 354.64273 1719.4288 4998199
1318.2916 354.22058 1717.3821 5063992
1325.9885 353.55048 1714.1332 5195321
1335.3226 353.32382 1713.0343 5129785
1341.0674 352.15808 1707.3823 4801078
1343.9575 350.26584 1698.2081 1116931
1380.3053 357.05664 1731.1323 393216
1389.9695 356.89548 1730.351 393216
1394.2976 355.37671 1722.9873 590593
1442.6233 365.01227 1769.7039 1314823
1447.1809 363.51431 1762.4413 2300946
1431.3501 356.9534 1730.6317 2695959
1435.3374 355.39316 1723.0671 2892823
1436.6987 353.20944 1712.4796 3023896
1438.3551 351.12845 1702.3903 3155735
1442.6394 349.71356 1695.5305 3221529
1448.6442 348.73254 1690.7742 3681822
1453.4287 347.47327 1684.6688 3812894
1458.8622 346.38531 1679.394 3878687
1465.6298 345.6268 1675.7164 3944223
1472.354 344.86835 1672.0392 4141602
1478.0948 343.89127 1667.302 4273188
1485.3358 343.2739 1664.3088 4338724
1494.3575 343.07352 1663.3374 4602153
1499.4078 341.97006 1657.9874 4996657
1500.9861 340.09424 1648.8928 4865843
0 0 0 0
1554.9989 347.78976 1686.2032 589824
1563.8661 347.5325 1684.9561 524288
1576.6033 348.13312 1687.868 919553
1599.2216 350.89423 1701.2546 1379846
1631.9232 355.81909 1725.1322 1445637
1612.1627 349.31531 1693.5996 2432274
1605.4569 345.70325 1676.087 2826261
1600.7189 342.55685 1660.8324 3155482
1604.5745 341.27682 1654.6263 3286809
0 0 0 0
0 0 0 0
0 0 0 0
0 0 0 0
0 0 0 0
0 0 0 0
0 0 0 0
0 0 0 0
0 0 0 0
0 0 0 0
0 0 0 0
0 0 0 0
0 0 0 0
0 0 0 0
0 0 0 0
0 0 0 0
-1026.7563 261.9953 1234.655 3421486
-1032.5054 265.35931 1250.5079 3355694
-1030.7972 266.84167 1257.4935 3355694
-1024.5643 267.1658 1259.021 3289902
-1036.0372 272.14566 1282.4886 3421487
-1035.9443 274.13873 1291.881 3355694
-1028.726 274.26187 1292.4613 3421486
-1015.9265 272.88776 1285.9858 3289901
-1009.7457 273.28415 1287.8538 3158315
-1011.4281 275.83096 1299.8556 3158315
-1021.3898 280.69229 1322.7646 3158316
-1031.4969 285.66934 1346.219 3026729
-1054.598 294.35095 1387.1312 3026729
-1064.309 299.40262 1410.9373 2697764
-1079.5917 306.11441 1442.5667 2697764
-1077.7281 308.03302 1451.608 2566435
-1099.1671 316.69656 1492.4352 2434078
-1144.1221 332.33185 1566.1165 920841
-1146.2009 335.6673 1581.8348 131328
-1146.2452 338.45718 1594.9822 459776
-1152.4631 343.13174 1617.0111 656896
-1150.0317 345.28802 1627.1726 920065
-1150.566 348.37891 1641.7384 1051651
-1149.1997 350.94223 1653.8181 1117444
-1147.6194 353.48392 1665.7959 1314822
-1144.0353 355.4473 1675.0482 1709579
-1141.5598 357.7926 1686.1005 1710093
-1138.8076 360.09198 1696.9363 2434331
-1139.4418 363.51276 1713.0569 2499869
-1132.7904 364.65005 1718.4163 2039832
-1133.6002 368.23166 1735.2946 0
-1130.3474 370.54721 1746.2068 256
-1120.7319 370.80063 1747.4009 65536
-1110.5936 370.88419 1747.7947 0
-1102.4087 371.62775 1751.2988 986118
-1091.3363 371.40292 1750.2393 920067
-1080.1261 371.12634 1748.9359 1183237
-1067.8229 370.46524 1745.8204 1577993
-1057.3236 370.4231 1745.6218 1775371
-1045.1211 369.77753 1742.5796 1841162
-1032.7252 369.04999 1739.151 2169613
-1020.7472 368.45847 1736.3635 2630164
-1011.9154 369.0022 1738.9258 2893849
-1004.6538 370.13565 1744.2672 3354657
-996.85229 371.09174 1748.7727 3683879
-994.04871 373.94812 1762.2335 3684392
-986.6662 375.12451 1767.7772 3553063
-983.54254 377.96283 1781.1528 2764061
-972.45898 377.77075 1780.2477 724482
-971.32886 381.48361 1797.7446 512
-964.95703 383.19751 1805.8214 131584
-955.89764 383.8707 1808.9938 1907468
-936.74152 380.45847 1792.9136 2038797
-926.11157 380.47043 1792.9698 2169357
-915.27905 380.39847 1792.6309 2038027
-904.3858 380.29926 1792.1633 2235407
-892.11279 379.61057 1788.9178 2432782
-882.77887 380.17105 1791.5591 2695954
-872.2608 380.22897 1791.832 2959381
-861.63123 380.23914 1791.88 3288859
-853.30261 381.27771 1796.7743 3288862
-844.74225 382.2377 1801.2983 3618340
-837.23743 383.70612 1808.2181 3749928
-830.15106 385.40701 1816.2336 3618342
-822.83423 387.04431 1823.9495 2566168
-817.5202 389.68005 1836.3704 328960
-813.32697 392.92859 1851.6792 66048
-803.22552 393.37277 1853.7722 197632
-781.27258 387.9444 1828.1912 2170383
-772.35834 388.92862 1832.8292 2367764
-760.34344 388.35727 1830.1368 2499607
-748.78662 388.00674 1828.485 2762778
-738.38312 388.25232 1829.6422 3025951
-728.17542 388.60971 1831.3264 3091744
-718.8136 389.43625 1835.2214 3223330
-709.55566 390.3454 1839.506 3355942
-700.3653 391.32077 1844.1023 3487271
-690.9339 392.19034 1848.2002 3421480
-682.42493 393.62009 1854.9379 3289638
-675.19348 395.84579 1865.4265 3158051
-667.61102 397.93655 1875.2793 2895135
-657.35278 398.47638 1877.8231 3158307
-651.05597 401.47763 1891.9666 2960928
-639.37585 401.20645 1890.6887 3158306
0 0 0 0
0 0 0 0
-894.89911 592.81165 2793.6296 65792
-887.4433 598.98932 2822.7419 256
0 0 0 0
0 0 0 0
-1605.5488 1148.8566 5413.9961 256
-1686.8875 1231.752 5804.6411 66048
-1661.6332 1238.651 5837.1528 66304
-1656.2059 1260.9395 5942.187 197888
-1625.3048 1264.3823 5958.4116 768
-1595.3634 1268.7418 5978.9565 1053194
-1565.1833 1273.1061 5999.5229 2106137
-1532.0533 1275.2184 6009.4771 5461838
-1512.0989 1288.6602 6072.8213 1777174
-1493.3419 1303.8052 6144.1924 987147
-1444.6949 1292.9587 6093.0786 395012
-1405.1418 1289.9027 6078.6768 329728
-1358.3777 1279.8907 6031.4956 131841
-1325.1108 1282.3983 6043.3125 395524
-1302.569 1295.714 6106.0625 1119248
-1232.2386 1260.8936 5941.9712 5725785
-1192.5342 1256.2806 5920.2324 3949634
-1143.9744 1241.7747 5851.873 5330774
-1113.8339 1246.9799 5876.4028 771
-1077.0714 1244.8687 5866.4536 1580574
-1042.8207 1245.6162 5869.9766 5264981
-998.71655 1234.2385 5816.3589 2238247
-975.46088 1248.7339 5884.6685 1579545
-938.13617 1245.6272 5870.0283 1
-901.81586 1243.6654 5860.7837 1381911
-874.76813 1254.8478 5913.48 4672331
-847.41241 1266.5061 5968.4199 3422520
-780.99011 1218.2443 5740.9863 5791839
-742.61194 1211.3162 5708.3369 6055525
-711.4137 1215.9966 5730.394 5594975
-673.14594 1208.4567 5694.8618 6647665
-633.26025 1197.0596 5641.1528 6319213
-609.94611 1217.4651 5737.314 6845301
-573.84998 1213.2635 5717.5142 7635072
-536.89728 1206.6079 5686.1494 5266525
-501.79379 1203.4929 5671.4702 5792612
-464.37048 1193.9646 5626.5674 4674130
-435.28406 1206.0562 5683.5493 4080966
-401.02029 1204.6307 5676.8325 6647664
-367.15292 1204.2437 5675.0078 6713713
-324.27594 1171.2366 5519.4619 3094071
-296.93225 1193.2179 5623.0488 1251610
-266.45868 1206.6035 5686.1289 4278346
-231.07133 1198.3949 5647.4453 4211525
-196.92244 1194.9102 5631.0239 1316889
-168.20628 1229.7153 5795.0435 1185044
-135.04446 1241.578 5850.9463 460808
-102.71301 1271.9546 5994.0967 5067091
-66.102951 1253.4742 5907.0073 6317670
-31.41058 1270.6815 5988.0972 5463133
4.2194343 1279.8414 6031.2627 7897731
40.382824 1289.644 6077.458 6845556
77.116043 1299.7932 6125.2861 7503744
114.31164 1308.7252 6167.3784 7767430
150.49893 1304.5786 6147.8374 8030345
192.64093 1343.5839 6331.6499 8622482
232.55902 1356.8622 6394.2241 8556688
268.81009 1348.02 6352.5552 8359309
303.75409 1335.6094 6294.0698 7832962
345.54373 1352.7198 6374.7031 7042677
380.95004 1343.9288 6333.2754 7700860
407.74982 1309.0878 6169.0864 7240053
453.59854 1336.1073 6296.416 3949632
495.31085 1347.752 6351.292 4541769
543.39417 1373.8546 6474.3008 5922908
567.37555 1339.5984 6312.8682 5133392
630.23572 1395.692 6577.21 4146495
679.60168 1417.094 6678.0669 5264461
702.1424 1383.2852 6518.7422 1974550
744.71429 1390.4122 6552.3291 921604
771.50952 1368.8394 6450.6665 1053195
813.02209 1374.1852 6475.8584 3685688
860.64001 1388.9001 6545.2031 2962478
907.37823 1400.984 6602.1484 6910574
920.677 1362.5763 6421.1519 4870992
983.71759 1397.9126 6587.6743 4608078
1011.4123 1382.2375 6513.8057 6187366
1010.5328 1330.108 6268.145 6581868
1078.7251 1369.3685 6453.1606 7766399
1106.6697 1356.5955 6392.9668 6121572
1156.9456 1371.1357 6461.4883 5134676
1195.3002 1371.0675 6461.1665 3489851
1242.4801 1380.8113 6507.0845 6187108
1306.1667 1407.7573 6634.0674 5397337
1328.4611 1389.8196 6549.5356 6976884
1349.4736 1371.6006 6463.6787 6384490
1413.8756 1397.2703 6584.6475 8621708
1437.58 1382.4208 6514.6689 5792353
1469.5839 1376.1221 6484.9863 6516076
1583.1398 1444.5587 6807.4946 3028276
1557.8839 1386.0801 6531.9136 5068630
1599.8315 1388.7839 6544.6558 8161160
1648.2203 1396.8181 6582.5166 6779251
1680.9427 1391.5109 6557.5059 4871252
1723.7101 1394.5709 6571.9263 4015685
1764.5593 1395.9779 6578.5571 8292488
1791.6469 1386.6729 6534.707 6845300
1844.2153 1397.0656 6583.6826 8490638
1893.6592 1404.7084 6619.6997 7042936
1921.812 1396.568 6581.3379 9345692
1973.8649 1405.7739 6624.7212 9674400
2041.0765 1425.2046 6716.2881 8490383
2059.4937 1410.4718 6646.8599 9345177
2109.9836 1417.8458 6681.6099 6581872
2169.6047 1430.9698 6743.457 3817534
2151.9678 1393.5864 6567.2871 6450285
2249.3745 1430.7084 6742.2246 6712944
2294.4202 1433.8094 6756.8384 2897463
2305.3325 1415.8406 6672.1602 7634816
2352.542 1420.3947 6693.6216 10003366
2442.1384 1449.9636 6832.9653 10200746
2489.5181 1453.9099 6851.562 10266539
2538.8635 1458.8584 6874.8823 10003367
2580.9268 1459.5322 6878.0576 10069159
2606.7822 1451.1622 6838.6138 10200746
2669.3613 1463.1791 6895.2432 10398124
2686.3669 1450.2296 6834.2188 10398124
2709.3987 1440.8707 6790.1147 10332330
2782.2212 1457.8767 6870.2559 10398123
2832.1064 1462.5457 6892.2583 10397866
2879.9097 1466.0216 6908.6387 10397866
2924.0925 1467.5826 6915.9946 10397866
2982.0083 1475.8972 6955.1777 10397866
3017.6758 1473.1237 6942.1074 10463659
3074.5347 1480.6301 6977.4814 10332073
3118.4192 1481.772 6982.8623 10266280
3170.9092 1486.9188 7007.1172 10200487
3251.1687 1504.7855 7091.314 10003108
3312.5923 1513.588 7132.7959 10134694
3348.833 1510.807 7119.6899 10200487
3400.053 1514.7687 7138.3599 10463659
3386.9868 1490.3457 7023.2661 10529452
3411.1873 1482.7157 6987.3101 10332073
3453.2893 1482.957 6988.4473 10332073
3498.907 1484.6843 6996.5869 10332073
3577.2095 1500.0771 7069.126 10332073
3613.5142 1497.7057 7057.9502 10266280
3405.9397 1395.4674 6576.1514 10266280
0 0 0 0
0 0 0 0
0 0 0 0
0 0 0 0
0 0 0 0
0 0 0 0
0 0 0 0
1553.196 582.84631 2746.668 327680
1550.7421 575.87115 2713.7974 262144
1550.7931 569.96027 2685.9424 196608
1542.0359 560.96558 2643.5549 196608
1538.5436 554.0484 2610.9575 196608
1534.587 547.10382 2578.2312 393472
1532.0652 540.8031 2548.5391 327680
1515.733 529.79858 2496.6802 393216
1503.2463 520.33862 2452.0999 393216
1502.8745 515.21356 2427.948 196608
1441.8558 489.5929 2307.2104 1248776
1434.0496 482.35349 2273.0947 1117190
1417.1661 472.22461 2225.3623 1051397
1415.2639 467.22891 2201.8201 985604
1416.4138 463.32318 2183.4143 722688
1393.8962 451.81683 2129.1904 1380616
1364.9171 438.44199 2066.1614 2433303
1360.2764 433.05405 2040.7706 2235923
1346.9624 425.02454 2002.9315 2169359
1338.6947 418.71414 1973.1937 1840395
1328.0312 411.77051 1940.4719 1576454
1309.9606 402.66965 1897.584 1379844
1296.1096 395.01016 1861.4886 2827290
1294.9457 391.31427 1844.0717 2827290
1297.8146 388.88879 1832.6416 3024669
1300.3521 386.40524 1820.9379 3222048
1305.8125 384.82413 1813.4868 3682854
1292.5673 377.80145 1780.3925 3946026
1292.959 374.84641 1766.4667 4340781
1295.4613 372.5459 1755.6256 4471855
1297.2937 370.09109 1744.0573 4603441
1298.802 367.5835 1732.2401 4866613
1303.806 366.09692 1725.2346 4998199
1311.3569 365.34308 1721.6821 5063992
1317.1428 364.11301 1715.8855 5129784
1327.2156 364.07776 1715.7194 5129272
1336.1627 363.73669 1714.1121 4997687
1345.8951 363.61295 1713.5289 4932407
0 0 0 0
1388.5585 369.54486 1741.4832 393216
1392.6503 367.89078 1733.6882 393216
1419.3296 372.18405 1753.9203 854018
1437.767 374.26917 1763.7465 1446409
1445.5507 373.57095 1760.4561 2432532
1437.3846 368.7905 1737.9281 2630166
1435.673 365.72244 1723.47 2958616
1438.3413 363.80576 1714.4375 3155483
1439.4337 361.5202 1703.6669 3287322
1444.3035 360.20868 1697.4863 3352601
1447.4114 358.479 1689.3352 3747102
1454.0356 357.63806 1685.3723 3812894
1459.7018 356.57458 1680.3606 4010273
1465.55 355.56976 1675.6254 4075809
1471.9404 354.70914 1671.5696 4075810
1478.548 353.91199 1667.8131 4207394
1485.6849 353.2514 1664.7001 4272931
1494.3575 352.96225 1663.3374 4405031
1499.6978 351.89499 1658.308 5128242
1499.0206 349.4389 1646.7338 4996658
1494.1324 346.03949 1630.7139 1444869
1567.699 360.73676 1699.9749 524288
1570.4429 359.05344 1692.0422 524288
1586.0984 360.32474 1698.0332 985090
1611.4763 363.77469 1714.2913 1445383
1626.9312 364.95535 1719.8551 1511687
1614.5009 359.90512 1696.0558 2366482
1604.0033 355.3457 1674.5695 2958102
1603.6993 353.08688 1663.9248 3023897
1591.7666 348.31116 1641.4192 3418137
0 0 0 0
0 0 0 0
0 0 0 0
0 0 0 0
0 0 0 0
0 0 0 0
0 0 0 0
0 0 0 0
0 0 0 0
0 0 0 0
0 0 0 0
0 0 0 0
0 0 0 0
0 0 0 0
0 0 0 0
0 0 0 0
0 0 0 0
-1030.6224 272.29623 1248.2274 3355694
-1046.2074 278.41858 1276.2927 3421487
-1021.7545 273.89758 1255.5681 3421487
-1019.8324 275.39423 1262.429 3421487
-1019.576 277.36624 1271.4688 3355694
-1020.5786 279.71271 1282.2252 3355694
-1020.1366 281.69565 1291.3151 3289901
-1010.6164 281.1828 1288.9642 3289900
-1015.6893 284.75339 1305.332 3158315
-1018.7963 287.82355 1319.4059 3026730
-1043.0944 296.97455 1361.3549 3026729
-1053.5193 302.28802 1385.7123 2960936
-1060.7603 306.76456 1406.2329 2829350
-1073.7281 312.98145 1434.7317 2697764
-1076.5459 316.31558 1450.0156 2697764
-1107.6064 328.06897 1503.894 2303005
-1141.9005 340.97919 1563.0756 1184267
-1134.8663 341.65909 1566.1923 65792
-1145.6613 347.76224 1594.1696 393728
-1153.1588 352.95795 1617.9872 656640
-1151.6656 355.46606 1629.4845 854274
-1150.0518 357.97913 1641.0046 920065
-1148.9205 360.68674 1653.4165 1051651
-1146.6891 363.09268 1664.4456 1380614
-1144.3884 365.51837 1675.5652 1643785
-1142.4788 368.11273 1687.4579 1841422
-1139.7156 370.47556 1698.2892 2566172
-1139.8812 373.84119 1713.7175 2565917
-1136.7626 376.18066 1724.4419 1974040
-1126.2367 376.08917 1724.0226 66048
-1130.1404 380.85883 1745.887 256
-1119.9319 380.91696 1746.1534 65536
-1110.6581 381.29709 1747.896 131328
-1102.1213 381.93982 1750.8424 854788
-1091.2527 381.77899 1750.1051 920067
-1080.0897 381.51111 1748.8771 1183236
-1065.937 380.17166 1742.7371 1577993
-1056.1873 380.39172 1743.7457 1775114
-1044.726 379.99365 1741.9209 2038283
-1030.9327 378.73083 1736.1322 2301199
-1020.6071 378.72931 1736.1251 2498578
-1010.2512 378.7164 1736.0659 2828313
-1002.6483 379.74588 1740.7852 3223071
-998.70471 382.19727 1752.0225 3749672
-992.62848 383.87555 1759.7158 3487270
-985.06244 385.00729 1764.9038 3289893
-982.06458 387.96808 1778.4763 2500377
-975.40063 389.52924 1785.6328 460800
-971.9024 392.40292 1798.806 66048
-964.94604 393.9288 1805.8009 131072
-954.35339 393.98785 1806.0715 1644294
-937.40771 391.39569 1794.1887 1973261
-927.0061 391.50757 1794.7018 2235406
-915.60547 391.19528 1793.2701 2235406
-904.7973 391.13174 1792.9788 2366990
-894.38342 391.23917 1793.4712 2366990
-882.08398 390.51437 1790.1488 3024919
-871.65979 390.61224 1790.5974 3025687
-860.00323 390.1535 1788.4944 3288860
-852.58698 391.63098 1795.2673 3420448
-844.1499 392.67105 1800.0352 3486754
-836.80957 394.25455 1807.2941 3552293
-830.25214 396.25293 1816.4548 3026206
-820.48364 396.75128 1818.7393 1908238
-816.39551 400.04633 1833.844 65792
-813.01282 403.78101 1850.964 66048
-803.10785 404.33435 1853.5007 197376
-791.39783 403.98175 1851.8843 1513481
-771.61871 399.44205 1831.074 1973777
-762.37933 400.30664 1835.0372 2302485
-751.64398 400.39941 1835.4624 2565400
-738.82349 399.36774 1830.7334 2960158
-728.35583 399.5961 1831.7803 2960158
-718.25562 400.03604 1833.7969 3025951
-709.29456 401.13376 1838.8289 3091745
-700.64227 402.44327 1844.8317 3157538
-691.91211 403.74887 1850.8168 3091745
-683.98468 405.57275 1859.1775 2960159
-676.65881 407.81906 1869.4749 2565915
-671.85651 411.68674 1887.2046 2631963
-664.96173 414.38184 1899.5592 3026721
-658.40289 417.383 1913.3168 2960928
-644.89899 416.00964 1907.021 3092514
0 0 0 0
0 0 0 0
-880.9212 599.90125 2749.9949 65792
-902.57281 626.26868 2870.8652 256
0 0 0 0
-1462.6578 1054.7871 4835.2275 329472
-1683.0192 1238.0306 5675.2305 512
-1594.8483 1197.1719 5487.9307 512
-1604.8763 1229.8591 5637.7715 66304
-1576.665 1234.0116 5656.8071 512
-1580.1378 1263.6843 5792.8286 66816
-1569.9712 1283.528 5883.7939 197632
-1551.149 1297.0386 5945.7275 6974819
-1503.0529 1286.1302 5895.7227 3948855
-1496.1218 1310.7661 6008.6553 1447953
-1472.7308 1321.8337 6059.3901 512
-1431.4731 1317.0182 6037.3154 2632227
-1400.405 1321.5709 6058.1855 4474686
-1358.3701 1315.7413 6031.4624 256
-1309.4121 1302.708 5971.7163 256
-1268.595 1297.2731 5946.8022 1579798
-1226.5101 1290.1932 5914.3477 4408900
-1198.2726 1297.6914 5948.7202 3948607
-1137.3708 1269.1958 5818.0938 395017
-1098.8333 1264.6515 5797.2622 197379
-1054.3795 1252.7834 5742.8584 328967
-1037.1913 1273.6014 5838.2896 2106661
-1025.3938 1302.7094 5971.7227 4211780
-963.02954 1267.3589 5809.6733 1843489
-924.33221 1261.6831 5783.6553 3422006
-885.16565 1254.9034 5752.5767 3093299
-835.38995 1231.9336 5647.2812 257
-807.62012 1240.8508 5688.1582 197638
-764.76929 1226.3638 5621.7485 4211268
-746.45142 1251.6909 5737.8501 1646112
