# .PCD v0.7 - Point Cloud Data file format
VERSION 0.7
FIELDS x y z rgb
SIZE 4 4 4 4
TYPE F F F U
COUNT 1 1 1 1
WIDTH 1408
HEIGHT 1
VIEWPOINT 0 0 0 1 0 0 0
POINTS 1408
DATA ascii
6538.1353 -8633.4209 16633.262 5460553
7280.1562 -9470.0088 18245.043 723461
0 0 0 0
0 0 0 0
4886.811 -6084.7773 11723.011 11054257
4901.4976 -6017.248 11592.907 9145998
5054.2275 -6118.707 11788.381 13095380
4779.749 -5707.2822 10995.724 10987434
5699.5547 -6713.7593 12934.815 3618103
5692.5483 -6616.2397 12746.933 5593179
5939.4634 -6812.5283 13125.105 11449269
6105.3882 -6912.0366 13316.818 13093581
0 0 0 0
6225.3579 -6869.6948 13235.242 5198421
7110.3955 -7748.3999 14928.168 13621979
7508.6353 -8081.5029 15569.929 12239301
7429.1597 -7898.5918 15217.529 6909042
7442.6265 -7817.7085 15061.698 7961215
7532.0596 -7817.5933 15061.478 4934995
7625.144 -7821.2275 15068.479 5922143
7812.6353 -7920.4868 15259.713 9870236
7610.9771 -7627.4746 14695.191 10922926
6927.6855 -6863.9131 13224.104 12304322
7070.1626 -6926.4731 13344.634 10397608
7103.8638 -6882.2627 13259.457 12305349
6916.3828 -6627.0923 12767.842 12962251
7579.8335 -7183.9502 13840.692 10594472
8168.4136 -7658.6499 14755.254 10656409
7471.5234 -6930.8198 13353.008 3683119
8415.9707 -7724.8418 14882.78 9539721
8159.7056 -7411.7002 14279.478 2958879
8322.9951 -7482.1772 14415.26 6908769
8861.7588 -7885.3198 15191.96 10592673
9047.7822 -7969.6206 15354.374 11119273
9007.7803 -7855.1348 15133.805 13422287
9152.7402 -7902.6123 15225.275 5131609
9425.8691 -8058.7397 15526.072 1974047
9311.3545 -7883.6323 15188.709 5131338
7816.2046 -6554.1758 12627.36 1906965
8759.5918 -7275.3643 14016.812 2894890
8392.292 -6904.6152 13302.521 13290957
9207.1436 -7504.3042 14457.889 2628129
9789.126 -7904.854 15229.595 5524305
9876.2217 -7902.0972 15224.282 4276031
10078.093 -7990.3901 15394.389 13949914
10283.585 -8079.938 15566.913 5197647
10424.854 -8117.8789 15640.011 8488067
10105.777 -7799.8438 15027.28 7107188
10392.916 -7951.1724 15318.831 11318454
10485.985 -7952.687 15321.749 8882830
9894.5059 -7439.4766 14332.992 3617841
8566.0996 -6385.6821 12302.738 2365975
0 0 0 0
12873.272 -9435.3789 18178.324 2234384
12151.829 -8832.4531 17016.719 2892056
10764.397 -7759.4126 14949.385 2892057
10481.63 -7493.7104 14437.48 2168335
9279.1182 -6580.106 12677.318 1774091
8795.9688 -6187.2354 11920.408 1970950
8678.915 -6056.105 11667.771 3154967
8573.7764 -5935.3018 11435.029 3616034
8627.0986 -5925.2329 11415.631 5655616
0 0 0 0
0 0 0 0
11789.441 -7910.4932 15240.458 4341042
0 0 0 0
11462.076 -7574.4131 14592.962 5193782
10910.452 -7155.7251 13786.313 4470314
10811.075 -7037.6792 13558.885 5851454
10455.026 -6755.5327 13015.297 6181445
10314.836 -6615.9834 12746.439 8089441
9962.7949 -6343.5796 12221.623 5522486
9429.7939 -5960.7319 11484.023 4469799
0 0 0 0
0 0 0 0
0 0 0 0
7392.4346 -4541.3604 8749.4443 3877402
7648.3306 -4665.7344 8989.0645 3811606
8224.0332 -4982.1206 9598.6182 3613974
8274.9385 -4978.4146 9591.4785 2955788
8402.1143 -5020.3325 9672.2373 2955790
8668.6787 -5144.3994 9911.2666 3088146
9413.9238 -5548.9453 10690.67 3154196
0 0 0 0
15046.468 -8750.832 16859.467 3680540
14817.457 -8560.6162 16492.994 3088146
15174.133 -8709.0508 16778.971 2496267
15294.189 -8720.6279 16801.275 5259829
14119.051 -7998.3364 15409.698 4338727
11561.809 -6507.4541 12537.346 2430730
11508.356 -6435.8789 12399.447 2364937
11861.883 -6591.3623 12699.005 2693902
12694.05 -7009.1675 13503.952 2562059
0 0 0 0
15466.687 -8433.4375 16247.97 2233861
16468.396 -8923.9014 17192.904 2036226
16210.482 -8729.959 16819.252 2694156
15476.655 -8283.6689 15959.424 2102018
0 0 0 0
0 0 0 0
0 0 0 0
0 0 0 0
-5133.7261 -2917.2188 5685.4722 196608
-5070.3159 -2900.282 5652.4634 65536
-5009.4854 -2884.6042 5621.9087 65536
-4952.2285 -2870.7878 5594.9814 65538
-4902.1016 -2860.9456 5575.7993 65540
-4846.5825 -2847.801 5550.1816 65540
-4779.0771 -2827.3848 5510.3916 65543
-4741.3594 -2824.4312 5504.6353 65547
-4653.5576 -2791.3943 5440.2485 65550
-4593.4546 -2774.626 5407.5684 18
0 0 0 0
0 0 0 0
0 0 0 0
-6036.2515 -3751.1455 7310.7422 10202560
-6196.063 -3878.3838 7558.7212 8294050
-6579.4478 -4148.4482 8085.0591 11322577
-6463.2456 -4105.1709 8000.7148 9017511
-6289.5552 -4024.4675 7843.4292 9741490
-6238.4814 -4021.603 7837.8462 12044756
-6147.4819 -3992.7634 7781.6401 5070699
-5984.4805 -3916.3674 7632.749 7175048
-5781.6758 -3812.5564 7430.4282 4082262
-5860.499 -3894.2886 7589.7183 6186614
-5572.5459 -3731.6755 7272.7964 7636116
-5512.8359 -3720.5583 7251.1294 3092551
-5510.1694 -3748.0674 7304.7427 1579054
-5670.103 -3887.4944 7576.4771 7303047
-5629.3364 -3890.4495 7582.2368 12897240
-5363.394 -3736.5769 7282.3491 9609134
-5298.4185 -3721.3489 7252.6704 9345708
-5499.8394 -3894.51 7590.1504 8555423
-5524.8413 -3944.5781 7687.73 8949926
-5458.4805 -3929.707 7658.7471 11321552
-5617.0825 -4077.905 7947.5752 10860227
-5824.6045 -4264.4331 8311.1064 11715531
-5701.7778 -4210.2222 8205.4531 11451328
-5820.3145 -4334.8374 8448.3203 12831949
-5731.7124 -4306.0073 8392.1318 13291728
-5473.9937 -4148.5044 8085.1689 13422542
-5326.2163 -4072.2688 7936.5903 13619664
-5092.3037 -3928.2249 7655.8589 13685457
-4943.7964 -3848.0598 7499.6216 13685457
-4739.0752 -3722.2825 7254.4897 13619665
-4480.5874 -3551.5759 6921.7939 13750737
-4286.8164 -3429.4792 6683.835 13750737
-3961.7307 -3199.0618 6234.7661 13750737
-3714.291 -3027.583 5900.5649 13750737
-3503.1453 -2882.6997 5618.1968 13684944
-3351.8872 -2784.7827 5427.3628 13619664
-3137.1675 -2631.7249 5129.063 13619664
-2999.3147 -2540.7781 4951.8135 13619664
0 0 0 0
0 0 0 0
0 0 0 0
-2826.1111 -2491.8879 4856.5298 13488845
-2696.0801 -2401.772 4680.8999 13488850
-2729.5212 -2456.9226 4788.3848 13029071
-2607.1597 -2371.5151 4621.9307 10792373
-2604.2817 -2394.1299 4666.0054 13095119
-2580.5535 -2397.8577 4673.2705 13028812
-2660.6396 -2499.1807 4870.7427 11251897
-2612.665 -2481.1206 4835.5449 12239305
-2616.9385 -2512.8281 4897.3408 11779019
-2597.95 -2522.6611 4916.5049 10331836
-2621.1357 -2574.1365 5016.8267 10397368
-2643.9126 -2626.3901 5118.666 10331316
-2541.5474 -2554.1006 4977.7783 13028814
-2521.7957 -2564.1074 4997.2808 13357522
-2475.5183 -2547.0605 4964.0576 13488340
-2418.6541 -2518.5779 4908.5469 13423058
-2326.8813 -2452.6052 4779.9702 11317688
-2332.9937 -2489.4504 4851.7793 13226192
-2239.1523 -2419.2263 4714.917 11055290
-2268.7395 -2482.2668 4837.7788 9080990
-2238.5984 -2480.7378 4834.7988 12898774
-2201.8027 -2471.6982 4817.1816 12372175
-2101.9641 -2390.7173 4659.355 10662071
-2022.9989 -2331.6313 4544.1997 12109777
-2016.8108 -2355.9614 4591.6177 12504280
-2023.4325 -2396.1284 4669.9004 9673908
-1995.1721 -2395.531 4668.7363 10199486
-2017.0587 -2455.9761 4786.54 10858189
-2008.5673 -2480.6335 4834.5957 8819360
-1878.241 -2353.353 4586.5342 4080976
0 0 0 0
-1515.6466 -1955.8258 3811.7791 1550
-1644.5255 -2154.345 4198.6802 1709858
-1851.0525 -2462.2715 4798.8091 11055033
-1858.0564 -2510.2776 4892.3701 1250332
-1947.6344 -2673.144 5209.7866 5460073
-1994.4158 -2781.5869 5421.1348 920852
-2058.7463 -2918.4697 5687.9102 1580834
-2009.3051 -2895.9482 5644.0176 2502464
-1958.9109 -2871.2651 5595.9116 4283248
-1921.549 -2865.1611 5584.0151 10993105
-1877.0791 -2848.0576 5550.6816 5462632
-1743.7614 -2693.1228 5248.7236 3487808
-1856.6588 -2919.7329 5690.3726 263
-1810.4034 -2899.8303 5651.5835 132110
-1782.6919 -2909.4395 5670.311 7240319
-1883.4955 -3133.2043 6106.4146 12571348
-1990.1255 -3375.6475 6578.9204 8887977
-1938.1755 -3353.4355 6535.6309 11322569
-1882.8904 -3324.4265 6479.0942 11913938
-1823.6855 -3287.1406 6406.4268 11978703
-1808.3049 -3328.9407 6487.8921 12833747
-1763.8964 -3317.9604 6466.4922 12438737
-1711.3623 -3290.8657 6413.6865 1646374
-1718.7418 -3380.3728 6588.1299 10203838
-1651.2458 -3323.3567 6477.0093 9479090
-1500.0165 -3091.0698 6024.2969 12308437
-1665.1 -3515.186 6850.8721 12307409
-1537.1104 -3326.3516 6482.8457 12176078
-1499.5331 -3328.491 6487.0156 12636371
-1464.4736 -3336.4797 6502.5854 12438991
-1380.1409 -3229.5996 6294.2827 12898771
-1242.2683 -2987.9849 5823.3906 526603
-1225.5083 -3032.176 5909.5166 921362
-1177.115 -2998.3977 5843.6851 197636
-1099.5419 -2885.9768 5624.5835 14541538
-1208.3021 -3270.9138 6374.8018 11451065
0 0 0 0
0 0 0 0
0 0 0 0
-909.06641 -2813.9102 5484.1304 723717
-872.63544 -2801.6223 5460.1821 65536
-855.56744 -2852.9526 5560.2217 1775893
-862.11938 -2990.3362 5827.9736 657156
0 0 0 0
-2709.6367 -10220.086 19918.291 393984
-2504.2197 -9876.9434 19249.529 196608
-2422.292 -10011.317 19511.414 1380615
0 0 0 0
0 0 0 0
0 0 0 0
0 0 0 0
0 0 0 0
-1130.3113 -6554.9727 12775.222 13225166
-1013.8885 -6303.3521 12284.829 5591642
-987.15033 -6613.519 12889.325 854799
-846.09534 -6145.5601 11977.303 13752026
0 0 0 0
0 0 0 0
0 0 0 0
0 0 0 0
0 0 0 0
0 0 0 0
0 0 0 0
0 0 0 0
0 0 0 0
0 0 0 0
-27.627718 -2702.4668 5266.9346 327937
3.661181 -2685.2063 5233.2949 262144
35.877438 -2770.4424 5399.4146 4538428
65.829735 -2682.9106 5228.8208 2499876
103.47994 -2864.6316 5582.9834 131072
137.06767 -2872.9395 5599.1748 262658
170.65668 -2878.0217 5609.0796 3223084
207.00751 -2920.4058 5691.6836 13618638
257.92291 -3127.4856 6095.2686 13553870
303.04135 -3221.9126 6279.3013 13684946
350.33939 -3316.2588 6463.1753 9276818
388.86212 -3317.0991 6464.8135 0
439.06348 -3408.4497 6642.8496 11779520
515.59222 -3672.2361 7156.9526 12501961
557.22003 -3666.1765 7145.1431 11316915
608.26337 -3718.5361 7247.189 4800591
588.13605 -3357.657 6543.8579 722953
611.74634 -3275.7637 6384.2529 13881556
639.6521 -3225.0955 6285.5044 13684690
0 0 0 0
0 0 0 0
0 0 0 0
544.69617 -2226.1365 4338.5972 13359578
730.44312 -2850.2996 5555.0508 4736326
769.97076 -2874.5747 5602.3618 12762305
754.67529 -2700.6497 5263.3931 13553874
0 0 0 0
0 0 0 0
704.39191 -2241.8442 4369.2109 7369590
715.02625 -2194.7554 4277.4375 12173760
816.77411 -2420.9668 4718.3091 13358030
880.01062 -2521.7964 4914.8193 13488592
906.07233 -2513.0393 4897.7524 13817556
925.11401 -2485.9631 4844.9829 13425370
870.35669 -2268.1982 4420.5728 262917
878.89545 -2223.3167 4333.1016 9079952
889.51337 -2186.1013 4260.5713 13158860
988.39929 -2361.8711 4603.1353 1250073
1034.0237 -2404.3257 4685.8765 13553366
1083.7351 -2453.8066 4782.3115 12829641
1123.8688 -2479.6257 4832.6313 13751253
1133.6421 -2438.8423 4753.1475 854797
0 0 0 0
0 0 0 0
0 0 0 0
0 0 0 0
0 0 0 0
3912.4163 -7321.8564 14269.828 1646874
4139.335 -7582.1133 14777.053 9015690
4238.8105 -7602.9639 14817.688 11777972
3676.1919 -6459.5747 12589.297 197891
4288.2148 -7384.6367 14392.184 2896684
4246.2339 -7169.2935 13972.493 7040370
4612.1606 -7637.7061 14885.399 6974583
4884.1724 -7935.8867 15466.534 11449017
4985.0801 -7950.1724 15494.376 1776930
5064.9648 -7931.0215 15457.052 5527130
4777.8521 -7348.1255 14321.025 12237244
4708.5562 -7114.7686 13866.229 7038831
5219.6914 -7751.3999 15106.981 10264483
5638.665 -8231.9463 16043.534 5261910
5810.6982 -8341.9912 16258.006 6578276
0 0 0 0
6803.5815 -9452.9199 18423.135 1710100
7091.3569 -9696.6533 18898.156 2500125
7010.0972 -9436.04 18390.238 2499610
6949.7925 -9211.2061 17952.049 2960414
5939.8423 -7753.5557 15111.183 3354915
0 0 0 0
5069.7939 -6423.5337 12519.056 5263434
4275.4565 -5338.7173 10404.817 11514284
4749.6177 -5846.2139 11393.896 11448493
5100.8564 -6190.2632 12064.426 10133407
5526.5405 -6613.8633 12889.995 10001569
0 0 0 0
6247.1875 -7274.5527 14177.637 8488586
5820.0562 -6686.958 13032.453 4606801
5820.9814 -6600.1567 12863.282 6581877
6188.3354 -6925.6968 13497.739 11779521
6251.5674 -6906.8999 13461.104 11647934
6625.8735 -7227.9175 14086.747 9871524
7109.7661 -7658.9722 14926.847 10199464
7368.9619 -7840.3306 15280.301 10331047
7088.188 -7449.7578 14519.101 11975615
6971.3149 -7238.7715 14107.901 10527656
7700.4683 -7900.8428 15398.236 9014160
7866.9326 -7976.8101 15546.291 10067104
7964.6787 -7982.1436 15556.686 9212308
7900.0894 -7826.5303 15253.405 8685962
7234.0869 -7085.3975 13808.986 12041146
7775.0933 -7529.833 14675.161 12503244
6992.4106 -6696.6948 13051.429 12896974
7014.4985 -6644.1216 12948.967 10988723
7447.7451 -6977.9111 13599.501 10528172
7746.0459 -7179.4551 13992.298 11905194
7881.9751 -7227.8213 14086.561 66306
8365.8457 -7590.8809 14794.141 12566200
8391.1826 -7534.6572 14684.563 4404013
8225.5254 -7309.8579 14246.444 6777959
8666.042 -7622.8457 14856.437 11582391
8280.6885 -7210.3916 14052.592 11251382
8862.54 -7639.959 14889.79 3158065
9335.3135 -7967.9277 15528.98 3879992
9059.25 -7656.5811 14922.186 7168607
9188.1504 -7690.2163 14987.738 4405042
9174.1973 -7604.7886 14821.245 919817
8965.0635 -7360.7358 14345.602 12108481
9552.2051 -7768.8989 15141.085 7170933
9444.3096 -7609.4385 14830.308 9802908
10173.222 -8120.9229 15827.158 9342353
9918.0098 -7844.6392 15288.699 3880508
10091.693 -7909.5278 15415.162 4605258
9864.6641 -7662.0098 14932.766 12698309
10210.71 -7860.0513 15318.736 5790043
10129.366 -7728.5024 15062.356 9474451
10664.688 -8065.6401 15719.415 4076340
10275.134 -7703.5166 15013.66 3287587
10309.934 -7663.0405 14934.774 3221277
12471.232 -9190.3174 17911.338 2432532
12639.575 -9235.5156 17999.428 2826266
12798.749 -9273.3115 18073.09 1905163
12949.446 -9304.3887 18133.656 4536882
11226.89 -8000.1011 15591.685 2628372
10622.329 -7507.3184 14631.281 4733742
9495.5205 -6656.438 12972.972 3286295
8928.8008 -6208.7339 12100.424 2693902
8790.9229 -6064.0024 11818.352 2498319
8945.4111 -6121.6416 11930.687 4866866
0 0 0 0
0 0 0 0
0 0 0 0
12055.676 -7996.48 15584.626 7959918
11311.793 -7445.8413 14511.468 4273963
10627.704 -6942.5986 13530.68 7300184
10205.978 -6617.02 12896.147 4404520
10102.403 -6501.0312 12670.093 4404009
10346.707 -6608.9668 12880.452 6575689
10137.455 -6427.7349 12527.243 4799277
9280.1357 -5841.2314 11384.186 4667177
8526.8516 -5328.231 10384.38 4272676
7450.1768 -4621.9775 9007.9375 4732712
7163.6895 -4412.5269 8599.7324 3943709
7065.1597 -4320.999 8421.3496 5193007
7225.001 -4387.6641 8551.2764 3679768
7523.8428 -4537.2217 8842.7539 1969669
7567.165 -4531.6831 8831.96 3811353
8037.8022 -4780.3599 9316.6143 2824204
8212.9619 -4851.104 9454.4912 3153426
8787.1426 -5154.9727 10046.711 2825488
9194.1562 -5357.3315 10441.096 4272940
0 0 0 0
14831.094 -8526.7764 16618.141 3746332
14187.002 -8102.498 15791.249 3088401
14568.594 -8265.7354 16109.389 2298629
14781.718 -8331.8818 16238.305 3878176
14390.604 -8058.7949 15706.075 2562317
11727.252 -6524.9697 12716.748 2233351
11323.738 -6260.1001 12200.534 2167558
11358.5 -6239.3516 12160.097 2430731
0 0 0 0
0 0 0 0
0 0 0 0
14710.602 -7880.083 15357.776 4339238
15138.447 -8059.248 15706.958 3812892
14741.41 -7799.7666 15201.244 2694668
0 0 0 0
0 0 0 0
0 0 0 0
0 0 0 0
-6590.0249 -3701.3657 7298.2866 196608
-6496.2217 -3672.8623 7242.084 65536
-6371.7827 -3626.5417 7150.7505 65536
-5560.4971 -3186.0505 6282.1978 65538
-5447.082 -3142.1714 6195.6772 65539
-5370.8838 -3119.3091 6150.5981 65540
-5263.0698 -3077.646 6068.4473 65541
-5231.3154 -3080.1912 6073.4658 9
-5682.5679 -3369.1426 6643.2148 65545
-5633.0205 -3363.1406 6631.3804 15
-5492.8638 -3302.5752 6511.959 18
0 0 0 0
0 0 0 0
-5828.3457 -3579.979 7058.939 9346740
-6003.9551 -3714.5913 7324.3647 11123662
-6236.1245 -3886.4182 7663.1704 7373204
-6204.9941 -3895.4763 7681.0308 7900059
-6189.25 -3914.3999 7718.3438 10400191
-6077.9731 -3872.7346 7636.1885 11453134
-5910.5083 -3794.3711 7481.6729 2174776
-5922.3286 -3830.7874 7553.4785 4015956
-5848.7446 -3812.0959 7516.623 1712176
-5715.9697 -3754.2397 7402.5435 5002340
-5596.6357 -3704.3828 7304.2358 6910081
-5515.4272 -3679.1782 7254.5376 4607067
-5390.8423 -3624.4131 7146.5527 10725819
-5672.6504 -3844.1777 7579.8809 11386830
-5807.5596 -3967.116 7822.2881 12439256
-5498.0137 -3785.9829 7465.1338 6188672
-5392.1431 -3743.2961 7380.9644 9214634
-5579.7852 -3905.3408 7700.481 10201275
-5384.4565 -3799.8044 7492.3867 10333116
-5314.2261 -3781.5256 7456.3447 10728391
-5572.3438 -3998.552 7884.2739 10399423
-5565.1216 -4027.2458 7940.8516 11254730
-5502.3149 -4015.8621 7918.4048 11978960
-5582.2822 -4109.3848 8102.811 11912906
-5607.2378 -4163.6855 8209.8809 11386049
-5383.5078 -4032.6565 7951.52 12567748
-5260.1074 -3975.1255 7838.0815 13422799
-4995.9604 -3809.252 7511.0151 13553871
-5067.4824 -3898.6311 7687.251 13685457
-4863.2227 -3775.5349 7444.5322 13619921
-4614.5337 -3615.3691 7128.7202 13750737
-4227.2041 -3342.6055 6590.8896 13750737
-3892.8862 -3107.0483 6126.4224 13750737
-3734.0247 -3008.4021 5931.9136 13750737
-3600.1499 -2928.1982 5773.769 13750737
-3440.0898 -2824.947 5570.1802 13619665
-3264.8198 -2707.0771 5337.7661 13685457
-3158.6868 -2644.7822 5214.9346 13553871
0 0 0 0
0 0 0 0
0 0 0 0
-2936.5178 -2559.2373 5046.2583 13685457
-2786.0393 -2453.1545 4837.0859 13488335
-2770.1326 -2464.5872 4859.6289 13357519
-2628.9297 -2363.6101 4660.5244 10331307
-2578.9089 -2343.335 4620.5459 12436165
-2571.8994 -2362.126 4657.5981 13423569
-2547.1304 -2364.8379 4662.9453 13422801
-2571.584 -2413.8123 4759.5117 12369856
-2602.3438 -2469.8613 4870.0283 13422546
-2573.7341 -2470.1907 4870.6777 12633288
-2598.8491 -2522.6772 4974.1699 13159633
-2576.825 -2530.0881 4988.7827 13423059
-2597.4973 -2580.0818 5087.3594 11251640
-2577.802 -2590.6841 5108.2646 13423060
-2465.1672 -2507.0217 4943.3008 13159889
-2423.8879 -2494.783 4919.1685 13094350
-2288.251 -2383.9419 4700.6143 12370120
-2262.7031 -2386.4709 4705.6006 12567755
-2214.4648 -2364.8318 4662.9331 12897742
-2137.8569 -2311.9644 4558.6899 12897490
-2178.9788 -2386.6912 4706.0352 8621467
-2117.2871 -2349.2834 4632.2754 12570063
-2003.712 -2252.5625 4441.5625 11845834
-2021.92 -2303.3865 4541.7764 11779530
-2104.5049 -2429.9177 4791.2686 11516613
-2110.479 -2470.2505 4870.7959 13161176
-2090.9419 -2481.4302 4892.8398 13095383
-1987.3112 -2391.7188 4715.9482 11581633
-1882.8389 -2298.4126 4531.9692 1053470
-1785.9069 -2211.7354 4361.0605 1381662
-1677.304 -2107.8379 4156.1973 4145479
-1707.1276 -2177.3928 4293.3442 327688
-1693.7025 -2193.0593 4324.2354 10197673
-1779.6304 -2339.8369 4613.6489 10922429
-1876.87 -2506.3152 4941.9072 13226205
-1920.1655 -2604.9072 5136.3096 394254
-1960.2386 -2702.2437 5328.2358 3092541
-2023.177 -2834.8159 5589.6392 5721949
-2003.2546 -2853.7747 5627.022 3024176
-2091.416 -3029.9653 5974.4316 327685
-2064.4175 -3042.522 5999.1904 458756
-1840.066 -2759.5498 5441.231 327689
-1824.2183 -2784.7393 5490.8989 327686
-1924.3571 -2991.1304 5897.8574 327944
-1896.5309 -3002.5881 5920.4497 65542
-1839.6312 -2967.5798 5851.4209 66571
-1756.7352 -2888.478 5695.4492 5859701
-1948.5614 -3266.8513 6441.5186 11321039
-1937.1729 -3312.866 6532.25 9611190
-1854.0576 -3235.5903 6379.8794 10927046
-1827.1742 -3255.2695 6418.6821 11256007
-1773.4105 -3226.8765 6362.6973 12506071
-1704.1771 -3168.4841 6247.5601 9151406
-1715.812 -3261.1934 6430.3628 2370611
-1680.8079 -3267.4624 6442.7241 1118999
-1611.8137 -3206.4075 6322.3369 9872820
-1536.5773 -3129.7224 6171.1309 12373971
-1527.7737 -3187.907 6285.8579 11913420
-1506.4769 -3222.2871 6353.6479 11649734
-1418.6409 -3112.4504 6137.0742 12308429
-1357.4915 -3056.9102 6027.561 12570832
-1256.9567 -2907.2622 5732.4878 11783625
-1241.604 -2951.7849 5820.2769 197894
-1195.4099 -2923.436 5764.3789 790029
-1171.6182 -2949.8171 5816.3965 592393
-1142.7622 -2964.6643 5845.6724 6382944
-1158.0386 -3098.5269 6109.6196 7896451
-1174.7474 -3245.0151 6398.4629 1250839
0 0 0 0
0 0 0 0
-908.6496 -2780.031 5481.6157 920583
-890.02557 -2824.3457 5568.9946 65536
-884.13538 -2914.0547 5745.8809 657410
0 0 0 0
0 0 0 0
-2620.6152 -9769.791 19263.9 328192
-2497.3823 -9735.8477 19196.971 985857
-2340.9746 -9563.1299 18856.41 722688
-2267.0403 -9726.8965 19179.32 788480
-2159.5601 -9756.4551 19237.604 1117697
0 0 0 0
0 0 0 0
0 0 0 0
0 0 0 0
0 0 0 0
0 0 0 0
0 0 0 0
0 0 0 0
0 0 0 0
0 0 0 0
0 0 0 0
0 0 0 0
0 0 0 0
-180.86838 -3160.2263 6231.2778 13487312
-158.16405 -3475.3469 6852.627 12500416
0 0 0 0
0 0 0 0
-27.190969 -2628.9277 5183.6729 854533
3.6624329 -2655.0015 5235.0845 196608
35.169209 -2684.2869 5292.8286 3948346
66.413033 -2675.322 5275.1519 2106144
102.79464 -2812.689 5546.0098 131328
136.91286 -2836.4443 5592.8501 1446158
177.52773 -2959.2087 5834.915 9407371
217.85037 -3037.7639 5989.8086 13749968
256.5097 -3074.3108 6061.8711 13553616
302.21997 -3175.95 6262.2812 13553361
353.03741 -3303.0776 6512.9492 4408389
395.90536 -3338.05 6581.9072 7566455
454.75928 -3489.3918 6880.3203 12237761
512.02386 -3604.5664 7107.4199 7961737
513.04321 -3336.4084 6578.6709 5396322
531.41968 -3211.1208 6331.6304 1512986
579.97937 -3272.7261 6453.103 9934241
615.75555 -3259.0281 6426.0933 13291473
649.6828 -3237.7161 6384.0708 13226191
0 0 0 0
494.06653 -2204.6138 4347.0181 13423568
0 0 0 0
551.01324 -2225.8613 4388.9136 197893
715.23798 -2758.6284 5439.4146 12633544
729.52612 -2692.0237 5308.084 13423058
682.7074 -2414.801 4761.4614 13291731
702.51752 -2385.9421 4704.5581 13291987
677.04919 -2211.4028 4360.4048 1447705
712.81708 -2242.3728 4421.4707 3885136
748.41693 -2270.6299 4477.1875 12372688
795.27692 -2329.9351 4594.1245 11649997
842.74249 -2387.0176 4706.6787 10005168
867.93372 -2379.3677 4691.5947 11452103
858.66315 -2280.6619 4496.9683 9
847.0415 -2181.8608 4302.1543 11384511
862.20605 -2155.8267 4250.8203 11516352
963.87573 -2341.4099 4616.7505 11779006
1007.1495 -2378.791 4690.458 1842208
1028.5182 -2363.8145 4660.9272 13356754
1117.2762 -2500.4395 4930.3218 13027535
1128.1467 -2460.2246 4851.0269 328963
1088.1696 -2313.8916 4562.4902 723468
1117.7704 -2319.0293 4572.6206 986896
1152.9469 -2335.2161 4604.5376 2039583
0 0 0 0
0 0 0 0
4157.1006 -7860.0625 15498.33 65792
4108.6392 -7599.9858 14985.517 789768
4208.6401 -7619.7397 15024.467 1974043
4108.4775 -7283.8071 14362.08 1052684
4064.9268 -7059.876 13920.538 593157
4208.0605 -7162.6421 14123.17 1118988
4180.5098 -6976.5439 13756.224 6976113
4691.0166 -7678.2837 15139.902 13092808
4779.3628 -7675.6143 15134.639 3289650
4923.6914 -7761.2891 15303.571 5198160
5156.0967 -7980.1738 15735.164 12960968
4676.9502 -7109.6016 14018.585 14671586
4763.0181 -7113.6733 14026.613 3487545
4698.9795 -6897.2739 13599.922 14145757
5347.3081 -7716.1396 15214.546 13488340
5488.356 -7787.9341 15356.109 9341067
0 0 0 0
6896.1416 -9470.5059 18673.773 1446410
6847.0483 -9254.1084 18247.086 2828057
6912.6533 -9197.0635 18134.605 2564630
6835.5679 -8954.8418 17656.996 3091485
6069.6089 -7831.146 15441.313 6314567
5672.5684 -7209.8301 14216.214 8618354
5046.6021 -6320.063 12461.787 4079412
0 0 0 0
0 0 0 0
5483.2749 -6577.2549 12968.913 13161690
5904.043 -6983.77 13770.474 6908784
6189.6045 -7221.4214 14239.07 9738653
6436.6128 -7408.2871 14607.528 5526614
6050.7656 -6871.4814 13549.063 5657688
5804.0869 -6504.749 12825.948 7236976
0 0 0 0
0 0 0 0
6691.9614 -7215.4282 14227.252 10594731
6829.4648 -7271.7764 14338.359 5199711
6371.3193 -6700.3276 13211.587 6252395
6374.561 -6622.1016 13057.342 10463402
7150.7915 -7339.1016 14471.11 11910083
7185.9082 -7287.4668 14369.297 9936293
7518.0928 -7534.772 14856.929 8817299
7865.7441 -7791.6543 15363.445 12633545
7954.9253 -7789.5439 15359.283 11713212
7927.1089 -7674.2148 15131.88 5461586
8332.3389 -7976.002 15726.938 9542040
6921.1548 -6551.6514 12918.429 9081244
7181.2886 -6723.291 13256.865 10857393
7363.7944 -6819.3169 13446.207 10659755
7345.249 -6729.0938 13268.307 12502208
8281.2832 -7506.0015 14800.199 2301212
8366.1982 -7503.2441 14794.763 5920591
8267.1182 -7337.2451 14467.449 2960681
8276.3291 -7269.7861 14334.435 2236449
8199.2842 -7128.7085 14056.261 4802376
8338.9492 -7176.9907 14151.463 8223624
7150.8628 -6092.9814 12014.032 13553103
8960.418 -7559.3311 14905.354 7827310
9015.7705 -7531.5454 14850.566 4208177
9074.2041 -7506.8477 14801.868 3353894
9198.0098 -7536.1855 14859.716 5459534
9290.2393 -7539.3398 14865.936 5197645
9263.9785 -7447.1821 14684.221 11121327
9467.1055 -7539.4253 14866.104 12174016
9704.291 -7656.835 15097.61 3877682
9680.9092 -7568.3853 14923.207 9406602
9780.9619 -7577.1641 14940.518 9541011
10568.571 -8113.6323 15998.315 3421488
10982.82 -8356.4531 16477.105 11053481
11268.909 -8498.3301 16756.855 11974580
10717.148 -8011.4023 15796.739 7827051
11850.905 -8781.9648 17316.121 2497816
11675.446 -8577.4336 16912.83 2234640
11939.042 -8696.1943 17147 3023645
12050.977 -8703.4121 17161.232 1773832
12414.259 -8890.5117 17530.152 2233612
13190.153 -9367.5303 18470.729 2694422
0 0 0 0
0 0 0 0
9537.9434 -6608.707 13030.932 3286294
8572.7139 -5892.0562 11617.851 2695442
9235.0586 -6296.5576 12415.44 4734768
9794.1875 -6624.8286 13062.719 5788738
0 0 0 0
12235.702 -8147.0811 16064.269 2037774
12616.474 -8335.5537 16435.896 11841958
0 0 0 0
10005.423 -6509.6313 12835.575 4077610
9842.582 -6355.2158 12531.101 6445900
9745.124 -6245.0195 12313.818 3351830
10018.329 -6372.23 12564.649 6840146
10175.581 -6424.3506 12667.42 3154969
9767.0898 -6121.1475 12069.569 4931121
9104.3672 -5664.1992 11168.566 4338214
8341.4844 -5152.0049 10158.631 3746076
7820.7739 -4795.6733 9456.0234 2824717
7234.9399 -4404.7793 8685.2656 4140575
7329.4893 -4430.7217 8736.418 4601126
7323.4126 -4395.8979 8667.7529 4732454
7658.063 -4564.6538 9000.5029 4272160
7951.7007 -4706.7915 9280.7676 2758665
7879.8179 -4632.1011 9133.4941 3153424
8050.7563 -4700.1978 9267.7656 3285781
8696.0156 -5042.4038 9942.5225 3944739
0 0 0 0
12223.567 -6992.7983 13788.275 3943715
13417.942 -7624.9375 15034.715 2364169
13830.564 -7807.4072 15394.507 2561292
13576.204 -7613.438 15012.042 2693135
13784.049 -7679.5117 15142.325 2562059
13507.202 -7476.4443 14741.92 2628109
0 0 0 0
0 0 0 0
0 0 0 0
0 0 0 0
0 0 0 0
0 0 0 0
0 0 0 0
14186.439 -7464.9214 14719.198 2036487
14329.446 -7493.9463 14776.429 2364421
0 0 0 0
0 0 0 0
0 0 0 0
0 0 0 0
-6529.9531 -3624.6323 7231.7593 65536
-6440.9019 -3598.897 7180.4126 65536
-6324.4355 -3557.3982 7097.6152 65536
-6186.0356 -3502.9214 6988.9248 65536
-5490.3125 -3129.9824 6244.8486 65536
-5382.1631 -3089.217 6163.5146 65539
-5329.1812 -3079.7744 6144.6748 65539
-5258.8247 -3060.0913 6105.4038 5
-5194.3525 -3043.5825 6072.4658 10
-5137.665 -3031.436 6048.2314 65548
-5060.0215 -3006.666 5998.811 16
-4602.6201 -2754.2905 5495.2788 17
0 0 0 0
0 0 0 0
-6107.9585 -3734.6389 7451.2407 12175836
-6256.1479 -3853.1931 7687.7764 3227729
-6100.5635 -3785.019 7551.7583 6385536
-6073.7769 -3796.3381 7574.3418 5530997
-5937.1353 -3738.6504 7459.2441 11518415
-5851.2998 -3712.3269 7406.7251 2042935
-5881.7764 -3759.9583 7501.7578 4214615
-6125.9805 -3945.9873 7872.9175 2568252
-5855.2256 -3800.6223 7582.8892 6186609
-5618.1265 -3675.0164 7332.2837 3883599
-5737.3975 -3782.3835 7546.4995 7502473
-5817.4893 -3865.4102 7712.1519 6911365
-5438.7026 -3642.4338 7267.2764 4542819
-5490.979 -3706.8921 7395.8809 9937076
-5441.0039 -3702.8047 7387.7266 8752545
-5296.9644 -3634.1157 7250.6802 8029591
-5819.9053 -4025.6523 8031.8628 7436690
-5619.0093 -3918.8447 7818.7632 9543092
-5487.9062 -3859.3364 7700.0342 9807292
-5549.9644 -3935.8091 7852.6099 10465218
-5543.8481 -3964.8225 7910.4966 10464701
-5499.603 -3966.8301 7914.5024 10662076
-5545.9595 -4034.7871 8050.0879 12372173
-5606.6221 -4114.4253 8208.9795 11515836
-5369.2949 -3974.8621 7930.5273 13489106
-5232.9614 -3908.2532 7797.6313 13422798
-4990.1533 -3760.2222 7502.2842 13619920
-4803.7778 -3652.4287 7287.2173 13685457
-4698.4541 -3604.8589 7192.3081 13619921
-4492.6899 -3478.6455 6940.4907 13750737
-4343.9917 -3394.6877 6772.9805 13750737
-4124.5532 -3253.3604 6491.0078 13750737
-3878.6157 -3088.2639 6161.6128 13750737
-3711.1772 -2983.1187 5951.8301 13750737
-3475.7256 -2820.752 5627.8809 13619665
0 0 0 0
0 0 0 0
0 0 0 0
0 0 0 0
0 0 0 0
0 0 0 0
0 0 0 0
0 0 0 0
0 0 0 0
-2347.1384 -2107.7351 4205.2905 8685972
-2614.0071 -2372.656 4733.853 10791604
-2534.3816 -2325.4187 4639.6064 13291474
-2550.689 -2366.1333 4720.8389 13422799
-2506.7603 -2351.2546 4691.1533 13159372
-2552.1978 -2420.8064 4829.9214 13488337
-2574.866 -2470.0981 4928.2666 13224909
-2537.0156 -2461.8003 4911.7109 13619408
-2520.7715 -2474.5193 4937.0874 13488079
-2530.8394 -2513.6711 5015.2021 12895942
-2484.1062 -2496.668 4981.2783 13619667
-2434.1655 -2475.9922 4940.0264 13422802
-2380.4104 -2450.884 4889.9316 13423057
-2281.3704 -2377.9531 4744.4214 10659501
-2230.9016 -2354.4575 4697.5439 12963026
-2202.8286 -2354.3018 4697.2334 13095121
-2162.8818 -2341.2891 4671.2705 13095124
-2125.3733 -2330.6113 4649.9668 9346732
-2104.7683 -2338.4324 4665.5708 5135462
-1978.6895 -2227.7139 4444.6689 11713738
-2243.0181 -2559.4895 5106.6177 12372431
-2220.1604 -2568.167 5123.9307 12833493
-2154.2864 -2526.6345 5041.0664 12438737
-2037.5067 -2423.384 4835.064 11978959
-1791.7998 -2161.6394 4312.8389 4544351
-1778.6864 -2176.9712 4343.4287 9342103
-1756.5223 -2181.5144 4352.4932 2762817
-1743.8741 -2198.1885 4385.7603 4210255
-1706.4855 -2183.7092 4356.8721 12043474
-1837.6418 -2387.7869 4764.042 10331834
-1836.3411 -2423.4482 4835.1924 11515846
-1910.8243 -2561.8477 5111.3228 14213095
-1835.626 -2500.7983 4989.519 592917
-1900.7482 -2632.0518 5251.3921 7896979
-1971.5624 -2775.7031 5538.0005 5922676
-2201.8167 -3152.5161 6289.8071 7566729
-2148.5417 -3129.3845 6243.6558 12829143
-1929.8394 -2860.2561 5706.6987 12696269
0 0 0 0
-1874.2137 -2879.04 5744.1758 4208454
-1919.1578 -3002.7937 5991.0854 393736
-1860.668 -2966.3301 5918.334 722190
-1760.8979 -2861.3823 5708.9453 262666
-1615.8623 -2677.3091 5341.688 9937836
-1900.2841 -3211.6851 6407.8594 7239554
-1862.9183 -3212.9434 6410.3696 11385541
-1791.23 -3153.8223 6292.4131 10468556
-1818.3185 -3269.8057 6523.8193 2631996
-1689.6649 -3104.676 6194.3579 7304329
-1661.0638 -3120.1257 6225.1826 9080225
-1649.4817 -3168.9763 6322.6475 13752544
-1673.5366 -3290.1675 6564.4448 4343375
-1613.4694 -3247.8135 6479.9414 8624031
-1522.0094 -3138.6497 6262.1411 12439762
-1463.9988 -3094.7202 6174.4941 12833750
-1437.0576 -3115.897 6216.7456 12307916
-1386.9961 -3086.7378 6158.5679 11913673
-1274.4098 -2913.0767 5812.0845 7375764
-1227.506 -2884.0591 5754.1895 65794
-1221.2151 -2951.5347 5888.8145 591880
-1183.3885 -2944.5256 5874.8301 657419
-1153.6044 -2957.7092 5901.1338 4014143
0 0 0 0
0 0 0 0
0 0 0 0
-1001.0091 -2921.9111 5829.7104 65536
-924.49213 -2795.3445 5577.1885 591875
-889.99103 -2791.1292 5568.7783 0
0 0 0 0
0 0 0 0
-2624.4309 -9264.4502 18484.156 196608
-2521.4639 -9289.958 18535.049 196864
-2505.6157 -9653.4404 19260.258 656896
-2332.959 -9418.665 18791.842 525312
-2184.4961 -9262.8623 18480.99 591361
-2063.6592 -9213.9033 18383.307 460032
0 0 0 0
0 0 0 0
0 0 0 0
0 0 0 0
0 0 0 0
0 0 0 0
0 0 0 0
0 0 0 0
0 0 0 0
0 0 0 0
0 0 0 0
0 0 0 0
0 0 0 0
0 0 0 0
-156.94429 -3408.1196 6799.7793 13553359
-110.56087 -3233.8491 6452.0801 5197647
0 0 0 0
-27.865526 -2662.5645 5312.27 393984
3.7185493 -2664.082 5315.2974 196608
35.456856 -2674.5176 5336.1187 65536
66.909889 -2663.741 5314.6172 131072
102.11183 -2761.2532 5509.1709 657928
136.3999 -2792.6919 5571.896 1973788
176.47887 -2907.241 5800.4414 13618638
219.23618 -3021.2515 6027.9116 13552847
261.271 -3094.6687 6174.3911 12237500
301.21469 -3128.2795 6241.4507 11052716
351.24109 -3247.7478 6479.8101 65794
0 0 0 0
449.63617 -3409.6387 6802.8101 10921900
481.51788 -3350.0725 6683.9653 4142397
511.60065 -3288.0266 6560.1733 2759974
538.37183 -3214.9944 6414.4619 4733257
576.54877 -3215.231 6414.9336 10921650
657.14996 -3437.3455 6858.0898 8816275
623.5426 -3071.0186 6127.2056 12370122
0 0 0 0
0 0 0 0
581.95123 -2438.7649 4865.7515 1512213
0 0 0 0
635.91229 -2423.9231 4836.1396 9082010
671.30786 -2448.1536 4884.4839 8487051
666.48981 -2329.803 4648.354 6776691
683.46149 -2294.0122 4576.9453 9935526
679.13037 -2192.1978 4373.8081 3023926
708.74365 -2203.4226 4396.2036 12
755.13116 -2264.1443 4517.3535 9543593
757.55487 -2193.4033 4376.2134 7634058
782.65875 -2190.8474 4371.1138 263948
798.50336 -2163.3696 4316.291 458758
809.15814 -2123.98 4237.7021 3417391
860.5495 -2190.6709 4370.7617 11779779
933.17816 -2305.9307 4600.7246 6251368
947.42938 -2274.4805 4537.9761 65542
1011.6827 -2361.4873 4711.5698 13422031
1063.4525 -2415.4524 4819.2388 14079705
1084.2279 -2398.0337 4784.4858 789259
1073.7178 -2314.0789 4616.9819 65537
1091.3594 -2293.4705 4575.8643 5527124
1117.9523 -2292.2173 4573.3643 1184783
0 0 0 0
0 0 0 0
4008.2898 -7659.6265 15282.26 855560
4175.2954 -7801.9224 15566.164 658179
4200.0376 -7677.978 15318.874 1316621
4162.9619 -7448.686 14861.398 1777171
4254.5571 -7454.3682 14872.734 5857110
4167.8809 -7153.8301 14273.11 512
4195.3223 -7057.2505 14080.417 2304802
4308.9893 -7106.6587 14178.995 1186071
4216.9355 -6821.3931 13609.841 13621717
4410.103 -6999.5601 13965.315 0
4708.9312 -7335.7471 14636.065 9870748
4883.1919 -7469.1982 14902.323 12437192
4872.6167 -7320.2124 14605.072 11253687
4608.8726 -6802.7627 13572.67 3029045
5067.103 -7350.4277 14665.355 987920
5395.4775 -7694.3799 15351.6 10663864
0 0 0 0
6789.6001 -9365.6621 18686.092 7040618
6272.1538 -8512.6084 16984.104 4276281
6490.4199 -8669.2773 17296.686 2038803
5996.7139 -7884.9082 15731.736 2171417
5972.2002 -7732.0835 15426.825 9407874
0 0 0 0
5130.5835 -6444.5259 12857.927 4867638
4920.3828 -6089.7603 12150.109 2828578
0 0 0 0
5531.8472 -6651.2578 13270.393 6185824
5784.3511 -6857.0635 13681.011 8027775
5861.0791 -6851.6782 13670.266 12830412
5895.4087 -6797.5537 13562.278 9476765
6050.2036 -6881.9155 13730.594 9409943
5952.3447 -6680.4707 13328.677 9146258
5871.5303 -6503.1968 12974.985 9343636
0 0 0 0
0 0 0 0
6603.2964 -7036.3657 14038.748 9145999
7119.1211 -7491.334 14946.488 5790045
6376.6172 -6627.29 13222.573 5329495
6459.3545 -6631.5273 13231.027 10396068
7161.4214 -7263.8516 14492.622 9212052
7393.4448 -7410.0425 14784.297 8751757
7496.6157 -7425.1733 14814.486 10790570
7698.2754 -7536.3706 15036.344 8487559
7690.2139 -7442.061 14848.181 5987426
7622.3901 -7292.7148 14550.21 11053999
7343.541 -6947.0879 13860.625 10659499
7108.2114 -6649.8438 13267.571 9673378
7068.502 -6540.1226 13048.658 12041920
7108.6172 -6505.8384 12980.256 12040888
7180.937 -6501.4482 12971.496 7105395
7157.876 -6411.7129 12792.46 4340019
7698.4351 -6823.4238 13613.894 985351
7765.9351 -6811.6387 13590.38 1248263
7868.0034 -6830.105 13627.223 8229780
9112.251 -7829.5996 15621.386 13422544
9309.0771 -7918.0205 15797.8 13422546
9047.1514 -7618.3726 15199.952 7565690
9163.5195 -7640.0522 15243.206 8420224
8832.751 -7292.1602 14549.102 3944490
9017.6846 -7372.6401 14709.674 4277315
9082.9775 -7354.6987 14673.877 5854031
9315.2812 -7471.0449 14906.008 3287080
9100.1846 -7229.7549 14424.593 9673369
9590.8857 -7548.4658 15060.476 8356224
9728.4355 -7585.9058 15135.174 8749956
9683.1426 -7481.3911 14926.649 9539730
9788.3574 -7494.0034 14951.814 3289907
11022.826 -8363.1699 16685.949 11186092
10568.379 -7946.8579 15855.335 9472651
0 0 0 0
0 0 0 0
11302.158 -8277.1445 16514.312 2562322
10748.997 -7804.2422 15570.793 2365969
10854.25 -7813.3716 15589.008 2694677
11548.861 -8243.002 16446.193 2695191
11589.149 -8202.3154 16365.017 1249035
11942.509 -8382.041 16723.6 9077882
11129.597 -7746.9902 15456.566 4469545
0 0 0 0
9491.3125 -6499.3057 12967.223 2957587
9539.415 -6479.6152 12927.938 4405033
9668.7764 -6514.9932 12998.521 3682079
9611.2227 -6424.8628 12818.695 3090199
9803.6641 -6501.9497 12972.497 2761492
11279.674 -7422.4727 14809.099 4472110
11300.8 -7378.7798 14721.924 3156248
10658.996 -6906.2319 13779.109 3418137
9957.4658 -6402.4868 12774.052 5655360
9112.9219 -5815.1084 11602.133 4339755
9121.7227 -5776.998 11526.096 4405551
9424.0918 -5923.9937 11819.377 3681316
8958.7158 -5589.7793 11152.562 2496788
8152.5083 -5049.3774 10074.368 3153429
8377.4062 -5150.8301 10276.784 4469286
8049.52 -4913.3965 9803.0635 4206113
7868.8262 -4768.5767 9514.123 4337442
7626.9722 -4589.0244 9155.8857 2956047
7707.0928 -4604.3706 9186.5039 3745817
7425.3003 -4404.8086 8788.3438 4272161
7626.3276 -4492.4502 8963.2041 4337441
7710.2822 -4510.3906 8998.998 3351572
7779.1436 -4519.3145 9016.8027 3088144
8271.4639 -4772.4429 9521.8369 3680283
8108.9814 -4646.8916 9271.3408 5193521
0 0 0 0
0 0 0 0
13052.607 -7330.3818 14625.36 1838081
13572.4 -7571.8589 15107.148 1969924
13345.275 -7396.2061 14756.691 2627595
13471.221 -7417.2471 14798.672 2627595
0 0 0 0
0 0 0 0
0 0 0 0
0 0 0 0
0 0 0 0
0 0 0 0
0 0 0 0
0 0 0 0
0 0 0 0
0 0 0 0
0 0 0 0
0 0 0 0
0 0 0 0
0 0 0 0
-5883.8472 -3227.2534 6516.2129 131072
-5810.5093 -3208.1509 6477.6421 65536
-5451.2686 -3029.8848 6117.7017 65536
-5381.145 -3010.998 6079.5669 65536
-5320.4443 -2997.1646 6051.6353 65536
-5230.3184 -2966.4534 5989.626 65536
-5174.2891 -2954.7922 5966.0806 65537
-5113.5205 -2940.2454 5936.7085 65540
-5065.3013 -2932.7617 5921.5981 65542
-4990.4478 -2909.6445 5874.9219 65543
-4916.2832 -2886.6062 5828.4048 10
-4934.2676 -2917.7302 5891.248 13
-4411.2476 -2627.1055 5304.4419 19
0 0 0 0
0 0 0 0
0 0 0 0
-5821.2949 -3568.9097 7206.0576 6255235
-5761.7764 -3558.6091 7185.2593 8754596
-5940.3081 -3696.2786 7463.2305 6583425
-5902.4028 -3700.3308 7471.4126 8425114
-5555.4058 -3509.2004 7085.4971 527637
-5755.0137 -3663.0625 7396.1631 1909811
-5801.3076 -3720.958 7513.0615 6448759
-5642.5469 -3647.21 7364.1553 5526119
-5582.6719 -3636.7253 7342.9858 4933724
-5860.3428 -3847.6968 7768.9624 1842478
-5713.4858 -3781.0752 7634.4453 4933984
-5590.6724 -3729.426 7530.1597 8949413
-5375.3916 -3614.7622 7298.6392 11384783
-5511.3872 -3736.3748 7544.1899 10726592
-5346.3403 -3654.2209 7378.3115 13227232
-5562.5488 -3833.4519 7740.1997 9410223
-5714.5347 -3971.0437 8018.0142 10134459
-5486.2119 -3844.4504 7762.4072 10529734
-5497.1685 -3884.8057 7843.8896 11713994
-5416.3447 -3860.4363 7794.6846 12569809
-5459.7632 -3924.9629 7924.9717 13095378
-5318.5146 -3856.7021 7787.145 13226707
-5270.1094 -3855.1587 7784.0283 13357520
-5017.1714 -3702.6438 7476.083 13488592
-4809.3784 -3581.0173 7230.5044 13488592
-4683.5605 -3518.7852 7104.8501 13685457
-4580.1909 -3472.4392 7011.2725 13685457
-4439.7773 -3396.9001 6858.7495 13750481
-4252.4209 -3283.7112 6630.207 13750737
-4081.6504 -3181.3311 6423.4897 13750737
-3901.9116 -3069.9614 6198.6206 13750737
-3794.0815 -3013.5842 6084.7886 13750737
-3784.2979 -3034.7478 6127.5205 13685201
-3669.1885 -2971.0381 5998.8828 13685457
0 0 0 0
0 0 0 0
0 0 0 0
0 0 0 0
0 0 0 0
0 0 0 0
0 0 0 0
0 0 0 0
-2254.7644 -2000.766 4039.7869 13422801
-2343.2551 -2101.6743 4243.5332 12106945
-2544.0845 -2306.6331 4657.3691 12830923
-2515.1519 -2305.4924 4655.0664 11317687
-2513.082 -2329.2244 4702.9839 13094093
-2521.6968 -2363.5044 4772.1992 13028302
-2554.9385 -2421.9089 4890.1255 13225424
-2541.6475 -2437.0408 4920.6782 13357009
-2503.405 -2428.322 4903.0737 13488594
-2476.0818 -2430.1143 4906.6924 13488594
-2486.8083 -2469.7375 4986.6968 11185840
-2440.1538 -2452.6423 4952.1797 13225423
-2373.7793 -2415.0669 4876.3101 13357521
-2350.3218 -2420.7649 4887.8154 12501959
-2267.8284 -2365.0398 4775.2993 11712709
-2230.2583 -2355.3442 4755.7231 13226708
-2185.4951 -2337.7058 4720.1089 12635599
-2159.3962 -2339.8328 4724.4033 7700108
-2093.3008 -2298.1055 4640.1509 262160
-2085.9966 -2320.6692 4685.71 4869210
-2235.6653 -2520.8396 5089.8779 13029586
-2167.2778 -2477.2585 5001.8823 12635855
-2150.0879 -2491.7993 5031.2422 12701649
-2073.8672 -2437.3726 4921.3481 11584205
-1921.2347 -2290.2981 4624.3872 5859699
-1845.5807 -2232.0513 4506.7798 11054782
-1816.3224 -2229.0264 4500.6719 3750480
-1787.2087 -2226.0908 4494.7446 8483207
-1717.7332 -2172.0295 4385.5889 11056839
-1700.7837 -2183.7437 4409.2407 8488858
-1820.6951 -2374.2991 4793.9951 12896981
-1915.4827 -2537.6316 5123.7832 13027539
-1859.3966 -2503.1355 5054.1313 12040387
-1809.6632 -2476.1982 4999.7422 1249816
-1945.7114 -2706.8162 5465.3867 9935531
-1928.6273 -2728.6155 5509.4023 4472914
-2160.4343 -3109.3818 6278.2158 12043468
-2030.2015 -2973.314 6003.478 12242128
0 0 0 0
0 0 0 0
0 0 0 0
0 0 0 0
-1818.7662 -2920.3601 5896.5576 657933
-1737.6301 -2844.9155 5744.2261 263432
-1824.5001 -3047.0259 6152.3115 2171692
-1838.2351 -3132.7673 6325.4336 10726327
-1812.7046 -3153.7754 6367.8516 1450038
-1828.9958 -3249.9939 6562.1279 11581381
-1773.686 -3220.4033 6502.3813 11910345
-1666.0562 -3092.3828 6243.8926 13095384
-1597.3938 -3032.5037 6122.9893 12372433
-1549.5391 -3010.2542 6078.0649 12175057
-1640.9323 -3263.9148 6590.2358 4542297
-1590.4838 -3240.9521 6543.8716 4014669
-1494.4373 -3121.592 6302.8696 11978960
-1425.9836 -3055.2114 6168.8389 12834776
-1366.3613 -3004.7471 6066.9453 10600131
-1235.0485 -2789.6177 5632.5732 131076
-1241.126 -2881.4709 5818.0361 13358033
-1224.7247 -2924.9067 5905.7383 0
-1180.3545 -2902.1389 5859.7671 526601
-1143.6608 -2897.4348 5850.269 328707
-1166.5238 -3048.0535 6154.3862 1841943
0 0 0 0
-1093.2643 -3047.823 6153.9209 2235926
0 0 0 0
0 0 0 0
0 0 0 0
0 0 0 0
0 0 0 0
-2299.7307 -8021.939 16197.259 197376
-2522.6689 -9184.1523 18543.906 263170
-2439.6987 -9287.9893 18753.566 328448
-2272.7039 -9066.5693 18306.492 591360
-2146.0132 -8991.749 18155.422 1644306
-2055.2942 -9067.708 18308.791 460032
-1917.5529 -8933.1035 18037.008 1315082
0 0 0 0
0 0 0 0
0 0 0 0
0 0 0 0
0 0 0 0
0 0 0 0
0 0 0 0
0 0 0 0
-242.62628 -2275.5698 4594.6489 4
0 0 0 0
0 0 0 0
0 0 0 0
0 0 0 0
0 0 0 0
-109.05681 -3152.0195 6364.3062 13816015
0 0 0 0
-28.581114 -2698.5464 5448.6895 459264
3.7363238 -2645.0652 5340.7041 196608
35.593262 -2652.9614 5356.6475 459520
68.189857 -2682.4973 5416.2842 196608
102.10677 -2728.3655 5508.8979 328707
137.65096 -2784.877 5623.0015 14144980
176.81119 -2878.1663 5811.3638 13685199
223.75719 -3046.9792 6152.2173 13684943
262.18521 -3068.6611 6195.9951 13684687
305.88812 -3139.1343 6338.2891 12632512
351.69626 -3213.3835 6488.2075 591881
395.84433 -3259.2871 6580.8921 11908792
448.3696 -3359.7046 6783.6475 5459293
465.99811 -3203.6404 6468.5347 6315374
503.03964 -3194.657 6450.3965 12764878
529.94226 -3127.1179 6314.0273 12303555
561.11078 -3092.0215 6243.1631 12632006
573.48462 -2964.1372 5984.9492 13618642
604.43262 -2941.5894 5939.4224 10196649
586.0556 -2694.73 5440.9839 591112
596.37823 -2598.7566 5247.2021 10919592
620.26434 -2568.4905 5186.0908 13749716
0 0 0 0
591.64899 -2228.4534 4499.5151 4344406
610.55463 -2200.1855 4442.439 13488081
656.15533 -2266.4707 4576.2769 13618898
657.5072 -2180.7205 4403.1367 13488082
671.16992 -2140.8042 4322.5405 12961484
706.66187 -2170.8916 4383.291 196620
733.07202 -2171.9316 4385.3911 328967
748.74243 -2142.1736 4325.3062 2499368
770.39771 -2130.9463 4302.6362 7171461
810.0672 -2168.6667 4378.7988 7104645
824.75671 -2139.2458 4319.3945 8947607
910.37677 -2290.0251 4623.8359 11977169
919.02686 -2244.0251 4530.9565 7895439
978.63995 -2321.5398 4687.4678 3
1018.6854 -2349.6287 4744.1826 10331568
1062.6156 -2384.9231 4815.4463 1315348
1065.9344 -2329.6089 4703.7603 262660
1120.1134 -2385.4368 4816.4834 2302500
1242.4175 -2579.9465 5209.2222 2567210
1284.806 -2603.0825 5255.9365 2895402
0 0 0 0
0 0 0 0
3976.0481 -7507.8906 15159.333 328960
4085.1284 -7542.8931 15230.007 1973778
4148.2163 -7493.2974 15129.867 2236950
4207.8779 -7439.7476 15021.744 2565659
4181.3989 -7239.2886 14616.994 4868673
3982.6353 -6754.7871 13638.727 1184268
4169.6592 -6930.8838 13994.287 263427
4204.9692 -6852.8413 13836.71 1711900
4543.5117 -7262.4902 14663.84 2172195
4744.5312 -7441.0327 15024.339 5266265
4789.2393 -7372.3564 14885.674 11252914
4673.0444 -7062.9795 14261.005 2501419
4717.4106 -7002.981 14139.859 8424330
4636.0078 -6761.6484 13652.581 2896175
5089.4844 -7295.3228 14730.133 5067598
5454.9067 -7686.8594 15520.692 1250578
5587.3804 -7742.5669 15633.174 5526867
5608.8525 -7645.1523 15436.48 5066312
5691.7393 -7633.2368 15412.423 3617578
5803.146 -7659.3418 15465.131 3420196
5773.3311 -7501.1455 15145.715 2762008
5426.5757 -6942.3408 14017.42 4078122
5515.6558 -6949.5791 14032.035 6312764
5116.6509 -6350.791 12823.01 6642760
5232.376 -6399.0874 12920.526 6182474
5925.9932 -7142.5122 14421.59 9738904
6221.7593 -7392.0459 14925.429 7304825
5619.2295 -6582.3071 13290.47 13225162
6366.2129 -7353.9111 14848.43 8749704
5667.5088 -6457.2676 13037.999 6842733
5694.2896 -6400.2461 12922.866 4474956
5615.9204 -6228.1309 12575.345 10001823
5626.5269 -6157.917 12433.574 6317416
0 0 0 0
5860.6226 -6249.9053 12619.309 3817283
6638.7002 -6990.1816 14114.017 9475735
5969.627 -6207.2295 12533.142 5330776
6406.5591 -6579.4297 13284.66 8424076
7253.8042 -7358.8193 14858.341 10397353
7466.8052 -7483.7695 15110.63 9146516
7411.4194 -7339.9497 14820.24 11909821
7745.8281 -7581.0093 15306.969 10857134
7475.1294 -7231.1157 14600.492 10725291
6863.2412 -6562.9922 13251.471 9804446
6764.5928 -6395.251 12912.779 9081750
6753.3931 -6313.019 12746.744 10661294
6731.4736 -6222.7031 12564.386 11450041
6988.729 -6389.6118 12901.395 10067361
6974.8433 -6307.6914 12735.987 6446946
7072.9648 -6327.7358 12776.459 9078148
7570.8721 -6701.2168 13530.562 7299931
7816.7822 -6846.1396 13823.178 2629140
8478.9385 -7348.813 14838.136 3024668
8675.6904 -7441.9146 15026.12 2959912
9173.2881 -7788.5518 15726.022 13094865
8953.7236 -7525.4336 15194.755 13423060
9245.627 -7693.1567 15533.407 11908277
8606.3633 -7090.4131 14316.396 5196614
9058.9551 -7390.1992 14921.699 1709330
9439.7695 -7626.1831 15398.18 8094844
9157.1533 -7326.8101 14793.71 12501694
9236.8955 -7320.3057 14780.577 9078407
9743.666 -7649.1577 15444.568 3222574
9754.4844 -7586.1621 15317.373 9737109
9635.377 -7424.2212 14990.396 6710626
9758.1396 -7449.9072 15042.258 3683896
9313.9736 -7046.2314 14227.188 6907238
9993.623 -7492.3628 15127.979 11711151
10081.032 -7490.4839 15124.187 12828863
10042.566 -7395.937 14933.285 4602168
12215.454 -8917.3467 18005.193 2759190
11710.354 -8474.3613 17110.754 2495245
11685.146 -8383.2949 16926.879 1903624
11590.459 -8244.3633 16646.361 5457215
11026.89 -7777.0889 15702.877 2365969
10843.922 -7583.8389 15312.683 2562321
10964.441 -7604.2881 15353.971 4141350
11216.313 -7714.7446 15576.997 4536105
10677.322 -7283.8799 14707.028 5457721
10362.4 -7011.6289 14157.32 2760209
10519.209 -7060.3853 14255.766 2760208
9586.1113 -6382.6753 12887.389 1970694
9377.5723 -6194.3169 12507.07 1774600
9180.2598 -6016.2793 12147.591 3682081
10532.618 -6848.6699 13828.288 3483933
10500.274 -6774.7598 13679.054 3418140
10100.077 -6466.4707 13056.582 3681312
9873.0576 -6272.915 12665.769 2694418
9259.2432 -5838.3955 11788.422 2497297
8659.1953 -5419.02 10941.652 2497811
8586.4189 -5333.4106 10768.797 5195836
7978.6631 -4919.2275 9932.5117 8749171
7852.0767 -4805.6147 9703.1133 9471867
7784.1621 -4729.3057 9549.0361 2759436
7746.1157 -4672.1162 9433.5645 4535076
8062.8853 -4828.2207 9748.7578 3416340
7863.3179 -4675.1104 9439.6094 2100741
7847.2202 -4632.4775 9353.5293 2429447
7704.2983 -4516.104 9118.5566 4995627
7646.771 -4451.063 8987.2314 4469540
7535.3286 -4355.7593 8794.8018 4272418
7568.4741 -4344.772 8772.6162 4535333
8528.6455 -4862.4624 9817.8955 4403491
0 0 0 0
0 0 0 0
0 0 0 0
0 0 0 0
13914.046 -7670.3848 15487.428 3219730
13407.368 -7342.48 14825.35 3417110
12352.51 -6720.6123 13569.724 2759179
0 0 0 0
0 0 0 0
0 0 0 0
7096.7905 -3762.8413 7597.6289 2693386
7405.438 -3901.6584 7877.9175 2824715
7325.7349 -3835.4089 7744.1519 2627593
7181.396 -3736.3584 7544.1567 3680280
0 0 0 0
0 0 0 0
0 0 0 0
0 0 0 0
0 0 0 0
0 0 0 0
0 0 0 0
-5823.2339 -3155.6672 6449.085 0
-5759.3003 -3141.7058 6420.5532 65536
-4804.1313 -2638.1453 5391.4502 65536
-4752.9419 -2627.5657 5369.8296 65536
-4717.0703 -2625.3687 5365.3394 65536
-4653.9756 -2607.887 5329.6128 65536
-4606.2666 -2598.8459 5311.1367 65538
-4962.6162 -2819.2231 5761.5107 65541
-5232.2578 -2993.0632 6116.7793 65540
-5148.4829 -2965.7529 6060.9663 65541
-5006.9326 -2904.542 5935.8726 10
-5003.105 -2922.9226 5973.436 14
-4881.1309 -2872.0486 5869.4678 18
0 0 0 0
0 0 0 0
0 0 0 0
0 0 0 0
0 0 0 0
-6179.084 -3798.7002 7763.2212 13094356
-5975.2305 -3701.022 7563.6001 4542302
-5825.5815 -3635.6904 7430.0854 789785
-5702.2651 -3585.9202 7328.3721 3553613
-5742.9312 -3639.2993 7437.4604 8159124
-5521.6147 -3526.2002 7206.3252 4211798
-5335.5718 -3434.0344 7017.9707 6383226
-5810 -3768.8528 7702.2231 7173256
