# .PCD v0.7 - Point Cloud Data file format
VERSION 0.7
FIELDS x y z rgb
SIZE 4 4 4 4
TYPE F F F U
COUNT 1 1 1 1
WIDTH 1394
HEIGHT 1
VIEWPOINT 0 0 0 1 0 0 0
POINTS 1394
DATA ascii
-1037.1992 204.76878 1587.7257 3487532
-1041.5641 207.51906 1609.0507 2697505
-1028.1498 206.74522 1603.0505 592130
-1018.8279 206.78752 1603.3784 256
-1007.2675 206.37199 1600.1564 0
-998.23834 206.47208 1600.9326 0
-992.19293 207.19719 1606.5549 0
-999.21246 210.69124 1633.6469 789507
0 0 0 0
-955.12494 205.38774 1592.5249 2630936
-946.26648 205.52008 1593.5509 2695957
-937.59473 205.69601 1594.9152 2959127
-929.02271 205.89767 1596.4789 2959127
-920.98267 206.22261 1598.9983 2893334
-912.81769 206.52608 1601.3512 3024919
-905.44458 207.01697 1605.1575 3223069
-897.22528 207.32281 1607.5289 3881255
-891.00171 208.10133 1613.5654 4473649
-886.69586 209.34959 1623.244 4276784
-880.79639 210.24492 1630.1862 3684650
-877.73279 211.8446 1642.5898 3487272
-879.9549 214.77042 1665.2756 2236693
-865.88879 213.74205 1657.3021 986886
-833.46332 208.10591 1613.601 65536
-846.27295 213.76474 1657.478 65536
-837.72028 214.09729 1660.0565 196608
-831.6026 215.0675 1667.5792 2039060
-820.19879 214.67752 1664.5555 2631194
-801.88501 212.44734 1647.2633 2894366
-790.57703 212.04106 1644.113 2960157
-779.48309 211.68272 1641.3346 3223330
-769.17175 211.53052 1640.1544 3354916
-759.25122 211.48326 1639.788 3420452
-749.23389 211.40746 1639.2002 3553065
-742.216 212.18715 1645.2458 3947822
-733.32214 212.4442 1647.2389 4408373
-726.2619 213.24661 1653.4606 4474165
-720.06763 214.32878 1661.8514 4474165
-713.07874 215.20125 1668.6163 4474165
-706.32758 216.17108 1676.1362 4408374
-717.08929 222.60519 1726.0247 3026721
-710.90771 223.89008 1735.9873 3684396
-790.18994 252.5249 1958.0146 657927
-835.71326 271.06616 2101.7788 986884
-835.75739 275.19513 2133.7937 1250058
-826.15326 276.2254 2141.7822 921093
-829.55579 281.70483 2184.2683 1447438
-821.54236 283.4202 2197.5688 2434333
-823.84338 288.80682 2239.3354 592129
-865.83545 308.51306 2392.1326 789765
-868.63708 314.67999 2439.9495 2303004
-886.70758 326.68173 2533.0081 2434590
-890.27167 333.66141 2587.1267 131840
-877.03442 334.47891 2593.4653 66048
-877.8855 340.79471 2642.4363 197632
0 0 0 0
0 0 0 0
-2467.4392 1012.1976 7848.3257 0
-2478.2659 1036.2341 8034.6987 0
-2418.8591 1031.2716 7996.2207 0
-2383.3232 1036.4912 8036.6924 256
-2354.5591 1044.9299 8102.1235 131072
-2302.7156 1043.2646 8089.2114 0
-2265.1367 1048.1289 8126.9277 263172
-2208.6401 1044.2607 8096.9351 263426
-2172.9426 1050.2733 8143.5552 789512
-2119.5454 1047.8099 8124.4546 2237215
-2120.0854 1072.5177 8316.0322 4935495
-2066.2539 1070.2428 8298.3936 5002058
-2011.7579 1067.504 8277.1582 5395789
-1979.8164 1076.8962 8349.9824 7566958
-1957.538 1092.1627 8468.3555 5329740
-1884.4227 1079.1235 8367.252 5592911
-1825.6034 1073.7856 8325.8633 8290169
-1799.3846 1087.8595 8434.9893 5987160
-1764.9437 1097.6272 8510.7256 3750198
-1660.5276 1063.1689 8243.5449 1908507
-1719.8182 1134.6174 8797.5381 2895914
-1615.444 1099.1863 8522.8145 724233
-1513.9946 1063.5154 8246.2305 790282
-1379.4952 1001.4637 7765.0977 2501156
-1364.8833 1025.1626 7948.8535 3026988
-1361.6561 1059.4193 8214.4707 987150
-1364.7606 1101.334 8539.4668 3750709
-1259.7289 1055.8524 8186.814 789512
-1199.8748 1046.1029 8111.2183 658182
-1218.7922 1107.089 8584.0889 1645592
-1109.6165 1051.967 8156.688 7172460
-1082.2274 1072.8882 8318.9053 2633255
-983.83575 1022.0526 7924.7378 1645592
-907.82532 990.52301 7680.2656 1118478
0 0 0 0
-649.56677 788.00549 6109.9961 256
-604.77228 777.12177 6025.6064 65536
-564.57141 771.14178 5979.2393 65792
-526.85205 767.97546 5954.6885 0
-490.54446 766.55902 5943.7061 65536
-452.35471 761.75323 5906.4429 66048
-416.77341 760.9007 5899.8325 197889
-385.33911 768.15857 5956.1079 6251871
0 0 0 0
-409.82724 1000.9298 7760.958 5397335
-370.8298 1020.5863 7913.3696 8226692
-351.29703 1107.3088 8585.7939 4016454
-293.83209 1083.6266 8402.168 7305847
-239.23836 1063.0009 8242.2412 8227975
-194.06516 1084.3892 8408.0811 8227719
-145.32701 1093.7874 8480.9521 4937556
-96.298538 1109.8253 8605.3066 5595488
-45.962299 1130.0637 8762.2305 4872278
6.1975741 1142.5206 8858.8174 9280410
59.30164 1151.0131 8924.666 9478047
114.35384 1171.4417 9083.0635 6188396
165.93163 1154.5896 8952.3975 7833221
213.67513 1125.7222 8728.5664 3950920
266.07874 1127.8901 8745.376 8819859
325.54382 1154.3896 8950.8467 8688273
386.32837 1177.4644 9129.7627 9082773
432.80383 1156.615 8968.1016 9148568
498.49545 1186.0594 9196.4062 9675426
550.9845 1181.3757 9160.0898 10201515
609.85834 1189.9928 9226.9053 10267307
662.69379 1186.3777 9198.874 10201514
721.69897 1193.517 9254.2305 10201514
792.04993 1217.0789 9436.9238 10136234
845.89905 1213.8441 9411.8418 10333613
912.23395 1227.8158 9520.1748 10794165
969.22839 1228.3179 9524.0674 10531249
1015.3455 1215.7401 9426.543 10530992
1074.9519 1219.7852 9457.9072 10794164
1138.103 1227.2504 9515.791 10728370
1204.1737 1237.0078 9591.4473 10662834
1278.1223 1253.6096 9720.1738 10991029
1324.3606 1242.772 9636.1416 10924979
1383.5862 1244.5151 9649.6572 10727857
1440.8726 1244.4445 9649.1094 10661804
1500.3596 1246.207 9662.7764 11318963
1676.7942 1341.395 10400.84 11187376
1625.8645 1254.395 9726.2637 10264991
1699.283 1266.0137 9816.3516 8224895
1740.3151 1253.5332 9719.5811 2105118
1811.5323 1262.8982 9792.1953 131333
1861.974 1257.6475 9751.4824 131074
1914.9854 1254.3971 9726.2793 196608
1969.6024 1252.3582 9710.4697 262144
2017.5826 1246.3356 9663.7725 393216
2075.4568 1246.589 9665.7373 393216
2125.4272 1242.2096 9631.7803 393216
2186.1836 1244.1984 9647.2012 327680
2241.719 1243.1901 9639.3828 196608
2304.6836 1246.2494 9663.1045 657416
2370.0964 1250.4515 9695.6865 525829
2430.2031 1251.7213 9705.5312 65538
2490.5125 1253.0338 9715.709 262917
2542.8848 1250.3842 9695.1641 395015
2587.1763 1243.9666 9645.4033 2764590
2624.5664 1234.5809 9572.6299 6384233
2456.7336 1131.1068 8770.3174 9542811
2781.4072 1253.9764 9723.0176 9082003
2794.5647 1234.2576 9570.1221 9937827
2833.4114 1226.4451 9509.5469 10398378
2892.7246 1227.6241 9518.6885 10332842
2982.5168 1241.4445 9625.8477 10332585
3057.9155 1248.866 9683.3926 10200485
3172.478 1271.7124 9860.5381 8753295
3278.5264 1290.3787 10005.271 10331813
3265.9688 1262.53 9789.3408 10726571
3351.2964 1272.8339 9869.2334 10001821
3416.3242 1275.2057 9887.624 5066831
3553.1726 1303.8522 10109.742 10462114
3594.6831 1297.1429 10057.72 4606278
3589.7903 1274.1826 9879.6914 1645079
3537.4089 1235.3768 9578.8018 263938
3667.6277 1260.5603 9774.0674 328963
3730.5349 1262.1842 9786.6592 4934467
3823.2666 1273.694 9875.9023 921351
3890.2268 1276.3999 9896.8838 1118473
3982.2439 1287.1239 9980.0352 1316110
3996.238 1272.6849 9868.0791 1908247
4116.1021 1291.8927 10017.011 592386
4120.2559 1274.7531 9884.1143 512
4223.7031 1288.3837 9989.8027 66048
4487.8779 1349.9844 10467.439 263170
4434.2451 1315.6086 10200.898 0
4480.7192 1311.4608 10168.737 131584
4359.8511 1259.0963 9762.7158 591360
4425.3101 1261.2106 9779.1094 196608
4476.062 1259.1329 9763 985856
4549.9023 1263.52 9797.0166 393216
4570.3374 1253.1531 9716.6338 327680
4590.4507 1242.9578 9637.582 393216
4574.8647 1223.4667 9486.4531 458752
4588.6494 1212.2094 9399.166 458752
4607.3447 1202.5046 9323.918 458752
4709.6616 1214.5959 9417.6719 393216
4471.7939 1139.7023 8836.9648 327680
4517.3745 1137.9501 8823.3789 393472
0 0 0 0
0 0 0 0
3379.0293 822.54083 6377.7749 196608
0 0 0 0
0 0 0 0
0 0 0 0
0 0 0 0
0 0 0 0
0 0 0 0
0 0 0 0
0 0 0 0
0 0 0 0
0 0 0 0
1504.7085 326.0401 2528.033 196608
1505.0424 322.88736 2503.5874 196608
0 0 0 0
1494.9084 314.49292 2438.499 262144
1483.0338 308.99823 2395.8945 196608
1475.9333 304.59335 2361.7402 196608
1473.0237 301.12817 2334.8721 1512462
1476.0437 298.92865 2317.8174 657411
1466.3801 294.22479 2281.345 196608
1458.4558 289.95297 2248.2224 196608
1443.7227 284.41739 2205.3008 196608
1423.0598 277.82379 2154.1758 1775120
1405.1432 271.87915 2108.0825 1709327
1392.4358 267.03864 2070.5503 1906706
1385.9108 263.45822 2042.7887 2038292
1384.3861 260.88232 2022.8159 920324
1396.9615 260.98499 2023.6119 920324
1399.2118 259.1734 2009.5654 788739
1397.9531 256.74802 1990.7595 591361
1395.5414 254.1534 1970.6415 657154
1392.3046 251.45296 1949.7029 591361
1384.7168 248.01778 1923.0675 393984
1349.9625 239.81293 1859.449 591363
1349.3364 237.75478 1843.4907 1446667
1342.8262 234.70134 1819.8152 1906960
1342.3231 232.73828 1804.594 1973009
1349.0461 232.0493 1799.252 2169363
1356.26 231.45493 1794.6432 2037520
1361.5991 230.55238 1787.6453 2103312
1344.4436 225.88445 1751.451 2037776
0 0 0 0
0 0 0 0
1264.292 207.59451 1609.6356 2893855
1267.6262 206.5784 1601.757 2893855
1261.0586 203.97581 1581.577 3222820
1261.9321 202.60645 1570.9594 3551785
1263.1511 201.31224 1560.9244 3617832
1262.0237 199.66571 1548.1577 3946028
1261.457 198.13109 1536.2585 4274991
1262.9703 196.94286 1527.0454 4538163
1263.4719 195.61496 1516.7493 4669749
1269.8767 195.21336 1513.6353 4932921
1275.2816 194.66479 1509.3818 5196093
1282.1161 194.34058 1506.8679 5327422
1290.7107 194.2858 1506.4432 5196349
1300.6729 194.43622 1507.6095 5196350
1311.2843 194.68097 1509.5072 5130815
1319.0751 194.50647 1508.1542 5130816
1329.8953 194.77803 1510.2598 5262918
0 0 0 0
0 0 0 0
1452.6715 208.53625 1616.9376 3682605
1580.1405 225.34372 1747.2584 853760
1431.389 202.7971 1572.4377 1183243
1558.5146 219.37535 1700.9813 2170138
1518.4454 212.35735 1646.5654 1840397
0 0 0 0
1428.9662 197.29965 1529.8119 2826777
1430.384 196.24637 1521.645 2892825
1434.571 195.58389 1516.5082 2958618
1439.5404 195.03564 1512.2573 3221534
1446.5977 194.77533 1510.2389 3287324
1450.3051 194.06999 1504.7699 3352861
1432.2787 190.48286 1476.9562 3616033
0 0 0 0
0 0 0 0
0 0 0 0
0 0 0 0
0 0 0 0
0 0 0 0
0 0 0 0
0 0 0 0
0 0 0 0
0 0 0 0
0 0 0 0
0 0 0 0
0 0 0 0
0 0 0 0
-1241.786 198.61853 1472.1755 328448
0 0 0 0
0 0 0 0
0 0 0 0
0 0 0 0
-1200.4437 199.01953 1475.1478 1709581
-1192.8994 199.22421 1476.6649 1775373
-1189.9801 200.21008 1483.9723 1841166
-1187.0864 201.21501 1491.4209 1841167
-1185.5481 202.46652 1500.6971 2565147
-1182.132 203.41391 1507.7192 2829090
-1181.9517 204.93683 1519.0072 2829091
-1178.5701 205.92386 1526.3231 2368799
-1183.6876 208.4227 1544.8448 789769
-1176.5077 208.77838 1547.4811 0
-1167.2108 208.76106 1547.3527 0
-1159.5762 209.04308 1549.4431 0
-1150.351 209.04062 1549.4248 0
-1167.7628 213.91763 1585.5736 65536
-1134.252 209.4698 1552.606 131072
-1123.3228 209.1535 1550.2615 1643792
-1111.0283 208.57567 1545.9785 2038802
-1101.3466 208.48273 1545.2898 2169615
-1092.387 208.52615 1545.6116 2366994
-1082.1635 208.32695 1544.135 2630680
-1073.1803 208.36517 1544.4183 3025438
-1064.9402 208.54956 1545.7852 3288610
-1056.6603 208.72934 1547.1176 3222817
-1052.1589 209.66518 1554.0542 3617574
-1046.4772 210.38033 1559.3549 3683880
-1043.3958 211.63567 1568.6595 3815981
-1038.9161 212.6275 1576.0111 3553067
-1035.1288 213.78036 1584.5562 3487788
-1032.745 215.24692 1595.4265 2763555
-1031.5093 216.98218 1608.2883 723973
-1019.0819 216.3737 1603.7783 256
-1008.6098 216.17278 1602.2889 0
-1000.8758 216.56047 1605.1625 0
-994.48523 217.24907 1610.2666 256
-1001.434 220.89345 1637.2789 723972
0 0 0 0
-955.48529 214.93651 1593.1256 2696472
-946.42383 215.02963 1593.8159 2827543
-938.10388 215.29478 1595.7812 2630162
-929.15149 215.41878 1596.7002 2893334
-920.75635 215.67583 1598.6055 3024920
-913.0531 216.10197 1601.7642 3222299
-904.31781 216.29028 1603.16 3157533
-894.89868 216.31734 1603.3605 3618083
-889.76538 217.39206 1611.3264 4276270
-887.21997 219.12938 1624.2035 4145198
-880.74103 219.92271 1630.0837 3684649
-877.58008 221.57141 1642.3041 3355686
-875.1861 223.45303 1656.2509 2171157
-865.27734 223.437 1656.1318 1184522
-838.36633 218.97961 1623.0934 65536
-844.46814 223.14169 1653.9431 65536
-837.8504 224.00127 1660.3143 65792
-830.08221 224.57008 1664.5305 2170390
-812.38562 222.43422 1648.6992 2631194
-801.00531 221.99667 1645.4562 2828573
-790.32904 221.7459 1643.5973 3091744
-780.02856 221.59557 1642.4832 3157537
-769.20294 221.29037 1640.2209 3289123
-759.62531 221.34097 1640.5959 3420453
-750.50562 221.52803 1641.9825 3618858
-740.92743 221.58293 1642.3895 4408372
-734.88348 222.71037 1650.7461 4539958
-727.28729 223.39154 1655.7949 4474165
-720.65442 224.39136 1663.2057 4539958
-712.93109 225.07471 1668.2708 4408372
-705.07202 225.73392 1673.1567 4342581
-714.11896 231.90199 1718.8751 3158306
-710.89746 234.20732 1735.9623 3487017
-780.48767 260.92194 1933.9731 1381645
-811.18872 275.24017 2040.101 986885
-838.82867 288.93866 2141.635 1315852
-850.83124 297.59 2205.7595 591876
-838.64288 297.91861 2208.1951 526083
-827.81213 298.74765 2214.3401 657412
-844.22455 309.59406 2294.7346 591874
-862.84283 321.61902 2383.8645 789508
-874.2381 331.30832 2455.6824 2105625
-888.09735 342.27637 2536.9783 2829604
-895.73444 351.18387 2603.0015 256
-890.10773 355.11295 2632.124 197376
-906.70056 368.20587 2729.1697 65792
0 0 0 0
0 0 0 0
-2436.7371 1045.6815 7750.6699 3948343
-2434.262 1064.7538 7892.0352 7567215
-2396.7378 1068.9437 7923.0913 7435883
-2372.1689 1079.1958 7999.0806 2895653
-2357.9536 1094.6737 8113.8042 3618611
-2252.4856 1067.5496 7912.7578 2566180
-2253.0081 1090.5734 8083.4126 2106137
-2199.9587 1088.1039 8065.1089 526337
-2178.1462 1101.3187 8163.0571 263425
-2143.29 1108.39 8215.4707 526852
-2062.6724 1091.5741 8090.8296 657926
-1982.8208 1074.3702 7963.313 658437
-2032.7747 1128.3788 8363.6289 132096
-1990.714 1132.7385 8395.9434 256
-1941.3422 1133.0554 8398.292 66304
-1922.3168 1151.5681 8535.5098 263426
-1887.3938 1161.303 8607.665 723722
-1744.2853 1103.1593 8176.6997 197632
-1726.8165 1123.4198 8326.8721 789510
-1711.6575 1146.4232 8497.375 197632
-1653.1562 1140.9133 8456.5361 512
-1577.2045 1122.6368 8321.0693 197888
-1506.3029 1106.8878 8204.3359 768
-1460.7583 1109.3416 8222.5234 512
-1413.5283 1110.6409 8232.1543 768
-1376.0952 1120.0071 8301.5771 256
-1317.3829 1112.1068 8243.0195 198144
-1287.9266 1129.2474 8370.0674 66048
-1218.8641 1111.6437 8239.5869 593152
-1179.0021 1120.3126 8303.8418 66048
-1128.8699 1119.554 8298.2188 66048
-1056.6254 1095.7938 8122.1069 264195
-980.14923 1065.1595 7895.0425 7633264
-866.4046 988.90576 7329.8438 7304557
-759.16492 912.39301 6762.7261 5265487
-644.56885 817.98749 6062.9849 256
-612.05597 822.73535 6098.1768 256
-570.82642 815.6264 6045.4844 65792
-529.57343 807.52631 5985.4463 0
-491.88885 804.09259 5959.9951 65792
-454.90567 801.36133 5939.751 256
-413.17017 789.09418 5848.8257 132352
-379.52838 791.45068 5866.2925 3488055
0 0 0 0
-432.28055 1104.4355 8186.1592 7306103
-387.5704 1115.8289 8270.6074 7174518
-348.01819 1147.5406 8505.6582 9675680
-298.40433 1151.2177 8532.9121 8819602
-242.00113 1124.8434 8337.4238 8819344
-196.38332 1147.9265 8508.5176 3555648
-139.17654 1095.7827 8122.0249 7174776
-94.14724 1135.0486 8413.0654 8490639
-44.55098 1145.8567 8493.1768 8359308
5.9875355 1154.6816 8558.5879 7832450
57.447124 1166.4166 8645.5684 2897460
109.07932 1168.9185 8664.1113 1909538
160.42917 1167.7601 8655.5264 2764846
210.04732 1157.6206 8580.3711 5200472
258.84854 1147.8212 8507.7373 8885395
310.09512 1150.2964 8526.084 4674901
357.42169 1139.5778 8446.6367 7767429
406.76926 1137.1499 8428.6406 6122347
473.7944 1179.2532 8740.7139 9280412
528.47723 1185.3506 8785.9082 9214876
579.94159 1183.7815 8774.2773 9411998
635.32556 1189.8118 8818.9746 9609377
706.19342 1221.7097 9055.4053 9740963
761.74103 1224.4623 9075.8066 9741476
810.84601 1217.1794 9021.8262 9938855
881.49872 1241.1394 9199.4189 10135977
903.18866 1197.3882 8875.1318 10004392
993.9884 1245.0309 9228.2627 9938855
1051.6398 1248.3409 9252.7969 9741476
1095.2913 1235.5295 9157.8379 10070441
1162.5277 1249.2761 9259.7295 10070441
1220.7217 1252.502 9283.6396 10004648
1276.6753 1253.2494 9289.1797 9938086
1334.8621 1256.0363 9309.8359 9609376
1378.0955 1245.0911 9228.709 9345947
1439.3855 1250.6733 9270.085 9937568
1542.7043 1291.0156 9569.1055 8621708
1579.3102 1274.645 9447.7656 9937823
1651.0914 1286.8137 9537.9609 9477786
1683.2158 1268.293 9400.6836 9083027
1652.0702 1204.8212 8930.2256 6121828
1686.9445 1191.9497 8834.8213 6713451
1882.5354 1289.9846 9561.4639 6252898
1991.3217 1324.5344 9817.5498 5264976
2020.9701 1305.9766 9679.9971 2369318
2061.7222 1295.423 9601.7734 6711656
2115.2441 1293.2455 9585.6338 6119776
2145.7595 1277.4852 9468.8174 5462616
2215.5771 1285.3313 9526.9727 6252646
2248.311 1271.809 9426.7441 9279381
2319.2576 1280.0345 9487.7129 9148821
2389.0879 1287.2681 9541.3281 9346200
2424.7063 1276.1599 9458.9932 10134946
2519.3621 1295.9231 9605.4805 9937824
2567.448 1291.3864 9571.8535 9937824
2536.8909 1248.348 9252.8496 9937568
2639.7131 1271.3763 9423.5381 10134949
2706.4832 1276.4446 9461.1035 10398378
2766.0271 1277.9678 9472.3936 10266792
2808.4922 1271.6969 9425.9131 9937827
2874.9683 1276.3307 9460.2598 10135206
2959.6277 1288.7043 9551.9746 10200999
3053.6895 1304.6292 9670.0098 9082005
3155.6304 1323.2694 9808.1729 11187637
3239.8843 1333.951 9887.3457 11187381
3211.9753 1298.8942 9627.502 10792366
3310.05 1315.1199 9747.7676 11055281
3410.6782 1331.7839 9871.2832 10792363
3371.4714 1294.2061 9592.7529 8292229
3399.166 1283.1323 9510.6738 8686986
3529.3149 1310.4633 9713.2529 9936540
3475.4089 1269.6732 9410.9141 9081742
3562.3218 1280.8063 9493.4326 2960936
3659.1462 1295.0999 9599.3779 2434589
3736.1147 1302.0348 9650.7803 1118472
3875.5405 1330.197 9859.5215 657924
3871.6917 1309.0768 9702.9756 197376
3950.2754 1316.0392 9754.582 460803
4030.0801 1323.201 9807.666 65792
4003.6897 1295.7886 9604.4834 256
4130.0024 1317.8745 9768.1855 66048
4312.1226 1356.9087 10057.51 2237211
4345.0156 1348.5599 9995.6279 1579795
4313.9209 1320.8444 9790.1982 657929
4329.8599 1308.0759 9695.5576 131584
4364.4834 1301.2136 9644.6934 131072
4410.4175 1297.8577 9619.8184 262144
4418.6006 1283.6207 9514.2939 393216
4506.0063 1292.4673 9579.8652 393216
4564.5088 1292.9061 9583.1182 327680
4601.5156 1287.3204 9541.7168 393216
4537.0146 1253.819 9293.4004 393216
4571.6377 1248.1871 9251.6572 393216
4516.6655 1218.5179 9031.7471 393216
4842.646 1291.1129 9569.8262 393216
4542.2876 1196.9709 8872.0391 393216
4073.6685 1061.1595 7865.3945 393216
3728.8635 960.31726 7117.9438 393216
0 0 0 0
0 0 0 0
0 0 0 0
0 0 0 0
0 0 0 0
0 0 0 0
0 0 0 0
0 0 0 0
0 0 0 0
0 0 0 0
0 0 0 0
1512.818 342.90765 2541.6575 196608
0 0 0 0
1493.9335 331.99506 2460.7725 196608
1497.0098 329.45251 2441.9268 196608
1489.5096 324.65353 2406.3564 196608
1492.2942 322.16617 2387.9202 460291
1471.7802 314.74332 2332.9011 1643535
1481.34 313.83026 2326.1338 854275
1463.2943 307.13989 2276.5442 262144
1459.4875 303.53345 2249.813 262144
1444.0668 297.59903 2205.8264 262144
1430.5238 292.15491 2165.4744 525570
1403.5787 284.09521 2105.7354 1906705
1395.8293 280.02908 2075.5967 2104085
1389.3787 276.29242 2047.9004 2038292
1387.1078 273.44467 2026.7926 920324
1399.8405 273.57819 2027.7822 986117
1398.0125 270.88806 2007.8428 986117
1402.8859 269.53101 1997.7842 657154
1398.3058 266.39569 1974.545 591361
1396.8839 263.90927 1956.1155 459776
1380.7327 258.70413 1917.5345 262400
1370.9285 254.7637 1888.3278 262656
1351.3285 249.0817 1846.2123 986117
1342.3688 245.43671 1819.1953 590848
1352.8417 245.37459 1818.735 656640
1341.6779 241.42018 1789.4247 722689
1343.2985 239.81032 1777.4922 919298
1340.7997 237.4959 1760.3375 985604
1334.7273 234.58925 1738.7932 1117444
0 0 0 0
0 0 0 0
1264.2891 217.16345 1609.632 2959648
1268.1315 216.1871 1602.3953 3025441
1262.3237 213.59251 1583.1638 3025441
1264.7739 212.42322 1574.4969 3354406
1262.8368 210.53969 1560.5361 3749162
1263.7959 209.16295 1550.3317 3814956
1264.1403 207.70517 1539.5264 4274991
1262.9039 206.01045 1526.9651 4603956
1264.0208 204.72108 1517.4081 4735542
1270.9788 204.3893 1514.9489 4801335
1276.5544 203.84146 1510.8883 5196091
1282.6539 203.38434 1507.5001 5261883
1291.2006 203.31891 1507.015 5130554
1300.5708 203.38313 1507.4912 5130299
1310.587 203.54686 1508.7047 5130558
1333.385 205.67996 1524.5155 5983557
1338.741 205.11192 1520.3052 458752
1339.9208 203.91599 1511.4407 393216
1349.3782 203.98729 1511.9692 327680
1356.8365 203.75746 1510.2657 393216
1386.0437 206.77524 1532.6337 458752
1419.5796 210.39513 1559.4646 1116421
0 0 0 0
0 0 0 0
0 0 0 0
1426.1467 205.9873 1526.7935 2760984
1431.2275 205.41376 1522.5424 3024410
1434.9288 204.6507 1516.8864 3024411
1439.0496 203.9566 1511.7417 3221533
1444.1295 203.40625 1507.6624 3418910
1447.1259 202.57095 1501.4713 3418910
1454.5511 202.36211 1499.9233 3550496
0 0 0 0
0 0 0 0
0 0 0 0
0 0 0 0
0 0 0 0
0 0 0 0
0 0 0 0
0 0 0 0
0 0 0 0
0 0 0 0
0 0 0 0
0 0 0 0
0 0 0 0
0 0 0 0
-1231.5812 205.66658 1460.0773 196864
0 0 0 0
0 0 0 0
0 0 0 0
0 0 0 0
0 0 0 0
-1193.8043 208.16093 1477.7852 1709581
-1189.9257 209.02287 1483.9043 1709581
-1187.1843 210.09898 1491.5438 1907217
-1188.426 211.90146 1504.3402 2301975
-1183.3352 212.59363 1509.2539 2829089
-1183.4966 214.24713 1520.9926 2697762
-1183.1655 215.83627 1532.2744 2434591
-1183.092 217.49747 1544.0675 1316112
-1173.8782 217.4911 1544.0223 256
-1167.2148 217.96095 1547.3579 0
-1160.2217 218.37616 1550.3057 0
-1150.2502 218.23299 1549.2892 0
-1141.1946 218.26262 1549.4996 65536
-1134.9138 218.8278 1553.512 196608
-1127.3282 219.14861 1555.7893 1644048
-1111.2585 217.81175 1546.2987 1973009
-1101.8422 217.76759 1545.9852 2301202
-1092.1299 217.6637 1545.2477 2432787
-1081.6368 217.40112 1543.3835 2828059
-1072.4963 217.40822 1543.434 2893852
-1063.228 217.38934 1543.2999 3025438
-1056.3032 217.85345 1546.5947 3091231
-1050.7863 218.61861 1552.0267 3552039
-1047.5242 219.87059 1560.9149 3749674
-1043.0284 220.88371 1568.1073 3815982
-1039.2501 222.06841 1576.5178 3684652
-1034.7571 223.12057 1583.9873 3487530
-1038.1307 225.90388 1603.7467 2895394
-1030.1262 226.23987 1606.1321 1316107
-1022.1281 226.5836 1608.5723 256
-1010.3521 226.08841 1605.0568 256
-1002.4628 226.46181 1607.7076 0
-995.48694 227.05075 1611.8887 65536
-994.89282 229.1208 1626.5845 920326
0 0 0 0
-955.83008 224.48878 1593.7006 2696214
-946.82385 224.59991 1594.4895 2498578
-938.01654 224.76094 1595.6327 2564370
-929.68958 225.04156 1597.6249 2630162
-921.17651 225.28244 1599.3348 2959127
-912.51154 225.49078 1600.8141 2959127
-904.5061 225.86826 1603.4938 3091739
-897.08124 226.40027 1607.2708 3617827
-890.37152 227.12617 1612.4242 3947305
-886.38861 228.57104 1622.6815 3947561
-882.16394 229.98468 1632.7173 3487526
-878.61713 231.60846 1644.2449 3289893
-874.68225 233.1653 1655.2974 2500123
-870.51013 234.69366 1666.1475 1710867
-855.97125 233.43005 1657.1768 7632239
-838.15613 231.23317 1641.5807 4342590
-830.76648 231.89464 1646.2766 1973784
-828.45746 234.00696 1661.2725 1908244
-813.45166 232.54063 1650.8625 2368793
-800.83026 231.72845 1645.0968 2696986
-790.82617 231.66287 1644.6311 2696986
-780.90198 231.61935 1644.3221 2828572
-770.33759 231.38245 1642.6404 3223330
-758.35822 230.70898 1637.8593 3618088
-750.82526 231.38831 1642.6819 3684651
-741.19897 231.43188 1642.9915 4210994
-733.98212 232.23903 1648.7214 4671544
-726.9455 233.12581 1655.0168 4605750
-719.63757 233.94872 1660.8589 4606007
-712.25378 234.7695 1666.6859 4342579
-707.92255 236.6338 1679.9211 4342580
-711.55011 241.24992 1712.6919 3224356
-710.89178 244.5258 1735.9484 3618603
-746.26569 260.47485 1849.1744 1644814
-846.38263 299.83646 2128.6121 328960
-849.56757 305.53293 2169.0527 460544
-842.50311 307.6622 2184.1689 1052426
-852.84143 316.31268 2245.5808 131328
-876.96625 330.43292 2345.824 723461
-867.8244 332.27237 2358.8826 657923
-867.49017 337.59991 2396.7041 657922
-875.21643 346.29468 2458.4304 2236954
-876.31561 352.61813 2503.322 3092520
-906.18848 370.93823 2633.3809 256
-896.6983 373.50641 2651.613 460545
-899.24939 381.27185 2706.7417 256
0 0 0 0
0 0 0 0
0 0 0 0
-2347.0884 1071.8623 7609.4121 256
-2245.6655 1045.7002 7423.6802 256
-2205.8931 1047.772 7438.3892 131840
-2219.6892 1075.8937 7638.0312 263168
-2201.9543 1089.5874 7735.2471 132352
-2162.4338 1092.8553 7758.4468 66560
-2123.1597 1096.3931 7783.562 768
-2087.8328 1102.172 7824.5879 768
-2051.6428 1107.7485 7864.1768 768
-2013.4497 1112.478 7897.7534 768
-1953.8076 1105.2997 7846.792 1024
-1937.058 1122.6285 7969.8135 66816
-1870.9595 1111.5089 7890.873 768
-1824.3853 1111.7147 7892.334 768
-1790.1796 1119.6672 7948.791 512
-1746.1782 1121.7584 7963.6362 66048
-1690.0565 1115.9628 7922.4917 512
-1646.9414 1118.6693 7941.7065 132096
-1601.3066 1119.7738 7949.5474 66304
-1560.5226 1124.4408 7982.6787 263680
-1526.6516 1134.5378 8054.3604 66560
-1514.3253 1161.8184 8248.0312 527360
-1457.1991 1155.4031 8202.4883 395520
-1393.3159 1143.0006 8114.4399 592896
-1361.4717 1156.9341 8213.3574 527104
-1298.3015 1144.2944 8123.625 527360
-1264.926 1157.9529 8220.5898 593153
-1188.3248 1131.5487 8033.1396 4014645
-1159.9061 1150.7349 8169.3472 988426
-1098.0197 1136.9437 8071.4409 1646613
-1017.6667 1101.8973 7822.6382 1119499
-948.04999 1075.6759 7636.4854 329731
-905.38617 1078.936 7659.6299 4804166
0 0 0 0
-650.23303 861.53723 6116.2632 256
-624.55457 876.53076 6222.7056 256
-585.29346 873.1496 6198.7017 65792
-542.71002 864.0246 6133.9214 65792
-502.38953 857.4472 6087.2271 65792
-460.01624 846.07324 6006.48 256
-419.60248 836.69202 5939.8809 256
-386.26715 840.99835 5970.4521 1645850
-360.48401 864.28284 6135.7549 7173489
-430.14758 1147.4133 8145.7671 2962997
-385.17712 1157.8044 8219.5361 6384490
-337.72852 1162.6837 8254.1758 8424586
-283.29413 1141.084 8100.834 9148311
-242.6924 1177.7648 8361.2393 8819345
-190.87776 1164.9105 8269.9834 9148565
-138.50003 1138.5078 8082.5449 8030085
-90.784683 1142.7393 8112.5845 6780018
-43.499821 1168.1222 8292.7842 7241084
5.9415932 1196.313 8492.918 8425101
56.460766 1196.9056 8497.125 7832963
106.96057 1196.722 8495.8213 8753552
161.61382 1228.2211 8719.4414 7569534
208.42058 1199.2714 8513.9199 9609117
250.30653 1158.8531 8226.9814 6056296
303.84311 1176.7709 8354.1836 7174776
349.51089 1163.4602 8259.6875 6384747
398.7356 1163.8107 8262.1758 9411480
457.65063 1189.2657 8442.8877 8161415
510.80786 1196.2056 8492.1553 7898244
571.46246 1217.875 8645.9912 6780020
624.94659 1221.9476 8674.9043 6648178
668.9101 1208.203 8577.3271 4148301
724.83191 1216.4747 8636.0508 8556945
778.65747 1220.3669 8663.6826 9412254
830.34027 1220.6262 8665.5234 8623252
874.76807 1210.8132 8595.8584 9807269
920.52094 1203.8163 8546.1855 9214876
981.57794 1216.5184 8636.3613 9215132
1032.4194 1215.9265 8632.1592 9609889
1089.1982 1222.0525 8675.6484 9807269
1146.5236 1228.2097 8719.3604 9478561
1195.98 1225.7694 8702.0361 9740706
1260.4122 1238.2438 8790.5947 10398892
1304.5913 1230.6201 8736.4727 10135720
1348.1384 1223.0071 8682.4258 9608603
1425.9591 1245.9012 8844.957 9937568
1453.809 1225.0588 8696.9912 9345688
1543.3336 1255.8337 8915.4697 8819602
1592.3459 1252.694 8893.1797 9016982
1666.7209 1269.0675 9009.4199 9017495
1704.2878 1257.2679 8925.6514 9083287
1760.6663 1259.6393 8942.4863 8754321
1866.9539 1296.5316 9204.3945 8294026
1835.006 1238.0573 8789.2705 8490892
1887.3439 1238.1128 8789.665 9346458
1956.6984 1249.0278 8867.1533 9544095
2007.3748 1247.76 8858.1523 9675426
2107.2136 1276.3346 9061.0107 9872548
2166.5647 1279.5726 9083.998 10004134
2225.3425 1282.3228 9103.5215 9938084
2280.4993 1282.9052 9107.6562 9938083
2320.687 1275.235 9053.2041 9806240
2407.8743 1293.1539 9180.415 9411482
2462.1597 1292.9999 9179.3213 7897730
2537.8677 1303.8589 9256.4121 8292744
2609.3394 1312.1266 9315.1064 9608605
2630.5679 1295.3105 9195.7256 9806239
2672.7908 1289.3065 9153.1016 10003620
2785.0007 1316.629 9347.0703 9148311
2869.7683 1330.1627 9443.1494 10069413
2961.5942 1346.3859 9558.3213 10859443
3066.7776 1367.9563 9711.4551 11253688
3108.0396 1360.7439 9660.2529 11187894
3120.0217 1341.2068 9521.5537 11319223
3175.5085 1340.7339 9518.1973 11253431
3249.3696 1347.8998 9569.0693 11121844
3290.0151 1341.2776 9522.0566 10726572
3394.3181 1360.3925 9657.7578 10397607
3446.0903 1358.168 9641.9658 8818573
3487.3325 1351.9341 9597.71 10265505
3560.6938 1358.1523 9641.8545 11054507
3658.927 1373.5098 9750.8809 9803926
3740.5591 1382.2538 9812.9561 1908251
3695.0742 1344.4768 9544.7686 0
3782.9795 1355.6433 9624.042 65792
3786.2688 1336.6063 9488.8945 131584
3861.25 1343.0653 9534.748 328448
3874.8596 1328.2991 9429.9189 65792
3971.3284 1341.953 9526.8516 263168
4000.4226 1332.7765 9461.7051 0
4179.519 1373.1362 9748.2285 724227
4263.9072 1381.7021 9809.04 198145
4353.4272 1391.6771 9879.8555 3356462
4250.4702 1340.676 9517.7861 5197895
4289.4722 1335.2034 9478.9336 460033
4412.1587 1355.5833 9623.6162 262144
4457.0928 1351.8589 9597.1758 393216
4500.5894 1347.7983 9568.3486 393216
4530.3882 1339.788 9511.4814 393216
4535.6333 1324.8033 9405.1025 393216
4517.854 1303.5405 9254.1523 196608
4526.1416 1290.22 9159.5859 196608
4370.4648 1231.032 8739.3965 1183757
0 0 0 0
0 0 0 0
3714.0261 1010.1077 7171.001 262144
3742.3259 1006.254 7143.6421 196608
3466.9355 921.74536 6543.6948 262144
0 0 0 0
0 0 0 0
0 0 0 0
0 0 0 0
0 0 0 0
0 0 0 0
0 0 0 0
0 0 0 0
0 0 0 0
0 0 0 0
0 0 0 0
1507.6317 353.26224 2507.8948 262144
1503.7953 348.91272 2477.0166 262144
1485.2635 341.27106 2422.7664 196608
1497.8903 340.8667 2419.8958 131072
1491.6747 336.22299 2386.929 1446669
1479.1888 330.26678 2344.6445 1775634
1479.0776 327.15897 2322.5813 657154
1462.8342 320.57336 2275.8284 196608
1461.2655 317.29486 2252.5535 196608
1455.0941 313.08557 2222.6709 262144
1429.9742 304.91168 2164.6423 262144
1418.8785 299.84732 2128.6892 328192
1399.0881 293.05127 2080.4424 1051398
1393.389 289.30005 2053.8115 1775120
1393.6202 286.83456 2036.3085 986374
1403.7883 286.43912 2033.501 986117
1397.9092 282.80402 2007.6946 986116
1403.5447 281.54016 1998.7223 788739
1401.5739 278.78464 1979.16 591361
1389.457 274.07364 1945.7155 328192
1378.3783 269.64349 1914.2648 393984
1372.5134 266.29749 1890.5109 591360
1339.2357 257.73041 1829.6909 1775374
1340.614 255.91701 1816.8171 1446665
1338.991 253.56425 1800.1144 1446409
1333.8309 250.5843 1778.959 1248773
1338.9894 249.57451 1771.7903 1051138
1346.1108 248.9435 1767.3105 1116674
1337.1248 245.36647 1741.9165 1051139
0 0 0 0
0 0 0 0
1258.563 225.70598 1602.3418 2959648
1263.517 224.8922 1596.5645 3025441
1262.4844 223.03293 1583.3652 3025441
1265.7874 221.96149 1575.7587 3288613
1263.0739 219.85851 1560.8291 3683369
1262.9199 218.22845 1549.2571 3880235
1263.9373 216.82298 1539.2792 4274991
1262.5405 215.02652 1526.5256 4603955
1264.9617 213.90131 1518.5376 4735542
1270.9144 213.38503 1514.8722 4735542
1275.7764 212.69411 1509.9673 5064507
1283.4357 212.47598 1508.4188 5130300
1292.1151 212.4286 1508.0824 4998971
1301.614 212.51567 1508.7004 5064507
1311.2891 212.63008 1509.5128 5195580
1328.7047 213.98961 1519.1643 5918534
1339.104 214.20837 1520.7174 327680
1353.5455 215.06648 1526.8094 524288
1365.3123 215.49103 1529.8232 524288
1377.6279 215.99599 1533.4082 458752
1391.8025 216.78384 1539.0015 458752
1399.8037 216.60617 1537.74 393216
0 0 0 0
0 0 0 0
1429.3655 216.93031 1540.0411 2366483
1419.827 214.11122 1520.0277 2892570
1449.6713 217.22917 1542.1628 2958618
1432.7621 213.34607 1514.5958 3155997
1438.2515 212.82594 1510.9032 3155996
1443.2151 212.23492 1506.7075 3353374
1445.2378 211.22142 1499.5123 3484960
1453.6185 211.14386 1498.9617 3484447
0 0 0 0
0 0 0 0
0 0 0 0
0 0 0 0
0 0 0 0
0 0 0 0
0 0 0 0
0 0 0 0
0 0 0 0
0 0 0 0
0 0 0 0
0 0 0 0
0 0 0 0
0 0 0 0
-1206.446 209.97232 1430.2788 196864
-1232.3268 215.99905 1471.3313 591360
0 0 0 0
0 0 0 0
0 0 0 0
-1198.845 216.27092 1473.1832 1709581
-1194.4758 217.06851 1478.6163 1775374
-1190.6774 217.98245 1484.8418 1775374
-1187.0647 218.94429 1491.3936 1907217
-1185.6267 220.32474 1500.7968 2170389
-1185.6024 221.99078 1512.1455 2697503
-1184.1199 223.40717 1521.7937 2631711
-1181.8661 224.69876 1530.5917 2368798
-1181.9316 226.45476 1542.553 1908249
-1176.6809 227.21169 1547.709 0
-1167.3892 227.19406 1547.589 0
-1159.8223 227.51454 1549.772 0
-1150.245 227.44261 1549.2821 0
-1141.686 227.57251 1550.1667 65536
-1133.525 227.78448 1551.6108 0
-1125.3124 227.9895 1553.0073 1709840
-1111.3973 227.03299 1546.4918 1973010
-1101.7029 226.92995 1545.7898 2104337
-1091.9666 226.81644 1545.0166 2235408
-1083.6743 227.00351 1546.291 2499094
-1072.0269 226.48492 1542.7584 2762266
-1063.6035 226.64442 1543.845 2893851
-1055.609 226.89886 1545.5782 3025438
-1050.1526 227.70813 1551.0907 3486245
-1043.9121 228.3602 1555.5325 3881260
-1042.0822 229.99741 1566.6846 3684652
-1038.0321 231.16971 1574.67 3750445
-1035.0896 232.61223 1584.4962 3487529
-1033.2789 234.33798 1596.2515 3026981
-1030.5409 235.88342 1606.7787 1710867
-1025.0608 236.82425 1613.1875 256
-1011.1332 235.81281 1606.2977 256
-1002.7674 236.09151 1608.196 0
-995.25574 236.5786 1611.5142 65536
-988.92963 237.35976 1616.8351 986119
-967.78223 234.56393 1597.7908 2301716
-957.08405 234.27042 1595.7914 2630421
-947.43756 234.23103 1595.5231 2498578
-938.48456 234.36401 1596.4288 2432784
-930.30145 234.69395 1598.6764 2761748
-921.25482 234.81059 1599.4708 2695955
-913.26495 235.20184 1602.136 2893334
-905.13757 235.56552 1604.6133 2958870
-897.59174 236.08995 1608.1854 3420447
-891.84082 237.10281 1615.085 3881512
-886.90039 238.35558 1623.6185 4013097
-882.51331 239.78625 1633.3639 3618087
-879.58508 241.64957 1646.0563 3355687
-874.97437 243.08734 1655.8501 2566170
-869.64069 244.35474 1664.4833 1184264
-851.2381 241.9369 1648.0134 789509
-843.07513 242.40689 1651.215 460544
-838.48041 243.92603 1661.5629 1513227
-830.25183 244.41162 1664.8706 1907985
-813.12762 242.25864 1650.2051 2630937
-802.36346 241.97105 1648.2462 2565401
-791.39478 241.61397 1645.8137 2696986
-781.11597 241.46118 1644.7729 2696986
-770.92853 241.33308 1643.9004 3091744
-760.09021 240.99536 1641.6 3420709
-750.35876 241.00438 1641.6614 3553065
-742.14148 241.50632 1645.0806 3947821
-733.66284 241.93555 1648.0043 4605751
-726.6192 242.85597 1654.2739 4605751
-719.2262 243.68329 1659.9094 4605751
-712.54456 244.778 1667.3663 4474165
-707.02887 246.3098 1677.8005 4145202
-711.64905 251.46701 1712.9302 3355686
-709.09106 254.20068 1731.5513 3487017
-695.23926 252.90652 1722.7358 3289637
-842.83844 311.18268 2119.6985 1315849
-852.57251 319.55444 2176.7249 2039572
-847.86047 322.68622 2198.0576 2565919
-855.13568 330.54971 2251.6218 197376
-876.96515 344.37866 2345.821 723460
-868.9491 346.745 2361.9399 723715
-865.08081 350.87134 2390.0476 592129
-877.99603 362.05652 2466.2383 1973782
-881.11908 369.51508 2517.0439 3289642
-894.33624 381.5376 2598.9385 65792
-903.80951 392.35757 2672.6414 460289
-900.3811 397.86377 2710.1482 256
0 0 0 0
0 0 0 0
-2150.7437 1004.2933 6840.9941 512
-2211.1882 1052.4192 7168.8154 768
-2200.1082 1067.7253 7273.0776 768
-2202.2708 1090.2008 7426.1743 1024
-2185.4006 1103.9812 7520.043 66304
-2164.9106 1116.4705 7605.1167 198400
-2132.4883 1123.2075 7651.0078 132608
-2088.4309 1123.9763 7656.2446 198400
-2053.8889 1130.0146 7697.3765 66816
-2014.5375 1133.6218 7721.9478 1024
-1969.0596 1133.8693 7723.6333 1024
-1918.7865 1131.3015 7706.1416 1024
-1884.4071 1138.208 7753.1875 1024
-1839.405 1138.8835 7757.7896 132864
-1807.4888 1147.9048 7819.2393 198144
-1756.853 1145.2 7800.8145 264192
-1711.9304 1146.1732 7807.4448 329984
-1658.7788 1141.5381 7775.8711 329984
-1613.1429 1141.9574 7778.7275 198400
-1577.9974 1150.0469 7833.8311 66816
-1535.226 1152.9016 7853.2764 1024
-1519.4124 1176.8148 8016.1675 132352
-1434.0833 1146.6923 7810.9795 132608
-1408.8314 1164.1986 7930.2295 198400
-1361.5374 1164.0721 7929.3677 1024
-1312.7537 1162.6171 7919.4561 132352
-1259.9537 1157.3646 7883.6782 66304
-1215.2776 1159.457 7897.9302 329472
-1168.2532 1159.3871 7897.4546 263936
-1110.5104 1148.2289 7821.4478 197632
-1091.62 1178.0232 8024.3979 790021
-1012.098 1142.1196 7779.832 395264
-904.31604 1069.3597 7284.2109 197888
-833.86981 1035.6514 7054.5972 197888
-755.37555 987.8476 6728.9702 263424
-682.45203 942.38989 6419.3237 0
-638.80054 934.36273 6364.6445 65792
-601.96704 935.92517 6375.2876 65792
-557.90619 925.70557 6305.6738 65792
-514.01849 914.32172 6228.1304 65792
-468.52167 898.08594 6117.5361 0
-421.29349 875.51947 5963.8193 263680
-391.68399 888.78473 6054.1787 512
-376.43268 940.6123 6407.2153 725004
-370.20197 1029.1876 7010.5679 1909792
-366.12643 1146.989 7813.0015 4871245
-325.29776 1167.1547 7950.3647 988433
-276.60651 1161.1702 7909.6001 3818558
-231.38617 1170.2892 7971.7168 2963249
-181.58839 1154.9913 7867.5117 1910560
-136.53514 1169.7257 7967.8784 1910560
-87.224144 1144.2601 7794.4131 1515031
-38.363911 1073.6855 7313.6772 1844512
5.4115458 1135.5773 7735.2676 3095093
52.217812 1153.6798 7858.5776 4674126
101.01283 1177.8759 8023.3945 4674126
152.71468 1209.5735 8239.3115 1317656
201.20784 1206.6329 8219.2812 2106914
248.83859 1200.6804 8178.7344 1711899
288.35971 1163.9399 7928.4673 199171
329.46082 1143.0046 7785.8613 3621433
388.23462 1180.9868 8044.5854 5661017
456.78409 1237.1127 8426.9014 6187362
509.39685 1243.2485 8468.6973 1054481
539.14539 1197.4967 8157.0474 1186325
610.47205 1244.0244 8473.9824 6845553
652.19281 1227.7263 8362.9639 6977140
711.88373 1245.1691 8481.7793 5069658
751.32434 1227.2271 8359.5625 1975588
814.18158 1247.3873 8496.8896 7109241
854.02814 1231.9976 8392.0586 6451313
893.14404 1217.3109 8292.0166 9214619
949.83649 1226.8634 8357.0859 8820117
1002.9506 1231.0742 8385.7686 9215132
1054.4475 1232.995 8398.8525 9280669
1118.7563 1249.0463 8508.1895 9609378
1171.2665 1251.1057 8522.2178 9346719
1205.8571 1234.6471 8410.1064 9017239
1264.1161 1242.7677 8465.4219 8951445
1312.9763 1241.3802 8455.9707 9609377
1373.2693 1250.5057 8518.1318 8819860
1446.0289 1269.9307 8650.4492 9872547
1486.5001 1260.6389 8587.1562 9740963
1541.4177 1263.8087 8608.748 9478303
1589.3389 1261.2228 8591.1328 9478560
1666.575 1281.3364 8728.1426 9346717
1703.9762 1270.5334 8654.5557 8886423
1760.3512 1274.0966 8678.8262 7767685
1835.4481 1290.6213 8791.3887 8162443
1848.5436 1263.8407 8608.9658 9675682
1924.083 1280.0458 8719.3506 9543584
1976.1213 1280.1759 8720.2373 9477791
2029.5748 1281.1927 8727.1641 9806755
2075.3477 1277.4314 8701.542 9740962
2134.3452 1281.795 8731.2666 10135720
2190.4268 1284.2418 8747.9336 10463914
2261.5881 1295.2114 8822.6553 8293001
2327.0046 1302.468 8872.0859 7569020
2380.7366 1303.0081 8875.7637 9279640
2418.1143 1294.7677 8819.6328 10135463
2502.7388 1311.6383 8934.5518 9872034
2576.3396 1322.1506 9006.1582 8358796
2661.2686 1337.9299 9113.6426 5661538
2671.3684 1316.2104 8965.6953 9016727
2837.457 1370.6946 9336.8271 9411228
2956.6919 1400.8883 9542.5 8950676
2995.5857 1392.5959 9486.0146 9871778
3040.1951 1387.2183 9449.3828 10200743
3093.1091 1385.7561 9439.4229 10463916
3162.6204 1391.6493 9479.5664 10398122
3192.1924 1380.0696 9400.6875 10858673
3234.0933 1374.1266 9360.2061 10858160
3400.4617 1420.3748 9675.2373 3750974
3325.6597 1366.0232 9305.0078 1843491
3340.7212 1349.7578 9194.2119 11054770
3559.0452 1414.8186 9637.3896 10002852
3577.6572 1399.6844 9534.2998 10726828
3564.4866 1372.7822 9351.0488 10594986
3576.4602 1356.2413 9238.376 10660263
3631.228 1356.1832 9237.9805 10462368
3750.1846 1379.7429 9398.4629 7698290
3780.5298 1370.4882 9335.4219 131585
3899.8 1393.2712 9490.6143 526336
3977.8457 1400.8864 9542.4863 526594
3994.2478 1386.8834 9447.1016 460545
4093.2141 1401.5391 9546.9326 723969
4184.4014 1413.1667 9626.1377 197632
4255.5615 1417.8083 9657.7549 197377
4253.7344 1398.3331 9525.0947 197120
4201.3931 1362.9823 9284.2939 591618
4280.2974 1370.574 9336.0059 393728
4347.3301 1374.2184 9360.8311 393216
4427.4473 1381.8546 9412.8467 393216
4460.8501 1374.9021 9365.4883 327680
4470.9941 1361.0405 9271.0664 327680
4493.8198 1351.3301 9204.9219 393216
4500.2627 1336.9862 9107.2148 393216
4512.2485 1324.6106 9022.915 393216
4024.6931 1167.6036 7953.4233 393216
4352.0796 1247.9207 8500.5225 393216
4116.3755 1166.786 7947.8535 327680
3694.2405 1035.2484 7051.8525 262144
3499.3167 969.62061 6604.8125 196608
3607.7556 988.57495 6733.9243 196608
0 0 0 0
0 0 0 0
0 0 0 0
0 0 0 0
0 0 0 0
0 0 0 0
0 0 0 0
0 0 0 0
1516.8984 377.90955 2574.2251 196608
1530.5892 377.51163 2571.5146 196608
1511.8666 369.20609 2514.9392 196608
1509.8118 365.09369 2486.9268 196608
1498.4822 358.84006 2444.3286 196608
1507.8864 357.62393 2436.0447 460032
1487.8217 349.50839 2380.7634 1512461
1478.0072 343.93097 2342.7715 1709840
1476.2797 340.32196 2318.1877 525570
1457.2325 332.82397 2267.1135 196608
1460.6073 330.53757 2251.5391 196608
1462.0743 327.86487 2233.3333 262144
1440.0901 320.02875 2179.9556 262144
1423.6302 313.5491 2135.8179 459777
1408.3931 307.45096 2094.2788 1380362
1401.2344 303.20776 2065.3752 262400
1403.7747 301.11874 2051.1455 196608
1406.0831 299.01648 2036.8253 196608
1401.205 295.43481 2012.4279 196608
1399.7198 292.62317 1993.2756 131072
1389.3022 288.00696 1961.8312 131072
1398.8182 287.56555 1958.8243 131072
1369.2692 279.16681 1901.6143 131072
1376.3793 278.31851 1895.8358 262656
1345.845 269.93369 1838.7206 1972753
1338.1589 266.22974 1813.4901 1643788
1339.5801 264.38235 1800.9064 1643787
1342.6827 262.89352 1790.7648 1577995
1346.7872 261.62274 1782.1085 1577995
1353.8779 260.94736 1777.5081 1446409
1326.8762 253.76237 1728.5656 1446408
0 0 0 0
0 0 0 0
1262.2698 235.92488 1607.061 2893855
1261.3591 233.98364 1593.8379 3091234
1263.3127 232.59871 1584.4041 3157027
1265.2104 231.22409 1575.0405 3354406
1266.722 229.79959 1565.3372 3551526
1265.2759 227.86324 1552.1472 3945771
1263.0326 225.81238 1538.1774 4274991
1262.192 224.03999 1526.1042 4669749
1265.438 223.01311 1519.1094 4735029
1271.1676 222.43538 1515.1741 4735286
1276.8383 221.85553 1511.2242 5130043
1284.2029 221.57603 1509.3204 5064251
1292.2419 221.416 1508.2303 5064507
1301.7445 221.50723 1508.8517 5064507
1312.2441 221.76567 1510.6122 5130556
1325.4514 222.4751 1515.4446 5853254
1336.5565 222.82448 1517.8245 262144
1350.4655 223.63345 1523.3351 655360
1364.2074 224.40424 1528.5853 524288
1377.049 225.01764 1532.7638 458752
1391.651 225.90878 1538.834 458752
1403.6786 226.37308 1541.9967 327680
1423.6631 228.10628 1553.8027 1576710
1428.3763 227.38605 1548.8967 1971468
1419.5187 224.5285 1529.4319 2497812
1420.5308 223.25853 1520.7811 2892570
1428.1649 223.03879 1519.2843 2958874
1429.9292 221.91087 1511.6012 3155997
1433.4264 221.0643 1505.8345 3287583
1439.0879 220.55994 1502.3989 3287581
1443.5707 219.88225 1497.7827 3222045
1450.1028 219.5231 1495.3363 3550240
0 0 0 0
0 0 0 0
0 0 0 0
0 0 0 0
0 0 0 0
0 0 0 0
0 0 0 0
0 0 0 0
0 0 0 0
0 0 0 0
0 0 0 0
0 0 0 0
0 0 0 0
0 0 0 0
-1241.1165 224.75395 1471.3817 196864
-1233.5128 224.96255 1472.7474 525568
0 0 0 0
0 0 0 0
0 0 0 0
-1201.8605 225.59515 1476.8888 1643787
-1194.2003 225.80695 1478.2753 1841167
-1190.8365 226.84029 1485.0402 1709581
-1186.0009 227.6066 1490.057 1775887
-1186.3225 229.38165 1501.6775 2170646
-1184.105 230.68892 1510.2357 2500123
-1184.5713 232.54301 1522.3739 2697762
-1183.6298 234.14716 1532.8756 2368799
-1182.2263 235.68413 1542.9376 1974042
-1177.045 236.48613 1548.188 0
-1167.5394 236.42505 1547.7882 0
-1159.6135 236.68547 1549.493 0
-1150.8656 236.78093 1550.1179 0
-1142.0797 236.87006 1550.7014 65536
-1133.8683 237.08073 1552.0807 0
-1127.9569 237.77974 1556.6569 1775634
-1111.2755 236.20116 1546.3224 1906960
-1102.0917 236.20316 1546.3354 1907215
-1092.121 236.03506 1545.2351 2103822
-1083.5255 236.16391 1546.0786 2499094
-1071.325 235.50247 1541.7483 2828059
-1063.4113 235.78011 1543.5659 3157024
-1055.7784 236.12541 1545.8264 3157024
-1049.5619 236.79625 1550.2183 3157537
-1044.3242 237.70181 1556.1466 3552295
-1040.8361 239.02533 1564.8113 3684652
-1037.2987 240.36133 1573.5576 3684396
-1035.0245 242.01701 1584.3967 3553323
-1031.9032 243.50317 1594.1261 3158567
-1032.5096 245.90474 1609.8483 1776660
-1024.3445 246.24261 1612.0602 256
-1012.1467 245.60832 1607.9076 256
-1002.2311 245.521 1607.3361 0
-995.82324 246.29958 1612.4331 0
-994.01617 248.24229 1625.1514 986119
-968.38049 244.21382 1598.7784 2367509
-957.07056 243.75412 1595.7689 2498579
-947.90619 243.83713 1596.3123 2564371
-940.10858 244.27692 1599.1914 2498576
-931.32568 244.4671 1600.4364 2564369
-922.45026 244.63664 1601.5464 2630161
-913.5415 244.80078 1602.6211 2827541
-904.74268 244.99815 1603.9132 2959127
-898.30127 245.84494 1609.4567 3223069
-888.70551 245.83734 1609.407 3947048
-887.58234 248.19882 1624.8668 3881512
-882.29053 249.43381 1632.9517 3683879
-876.5816 250.57697 1640.4355 3224098
-872.44397 252.20009 1651.0615 2697754
-868.34338 253.87096 1662.0001 658176
-857.49811 253.58574 1660.1329 131840
-848.37433 253.80888 1661.5938 329216
-840.19684 254.32375 1664.9642 262912
-834.93665 255.74443 1674.265 2368021
-811.94672 251.70316 1647.8083 2631194
-801.5918 251.52792 1646.6611 2565401
-791.34814 251.38365 1645.7167 2499607
-781.0293 251.21162 1644.5905 2894365
-769.07013 250.5009 1639.9376 3025951
-760.92523 251.03032 1643.4034 3420708
-750.81897 250.91801 1642.6682 3355686
-741.52838 251.0789 1643.7216 3618856
-733.21613 251.57982 1647.0009 4276786
-726.59204 252.68134 1654.212 4539957
-719.6275 253.69307 1660.8356 4539957
-712.27051 254.59271 1666.7251 4539958
-705.96503 255.89886 1675.276 4079409
-708.15973 260.36761 1704.5314 3618858
-705.43384 263.13074 1722.6205 3421224
-784.75928 297.03177 1944.558 3815982
-810.27203 311.2738 2037.7954 1447436
-849.50403 331.29858 2168.8904 2434331
-852.94946 337.76913 2211.2507 2829091
-861.33588 346.4295 2267.947 197376
-878.15704 358.8118 2349.0093 592129
-872.22339 362.14642 2370.8398 592130
-870.21948 367.24902 2404.2449 657922
-867.69885 372.30035 2437.314 1907989
-888.73846 387.80386 2538.8098 3487021
-886.88916 393.68283 2577.2971 65792
-914.03613 412.866 2702.8823 263169
-903.65887 415.48291 2720.0142 0
0 0 0 0
0 0 0 0
-2033.4923 987.99579 6468.0459 256
-2145.9502 1062.731 6957.3101 768
-2143.4072 1082.3329 7085.6367 263936
-2135.1157 1099.7598 7199.7241 198144
-2104.8938 1106.3727 7243.0161 329216
-2103.4126 1128.684 7389.0801 132608
-2058.3049 1128.0378 7384.8501 461568
-2028.0005 1135.6533 7434.7056 198400
-2012.8229 1152.2675 7543.4731 395776
-1973.4409 1155.467 7564.4194 66816
-1927.5076 1154.8906 7560.6455 67072
-1882.9229 1155.114 7562.1079 66816
-1843.6886 1158.7108 7585.6553 67072
-1811.6012 1167.0924 7640.5264 198400
-1760.6403 1163.4333 7616.5713 66304
-1702.066 1154.4174 7557.5474 512
-1661.0066 1157.114 7575.2012 512
-1617.4558 1158.177 7582.1606 768
-1576.2145 1161.002 7600.6543 66816
-1533.5929 1162.9471 7613.3887 132608
-1497.2386 1169.9076 7658.9565 264192
-1455.9601 1173.3365 7681.4043 264192
-1419.4243 1180.9332 7731.1372 461568
-1370.8494 1178.6869 7716.4307 67072
-1318.8429 1173.2322 7680.7217 198400
-1270.4153 1170.6844 7664.0415 329728
-1223.2928 1169.1943 7654.2866 329728
-1172.535 1163.9802 7620.1523 329728
-1118.7958 1155.2686 7563.1196 132352
-1063.5743 1144.2327 7490.8721 263680
-1007.5964 1131.3828 7406.749 395520
-942.7323 1106.9246 7246.6294 198144
-881.33862 1084.3938 7099.1289 132352
-827.13995 1068.8948 6997.6621 395520
-765.08832 1041.0682 6815.4922 395264
-691.19843 993.12024 6501.5942 256
-644.91797 981.51135 6425.5947 65792
-633.68573 1025.1395 6711.2124 65536
-560.15662 967.07867 6331.1094 65536
-514.38831 952.03296 6232.6108 65536
-471.49182 940.37927 6156.3184 0
-427.21112 923.77081 6047.5889 256
-391.20419 923.64465 6046.7632 256
-363.81442 945.89703 6192.4414 264196
-373.19199 1079.5153 7067.1904 1251604
-362.68054 1182.2057 7739.4673 5660761
-315.7598 1178.8127 7717.2549 66817
-270.0365 1179.4965 7721.7305 3621433
-227.06117 1194.9214 7822.7129 2108193
-178.49121 1181.2672 7733.3232 2700584
-133.21762 1187.5227 7774.2764 1647126
-86.984116 1187.3223 7772.9634 988939
-40.519974 1179.9512 7724.708 1317650
5.4447074 1188.8048 7782.6689 1844249
51.179749 1176.5365 7702.353 2436900
97.622498 1184.4413 7754.1025 3095602
145.82562 1201.7828 7867.6318 4148290
