# .PCD v0.7 - Point Cloud Data file format
VERSION 0.7
FIELDS x y z rgb
SIZE 4 4 4 4
TYPE F F F U
COUNT 1 1 1 1
WIDTH 1397
HEIGHT 1
VIEWPOINT 0 0 0 1 0 0 0
POINTS 1397
DATA ascii
1484.0863 631.82837 9938.499 131072
1607.8563 658.31256 10355.089 0
1583.3341 624.36639 9821.124 131585
1623.024 617.25549 9709.2715 131841
1694.8214 622.42444 9790.5781 8816518
1746.1515 619.98315 9752.1768 2763304
1798.9624 618.20764 9724.248 65792
1865.1998 621.013 9768.376 0
1912.803 617.63208 9715.1943 66049
1874.6462 587.56958 9242.3193 1315859
2040.6149 621.37634 9774.0918 12304576
2051.1392 607.28815 9552.4873 1315860
2256.1543 649.99115 10224.195 197376
2291.3303 642.80719 10111.193 65536
2357.2549 644.39618 10136.188 65792
2431.0745 648.01031 10193.037 65792
2499.8271 650.13098 10226.395 65792
2581.2866 655.37714 10308.915 512
2653.8955 658.18488 10353.08 512
2733.1514 662.4765 10420.587 512
2816.0796 667.44836 10498.792 512
2887.5471 669.547 10531.804 512
2972.3567 674.58472 10611.046 512
3044.886 676.68384 10644.064 512
3054.356 664.96881 10459.79 987917
3252.7078 694.02252 10916.797 8424583
3253.8496 680.68439 10706.992 4542795
3423.0117 702.33252 11047.512 527372
4076.6064 820.69 12909.244 9082002
3444.606 680.64368 10706.352 593160
3658.6848 709.82861 11165.423 256
3661.0647 697.63324 10973.593 0
3665.0698 686.16907 10793.265 131072
3729.4443 686.20728 10793.865 65536
3792.0054 685.9162 10789.286 65536
3928.5273 698.79059 10991.798 262914
4038.9575 706.67853 11115.873 1117709
4051.741 697.50275 10971.54 393729
3917.5825 663.7226 10440.187 393216
3947.0471 658.28497 10354.655 787200
4023.6809 660.7605 10393.594 655360
4097.96 662.78021 10425.364 524288
4193.0874 668.06146 10508.437 524288
4294.0923 674.11035 10603.584 458752
4373.9844 676.71765 10644.597 327680
4447.7017 678.30896 10669.627 1117963
0 0 0 0
4884.8604 724.31897 11393.353 5393477
4734.167 692.37378 10890.863 656387
4808.812 693.80182 10913.326 589824
4855.7378 691.24579 10873.12 655360
4914.1543 690.37122 10859.363 655360
5076.0171 703.86371 11071.597 589824
5155.0728 705.67529 11100.093 589824
5216.7637 705.09406 11090.95 524288
5289.9951 706.06775 11106.266 524288
5460.0273 719.77826 11321.929 327680
5339.7378 695.34882 10937.659 196608
5378.7441 692.00128 10885.004 526599
5839.4463 742.34161 11676.845 2631973
6281.5322 789.16034 12413.291 5658963
6379.0361 792.104 12459.594 3948604
6341.0532 778.3493 12243.235 4014653
6402.0146 776.91425 12220.663 2369829
6749.7471 809.92181 12739.863 4804684
7064.835 838.32312 13186.609 6383716
7098.3794 833.05951 13103.813 7436404
7044.0386 817.70789 12862.336 7239025
7060.3384 810.79828 12753.65 7107439
7030.2705 798.76727 12564.405 7370612
0 0 0 0
0 0 0 0
0 0 0 0
0 0 0 0
0 0 0 0
0 0 0 0
0 0 0 0
0 0 0 0
0 0 0 0
0 0 0 0
0 0 0 0
1357.5842 136.80389 2151.8904 262144
1373.7188 137.13745 2157.1372 196608
1381.2297 136.61194 2148.8708 196608
1347.7726 132.08118 2077.6033 196608
1347.8959 130.89371 2058.9246 262144
1351.9246 130.10342 2046.4938 262144
1363.1959 130.01805 2045.1506 196608
1364.7991 129.02019 2029.4547 196864
1350.3269 126.53347 1990.3392 1249289
1343.6814 124.81699 1963.3395 1512461
1349.249 124.25482 1954.4966 986117
1345.9015 122.88821 1933.0004 525568
1337.9204 121.12529 1905.2699 459776
1340.1902 120.31219 1892.4801 262400
1336.7744 119.00648 1871.9417 196608
1334.2582 117.80176 1852.9916 196608
1320.5337 115.63529 1818.9136 65536
1306.8564 113.50811 1785.4536 328449
1305.045 112.43753 1768.6136 1183755
1296.9927 110.85066 1743.6526 2433563
1297.975 110.05501 1731.1372 2433563
1291.0885 108.60992 1708.4064 1446668
1288.1902 107.52027 1691.2665 1117703
1288.1836 106.687 1678.1592 1182985
1290.6005 106.0657 1668.3864 1117705
1291.2509 105.3098 1656.4963 1249291
1287.6926 104.22472 1639.4281 1249291
1286.8693 103.37563 1626.0723 1183498
1287.926 102.6891 1615.2733 1183498
1284.8811 101.68811 1599.5281 1051912
1277.4453 100.3569 1578.5884 986119
1273.8998 99.34848 1562.7263 920326
1248.8901 96.692856 1520.954 1644049
1259.3579 96.802437 1522.6776 2696735
1254.8508 95.767609 1506.4 2630942
1258.6534 95.377113 1500.2577 2894112
1258.8374 94.719841 1489.9189 3420199
1264.2711 94.464012 1485.8948 3485990
1267.2635 94.030586 1479.0771 3683369
1267.5896 93.406647 1469.2627 4077869
1267.4696 92.758614 1459.0693 4340784
1268.7131 92.218491 1450.5732 4669749
1272.7015 91.883835 1445.3092 4867642
1272.6968 91.267303 1435.6115 4933435
1276.8629 90.956108 1430.7163 5065279
1283.1827 90.80143 1428.2833 4999742
1289.9441 90.679825 1426.3705 5525829
1295.1486 90.451073 1422.7722 920328
1349.9918 93.669487 1473.3971 393216
0 0 0 0
1368.0868 93.708939 1474.0177 327680
1405.8906 95.685455 1505.1078 393216
1435.5525 97.086334 1527.1432 327680
1391.5029 93.515823 1470.9801 262144
1479.0829 98.78083 1553.7972 262144
1556.9781 103.3377 1625.4756 262144
1644.5181 108.4745 1706.2764 1051648
1672.9949 109.67635 1725.1812 1051652
0 0 0 0
0 0 0 0
0 0 0 0
0 0 0 0
0 0 0 0
0 0 0 0
0 0 0 0
0 0 0 0
0 0 0 0
0 0 0 0
0 0 0 0
0 0 0 0
0 0 0 0
0 0 0 0
0 0 0 0
-1149.4357 95.405258 1372.3639 131840
-1153.8853 96.459259 1387.5253 197377
-1135.1683 95.577881 1374.847 1841426
-1122.1664 95.168404 1368.9569 2170392
-1114.6265 95.219543 1369.6925 2104338
-1106.8577 95.25174 1370.1556 2367509
-1097.1864 95.119476 1368.2532 2762266
-1086.8771 94.929527 1365.5208 3287839
-1081.2153 95.145683 1368.6301 3288610
-1074.5369 95.274971 1370.4899 3683368
-1068.9244 95.50148 1373.748 3881261
-1065.381 95.917763 1379.7361 3815468
-1062.1368 96.367645 1386.2075 3750191
-1059.1301 96.846283 1393.0924 3684911
-1057.8514 97.491707 1402.3766 3421739
-1055.505 98.04821 1410.3817 2895399
-1052.1555 98.519699 1417.1638 1711381
-1046.382 98.769981 1420.7642 66049
-1043.1978 99.270752 1427.9675 256
-1037.6199 99.550095 1431.9856 329476
-1041.3054 100.73015 1448.9602 1381909
-1034.6331 100.91954 1451.6846 0
-1021.5555 100.48212 1445.3926 0
-1012.3799 100.42433 1444.5613 65536
-1004.1747 100.46263 1445.1121 131072
-990.13049 99.912392 1437.1971 2433304
-972.95819 99.034164 1424.5643 2761753
-964.59552 99.045105 1424.7217 2959132
-956.21802 99.054695 1424.8596 3024922
-948.38416 99.121277 1425.8174 3156508
-940.17255 99.149239 1426.2195 3353886
-931.8595 99.166885 1426.4734 3617057
-924.15558 99.25029 1427.6732 3814436
-916.14166 99.301651 1428.4119 3749413
-908.52032 99.396904 1429.7821 4012585
-901.2074 99.52803 1431.6682 3815206
-894.64575 99.745407 1434.7952 3749412
-888.03741 99.961716 1437.9067 3420707
-882.1554 100.26479 1442.2662 2696986
-870.52753 99.914322 1437.225 1512713
-893.5871 103.57761 1489.9198 196608
-888.38263 104.00531 1496.072 196608
-874.82605 103.45396 1488.1411 262144
-874.58917 104.48259 1502.9375 262144
-867.58398 104.71553 1506.2882 262144
-857.5163 104.57983 1504.3363 196608
-845.05994 104.1469 1498.1086 2367510
-827.37616 103.05363 1482.3826 2565144
-815.47437 102.66474 1476.7886 2960159
-803.39911 102.24535 1470.7556 3486502
-791.81158 101.87943 1465.4922 3881516
-783.30005 101.90558 1465.8683 3947823
-775.54974 102.03246 1467.6935 4013616
-769.49774 102.3882 1472.8107 4539957
-761.64764 102.51013 1474.5646 4605751
-756.99237 103.06989 1482.6165 4474165
-751.13165 103.47678 1488.4694 4408372
-747.07471 104.14483 1498.079 4276786
-742.56 104.7644 1506.9912 4276785
-738.44409 105.45608 1516.9407 4342581
-739.43048 106.90249 1537.7468 2631962
-792.04596 115.9428 1667.7877 3223845
-818.05084 121.26757 1744.3823 3553068
-832.2962 124.96349 1797.5465 394753
-849.03302 129.13448 1857.5444 592129
-851.06396 131.1492 1886.5254 789254
-840.32916 131.22429 1887.6055 921094
-845.79852 133.86606 1925.6062 1644817
-849.78314 136.3421 1961.223 1907987
-866.66852 140.98569 2028.019 2960675
-854.57404 140.97946 2027.9294 3223847
-894.49213 149.67639 2153.031 0
-898.11053 152.46358 2193.1235 65536
-895.38483 154.24004 2218.6772 526084
-894.60645 156.4101 2249.8926 131328
-896.49695 159.11972 2288.8694 460802
-891.91211 160.74586 2312.2607 1447697
0 0 0 0
-2724.1614 506.58035 7286.9424 65792
-3088.2773 583.57111 8394.4219 65792
-3051.2942 586.0531 8430.124 196608
-3031.9756 592.06744 8516.6377 196608
-3005.2048 596.80603 8584.8008 0
-2992.7283 604.59625 8696.8594 4211259
-3031.8247 623.26227 8965.3623 4474177
-2966.543 620.75513 8929.2979 4605507
-2821.5923 601.18188 8647.7451 723722
-2776.762 602.61017 8668.29 3224108
-2759.8464 610.26501 8778.4023 658439
-2710.9407 611.00488 8789.0449 657927
-2707.5613 622.23651 8950.6064 329219
-2614.8645 612.98047 8817.4629 131585
-2624.1301 627.73694 9029.7275 855563
-2493.0947 608.84625 8757.9941 789770
-2486.6531 620.22632 8921.6914 2500642
-2428.9539 619.03894 8904.6113 987151
-2382.3967 620.7016 8928.5273 329473
-2358.7104 628.53455 9041.2012 131840
-2398.4917 654.03955 9408.0801 6580835
-2213.6194 618.03961 8890.2363 7568500
-2227.4617 637.11639 9164.6475 6514786
-2212.8894 648.81866 9332.9805 592136
-2185.8743 657.38086 9456.1436 2632228
-2126.8181 656.5047 9443.54 5856085
-2103.1914 666.8139 9591.834 8751491
-2052.6272 668.91913 9622.1162 8160126
-1929.1923 646.71692 9302.7471 7962489
-1927.5724 665.245 9569.2656 5988700
-1896.2329 674.33118 9699.9668 3553334
-1830.7524 671.46558 9658.7461 921358
-1732.938 656.17126 9438.7432 1447701
-1647.8694 644.84088 9275.7607 2500133
-1555.0719 629.59668 9056.4805 1250324
-1481.2744 621.22748 8936.0928 2105377
0 0 0 0
0 0 0 0
0 0 0 0
-865.4245 423.73734 6095.2808 256
-827.9115 423.0853 6085.9014 65792
-793.89551 424.24234 6102.5454 65792
-857.54504 480.20004 6907.4731 65792
-753.33569 443.06305 6373.2729 65792
-662.11157 410.034 5898.1641 65536
0 0 0 0
0 0 0 0
0 0 0 0
-867.03748 681.25739 9799.5967 66048
-799.33008 673.29919 9685.1221 131584
-741.44031 673.01703 9681.0635 591616
-682.99225 672.13806 9668.4199 788992
-624.07263 670.59082 9646.1631 460032
-566.54498 670.37744 9643.0938 722944
-509.80289 671.15027 9654.2109 393984
-454.85568 674.78192 9706.4502 394240
-403.90872 686.26556 9871.6377 657152
-345.62695 687.07275 9883.249 393984
-286.98392 687.3454 9887.1709 458752
-229.78468 692.10718 9955.667 655360
-173.34158 703.24084 10115.819 720896
-113.08823 702.53357 10105.646 851968
-52.325974 693.47888 9975.3984 851968
6.9158068 687.22644 9885.46 1245952
65.135277 681.46649 9802.6055 1706496
123.50758 681.99042 9810.1416 1575425
182.72681 685.3548 9858.5361 1248004
240.11945 681.89783 9808.8096 393216
304.60217 695.99207 10011.55 262144
365.76788 699.13855 10056.81 262144
432.31046 710.23431 10216.418 1249549
498.01611 717.39081 10319.361 0
560.09784 718.32977 10332.867 5329742
655.32172 757.38708 10894.69 6119263
714.16846 751.15704 10805.074 1118738
744.45831 718.39807 10333.85 131072
800.10046 713.23346 10259.56 196608
855.7652 708.81927 10196.063 196608
915.45776 708.10455 10185.782 196608
975.03387 707.39404 10175.562 196608
1031.4281 704.59296 10135.27 196608
1086.9073 701.51044 10090.929 196608
1143.0166 699.13586 10056.771 196608
1193.1006 693.49506 9975.6309 196608
1249.2767 691.7619 9950.7002 262144
1307.1742 691.09558 9941.1152 196608
1365.2418 690.57288 9933.5967 196608
1421.6068 689.26807 9914.8271 196608
1480.8593 689.41138 9916.8887 196608
1539.9785 689.48407 9917.9346 196608
1591.012 686.06476 9868.749 65536
1646.7694 684.85321 9851.3213 65536
1683.2003 675.9635 9723.4463 65793
1776.8749 689.88947 9923.7656 197122
1796.6759 675.16003 9711.8887 131072
1856.7906 676.02533 9724.3359 196608
1913.5758 675.66272 9719.1201 262144
1973.1938 676.2923 9728.1758 131072
2037.8579 678.56622 9760.8857 65536
2085.3823 675.16516 9711.9629 197121
2160.8098 680.73779 9792.123 65536
2247.6687 689.52496 9918.5225 65536
2311.6748 691.03143 9940.1924 65536
2391.9592 697.20758 10029.034 65792
2457.2058 698.8067 10052.037 256
2536.6521 704.27234 10130.657 512
2607.229 707.07898 10171.03 512
2675.572 709.16632 10201.056 512
2759.7278 715.25952 10288.703 256
2832.9055 718.30481 10332.509 512
2918.7583 724.36658 10419.704 512
2987.1292 725.92786 10442.163 256
2972.2734 707.61182 10178.694 659212
3228.1445 753.19281 10834.357 3555386
3309.3923 757.04431 10889.76 10200734
3408.9402 764.85376 11002.096 4871243
3514.2839 773.64526 11128.558 5856856
3546.0574 766.21521 11021.679 256
3575.9082 758.64673 10912.81 131328
3611.4104 752.52557 10824.76 196608
3652.7488 747.81366 10756.98 262144
3694.3665 743.32001 10692.342 393216
3737.0132 739.18201 10632.818 393216
3794.25 738.01953 10616.097 393216
3826.0874 732.03558 10530.02 393216
3866.7961 727.91418 10470.735 393216
3901.6819 722.84467 10397.812 393216
3959.5488 722.12439 10387.452 458752
3996.4119 717.6546 10323.155 720896
4060.0559 718.05646 10328.936 524288
4125.5298 718.76495 10339.128 458752
4289.5928 736.3772 10592.473 920325
4264.9043 721.54645 10379.138 3881009
4313.8164 719.41296 10348.449 2762273
4692.1597 771.5061 11097.786 262144
4856.8984 787.51971 11328.135 196608
4745.0732 758.86523 10915.953 1642765
4769.4385 752.47064 10823.97 458752
4852.1606 755.33069 10865.11 524288
4973.4229 764.03625 10990.336 589824
5136.0352 778.78613 11202.506 524288
5222.3013 781.72992 11244.852 393216
5540.9805 818.94971 11780.242 1576717
5853.4595 854.33533 12289.25 327680
5780.2285 833.24677 11985.899 393216
5736.1724 816.82611 11749.696 524288
5765.5742 811.13525 11667.835 458752
6307.4849 876.82526 12612.758 327680
6569.1953 902.47778 12981.759 197121
6496.7642 882.16309 12689.54 328964
6451.5161 865.96356 12456.517 1185042
6601.3091 876.01428 12601.092 5001806
6870.5396 901.51123 12967.854 6975596
6791.3452 881.23132 12676.137 6317923
6903.8418 885.99707 12744.69 2896430
6964.9287 884.13342 12717.883 4870219
7015.7383 881.01917 12673.085 7567734
6876.1494 854.31543 12288.963 6844012
0 0 0 0
0 0 0 0
0 0 0 0
0 0 0 0
0 0 0 0
0 0 0 0
0 0 0 0
0 0 0 0
0 0 0 0
0 0 0 0
0 0 0 0
1386.9843 152.83681 2198.4922 196608
1397.1995 152.52512 2194.0088 196608
1358.0269 146.87767 2112.7727 196608
1356.4772 145.36554 2091.0215 196608
1358.9498 144.30804 2075.8096 196608
1366.6649 143.82124 2068.8071 196608
1372.6772 143.16554 2059.3752 131072
1356.7179 140.25011 2017.438 1380876
1348.0582 138.13376 1986.9954 1578253
1347.1135 136.83788 1968.3545 1512461
1344.8418 135.43065 1948.1122 722946
1345.991 134.38902 1933.1289 657153
1344.6975 133.12323 1914.9208 657154
1346.9697 132.2287 1902.0536 459776
1342.7473 130.71681 1880.3057 131072
1339.8451 129.35738 1860.7507 262144
1326.05 126.97713 1826.512 131072
1294.1221 122.91332 1768.0557 2170393
1306.0872 123.05029 1770.026 2499358
1309.8063 122.4144 1760.8789 788741
1305.2845 121.02451 1740.886 131328
1305.1154 120.05688 1726.9672 131072
1298.6093 118.52598 1704.9457 196864
1299.8698 117.72218 1693.3832 262144
1297.7102 116.62336 1677.5773 262912
1295.462 115.5334 1661.8987 460034
1290.969 114.26125 1643.5995 722947
1285.7535 112.94476 1624.6622 920326
1287.5925 112.26299 1614.8551 1051911
1290.5282 111.68618 1606.5581 1117702
1279.2307 109.89514 1580.7947 1051910
1270.0731 108.31271 1558.0321 1051910
1253.1403 106.09491 1526.13 1973012
1247.1141 104.82575 1507.8738 2696735
1252.1307 104.49628 1503.1345 2762528
1256.5768 104.12421 1497.7825 3091491
1258.6115 103.55895 1489.6515 3354917
1261.5498 103.07545 1482.6964 3551783
1265.1936 102.65588 1476.6611 3749161
1264.7325 101.91134 1465.9512 4209454
1263.778 101.13748 1454.8196 4406577
1266.3187 100.65198 1447.8358 4735542
1269.9 100.25517 1442.1278 4867642
1272.5433 99.790123 1435.4384 5064764
1276.9294 99.467049 1430.791 5130814
1284.1095 99.364426 1429.3148 5065278
1290.5287 99.204674 1427.0168 5460294
1283.9838 98.056931 1410.5072 985864
1350.8982 102.49773 1474.3862 393216
1391.829 104.92252 1509.2656 393216
1367.9596 102.46259 1473.8806 393216
1387.3684 103.25494 1485.2783 393216
1438.6351 106.39332 1530.4225 262144
1458.3818 107.17585 1541.6788 262144
1482.3752 108.25874 1557.2559 262144
1595.4987 115.79702 1665.6908 131072
1635.7013 117.98254 1697.1285 985856
1668.3859 119.60232 1720.4285 1051649
0 0 0 0
0 0 0 0
0 0 0 0
0 0 0 0
0 0 0 0
0 0 0 0
0 0 0 0
0 0 0 0
0 0 0 0
0 0 0 0
0 0 0 0
0 0 0 0
0 0 0 0
0 0 0 0
0 0 0 0
0 0 0 0
-1141.2318 103.56 1372.3097 328705
-1132.8147 103.53636 1371.9965 1973012
-1122.1538 103.30582 1368.9415 1973012
-1114.2161 103.32444 1369.1882 2170130
-1106.5664 103.37025 1369.7952 2104337
-1098.2347 103.35254 1369.5605 2367508
-1090.4073 103.38238 1369.9559 3222817
-1080.6707 103.23028 1367.9406 3354660
-1073.6758 103.33979 1369.3916 3618088
-1068.9279 103.66888 1373.7526 3618860
-1065.2676 104.10934 1379.5892 3684396
-1062.0388 104.59913 1386.0796 3750191
-1058.1736 105.03339 1391.8342 3685168
-1055.6973 105.61346 1399.5209 3618862
-1054.6204 106.34386 1409.1996 2960935
-1051.9336 106.92233 1416.865 1842713
-1046.6786 107.24697 1421.167 256
-1038.764 107.30217 1421.8986 66049
-1040.3967 108.35258 1435.8179 592651
-1043.2477 109.54829 1451.6627 1316373
-1032.9406 109.37075 1449.3099 0
-1019.6826 108.87514 1442.7424 0
-1012.1046 108.98274 1444.1683 65536
-1003.7429 109.00706 1444.4907 65536
-989.11975 108.34595 1435.7301 2367511
-972.46216 107.44855 1423.8381 2761240
-963.86609 107.43391 1423.6443 2827545
-955.46594 107.44106 1423.739 2827543
-947.70996 107.52142 1424.8038 3090715
-940.10718 107.62076 1426.1202 3419421
-931.6405 107.62212 1426.1383 3617056
-924.10681 107.73228 1427.5979 3880229
-916.1214 107.79131 1428.3802 3749413
-909.15503 107.97248 1430.781 4012585
-901.75732 108.10536 1432.5419 3880999
-895.27148 108.35114 1435.7987 3749412
-888.13116 108.52167 1438.0585 3420707
-883.51941 109.0075 1444.4963 2828572
-875.1037 109.02891 1444.7802 1841678
-876.35333 110.26691 1461.1853 196608
-880.5011 111.89799 1482.7993 196608
-878.28186 112.74474 1494.0199 196608
-876.76569 113.69995 1506.6777 196608
-866.27844 113.4995 1504.0216 262144
-858.57623 113.66359 1506.1958 196608
0 0 0 0
-832.078 112.50225 1490.8066 2433815
-813.34387 111.15324 1472.9304 3025952
-802.70032 110.89257 1469.4762 3618087
-792.85437 110.73758 1467.4224 3618601
-784.46802 110.78526 1468.0541 3553064
-776.23663 110.85614 1468.9934 3882028
-769.22089 111.10421 1472.2808 4210992
-762.172 111.35317 1475.5797 4671543
-756.73425 111.84605 1482.111 4539958
-750.98956 112.30463 1488.1879 4539957
-748.05695 113.19968 1500.0486 3947821
-743.91919 113.93177 1509.7496 4276786
-738.62079 114.50182 1517.3036 4408374
-738.37085 115.87825 1535.5432 2829599
-808.59302 128.48732 1702.6304 3289894
-816.26459 131.35066 1740.5735 3618604
-832.22028 135.6377 1797.3824 657924
-849.2558 140.21454 1858.0317 592129
-847.09937 141.70158 1877.7373 789509
-841.42682 142.63235 1890.0712 1052425
-843.96643 144.99921 1921.4352 1710610
-845.73944 147.2975 1951.8906 1842194
-868.14923 153.30394 2031.4839 2894882
-857.73676 153.60208 2035.4348 3223848
-889.97852 161.65651 2142.1667 0
-904.99951 166.77139 2209.946 0
-906.12408 169.43845 2245.2881 789253
-901.93481 171.17676 2268.323 131584
-905.51831 174.46541 2311.9021 263424
-904.90228 177.03384 2345.9373 1315854
0 0 0 0
0 0 0 0
-3010.574 617.53802 8183.2124 196608
-2996.791 624.80756 8279.543 196608
-2965.6621 628.64294 8330.3672 196608
-2941.5503 634.12128 8402.9629 196608
-2953.928 647.79108 8584.1055 394496
-2986.8384 666.52338 8832.334 328964
-2844.3845 646.09277 8561.6006 657669
-2639.2036 610.40967 8088.752 0
-2743.7439 646.36566 8565.2168 65536
-2705.3445 649.37128 8605.0449 262144
-2684.7432 656.84717 8704.1113 65792
-2616.6465 652.76837 8650.0615 65792
-2561.6316 651.85498 8637.958 65792
-2525.3953 655.78052 8689.9766 256
-2484.3081 658.58411 8727.1279 131840
-2475.4929 670.245 8881.6504 5528403
-2374.9485 657.03693 8706.626 4739144
-2332.8762 659.77728 8742.9395 0
-2300.5813 665.47083 8818.3857 2961195
-2275.6599 673.61237 8926.2725 66049
-2312.0244 700.71704 9285.4463 1447699
-2234.1326 693.67236 9192.0947 1250320
-2134.2266 679.26788 9001.2158 460804
-2149.3174 701.66418 9297.9971 131841
-2125.2781 712.13141 9436.7021 7303532
-2047.0186 704.50568 9335.6504 4869448
-2012.3381 711.87122 9433.2539 1579796
-1981.4519 721.03967 9554.748 256
-1901.634 712.41779 9440.4971 3553589
-1822.1449 703.3985 9320.9785 2764073
-1756.7384 699.42017 9268.2607 4145982
-1719.4939 706.75952 9365.5176 2566951
-1688.8943 717.41278 9506.6875 3883070
-1556.4865 684.06 9064.7178 6119776
-1492.3809 679.40967 9003.0947 4145728
-1360.436 642.38049 8512.4082 5330257
0 0 0 0
0 0 0 0
-849.69385 451.61353 5984.4883 256
-809.23077 448.90381 5948.5811 65792
-766.50262 444.63251 5891.9805 256
-741.24707 450.573 5970.7002 65792
-709.521 452.98007 6002.5972 256
-655.92078 440.93744 5843.0156 512
0 0 0 0
0 0 0 0
0 0 0 0
-790.14972 673.93756 8930.582 0
-784.99615 717.77179 9511.4443 4342076
-748.59784 737.62451 9774.5205 1052938
-697.43481 745.04626 9872.8682 1710870
-630.4046 735.32404 9744.0352 723978
-569.08698 730.97168 9686.3613 65536
-521.35132 745.04907 9872.9053 131072
-462.77991 745.2486 9875.5498 66049
-401.87814 741.20825 9822.0098 2237986
-341.34921 736.59875 9760.9268 4540736
-288.20883 749.31024 9929.3721 5264717
-234.53177 766.81549 10161.34 4079930
-176.83168 778.75031 10319.492 2039321
-114.0732 769.25482 10193.664 722178
-52.445129 754.4978 9998.1143 720896
6.9572687 750.46893 9944.7256 720896
66.004723 749.61829 9933.4541 589824
123.83031 742.24707 9835.7754 1381391
187.95422 765.24792 10140.567 5528146
256.27307 790.00861 10468.68 8621447
321.82523 798.23053 10577.631 8689038
383.89078 796.53021 10555.1 8425097
452.6098 807.17322 10696.135 7963005
519.59296 812.4798 10766.453 526598
563.45331 784.43103 10394.77 592386
611.77234 767.52069 10170.685 4342589
699.22321 798.33075 10578.959 789769
738.18005 773.2572 10246.701 131072
795.3598 769.6402 10198.771 131072
851.81476 765.88397 10148.996 196608
909.396 763.57031 10118.337 196608
965.74799 760.57562 10078.653 196608
1020.5982 756.81726 10028.85 196608
1079.2402 756.13031 10019.747 196608
1135.9327 754.22089 9994.4443 196608
1188.9703 750.19513 9941.0977 196608
1243.8885 747.68103 9907.7822 262144
1304.0233 748.38812 9917.1523 196608
1360.2667 746.89734 9897.3975 196608
1415.4755 744.98566 9872.0654 196608
1468.759 742.2533 9835.8574 196608
1527.4554 742.36084 9837.2822 196608
1579.7227 739.45093 9798.7227 196608
1634.417 737.84381 9777.4258 196608
1691.8557 737.54346 9773.4463 262144
1742.9596 734.59308 9734.3496 262144
1794.5559 732.03339 9700.4297 262144
1851.7821 731.85797 9698.1055 262144
1905.9661 730.5271 9680.4697 262144
1959.5771 729.0611 9661.043 262144
2015.3494 728.45978 9653.0752 196608
2067.8835 726.75372 9630.4678 65536
2147.4084 734.37 9731.3926 3158578
2227.5181 741.78125 9829.6025 1645337
2287.4036 742.25092 9835.8262 526342
2358.7588 746.32635 9889.8311 65536
2433.3008 751.18732 9954.2451 65536
2510.042 756.48022 10024.384 256
2579.7505 759.45728 10063.834 256
2661.834 765.85999 10148.678 256
2730.4727 768.19617 10179.636 512
2805.771 772.2641 10233.541 512
2881.9177 776.38788 10288.187 512
2957.4709 780.18372 10338.486 512
2907.4446 751.3714 9956.6846 1777435
3052.0427 773.00214 10243.321 263684
3337.3723 828.73297 10981.829 461321
3399.7393 828.02148 10972.401 8951185
3472.1658 829.74072 10995.185 7634553
3597.271 843.7525 11180.858 256
3558.8052 819.58557 10860.615 256
3599.7412 814.24036 10789.783 131072
3619.2485 804.32007 10658.326 196608
3665.8779 800.66486 10609.89 262144
3701.0356 794.67017 10530.452 262144
3762.6904 794.46967 10527.795 262144
3790.8962 787.32867 10433.167 196608
3837.165 784.10876 10390.499 262144
3876.0388 779.50366 10329.475 393216
3918.3472 775.72211 10279.364 458752
3974.1821 774.69348 10265.733 524288
4029.6086 773.61749 10251.476 458752
4089.6458 773.44562 10249.198 393216
4151.9844 773.70764 10252.67 196864
4077.0913 748.75946 9922.0732 6383455
4370.8867 791.26703 10485.355 4868935
4605.4844 822.01312 10892.783 591620
4721.1978 830.98175 11011.63 2433566
4708.3149 817.38025 10831.391 196608
4739.0474 811.61542 10754.999 327680
4749.3179 802.54626 10634.821 787714
4896.9619 816.62421 10821.372 1511183
5065.7666 833.81989 11049.239 1051401
5452.4946 885.98621 11740.512 393216
5665.6929 908.99304 12045.384 393216
5785.0239 916.55353 12145.57 591107
6038.2778 944.88422 12520.991 1906452
6070.168 938.30719 12433.837 262144
6259.498 955.93225 12667.393 524288
6284.3384 948.31653 12566.474 589824
6370.5771 950.03595 12589.258 524288
6303.6294 929.13623 12312.309 458752
6364.9585 927.40686 12289.392 393216
6716.1245 967.46826 12820.26 196608
6493.856 924.95343 12256.88 65536
7018.8467 988.63678 13100.771 513
6708.2324 934.51544 12383.591 1054226
6503.7095 896.18805 11875.701 4541512
6786.8408 925.15936 12259.609 2370086
0 0 0 0
0 0 0 0
0 0 0 0
0 0 0 0
0 0 0 0
0 0 0 0
0 0 0 0
0 0 0 0
0 0 0 0
0 0 0 0
0 0 0 0
1371.0706 165.56369 2193.9421 196608
1377.4008 164.7607 2183.3015 196608
1376.5928 163.12682 2161.6504 196608
1361.0358 159.79156 2117.4539 196608
1360.7107 158.28935 2097.5474 196608
1365.7394 157.43156 2086.1807 196608
1368.9305 156.37932 2072.2368 196608
1367.155 154.78351 2051.0903 854532
1344.9967 150.92868 2000.0087 1709840
1347.9413 149.93364 1986.823 1447695
1349.3834 148.79021 1971.671 1841426
1346.0818 147.14792 1949.9086 657154
1350.1871 146.33646 1939.1555 657152
1348.5413 144.92067 1920.3944 591362
1352.4487 144.12045 1909.7904 525568
1349.4412 142.6028 1889.6794 262400
1341.8177 140.62645 1863.4901 262400
1332.5359 138.5101 1835.4456 262400
1308.8531 134.94336 1788.1816 1380877
1305.2375 133.48637 1768.8745 1973014
1304.5758 132.35236 1753.8473 1446670
1311.9232 132.04242 1749.7402 1051911
1311.363 130.94775 1735.2343 657410
1303.2863 129.12543 1711.0861 460032
1299.9437 127.79677 1693.4796 328192
1301.3647 126.95323 1682.3016 328448
1304.3639 126.27534 1673.3186 459776
1306.076 125.48406 1662.8331 525570
1306.5671 124.58823 1650.962 657155
1296.5193 122.70831 1626.0507 722947
1283.293 120.55762 1597.5511 722945
1280.0774 119.37206 1581.8409 460032
1276.9797 118.21473 1566.5046 328448
1245.6499 114.47951 1517.0079 2433563
1245.6284 113.65466 1506.0775 2696735
1251.6101 113.38541 1502.5096 2828321
1253.7836 112.77742 1494.453 3157284
1255.5098 112.13805 1485.9805 3420197
1258.5326 111.62262 1479.1503 3749162
1260.708 111.0397 1471.4258 3946540
1261.6121 110.3536 1462.3341 4143919
1262.9757 109.71684 1453.896 4472370
1265.1334 109.15723 1446.4806 4603956
1266.8774 108.56972 1438.6953 4867128
1271.5199 108.23683 1434.2839 4999227
1277.4359 108.01604 1431.3584 5130813
1284.058 107.85751 1429.2576 5197121
1290.9292 107.72183 1427.4597 5328964
1286.8867 106.68318 1413.6962 1051658
1303.8824 107.39078 1423.0728 393216
1381.2334 113.02819 1497.7761 458752
1385.7114 112.6683 1493.007 393216
1387.3081 112.08021 1485.2139 458752
1393.0795 111.83468 1481.9603 262144
1572.4969 125.44473 1662.3118 262144
1523.4393 120.77218 1600.3943 262144
1595.4987 125.69971 1665.6908 328448
1647.0739 128.96259 1708.9282 985856
1662.916 129.40477 1714.7878 1183235
0 0 0 0
0 0 0 0
0 0 0 0
0 0 0 0
0 0 0 0
0 0 0 0
0 0 0 0
0 0 0 0
0 0 0 0
0 0 0 0
0 0 0 0
0 0 0 0
0 0 0 0
0 0 0 0
0 0 0 0
-1153.5977 112.12746 1377.333 0
-1145.2791 112.1147 1377.1764 131585
-1135.1957 111.92778 1374.8802 1907478
-1121.8041 111.40958 1368.5149 1907219
-1113.5098 111.39375 1368.3203 2104083
-1105.7607 111.43261 1368.7977 2104337
-1098.6791 111.53982 1370.1146 2367508
-1091.686 111.6577 1371.5626 2893338
-1079.2401 111.21542 1366.1299 3091231
-1073.5085 111.46358 1369.1783 3486245
-1068.2638 111.76649 1372.899 3815210
-1065.7404 112.36097 1380.2014 3815467
-1061.7842 112.81245 1385.7472 3750189
-1058.7091 113.36532 1392.5386 3815981
-1056.4664 114.01676 1400.5405 3553322
-1059.6177 115.2653 1415.8772 3092776
-1051.7737 115.32819 1416.6497 2105883
-1045.412 115.55594 1419.4473 131585
-1040.0397 115.89764 1423.6447 66048
-1036.9817 116.50497 1431.1049 658442
-1043.8141 118.24274 1452.4509 1184786
-1032.647 117.95351 1448.8981 0
-1019.1486 117.39086 1441.9868 0
-1010.843 117.42192 1442.3683 65536
-1001.5417 117.33682 1441.323 196864
-985.97815 116.51027 1431.1699 2301718
-971.10297 115.75138 1421.848 2827289
-962.83405 115.77353 1422.12 2827545
-954.84283 115.82973 1422.8105 2959129
-947.12396 115.9203 1423.9229 3024922
-939.80389 116.06172 1425.6602 3222300
-932.25909 116.17773 1427.0852 3551264
-923.9679 116.202 1427.3833 3814436
-916.72192 116.3594 1429.3167 3815205
-908.93878 116.4509 1430.4407 3880999
-902.59277 116.73 1433.869 3880998
-895.8714 116.96542 1436.7607 3683621
-888.24255 117.08575 1438.2388 3618085
-885.5929 117.87114 1447.8862 3157794
-875.54401 117.67744 1445.5071 1973264
-875.28491 118.80877 1459.4038 131072
-880.81152 120.75594 1483.3221 196608
-881.19891 122.03078 1498.9819 196608
-875.38525 122.46417 1504.3055 196608
-866.75415 122.5083 1504.8475 196608
-855.32434 122.15364 1500.491 131072
-836.16516 120.67599 1482.3401 2367767
-834.13818 121.66572 1494.4977 2631193
-812.73737 119.82053 1471.832 3289124
-802.0755 119.53564 1468.3325 3486502
-793.29114 119.52736 1468.2307 3552038
-784.87689 119.57526 1468.8192 3421221
-776.89392 119.6907 1470.2373 3487013
-769.31183 119.87125 1472.4548 3882028
-762.28607 120.14362 1475.8005 4474165
-757.00458 120.70043 1482.6404 4539958
-751.52856 121.239 1489.2559 4342578
-747.73285 122.06472 1499.3987 4210993
-743.66473 122.86534 1509.2333 4079407
-738.15265 123.44405 1516.3419 4079409
-738.48663 125.0268 1535.7839 3289893
-804.58795 137.92308 1694.1971 3158308
-822.74506 142.8235 1754.3921 3815984
-824.10236 144.896 1779.8499 657924
-839.74689 149.56708 1837.2278 657922
-845.52301 152.58046 1874.243 789255
-845.45825 154.60622 1899.1268 1118473
-847.53601 157.08391 1929.5618 1644816
-846.24615 158.99689 1953.0601 1776402
-867.37469 165.23375 2029.6714 3026469
-850.19067 164.24513 2017.5276 3289642
-895.99353 175.57054 2156.645 0
-908.07935 180.522 2217.4668 256
-906.60889 182.8847 2246.4895 592133
-908.62573 186.03206 2285.1504 131584
-908.65448 188.86172 2319.9089 197632
-905.98853 191.20993 2348.7534 1052939
0 0 0 0
0 0 0 0
-3013.4966 666.83472 8191.1562 196608
-2987.1541 671.86273 8252.918 196608
-2953.9451 675.48834 8297.4541 196608
-2918.8064 678.78851 8337.9922 131072
-2881.1028 681.59583 8372.4756 131072
-2845.7996 685.07971 8415.2705 131072
-2795.6387 685.04749 8414.875 131328
-2753.6985 687.06531 8439.6611 256
-2720.2537 691.31696 8491.8867 256
-2694.5339 697.72974 8570.6592 256
-2633.7634 695.13873 8538.832 65792
-2583.844 695.36603 8541.624 65792
-2534.7563 695.83087 8547.334 65792
-2510.2947 703.21313 8638.0156 855559
-2447.6216 699.97607 8598.252 131585
-2528.345 738.48438 9071.2744 1118736
-2396.7124 715.29407 8786.4131 328963
-2302.7979 702.57806 8630.2139 256
-2325.9758 725.82129 8915.7256 1645077
-2257.8594 720.99573 8856.4502 4474690
-2236.8496 731.34137 8983.5322 5132875
-2246.4351 752.44098 9242.7119 263684
-2125.1597 729.66785 8962.9756 329474
-2092.2251 736.83502 9051.0146 256
-2025.3784 732.12238 8993.126 0
-1937.3359 719.28461 8835.4316 328707
-1964.3219 749.62872 9208.167 65792
-1860.6232 730.41071 8972.1006 256
-1883.755 761.31671 9351.7383 1645078
-1790.5961 745.6745 9159.5947 855305
-1770.3365 760.36121 9340.002 65792
-1644.8741 729.35138 8959.0879 256
-1628.377 746.19897 9166.0381 3882555
-1523.4054 722.26648 8872.0596 5857118
-1444.783 709.55774 8715.9502 8687756
-1382.9559 704.45886 8653.3174 9016719
0 0 0 0
-863.54633 475.23544 5837.6196 256
-840.78345 482.08282 5921.731 65792
-801.44745 479.61093 5891.3667 65792
-760.70355 476.03195 5847.4038 256
-722.32086 473.65863 5818.251 65792
-681.93933 469.66986 5769.2544 256
-645.48047 468.10336 5750.0122 768
-600.91235 460.15195 5652.3398 7304559
0 0 0 0
-886.64478 764.45111 9390.2402 6450020
-863.65424 794.66345 9761.3584 11188401
-799.85614 788.97607 9691.4961 9542805
-740.80566 787.45227 9672.7773 1712668
-761.6394 877.73236 10781.746 5001546
-686.3476 863.64764 10608.734 10002584
-670.94049 929.69183 11419.997 9214353
-602.00732 928.08826 11400.3 8161665
-516.25031 896.85077 11016.589 8030080
-403.79327 803.41156 9868.8164 8095615
-346.40826 806.40533 9905.5908 7371379
-286.55182 803.69385 9872.2842 5594711
-228.90144 807.36676 9917.4004 5528148
-166.44812 790.76996 9713.5322 5988183
-111.70867 812.65576 9982.3682 5329484
-52.533466 815.30853 10014.954 1907478
6.8944421 802.28033 9854.9209 1709840
67.109558 822.2099 10099.728 2631716
124.13528 802.69373 9859.999 6778472
181.46512 797.03302 9790.4648 2962994
254.07103 844.92291 10378.728 7832962
299.31296 800.87885 9837.7061 8359823
357.68686 800.62781 9834.6211 8688273
432.03299 831.17566 10209.86 8687758
465.11938 784.59741 9637.71 1974557
553.01837 830.55725 10202.264 394755
614.09442 831.12909 10209.289 525313
666.05682 820.37305 10077.165 131072
734.6908 830.23187 10198.267 262656
775.50031 809.54163 9944.1162 919812
824.61914 799.84222 9824.9717 196608
905.42535 820.12817 10074.157 196608
962.41724 817.66449 10043.894 196608
1015.6143 812.45276 9979.875 196608
1075.5864 812.93713 9985.8252 196608
1131.8989 810.74951 9958.9531 196608
1189.0513 809.35101 9941.7744 196608
1245.0532 807.33899 9917.0586 262144
1304.3146 807.52686 9919.3672 196608
1358.498 804.69067 9884.5283 196608
1411.6715 801.51624 9845.5342 196608
1467.3341 799.95154 9826.3145 196608
1524.842 799.47418 9820.4512 196608
1580.0645 797.87799 9800.8438 196608
1634.1373 795.83539 9775.7539 196608
1692.694 796.04169 9778.2881 262144
1746.2882 793.97821 9752.9404 262144
1798.9529 791.63824 9724.1973 262144
1856.2211 791.40668 9721.3525 262144
1909.8707 789.69287 9700.3018 262144
1962.8956 787.82892 9677.4043 196608
2015.1892 785.78577 9652.3076 131072
2067.4436 783.84106 9628.4189 0
2145.5049 791.52173 9722.7666 1119508
2230.6033 801.32751 9843.2168 9146251
2202.2263 770.90887 9469.5654 460807
2354.8528 803.78906 9873.4541 65536
2430.6125 809.47101 9943.249 65536
2511.6472 816.59808 10030.795 65536
2584.782 820.88568 10083.463 65536
2659.4126 825.44324 10139.445 0
2733.5068 829.63593 10190.947 256
2817.9202 836.71082 10277.853 256
2890.2815 839.98285 10318.045 256
2968.2261 844.7077 10376.083 512
3006.6863 838.23236 10296.543 66305
3155.873 862.26886 10591.798 8094847
3320.3032 889.44843 10925.662 6779503
3405.9548 894.88654 10992.462 3818558
3459.9048 891.94733 10956.357 8094076
3659.8481 926.05762 11375.356 256
3619.6257 899.26337 11046.225 256
3630.4932 885.8905 10881.958 66048
3614.3015 866.4989 10643.758 196608
3648.5706 859.66382 10559.799 196608
3691.0339 854.95795 10501.994 262144
3747.7085 853.64587 10485.876 262144
3793.1265 849.85449 10439.305 327680
3835.8472 845.59076 10386.93 327680
3871.9282 840.02148 10318.52 393216
3913.3547 835.7677 10266.268 524288
3968.4124 834.51086 10250.829 458752
4024.7158 833.55017 10239.028 458752
4079.6577 832.34033 10224.167 458752
4138.1899 831.88763 10218.606 393216
4190.165 830.14911 10197.251 590849
4452.4912 869.54016 10681.116 1446412
4538.978 873.96619 10735.484 131072
4765.4858 904.8562 11114.926 3815474
4852.0137 908.68585 11161.968 6974047
4655.5464 860.12781 10565.498 5327174
4658.4658 849.20966 10431.383 327680
4670.3384 840.18896 10320.576 920844
4945.4048 878.13641 10786.71 7897209
5082.4004 890.90967 10943.611 7763826
5319.4888 920.68378 11309.346 1907737
5725.3672 978.56378 12020.322 196608
5869.8057 990.88293 12171.646 262144
6122.626 1020.9752 12541.289 1249552
6393.2285 1053.2731 12938.024 4933443
6603.5713 1074.9933 13204.827 1709846
6494.5464 1044.8242 12834.241 459522
6012.5596 956.05139 11743.788 327680
6037.1899 948.94855 11656.54 393216
6087.9878 946.07343 11621.224 393216
6111.1509 939.0166 11534.54 393216
6284.0767 954.87305 11729.314 393216
6000.1499 901.72388 11076.449 393216
5547.5088 824.64905 10129.689 262144
5407.644 795.2251 9768.2568 196608
0 0 0 0
0 0 0 0
0 0 0 0
0 0 0 0
0 0 0 0
0 0 0 0
0 0 0 0
0 0 0 0
0 0 0 0
0 0 0 0
1363.5519 179.33345 2202.8672 196608
1388.525 180.88065 2221.8723 196608
1386.3809 178.89941 2197.5356 196608
1367.2343 174.78168 2146.9548 196608
1366.2786 173.04405 2125.6104 196608
1368.1873 171.69774 2109.0728 196608
1369.3317 170.28082 2091.668 196608
1367.6664 168.54315 2070.323 328449
1364.0809 166.60197 2046.4783 1512461
1347.7999 163.15826 2004.177 1644047
1351.5901 162.18333 1992.2013 1644047
1350.2665 160.61703 1972.9614 1907219
1343.4181 158.42618 1946.0498 722946
1350.865 157.94417 1940.1289 788739
1350.8915 156.61006 1923.7413 591362
1352.5719 155.48849 1909.9644 459776
1352.2756 154.16026 1893.6487 459776
1348.0249 152.40685 1872.1105 393984
1341.5826 150.43642 1847.9065 328448
1335.9224 148.58499 1825.1642 262656
1314.1816 144.98927 1780.9957 920069
1319.8357 144.44926 1774.3623 1051912
1314.3276 142.70586 1752.947 1051912
1308.3793 140.94246 1731.2861 920326
1300.613 139.01228 1707.5764 920326
1304.2548 138.32187 1699.0957 854020
1303.6013 137.19005 1685.1929 788996
1305.4338 136.33511 1674.6912 1051912
1305.3789 135.2975 1661.9454 1183498
1302.2042 133.95456 1645.4492 1249034
1304.166 133.15607 1635.6409 1117705
1304.8099 132.23586 1624.3373 1117703
1294.5023 130.22742 1599.6664 1117703
0 0 0 0
0 0 0 0
1243.1519 122.36465 1503.083 2828321
1249.2274 122.08511 1499.6492 2894114
1253.5984 121.64413 1494.2323 3223077
1252.9199 120.72282 1482.9153 3420453
1255.6892 120.14426 1475.8085 3749162
1257.009 119.43601 1467.1086 3946540
1258.9133 118.79267 1459.2061 4078126
1260.6404 118.14153 1451.2076 4406577
1264.2233 117.67197 1445.4399 4669492
1267.2863 117.1607 1439.1595 4867128
1270.5922 116.6786 1433.2375 5130299
1276.8466 116.47186 1430.698 5130814
1283.8751 116.33801 1429.054 5197121
1291.5699 116.2659 1428.1682 5395271
1295.1683 115.82839 1422.7939 1117451
1407.9465 125.09726 1536.6494 393216
1417.1034 125.09915 1536.6726 393216
1384.3461 121.42461 1491.5359 393216
1435.7711 125.1337 1537.097 196608
1409.5284 122.0696 1499.4587 262144
1472.6945 126.73843 1556.809 262144
1493.3348 127.7121 1568.7692 262144
1587.0204 134.88184 1656.8395 328448
1643.499 138.82037 1705.2191 1117444
1649.4825 138.47163 1700.9354 1314821
0 0 0 0
0 0 0 0
0 0 0 0
0 0 0 0
0 0 0 0
0 0 0 0
0 0 0 0
0 0 0 0
0 0 0 0
0 0 0 0
0 0 0 0
0 0 0 0
0 0 0 0
0 0 0 0
0 0 0 0
-1155.4941 120.51363 1379.5973 65536
-1147.1245 120.49601 1379.3956 197121
-1133.6761 119.94081 1373.0399 2104600
-1121.463 119.50919 1368.0988 1973011
-1112.8838 119.46133 1367.551 2038543
-1104.999 119.48789 1367.855 2235922
-1097.5812 119.56567 1368.7455 2499094
-1089.3701 119.55758 1368.6528 2827545
-1080.1337 119.43598 1367.2609 2959645
-1074.0242 119.66095 1369.8361 3091231
-1069.0314 120.01469 1373.8856 3486501
-1064.6716 120.4455 1378.8174 3815723
-1063.3687 121.2315 1387.8152 3881775
-1060.0818 121.80182 1394.3441 3750702
-1057.0077 122.40578 1401.2581 3487529
-1055.4843 123.20035 1410.3539 3092776
-1051.1917 123.68182 1415.8656 2237724
-1042.9346 123.70084 1416.0834 197633
-1040.0951 124.36797 1423.7206 131842
-1039.5868 125.32709 1434.7001 790027
-1041.0807 126.54545 1448.6475 1118993
-1036.5699 127.04816 1454.4023 0
-1018.4473 125.87694 1440.9946 65536
-1010.2095 125.91796 1441.4642 65536
-1000.4435 125.76757 1439.7426 262913
-984.16125 124.78834 1428.5327 2367511
-970.14032 124.08128 1420.4385 2695447
-962.03485 124.12504 1420.9395 2827544
-954.53882 124.2489 1422.3574 2893336
-946.71478 124.33191 1423.3076 3090715
-939.50085 124.49726 1425.2006 3222298
-932.51453 124.69604 1427.4762 3551264
-924.52515 124.76314 1428.2441 3880486
-917.57385 124.97285 1430.6449 3815206
-910.61505 125.18545 1433.0787 3946792
-903.26794 125.34818 1434.9417 3880999
-895.93353 125.51581 1436.8605 3749413
-888.83905 125.7206 1439.2048 3618086
-885.68774 126.4925 1448.0414 3223330
-868.32739 125.23035 1433.5927 2236180
-865.89752 126.11778 1443.7517 65536
-882.88934 129.88008 1486.8212 196608
-875.28717 130.06392 1488.9255 196608
-874.85168 131.32732 1503.3885 196608
-865.98676 131.33836 1503.5151 262144
-857.14746 131.35358 1503.6892 131072
-838.93359 129.91737 1487.248 2433815
-831.76874 130.17982 1490.2526 2696987
-812.18262 128.48297 1470.8275 3091745
-801.85693 128.23006 1467.9323 3354916
-793.72876 128.32687 1469.0406 3091744
-785.05579 128.33679 1469.1542 3224100
-777.20374 128.48264 1470.8236 3421478
-768.97919 128.5695 1471.8181 3618856
-764.69495 129.32478 1480.4642 4145200
-756.59827 129.44536 1481.8446 4539958
-752.02332 130.17842 1490.2363 4276785
-746.87122 130.82785 1497.6708 4474165
-743.58643 131.82399 1509.0743 4276786
-738.35925 132.49593 1516.7664 4342580
-736.00684 133.7067 1530.627 3487272
-808.21838 148.66302 1701.8417 3290150
-824.21448 153.52725 1757.5255 3948337
-828.07172 156.22624 1788.4227 4014131
-843.92377 161.28786 1846.3662 460802
-850.23285 164.63501 1884.6832 855557
-849.54608 166.69882 1908.3091 1118474
-841.98022 167.45042 1916.9131 1447438
-842.72717 169.89856 1944.9385 1907990
-871.25494 178.09352 2038.7515 3158055
-849.00293 175.99332 2014.7092 3289640
-897.10547 188.62579 2159.3213 65792
-912.60815 194.67108 2228.5256 0
-911.06 197.20377 2257.5188 65792
-919.04028 201.9055 2311.3425 328960
-915.37103 204.15179 2337.0574 131840
-914.77747 207.16385 2371.5383 723973
-918.77368 211.3259 2419.1841 987145
0 0 0 0
-2952.6587 701.08643 8025.7891 0
-2925.0833 705.94672 8081.4282 262144
-2839.8728 696.82733 7977.0322 789506
-2829.9089 706.17517 8084.043 65792
-2807.9236 712.79437 8159.8174 0
-2801.623 723.69788 8284.6367 65792
-2766.4661 727.40424 8327.0654 65792
-2736.1558 732.54321 8385.8955 65792
-2693.2686 734.4433 8407.6465 65792
-2643.0193 734.36969 8406.8037 394753
-2618.7524 741.65161 8490.165 65792
-2562.4055 739.95587 8470.7529 65792
-2514.2034 740.59137 8478.0273 65792
-2467.0144 741.55737 8489.0859 65792
-2437.4534 747.97321 8562.5322 65792
-2418.593 758.01642 8677.5029 2565665
-2369.8325 758.922 8687.8701 3421230
-2311.6033 756.76825 8663.2148 65536
-2268.4978 759.58026 8695.4053 0
-2241.533 768.05402 8792.4102 131584
-2169.25 761.03345 8712.041 328964
-2141.1914 769.56421 8809.6982 329220
-2084 767.78961 8789.3828 0
-2034.9934 769.01666 8803.4297 0
-1983.8372 769.47473 8808.6738 196608
-1923.1436 766.15796 8770.7051 131072
-1878.707 769.31366 8806.8301 65536
-1831.4336 771.45508 8831.3447 0
-1870.2513 811.05762 9284.7002 65792
-1726.593 771.5293 8832.1943 920842
-1692.2545 779.9032 8928.0547 855563
-1648.8195 784.49121 8980.5771 256
-1626.3185 799.67981 9154.4512 256
-1552.5825 789.85516 9041.9824 1118995
-1414.5845 745.46082 8533.7715 5133136
-1311.8311 717.02777 8208.2803 790028
0 0 0 0
-904.97815 534.40692 6117.7012 256
-839.6452 516.58783 5913.7139 256
-799.64832 513.48035 5878.1411 65792
-759.89331 510.25125 5841.1758 256
-721.70654 507.81641 5813.3022 65792
-681.43994 503.59958 5765.0298 65792
-668.58875 520.26971 5955.8633 263424
-617.22809 507.16199 5805.8105 329220
0 0 0 0
-903.76898 836.11945 9571.5986 3356723
-830.48511 819.94751 9386.4678 6318178
-791.78204 838.04706 9593.666 10001558
-724.90845 826.8255 9465.2051 2369822
-694.82471 859.20898 9835.9199 2500379
-645.86389 872.05579 9982.9854 2500123
-587.03595 872.83173 9991.8682 1118476
-514.12201 850.48083 9736.0029 5528661
-458.60251 854.88373 9786.4062 9938333
-400.70944 855.49872 9793.4463 9214100
-341.69635 853.52509 9770.8535 8161412
-283.53928 853.31934 9768.4971 5330770
-228.45598 864.64069 9898.0996 197636
-186.79816 952.25818 10901.114 131072
-117.13294 914.34393 10467.085 262144
-52.307899 871.09192 9971.9521 327680
6.9791179 871.44171 9975.9561 262144
66.809258 878.30579 10054.533 196608
128.74153 893.27271 10225.87 65536
182.7957 861.50928 9862.2529 395273
241.81775 862.901 9878.1846 3686720
297.77155 854.93951 9787.0439 8491151
369.08633 886.47485 10148.051 8755093
429.46664 886.57642 10149.213 8951702
504.92981 913.9538 10462.619 9215385
566.92352 913.61926 10458.79 8555913
614.46198 892.35809 10215.399 1448213
655.21179 865.94971 9913.085 2171163
717.65405 870.20337 9961.7793 920584
768.01111 860.27148 9848.083 591363
837.86823 872.04211 9982.8291 262144
902.79657 877.46497 10044.908 262657
954.3139 869.98901 9959.3262 262144
1011.6833 868.40985 9941.248 262144
1072.2595 869.60565 9954.9375 196608
1125.7601 865.23828 9904.9414 262658
1180.4215 862.15283 9869.6201 196608
1240.0071 862.78583 9876.8662 262144
1302.3257 865.17725 9904.2422 262144
1356.4827 862.17419 9869.8643 196608
1408.1665 857.91345 9821.0889 196608
1461.8125 855.13983 9789.3379 196608
1516.428 853.12402 9766.2617 196608
1572.717 852.16376 9755.2686 196608
1627.0206 850.23431 9733.1807 196608
1684.9071 850.24518 9733.3057 262144
1739.9084 848.8479 9717.3096 262144
1793.0203 846.64813 9692.1279 262144
1850.709 846.67932 9692.4854 262144
1903.1729 844.39038 9666.2822 196608
1957.9399 843.22766 9652.9717 196608
2012.1597 841.9021 9637.7969 131072
2065.3372 840.22601 9618.6094 65536
2125.4954 841.4035 9632.0889 131072
2175.0403 838.42822 9598.0283 196608
2235.7622 839.80316 9613.7695 65536
2327.6157 852.51184 9759.2539 0
2411.0625 861.59827 9863.2715 2500647
2473.2317 862.8302 9877.374 3620155
2523.4043 859.91675 9844.0225 11713720
2651.3455 883.0365 10108.688 11318962
2974.1475 968.59161 11088.094 4409927
2790.6675 889.13068 10178.453 2106402
2871.7063 895.53198 10251.732 4081220
2918.7837 891.29645 10203.246 3225911
3055.2722 913.98077 10462.928 9016464
3112.8542 912.62585 10447.418 3818303
3181.4268 914.48328 10468.681 1843230
3356.5159 946.29956 10832.901 658956
3449.9504 954.33038 10924.836 4871248
3605.7507 978.99731 11207.214 9279121
3602.0618 960.25195 10992.624 2369827
3622.5942 948.5166 10858.282 131842
3656.283 940.57672 10767.389 256
3698.5132 935.06946 10704.344 65792
3694.4141 918.23358 10511.612 131072
3807.1204 930.50641 10652.107 65536
3862.6016 928.61993 10630.512 196608
3923.3154 928.03192 10623.781 262144
3906.2876 909.36481 10410.086 327680
3965.8945 908.84192 10404.1 393216
3996.9224 901.88623 10324.474 458752
4048.936 899.80469 10300.646 458752
4105.7202 898.82965 10289.483 458752
4157.4692 896.79706 10266.215 458752
4203.2349 893.55121 10229.058 458752
4266.4399 894.05255 10234.797 458752
4322.644 893.09326 10223.815 458752
4358.7314 888.06201 10166.22 458752
4372.5635 878.69611 10059.001 524288
4340.9043 860.56427 9851.4355 458752
4305.6152 842.20538 9641.2686 327680
4102.8369 791.99725 9066.5039 131072
5237.6484 997.94666 11424.14 6776161
5081.9658 955.88879 10942.676 789257
4664.3306 866.245 9916.4658 7566703
5090.5776 933.60614 10687.592 7236969
5362.124 971.28418 11118.917 131072
5743.5913 1027.7129 11764.894 327680
5845.917 1033.4374 11830.425 196608
6431.5693 1123.4521 12860.883 131072
6629.2466 1144.3776 13100.43 197378
6389.5117 1090.1852 12480.054 131072
5542.7905 934.86121 10701.959 196608
5659.0615 943.63995 10802.456 196608
5831.9272 961.55292 11007.517 131072
5709.8701 930.98181 10657.55 131072
5678.4072 915.69086 10482.504 196608
5692.52 908.0014 10394.479 196608
5719.0771 902.44092 10330.823 196608
0 0 0 0
0 0 0 0
0 0 0 0
0 0 0 0
0 0 0 0
0 0 0 0
0 0 0 0
0 0 0 0
0 0 0 0
1365.8883 194.62877 2228.041 65536
1370.6526 193.43179 2214.3386 196608
1384.5237 193.53056 2215.4692 196608
1383.9695 191.63008 2193.7134 196608
1371.8634 188.18051 2154.2239 196608
1370.7987 186.2953 2132.6426 196608
1371.6031 184.69635 2114.3384 196608
1367.3898 182.45688 2088.7017 196608
1368.9147 181.01649 2072.2126 1183496
1362.3557 178.54239 2043.89 1578510
1352.0388 175.62389 2010.4801 1512974
1350.7198 173.9151 1990.9185 1775633
1352.9537 172.68947 1976.8878 1907219
1348.1602 170.5957 1952.9191 722945
1354.0079 169.87274 1944.6429 854533
1356.3643 168.72768 1931.5348 854533
1357.0057 167.39034 1916.2253 525569
1354.3152 165.66766 1896.5048 459776
1352.8859 164.12645 1878.8615 393984
1347.2455 162.10378 1855.7067 328192
1347.3507 160.79968 1840.7778 262400
1342.9482 158.98296 1819.9805 196608
1336.0269 156.89946 1796.1294 262656
1323.9237 154.2453 1765.7455 788740
1321.7926 152.78555 1749.0349 788740
1314.7917 150.79012 1726.1918 920326
1311.3066 149.22566 1708.2823 854277
1312.3893 148.20107 1696.5532 788997
1312.1991 147.04945 1683.37 986119
1311.158 145.82065 1669.3031 986119
1313.876 145.02522 1660.1974 986119
1319.254 144.53311 1654.5638 1117705
1310.0376 142.46117 1630.845 1117702
1306.7927 141.0643 1614.8541 1051910
0 0 0 0
1244.0441 132.34619 1515.0522 2828321
1255.1438 132.5672 1517.5824 2762528
1247.4293 130.81212 1497.4907 2959907
1250.9622 130.25299 1491.09 3288613
