# .PCD v0.7 - Point Cloud Data file format
VERSION 0.7
FIELDS x y z rgb
SIZE 4 4 4 4
TYPE F F F U
COUNT 1 1 1 1
WIDTH 1426
HEIGHT 1
VIEWPOINT 0 0 0 1 0 0 0
POINTS 1426
DATA ascii
-1049.3765 -207.82079 1280.1588 327680
-1041.0437 -207.6767 1279.2714 327680
-1033.4065 -207.67029 1279.2319 327680
-1025.2855 -207.5659 1278.5889 262144
-1017.6933 -207.56773 1278.6002 262144
-1010.2183 -207.5937 1278.7601 262144
-1001.5482 -207.37265 1277.3983 262144
-993.35553 -207.2478 1276.6294 262144
-985.25616 -207.14064 1275.9694 262144
-977.25244 -207.05208 1275.4237 196608
-969.8808 -207.09712 1275.7012 196608
-962.55176 -207.15202 1276.0394 196608
-955.49774 -207.26747 1276.7505 262400
-948.83307 -207.46988 1277.9973 328192
-941.47919 -207.52367 1278.3286 459776
-934.71515 -207.70935 1279.4725 459776
-927.56946 -207.81262 1280.1086 459776
-920.85443 -208.01488 1281.3545 393984
-913.56866 -208.09048 1281.8203 591360
-906.52521 -208.22305 1282.6368 525568
-899.49084 -208.35997 1283.4802 591360
-893.90729 -208.83815 1286.4258 591360
-887.36005 -209.09752 1288.0234 459776
-881.4787 -209.51968 1290.6239 196608
-875.1972 -209.8533 1292.6791 196608
-868.06219 -209.98634 1293.4987 262400
-861.70416 -210.31145 1295.5012 262144
-856.2226 -210.85823 1298.8694 262144
-849.02094 -210.98752 1299.6658 262144
-841.25732 -210.97826 1299.6086 393728
-834.57336 -211.24207 1301.2338 262144
-829.0733 -211.81331 1304.7526 262144
-822.30554 -212.06841 1306.3239 525312
-815.78925 -212.39383 1308.3285 525568
-808.56952 -212.5406 1309.2327 591360
-801.91693 -212.84079 1311.0817 525568
-795.42462 -213.1898 1313.2316 525568
-788.99249 -213.56203 1315.5244 393984
-782.2536 -213.85783 1317.3467 394240
-775.46222 -214.14513 1319.1163 394496
-767.84943 -214.20914 1319.5106 196608
-760.06354 -214.22569 1319.6125 262144
-752.32184 -214.25516 1319.7942 262144
-746.26984 -214.77155 1322.9751 262144
-739.74658 -215.16191 1325.3795 196608
-732.87671 -215.45872 1327.2079 196608
-724.51233 -215.31784 1326.3402 327936
-719.20288 -216.09175 1331.1074 262400
-714.26654 -216.99625 1336.679 196608
-709.32715 -217.92018 1342.3702 196608
-702.53253 -218.28864 1344.64 262144
-694.57465 -218.29999 1344.71 262144
-687.21887 -218.50305 1345.9607 262144
-679.95667 -218.741 1347.4265 262144
-676.0705 -220.08363 1355.697 196608
-672.17889 -221.45686 1364.156 722944
-662.61951 -220.97354 1361.1788 788994
-659.39447 -222.61678 1371.301 789251
-656.99915 -224.58476 1383.4237 723714
-658.16418 -227.83516 1403.4458 1184263
-705.83514 -247.47456 1524.423 1052676
-662.94006 -235.45828 1450.4036 1052675
-721.67944 -259.69879 1599.7231 2171155
0 0 0 0
0 0 0 0
0 0 0 0
-8258.584 -3137.2542 19325.227 1249026
0 0 0 0
-8175.2153 -3194.4644 19677.639 262400
-7993.48 -3168.7961 19519.523 262400
-7378.04 -2967.9084 18282.072 196864
-7595.2578 -3100.9688 19101.711 1512712
-7486.104 -3102.7954 19112.965 460032
-7279.9233 -3063.8438 18873.025 591360
-7115.2197 -3041.4021 18734.785 2038795
-6709.2017 -2913.4558 17946.648 920320
-6220.9771 -2745.1001 16909.59 1117697
0 0 0 0
0 0 0 0
0 0 0 0
-3261.5955 -1538.6873 9478.1865 1446408
-3523.9053 -1691.66 10420.486 196608
-3551.8484 -1735.5862 10691.067 196608
-3402.0813 -1692.694 10426.854 656896
-3239.3496 -1641.6393 10112.362 1182720
-3099.8115 -1600.63 9859.749 1840135
-3005.6182 -1581.9058 9744.4092 1379840
-2951.5493 -1583.9785 9757.1777 1379840
-2880.0161 -1576.5743 9711.5674 1643010
-2804.7134 -1566.7614 9651.1211 1511425
-2719.1575 -1550.6913 9552.1309 1577220
0 0 0 0
0 0 0 0
0 0 0 0
-1346.8881 -838.1236 5162.7725 327680
-1307.0825 -832.32111 5127.0293 1709065
-1291.0739 -841.75653 5185.1509 4998707
-1214.2742 -811.04956 4995.9985 4801327
-1236.5054 -846.60687 5215.0283 2104074
-1253.6823 -880.44348 5423.4595 2564368
-1209.0345 -871.50177 5368.3794 393216
-1176.5099 -871.0509 5365.6016 722434
-1163.2891 -885.26495 5453.1592 3485214
-1149.4934 -899.84418 5542.9658 3419419
-1123.2281 -905.23425 5576.1685 3813918
-1103.166 -916.10358 5643.1226 3353367
0 0 0 0
-1256.6724 -1111.1643 6844.6807 2892820
-1200.5603 -1097.0737 6757.8833 2432785
-979.08759 -925.66876 5702.0435 196864
-934.74554 -915.44153 5639.0444 196608
-900.6897 -914.90204 5635.7212 262144
-871.01306 -918.94098 5660.6006 393216
-855.80133 -939.17871 5785.2632 2301198
0 0 0 0
0 0 0 0
0 0 0 0
0 0 0 0
0 0 0 0
-1046.0344 -1512.7136 9318.1914 2432266
-972.4469 -1484.9374 9147.0918 2564109
-882.15649 -1426.8544 8789.3047 3024660
0 0 0 0
0 0 0 0
0 0 0 0
-428.16333 -907.57275 5590.5732 196864
-391.69885 -900.15454 5544.8779 196608
-351.29523 -881.48883 5429.8984 196608
-315.55179 -871.9223 5370.9692 196608
-282.28024 -867.80084 5345.582 196608
-245.01511 -848.79895 5228.5312 196608
-209.42851 -830.93469 5118.4893 196608
-166.92322 -774.87921 4773.1919 2236435
0 0 0 0
0 0 0 0
-179.84245 -1703.7881 10495.194 591616
-120.54803 -1748.767 10772.26 723200
-57.939835 -1793.1443 11045.621 1907464
7.7796535 -1805.2584 11120.243 592128
73.589081 -1797.8926 11074.87 1512967
140.16182 -1807.3259 11132.979 986627
222.47603 -1948.5811 12003.099 131328
271.93649 -1803.3563 11108.526 197376
336.04916 -1793.0659 11045.139 196864
445.31195 -1987.6692 12243.878 65792
533.64282 -2047.2866 12611.117 65792
615.4621 -2070.3123 12752.952 65792
703.61658 -2107.26 12980.548 65536
793.47845 -2141.5122 13191.539 65536
866.5802 -2128.4377 13111.001 65536
946.82373 -2133.6147 13142.892 65792
1036.329 -2157.282 13288.68 65792
1123.6628 -2173.3967 13387.945 65792
1208.9822 -2183.741 13451.663 65792
1293.1459 -2190.8433 13495.414 66048
1365.0156 -2177.5044 13413.248 1184001
1444.4525 -2177.043 13410.405 460288
1510.3173 -2157.2441 13288.446 526080
1593.0682 -2162.334 13319.8 592128
1670.2844 -2159.7852 13304.098 920320
1799.7698 -2221.998 13687.324 2038796
1877.9515 -2218.2292 13664.109 1841418
2002.6486 -2267.4382 13967.233 854784
2061.834 -2241.5085 13807.509 2235152
2102.583 -2198.2896 13541.281 1840905
2134.9749 -2149.842 13242.849 1709062
2280.6694 -2214.8745 13643.444 1840648
2290.5847 -2148.1067 13232.16 1709061
2339.9275 -2121.52 13068.389 1709062
2405.6541 -2111.0193 13003.705 1577476
2490.4592 -2117.3933 13042.969 986368
2567.8643 -2117.2805 13042.274 1117185
2652.6594 -2123.0891 13078.055 919552
2692.207 -2093.384 12895.073 1774856
2799.3647 -2116.4397 13037.094 1314308
2958.5168 -2176.5042 13407.086 985344
3036.0767 -2174.9663 13397.613 787968
3158.9187 -2205.1169 13583.338 1051137
3320.3523 -2260.032 13921.611 985088
3470.0081 -2304.4546 14195.25 985088
3577.7185 -2319.5725 14288.376 1182466
3742.9658 -2370.4277 14601.64 1182466
3905.2676 -2417.1545 14889.472 787712
4012.147 -2428.2664 14957.921 393216
4253.0732 -2518.2664 15512.313 327680
4280.3687 -2480.6387 15280.53 458752
4318.2178 -2450.5642 15095.273 458752
4401.3672 -2446.8989 15072.695 459008
4653.5811 -2535.4939 15618.433 459008
4686.6582 -2503.5623 15421.737 525056
4698.5312 -2461.7461 15164.153 656384
4622.8447 -2376.4927 14638.998 327680
4632.6753 -2337.5393 14399.05 459008
4669.7217 -2313.4832 14250.865 459264
4605.5361 -2241.0251 13804.529 524800
4548.2676 -2174.4114 13394.194 656384
4524.7109 -2125.9292 13095.549 524800
4549.4043 -2101.3743 12944.292 919296
4554.9839 -2068.9541 12744.587 1972233
4388.2314 -1960.5995 12077.131 4537130
4532.3784 -1992.4028 12273.037 393984
4547.6777 -1967.4553 12119.362 1313536
4655.333 -1982.6187 12212.768 5525056
4935.0933 -2069.4868 12747.868 590848
5091.0737 -2102.6064 12951.883 721920
5209.6641 -2119.5273 13056.113 721920
5254.9214 -2106.554 12976.199 393216
5318.6665 -2101.2603 12943.59 787968
5424.3726 -2112.4585 13012.571 919552
5465.6982 -2098.6223 12927.341 590848
5481.7065 -2075.5837 12785.425 1445636
5413.9927 -2021.9084 12454.789 1313794
5424.2085 -1998.3925 12309.933 1050624
5394.9443 -1961.1511 12080.528 984576
5251.5811 -1883.9561 11605.014 1116672
5458.1255 -1932.6614 11905.035 590336
5593.1851 -1955.1321 12043.452 984832
5631.7339 -1943.7251 11973.186 458752
5760.8301 -1963.4641 12094.776 458752
5676.1255 -1910.745 11770.031 721664
5535.4268 -1840.6901 11338.499 1379330
5697.5366 -1871.802 11530.146 852736
5751.0669 -1866.927 11500.117 1708035
5762.8052 -1848.7594 11388.205 1050112
5709.4595 -1810.3763 11151.77 1247488
5650.5381 -1771.1272 10909.997 1641472
5617.2944 -1740.7258 10722.728 1246976
5502.8228 -1686.1177 10386.346 2102278
5236.3311 -1586.658 9773.6826 524288
5293.9497 -1586.5121 9772.7842 2365707
5357.8945 -1588.2448 9783.4561 1839109
5364.6108 -1573.1577 9690.5225 1707520
5483.623 -1590.9722 9800.2578 1575681
5593.0444 -1605.6588 9890.7256 1641472
5541.7261 -1574.3744 9698.0166 1641217
5580.7534 -1569.1368 9665.7529 1509632
5496.4927 -1529.6942 9422.79 1838593
5425.7227 -1494.7642 9207.624 1312256
5666.5293 -1545.5128 9520.2314 2562060
5456.2778 -1473.4508 9076.335 2233094
5555.0615 -1485.4368 9150.168 2364937
5525.2163 -1463.1282 9012.749 1312512
5757.8359 -1510.0837 9301.9912 1444352
5954.4067 -1546.7814 9528.0459 1444354
6097.9004 -1569.1295 9665.709 1641729
6116.5366 -1559.2317 9604.7383 1181184
6163.478 -1556.6658 9588.9326 1773313
6280.0498 -1571.5717 9680.752 1312512
6321.2021 -1567.5048 9655.7002 1378560
6368.7671 -1565.0867 9640.8057 1970690
6389.3408 -1556.1382 9585.6826 2299398
6371.5225 -1538.0801 9474.4463 1575680
6432.9702 -1539.3055 9481.9951 1181184
6427.8066 -1524.7092 9392.083 786688
6316.1841 -1485.329 9149.5039 1378304
6392.6118 -1490.4661 9181.1484 1904640
6448.3667 -1490.7371 9182.8174 2299141
6356.0532 -1457.0602 8975.3711 2430984
6337.3115 -1440.6696 8874.4053 1115648
6185.1514 -1394.4695 8589.8174 983808
0 0 0 0
0 0 0 0
0 0 0 0
0 0 0 0
0 0 0 0
0 0 0 0
0 0 0 0
0 0 0 0
0 0 0 0
0 0 0 0
0 0 0 0
0 0 0 0
0 0 0 0
1206.9823 -243.92424 1502.5531 1116160
1208.1062 -242.3577 1492.9034 1248258
1209.4064 -240.84911 1483.6106 1182468
1197.9269 -236.83575 1458.8887 1313797
1195.9891 -234.75299 1446.0591 984832
1188.7733 -231.67134 1427.0764 985091
1186.9943 -229.68541 1414.8431 722434
1185.1515 -227.71518 1402.7068 590592
1170.7893 -223.38379 1376.0258 655872
1165.7485 -220.87869 1360.5946 393216
1160.4963 -218.36833 1345.131 393216
1159.9833 -216.77797 1335.3345 393216
1161.4001 -215.56749 1327.8779 262144
1163.8177 -214.5578 1321.6583 262144
1163.0931 -212.98625 1311.9778 262144
1158.0674 -210.65327 1297.6068 327680
1156.6224 -208.99821 1287.4117 919811
1160.8239 -208.37846 1283.5941 1051396
1165.4135 -207.83606 1280.2529 1051395
1168.8619 -207.0985 1275.7097 985603
1173.9918 -206.66646 1273.0483 1445639
1181.8057 -206.7094 1273.3129 1248260
1188.3337 -206.52832 1272.1974 1248260
1194.7201 -206.32503 1270.9452 1314052
1200.7772 -206.06784 1269.3608 1314052
1208.587 -206.11275 1269.6376 1050883
1215.0013 -205.92061 1268.4539 853505
1221.1851 -205.69197 1267.0455 919296
1226.9156 -205.3903 1265.1873 787712
0 0 0 0
0 0 0 0
0 0 0 0
0 0 0 0
0 0 0 0
0 0 0 0
0 0 0 0
0 0 0 0
0 0 0 0
0 0 0 0
0 0 0 0
0 0 0 0
0 0 0 0
0 0 0 0
0 0 0 0
0 0 0 0
-1064.5288 -200.19713 1280.0758 327936
-1057.0826 -200.2282 1280.2744 262144
-1049.1113 -200.15953 1279.8353 262144
-1040.943 -200.05197 1279.1477 262144
-1033.1626 -200.01796 1278.9302 262144
-1025.9395 -200.09209 1279.4042 262144
-1018.4747 -200.11989 1279.5819 262144
-1011.0812 -200.1622 1279.8525 262144
-1002.1244 -199.89333 1278.1333 262144
-994.487 -199.88554 1278.0835 196608
-987.45978 -200.00121 1278.8231 196608
-980.01123 -200.03268 1279.0243 131072
-972.25378 -200.0011 1278.8224 196608
-964.75592 -200.02283 1278.9614 196608
-957.97534 -200.19482 1280.061 196864
-950.65405 -200.25566 1280.4501 196864
-943.62231 -200.37894 1281.2384 262400
-936.41803 -200.46735 1281.8036 328192
-929.04059 -200.51976 1282.1388 262400
-922.88934 -200.83994 1284.186 196608
-916.9198 -201.20532 1286.5223 131072
-909.68378 -201.2966 1287.1058 131072
-903.59314 -201.645 1289.3337 131072
-896.625 -201.80191 1290.3369 196608
-890.50043 -202.15302 1292.5819 196608
-883.57104 -202.32593 1293.6875 196608
-876.86554 -202.55359 1295.1432 262144
-870.85101 -202.9463 1297.6543 262144
-864.50507 -203.26814 1299.7122 262144
-859.30743 -203.86823 1303.5491 262144
-851.78107 -203.92168 1303.8909 262144
-844.57581 -204.0537 1304.7351 262144
-837.94513 -204.32831 1306.491 262144
-831.91852 -204.75671 1309.2302 262144
-826.25061 -205.28232 1312.5909 262400
-818.47479 -205.28926 1312.6354 262400
-811.76367 -205.56598 1314.4047 393984
-804.91412 -205.81264 1315.9818 393984
-798.974 -206.29898 1319.0916 393984
-791.54004 -206.40541 1319.7721 262400
-784.96283 -206.73961 1321.9089 327936
-778.41504 -207.08842 1324.1393 393728
-771.82452 -207.43286 1326.3417 196608
-764.43207 -207.56667 1327.1973 196608
-758.07971 -207.98862 1329.8953 262400
-750.90369 -208.1911 1331.1899 262400
-745.11243 -208.78593 1334.9933 196864
-736.52899 -208.60275 1333.822 196864
-730.07129 -209.02417 1336.5167 460032
-722.52197 -209.13895 1337.2505 525568
-716.19141 -209.61293 1340.2811 393984
-711.19043 -210.4911 1345.8964 525824
-703.45367 -210.57036 1346.4031 393984
-695.26056 -210.51323 1346.0378 393984
-688.58881 -210.92082 1348.6439 196864
-682.18481 -211.42096 1351.8418 196608
-678.72253 -212.85561 1361.0151 788736
-672.96649 -213.59682 1365.7545 591360
-669.48975 -215.08841 1375.2919 526080
-665.17609 -216.3447 1383.3247 592129
-656.11011 -216.06741 1381.5518 723714
-659.70605 -220.00574 1406.7336 657921
-731.62238 -247.12193 1580.1167 723714
-725.83307 -248.35535 1588.0032 921091
-721.42938 -250.10158 1599.1688 2829343
0 0 0 0
0 0 0 0
-7959.9097 -2873.0896 18370.756 591872
-8210.5225 -3004.7747 19212.76 789248
-8202.2363 -3044.0906 19464.15 262656
-8094.624 -3047.1414 19483.656 196608
-7948.6333 -3035.6233 19410.01 327680
-7730.0415 -2995.6313 19154.297 327680
-7566.605 -2976.1372 19029.65 1775368
-7368.7661 -2942.3147 18813.387 985856
-6946.1353 -2816.3076 18007.688 1972232
-6627.209 -2729.0608 17449.824 1577477
-6204.1406 -2595.4719 16595.646 919552
-5787.5635 -2460.3245 15731.505 919552
0 0 0 0
0 0 0 0
-3710.9189 -1657.9055 10600.775 2367504
-3332.3896 -1514.5132 9683.9141 854274
-3459.1055 -1599.7412 10228.868 196864
-3470.3474 -1633.6603 10445.749 722688
-3367.9624 -1614.3511 10322.285 459264
-3170.7334 -1548.0203 9898.1611 1248512
-3063.0847 -1523.7429 9742.9297 1708549
-2980.9468 -1511.465 9664.4229 1313792
-2933.1733 -1516.4708 9696.4307 1576963
-2891.668 -1524.9829 9750.8584 985088
-2800.7595 -1507.2567 9637.5156 1379588
-2744.5649 -1507.8618 9641.3848 1708289
-2597.7842 -1457.6631 9320.4102 2300425
0 0 0 0
0 0 0 0
0 0 0 0
-1311.1115 -804.31207 5142.833 327936
-1286.8204 -808.25879 5168.0688 1447176
0 0 0 0
-1098.7571 -724.74371 4634.0674 1973519
-1141.8605 -772.54559 4939.7158 3486239
-1211.1666 -841.06689 5377.8467 262656
-1175.2577 -838.25867 5359.8906 196608
-1121.6608 -822.32635 5258.0181 3091485
-1144.6246 -863.21887 5519.4878 3880228
-1133.5745 -880.11633 5627.5317 3353368
-1165.2158 -932.19574 5960.5312 2564106
0 0 0 0
0 0 0 0
-1200.5603 -1056.8973 6757.8833 2104333
-1051.5487 -957.76831 6124.0444 657410
-936.44312 -883.51862 5649.2856 196608
-899.58856 -880.31958 5628.8311 262144
-868.17645 -882.40503 5642.1655 393216
-863.80585 -913.24744 5839.3745 854018
0 0 0 0
0 0 0 0
0 0 0 0
0 0 0 0
0 0 0 0
0 0 0 0
-1017.5341 -1496.8843 9571.1934 2234374
-869.28351 -1354.5421 8661.0459 2695183
0 0 0 0
0 0 0 0
-461.14371 -873.85095 5587.4702 196608
-428.12994 -874.26801 5590.1372 196608
-391.16824 -866.01514 5537.3672 196608
-349.44946 -844.74561 5401.3687 196608
-313.89819 -835.58942 5342.8232 196608
-280.53281 -830.84552 5312.4902 196608
-242.43906 -809.11737 5173.5586 196608
-203.78178 -778.92108 4980.4814 262912
-170.81784 -763.91931 4884.5591 526081
0 0 0 0
0 0 0 0
-168.43253 -1537.2567 9829.3379 591616
-114.67535 -1602.6508 10247.473 1117696
-55.443462 -1653.0477 10569.715 1052164
7.643538 -1708.7188 10925.68 1512966
72.935623 -1716.671 10976.527 657408
139.56046 -1733.6691 11085.213 131072
218.25003 -1841.5632 11775.097 196864
284.78073 -1819.3728 11633.21 196608
340.19226 -1748.6984 11181.312 196608
445.50128 -1915.6921 12249.083 65792
533.62988 -1972.2646 12610.812 65792
618.73682 -2005.1069 12820.808 65792
705.57373 -2035.7362 13016.654 65792
789.2995 -2052.2219 13122.065 65792
868.92841 -2056.0481 13146.529 65792
949.51434 -2061.3201 13180.24 65792
1039.0187 -2083.6738 13323.171 65792
1123.7798 -2094.0222 13389.339 65792
1214.4468 -2113.2786 13512.465 66048
1291.9691 -2108.6912 13483.133 65792
1360.7299 -2091.175 13371.134 657664
1420.7412 -2062.8884 13190.268 788992
1511.8395 -2080.3376 13301.839 788992
1601.5953 -2094.2969 13391.096 262656
1692.1823 -2107.9692 13478.518 920064
1869.7787 -2223.8936 14219.746 1315075
2023.2417 -2302.3259 14721.25 1972234
2061.0356 -2248.0881 14374.448 2103820
2132.7861 -2233.7322 14282.656 1906441
2099.8184 -2115.0005 13523.476 1379842
2202.447 -2136.5657 13661.365 1643525
2245.3552 -2100.7236 13432.188 1972234
2286.3948 -2065.6548 13207.955 1643269
2337.4724 -2041.6827 13054.677 1577476
2393.3459 -2023.3059 12937.174 1380097
2478.9761 -2030.4462 12982.829 1248512
2553.0129 -2027.946 12966.844 722176
2627.6506 -2026.0559 12954.758 919552
2667.1904 -1997.9817 12775.249 2629909
2797.8801 -2037.8516 13030.18 1379843
2931.8267 -2077.8813 13286.134 1116672
3011.0305 -2078.031 13287.09 1182721
3096.5154 -2082.3965 13315.004 1577478
3251.303 -2131.9888 13632.101 656640
3430.2603 -2194.6326 14032.648 524544
3578.6956 -2235.2373 14292.279 1050881
3770.9165 -2300.6729 14710.679 1577223
3891.1052 -2320.1902 14835.475 853504
4054.3308 -2363.936 15115.188 722176
4275.7114 -2438.9573 15594.881 393216
4338.3765 -2422.1809 15487.612 393216
4405.2197 -2408.3865 15399.408 458752
4621.3208 -2475.0933 15825.938 525056
4799.7129 -2519.3447 16108.884 919810
4828.0562 -2484.6455 15887.016 788224
4956.3267 -2501.7166 15996.168 787968
4790.8174 -2372.6509 15170.912 1182722
4705.7715 -2287.4675 14626.244 327680
4829.4097 -2304.9761 14738.194 1116929
4643.5142 -2176.7588 13918.364 525056
4567.5273 -2103.6521 13450.913 459264
4575.897 -2071.2441 13243.693 393472
4636.5161 -2063.1829 13192.149 853760
4587.019 -2007.2046 12834.221 2300939
4392.5107 -1890.6421 12088.91 3682079
4379.8438 -1854.8411 11859.996 459264
4651.8184 -1938.8088 12396.893 984832
4700.3384 -1928.4775 12330.834 5195581
4950.376 -1999.8735 12787.346 721920
5160.6709 -2053.2974 13128.941 985088
5317.8594 -2084.3142 13327.266 1379331
5377.7002 -2076.8254 13279.383 918784
5473.082 -2083.0808 13319.378 327680
5415.0557 -2031.6022 12990.221 919552
5425.2358 -2006.801 12831.641 393216
5529.7822 -2017.1099 12897.556 459008
5469.8462 -1967.9587 12583.279 393472
5497.6553 -1951.2772 12476.616 1248000
5424.4287 -1899.6566 12146.551 853248
5176.6348 -1789.0614 11439.396 1116417
5460.5347 -1862.7068 11910.29 524288
5625.0044 -1894.2479 12111.967 655872
5681.4634 -1889.0782 12078.912 458752
5707.7676 -1874.1365 11983.372 655872
5624.8628 -1824.1464 11663.732 919040
5622.5308 -1801.1857 11516.919 524288
5663.4844 -1792.4771 11461.235 458752
5611.9077 -1755.038 11221.848 984320
5685.5933 -1757.1921 11235.622 524544
5705.4678 -1742.8589 11143.974 1181696
5658.4712 -1708.6617 10925.314 1312768
5582.6523 -1666.6362 10656.6 918016
5355.9219 -1581.0066 10109.077 1246977
5293.6499 -1545.2847 9880.6689 2168070
5380.8843 -1553.5107 9933.2676 1444352
5368.6875 -1533.1633 9803.1641 1115648
5442.9097 -1537.6669 9831.96 1246976
5512.0762 -1540.6616 9851.1094 1246976
5577.9883 -1542.6934 9864.1006 1707776
5654.9751 -1547.714 9896.2021 1509632
5577.4824 -1510.7869 9660.0869 1312256
5585.6987 -1497.592 9575.7188 2101765
5711.8848 -1515.9734 9693.251 1838594
5685.8765 -1493.9976 9552.7354 1246464
5562.2627 -1447.0638 9252.6377 1444352
5649.75 -1455.4308 9306.1367 1510144
5684.2812 -1450.1257 9272.2158 1641728
5716.5405 -1444.3488 9235.2773 1312768
5985.9355 -1498.0267 9578.498 2299657
6038.9766 -1497.0588 9572.3096 1246976
6142.2388 -1508.4426 9645.0986 1115136
6212.7192 -1511.6396 9665.54 1641729
6336.2808 -1527.5751 9767.4326 2299398
6345.3594 -1515.8717 9692.6006 2759692
6417.2456 -1519.2483 9714.1904 2430727
6441.749 -1511.4471 9664.3096 1246464
6466.4209 -1503.8231 9615.5605 1509888
6516.229 -1502.1271 9604.7158 1115648
6434.27 -1470.3492 9401.5264 1575680
6321.8628 -1432.2208 9157.7305 1773312
6331.8105 -1422.2264 9093.8252 1707520
6357.7671 -1415.9666 9053.7988 2036484
6257.0259 -1381.8313 8835.5352 589824
0 0 0 0
0 0 0 0
0 0 0 0
0 0 0 0
0 0 0 0
0 0 0 0
0 0 0 0
0 0 0 0
0 0 0 0
0 0 0 0
0 0 0 0
0 0 0 0
0 0 0 0
0 0 0 0
0 0 0 0
1205.7247 -234.74657 1500.9875 721664
1205.6128 -233.00035 1489.8221 656640
1202.4535 -230.69496 1475.0813 591104
1198.644 -228.2991 1459.7621 788225
1193.4462 -225.67516 1442.9844 525056
1186.3027 -222.72342 1424.1106 525056
1185.182 -220.9362 1412.683 525312
1184.7982 -219.31056 1402.2886 393216
1180.0093 -216.89792 1386.8621 262144
1168.4404 -213.2812 1363.7365 262144
1161.899 -210.62569 1346.7568 262144
1167.6399 -210.21777 1344.1486 262144
1167.6418 -208.7892 1335.0143 262144
1163.8934 -206.71385 1321.7443 393472
1166.0094 -205.70088 1315.2673 722432
1165.4409 -204.231 1305.8688 722433
1163.6261 -202.5636 1295.2073 722433
1160.6752 -200.72166 1283.4298 722432
1165.2601 -200.19849 1280.0846 788226
1169.97 -199.70343 1276.9191 919811
1176.8931 -199.59009 1276.1945 854018
1183.8551 -199.48476 1275.5209 656640
1190.933 -199.40018 1274.9801 656384
1197.4006 -199.21513 1273.7969 590336
1202.3771 -198.78586 1271.0521 919040
1209.5969 -198.73056 1270.6985 721920
1214.723 -198.33408 1268.1633 656128
1221.2325 -198.16696 1267.0948 919297
1227.1123 -197.90034 1265.39 985089
0 0 0 0
0 0 0 0
0 0 0 0
0 0 0 0
0 0 0 0
0 0 0 0
0 0 0 0
0 0 0 0
0 0 0 0
0 0 0 0
0 0 0 0
0 0 0 0
0 0 0 0
0 0 0 0
0 0 0 0
0 0 0 0
-1066.054 -192.86287 1281.9098 262144
-1058.0674 -192.79625 1281.467 262144
-1050.2478 -192.75934 1281.2217 262144
-1042.1984 -192.67941 1280.6904 262144
-1034.4429 -192.653 1280.5149 262144
-1026.7037 -192.62932 1280.3574 262144
-1020.0698 -192.81416 1281.5861 262144
-1012.0186 -192.73187 1281.0391 262144
-1004.0884 -192.67155 1280.6382 196608
-996.1817 -192.61488 1280.2615 262144
-988.84052 -192.6675 1280.6112 196864
-982.61414 -192.93985 1282.4214 196608
-975.01337 -192.94446 1282.452 131328
-967.59088 -192.98473 1282.7197 131072
-960.58551 -193.10947 1283.5488 196608
-953.92834 -193.30676 1284.8602 262400
-945.75909 -193.19838 1284.1398 328192
-940.45764 -193.67882 1287.3331 328960
-933.57098 -193.83798 1288.3911 460288
-927.20624 -194.10905 1290.1929 328704
-920.73981 -194.36319 1291.8821 131328
-914.41052 -194.6508 1293.7937 131328
-906.79865 -194.66795 1293.9077 131328
-900.87421 -195.05074 1296.4519 328448
-894.60394 -195.36462 1298.5382 262656
-887.50781 -195.50203 1299.4515 196608
-880.58545 -195.68045 1300.6376 262144
-874.99286 -196.16017 1303.826 262144
-868.8446 -196.52278 1306.2362 262144
-862.01093 -196.7355 1307.6501 262144
-855.03546 -196.91942 1308.8727 262144
-847.86908 -197.06236 1309.8228 262144
-841.28564 -197.34471 1311.6993 262144
-834.289 -197.53448 1312.9608 262144
-827.78082 -197.84459 1315.022 328192
-822.09979 -198.36018 1318.449 393984
-815.185 -198.58516 1319.9443 328704
-808.80994 -198.94727 1322.3512 394496
-801.87225 -199.17674 1323.8765 262912
-795.00958 -199.42955 1325.5569 328192
-789.25842 -199.96907 1329.1429 262400
-781.974 -200.12712 1330.1934 393984
-774.5459 -200.25121 1331.0182 262400
-767.32568 -200.43219 1332.2211 196608
-761.72125 -201.0434 1336.2836 196608
-754.50507 -201.23761 1337.5745 262144
-747.28052 -201.43369 1338.8778 262144
-740.58081 -201.77698 1341.1597 262144
-734.26373 -202.23318 1344.1918 262144
-727.56244 -202.59239 1346.5793 393728
-720.6582 -202.90247 1348.6404 393728
-713.09467 -203.0318 1349.5 262144
-707.51337 -203.73488 1354.1732 262144
-699.00018 -203.60017 1353.2778 262144
-692.23523 -203.97746 1355.7856 196864
-686.45984 -204.65866 1360.3134 459776
-684.07849 -206.38007 1371.7551 525568
-682.58942 -208.41545 1385.2838 657153
-685.66479 -211.91121 1408.5193 855044
-720.56055 -225.4494 1498.5042 592129
-742.0224 -235.07076 1562.4547 197376
-749.79602 -240.54466 1598.8383 328704
-743.27203 -241.51335 1605.277 394752
-721.91089 -237.6235 1579.4221 1315592
-725.44196 -241.93256 1608.0634 2302998
0 0 0 0
0 0 0 0
0 0 0 0
-8061.6182 -2838.1306 18864.322 854528
-7838.5762 -2798.54 18601.174 196864
-7788.8379 -2820.5747 18747.633 788736
-7697.0381 -2827.7961 18795.633 196864
-7825.9561 -2917.5142 19391.965 722950
-7542.2354 -2853.7832 18968.361 10263696
-7116.4551 -2733.55 18169.203 592384
-6722.7192 -2622.1096 17428.486 394240
-6446.4038 -2553.6953 16973.754 2498575
-5549.8003 -2233.4746 14845.33 656384
-4846.3657 -1981.9004 13173.182 919552
-4610.4922 -1916.4095 12737.881 1116928
-3975.4197 -1680.0284 11166.716 853504
-3651.3853 -1569.2964 10430.709 1972233
-3371.9189 -1474.2239 9798.7861 1511685
-3377.9802 -1502.8376 9988.9746 788225
-3388.3345 -1534.4196 10198.891 328192
-3320.1453 -1530.9353 10175.732 327680
-3260.0396 -1531.1185 10176.95 1116672
-3115.2769 -1490.7965 9908.9404 1445122
-3030.9924 -1478.4196 9826.6738 1116928
-2954.7498 -1469.5557 9767.7578 1643010
-2912.0854 -1477.3713 9819.707 1511168
-2844.4065 -1472.5569 9787.7061 1379328
-2731.0339 -1443.3915 9593.8516 1642754
-2610.2339 -1408.9727 9365.0781 985088
-2605.6982 -1437.1794 9552.5615 1576704
0 0 0 0
0 0 0 0
0 0 0 0
-1278.7067 -772.63159 5135.4829 262144
-1263.1725 -781.91467 5197.1851 459520
-1154.9874 -732.87366 4871.2222 2169608
-1114.7374 -725.52545 4822.3804 5393721
-1229.4839 -821.3316 5459.1792 986371
-1182.6088 -811.43756 5393.416 196608
-1134.8784 -800.38885 5319.9785 656641
-1125.7356 -816.70135 5428.4033 3024662
-1133.6759 -846.73602 5628.0356 2958609
-1229.0165 -945.86139 6286.8965 2761229
0 0 0 0
0 0 0 0
0 0 0 0
0 0 0 0
-939.89294 -853.06421 5670.0977 262144
-896.54419 -843.98975 5609.7822 262144
-864.22333 -844.99658 5616.4746 262144
-833.77924 -847.99329 5636.3926 327680
0 0 0 0
0 0 0 0
0 0 0 0
0 0 0 0
0 0 0 0
0 0 0 0
0 0 0 0
-828.526 -1241.9559 8254.9609 2168839
-581.92322 -927.22229 6163.0078 2169356
0 0 0 0
-468.0076 -853.14526 5670.6367 196608
-428.70023 -842.15448 5597.584 196608
-388.13428 -826.63324 5494.418 196608
-347.97269 -809.19977 5378.5425 196608
-312.32376 -799.79407 5316.0254 196608
-278.56198 -793.64716 5275.168 196608
-240.74174 -772.91083 5137.3389 196608
-197.54027 -726.36145 4827.9375 657408
-169.12486 -727.59674 4836.1479 65792
0 0 0 0
0 0 0 0
0 0 0 0
-112.31006 -1509.929 10036.108 788992
-53.161293 -1524.7535 10134.644 920576
7.3104029 -1572.1229 10449.496 0
72.620155 -1644.2719 10929.051 328448
143.67551 -1716.9415 11412.068 657408
217.2168 -1763.1724 11719.352 328704
276.77118 -1700.9869 11306.021 196864
332.64182 -1644.8879 10933.146 196608
448.89056 -1856.8906 12342.273 65792
536.02295 -1905.8004 12667.364 65792
620.54272 -1934.5157 12858.228 65792
709.18195 -1968.3658 13083.22 65792
798.28088 -1996.6743 13271.38 65792
882.02533 -2007.7023 13344.68 131072
973.39996 -2032.8452 13511.798 196608
1061.0504 -2046.9696 13605.68 131328
1139.0387 -2041.7733 13571.141 328960
1242.5005 -2079.9065 13824.603 512
1297.9983 -2037.999 13546.055 395008
1364.4998 -2017.2555 13408.178 131328
1431.9641 -2000.147 13294.462 1052161
1507.0183 -1994.8752 13259.421 1117955
1621.2609 -2039.4233 13555.521 723200
1754.7629 -2102.8323 13976.983 854528
1994.4635 -2282.0171 15167.979 1249029
2126.5515 -2327.8982 15472.94 2038284
2227.2485 -2337.0366 15533.68 2103820
2219.8464 -2236.5356 14865.675 1708292
2237.1899 -2167.707 14408.19 1313792
2219.5659 -2071.3232 13767.552 1576963
2225.4807 -2002.9803 13313.294 1445380
2273.4092 -1975.8464 13132.942 1248002
2341.6082 -1967.5468 13077.776 1445634
2390.2068 -1943.8405 12920.206 1116930
2460.0574 -1938.3556 12883.749 919552
2511.8816 -1919.4269 12757.936 656384
2573.3845 -1908.7872 12687.217 1774343
2626.8 -1892.9255 12581.788 2432275
2776.4954 -1945.4023 12930.588 853248
2876.1245 -1960.9167 13033.709 1774346
2967.5461 -1970.1683 13095.201 2037773
3005.8198 -1944.5637 12925.014 787968
3235.49 -2040.9697 13565.8 590592
3313.8665 -2039.5706 13556.5 393472
3500.4534 -2103.2561 13979.802 787712
3631.7671 -2131.5471 14167.844 327680
3811.3677 -2186.2534 14531.463 524544
4078.7207 -2287.7549 15206.117 722176
4230.7388 -2321.5659 15430.852 327680
4303.0386 -2311.1262 15361.46 393216
4399.7651 -2313.9668 15380.341 393216
4545.9961 -2342.1973 15567.982 327680
4975.3545 -2512.2644 16698.375 722432
5042.106 -2496.1641 16591.359 590848
5066.4834 -2460.1062 16351.692 327680
4958.8843 -2362.5291 15703.122 393216
4832.7461 -2259.8892 15020.9 393216
4778.3965 -2193.9338 14582.514 393216
4788.8755 -2159.5645 14354.068 1445379
4637.0381 -2054.4822 13655.614 655872
4592.9971 -1999.955 13293.185 393216
4624.3091 -1979.5284 13157.416 721920
4624.542 -1946.6991 12939.207 2037255
4366.0874 -1807.8313 12016.188 3353114
4299.5688 -1751.6284 11642.623 1313795
4604.0884 -1845.9713 12269.695 787712
4681.2251 -1847.6257 12280.692 4866871
4960.4253 -1927.757 12813.304 1248770
5378.1763 -2058.4946 13682.283 1314051
5486.6772 -2068.7346 13750.346 1380104
5441.3853 -2021.538 13436.643 393216
5520.0459 -2021.0907 13433.669 2103828
5760.5161 -2079.0559 13818.948 1116419
5543.4375 -1972.5767 13111.208 459008
5542.8286 -1945.0107 12927.984 590592
5545.9609 -1919.4938 12758.38 524800
5588.6299 -1908.1647 12683.078 393216
5479.3433 -1845.9446 12269.518 919040
5192.4702 -1726.3179 11474.39 1248000
5501.2534 -1805.2609 11999.104 393216
5624.2393 -1821.9933 12110.319 458752
5685.9517 -1818.7036 12088.454 458752
5701.3716 -1800.8737 11969.943 524544
5744.3477 -1792.0806 11911.497 393216
5656.9023 -1743.3086 11587.323 1313280
5673.4219 -1727.3644 11481.346 721152
5637.9502 -1696.1578 11273.924 458752
5530.6748 -1644.3363 10929.479 524288
5582.1929 -1640.3813 10903.192 1510913
5491.3281 -1595.1569 10602.597 1839619
5227.7822 -1501.3666 9979.1963 2036998
5206.7974 -1478.5605 9827.6104 1115904
5274.4316 -1481.1464 9844.7979 720896
5440.9536 -1511.1399 10044.157 1444096
5428.292 -1491.257 9912.001 1312768
5546.9028 -1507.4771 10019.812 1575936
5625.5645 -1512.6107 10053.934 1510401
5673.2617 -1509.3983 10032.581 1313024
5625.356 -1481.0817 9844.3682 655360
5565.1416 -1450.1409 9638.7129 1575424
5596.0073 -1443.3223 9593.3906 1180928
5613.0083 -1433.1012 9525.4541 1443584
5664.583 -1431.8234 9516.9609 2101509
5619.1343 -1406.2891 9347.2412 1839105
5674.6021 -1406.2637 9347.0723 1707520
5672.4033 -1392.0867 9252.8408 1707264
5741.1035 -1395.4142 9274.959 1575936
6011.707 -1447.2859 9619.7363 1444352
6072.252 -1448.0859 9625.0537 1641728
6129.4844 -1448.0884 9625.0703 1444352
6257.4814 -1464.6543 9735.1797 2299655
6347.6729 -1472.1487 9784.9932 2102276
6416.5723 -1474.6138 9801.3779 1444096
6485.7544 -1477.099 9817.8965 918016
6497.0049 -1466.4637 9747.207 1246720
6457.3252 -1444.6227 9602.0352 1575168
6514.1816 -1444.5721 9601.6982 655360
6492.5386 -1427.2655 9486.666 1707008
6443.4136 -1404.2678 9333.8057 721408
6411.2676 -1385.3317 9207.9424 1180672
0 0 0 0
0 0 0 0
0 0 0 0
0 0 0 0
0 0 0 0
0 0 0 0
0 0 0 0
0 0 0 0
0 0 0 0
0 0 0 0
0 0 0 0
0 0 0 0
0 0 0 0
0 0 0 0
0 0 0 0
0 0 0 0
1215.0035 -229.25761 1523.8163 1050881
1210.6578 -226.74699 1507.1288 787712
1213.1978 -225.55338 1499.1952 459520
1209.974 -223.31345 1484.3069 590848
1204.3669 -220.66927 1466.7317 722432
1199.9564 -218.28073 1450.8558 525056
1196.6619 -216.12787 1436.5463 459264
1194.705 -214.24541 1424.0341 590848
1191.8982 -212.2381 1410.6919 525312
1182.6708 -209.12352 1389.9901 262400
1179.8571 -207.17836 1377.0612 459776
1175.3146 -204.95856 1362.3068 656898
1173.5861 -203.25653 1350.9937 393984
1167.0282 -200.74686 1334.3126 262400
1165.9882 -199.21384 1324.123 459776
1164.6852 -197.65675 1313.7736 722946
1163.3883 -196.12146 1303.5688 460033
1158.4061 -193.98933 1289.3971 196864
1166.0547 -193.98648 1289.3782 393472
1170.228 -193.40933 1285.542 393472
1173.5149 -192.69411 1280.7881 525056
1178.6262 -192.28574 1278.0737 656641
1184.9761 -192.08339 1276.7288 722434
1192.7002 -192.10493 1276.8719 459520
1200.7057 -192.17125 1277.3127 985604
1206.4688 -191.8801 1275.3776 1051397
1211.7432 -191.51534 1272.9531 1051397
1216.8523 -191.12915 1270.3862 985604
1223.0201 -190.91299 1268.9495 985604
1227.1721 -190.38675 1265.4517 919811
0 0 0 0
0 0 0 0
0 0 0 0
0 0 0 0
0 0 0 0
0 0 0 0
0 0 0 0
0 0 0 0
0 0 0 0
0 0 0 0
0 0 0 0
0 0 0 0
0 0 0 0
0 0 0 0
0 0 0 0
0 0 0 0
-1061.5305 -184.45578 1276.4705 262400
-1058.251 -185.20995 1281.6895 262144
-1050.1826 -185.13087 1281.1422 262144
-1040.3584 -184.73885 1278.4293 131072
-1031.3339 -184.4841 1276.6664 196608
-1027.3159 -185.12779 1281.1208 196608
-1019.8884 -185.16208 1281.3582 262144
-1009.6164 -184.67656 1277.9983 262144
-1004.5013 -185.13416 1281.1649 262144
-996.90485 -185.13789 1281.1908 262144
-989.22473 -185.12605 1281.1088 262144
-983.27496 -185.44035 1283.2839 196608
-976.6629 -185.6337 1284.6218 196608
-969.5249 -185.72932 1285.2836 196608
-962.85443 -185.91675 1286.5806 131072
-956.10608 -186.09201 1287.7935 131072
-949.4704 -186.29222 1289.179 196608
-942.72906 -186.47478 1290.4423 196608
-936.87836 -186.83795 1292.9556 196608
-929.94336 -186.98912 1294.0016 196608
-922.755 -187.09143 1294.7096 196608
-916.39941 -187.36572 1296.6078 196608
-910.00305 -187.63626 1298.48 196608
-903.29596 -187.84682 1299.9371 131072
-897.06763 -188.16142 1302.1143 131072
-889.64099 -188.22798 1302.5748 196608
-882.91272 -188.44476 1304.075 262144
-878.12341 -189.08289 1308.491 262144
-871.71674 -189.38106 1310.5543 262144
-864.88599 -189.59164 1312.0116 262144
-857.67346 -189.72159 1312.9109 262144
-850.82751 -189.93578 1314.3931 262144
-844.18958 -190.20078 1316.2269 262144
-837.32312 -190.41881 1317.7357 262144
-831.89862 -190.97194 1321.5635 262144
-825.62811 -191.33955 1324.1075 131072
-818.6756 -191.55469 1325.5963 131072
-812.013 -191.84251 1327.588 131072
-805.32458 -192.12981 1329.5762 131072
-798.59979 -192.41402 1331.543 196608
-791.5592 -192.62711 1333.0176 196864
-784.83704 -192.92276 1335.0636 196864
-777.96173 -193.18643 1336.8882 196864
-771.83069 -193.64224 1340.0426 196608
-764.85028 -193.89227 1341.7728 196608
-757.74951 -194.11674 1343.3262 262144
-750.59717 -194.33261 1344.8201 262144
-743.8457 -194.65807 1347.0723 262144
-737.06622 -194.98318 1349.3221 262144
-730.04187 -195.24997 1351.1683 262144
-722.96381 -195.50816 1352.9551 459520
-716.80176 -196.02266 1356.5155 525568
-709.64758 -196.27448 1358.2582 525312
-700.68237 -196.02544 1356.5347 196608
-695.77606 -196.91933 1362.7206 196608
-690.54297 -197.74071 1368.4048 1051908
-690.68988 -200.14064 1385.0127 854531
-689.68103 -202.25954 1399.6759 788738
-697.81372 -207.1438 1433.4761 657665
-732.91284 -220.25275 1524.1925 328960
-755.31238 -229.82567 1590.439 526336
-744.81555 -229.50475 1588.2181 394752
-737.15912 -230.06206 1592.0748 460544
-727.64929 -230.04787 1591.9767 1184262
-725.41565 -232.36404 1608.005 2237204
0 0 0 0
0 0 0 0
0 0 0 0
-7919.04 -2677.7686 18530.688 591616
-7944.2881 -2724.2041 18852.031 591616
0 0 0 0
0 0 0 0
-8017.3423 -2870.7563 19866.201 2104086
-7302.2197 -2653.7876 18364.734 4934457
-7114.7031 -2624.8865 18164.732 196864
-6915.0352 -2590.5417 17927.061 920064
-6351.9868 -2416.8599 16725.148 1314305
-5612.9751 -2169.6375 15014.319 1643012
-5059.0229 -1987.1133 13751.217 1182720
-4079.9246 -1628.859 11272.026 1117184
-4194.1436 -1702.4221 11781.098 985344
-3851.7112 -1589.979 11002.969 1116672
-3637.0835 -1527.3197 10569.354 853504
-3357.5867 -1434.7378 9928.6689 1248513
-3319.251 -1443.7374 9990.9482 590848
-3264.5891 -1445.8347 10005.462 327680
-3224.4375 -1454.5554 10065.811 590592
-3105.7512 -1427.5087 9878.6416 984832
-3034.5913 -1421.6852 9838.3418 1313536
-2979.5479 -1423.3314 9849.7344 984832
-2893.1853 -1409.7827 9755.9746 2037255
-2801.5771 -1393.0714 9640.3291 1313538
-2718.8804 -1380.1857 9551.1572 1181952
-2675.762 -1387.2699 9600.1816 918784
-2648.7256 -1403.1826 9710.3008 1116672
0 0 0 0
0 0 0 0
0 0 0 0
-1319.8055 -765.95239 5300.542 7366999
-1302.6083 -774.46338 5359.4395 788995
-1233.6265 -751.8407 5202.8862 197120
-1150.1522 -718.99481 4975.5859 5395011
-1142.7477 -733.22351 5074.0513 788994
-1223.1851 -806.11407 5578.4688 196608
-1164.8613 -789.07135 5460.5298 196608
-1072.6595 -747.44476 5172.4653 1774855
-1069.7957 -767.45032 5310.9077 2037767
-1141.5505 -843.83051 5839.4741 2695437
0 0 0 0
0 0 0 0
0 0 0 0
0 0 0 0
-948.16425 -826.56543 5719.9961 196864
-893.18402 -807.60083 5588.7573 196864
-859.61719 -807.28046 5586.54 196608
-827.45819 -808.30957 5593.6621 327680
0 0 0 0
0 0 0 0
0 0 0 0
0 0 0 0
0 0 0 0
0 0 0 0
0 0 0 0
-610.72974 -879.30481 6084.9629 1971463
-577.5282 -883.85651 6116.4614 1511172
-486.58792 -794.71826 5499.6074 525312
-483.34634 -846.28937 5856.4897 196608
-424.2731 -800.52319 5539.7783 196608
-385.6373 -788.8606 5459.0708 196608
-346.5748 -774.10156 5356.9355 196608
-310.52872 -763.77472 5285.4717 196608
-276.30954 -756.12201 5232.5137 196608
-236.93227 -730.62164 5056.0459 196608
-201.10703 -710.25574 4915.1099 788738
-170.08672 -702.81995 4863.6528 1907212
0 0 0 0
0 0 0 0
0 0 0 0
0 0 0 0
0 0 0 0
7.3996773 -1528.4397 10577.104 3420705
72.497307 -1576.626 10910.562 1578244
141.70612 -1626.4913 11255.642 657408
217.50841 -1695.7729 11735.084 131072
281.01553 -1658.8258 11479.402 196864
358.63773 -1703.3575 11787.57 196864
449.02328 -1784.0419 12345.922 65792
536.35449 -1831.624 12675.199 65792
620.04584 -1856.5845 12847.931 65792
710.75067 -1894.7668 13112.16 65792
817.66962 -1964.3538 13593.717 65792
893.03949 -1952.4471 13511.319 197632
978.48584 -1962.7177 13582.394 197632
1068.6294 -1980.126 13702.863 131840
1128.5641 -1943.0575 13446.342 256
1222.197 -1965.0735 13598.697 65792
1308.2958 -1972.9957 13653.521 131584
1385.4579 -1967.3026 13614.122 197120
1461.8539 -1961.2102 13571.961 197120
1550.0862 -1970.8037 13638.351 65536
1707.4758 -2063.0007 14276.373 1051906
1825.2538 -2100.8728 14538.455 393984
1987.2521 -2183.9167 15113.136 524800
2136.802 -2246.688 15547.523 2761239
2449.0747 -2468.2502 17080.779 2432274
2278.989 -2205.3899 15261.734 1773829
2231.2014 -2076.4758 14369.623 1971720
2263.0618 -2028.4606 14037.348 1643010
2242.3328 -1938.3994 13414.106 2695184
2300.718 -1920.5663 13290.698 1445120
2375.9517 -1917.515 13269.582 2563855
2382.4004 -1860.9309 12878.009 1182208
2433.7561 -1841.8555 12746.004 1642500
2492.4016 -1829.2825 12658.996 1050624
2575.1206 -1834.5973 12695.775 1511170
2649.051 -1833.5264 12688.365 1445378
2790.3179 -1877.8311 12994.962 1708549
2888.7937 -1891.7264 13091.121 2169102
2981.4978 -1901.2128 13156.768 853248
3121.7815 -1939.7784 13423.649 1050624
3241.8528 -1964.1749 13592.478 985344
3333.5105 -1970.5884 13636.86 853504
3449.0549 -1990.4823 13774.531 393216
3592.9644 -2025.4436 14016.47 787712
3769.0798 -2076.5642 14370.234 393216
3918.2349 -2110.8938 14607.802 327680
4245.5952 -2237.6584 15485.038 919296
4429.0288 -2284.7952 15811.233 393216
4453.1089 -2249.4758 15566.816 393216
4592.2974 -2272.5571 15726.544 393216
4765.6011 -2311.2632 15994.397 393216
4882.6426 -2321.7019 16066.636 393216
5113.6577 -2384.8948 16503.943 854016
5134.5591 -2349.561 16259.426 524544
5059.4907 -2272.4287 15725.655 1182465
4955.3301 -2185.2659 15122.473 393216
4822.0542 -2088.5989 14453.517 524800
4753.0723 -2022.6769 13997.323 656128
4572.1489 -1912.2064 13232.846 458752
4591.5474 -1887.8365 13064.201 590080
4552.0288 -1840.4559 12736.318 2366220
4157.3931 -1653.3961 11441.827 4141602
4188.4575 -1638.9343 11341.749 2168840
4506.521 -1735.4536 12009.683 1050368
4642.2134 -1759.8267 12178.349 4538161
4829.8857 -1802.8541 12476.106 854528
5498.189 -2021.2719 13987.6 788482
5595.7158 -2026.4756 14023.611 986116
5378.3696 -1919.1699 13281.035 327680
5388.0859 -1894.8203 13112.53 393472
5903.5742 -2046.4924 14162.132 721920
5584.5688 -1908.6871 13208.491 458752
5578.6479 -1880.2251 13011.529 1511172
5558.6455 -1847.8607 12787.562 327680
5579.687 -1829.8297 12662.782 458752
5544.7939 -1794.1796 12416.076 459008
5378.9453 -1717.6483 11886.465 1182208
5526.7964 -1741.976 12054.817 458752
5660.3208 -1761.223 12188.011 655872
5718.4556 -1756.8224 12157.558 458752
5739.8188 -1741.3755 12050.663 458752
5751.4487 -1723.3931 11926.221 655872
5733.2271 -1697.0128 11743.664 853248
5648.7388 -1651.8884 11431.395 524800
5637.3418 -1628.9575 11272.707 524544
5623.2188 -1605.7866 11112.36 786944
5501.9546 -1552.9136 10746.469 1905415
5243.9912 -1463.1145 10125.041 2299914
5202.4907 -1435.0629 9930.918 1509888
5186.0806 -1414.484 9788.5088 983552
5323.0234 -1435.7242 9935.4951 589824
5413.5479 -1444.1156 9993.5654 983808
5456.1016 -1439.6672 9962.7812 655360
5517.5732 -1440.2524 9966.8311 1181440
5621.8931 -1451.891 10047.372 1312768
5600.1426 -1431.0686 9903.2773 721408
5550.8481 -1403.7142 9713.9795 1575680
5565.1416 -1392.8379 9638.7129 1641729
5596.3003 -1386.3612 9593.8926 1773314
5645.8442 -1384.5237 9581.1777 1181184
5635.9824 -1368.3005 9468.9102 1904900
5631.2139 -1353.6226 9367.335 1246976
5716.6821 -1360.7106 9416.3857 1115905
5750.5054 -1355.4875 9380.2412 1444352
5827.2383 -1360.3822 9414.1133 1707520
5799.291 -1340.9783 9279.835 1904900
5823.7056 -1333.9338 9231.0859 1049600
6098.3286 -1383.7966 9576.1465 2102275
6191.9834 -1392.0529 9633.2803 1510144
6304.8555 -1404.4384 9718.9902 1575936
6393.4399 -1411.2377 9766.043 917760
6445.7656 -1409.9834 9757.3633 1181184
6464.644 -1401.5002 9698.6582 852480
6495.5879 -1395.7595 9658.9316 655360
6537.5449 -1392.4655 9636.1357 983808
6491.1846 -1370.5807 9484.6885 655360
6438.1055 -1347.6661 9326.1162 786688
0 0 0 0
0 0 0 0
0 0 0 0
0 0 0 0
0 0 0 0
0 0 0 0
0 0 0 0
0 0 0 0
0 0 0 0
0 0 0 0
0 0 0 0
0 0 0 0
0 0 0 0
0 0 0 0
0 0 0 0
0 0 0 0
0 0 0 0
1222.1904 -221.50092 1532.83 591360
1224.6741 -220.30833 1524.5773 656640
1228.776 -219.42233 1518.4458 525568
1216.6047 -215.66451 1492.4409 525824
1211.2094 -213.15355 1475.0647 591361
1206.9742 -210.88141 1459.3409 657154
1204.0293 -208.86551 1445.3906 525568
1199.4194 -206.59142 1429.6534 328192
1198.4427 -204.9707 1418.4377 591361
1191.9281 -202.43211 1400.8701 393984
1182.7422 -199.47821 1380.4286 196864
1181.8503 -197.95424 1369.8824 131072
1178.1716 -195.98753 1356.2723 131072
1176.7754 -194.42465 1345.457 196608
1173.6648 -192.60155 1332.8408 328192
1173.4585 -191.27634 1323.67 394240
1170.0225 -189.4458 1311.0023 460033
1169.4454 -188.09938 1301.6848 394240
1172.1569 -187.29607 1296.1257 854018
1173.7988 -186.33351 1289.4647 985604
1179.2024 -185.9767 1286.9955 1248776
1183.8717 -185.50943 1283.7618 1182983
1189.3112 -185.16805 1281.3994 985604
1195.0128 -184.87157 1279.3478 1051397
1201.4993 -184.69949 1278.157 1182726
1208.8479 -184.66129 1277.8926 1051654
1214.0568 -184.29872 1275.3835 1117190
1219.6094 -183.99254 1273.2646 1182469
1225.6875 -183.76889 1271.717 1248262
1231.4984 -183.50821 1269.913 1379591
0 0 0 0
0 0 0 0
0 0 0 0
0 0 0 0
0 0 0 0
0 0 0 0
0 0 0 0
0 0 0 0
0 0 0 0
0 0 0 0
0 0 0 0
0 0 0 0
0 0 0 0
0 0 0 0
0 0 0 0
0 0 0 0
0 0 0 0
-1056.8899 -177.36177 1280.041 1380617
-1048.9507 -177.30614 1279.6394 1380617
-1041.6189 -177.35307 1279.9781 1380874
-1032.5214 -177.09787 1278.1364 1315082
-1025.8031 -177.24998 1279.2343 1183495
-1017.7152 -177.16597 1278.6278 854533
-1010.8072 -177.2876 1279.5056 131072
-1005.3034 -177.65926 1282.1879 262144
-997.26025 -177.58438 1281.6476 262144
-990.86298 -177.80371 1283.2305 1248778
-987.89313 -178.64622 1289.311 1117189
-980.11969 -178.6265 1289.1686 1248776
-974.16986 -178.94139 1291.4413 1249030
-966.75238 -178.98958 1291.7891 1182981
-960.48169 -179.25256 1293.687 1051910
-953.92169 -179.46538 1295.2229 986117
-946.33356 -179.48662 1295.3762 1117703
-939.55975 -179.66394 1296.656 1051910
-935.00183 -180.27145 1301.0404 854532
-928.68469 -180.54706 1303.0295 854531
-922.95844 -180.94315 1305.8882 920324
-916.03864 -181.10997 1307.0922 788738
-908.89581 -181.23518 1307.9958 854529
-902.6109 -181.53511 1310.1604 722944
-895.95093 -181.76416 1311.8135 722946
-888.25067 -181.78435 1311.9592 787970
-881.68878 -182.03992 1313.8037 656641
-876.11676 -182.50626 1317.1693 525312
-869.49097 -182.75952 1318.9972 393728
-862.51074 -182.94221 1320.3157 262400
-855.35706 -183.09113 1321.3904 196608
-848.75378 -183.36174 1323.3434 196608
-842.19135 -183.64627 1325.397 196608
-836.44525 -184.11592 1328.7864 393984
-829.72125 -184.37718 1330.672 393728
-822.06451 -184.4342 1331.0836 459776
-815.40338 -184.71791 1333.1311 460032
-808.26392 -184.89774 1334.4288 525568
-801.9007 -185.26047 1337.0468 591617
-795.3736 -185.59222 1339.4412 525825
-788.23041 -185.78549 1340.8359 525825
-781.31311 -186.03645 1342.6472 525569
-774.17303 -186.23906 1344.1094 460032
-766.27881 -186.26254 1344.2788 393984
-759.16949 -186.47932 1345.8434 328192
-752.00812 -186.68782 1347.3481 328192
-746.50769 -187.31755 1351.8929 262400
-739.17438 -187.49608 1353.1814 262400
-731.83459 -187.67688 1354.4863 393472
-724.96375 -187.98329 1356.6978 262400
-718.69092 -188.45341 1360.0907 196864
-711.4361 -188.67381 1361.6813 131072
-703.85791 -188.81255 1362.6825 196608
-699.04791 -189.7057 1369.1287 986117
-696.81793 -191.32834 1380.8394 788997
-704.25531 -195.67572 1412.2148 722946
-716.02203 -201.34541 1453.1337 1183495
-716.65253 -203.98383 1472.1754 723459
-745.40271 -214.79027 1550.1669 723715
-745.44324 -217.49092 1569.6578 328960
-740.08118 -218.66382 1578.1227 657922
-735.93713 -220.23131 1589.4355 657920
-731.96838 -221.89273 1601.4261 1052678
-729.63367 -224.09982 1617.355 1907729
-728.77649 -226.82571 1637.0282 1776653
0 0 0 0
0 0 0 0
-7970.1729 -2584.1809 18650.34 460032
-7895.6978 -2596.1504 18736.725 131328
-7837.0332 -2613.7354 18863.639 196864
-7801.4048 -2639.6255 19050.49 262144
-7798.2109 -2677.4141 19323.215 3155744
-7161.9009 -2495.7104 18011.838 4604976
-7136.2319 -2524.5112 18219.697 196608
-7059.2407 -2535.7642 18300.91 1117696
-6723.3936 -2452.9297 17703.084 919808
-5733.627 -2125.0938 15337.055 1643269
0 0 0 0
-4345.0776 -1663.3499 12004.593 919552
-4119.9536 -1603.5073 11572.702 853760
-3875.9751 -1534.1693 11072.282 1116928
-3682.001 -1482.5699 10699.884 1510913
-3440.199 -1409.5597 10172.96 1643268
-3255.2283 -1357.6388 9798.2402 1314305
-3218.6677 -1366.8502 9864.7197 524800
-3179.7722 -1375.3934 9926.3779 393216
-3078.4207 -1356.7339 9791.71 393216
-3029.2451 -1360.7936 9821.0088 722176
-2958.592 -1355.175 9780.459 1050624
-2888.3982 -1349.5459 9739.833 1708547
-2803.1919 -1336.5286 9645.8848 1379328
-2741.9519 -1334.6331 9632.2051 1379330
-2690.083 -1337.3153 9651.5635 1379328
-2659.5752 -1350.9651 9750.0752 1050368
0 0 0 0
0 0 0 0
0 0 0 0
0 0 0 0
-1363.312 -777.20746 5609.1982 4670256
-1246.8319 -728.62604 5258.5806 196864
-1209.5702 -725.03015 5232.6289 460291
-1149.8728 -707.44135 5105.6885 3485733
-1197.0792 -756.45288 5459.4102 3288611
-1171.9158 -761.19 5493.5986 262144
-1136.6498 -759.44891 5481.0327 656384
-1055.4016 -725.97528 5239.4497 1379842
-1096.4652 -777.15851 5608.8452 2629390
0 0 0 0
0 0 0 0
0 0 0 0
0 0 0 0
-950.3042 -794.34827 5732.9058 131072
-897.61774 -778.21912 5616.4995 262144
-857.93835 -772.55615 5575.6294 262144
-824.362 -772.1546 5572.7314 393216
0 0 0 0
0 0 0 0
-645.15192 -687.14087 4959.1772 2564108
-626.42072 -699.14062 5045.7808 2628620
0 0 0 0
0 0 0 0
-639.94092 -834.05206 6019.4526 2102277
-561.59546 -775.29791 5595.417 2826771
-551.73016 -809.63617 5843.2407 1906185
-515.60553 -807.46564 5827.5757 196864
-468.62747 -786.76105 5678.1475 196608
-424.01974 -767.13019 5536.4697 196608
-385.99301 -757.10358 5464.1064 196608
-347.08545 -743.34772 5364.8286 196608
-311.57983 -734.83105 5303.3633 196608
-277.0083 -726.84772 5245.7461 196864
-234.99976 -694.84894 5014.8071 394240
-206.00845 -697.63324 5034.9019 1841677
-173.97206 -689.29919 4974.7544 525568
-143.85776 -686.72668 4956.188 196608
0 0 0 0
0 0 0 0
0 0 0 0
0 0 0 0
7.5644965 -1498.2014 10812.697 1775628
70.967903 -1479.8694 10680.394 920320
139.25055 -1532.5502 11060.597 1577988
214.94746 -1606.8622 11596.915 197120
291.37222 -1649.1996 11902.47 196864
371.37115 -1691.2689 12206.089 196864
454.94073 -1733.1879 12508.622 66048
542.16718 -1775.3021 12812.566 66048
