# .PCD v0.7 - Point Cloud Data file format
VERSION 0.7
FIELDS x y z rgb
SIZE 4 4 4 4
TYPE F F F U
COUNT 1 1 1 1
WIDTH 1406
HEIGHT 1
VIEWPOINT 0 0 0 1 0 0 0
POINTS 1406
DATA ascii
-776.67065 69.692566 1348.4457 4342578
-772.39392 70.031662 1355.0066 4079409
-769.78766 70.530952 1364.6671 3750188
-773.80042 71.653801 1386.3926 1776399
-841.52997 78.764519 1523.9742 1118470
-838.83179 79.366463 1535.621 1184266
-835.46375 79.917572 1546.2841 1381133
-830.89008 80.364349 1554.9285 1250060
-829.42889 81.125595 1569.6575 1315852
-827.20105 81.828331 1583.2543 1447436
-823.11365 82.36116 1593.5638 2302745
-824.01514 83.411423 1613.8848 3026725
-825.19183 84.514603 1635.2297 2500637
-831.2149 86.14637 1666.8019 263424
-867.09845 90.949562 1759.7363 592387
-881.46472 93.585571 1810.7393 1184524
-874.19946 93.961739 1818.0173 1447695
-869.47803 94.624168 1830.8344 1381901
-871.67383 96.065712 1858.7262 2500637
-878.73871 98.087791 1897.8505 2697502
-884.112 99.971191 1934.2914 921094
-888.79431 101.82508 1970.1611 65792
-884.48181 102.68421 1986.7842 1052681
-885.20142 104.15872 2015.3137 394496
-881.85034 105.18814 2035.2313 262912
-881.63379 106.62531 2063.0381 526596
-881.5766 108.12254 2092.0073 1250319
0 0 0 0
0 0 0 0
-3450.751 441.92749 8550.6279 65536
-3380.374 439.3873 8501.4795 65536
-3326.5366 438.95251 8493.0664 131072
-3286.7961 440.3931 8520.9395 196608
-3245.9709 441.73114 8546.8291 131072
-3212.2102 444.08847 8592.4395 196608
-3160.4668 443.99564 8590.6436 196608
-3131.459 447.14624 8651.6035 196608
-3097.2102 449.6413 8699.8779 262144
-3069.1875 453.1402 8767.5771 196608
-3022.0068 453.88266 8781.9424 196608
-2969.6335 453.8576 8781.458 196608
-2930.7878 455.93616 8821.6748 196608
-2868.8992 454.44037 8792.7334 196608
-2826.3047 456.00201 8822.9492 196608
-2793.8123 459.28345 8886.4395 262144
-2735.6951 458.39767 8869.3008 131072
-2690.9272 459.75784 8895.6182 196608
-2651.8208 462.15921 8942.0811 2631457
-2570.5432 457.15891 8845.333 1907993
-2592.6436 470.71896 9107.6992 855305
-2556.5811 474.0723 9172.5811 3486767
-2505.6482 474.75415 9185.7744 327936
-2437.5627 472.14407 9135.2734 196608
-2400.821 475.62457 9202.6152 131072
-2350.364 476.48688 9219.2998 591877
-2306.5132 478.76157 9263.3115 131072
-2250.304 478.51953 9258.6289 262144
-2189.009 477.15692 9232.2637 262144
-2137.8066 477.98062 9248.2021 393216
-2075.605 476.3237 9216.1426 262144
-2017.8506 475.62515 9202.627 196608
-1956.9087 474.11545 9173.416 131072
-1904.2155 474.57492 9182.3066 131072
-1845.0536 473.40179 9159.6084 196608
-1785.425 472.03391 9133.1416 196608
-1721.4409 469.39267 9082.0371 196608
-1660.4023 467.40942 9043.665 196608
-1600.8892 465.73727 9011.3115 196608
-1539.6593 463.43262 8966.7197 196608
-1487.762 463.8725 8975.2305 65536
-1441.8638 466.2851 9021.9111 0
-1376.4559 462.33109 8945.4072 0
-1333.0455 465.74496 9011.46 5724754
-1231.1179 448.14359 8670.9004 5659989
0 0 0 0
0 0 0 0
-992.12201 413.02884 7991.4824 256
-952.06177 416.28622 8054.5088 256
-974.58765 448.70358 8681.7354 196608
-922.42194 448.43527 8676.5439 65792
-867.58405 446.75916 8644.1133 256
-810.00647 443.37228 8578.582 65792
0 0 0 0
-686.03119 429.61136 8312.3301 3618869
-652.23053 440.1503 8516.2422 3816247
-623.35413 456.06586 8824.1836 328708
-582.77466 465.55725 9007.8281 65792
-528.35059 464.79047 8992.9922 196608
-477.6008 467.44717 9044.3955 460032
-430.50656 474.80972 9186.8496 854784
-375.84482 474.75281 9185.748 854784
-325.83691 481.5545 9317.3506 525056
-276.25 491.89203 9517.3662 591360
-218.18794 488.57703 9453.2256 525312
-165.5002 499.17154 9658.2139 657152
-109.45602 505.52109 9781.0684 920320
-50.715416 499.69608 9668.3623 853504
6.7609744 499.47791 9664.1416 721408
64.400803 500.92136 9692.0703 917760
124.33395 510.41611 9875.7793 1443072
181.53055 506.18924 9793.9951 983040
239.78148 506.24133 9795.0039 1376768
296.98105 504.48712 9761.0625 1640192
352.61758 501.08527 9695.2412 2034432
410.7341 501.6683 9706.5225 1838080
473.08173 506.63898 9802.6973 1838850
533.14423 508.34042 9835.6182 458752
593.6377 510.07593 9869.1973 393216
655.04425 512.2132 9910.5498 262144
717.9657 515.08447 9966.1055 328706
785.22638 520.3938 10068.832 256
887.67474 546.61908 10576.252 4540482
994.74121 572.03052 11067.925 7238253
1008.6309 544.03143 10526.185 2171167
1032.6559 524.45105 10147.334 131072
1086.0289 521.11432 10082.773 196608
1138.0479 517.51099 10013.054 196608
1194.85 516.33276 9990.2578 196608
1253.5881 516.06317 9985.041 196608
1305.1747 513.00696 9925.9082 196608
1360.0309 511.44473 9895.6816 196608
1412.2397 509.05774 9849.4971 196608
1464.7614 506.96915 9809.0859 196608
1515.8324 504.55762 9762.4268 196608
1572.5347 504.12924 9754.1377 196608
1628.1467 503.3942 9739.916 196608
1682.7783 502.41696 9721.0078 262144
1735.2172 500.8717 9691.1094 262144
1790.851 500.3183 9680.4023 262144
1845.212 499.45486 9663.6963 262144
1894.7134 497.36792 9623.3164 262144
1946.5759 496.00494 9596.9453 262144
1999.02 494.86359 9574.8613 262144
2042.392 491.60172 9511.749 262144
2095.2705 490.74228 9495.1201 196608
2152.8264 490.9946 9500.002 196608
2203.5671 489.71945 9475.3301 196608
2255.0413 488.66681 9454.9629 196608
2305.7666 487.50705 9432.5234 65536
2356.4575 486.39532 9411.0127 0
2447.6726 493.50565 9548.5869 11713203
2503.7766 493.37491 9546.0576 11975865
2567.2944 494.67856 9571.2812 197378
2648.6406 499.28638 9660.4355 0
2714.9216 500.91904 9692.0254 196608
2785.0474 503.1785 9735.7422 131072
2867.9834 507.61322 9821.5479 65536
2942.3245 510.38016 9875.083 65536
3012.4705 512.32526 9912.7188 256
3090.2134 515.46301 9973.4297 256
3160.0107 517.18225 10006.693 256
3239.5837 520.40826 10069.112 256
3347.7603 528.02875 10216.557 768
3375.6792 522.94452 10118.185 5595480
3506.5273 533.70441 10326.373 7504248
3642.3806 544.84277 10541.883 2765870
3752.0146 551.74866 10675.501 8161152
3968.8005 573.9198 11104.479 0
3931.96 559.28912 10821.397 256
3913.3376 547.6792 10596.764 256
3967.1929 546.41986 10572.396 65792
3996.1365 541.82202 10483.437 196608
4008.5183 535.15442 10354.428 196608
4040.438 531.25739 10279.026 196608
4098.541 530.86792 10271.491 262144
4146.3755 529.17938 10238.82 262144
4180.8594 525.86047 10174.604 393216
4199.7891 520.70782 10074.908 393216
4253.3911 519.93835 10060.021 458752
4287.98 516.89838 10001.201 458752
4339.4043 515.94318 9982.7197 524288
4397.269 515.76917 9979.3525 524288
4428.9902 512.57416 9917.5342 458752
4475.2622 511.12497 9889.4941 458752
4556.3818 513.64166 9938.1895 393216
4607.6006 512.76648 9921.2559 458752
4646.3345 510.5415 9878.2051 524288
4684.7974 508.34271 9835.6621 589824
4701.7568 503.89355 9749.5771 589824
4722.5259 499.95602 9673.3926 458752
4329.4155 452.82455 8761.4697 393216
5202.5332 537.67731 10403.242 4472891
5949.3882 607.64044 11756.923 3684146
5224.6128 527.41919 10204.764 4736835
5210.0518 519.91211 10059.512 3354926
5299.8774 522.87384 10116.817 1512465
5604.4067 546.71362 10578.081 131072
5702.2637 550.08704 10643.352 131072
5714.4453 545.21222 10549.03 196608
5651.9165 533.39246 10320.337 0
5705.1782 532.63684 10305.717 65536
5853.0112 540.63263 10460.424 65536
5883.8247 537.76508 10404.94 65536
5940.0542 537.25598 10395.09 65536
5957.583 533.29303 10318.413 0
5912.4336 523.85742 10135.849 65536
5918.7954 519.13025 10044.385 65536
5892.2192 511.63739 9899.4092 65536
5878.9204 505.4342 9779.3867 0
5611.1211 477.68634 9242.5078 65793
5643.6392 475.79538 9205.9209 65793
5330.7031 445.0965 8611.9434 65536
0 0 0 0
0 0 0 0
0 0 0 0
0 0 0 0
0 0 0 0
0 0 0 0
0 0 0 0
0 0 0 0
0 0 0 0
1389.9478 105.88628 2048.7393 196608
1384.9022 104.58543 2023.5699 196608
1398.7129 104.71873 2026.1489 196608
1377.4948 102.2496 1978.375 196608
1375.9535 101.27051 1959.431 196608
1372.3816 100.15965 1937.9375 196608
1373.2804 99.390854 1923.0625 196608
1377.9937 98.908546 1913.7306 196608
1373.7924 97.799507 1892.2725 196608
1373.5555 96.988434 1876.5793 394498
1365.7955 95.663475 1850.9435 1446668
1344.7118 93.433937 1807.8053 1644047
1338.0535 92.234123 1784.5907 1644047
1338.328 91.527321 1770.915 1709840
1337.1908 90.735748 1755.5994 1709840
1343.328 90.446236 1749.9977 1446669
1340.8752 89.587242 1733.3776 920326
1343.8333 89.100113 1723.9524 854533
1347.5815 88.672356 1715.6759 854533
1349.4026 88.125153 1705.0884 657154
1346.8252 87.301025 1689.1427 459776
1348.4795 86.761353 1678.7008 525057
1345.0485 85.904816 1662.1282 525314
1342.3684 85.108391 1646.7185 393728
1339.1715 84.290977 1630.9027 131072
1337.2949 83.56781 1616.9106 196608
1338.4633 83.043884 1606.7734 262400
1324.1621 81.574387 1578.3409 328192
1312.5842 80.292168 1553.532 1117705
1311.7972 79.68335 1541.7522 986119
1306.0797 78.785545 1524.381 986119
1299.2509 77.833549 1505.9613 854533
1295.3317 77.067696 1491.1432 854533
1294.0972 76.470894 1479.5959 788740
1297.5067 76.154724 1473.4786 788740
1298.9495 75.728134 1465.2247 920326
1295.8574 75.044601 1451.9995 854533
1300.6882 74.82592 1447.7683 854534
1277.9785 73.036171 1413.1393 854531
1283.5028 72.872826 1409.9789 788738
1283.969 72.426285 1401.339 722945
1269.3431 71.139679 1376.4451 657152
1198.1047 66.717049 1290.8739 394498
1225.2596 67.79493 1311.7292 2894114
1228.2988 67.533264 1306.6664 2762269
1233.397 67.387375 1303.8438 2762526
1240.8665 67.372063 1303.5475 3025184
1246.8895 67.2789 1301.7449 3091234
1255.8004 67.341743 1302.9608 3222820
1296.2832 69.086464 1336.7185 3485992
0 0 0 0
0 0 0 0
0 0 0 0
0 0 0 0
0 0 0 0
0 0 0 0
0 0 0 0
0 0 0 0
0 0 0 0
0 0 0 0
0 0 0 0
0 0 0 0
0 0 0 0
0 0 0 0
0 0 0 0
0 0 0 0
0 0 0 0
-1068.947 74.608681 1294.6439 3816244
-1057.7507 74.362648 1290.3746 4408381
-1051.3882 74.455338 1291.983 4407869
-1047.0149 74.691299 1296.0775 4210490
-1041.0024 74.81295 1298.1886 3947827
-1038.7881 75.211426 1305.103 3750191
0 0 0 0
-1011.8888 74.374886 1290.587 2433557
-1000.7885 74.121025 1286.182 2696727
-988.92822 73.806541 1280.7249 2959899
-979.7041 73.685448 1278.6235 3288092
-972.40167 73.708115 1279.017 3485471
-965.31104 73.747322 1279.6973 3617057
-958.92957 73.841766 1281.3361 3748643
-954.26349 74.070869 1285.3116 3748643
-949.52637 74.298111 1289.2549 3814436
-945.01715 74.547043 1293.5743 3749413
-944.75494 75.137817 1303.8258 3289121
-944.15057 75.710938 1313.7708 2960157
-940.49017 76.046501 1319.5936 2565400
-938.2121 76.500427 1327.4703 2236697
-938.13812 77.143303 1338.6259 1513748
-945.95276 78.451408 1361.3247 7172460
-932.69482 78.019386 1353.828 7502968
-923.74304 77.943176 1352.5056 7569278
-911.81519 77.612312 1346.7644 7700867
-901.83069 77.442467 1343.8171 7832708
-891.32275 77.224236 1340.0303 7832964
-882.77008 77.173004 1339.1412 7700602
0 0 0 0
0 0 0 0
-863.02954 77.545303 1345.6016 2565917
-848.43073 76.946815 1335.2163 3158052
-836.62738 76.592941 1329.0757 3355685
-827.00385 76.433784 1326.314 3618088
-817.96863 76.326462 1324.4517 3815465
-810.22668 76.338898 1324.6675 4078637
-802.27448 76.331581 1324.5405 4144430
-795.7984 76.465958 1326.8722 4407602
-790.56189 76.72332 1331.3381 4539188
-785.36804 76.990067 1335.9668 4474165
-781.06537 77.350517 1342.2216 4408372
-776.26489 77.66861 1347.7412 4276788
-772.28259 78.07605 1354.8113 4210995
-769.8656 78.651993 1364.8053 4013361
-767.99799 79.296928 1375.9966 2236951
-843.95721 88.078003 1528.3699 1052678
-829.9408 87.557892 1519.3446 1118473
-838.50714 89.43499 1551.9169 1315598
-835.68408 90.125557 1563.8999 1381645
-829.45612 90.460327 1569.7089 1315852
-823.73566 90.858688 1576.6215 1381645
-824.77881 92.020836 1596.7876 1579024
-822.05487 92.784859 1610.0453 1052937
-822.89551 93.973976 1630.6793 329216
-848.62189 98.06723 1701.7074 460802
-866.93085 101.39176 1759.3961 526595
-874.67114 103.54635 1796.7834 789767
-875.40771 104.91482 1820.53 1381901
-878.20831 106.56803 1849.2173 1513488
-870.698 106.9961 1856.6454 2763809
-879.52258 109.46825 1899.5432 2697759
-885.78638 111.68185 1937.9546 2434331
-895.20105 114.35631 1984.3629 0
-890.96564 115.33517 2001.3486 526339
-881.11938 115.60439 2006.0201 394496
-886.63751 117.92449 2046.2797 262912
-883.43268 119.13284 2067.2473 329217
-883.04559 120.76061 2095.4934 921611
-880.20465 122.0946 2118.6414 1711126
0 0 0 0
0 0 0 0
0 0 0 0
-3356.8528 493.90512 8570.4678 0
-3285.2883 490.82562 8517.0303 65536
-3254.5066 493.83807 8569.3037 131072
-3229.2808 497.80283 8638.1025 131072
-3170.2336 496.59784 8617.1924 196608
-3135.1672 499.17126 8661.8486 196608
-3115.9236 504.39209 8752.4424 723205
-3054.0137 502.7663 8724.2305 196864
-2981.9185 499.37857 8665.4453 131072
-2945.9277 502.02451 8711.3584 197120
-2889.8662 501.28345 8698.5 131072
-2853.365 503.97037 8745.124 591877
-2806.8101 504.94818 8762.0918 591877
-2763.3477 506.52997 8789.5391 262914
-2689.2273 502.44464 8718.6494 986636
-2638.1897 502.59622 8721.2793 986892
-2657.8394 516.4903 8962.376 3618612
-2466.3003 489.07361 8486.6289 197378
-2435.6772 493.08829 8556.293 2697508
-2392.3052 494.63809 8583.1865 131072
-2417.6946 510.78265 8863.334 0
-2390.2073 516.22656 8957.7988 3421230
-2339.6506 516.82263 8968.1426 3882552
-2293.2236 518.38 8995.167 4738632
-2305.3867 533.57214 9258.7881 2238242
-2197.9285 521.14447 9043.1367 658694
-2203.8491 535.65051 9294.8525 5329484
-2171.1736 541.28064 9392.5488 591621
-2067.6187 529.07098 9180.6816 65536
-2061.8501 541.89978 9403.292 2696995
-1973.0139 533.00305 9248.9131 65792
-1979.4514 550.07202 9545.1016 3882294
-1891.7706 541.22198 9391.5312 6448222
-1832.4221 540.18579 9373.5508 2369570
-1777.1483 540.32349 9375.9395 6844263
-1659.8495 521.0014 9040.6543 8291453
-1575.9835 511.23126 8871.1191 3750966
-1540.6593 517.07629 8972.5439 2237215
-1472.788 512.02527 8884.8965 3553329
-1417.1589 511.01294 8867.3301 197634
-1390.8976 520.9212 9039.2627 9277320
-1350.2458 526.01971 9127.7344 6843492
-1294.4918 525.41547 9117.249 1381650
0 0 0 0
0 0 0 0
0 0 0 0
0 0 0 0
-703.71851 361.26312 6268.8032 196608
-702.04486 380.55817 6603.6191 196608
-687.87909 394.96628 6853.6353 131328
-608.21545 371.21329 6441.4629 65792
-523.91595 341.24869 5921.5034 723979
0 0 0 0
0 0 0 0
-717.35522 585.21173 10154.861 9673876
-591.74622 527.10114 9146.5 2105887
-555.62189 545.00482 9457.1729 65792
-493.51266 538.58197 9345.7207 394240
-436.90314 537.29279 9323.3496 657408
-386.40472 544.23621 9443.8359 723200
-333.53598 549.63434 9537.5068 591360
-277.92758 551.80438 9575.1621 722944
-220.78311 551.25708 9565.665 393984
-167.26582 562.52844 9761.251 459776
-109.66674 564.75574 9799.8994 459776
-51.211937 562.63031 9763.0186 327680
6.8554196 564.7121 9799.1426 327680
65.531746 568.35016 9862.2725 393216
125.81384 575.90265 9993.3262 589824
184.17273 572.63049 9936.5469 720896
241.87337 569.39807 9880.4561 786432
302.69455 573.33966 9948.8516 720896
362.08203 573.72089 9955.4668 589824
417.55905 568.66937 9867.8105 525827
481.78671 575.31177 9983.0723 3553583
547.52808 582.10638 10100.977 8358271
601.61157 576.38885 10001.763 8555652
660.73523 576.0943 9996.6514 7896696
729.11194 583.25037 10120.827 8224890
765.50208 565.67834 9815.9102 657926
859.92578 590.44287 10245.635 394754
992.31342 636.27362 11040.911 2894632
1006.4776 605.31555 10503.712 855050
1011.8618 573.00256 9943.002 196608
1080.4674 578.08185 10031.141 328193
1133.9574 574.96552 9977.0645 196608
1187.4844 572.17676 9928.6729 196608
1245.926 571.90814 9924.0117 196608
1298.2273 568.97266 9873.0732 196608
1352.36 567.05908 9839.8682 196608
1406.621 565.35571 9810.3105 196608
1459.7173 563.33844 9775.3066 196608
1514.2294 562.00122 9752.1025 196608
1569.5338 561.04578 9735.5234 196608
1625.99 560.55542 9727.0137 196608
1679.874 559.24249 9704.2314 196608
1732.4102 557.58289 9675.4326 196608
1785.4865 556.19812 9651.4043 196608
1841.2195 555.70154 9642.7871 196608
1894.1123 554.40356 9620.2637 196608
1946.4269 553.0174 9596.2109 262144
2003.2788 552.96259 9595.2598 262144
2051.115 550.49115 9552.374 262144
2102.7449 549.14362 9528.9912 196608
2154.3149 547.85156 9506.5703 196608
2205.949 546.64142 9485.5723 196608
2254.2788 544.69324 9451.7666 196608
2302.1599 542.73407 9417.7695 65536
2355.509 542.12634 9407.2236 65536
2415.8613 543.12122 9424.4883 1249809
2518.1108 553.27667 9600.71 591877
2520.2512 541.47357 9395.8965 0
2624.5007 551.64459 9572.3896 131072
2700.6245 555.59778 9640.9863 0
2779.3904 559.91876 9715.9668 0
2855.0073 563.44244 9777.1113 8883591
2948.269 570.23822 9895.0342 10001816
3027.4673 574.1012 9962.0674 921358
3113.3777 579.06439 10048.19 0
3173.1443 579.06976 10048.283 2698280
3250.2209 582.17542 10102.174 1777692
3420.4514 601.55127 10438.393 7107949
3391.1877 585.77698 10164.67 7042416
3578.1636 607.25317 10537.335 66819
3624.7285 604.57111 10490.794 2041121
3709.8821 608.30713 10555.623 4278853
3961.4639 638.75403 11083.952 7831932
3943.5859 625.46729 10853.395 7568502
3811.3894 594.76892 10320.702 3422001
3806.6226 584.61365 10144.483 1776918
3958.7014 598.48755 10385.229 394752
4006.5056 596.41284 10349.229 256
4044.6248 592.98102 10289.678 1579539
3953.8647 571.03802 9908.9131 4210745
4084.9629 581.31085 10087.172 2960165
4138.25 580.37372 10070.91 591621
4154.1631 574.29651 9965.4551 196608
4248.3711 579.06195 10048.147 327680
4252.9878 571.65308 9919.585 393473
4329.0674 573.92096 9958.9395 458752
4395.5034 574.86646 9975.3457 458752
4405.4419 568.49609 9864.8037 458752
4427.2471 563.80426 9783.3896 458752
4516.4834 567.71008 9851.165 458752
4564.4883 566.3996 9828.4248 458752
4625.5879 566.7265 9834.0977 524288
4656.0454 563.33795 9775.2979 524288
4692.3784 560.73499 9730.1299 524288
4712.5112 556.28314 9652.8789 524288
4754.0835 554.43872 9620.874 458752
4941.5112 569.44617 9881.29 262144
5327.2051 606.68018 10527.392 3814704
4963.7134 558.7204 9695.1719 3683375
5355.8486 595.93939 10341.014 460036
5295.688 582.55835 10108.819 262144
5418.375 589.36639 10226.955 196608
5468.1255 588.1778 10206.33 196608
5470.6621 581.99249 10099 131072
5480.1978 576.67798 10006.78 0
4783.7861 497.98898 8641.333 0
5610.4927 577.84308 10026.997 0
5634.5146 574.21619 9964.0615 65536
5657.8716 570.5976 9901.2705 65536
5694.7886 568.40704 9863.2588 65536
5669.3535 560.10107 9719.1299 0
5688.4194 556.31482 9653.4287 0
5568.1001 539.10883 9354.8623 2237214
5381.9517 515.9325 8952.6963 132096
5391.3936 511.7764 8880.5781 1645589
5255.6221 494.05026 8572.9863 4342590
5160.6387 480.46207 8337.1973 592389
0 0 0 0
0 0 0 0
0 0 0 0
0 0 0 0
0 0 0 0
0 0 0 0
0 0 0 0
0 0 0 0
0 0 0 0
1383.293 117.50095 2038.9303 196608
1397.8389 117.70508 2042.4724 196608
1410.6339 117.75955 2043.4175 196608
1410.0465 116.70544 2025.1262 196608
1380.6584 113.30564 1966.1312 196608
1376.863 112.04556 1944.2657 196608
1381.3525 111.47506 1934.3662 196608
1386.61 110.97545 1925.6968 196608
1381.3473 109.64895 1902.6787 196608
1375.1367 108.26936 1878.7395 526084
1370.0526 106.99999 1856.7128 1446669
1347.9958 104.43595 1812.2203 1578255
1339.3955 102.94685 1786.3806 1775633
1331.4279 101.5294 1761.7845 1907219
1331.6901 100.75677 1748.3776 1841426
1336.9952 100.3747 1741.7478 1380877
1344.9008 100.19225 1738.5815 986119
1350.0809 99.811058 1731.9672 986119
1351.7922 99.181145 1721.0366 854533
1356.7421 98.796539 1714.3627 591361
1348.8083 97.486465 1691.6299 525569
1350.0482 96.853935 1680.6537 525313
1351.6461 96.256172 1670.2811 459520
1347.9152 95.290421 1653.5229 459520
1341.2045 94.129524 1633.3785 196608
1335.9829 93.089073 1615.3241 196608
1336.4779 92.458946 1604.39 262400
1327.9043 91.214836 1582.8016 328192
1312.0997 89.495018 1552.9585 1446670
1314.595 89.038696 1545.0402 1315084
1311.6189 88.220703 1530.8461 1183498
1303.6698 87.081802 1511.0833 1183498
1304.2676 86.52549 1501.4298 1051912
1300.4713 85.687218 1486.8838 986119
1297.7333 84.92952 1473.7358 986119
1301.8242 84.625908 1468.4674 986119
1303.6731 84.181572 1460.7571 986119
1298.6633 83.303154 1445.5144 986119
1277.8663 81.430275 1413.0154 920324
1291.9855 81.792297 1419.2974 986117
1284.7688 80.807678 1402.2118 854531
1233.0347 77.053802 1337.0729 854788
0 0 0 0
1216.6516 75.062202 1302.5137 2828320
1228.6014 75.320068 1306.9883 2762526
1233.9257 75.171059 1304.4026 2762526
1241.0559 75.133255 1303.7466 2959905
1248.2863 75.101936 1303.2031 3091234
1255.8318 75.089851 1302.9934 3157027
1261.9833 74.995064 1301.3486 3485992
0 0 0 0
0 0 0 0
0 0 0 0
0 0 0 0
0 0 0 0
0 0 0 0
0 0 0 0
0 0 0 0
0 0 0 0
0 0 0 0
0 0 0 0
0 0 0 0
0 0 0 0
0 0 0 0
0 0 0 0
0 0 0 0
0 0 0 0
-1059.5175 81.579407 1283.2233 2895401
-1057.4767 82.012802 1290.0404 3092523
-1050.4855 82.065788 1290.8739 3421487
-1045.3046 82.262001 1293.9603 3553074
-1050.7003 83.299667 1310.2825 3618608
-1043.2578 83.327393 1310.7186 3618607
0 0 0 0
-1012.7852 82.120232 1291.7302 2499607
-1000.8882 81.77565 1286.3101 2696727
-991.0387 81.59433 1283.458 2894106
-980.70868 81.370338 1279.9346 3222299
-972.96375 81.358994 1279.7562 3419421
-965.26459 81.351334 1279.6357 3682849
-959.12964 81.476425 1281.6034 3748643
-954.38007 81.722153 1285.4686 3814436
-949.66394 81.974731 1289.4417 3946022
-945.23206 82.256157 1293.8684 3683620
-943.42212 82.772247 1301.9863 3420193
-941.2215 83.262314 1309.6949 3157279
-942.07135 84.032661 1321.8123 2565400
-939.79004 84.534302 1329.703 2236440
-935.75916 84.885757 1335.2313 2039577
-948.92273 86.81633 1365.5988 3816504
-930.30847 85.847801 1350.364 6976113
-920.84247 85.713951 1348.2587 6515821
-887.14136 83.302101 1310.3208 4870484
-872.86926 82.688042 1300.6617 3620414
-869.36304 83.09198 1307.0156 2895919
-853.0943 82.272392 1294.1238 1974299
0 0 0 0
0 0 0 0
-862.89465 85.531662 1345.3912 2500381
-847.53107 84.794792 1333.8004 3026466
-835.93024 84.424004 1327.9681 3289892
-826.20795 84.237694 1325.0375 3749674
-817.74207 84.177132 1324.0847 3618087
-809.73193 84.16275 1323.8586 4078637
-801.84717 84.161255 1323.8351 4144430
-795.73358 84.347458 1326.764 4407602
-789.91382 84.568863 1330.2467 4473395
-785.09344 84.902824 1335.4998 4408372
-780.51581 85.270119 1341.2772 4474165
-776.12549 85.665672 1347.4991 4013616
-771.54437 86.048203 1353.5162 4079409
-770.02271 86.7836 1365.0839 4013361
-763.88873 87.009308 1368.6342 2697501
-771.01373 88.766373 1396.2723 526336
-831.40741 96.761223 1522.0294 526082
-830.9541 97.772575 1537.9376 657667
-829.73877 98.715767 1552.7739 789254
-828.09375 99.628479 1567.1306 920840
-823.26465 100.17454 1575.72 1052680
-832.75824 102.496 1612.236 789508
-851.93445 106.07715 1668.5664 328960
-865.85193 109.08016 1715.8031 394753
-869.37128 110.82923 1743.3154 526081
-877.76904 113.24989 1781.3918 526082
-869.54852 113.55941 1786.2605 723462
-872.64838 115.37325 1814.7916 1316109
-868.02002 116.19794 1827.764 1513488
-869.54828 117.87818 1854.1937 2894882
-879.52216 120.76117 1899.5425 2829089
-879.935 122.38931 1925.1527 2763296
-892.65295 125.79444 1978.7145 263170
-895.85736 127.93195 2012.3368 256
-893.48425 129.32002 2034.1709 789254
-892.38995 130.93384 2059.5559 460290
-891.06219 132.55782 2085.1006 394497
-891.216 134.45114 2114.8821 723462
-892.20892 136.52704 2147.5354 1513491
0 0 0 0
0 0 0 0
0 0 0 0
-3293.0049 534.49408 8407.4551 8818315
-3431.2241 565.51239 8895.3652 1185556
-3391.5481 567.72333 8930.1426 6910830
-3278.8811 557.59198 8770.7793 5462099
-3198.1167 552.64612 8692.9824 593161
-3163.3076 555.6095 8739.5957 1776920
-3116.0042 556.44061 8752.6689 789770
-3005.1582 545.76013 8584.668 6316380
-2992.6404 552.87628 8696.6035 3224366
-2935.488 551.85175 8680.4873 329217
-2881.2434 551.34686 8672.5459 987147
-2817.8108 549.03339 8636.1553 0
-2758.9771 547.54675 8612.7705 329218
-2721.7959 550.38226 8657.373 2302494
-2671.0977 550.54108 8659.8711 591878
-2628.6008 552.42981 8689.5801 131328
-2556.3242 548.01025 8620.0615 0
-2513.1562 549.77765 8647.8623 0
-2457.6814 548.87036 8633.5908 460290
-2427.708 553.74109 8710.2061 131586
-2403.4668 560.1601 8811.1748 256
-2335.4656 556.43896 8752.6436 3618611
-2266.6794 552.35706 8688.4355 3290161
-2204.7021 549.78265 8647.9414 723721
-2199.5542 561.59509 8833.748 256
-2224.6265 581.89008 9152.9824 591877
-2203.7295 590.8772 9294.3477 0
-2090.7678 575.00684 9044.7109 1842713
-2093.6047 590.98645 9296.0664 7238254
-1997.432 579.1261 9109.5059 6777187
-1918.9169 571.867 8995.3223 723978
-1930.6154 591.84741 9309.6094 395013
-1874.8097 591.70258 9307.3301 4079674
-1837.174 597.4577 9397.8574 9541522
-1823.395 611.57568 9619.9297 7765369
-1768.7515 612.45795 9633.8066 7305074
-1734.7167 620.77411 9764.6182 6646631
-1662.5148 615.5351 9682.21 4014654
-1583.6346 607.35895 9553.6016 2302754
-1490.1685 592.77246 9324.1592 395270
-1481.3268 612.02203 9626.9502 3684662
-1406.8324 604.60376 9510.2627 526344
-1247.1499 558.42072 8783.8154 921615
0 0 0 0
0 0 0 0
-733.25598 375.48813 5906.3325 65792
-700.73499 376.8826 5928.2671 65792
-666.84399 377.6489 5940.3208 65792
-605.3855 362.01578 5694.4155 0
-605.93488 383.80722 6037.1895 256
-563.96899 379.71747 5972.8589 256
-498.36874 358.09598 5632.7583 1776923
0 0 0 0
0 0 0 0
-679.39099 611.41742 9617.4404 7305072
-573.55768 563.60504 8865.3633 460806
-561.97357 608.10175 9565.2852 256
-501.62317 603.90747 9499.3105 1579028
-452.04691 613.26569 9646.5127 987147
-395.57166 614.6239 9667.8779 2039835
-337.9108 614.2887 9662.6045 987148
-283.11142 620.0835 9753.7559 329218
-226.35034 623.46027 9806.8711 1118734
-168.71599 625.94025 9845.8799 2566694
-111.71217 634.63715 9982.6797 5791832
-51.220718 620.77881 9764.6924 7306354
6.8228116 620.00574 9752.5322 7437939
64.841728 620.38055 9758.4277 5068364
123.53853 623.82446 9812.5996 6712418
179.79298 616.68188 9700.249 2631970
240.01875 623.32202 9804.6963 394242
296.93988 620.46204 9759.709 591621
349.95837 611.71533 9622.126 723720
411.65997 618.4718 9728.4033 5791062
475.82501 626.80865 9859.541 4214089
561.38068 658.40442 10356.533 7635842
616.04785 651.10809 10241.765 8359823
678.44525 652.55963 10264.597 8622735
726.76776 641.35095 10088.287 8424071
772.01251 629.34222 9899.3926 1908508
843.95508 639.25714 10055.352 262912
919.70026 650.55005 10232.986 460544
960.77142 637.43671 10026.717 131072
1022.4254 638.71381 10046.805 196864
1076.7277 635.51068 9996.4209 722688
1122.0153 627.60022 9871.9912 196608
1183.2883 628.97327 9893.5889 262144
1240.0227 627.91803 9876.9902 262144
1294.4462 625.84088 9844.3174 196608
1347.4252 623.27533 9803.9619 196608
1401.5869 621.4469 9775.2012 196608
1458.5115 620.94031 9767.2324 196608
1512.61 619.31537 9741.6729 196608
1568.2772 618.42896 9727.7295 196608
1624.5409 617.8324 9718.3457 196608
1675.9629 615.49872 9681.6377 196608
1725.5273 612.6604 9636.9922 196608
1778.6653 611.2326 9614.5322 196608
1833.259 610.37842 9601.0967 262144
1885.5251 608.82422 9576.6494 262144
1937.8671 607.38489 9554.0098 262144
1993.4583 607.01697 9548.2217 262144
2044.0211 605.1806 9519.3369 262144
2095.0994 603.5918 9494.3447 262144
2142.5779 601.07629 9454.7773 196608
2192.0933 599.24634 9425.9922 196608
2245.6418 598.5827 9415.5537 196608
2297.2959 597.45856 9397.8711 196608
2353.8318 597.62732 9400.5254 196608
2411.1655 597.98608 9406.1689 196608
2469.8289 598.65088 9416.626 262144
2522.1777 597.78967 9403.0791 0
2598.9641 602.63214 9479.25 0
2737.8755 621.36853 9773.9688 8226434
2841.2898 631.43738 9932.3496 7240310
2843.0771 618.97095 9736.2549 8425356
2914.6404 621.88983 9782.1689 9083031
2956.7158 618.52594 9729.2549 8820117
3082.4412 632.45435 9948.3457 9280922
3067.7158 617.58325 9714.4268 9741215
3168.6169 626.10913 9848.5371 9016721
3213.9836 623.55127 9808.3027 8621450
3489.8037 664.99866 10460.259 8490120
3620.1787 677.76465 10661.065 6187363
3701.4106 681.04913 10712.729 5332312
3658.3396 661.73798 10408.97 5135445
3964.1726 705.13104 11091.531 8687754
4025.052 704.24548 11077.603 9279892
3977.6777 684.75287 10770.987 9740699
3858.8921 653.77917 10283.779 7503480
4024.7026 671.23639 10558.377 8358020
3892.563 639.22858 10054.902 6977135
3939.5066 637.15289 10022.253 3884607
4164.2373 663.46497 10436.135 9476750
4197.0059 658.86914 10363.844 2369053
4273.3105 661.14203 10399.596 7040095
4191.3833 639.21844 10054.743 66048
4299.9775 646.55884 10170.206 1315340
4291.2241 636.29553 10008.767 1446673
4238.0698 619.81946 9749.6016 327680
4400.2803 634.85999 9986.1855 393216
4430.4233 630.69952 9920.7422 458752
4446.7876 624.71271 9826.5713 262144
4505.1875 624.70984 9826.5264 393216
4560.8491 624.33234 9820.5879 393216
4625.1953 625.13818 9833.2637 458752
4675.5654 624.05835 9816.2793 458752
4735.6567 624.2868 9819.8721 524288
4771.4609 621.34692 9773.6289 524288
4841.7598 622.91577 9798.3057 524288
4879.6045 620.32141 9757.498 393216
4963.519 623.57593 9808.6904 327680
4906.2598 609.22498 9582.9531 262144
5097.7427 625.7359 9842.666 196608
5251.917 637.34448 10025.267 262144
5309.0234 637.04517 10020.558 262144
5338.9233 633.52411 9965.1729 262144
5399.2192 633.64752 9967.1143 196608
5391.6294 625.88782 9845.0557 0
5414.7671 621.82343 9781.124 65536
5469.8394 621.47382 9775.624 65536
5909.5044 664.3689 10450.353 65536
5559.1167 618.47467 9728.4492 65536
6271.5825 690.55499 10862.254 0
5528.873 602.57184 9478.3008 0
5412.8735 583.97766 9185.8193 789769
5312.9331 567.47009 8926.1602 1711127
5373.1484 568.22614 8938.0518 3224878
5388.6333 564.2832 8876.0312 2500129
5358.5981 555.69629 8740.9609 1908250
0 0 0 0
0 0 0 0
0 0 0 0
0 0 0 0
0 0 0 0
0 0 0 0
0 0 0 0
0 0 0 0
0 0 0 0
1396.8939 132.05426 2077.1797 196608
0 0 0 0
0 0 0 0
1394.0989 128.3851 2019.4651 196608
1395.5189 127.41856 2004.2616 196608
1385.2404 125.40929 1972.656 196608
1383.0834 124.16283 1953.0496 196608
1386.2426 123.41039 1941.214 196608
1389.1101 122.64465 1929.1689 196608
1385.2231 121.29996 1908.0173 196608
1376.8005 119.58318 1881.0128 591877
1369.3696 117.97948 1855.7871 1578254
1347.2782 115.14843 1811.2555 1775633
1340.6394 113.67252 1788.0397 1841426
1340.7368 112.78648 1774.1024 1841426
1338.8016 111.74461 1757.7142 1907219
1344.5284 111.35346 1751.5615 1380877
1344.229 110.47307 1737.7131 986119
1353.1683 110.35957 1735.9279 854533
1353.8154 109.57664 1723.6125 854533
1355.9229 108.92277 1713.3274 525568
1354.7443 108.01666 1699.0745 525313
1355.8888 107.30782 1687.9246 525313
1355.6879 106.50368 1675.2758 591106
1352.7169 105.49525 1659.4133 459520
1351.8258 104.66245 1646.3136 196608
1339.7367 102.98087 1619.8628 196608
1332.137 101.66592 1599.179 196864
1329.8213 100.77001 1585.0865 393985
1311.5026 98.682571 1552.2517 1644049
1317.2982 98.426086 1548.2173 1380877
1317.7526 97.776863 1538.005 1315083
1311.8616 96.668976 1520.5784 1315083
1311.7817 96.001556 1510.08 1249035
1303.7678 94.76651 1490.653 1249291
1299.4452 93.814621 1475.6801 1183498
1297.7493 93.063873 1463.871 1183498
1300.2954 92.625298 1456.9723 1183498
1305.6776 92.393219 1453.3218 1117705
1300.234 91.403168 1437.7485 986117
1294.7927 90.426224 1422.3813 788995
1286.9878 89.297943 1404.6338 789250
1281.1375 88.318947 1389.2345 2762783
0 0 0 0
1208.9402 82.280937 1294.2581 2762528
1232.4097 83.347794 1311.0396 2762525
1236.7611 83.116425 1307.4001 2828318
1242.946 83.010384 1305.7322 2893855
1250.9829 83.028572 1306.0183 3091234
1257.6539 82.956459 1304.8839 3354406
1296.1101 84.968956 1336.54 3420198
0 0 0 0
0 0 0 0
0 0 0 0
0 0 0 0
0 0 0 0
0 0 0 0
0 0 0 0
0 0 0 0
0 0 0 0
0 0 0 0
0 0 0 0
0 0 0 0
0 0 0 0
0 0 0 0
0 0 0 0
0 0 0 0
0 0 0 0
-1060.9203 89.326416 1284.9224 3289902
-1056.3346 89.58535 1288.6471 3487281
-1057.2196 90.31543 1299.1489 3618866
-1050.8455 90.431549 1300.8193 3750452
-1046.3022 90.708122 1304.7977 3750450
-1043.9053 91.1763 1311.5322 3815727
0 0 0 0
-1010.7958 89.623314 1289.1931 2630936
-1001.1247 89.444016 1286.614 2959385
-991.54895 89.270554 1284.1189 3156764
-981.10901 89.015991 1280.457 3222299
-973.36926 89.004341 1280.2896 3353885
-965.83264 89.011238 1280.3888 3551264
-959.29932 89.11145 1281.8302 3748643
-954.44635 89.370598 1285.558 3749156
-949.42163 89.617714 1289.1127 3815206
-945.31116 89.955864 1293.9768 3749413
-942.70361 90.443748 1300.9948 3486754
-938.64197 90.799049 1306.1056 3223328
-940.51416 91.739067 1319.6273 2828571
-936.93073 92.158272 1325.6575 2433304
-933.47711 92.597458 1331.975 2105369
-932.89362 93.331314 1342.5312 920844
-911.03735 91.931236 1322.3916 131073
-908.11743 92.43425 1329.6273 196611
-892.01208 91.592209 1317.5149 196613
-884.42316 91.617462 1317.8782 196612
-875.07025 91.458809 1315.5959 196611
-867.4068 91.475464 1315.8356 196608
-853.08887 90.784264 1305.8929 131072
-898.31 96.474602 1387.746 2499356
0 0 0 0
-845.74292 92.528725 1330.9862 3223331
-835.83417 92.308304 1327.8156 3420966
-826.32056 92.127731 1325.2181 3553065
-817.68103 92.042076 1323.986 3815468
-810.03802 92.068016 1324.3591 4144430
-802.2276 92.075233 1324.463 4539188
-796.03271 92.269875 1327.2628 4407602
-789.65955 92.44754 1329.8185 4604981
-785.24011 92.85984 1335.7491 4408371
-779.98975 93.18129 1340.3732 4474165
-775.88232 93.647339 1347.077 4079409
-771.63269 94.105751 1353.6711 4210995
-766.87256 94.510918 1359.4993 4144947
-766.17938 95.431274 1372.7383 3223845
-834.68787 105.08365 1511.5835 65792
-842.95642 107.27963 1543.1718 526081
-839.9201 108.06938 1554.532 788998
-833.8269 108.47901 1560.4243 1052680
-837.2923 110.15541 1584.5386 1579024
-831.46332 110.63326 1591.4122 2171161
-843.80701 113.56796 1633.6267 328705
-864.60211 117.72173 1693.3768 460289
-866.6908 119.39635 1717.4656 394496
-869.68536 121.23717 1743.9451 328704
-876.76562 123.69886 1779.3553 591875
-872.16895 124.55311 1791.6434 789254
-873.58594 126.2979 1816.7415 1184265
-868.15332 127.0837 1828.0448 1644817
-851.54022 126.23203 1815.7939 2763296
-882.38867 132.48451 1905.7333 2894882
-877.20544 133.41939 1919.181 2697502
-881.90747 135.90221 1954.8953 592135
-895.22375 139.79652 2010.9135 65792
-897.45526 142.04187 2043.2118 789254
-896.16614 143.78397 2068.271 328962
-895.14374 145.6179 2094.6516 65536
-895.96503 147.80775 2126.1516 394497
-894.41132 149.66286 2152.8364 1184012
0 0 0 0
0 0 0 0
0 0 0 0
0 0 0 0
-3417.9231 615.99896 8860.8828 2829611
-3289.2085 602.08081 8660.6758 2237730
-3157.7837 587.21594 8446.8516 6909287
-3106.5901 587.03156 8444.1982 2040606
-3068.3342 589.32593 8477.2021 512
-3138.4644 612.86194 8815.7578 2303264
-2895.9089 575.10095 8272.582 460547
-2951.4595 596.25903 8576.9316 394754
-2845.7449 585.00934 8415.1094 131072
-2860.0029 598.46136 8608.6113 262144
-2793.3171 595.15747 8561.0859 196608
-2770.72 601.29895 8649.4287 328704
-2733.8367 604.51367 8695.6719 1249291
-2626.1973 591.90509 8514.3018 3683633
-2576.4551 592.10638 8517.1982 920842
-2542.1553 595.93585 8572.2832 263170
-2483.644 594.13019 8546.3096 658182
-2414.9277 589.7569 8483.4014 1908248
-2390.0991 596.14362 8575.2715 657926
-2340.0657 596.38507 8578.7451 66048
-2302.616 599.91577 8629.5322 526342
-2238.3916 596.47266 8580.0049 132097
-2190.2571 597.25647 8591.2803 6120028
-2216.165 618.75037 8900.46 7041386
-2140.7786 612.32263 8808 131840
-2100.2627 615.79657 8857.9707 0
-2066.6804 621.53448 8940.5088 395525
-2150.3191 663.75897 9547.8896 6515302
-2025.8252 642.28503 9238.9961 5527893
-1890.8763 616.20709 8863.876 2698279
-1874.0112 628.21869 9036.6582 329476
-1822.2716 628.9035 9046.5088 5790550
-1823.9001 648.60852 9329.957 4737605
-1810.8044 664.14929 9553.5039 855307
-1768.4419 669.61462 9632.1211 1382164
-1716.2228 671.58875 9660.5176 1448214
-1653.1392 669.30084 9627.6074 3356467
-1590.9236 667.21289 9597.5732 7041387
-1513.3345 658.28241 9469.1113 1120017
-1414.0981 638.88165 9190.04 2765099
-1347.2623 633.14813 9107.5664 9344658
-1216.0244 595.40137 8564.5947 2962736
0 0 0 0
0 0 0 0
-711.9234 398.65622 5734.5 65792
-675.45148 397.25659 5714.3667 65792
-638.6709 395.51755 5689.3516 65792
-602.9516 394.27805 5671.5215 256
-568.06586 393.46906 5659.8843 256
-533.5484 392.82928 5650.6816 256
-487.57059 383.09882 5510.7134 1513752
0 0 0 0
0 0 0 0
-686.8623 675.94659 9723.2041 5001293
-634.35754 681.64233 9805.1348 9344915
-547.89453 648.30896 9325.6475 9542548
-498.6709 656.49518 9443.4033 8818567
-450.35776 668.10925 9610.4668 1514520
-430.79291 731.94342 10528.694 7830646
-369.89929 735.32385 10577.32 9805462
-318.75827 763.44708 10981.861 8819082
-252.23181 759.71753 10928.213 8293251
-177.8302 721.45099 10377.765 8161923
-111.37653 691.90009 9952.6875 8490376
-50.788162 673.09821 9682.2305 7700344
6.7553382 671.28064 9656.0859 5264977
64.919769 679.21179 9770.1719 2829864
122.85397 678.38123 9758.2246 2829093
182.02446 682.72046 9820.6426 328707
228.51694 648.94873 9334.8506 262144
289.22748 660.86218 9506.2207 327680
358.88217 685.97699 9867.4863 196608
420.79605 691.3175 9944.3076 2302239
470.927 678.36902 9758.0488 2698796
543.0918 696.51941 10019.135 5661023
612.68414 708.10883 10185.844 8161928
659.91138 694.0899 9984.1875 8754324
726.2359 700.81354 10080.904 8820372
822.49933 733.20056 10546.777 9017494
857.16669 709.98016 10212.762 9608088
893.263 690.93701 9938.834 2106400
941.13477 682.79999 9821.7871 2368541
1009.857 689.85724 9923.3018 1315592
1047.6144 676.15002 9726.1299 722946
1114.5405 681.7182 9806.2256 196608
1174.8085 682.86267 9822.6885 459520
1214.9695 672.76495 9677.4375 196608
1288.0645 680.99231 9795.7842 196608
1341.4399 678.53333 9760.4121 131072
1398.0887 677.8653 9750.8037 3290162
1458.7822 679.13342 9769.0449 2171168
1519.693 680.40179 9787.29 65536
1570.0406 677.02167 9738.668 196608
1623.9723 675.37244 9714.9443 196608
1678.2009 673.95569 9694.5654 262144
1726.8086 670.45068 9644.1475 262144
1774.0526 666.65851 9589.5986 262144
1826.9119 665.14697 9567.8555 262144
1877.4216 662.89703 9535.4912 262144
1927.0159 660.46521 9500.5107 262144
1985.2395 661.04535 9508.8555 262144
2040.5181 660.63983 9503.0225 262144
2091.1458 658.79102 9476.4277 262144
2140.3413 656.59979 9444.9082 196608
2195.8464 656.40674 9442.1309 196608
2249.533 655.69324 9431.8682 196608
2304.0425 655.24854 9425.4707 131072
2360.1511 655.26886 9425.7637 196608
2415.3601 655.04431 9422.5332 196608
2469.8289 654.63367 9416.626 65536
2528.5361 655.33984 9426.7842 0
2603.0649 660.02698 9494.207 1645850
2764.0342 685.96771 9867.3525 6252641
2755.1846 669.56097 9631.3496 9082254
2848.4141 678.12445 9754.5312 9740187
2930.4314 683.73016 9835.167 10266789
2975.0022 680.55042 9789.4277 10266789
3024.2693 678.54633 9760.5996 10596268
3038.9475 669.0033 9623.3271 9543579
3098.23 669.45074 9629.7637 5003348
3230.77 685.42395 9859.5312 9148050
3341.6606 696.31659 10016.218 2435367
3494.3909 715.39362 10290.632 7173745
3563.9434 717.07843 10314.867 2567466
3788.1165 749.29028 10778.221 2896432
3841.5366 747.21735 10748.402 4937295
3861.4973 738.81042 10627.473 7371893
3855.8401 725.85175 10441.068 3884609
3994.4299 740.02759 10644.981 6450023
3924.6736 715.76404 10295.961 5923935
3855.8225 692.40826 9959.998 3949888
3878.113 685.87817 9866.0654 3422773
4078.8298 710.62878 10222.092 9803922
4113.1484 706.08771 10156.771 7238253
4172.4082 705.89777 10154.038 789510
4159.4727 693.67316 9978.1924 65792
4264.2573 701.14844 10085.722 131328
4411.9004 715.3656 10290.229 2762526
4319.7773 690.84894 9937.5674 328193
4396.8433 693.68665 9978.3867 393216
4408.2563 686.22858 9871.1055 393216
4418.0933 678.72449 9763.1621 590850
4385.2754 664.94702 9564.9795 327680
4568.6396 683.88287 9837.3633 458752
4655.8418 688.12738 9898.4189 458752
4701.2168 686.16101 9870.1338 524288
4750.2832 684.77533 9850.2012 524288
4732.4937 673.90314 9693.8096 524288
4756.8481 669.22168 9626.4688 524288
4813.6187 669.15771 9625.5488 458752
4915.2866 675.26343 9713.376 393216
4897.7188 665.03674 9566.2705 393216
5089.8354 683.19012 9827.3984 196608
5172.793 686.44568 9874.2285 262144
5153.3672 676.19403 9726.7627 196608
5247.8276 680.94763 9795.1416 196608
5301.2236 680.32684 9786.2119 131072
5272.8057 669.33405 9628.085 65536
5380.2012 675.63239 9718.6846 65536
4971.9756 617.73456 8885.8486 65536
5407.5513 664.78857 9562.7002 65536
5638.7188 685.99548 9867.7529 0
5525.8506 665.34204 9570.6621 256
4786.168 570.40692 8205.0605 512
5288.0088 623.85724 8973.9199 2171936
5549.125 648.12366 9322.9824 3028270
5460.8208 631.50232 9083.8916 3291441
5342.8447 611.80884 8800.6094 4277309
5263.8325 596.91577 8586.3789 4276540
0 0 0 0
0 0 0 0
0 0 0 0
0 0 0 0
0 0 0 0
0 0 0 0
0 0 0 0
0 0 0 0
1394.6705 145.45935 2092.3708 196608
0 0 0 0
1393.8329 142.82423 2054.4658 262144
0 0 0 0
1402.8104 141.26831 2032.0845 262144
1389.3503 138.7182 1995.4021 196608
1391.0758 137.71461 1980.9659 196608
1387.7131 136.22838 1959.5872 262144
1389.1346 135.23264 1945.2639 196608
1391.6693 134.36081 1932.723 196608
1389.531 133.0558 1913.951 196608
1377.2441 130.80811 1881.6188 657670
1367.9768 128.88109 1853.8995 1512461
1349.8462 126.15653 1814.7079 1578254
1342.355 124.46165 1790.3278 1775633
1341.0414 123.3617 1774.5055 1907219
1340.0165 122.30528 1759.3093 2038805
1343.6366 121.68591 1750.3998 1315084
1349.8312 121.3074 1744.9552 920326
1355.6222 120.89867 1739.0759 986119
1362.3468 120.57877 1734.4742 788740
1359.9755 119.46467 1718.4482 525568
1359.4126 118.52484 1704.9293 656897
1358.1394 117.53745 1690.7262 591105
1356.9868 116.57494 1676.8809 459521
1354.7993 115.53821 1661.9679 459520
1353.4097 114.58405 1648.2426 262144
1343.0409 112.88884 1623.8579 196864
1341.4812 111.953 1610.3962 262400
1331.8639 110.36275 1587.5212 525569
1311.2633 107.89117 1551.9686 1644050
1315.7014 107.49992 1546.3407 1577998
1315.8081 106.76266 1535.7355 1512205
1308.6774 105.45238 1516.8876 1446412
1305.6979 104.49224 1503.0764 1446412
1300.5464 103.37252 1486.9696 1314827
1301.3732 102.73989 1477.8695 1314826
1301.8259 102.0864 1468.4694 1314571
1298.0963 101.11584 1454.5083 1249291
1297.4835 100.3993 1444.2012 1249291
1287.7374 98.990089 1423.9303 1183495
1293.2668 98.765869 1420.705 920581
1291.7172 98.007454 1409.7954 591618
1295.6573 97.672661 1404.9795 5197125
1284.7222 96.227951 1384.198 3288874
1220.5664 90.840698 1306.7047 2828064
1233.7178 91.238792 1312.4312 2828322
1236.3146 90.856216 1306.928 2893855
1243.0665 90.781883 1305.8588 2893855
1234.6893 89.610451 1289.0081 3025441
1257.3342 90.691063 1304.5522 3354406
1273.3887 91.28598 1313.1099 3617578
0 0 0 0
0 0 0 0
0 0 0 0
0 0 0 0
0 0 0 0
0 0 0 0
0 0 0 0
0 0 0 0
0 0 0 0
0 0 0 0
0 0 0 0
0 0 0 0
0 0 0 0
0 0 0 0
0 0 0 0
0 0 0 0
0 0 0 0
-1049.9185 95.959854 1271.5975 1710871
-1056.2784 97.241318 1288.5786 1316112
-1056.91 98.010284 1298.7686 1184526
-1051.3271 98.210052 1301.4156 921098
-1050.1639 98.82869 1309.6135 855046
-1036.6477 98.285385 1302.4141 920068
0 0 0 0
-1011.8403 97.388222 1290.5253 2762009
-1001.649 97.143921 1287.288 3024921
-992.23853 96.972153 1285.0118 3156506
-981.74683 96.691246 1281.2894 3222299
-973.46161 96.624954 1280.411 3288092
-965.84882 96.624886 1280.4102 3748643
-959.44952 96.7472 1282.0309 3748643
-954.24194 96.992584 1285.2826 3748643
-949.66254 97.306305 1289.4398 3814949
-944.6272 97.578026 1293.0405 3815206
-942.17273 98.123001 1300.2621 3618085
-939.48877 98.652893 1307.2839 3289122
-938.72058 99.394463 1317.1107 2960158
-936.04474 99.944824 1324.4038 2434330
-935.89563 100.7766 1335.426 2105369
-925.46429 100.50597 1331.8396 1250318
-911.37488 99.829948 1322.8816 0
-902.59717 99.729073 1321.5447 65538
-899.86633 100.30041 1329.1156 3
-891.21173 100.21574 1327.9938 2
-875.13098 99.287056 1315.6874 1
-873.49396 99.995071 1325.0696 6053215
-850.53009 98.252327 1301.976 1513235
0 0 0 0
-857.18182 100.85645 1336.484 2763040
-845.48938 100.41145 1330.5873 3289124
-833.9585 99.97744 1324.8359 3684138
-825.73431 99.935326 1324.2778 3619114
-817.08197 99.840103 1323.016 3881260
-809.3443 99.855858 1323.2249 4012846
-802.62811 99.999199 1325.1244 4012846
-795.89874 100.14373 1327.0396 4341808
-789.62677 100.34927 1329.7632 4473138
-783.99664 100.64137 1333.634 4210993
-780.07288 101.16072 1340.5161 4079407
-775.73663 101.63675 1346.8241 4079409
-771.39728 102.1223 1353.2582 4013616
-767.37762 102.66084 1360.3947 4079154
-762.02008 103.02997 1365.2861 3947568
-772.87616 105.62284 1399.6451 460544
-807.64948 111.57631 1478.5366 1184265
-782.79437 109.3325 1448.8031 1710610
-828.26459 116.97036 1550.015 2039573
-856.09973 122.26157 1620.1307 2697760
-849.23303 122.66096 1625.4232 2960934
-849.51227 124.11356 1644.6721 592132
-857.45416 126.73254 1679.3771 394496
-863.63696 129.15018 1711.4141 394496
-866.99384 131.19781 1738.548 394496
-868.29639 132.98022 1762.1674 591875
-865.54749 134.17813 1778.0413 855047
-874.44519 137.23344 1818.5283 1381645
-865.44501 137.52124 1822.342 1710610
-863.74213 138.99059 1841.8129 2894882
-882.10925 143.76874 1905.1298 2829089
-874.90009 144.44849 1914.1372 2697503
-877.88977 146.85217 1945.9894 986889
-895.88049 151.86293 2012.3888 65536
-898.49371 154.36737 2045.5759 65536
-900.96179 156.91525 2079.3389 460546
-901.32312 159.16202 2109.1113 262912
-900.44806 161.25075 2136.79 329217
-898.26428 163.16154 2162.1106 723717
-895.83228 165.08209 2187.5603 1579284
0 0 0 0
0 0 0 0
0 0 0 0
0 0 0 0
-3126.9277 621.32404 8233.3818 790282
-3183.6304 642.65082 8515.9902 1908763
-3123.7432 640.75159 8490.8232 2171677
-3051.6982 636.25525 8431.2402 65536
-2857.4912 605.7135 8026.5215 65792
-2839.9829 612.22601 8112.8208 65792
-2809.5483 616.12885 8164.5391 65792
-2793.949 623.47949 8261.9443 262144
-2759.4768 626.80621 8306.0283 131072
-2846.3652 658.32318 8723.6699 256
-2792.2942 657.80304 8716.7773 131841
-2594.314 622.72028 8251.8838 789769
-2569.6262 628.68274 8330.8945 1907990
-2535.7825 632.59546 8382.7432 65792
-2530.7742 644.00275 8533.9053 131072
-2435.3208 632.3905 8380.0273 131072
-2429.7383 644.1178 8535.4297 65536
-2382.0344 644.94092 8546.3369 65536
-2343.0891 648.22296 8589.8291 65536
-2299.761 650.41174 8618.833 256
-2242.3113 648.61548 8595.0303 512
-2205.6523 652.88959 8651.668 4738632
-2138.3965 648.09467 8588.1289 7041643
-2098.136 651.4469 8632.5508 66818
-2089.8469 665.14301 8814.042 1975069
-2025.8704 661.36383 8763.9629 790026
-1981.0272 663.79626 8796.1963 5724756
-1922.173 661.53864 8766.2793 395014
-1898.6425 671.65094 8900.2812 256
-1840.829 669.86774 8876.6514 256
-1824.9054 683.67267 9059.585 256
-1762.2427 680.27454 9014.5557 1381649
-1673.3234 666.20966 8828.1768 0
-1605.869 660.05652 8746.6396 256
-1566.8965 665.59027 8819.9688 460805
-1533.3036 673.8714 8929.7051 2236960
-1543.1663 702.52979 9309.4678 263428
-1485.1154 701.25244 9292.541 256
-1392.8107 683.07727 9051.6953 329220
-1319.3937 673.0766 8919.1729 8094076
0 0 0 0
0 0 0 0
0 0 0 0
-708.21802 430.49603 5704.6533 256
-673.39484 429.91602 5696.9673 65536
-636.39429 427.81088 5669.0713 65792
-600.12439 425.98895 5644.9282 256
-563.41357 423.61966 5613.5317 256
-530.00989 423.59512 5613.2065 66048
-500.53238 426.91602 5657.2129 395014
0 0 0 0
0 0 0 0
-668.66229 714.30957 9465.5654 6580838
-596.80078 696.12738 9224.627 5593943
-570.63824 732.96429 9712.7656 8291711
-488.36633 697.91113 9248.2637 5725527
-449.72202 724.22058 9596.8994 2106393
-387.2453 714.22003 9464.3789 2763808
-342.58328 739.26178 9796.2158 2171414
-292.71909 761.03644 10084.76 1052937
-223.55524 730.92712 9685.7705 6779245
-168.74095 743.11957 9847.3369 10004898
-110.44128 744.76282 9869.1123 9017749
-51.333736 738.50885 9786.2383 8358536
6.8561182 739.55792 9800.1406 2896176
66.971809 760.60156 10078.997 0
121.50177 728.28967 9650.8203 262144
180.07011 733.14807 9715.2012 458752
239.44212 738.12415 9781.1406 458752
297.99362 739.12042 9794.3428 524288
357.6315 742.0451 9833.0986 458752
423.47501 755.21497 10007.617 196608
495.32748 774.53625 10263.65 65537
555.7525 773.71014 10252.703 395274
575.35791 721.83569 9565.2969 5923683
666.56317 761.0415 10084.826 9477788
724.68286 759.11871 10059.347 10004647
774.02362 748.99396 9925.1807 10399662
825.60071 742.31439 9836.667 10662576
892.26947 749.19006 9927.7793 10925232
959.28436 755.48523 10011.198 8227204
952.71887 706.48181 9361.8369 5067085
1026.5521 719.21631 9530.5869 4211004
1117.1031 741.71863 9828.7725 131584
1166.369 735.93451 9752.125 196864
1227.109 737.59515 9774.1309 262144
1279.7567 734.4613 9732.6035 262144
1289.3223 707.94305 9381.2012 394754
1352.7303 711.96191 9434.4561 526856
1514.5211 765.37964 10142.312 10988196
1473.0697 715.92877 9487.0215 11711408
1560.7698 730.57935 9681.1621 526344
1635.7899 738.46362 9785.6396 0
