# .PCD v0.7 - Point Cloud Data file format
VERSION 0.7
FIELDS x y z rgb
SIZE 4 4 4 4
TYPE F F F U
COUNT 1 1 1 1
WIDTH 1393
HEIGHT 1
VIEWPOINT 0 0 0 1 0 0 0
POINTS 1393
DATA ascii
0 0 0 0
0 0 0 0
0 0 0 0
1482.8875 272.34708 2111.7107 196608
1495.748 272.40286 2112.1431 196608
1501.3806 271.15231 2102.4468 196608
1501.5724 268.94788 2085.3542 196608
1485.5841 263.9053 2046.2554 196608
1468.6531 258.77853 2006.5035 196608
1470.7267 257.056 1993.1476 196608
1465.3226 254.0645 1969.9523 196608
1474.6338 253.65163 1966.7509 591619
1469.8988 250.84813 1945.0133 1446670
1467.6586 248.51088 1926.8907 1446670
1470.651 247.08896 1915.8656 1117705
1438.5796 239.84297 1859.682 262400
1440.9027 238.39813 1848.479 196608
1444.4977 237.18398 1839.0648 196608
1423.2638 231.94185 1798.4187 262144
1425.4069 230.55908 1787.6971 196608
1425.6776 228.89619 1774.8035 196608
1404.8325 223.89244 1736.0056 196864
1390.9932 220.07007 1706.3679 1512207
1386.5862 217.78453 1688.6465 1709842
1381.6036 215.44209 1670.4838 1775633
1370.9117 212.24918 1645.7267 2038806
1372.373 210.96973 1635.8063 1973014
1377.8538 210.32187 1630.783 986119
1386.7369 210.19879 1629.8286 920326
1385.3571 208.53256 1616.9091 920326
1389.5472 207.72197 1610.6238 854533
1392.3464 206.71594 1602.8234 591106
1394.2366 205.58955 1594.0896 525313
1389.5726 203.51843 1578.0308 591106
1391.4218 202.42264 1569.5342 393728
1397.1809 201.90645 1565.5319 262400
1396.064 200.41003 1553.929 131072
1399.442 199.57431 1547.449 525313
1376.0247 194.95317 1511.6178 591106
1370.1539 192.86185 1495.4022 525313
1340.1525 187.42276 1453.2289 788740
1337.8856 185.90724 1441.4779 656897
1344.4589 185.63161 1439.3407 656641
1347.1221 184.82295 1433.0707 656641
1350.0814 184.0649 1427.1929 722435
1357.9832 183.98589 1426.5803 788226
1357.8315 182.82355 1417.5677 854018
1360.1874 182.01106 1411.2679 919811
1369.0939 182.07973 1411.8004 985604
0 0 0 0
0 0 0 0
0 0 0 0
0 0 0 0
0 0 0 0
0 0 0 0
0 0 0 0
0 0 0 0
0 0 0 0
0 0 0 0
0 0 0 0
0 0 0 0
0 0 0 0
0 0 0 0
0 0 0 0
0 0 0 0
0 0 0 0
-1035.2551 169.16156 1253.8383 0
-1032.0319 169.85791 1258.9996 65536
-1026.7843 170.22882 1261.7489 65536
-1020.4183 170.41844 1263.1543 196608
-1004.2601 168.96332 1252.3689 2827551
0 0 0 0
0 0 0 0
-983.02411 169.15266 1253.7723 3090717
-974.12073 168.90134 1251.9094 3090714
-966.59888 168.8875 1251.8069 3090713
-959.18854 168.8931 1251.8484 3485728
-952.10486 168.95674 1252.3202 3486241
-946.00665 169.19766 1254.1058 3683620
-940.41931 169.53448 1256.6024 3683620
-935.5014 169.99837 1260.0408 3749413
-930.73462 170.49742 1263.7397 3881001
-926.83746 171.16518 1268.6892 3683879
-922.88806 171.83418 1273.6479 3552295
-919.70258 172.65767 1279.7517 3290406
-918.62793 173.89447 1288.9189 3026466
-915.42285 174.74539 1295.2261 2302745
-911.09644 175.39488 1300.0402 1513490
-898.90173 174.52782 1293.6133 460803
-903.49457 176.93332 1311.4431 256
-886.52197 175.12073 1298.0081 0
-882.00323 175.75801 1302.7317 395270
-877.94086 176.49834 1308.219 526856
-861.79187 174.80031 1295.6331 1316111
-849.2644 173.81285 1288.314 1052685
-850.55981 175.66219 1302.0214 2631710
-836.89789 174.42807 1292.874 3092259
-825.18658 173.58139 1286.5984 3223845
-817.31323 173.53372 1286.2451 2960673
-809.76593 173.55508 1286.4033 3092259
-802.82404 173.70781 1287.5354 3223845
-796.17261 173.92693 1289.1595 3487017
-789.55756 174.15836 1290.8749 3684651
-783.01514 174.41048 1292.7437 4079409
-777.27704 174.84854 1295.9906 4474166
-771.59229 175.3075 1299.3925 4145202
-766.66803 175.95029 1304.1567 4277045
-763.31049 176.96942 1311.7107 4145459
-759.40076 177.88026 1318.4619 4013874
-756.3877 179.02232 1326.927 4079923
-752.42505 179.96132 1333.887 3882291
-749.11115 181.07718 1342.1577 3421739
-752.49512 183.8535 1362.736 1513742
-822.25659 203.08446 1505.2773 1908243
-829.31281 207.08099 1534.8999 2236953
-825.96606 208.5399 1545.7135 2697503
-831.11786 212.20152 1572.8538 3026724
-826.10663 213.32211 1581.1595 3487532
-824.9201 215.4675 1597.0613 3750704
-821.70447 217.12665 1609.3591 3816497
-815.93091 218.14105 1616.8779 2105625
-829.89465 224.51935 1664.1544 460801
-861.76648 235.95488 1748.9154 460802
-847.30133 234.82755 1740.5594 723462
-848.03595 237.93697 1763.6067 921095
-843.48718 239.62332 1776.1062 1250059
-838.91382 241.34537 1788.87 1776400
-837.89062 244.14604 1809.6289 2171159
-832.53967 245.74217 1821.4596 2960674
-837.92242 250.59042 1857.3951 2763552
-833.35461 252.55258 1871.9388 2566432
-834.90906 256.44833 1900.8146 2368796
-867.38452 270.07895 2001.8455 460802
-888.72723 280.57416 2079.6367 592388
-882.82434 282.64261 2094.9683 1776662
-886.45721 287.86691 2133.6912 1710869
-886.67889 292.11902 2165.2083 0
-883.89221 295.49075 2190.1997 526595
-883.27826 299.70053 2221.4028 263424
-881.45013 303.61984 2250.4531 131840
-877.50677 306.9201 2274.915 723974
-877.3562 311.67108 2310.1296 1645074
0 0 0 0
-2631.0569 964.86133 7151.625 65792
-2640.1455 984.09711 7294.2017 197376
-2762.4575 1046.8833 7759.5776 394752
-2765.5056 1065.8373 7900.0659 5526603
-2701.4685 1059.1445 7850.459 65792
-2634.3401 1050.9833 7789.9673 66048
-2594.6201 1053.6603 7809.8096 394496
-2548.4849 1053.7822 7810.7134 131328
-2531.3201 1066.11 7902.0879 1842697
-2471.405 1060.5586 7860.9399 2895386
-2399.4187 1049.5132 7779.0708 263424
-2358.863 1052.0515 7797.8857 256
-2314.3469 1052.8901 7804.1011 66048
-2269.6038 1053.6576 7809.7896 197376
-2232.6992 1058.172 7843.251 65792
-2176.5681 1053.5724 7809.1582 65792
-2133.8804 1055.4214 7822.8633 65792
-2090.5193 1057.0125 7834.6562 65536
-2047.6902 1058.951 7849.0254 65536
-2002.4613 1059.7101 7854.6514 197377
-1958.939 1061.4301 7867.3999 1250576
-1919.4059 1065.4486 7897.186 6711649
-1880.1735 1069.8397 7929.7329 6186076
-1845.0326 1076.8447 7981.6548 6712165
-1735.3132 1039.5432 7705.1724 8292222
-1692.225 1041.2167 7717.5767 4737862
-1664.051 1052.4156 7800.585 4869704
-1715.3611 1115.9672 8271.6328 3751738
-1617.1089 1083.097 8027.9971 7042413
-1549.0535 1069.0675 7924.0098 5068110
-1502.3813 1069.3785 7926.3149 3883321
-1491.8047 1096.234 8125.3691 526597
-1463.173 1111.1753 8236.1152 856070
-1416.9342 1113.3169 8251.9893 66048
-1364.5457 1110.6068 8231.9023 512
-1323.999 1117.6919 8284.417 132352
-1264.7075 1108.889 8219.1689 658951
-1188.833 1084.2544 8036.5752 330499
-1130.1562 1073.8983 7959.8154 66304
-1097.3656 1088.3097 8066.6338 512
-1049.5676 1088.4746 8067.8555 66048
-988.20068 1073.9093 7959.8965 263680
-939.27795 1072.0825 7946.3569 197377
-890.54669 1070.2926 7933.0898 66816
-645.6803 819.39783 6073.439 4080445
0 0 0 0
-539.4892 770.85016 5713.5996 256
-508.09991 774.78217 5742.7441 256
-468.66467 766.12793 5678.5981 256
-431.49136 760.11475 5634.0278 256
-397.87238 759.87756 5632.27 256
-361.56055 753.98145 5588.5674 256
-321.96518 739.35168 5480.1304 461060
-291.63968 745.11151 5522.8228 395014
0 0 0 0
0 0 0 0
-277.4537 1070.392 7933.8267 8295312
-231.71729 1077.0431 7983.1245 7965322
-188.31059 1100.7386 8158.7583 8425872
-139.26096 1096.4474 8126.9512 8820887
-91.316902 1100.9257 8160.144 8622995
-43.584095 1120.9884 8308.8506 7109755
5.7638726 1111.5488 8238.8838 7570306
54.653103 1109.6864 8225.0791 8557458
102.06537 1093.7552 8106.9971 9215132
148.58969 1081.5808 8016.7593 8622995
197.1967 1086.7979 8055.4282 8031114
0 0 0 0
287.01364 1064.6757 7891.457 9478301
322.71384 1028.9177 7626.416 7240826
357.59167 999.67084 7409.6353 2239273
441.69534 1099.3601 8148.5396 7899271
508.34079 1140.1855 8451.1406 10399661
560.18298 1143.45 8475.3379 10597041
605.10004 1133.2065 8399.4131 9478561
659.4585 1140.8586 8456.1309 9017755
705.64758 1134.2947 8407.4785 8425106
760.21216 1141.1719 8458.4521 9280928
792.76178 1116.1987 8273.3496 6583414
825.07178 1093.8259 8107.52 1712417
911.23206 1141.3735 8459.9463 8162956
951.46582 1129.4302 8371.4219 9018524
990.06909 1116.835 8278.0645 8491923
1042.6375 1120.4396 8304.7832 9149853
1078.0724 1106.1389 8198.7852 9347232
1138.1581 1117.274 8281.3193 8952474
1188.6202 1118.4303 8289.8896 9018267
1236.6405 1117.2885 8281.4258 9807272
1300.0685 1129.6216 8372.8408 9544357
1331.3887 1114.1757 8258.3545 9610148
1409.0172 1137.2035 8429.0381 9150110
1464.9315 1141.726 8462.5596 9544611
1515.6553 1142.0372 8464.8662 10005162
1565.1371 1141.4227 8460.3115 9478817
1654.3362 1168.9095 8664.0459 9346717
1703.595 1167.368 8652.6201 9017752
1730.5052 1151.0515 8531.6807 8886166
1802.874 1165.04 8635.3652 9215131
1834.4849 1152.645 8543.4922 9346717
1880.4512 1149.6948 8521.625 8359822
1939.7577 1154.8413 8559.7715 9149339
1976.7362 1146.7716 8499.958 8294030
2020.0364 1142.6802 8469.6318 9412511
2082.9316 1149.6027 8520.9414 9938855
2143.47 1154.9264 8560.4014 9609890
2153.7942 1133.5747 8402.1416 9412511
2207.1824 1135.3424 8415.2441 9544097
2252.4033 1132.9237 8397.3164 9807525
2291.7195 1127.7045 8358.6309 9873062
2352.3452 1132.9701 8397.6602 10135978
2420.2534 1141.4517 8460.5254 10333357
2487.7412 1149.3932 8519.3896 10398893
2555.928 1157.3347 8578.252 10333100
2599.8215 1154.1805 8554.873 9806756
2675.2683 1164.8864 8634.2256 9938342
2753.0122 1176.1707 8717.8662 9675173
2825.053 1184.6464 8780.6885 9412257
2890.3923 1190.0554 8820.7803 4346195
2925.6204 1183.0948 8769.1885 9083292
3002.1387 1192.7832 8840.999 9675428
3169.4011 1237.5713 9172.9717 9346207
3216.8398 1234.8477 9152.7842 8556948
3226.0259 1217.7748 9026.2383 8359569
3289.5154 1221.4237 9053.2852 9148572
3272.8044 1195.6556 8862.29 9083291
3357.5906 1207.1965 8947.832 10266284
3436.0657 1216.1438 9014.1504 10069928
3466.7056 1208.1459 8954.8682 10596016
3774.4219 1295.4902 9602.2715 6382693
3517.592 1189.3503 8815.5547 131587
3509.2708 1169.1179 8665.5908 10596528
3728.5723 1224.2067 9073.9121 10399405
3767.5906 1219.3756 9038.1035 10529966
3847.1479 1227.6161 9099.1836 10529708
3902.1204 1227.8922 9101.2295 9674654
3864.0762 1199.291 8889.2354 10134693
3948.6909 1209.0176 8961.3301 10989486
3985.8333 1204.1436 8925.2031 10725543
4014.2019 1196.7817 8870.6367 4080190
4074.2737 1198.9402 8886.6357 723978
4035.4333 1172.3091 8689.2432 3684402
4078.1892 1169.7556 8670.3164 3552557
4137.895 1172.0669 8687.4482 920323
4188.2666 1171.71 8684.8027 1512204
4234.9941 1170.3545 8674.7559 1841425
4307.6143 1176.1011 8717.3506 328448
4266.7363 1151.0914 8531.9766 262656
4372.1499 1165.6725 8640.0527 459776
4383.8413 1155.2177 8562.5605 131072
4521.335 1177.7733 8729.7441 196608
4510.7173 1161.673 8610.4072 131072
4635.9736 1180.5337 8750.2051 196608
4696.251 1182.6128 8765.6152 459520
4760.5552 1185.6493 8788.1221 196608
4817.0371 1186.6927 8795.8564 393216
4865.2319 1185.6942 8788.4551 327680
4904.6567 1182.6023 8765.5371 327680
4953.2383 1181.7599 8759.2939 262144
4993.9297 1179.0723 8739.373 262144
5032.2773 1175.8923 8715.8027 262144
5081.0405 1175.1862 8710.5684 262144
5085.4727 1164.3444 8630.209 196608
5160.7422 1169.776 8670.4678 196608
5176.8247 1161.8168 8611.4736 65792
5209.2002 1157.6343 8580.4727 131584
5246.8301 1154.6893 8558.6445 0
5248.3828 1143.9375 8478.9512 256
5267.7144 1137.2285 8429.2236 256
5248.4062 1122.3827 8319.1855 197632
5328.2915 1128.8289 8366.9648 329728
5127.1523 1076.1698 7976.6519 512
0 0 0 0
0 0 0 0
0 0 0 0
0 0 0 0
0 0 0 0
0 0 0 0
0 0 0 0
0 0 0 0
0 0 0 0
1495.7896 287.38025 2130.084 196608
1506.7999 287.06528 2127.7495 196608
1490.8492 281.6619 2087.6992 196608
1489.14 279.01608 2068.0884 196608
1487.2335 276.37701 2048.5273 196608
1478.8262 272.58252 2020.4022 196608
1475.6819 269.81143 1999.8628 196608
1479.9501 268.42914 1989.6171 65536
1470.9851 264.68759 1961.8845 1315084
1464.2843 261.40912 1937.5842 1512462
1471.2316 260.59933 1931.5818 1512463
1465.5515 257.58267 1909.2223 1183498
1440.5845 251.24861 1862.2738 196608
1444.2722 249.9707 1852.8016 196608
1445.7128 248.3261 1840.6118 262144
1440.3116 245.53989 1819.9601 262144
1440.2252 243.69446 1806.2817 262144
1417.3214 238.04411 1764.401 262144
1419.7728 236.70398 1754.4679 196608
1412.6156 233.79318 1732.8927 196608
1407.2594 231.2204 1713.8231 262657
1398.9425 228.20169 1691.4481 986121
1379.7108 223.45827 1656.2896 2104600
1369.6774 220.26126 1632.5931 1841428
1379.3822 220.26108 1632.5918 854533
1389.344 220.30167 1632.8926 854533
1388.0181 218.56427 1620.0148 788740
1389.4158 217.2767 1610.4713 854789
1397.7842 217.08942 1609.0831 788485
1394.9266 215.173 1594.8785 591106
1395.4204 213.79593 1584.6716 459521
1391.2303 211.72452 1569.3182 262400
1392.4955 210.50539 1560.2819 262144
1393.8586 209.31711 1551.4742 393472
1391.1678 207.53966 1538.2997 459521
1374.1451 203.66133 1509.5531 525568
1352.5415 199.15877 1476.1798 393984
1337.1614 195.62476 1449.9855 1446671
1337.8094 194.46588 1441.3959 1380875
1345.6738 194.36411 1440.6414 1051396
1348.2495 193.50452 1434.2701 854018
1351.8722 192.80508 1429.0859 853505
1358.0715 192.47958 1426.6732 656128
1364.0454 192.12634 1424.0549 656128
1362.0073 190.65594 1413.1562 721921
1382.3439 192.31641 1425.4637 722178
0 0 0 0
0 0 0 0
0 0 0 0
0 0 0 0
0 0 0 0
0 0 0 0
0 0 0 0
0 0 0 0
0 0 0 0
0 0 0 0
0 0 0 0
0 0 0 0
0 0 0 0
0 0 0 0
0 0 0 0
0 0 0 0
0 0 0 0
-1035.5623 176.66817 1254.2103 0
-1030.6442 177.10432 1257.3068 65536
-1025.7773 177.55576 1260.5116 196608
-1018.3864 177.57368 1260.6389 131072
-1001.5643 175.93523 1249.0071 2761758
0 0 0 0
-989.85358 176.49515 1252.9821 2958876
-982.6615 176.54134 1253.3099 3024924
-974.31506 176.37923 1252.1592 3090715
-966.34509 176.28333 1251.4783 3156250
-958.8465 176.27257 1251.402 3288349
-951.31274 176.25516 1251.2783 3617827
-946.12744 176.67599 1254.2659 3749413
-940.47137 177.01491 1256.672 3749413
-934.95428 177.38562 1259.3037 3815206
-930.37451 177.94159 1263.2507 3815208
-926.10999 178.5674 1267.6935 3683622
-922.54449 179.33936 1273.1738 3486501
-918.40302 180.0112 1277.9434 3486758
-917.74347 181.38242 1287.678 3092259
-915.41534 182.44415 1295.2155 2434331
-912.7644 183.459 1302.4202 1579282
-905.08044 183.47096 1302.5051 395011
-901.18036 184.25681 1308.084 256
-893.91998 184.3633 1308.84 0
-886.02148 184.33888 1308.6666 263684
-879.6983 184.6447 1310.8378 461062
-868.69025 183.96384 1306.0042 1250318
-847.32251 181.05705 1285.3682 1644818
-851.83105 183.67694 1303.9674 2697502
-835.48175 181.80617 1290.6863 3026722
-825.53931 181.30782 1287.1483 3158051
-817.7796 181.28397 1286.9791 3026466
-810.41797 181.34877 1287.4391 3223845
-803.28998 181.46759 1288.2827 3421224
-795.95105 181.54057 1288.8008 3684651
-789.50415 181.82042 1290.7875 3882030
-783.15375 182.1282 1292.9725 3947823
-776.85968 182.45532 1295.2948 4145202
-771.46753 183.00293 1299.1824 4210995
-765.09039 183.32559 1301.473 4277045
-762.22412 184.5047 1309.8439 4342838
-758.93384 185.60445 1317.6512 3948080
-756.34509 186.9005 1326.8522 3948080
-752.28961 187.8576 1333.6469 4013874
-751.66803 189.70172 1346.7388 3355944
-753.97974 192.3338 1365.4246 1447947
-799.95819 206.28342 1464.4563 1710864
-809.54932 211.05368 1498.3215 1907987
-828.09698 218.29105 1549.7014 2039572
-828.05066 220.73465 1567.0491 2303001
-825.5517 222.57263 1580.0973 2368796
-821.95581 224.15379 1591.3224 2039832
-816.74902 225.32732 1599.6536 1184524
-814.46069 227.34315 1613.9645 263424
-858.54724 242.50615 1721.6102 395009
-861.88196 246.38535 1749.1497 460803
-853.82599 247.06329 1753.9625 920840
-848.51935 248.56335 1764.6119 986632
-845.6449 250.82243 1780.6495 1447438
-838.77332 251.93816 1788.5703 1710608
-842.5614 256.32544 1819.7167 2171159
-836.42163 257.76727 1829.9528 3619118
-836.75568 261.26849 1854.8087 2698016
-834.93359 264.181 1875.4855 2631969
-837.6701 268.63431 1907.1005 526341
-871.3476 283.26846 2010.9918 395009
-884.7287 291.61978 2070.28 592388
-887.85284 296.77826 2106.9011 1447696
-890.40887 301.89169 2143.2026 2500385
-891.16974 306.5361 2176.1746 256
-888.60571 310.15689 2201.8794 855303
-889.95575 315.27249 2238.1963 263424
-885.06067 318.29742 2259.6711 256
-883.70673 322.70877 2290.9883 395009
-879.54095 326.21533 2315.8821 987146
0 0 0 0
0 0 0 0
-2510.1375 976.86664 6935.0146 65792
-2530.7844 1001.3491 7108.8213 196608
-2678.707 1077.8772 7652.1133 196608
-2570.6184 1052.2542 7470.209 196864
-2582.8381 1075.8429 7637.6714 262144
-2551.3772 1081.7559 7679.6484 327680
-2509.0828 1083.2072 7689.9517 327680
-2508.9346 1103.2451 7832.2065 196608
-2466.6584 1105.166 7845.8428 131328
-2375.4045 1084.7938 7701.2158 131328
-2366.2583 1101.8545 7822.3335 5922132
-2311.0779 1097.7336 7793.0781 5199948
-2241.4417 1086.4371 7712.8823 5463380
-2194.4949 1085.8965 7709.0435 2764068
-2139.2192 1081.1232 7675.1567 3289898
-2100.7249 1084.8077 7701.3145 2632482
-2167.387 1144.1689 8122.7339 4013881
-2009.2423 1084.855 7701.6499 986891
-1935.5292 1069.4252 7592.1104 1118221
-1919.9774 1086.1614 7710.9243 395009
-1897.921 1099.9465 7808.7891 1250320
-1829.6885 1086.9904 7716.8096 395522
-1772.946 1080.3695 7669.8066 197377
-1667.9106 1043.1942 7405.8901 256
-1584.8672 1018.1309 7227.9595 256
-1649.203 1088.9867 7730.9819 394752
-1611.4945 1094.5924 7770.7788 460546
-1576.9067 1102.7112 7828.416 131840
-1539.032 1108.9556 7872.7461 263424
-1492.98 1109.5148 7876.7153 768
-1430.9362 1097.8406 7793.8384 768
-1393.199 1104.6578 7842.2354 512
-1368.8816 1122.9561 7972.1387 768
-1317.5504 1119.6113 7948.3936 768
-1267.4188 1117.0751 7930.3882 768
-1222.3439 1118.9719 7943.854 768
-1191.0122 1134.1077 8051.3066 462336
-1128.3052 1119.3838 7946.7783 330240
-1077.8047 1116.0122 7922.8428 593152
-1016.9695 1101.1423 7817.2783 658692
-962.8158 1092.4294 7755.4229 3027491
-926.17261 1103.707 7835.4854 1645583
-868.25769 1089.4874 7734.5371 1580050
-758.15887 1004.5354 7131.4419 526854
0 0 0 0
-532.77521 794.80206 5642.4937 512
-507.49399 807.95874 5735.896 256
-468.30005 799.26544 5674.1802 256
-431.24353 793.15375 5630.792 256
-393.95221 785.54517 5576.7769 66048
-361.08582 786.17236 5581.2295 256
-327.52512 785.26184 5574.7656 66048
-294.3212 785.09814 5573.603 256
0 0 0 0
0 0 0 0
-272.5527 1097.8185 7793.6812 5003092
-226.67447 1100.0312 7809.3901 5661279
-183.13542 1117.6597 7934.5381 6714481
-138.29866 1136.8527 8070.7939 7635584
-90.778763 1142.6648 8112.0562 6056552
-43.41774 1165.9181 8277.1367 6122346
5.8230324 1172.4414 8323.4473 5727586
54.837311 1162.4902 8252.8018 4609105
101.33572 1133.7887 8049.0425 7832451
147.25397 1119.0902 7944.6943 6779763
193.02705 1110.6957 7885.0991 4345422
242.73633 1123.8052 7978.167 6319212
289.11743 1119.7391 7949.3008 7767428
335.38229 1116.4286 7925.7988 7438720
376.16367 1097.9287 7794.4639 6650229
429.6947 1116.6185 7927.1475 8227977
495.38425 1160.0867 8235.7383 2700592
497.88486 1061.0697 7532.793 462604
563.26764 1101.3478 7818.7363 5135705
631.30371 1140.2772 8095.1064 5398877
673.43414 1130.2147 8023.6699 4016452
720.50922 1129.2329 8016.6997 3688258
759.93005 1117.1211 7930.7148 7701378
806.4837 1116.2971 7924.8657 9214874
870.2951 1138.1332 8079.8848 8688530
925.55804 1147.0902 8143.4736 2831668
991.5025 1167.7371 8290.0498 3555391
1015.1273 1138.9467 8085.6602 8096394
1048.2708 1122.9567 7972.1431 8228494
1092.7919 1120.011 7951.231 9018268
1138.6512 1118.6243 7941.3867 8491924
1191.9288 1124.3457 7982.0044 9149855
1260.7906 1143.7667 8119.8789 9084317
1306.6774 1141.6814 8105.0747 9347233
1358.4138 1144.6737 8126.3174 8952732
1432.33 1165.5083 8274.2275 8820373
1457.2773 1146.4358 8138.8276 9215132
1521.5537 1158.535 8224.7227 9609890
1602.4678 1182.1544 8392.4023 9807268
1619.4503 1158.6088 8225.2461 9807267
1672.6532 1161.5969 8246.46 9873061
1716.6659 1158.2146 8222.4473 9675683
1770.1582 1161.2382 8243.9131 9873062
1806.7407 1153.3047 8187.5918 9675683
1851.0635 1150.5988 8168.3813 9741475
1899.9056 1150.7686 8169.5869 9609633
1967.4037 1161.9481 8248.9531 8228236
1955.0691 1126.5813 7997.8755 8096651
2077.2205 1168.5498 8295.8203 9807269
2103.7068 1156.0027 8206.7451 9478304
2160.4763 1160.2882 8237.1689 9741476
2195.4644 1152.9452 8185.0396 10004648
2270.1416 1166.3115 8279.9297 9346462
2277.2668 1145.1414 8129.6377 10070441
2344.2002 1154.301 8194.6641 9675427
2403.6243 1159.4653 8231.3271 9411998
2469.1462 1167.3065 8286.9932 9346462
2495.8376 1156.8425 8212.707 9806756
2622.4355 1192.1992 8463.7129 9609377
2668.969 1190.5112 8451.7295 9872551
2720.4724 1191.0615 8455.6367 9938858
2841.304 1221.3942 8670.9746 10136237
2895.1252 1222.3533 8677.7832 10070187
2921.3506 1211.8313 8603.0859 10070187
2981.8616 1215.649 8630.1895 10135980
3039.7864 1218.3014 8649.0186 9938601
3109.2949 1225.4307 8699.6309 9872808
3193.0625 1237.8545 8787.8311 9740965
3257.4148 1242.4728 8820.6172 9675172
3346.7109 1256.3082 8918.8389 9741221
3380.792 1249.3085 8869.1455 9806244
3399.866 1237.0632 8782.2139 9213850
3406.1106 1220.5911 8665.2734 8951704
3492.8489 1233.0251 8753.5459 8425105
3453.1184 1201.1042 8526.9316 9017242
3564.3748 1221.865 8674.3174 9477537
3646.4531 1232.1743 8747.5059 9674657
3711.7522 1236.6034 8778.9492 9608607
3775.321 1240.3413 8805.4854 10134950
3808.9697 1234.2814 8762.4639 10134951
3933.4827 1257.4319 8926.8154 10266535
3959.0774 1248.7654 8865.29 10529449
3946.4336 1228.4241 8720.8818 10398118
4041.7949 1241.7935 8815.7939 11845305
4147.0615 1257.825 8929.6055 10266015
4120.6382 1234.0138 8760.5645 5263950
4046.6416 1196.7279 8495.8633 2763304
4151.5122 1212.6063 8608.5879 855306
4231.9854 1221.0586 8668.5928 328449
4232.6392 1206.5543 8565.623 262144
4299.6802 1211.0941 8597.8525 2433304
4334.9741 1206.6902 8566.5879 722688
4364.5918 1200.8268 8524.9619 196608
4444.6392 1208.8132 8581.6602 131072
4527.1997 1217.2946 8641.8701 196608
4596.5884 1222.0831 8675.8662 196608
4633.75 1218.2927 8648.957 196608
4677.6621 1216.3406 8635.0986 262400
4738.3379 1218.7428 8652.1523 196608
4740.4707 1206.1974 8563.0889 262656
4838.5781 1218.0793 8647.4424 920326
4886.6812 1217.2556 8641.5947 328449
4980.0527 1227.6079 8715.0879 196608
5001.8784 1220.2924 8663.1523 196608
4975.0894 1201.3861 8528.9336 196608
5001.2886 1195.5281 8487.3457 196608
5021.0029 1188.2526 8435.6943 196608
5071.0986 1188.2396 8435.6025 196864
5080.2109 1178.7178 8368.0049 196608
5085.4639 1168.494 8295.4238 196608
5108.2207 1162.4498 8252.5146 196608
5132.8535 1156.9435 8213.4238 131328
5156.7266 1151.3713 8173.8652 65536
5345.4458 1182.3657 8393.9023 66304
5110.7905 1120.0061 7951.1963 66816
0 0 0 0
0 0 0 0
0 0 0 0
0 0 0 0
0 0 0 0
0 0 0 0
0 0 0 0
0 0 0 0
1493.0315 302.0477 2144.3103 196608
1494.6703 299.81927 2128.49 196608
1514.3142 301.20959 2138.3604 196608
1491.9062 294.28195 2089.1794 262144
1492.7092 292.00934 2073.0454 262144
1483.6473 287.85992 2043.5876 196608
1484.3534 285.65768 2027.9535 196608
1475.0326 281.57687 1998.9829 196608
1489.108 281.99185 2001.9288 1117960
1471.0841 276.36981 1962.0166 1249291
1473.3433 274.61676 1949.5712 1644049
1475.3573 272.84573 1936.9984 1644049
1466.7692 269.15665 1910.8086 1315084
1442.4592 262.66141 1864.6974 262400
1445.173 261.14856 1853.9573 196608
1444.6309 259.07468 1839.2344 196608
1444.9628 257.18756 1825.8372 196608
1446.9861 255.62737 1814.761 196608
1421.2573 249.22382 1769.3007 196608
1413.9878 246.12752 1747.3192 196608
1416.2068 244.71593 1737.298 131328
1400.166 240.19243 1705.1846 1775635
1396.9912 237.92517 1689.0887 986118
1387.548 234.63028 1665.6976 262656
1390.61 233.48177 1657.5439 262657
1391.6989 232.02042 1647.1694 328450
1391.1532 230.3089 1635.0189 328706
1391.55 228.77608 1624.1372 394242
1389.0671 226.7942 1610.0674 394498
1392.9191 225.86668 1603.4825 460035
1396.0476 224.83522 1596.1602 525571
1393.4419 222.90047 1582.4248 459778
1391.7456 221.13614 1569.8994 459777
1392.7734 219.82527 1560.5933 459520
1388.1475 217.64532 1545.1173 459520
1375.6985 214.27553 1521.1942 459520
1373.0784 212.47069 1508.3812 460032
1378.5715 211.93655 1504.5892 394240
1331.6305 203.40025 1443.9879 1907219
1333.4841 202.37869 1436.7357 1578254
1338.448 201.83917 1432.9055 1380618
1344.4631 201.464 1430.2422 1446155
1350.964 201.16592 1428.1259 1446155
1356.791 200.7718 1425.328 1446155
1360.9863 200.14262 1420.8612 1314569
1359.7898 198.73322 1410.8555 1314569
1362.1854 197.86284 1404.6765 1182727
0 0 0 0
0 0 0 0
0 0 0 0
0 0 0 0
0 0 0 0
0 0 0 0
0 0 0 0
0 0 0 0
0 0 0 0
0 0 0 0
0 0 0 0
0 0 0 0
0 0 0 0
0 0 0 0
0 0 0 0
0 0 0 0
0 0 0 0
-1033.3788 183.73633 1251.5658 0
-1038.0984 185.91411 1266.4003 65536
-1024.0045 184.7298 1258.3331 65536
-1018.357 185.06297 1260.6025 131072
0 0 0 0
0 0 0 0
0 0 0 0
-982.02863 183.87387 1252.5027 3090717
-974.17426 183.79686 1251.9781 3090715
-966.56256 183.76482 1251.7599 3025948
-959.25244 183.79005 1251.9318 3288605
-952.7854 183.97847 1253.2152 3354655
-945.703 184.05011 1253.7032 3683620
-939.98529 184.39058 1256.0225 3749413
-935.44147 184.96863 1259.96 3815206
-930.34637 185.44614 1263.2125 3881001
-925.90778 186.06332 1267.4167 3815465
-922.16327 186.83125 1272.6477 3683879
-918.23193 187.57375 1277.7053 3486758
-916.59088 188.80037 1286.0608 3026722
-914.8291 190.02255 1294.386 2500123
-910.42072 190.71106 1299.0759 1776660
-907.21307 191.66505 1305.5742 855560
-901.19928 192.03752 1308.1115 256
-895.5459 192.49396 1311.2206 0
-885.31085 191.96494 1307.6171 132099
-881.74768 192.88606 1313.8915 592648
-867.71417 191.51274 1304.5367 1184524
-853.6662 190.11143 1294.9915 1908247
-843.95258 189.65866 1291.9072 2763040
-834.09161 189.16414 1288.5387 3092259
-825.90094 189.0428 1287.7122 3158052
-818.35144 189.06729 1287.879 3092259
-811.23645 189.1936 1288.7394 3223845
-803.24731 189.1165 1288.2142 3421224
-795.87207 189.18385 1288.673 3618603
-788.57733 189.27185 1289.2723 3881775
-782.52002 189.66145 1291.9263 4145202
-776.68506 190.11324 1295.0037 4276788
-770.89612 190.58542 1298.2201 4408374
-765.7962 191.23923 1302.6737 4145459
-762.47772 192.35583 1310.2797 4145459
-758.14197 193.23619 1316.2765 4145459
-755.58386 194.59273 1325.5168 3882287
-752.77063 195.91145 1334.4996 4013874
-749.99463 197.26807 1343.7406 3553323
-751.35175 199.75273 1360.6654 592389
-810.71088 217.87956 1484.1409 526593
-818.0246 222.26416 1514.0077 526337
-819.45544 225.1301 1533.5297 526337
-813.19263 225.92303 1538.931 658179
-823.08466 231.27325 1575.3755 1447694
-821.54169 233.49663 1590.5205 2368797
-825.39313 237.32281 1616.5835 1645075
-854.61957 248.62111 1693.5447 263424
-860.30615 253.25911 1725.1375 263424
-864.41534 257.539 1754.291 526595
-859.82703 259.30051 1766.29 855048
-851.30408 259.90436 1770.4033 1184268
-846.93665 261.80786 1783.3696 1513231
-838.93518 262.62204 1788.9154 1776402
-834.77765 264.67587 1802.9056 1907987
-834.29767 267.96432 1825.3058 4474171
-834.68512 271.62173 1850.2191 2697506
-839.99585 277.00034 1886.8568 131584
-856.26282 286.1864 1949.4299 394496
-886.86011 300.47983 2046.7933 460033
-885.30939 304.12729 2071.6389 855301
-882.31543 307.37491 2093.7607 1316109
-886.42535 313.22565 2133.6145 2631969
-888.54254 318.53186 2169.7593 2368797
-892.06689 324.50635 2210.4558 0
-891.26117 329.06073 2241.4792 460545
-890.13892 333.6348 2272.6365 131328
-887.88843 337.92044 2301.8293 66048
-883.93213 341.68088 2327.4446 592387
-873.09125 342.85736 2335.4585 1579281
0 0 0 0
0 0 0 0
-2568.2908 1059.0781 7214.1748 65792
-2470.3223 1035.9794 7056.8315 65536
-2503.7766 1068.1495 7275.9673 0
-2520.7756 1094.3073 7454.147 131072
-2475.5488 1093.9048 7451.4048 65536
-2446.2454 1100.6519 7497.3647 131072
-2410.0171 1104.476 7523.4136 65536
-2387.8933 1115.0308 7595.3101 263424
-2351.666 1119.2798 7624.2534 3948339
-2373.2017 1151.7285 7845.2861 4079927
-2373.7771 1175.1024 8004.5029 263424
-2327.3193 1175.6732 8008.3906 395264
-2190.0078 1129.4133 7693.2808 65792
-2154.3569 1134.726 7729.4688 768
-2108.2327 1134.6335 7728.8389 132352
-2057.4595 1131.979 7710.7573 66304
-1987.262 1118.2733 7617.397 768
-1956.9702 1126.9077 7676.2124 768
-1921.5708 1132.9431 7717.3242 768
-1871.8165 1130.6031 7701.3848 512
-1824.3134 1129.5396 7694.1401 256
-1784.9325 1133.5796 7721.6602 512
-1735.54 1131.307 7706.1797 512
-1685.0212 1128.1571 7684.7231 512
-1648.0189 1134.1332 7725.4312 512
-1600.9055 1133.2944 7719.7178 256
-1556.1591 1134.1311 7725.4165 512
-1517.9486 1139.927 7764.8965 66304
-1473.6152 1141.344 7774.5493 66560
-1428.0685 1141.8828 7778.2192 198144
-1379.4222 1139.8962 7764.6875 658688
-1332.4923 1139.2395 7760.2134 198144
-1292.6196 1144.7858 7797.9937 263936
-1245.911 1144.4655 7795.8115 922368
-1193.2134 1138.4064 7754.5386 527616
-1142.6633 1133.9916 7724.4658 264192
-1092.7112 1129.8252 7696.0859 658944
-1029.1414 1110.5992 7565.1235 1053958
-1002.7542 1131.5754 7708.0078 593156
-961.07513 1136.4779 7741.4023 2895905
-912.48944 1133.2955 7719.7246 2172439
-840.9599 1099.771 7491.3643 263424
-702.60132 970.21381 6608.853 197888
0 0 0 0
-519.58771 807.84357 5502.8276 256
-519.69952 862.31122 5873.8477 256
-476.27634 847.18701 5770.8252 256
-435.34613 834.49335 5684.3599 256
-401.05588 833.46228 5677.3359 256
-363.9938 825.95197 5626.1772 256
-326.85815 816.73785 5563.4136 131840
-293.41455 815.7132 5556.4336 66048
-261.01776 817.70795 5570.0215 395525
0 0 0 0
-253.34343 1063.5138 7244.3892 1317651
-219.34341 1109.3804 7556.8203 5792856
-180.13536 1145.7494 7804.5576 2173474
-132.06992 1131.4713 7707.2988 856846
-86.26519 1131.6801 7708.7202 3753023
-40.518013 1133.9722 7724.3345 1186840
5.4604673 1145.8433 7805.1968 1251604
50.598446 1117.9022 7614.8696 659724
95.028198 1108.0912 7548.0391 2042402
134.97472 1069.0646 7282.1997 2436905
181.57764 1088.9117 7417.3936 4543050
238.18236 1149.2627 7828.4893 3226937
283.88867 1145.8928 7805.5352 2963509
330.86652 1147.8815 7819.0811 3490362
379.75653 1155.1969 7868.9116 3095346
427.02646 1156.5199 7877.9238 922639
450.21902 1098.8174 7484.8687 726798
502.40387 1115.8901 7601.1636 1975327
554.11725 1129.1842 7691.7197 2436646
606.20251 1141.1515 7773.2378 3028783
653.43732 1142.9393 7785.4165 2897963
700.80231 1144.7032 7797.4316 2371362
752.00165 1152.1229 7847.9727 1845533
795.95575 1148.2239 7821.4136 5069394
838.84619 1143.3057 7787.9111 6451565
873.63684 1128.4396 7686.6475 5991015
919.68243 1128.8665 7689.5547 5925221
1001.1158 1170.6327 7974.0566 7175291
1049.5842 1171.8184 7982.1323 9412768
1087.1146 1161.2178 7909.9238 8821144
1130.7421 1157.7388 7886.2261 9478819
1183.3251 1163.3411 7924.3877 9018526
1214.5156 1148.2886 7821.8535 8557716
1250.7335 1138.9241 7758.0654 8491924
1303.7722 1144.9982 7799.4399 8886167
1352.809 1147.261 7814.854 8096138
1400.8115 1148.5258 7823.4692 7964553
1462.0004 1160.1732 7902.8086 3686207
1531.8304 1177.739 8022.4629 7701379
1595.2841 1189.4896 8102.5044 8623252
1631.5144 1180.8478 8043.6392 9610147
1686.3358 1185.7709 8077.1738 10267820
1716.9325 1173.8588 7996.0317 10136234
1761.5173 1171.8947 7982.6528 9938601
1805.5585 1169.6814 7967.5767 9806759
1846.5012 1165.6255 7939.9482 8820377
1902.5259 1171.0549 7976.9326 7964810
1950.092 1171.1406 7977.5161 7899273
2025.2543 1187.4015 8088.2817 9609636
2045.1261 1171.2435 7978.2173 9675685
2093.7615 1171.9175 7982.8081 9806757
2150.2 1176.8324 8016.2866 8227467
2220.1982 1188.7946 8097.7705 8029831
2226.4907 1166.8619 7948.3711 3292735
2278.2126 1169.1549 7963.9902 9346463
2328.8062 1170.7874 7975.1094 9873321
2367.0073 1166.2487 7944.1934 10201517
2505.5349 1210.3523 8244.6162 9806756
2567.0205 1216.2609 8284.8643 8161930
2638.8035 1226.7341 8356.2051 5398627
2670.658 1218.6012 8300.8057 10004651
2711.301 1214.7007 8274.2363 10464945
2747.7852 1209.1093 8236.1494 10464946
2821.7288 1219.9084 8309.71 10267825
2866.21 1217.8176 8295.4678 10267568
2907.0623 1214.2816 8271.3818 10201775
2970.5278 1220.152 8311.3691 10070445
3013.3003 1217.4694 8293.0957 10003882
3085.5967 1226.6099 8355.3584 9872553
3118.761 1220.1509 8311.3623 10004137
3173.0283 1222.0209 8324.0996 9872808
3237.9536 1227.8751 8363.9775 9872551
3345.7058 1249.5471 8511.6016 9740965
3404.1726 1252.4406 8531.3105 9412256
3461.0366 1254.6681 8546.4844 9214878
3478.8298 1242.8723 8466.1348 9148828
3567.822 1256.4873 8558.877 9083034
3628.054 1259.7335 8580.9883 9148057
3696.0288 1265.5405 8620.5449 8161160
3738.5115 1262.5797 8600.376 3489600
3747.5769 1248.5652 8504.9131 5528410
3791.1035 1246.2523 8489.1582 4145729
3841.6423 1246.275 8489.3125 5791068
4103.1689 1313.8566 8949.6611 3422005
4206.2129 1329.6104 9056.9727 2040353
4200.187 1310.9241 8929.6865 7634298
4241.6611 1307.3446 8905.3037 10660005
4277.6729 1302.1906 8870.1953 10987682
4323.0215 1299.9695 8855.0664 9144704
4313.356 1281.458 8728.9707 6973532
4331.7827 1271.6332 8662.0469 8749947
4305.2554 1248.9978 8507.8594 3486506
4364.5918 1251.5084 8524.9619 329729
4437.3086 1257.7543 8567.5068 921614
4493.9614 1259.3567 8578.4219 10264984
4568.0654 1265.7587 8622.0303 1511947
4559.043 1249.2407 8509.5146 591104
4622.3687 1252.6924 8533.0264 393728
4688.2964 1256.7664 8560.7773 262656
4729.5562 1254.2113 8543.373 196608
4790.9888 1257.0034 8562.3916 393984
4862.748 1262.4175 8599.2715 196608
4941.2041 1269.4395 8647.1035 854789
4918.7935 1250.67 8519.251 1776149
4937.8394 1242.7168 8465.0752 262656
4956.3779 1234.7976 8411.1318 196608
4991.499 1231.1265 8386.125 196864
5048.5552 1232.8846 8398.1016 131328
5024.3838 1214.9667 8276.0479 131328
5009.4229 1199.6016 8171.3853 131328
5038.6831 1195.0197 8140.1738 65792
5093.7002 1196.5754 8150.772 65792
5082.2002 1182.6234 8055.7344 65792
5073.1514 1169.4971 7966.3208 512
5147.6479 1175.6949 8008.5386 132096
0 0 0 0
0 0 0 0
0 0 0 0
0 0 0 0
0 0 0 0
0 0 0 0
0 0 0 0
0 0 0 0
1505.9763 317.52518 2162.9019 196608
1509.5271 315.57928 2149.647 196608
1516.7833 314.4342 2141.8469 196608
1503.8799 309.16385 2105.9465 196608
1498.9657 305.60931 2081.7341 196608
1486.4985 300.58575 2047.5149 196608
1479.6658 296.77386 2021.5492 196608
1491.2258 296.68268 2020.9281 196608
1491.6318 294.3916 2005.3218 1446670
1475.729 288.94363 1968.2115 1446668
1474.2079 286.37509 1950.7152 1775633
1477.3293 284.74149 1939.5875 1578254
1479.2262 282.89896 1927.0367 1315080
1440.4989 273.37518 1862.1632 196608
1447.8793 272.68018 1857.429 196608
1445.6473 270.1991 1840.5284 196608
1447.8368 268.57547 1829.4688 196608
1445.5155 266.14554 1812.9166 196608
1426.817 260.75854 1776.2218 262144
1414.3364 256.57874 1747.75 262144
1415.9813 255.00374 1737.0215 262144
1417.2234 253.37952 1725.9576 919814
1407.0344 249.74963 1701.2319 985606
1401.9061 247.06343 1682.9341 656641
1399.4921 244.89024 1668.1309 196608
1397.9647 242.9017 1654.5854 196608
1387.671 239.42842 1630.9264 196608
1389.1393 238.01865 1621.3234 327680
1392.3429 236.9236 1613.8643 262144
1387.9615 234.56172 1597.7756 262144
1389.057 233.15118 1588.1675 262144
1390.2769 231.78047 1578.8304 196608
1386.8939 229.66594 1564.4268 262144
1376.1619 226.37067 1541.9802 196608
1378.5854 225.26871 1534.474 196608
1383.8777 224.64693 1530.2385 196608
1356.9713 218.84055 1490.6869 196608
1351.8408 216.59856 1475.415 131072
0 0 0 0
1324.9153 209.56488 1427.5034 1643535
1334.8539 209.79306 1429.0577 1446411
1340.1329 209.29071 1425.6357 1446155
1345.7114 208.84111 1422.5732 1511948
1350.9449 208.34392 1419.1865 1577741
1356.7694 207.9435 1416.4589 1511948
1361.7686 207.42227 1412.9084 1446155
1371.5319 207.62868 1414.3145 1314569
0 0 0 0
0 0 0 0
0 0 0 0
0 0 0 0
0 0 0 0
0 0 0 0
0 0 0 0
0 0 0 0
0 0 0 0
0 0 0 0
0 0 0 0
0 0 0 0
0 0 0 0
0 0 0 0
0 0 0 0
0 0 0 0
0 0 0 0
-1032.3152 190.98026 1250.2777 0
-1027.6331 191.49286 1253.6335 65536
-1023.5488 192.12515 1257.7729 65536
-1016.2362 192.15637 1257.9773 131072
-1004.2296 191.29387 1252.3308 2762014
0 0 0 0
-989.6369 191.35144 1252.7078 3090717
-981.46722 191.21074 1251.7866 3090718
-973.55524 191.11847 1251.1826 3024922
-965.7796 191.05176 1250.7458 3024919
-958.57764 191.09839 1251.0511 2893590
-951.51544 191.17383 1251.5449 2960153
-945.84882 191.53304 1253.8966 3749413
-939.90643 191.84167 1255.9171 3815206
-935.09991 192.38896 1259.5 4012584
-930.18994 192.9236 1263.0001 4012843
-926.00134 193.6178 1267.5448 3815464
-922.21588 194.40837 1272.7203 3618087
-918.28735 195.18163 1277.7825 3355942
-915.88306 196.29442 1285.0676 3289637
-916.23846 198.0224 1296.38 2697502
-910.46259 198.44331 1299.1357 1711123
-905.52466 199.05566 1303.1444 1184524
-907.11542 201.12608 1316.6989 0
-896.84729 200.58035 1313.126 256
-889.18213 200.61226 1313.335 526856
-881.38654 200.61507 1313.3533 526855
-870.76843 199.96973 1309.1285 1118732
-856.18701 198.39441 1298.8154 2039832
-849.2218 198.57126 1299.9733 2763295
-834.41138 196.90009 1289.0327 2960673
-826.211 196.77222 1288.1956 3092259
-818.79584 196.83069 1288.5784 3026466
-811.48828 196.91638 1289.1394 3487017
-804.27954 197.02794 1289.8698 3487017
-796.82135 197.07991 1290.21 3619116
-789.33954 197.12704 1290.5184 3750702
-782.59076 197.35992 1292.043 3750702
-776.48676 197.76163 1294.673 4277046
-770.54822 198.21397 1297.6342 4277045
-765.22797 198.83612 1301.7072 4211252
-761.76282 199.9579 1309.0511 4079666
-758.16626 201.06801 1316.3186 4145459
-754.44318 202.16736 1323.5156 4013874
-751.32013 203.45239 1331.9282 4013874
-750.48572 205.39114 1344.6205 3882288
-751.71777 207.94325 1361.3282 1250315
-803.19757 224.60193 1470.3865 855557
-812.4472 229.68826 1503.6848 1184265
-812.56793 232.27821 1520.6403 1841938
-818.15985 236.50803 1548.3313 2105366
-818.92419 239.42268 1567.4125 2763809
-825.703 244.18306 1598.5769 3487532
-825.93951 247.09703 1617.6537 3092519
-860.28125 260.40317 1704.7642 131584
-861.01257 263.73157 1726.554 263424
-860.55786 266.77261 1746.4625 592131
-854.41846 268.10416 1755.1797 986634
-856.06079 271.94058 1780.2954 1512976
-847.39368 272.55716 1784.3318 1644818
-843.22821 274.65564 1798.0698 1710607
-838.04974 276.47379 1809.9725 1315850
-838.07709 280.07901 1833.5746 2434331
-837.23315 283.48419 1855.8672 2565919
-843.91913 289.56403 1895.6696 789513
-888.89215 309.1232 2023.7163 394496
-891.17255 314.16852 2056.7461 395009
-889.6319 317.98843 2081.7537 723972
-885.4212 320.9483 2101.1309 1316109
-874.98267 321.70306 2106.072 2763811
-888.67084 331.47916 2170.0725 3092520
-893.03473 338.01404 2212.854 0
-898.85138 345.3024 2260.5684 658178
-896.45807 349.61026 2288.7703 131584
-891.2265 352.92691 2310.4832 0
-901.01398 362.38809 2372.4219 329216
-892.82794 364.80627 2388.2529 1053191
0 0 0 0
0 0 0 0
-2404.4053 1031.6494 6753.8306 66048
-2269.3875 990.25446 6482.8325 66048
-2463.0513 1093.3282 7157.6196 329216
-2439.5686 1101.9421 7214.0112 526592
-2407.9788 1107.1368 7248.0186 197632
-2428.0264 1136.6951 7441.5259 66048
-2348.5422 1119.8894 7331.5054 131840
-2404.0901 1168.0549 7646.8281 512
-2316.614 1147.2479 7510.6123 256
-2338.8081 1181.0023 7731.5889 512
-2266.5095 1167.4384 7642.791 768
-2201.4514 1157.1252 7575.2744 768
-2113.6929 1134.2003 7425.1934 768
-2076.793 1138.17 7451.1826 768
-2037.6847 1141.0762 7470.208 1280
-1994.8895 1142.0012 7476.2637 66560
-1954.7495 1144.5232 7492.7734 768
-1912.5027 1145.9003 7501.7891 1024
-1867.5236 1145.667 7500.2622 512
-1825.7689 1147.4489 7511.9272 768
-1784.0448 1149.3396 7524.3052 768
-1742.0739 1151.1646 7536.2529 768
-1700.5306 1153.3761 7550.7305 132352
-1655.5027 1153.2798 7550.1006 132352
-1607.3534 1150.9431 7534.8027 198144
-1571.4115 1157.4644 7577.4946 198144
-1521.7241 1153.9469 7554.4673 132352
-1478.7551 1155.4651 7564.4062 132352
-1444.9215 1164.4408 7623.1665 768
-1388.094 1154.8669 7560.4907 66304
-1341.5936 1153.5321 7551.752 512
-1296.6976 1153.5321 7551.752 768
-1255.5752 1157.0093 7574.5156 768
-1205.2041 1151.9056 7541.1035 768
-1165.5941 1157.09 7575.0439 66560
-1114.9896 1151.3383 7537.3901 66816
-1062.8929 1143.4995 7486.0723 132864
-1008.6478 1132.5634 7414.4771 132608
-949.92059 1115.3647 7301.8848 263936
-895.98322 1102.4125 7217.0903 329728
-852.56714 1101.7537 7212.7773 329472
-790.49249 1075.6361 7041.7954 263680
-730.90302 1050.1682 6875.0664 197888
-631.14575 960.55115 6288.3765 197888
-569.29095 920.96533 6029.2227 512
-534.88098 923.44177 6045.4346 256
-492.81406 912.10327 5971.2056 256
-449.08871 895.69678 5863.7983 256
-407.97525 882.17657 5775.2866 256
-364.92902 861.60809 5640.6328 256
-324.40524 843.43542 5521.6626 65792
-292.69315 846.65991 5542.772 256
-255.73256 833.59448 5457.2373 768
-261.99945 978.11151 6403.3374 461832
-246.80794 1078.0359 7057.5059 769
-216.65129 1140.1389 7464.0713 5924962
-172.49237 1141.5663 7473.4165 1282
-128.47575 1145.2531 7497.5518 1186068
-81.194283 1108.2917 7255.5796 3358006
-38.66848 1126.0353 7371.7397 2765611
5.4049678 1180.1279 7725.8652 2568483
50.396065 1158.5209 7584.4116 1251852
92.038643 1116.6931 7310.5801 1054216
135.44098 1116.2004 7307.3555 2633503
176.46375 1101.0991 7208.4927 1843989
232.86951 1169.1304 7653.8682 2370594
276.47043 1161.142 7601.5708 3160879
326.54782 1178.7771 7717.0215 3488564
366.97305 1161.517 7604.0259 1843482
416.50067 1173.6934 7683.7402 1119502
459.33249 1166.459 7636.3794 1645848
494.53815 1142.9016 7482.1582 1251859
538.81311 1142.4624 7479.2827 1317910
583.68994 1143.2689 7484.563 1186068
649.19574 1181.5049 7734.8799 5793375
681.54187 1158.3253 7583.1318 3030070
726.30951 1157.8236 7579.8472 1975841
782.90045 1175.1272 7693.1265 2633769
824.16156 1168.7805 7651.5776 1186837
862.74817 1159.5034 7590.8438 7504253
912.62372 1165.5664 7630.5361 8359819
959.74438 1167.7034 7644.5259 3556419
1003.3449 1165.5579 7630.48 6254190
1076.6517 1196.6143 7833.7944 8688531
1094.6918 1166.2172 7634.7969 5793639
1107.5033 1132.8923 7416.6309 8425616
1179.0674 1159.9176 7593.5557 8228494
1230.854 1166.2111 7634.7563 5004893
1250.2659 1142.4731 7479.353 7439235
1282.5533 1131.7274 7409.0044 8096651
1307.5542 1115.4789 7302.6313 7899272
1372.7419 1133.4564 7420.3237 8030857
1404.7393 1123.7629 7356.8638 9281181
1527.0446 1184.718 7755.9141 9610146
1611.7888 1213.813 7946.3887 9478304
1667.2157 1219.8014 7985.5923 9741475
1693.3124 1204.5931 7886.0293 9609890
1724.6791 1193.8523 7815.7139 9807014
1780.2761 1200.0077 7856.0107 9741223
1814.3077 1191.6837 7801.5166 9478307
1842.8389 1180.2518 7726.6758 8951706
1834.0759 1146.0718 7502.9121 9214878
1902.8888 1160.8394 7599.5894 9083292
1979.7537 1179.7198 7723.1934 8688534
1994.5531 1161.5985 7604.5596 9215132
2084.8582 1187.2793 7772.6821 9412000
2118.905 1180.5032 7728.3218 9609635
2187.4348 1192.8184 7808.9448 10135980
2214.8936 1182.6909 7742.6445 9872808
2291.9373 1198.9138 7848.8496 9741222
2356.4451 1208.0627 7908.7437 10070187
2425.3164 1219.0469 7980.6533 10070187
2427.8713 1196.9161 7835.7715 10070444
2541.7219 1229.4534 8048.7803 10070190
2573.8628 1221.9949 7999.9521 10267568
2582.3379 1203.7748 7880.6724 10267569
2643.4299 1210.2949 7923.3569 10135982
2687.5278 1208.9421 7914.501 10333361
2742.5051 1212.4457 7937.437 10333361
2792.812 1213.8009 7946.3096 10596533
2835.3013 1211.7698 7933.0127 10728119
2916.8279 1226.2162 8027.5884 10728119
2967.5059 1227.4377 8035.585 10596277
2991.1443 1217.6135 7971.2695 10267056
3022.6851 1211.2623 7929.6904 10201516
3101.9609 1223.9412 8012.6938 10266539
3241.7715 1259.7603 8247.1885 9740965
3272.9114 1252.9116 8202.3535 9938344
3355.1997 1265.5568 8285.1367 10004393
3426.1226 1273.6111 8337.8652 9806758
3476.509 1273.9105 8339.8252 9740965
3553.916 1283.9635 8405.6387 9675172
3575.5615 1273.8715 8339.5693 9543842
3614.1926 1270.0242 8314.3828 9279643
3720.5825 1289.7699 8443.6504 8095368
3708.5562 1268.4865 8304.3154 8161417
3749.7383 1265.7227 8286.2217 8884883
3935.7581 1311.2865 8584.5117 6121320
3955.5117 1300.9974 8517.1533 7634044
4056.7925 1317.4447 8624.8271 4146498
4138.5537 1327.2213 8688.832 4211776
4157.165 1316.7545 8620.3096 5000776
4146.6392 1297.4263 8493.7744 6579036
4093.9534 1265.5304 8284.9639 1644817
4090.1943 1249.3374 8178.9541 6053972
4168.1187 1258.1818 8236.8545 4407862
4319.2578 1288.6647 8436.415 3026725
4403.8091 1298.809 8502.8262 3815985
4533.3999 1321.856 8653.7061 2631968
4541.2637 1309.2902 8571.4434 4868673
4562.8271 1300.9095 8516.5781 197120
4574.2847 1289.8633 8444.2617 723202
4655.9473 1298.6382 8501.708 393728
4709.8159 1299.5557 8507.7148 262144
4767.833 1301.5862 8521.0078 131072
4806.0938 1298.2373 8499.084 327936
4859.7017 1299.0608 8504.4746 393984
4898.2656 1295.887 8483.6973 985857
4905.6558 1284.6149 8409.9023 262144
4921.7759 1275.8329 8352.4102 196608
4954.085 1271.3812 8323.2666 262144
4961.5229 1260.6979 8253.3271 262144
4963.9482 1248.9624 8176.4995 262144
4919.5322 1225.7836 8024.7554 262144
4968.7344 1226.1522 8027.1689 262144
5020.8154 1227.2177 8034.144 196608
5036.5356 1219.4592 7983.3525 196864
4995.3066 1198.1855 7844.0815 131328
5178.2144 1230.5702 8056.0918 196864
0 0 0 0
0 0 0 0
0 0 0 0
0 0 0 0
0 0 0 0
0 0 0 0
0 0 0 0
1518.1046 335.91272 2199.0974 196608
1521.1752 333.71817 2184.7305 262144
1514.9855 329.54645 2157.4199 196608
1513.5247 326.46478 2137.2454 196608
1511.6724 323.35071 2116.8586 196608
1492.634 316.64227 2072.9409 196608
1490.4543 313.59073 2052.9636 196608
1488.0094 310.53342 2032.9485 196608
1495.3619 309.55353 2026.5334 196608
1485.0979 304.97165 1996.5377 1315084
1478.0413 301.11591 1971.2954 1512461
1476.7456 298.48523 1954.0732 1841425
1468.9055 294.58316 1928.528 1775633
1477.9989 294.11115 1925.438 1183497
1457.6313 287.82895 1884.3107 196864
1453.5793 284.83975 1864.7415 196608
1454.1407 282.79297 1851.3419 196608
1454.3394 280.70691 1837.6853 196608
1446.6263 277.13632 1814.3099 196608
1441.5012 274.11066 1794.502 262144
1428.7385 269.68781 1765.5472 262144
1422.9546 266.63718 1745.5758 262144
1423.4469 264.79825 1733.5371 196608
1419.9265 262.24466 1716.8196 262144
1414.4875 259.3757 1698.0377 393472
1404.8026 255.77434 1674.4608 262144
1387.483 250.84337 1642.1797 262144
1391.8354 249.87207 1635.8208 262144
1392.9165 248.33101 1625.7321 327680
1391.5851 246.38402 1612.9858 327680
1392.2267 244.81064 1602.6855 327680
1388.3311 242.46622 1587.3375 328192
1387.0376 240.60487 1575.152 328192
1381.17 237.98036 1557.9702 393984
1383.3929 236.77553 1550.0826 459776
1377.0601 234.13196 1532.7761 459776
1356.5575 229.12982 1500.0289 525568
1354.9568 227.36478 1488.4739 459776
0 0 0 0
1302.8408 215.80084 1412.769 2301977
1325.3024 218.11522 1427.9204 1907219
1331.8634 217.79993 1425.8562 1512461
1337.0332 217.26254 1422.3383 1577741
1341.7758 216.66292 1418.4127 1511948
1347.3151 216.19865 1415.3733 1577741
1352.032 215.60899 1411.5131 1577741
1360.6555 215.64575 1411.7537 1511948
1353.4279 213.18526 1395.6458 1446155
0 0 0 0
0 0 0 0
0 0 0 0
0 0 0 0
0 0 0 0
0 0 0 0
0 0 0 0
0 0 0 0
0 0 0 0
0 0 0 0
0 0 0 0
0 0 0 0
0 0 0 0
0 0 0 0
0 0 0 0
0 0 0 0
0 0 0 0
-1032.9164 198.52881 1251.0057 0
-1028.1311 199.04224 1254.2411 65536
-1022.199 199.33952 1256.1144 65536
-1016.3369 199.65494 1258.1019 131072
-1006.2518 199.13928 1254.8527 2762014
0 0 0 0
0 0 0 0
-981.40802 198.64076 1251.7112 3090718
-973.09271 198.46255 1250.5883 2827543
-965.66675 198.46439 1250.5997 2761751
-958.26538 198.47133 1250.6436 2893336
-951.95917 198.70699 1252.1285 3485730
-943.24414 198.43961 1250.4436 3486242
-939.59546 199.24228 1255.5016 3420450
-934.99542 199.85446 1259.3593 3881001
-929.9389 200.37817 1262.6593 4012587
-926.27368 201.21265 1267.9176 3881258
-922.41412 202.01822 1272.9939 3683881
-918.93359 202.92085 1278.6818 3552808
-915.86078 203.92929 1285.0363 3355686
-917.03381 205.90808 1297.5054 2960930
-911.60852 206.4263 1300.7709 1974293
-907.01428 207.14316 1305.2881 1052938
-901.76709 207.72202 1308.9355 65792
-898.34351 208.73465 1315.3167 256
-891.42267 208.94533 1316.6443 132098
-883.33392 208.88358 1316.2551 395011
-874.53064 208.65025 1314.7848 855560
0 0 0 0
-842.72919 204.72247 1290.0344 2763039
-834.40533 204.56203 1289.0233 2960673
-826.4187 204.48206 1288.5194 2960673
-819.02972 204.54984 1288.9465 3158052
-811.62537 204.61502 1289.3573 3092259
-803.97394 204.61856 1289.3795 3355431
-796.65051 204.70644 1289.9333 3553067
-789.29041 204.78654 1290.4381 3487530
-782.55811 205.03268 1291.9891 3882288
-776.55804 205.47746 1294.7919 4211252
-770.51282 205.91907 1297.5746 4342838
-766.01556 206.78749 1303.0469 3948080
-762.32678 207.89413 1310.0203 4277045
-757.17059 208.61932 1314.59 4277045
-755.01532 210.19508 1324.5194 3948080
-750.66626 211.18686 1330.769 3948081
-747.58203 212.55942 1339.418 3619116
-750.15234 215.58658 1358.4933 2237465
