# .PCD v0.7 - Point Cloud Data file format
VERSION 0.7
FIELDS x y z rgb
SIZE 4 4 4 4
TYPE F F F U
COUNT 1 1 1 1
WIDTH 1365
HEIGHT 1
VIEWPOINT 0 0 0 1 0 0 0
POINTS 1365
DATA ascii
-1254.1401 1276.8064 4700.1514 1711900
-1222.9877 1273.4644 4687.8486 65793
-1208.4424 1287.6621 4740.1133 256
-1173.5233 1280.3104 4713.0503 256
-1148.1196 1283.2341 4723.813 1
-1119.271 1282.3575 4720.5859 0
-1095.9445 1287.9253 4741.082 1382423
-1060.0759 1278.6589 4706.9707 5528410
-1021.6458 1265.7164 4659.3271 5002839
-980.71301 1248.8656 4597.2964 7700865
-950.99719 1245.7422 4585.7983 7766403
-928.28021 1251.8729 4608.3667 7634560
-900.27765 1251.0315 4605.2695 7701382
-871.52844 1249.0675 4598.0396 7504003
-845.67603 1251.2622 4606.1187 7372417
-818.25714 1251.2086 4605.9214 7372675
-783.98749 1240.313 4565.8125 7767434
-762.35022 1249.3378 4599.0342 7965072
-734.5874 1248.6219 4596.3994 7899278
-708.38757 1250.6102 4603.7188 6320758
-686.51593 1260.7065 4640.8848 7504774
-660.36316 1263.4573 4651.0107 7109503
-621.86633 1241.7988 4571.2822 5924711
-607.07629 1267.6641 4666.4966 1712676
-584.46375 1278.8896 4707.8203 1383968
-558.22467 1282.9099 4722.6196 1120024
-523.67798 1267.2526 4664.9819 5068633
-504.70346 1289.6345 4747.374 7042425
-474.94296 1285.4747 4732.061 7963528
-442.79816 1273.9315 4689.5684 7963785
-412.04245 1265.1019 4657.0649 7568769
-384.24301 1264.7308 4655.6992 1910055
-353.20081 1252.8 4611.7798 7701124
-326.02747 1253.739 4615.2358 7832968
-299.47623 1257.4624 4628.9424 7833225
-271.26007 1254.2412 4617.085 7109246
-245.34064 1262.1099 4646.0508 5003868
-216.183 1253.2035 4613.2646 7175293
-190.84099 1267.0415 4664.2051 6912120
-164.77547 1279.9646 4711.7769 6450543
-136.79768 1280.2844 4712.9546 6977142
-109.02006 1283.1249 4723.4106 3884871
-81.362213 1289.8352 4748.1128 6845556
-52.558094 1275.8497 4696.6294 7240314
-24.27854 1257.3282 4628.4487 7240828
3.2707181 1270.0193 4675.167 5727074
31.041897 1269.0734 4671.6846 4409417
58.478127 1261.7936 4644.8862 527116
87.064133 1276.0352 4697.312 3817536
115.32048 1279.7014 4710.8081 2831411
141.44771 1262.9248 4649.0508 3818305
168.4034 1257.8207 4630.2612 4739922
198.72499 1275.7589 4696.2954 2765362
224.80762 1265.4169 4658.2246 1712159
248.70901 1246.4122 4588.2651 2962742
281.44046 1271.0425 4678.9336 7306107
315.44022 1296.4547 4772.4805 5793125
344.04428 1297.3267 4775.6899 6253419
370.07776 1289.1112 4745.4478 6648174
401.0762 1298.1295 4778.6455 6450794
424.66412 1283.556 4724.998 1712414
450.1528 1276.1798 4697.8447 2239784
480.22708 1281.906 4718.9238 5924448
510.65921 1287.9026 4740.998 6384743
550.88867 1316.6886 4846.9648 6253157
565.46906 1284.3557 4727.9419 3226680
601.35645 1301.1884 4789.9058 5397591
627.54236 1296.4563 4772.4858 1910049
656.91913 1298.4406 4779.7905 2173734
692.01093 1311.0879 4826.3477 5661789
711.26178 1293.9108 4763.1157 6187878
739.75037 1294.2108 4764.2197 3094581
777.61707 1310.2905 4823.4126 5924450
804.55292 1307.4633 4813.0049 5069141
826.17377 1296.4895 4772.6084 3753027
855.94409 1298.6086 4780.4092 3884611
892.005 1309.8286 4821.7119 2896946
926.60156 1318.2667 4852.7739 6582639
954.57288 1317.054 4848.3096 7503742
997.67621 1336.1786 4918.7109 6253674
1012.8299 1317.8473 4851.23 3950660
1047.2867 1324.952 4877.3838 1845283
1074.8887 1323.2351 4871.0635 4937298
1103.7087 1323.0687 4870.4512 7042674
1134.3281 1325.0126 4877.6069 526601
1167.2163 1329.4435 4893.918 329222
1206.314 1340.5597 4934.8384 1053202
1226.7737 1330.9274 4899.3804 987666
1246 1320.4349 4860.7559 4540229
1294.9221 1341.1747 4937.1025 1250581
1315.1013 1331.8854 4902.9067 132099
1350.3704 1337.9497 4925.231 6121571
1371.0573 1329.6155 4894.5508 7437945
1391.9722 1321.844 4865.9429 7437690
1409.7788 1311.4976 4827.8555 7569022
1450.0792 1322.0721 4866.7822 4937558
1498.4189 1339.4191 4930.6396 8621966
1550.7051 1359.5603 5004.7832 8885393
1599.3115 1375.7778 5064.4829 4673870
1589.2133 1341.8296 4939.5132 4344647
1629.4071 1350.8062 4972.5576 131841
1649.0105 1342.6971 4942.707 133381
1688.6063 1350.8657 4972.7769 659727
1660.5543 1305.5671 4806.0244 3358781
1722.3589 1331.2531 4900.5791 8425103
1789.9459 1360.4795 5008.167 7504515
1781.8087 1332.136 4903.8296 8293003
1835.0105 1349.8256 4968.9478 7240316
1840.8165 1332.6431 4905.6958 6977145
1873.6006 1335.2223 4915.1904 6779764
1898.2441 1332.01 4903.3657 7043193
1937.3199 1338.869 4928.6147 8951707
1985.9265 1352.0122 4976.9971 8885659
2008.0731 1347.0199 4958.6196 9214367
2033.8379 1344.5642 4949.5796 9477539
2066.0015 1346.3484 4956.1479 9214369
2078.0078 1335.1312 4914.8555 9280162
2119.6172 1342.9816 4943.7539 9280162
2136.1663 1334.9562 4914.2109 9609127
2162.8264 1333.3807 4908.4116 9608871
2192.627 1333.7577 4909.7988 9476771
2213.5239 1328.7798 4891.4746 10068908
2248.1011 1332.0367 4903.4639 10201007
2273.6069 1329.9044 4895.6143 10003885
2310.833 1334.5946 4912.8799 10003884
2340.9158 1335.0938 4914.7173 10069677
2371.7422 1335.9995 4918.0518 10464435
2408.9473 1340.4326 4934.3706 10464434
2435.8958 1339.1205 4929.5405 10069162
2475.521 1344.7256 4950.1738 9674404
2501.1218 1342.6704 4942.6084 9674404
2540.8682 1348.1685 4962.8477 10134955
2560.2495 1342.8588 4943.3018 10069162
2592.0642 1344.1168 4947.9331 9937063
2613.3923 1339.9701 4932.668 7305856
2655.9307 1346.6697 4957.3306 9740968
2685.3008 1346.6187 4957.1426 10135725
2712.8633 1345.6721 4953.6582 10200748
2749.0349 1348.9703 4965.7998 10069162
2752.8767 1336.5029 4919.9048 9477025
2811.791 1350.7537 4972.3643 10332847
2893.4783 1375.5338 5063.5845 9806759
2907.9543 1368.1812 5036.5181 7963272
2916.1338 1358.046 4999.209 3817797
2939.6494 1355.1855 4988.6787 4738898
3070.0479 1401.1631 5157.9307 8753299
2998.4187 1354.9382 4987.7686 10266797
3060.9717 1369.6599 5041.9614 7173756
3046.1797 1349.8226 4968.937 5199962
3079.4919 1351.4778 4975.0303 5988964
0 0 0 0
0 0 0 0
0 0 0 0
0 0 0 0
0 0 0 0
0 0 0 0
0 0 0 0
0 0 0 0
1475.8219 596.15308 2194.5454 262144
1459.5491 584.41333 2151.3293 393216
1467.0103 582.29822 2143.5432 196608
1465.1748 576.56122 2122.4243 196608
1464.7037 571.45453 2103.6257 327936
1459.8378 564.73413 2078.8867 394497
1451.906 556.9505 2050.2339 394242
1459.453 555.18469 2043.7336 197120
1456.8602 549.62268 2023.2589 196864
1446.7317 541.33209 1992.7396 197120
1444.2677 536.02081 1973.1877 328448
1441.7468 530.77405 1953.8737 854533
1443.9371 527.33179 1941.2019 920324
1447.1046 524.29816 1930.0345 1314825
1446.8195 520.07111 1914.4741 1511948
1448.8748 516.74481 1902.2295 1512204
1454.2467 514.64374 1894.4951 1512461
1450.8822 509.50702 1875.5859 1709842
1442.7145 502.77478 1850.8033 1644051
1422.5779 492.00491 1811.1576 1709842
0 0 0 0
1383.8617 471.47754 1735.5925 1380877
1367.5206 462.46198 1702.4047 1117192
1349.1726 452.90524 1667.2246 1182472
1334.6648 444.76755 1637.2684 1051399
1313.3342 434.49054 1599.4369 1051399
1327.4254 435.99561 1604.9774 919813
1310.673 427.42093 1573.4124 788227
1323.3843 428.50797 1577.4139 788227
1319.6802 424.30185 1561.9305 722691
1308.7788 417.85666 1538.2046 722947
1297.8545 411.49359 1514.781 788740
1280.402 403.16272 1484.1135 657154
1268.0559 396.54269 1459.7441 788740
0 0 0 0
1263.286 389.71677 1434.6167 2236183
1267.2935 388.33127 1429.5165 2104598
1268.8345 386.21353 1421.7206 1973012
1273.7089 385.13168 1417.7382 2103828
1275.1656 383.03745 1410.0289 1906706
1267.5896 378.27499 1392.4976 1840656
1269.813 376.47977 1385.8889 1709327
1266.1278 372.96713 1372.9584 1577741
1267.3646 370.94016 1365.4966 1380362
1261.1879 366.78287 1350.193 1182983
1261.3334 364.50525 1341.8086 1117190
1263.7756 362.91577 1335.9575 1248777
1264.2953 360.79755 1328.1599 1117191
1266.554 359.19873 1322.2744 1051397
1262.0291 355.70773 1309.4233 1051397
1259.9485 352.94421 1299.2504 985604
0 0 0 0
0 0 0 0
0 0 0 0
0 0 0 0
0 0 0 0
0 0 0 0
0 0 0 0
0 0 0 0
0 0 0 0
0 0 0 0
0 0 0 0
0 0 0 0
0 0 0 0
0 0 0 0
0 0 0 0
0 0 0 0
0 0 0 0
0 0 0 0
-974.48639 330.00726 1188.7986 2697503
-960.57361 327.67221 1180.387 2039574
-949.31964 326.21643 1175.1427 1447695
-937.75372 324.63107 1169.4318 921096
-931.41083 324.8436 1170.1974 65536
-924.22144 324.76196 1169.9032 65536
-919.90063 325.69467 1173.2632 986890
-910.70355 324.90198 1170.4076 2762784
-896.64313 322.34869 1161.2098 2762526
-888.14734 321.77179 1159.1316 2565401
-879.19928 321.02075 1156.4261 2631194
-871.01733 320.53986 1154.6937 2762780
-863.02911 320.12311 1153.1925 2762780
-856.39966 320.20776 1153.4974 2828573
-849.65308 320.2496 1153.6482 2894365
-843.28442 320.43573 1154.3187 2828573
-837.62579 320.89697 1155.9802 2828573
-831.91211 321.34457 1157.5927 2762780
-827.01135 322.11627 1160.3726 2828573
-821.50372 322.66257 1162.3405 2828573
-816.69067 323.49329 1165.333 3091745
-812.27887 324.49844 1168.954 2894880
-805.85559 324.71051 1169.7179 3618606
-805.59528 327.43118 1179.5187 3618605
-802.13959 328.88947 1184.7719 3618605
-799.89331 330.87384 1191.9203 3684398
-797.26788 332.7355 1198.6266 3684398
-794.81476 334.70328 1205.7152 3487019
-794.97272 337.81638 1216.9297 3092261
-795.34808 341.07996 1228.6862 2829090
-791.6886 342.65762 1234.3695 2039575
-798.12378 348.6749 1256.0458 921094
-797.58984 351.73248 1267.0602 1381645
-795.7489 354.26651 1276.1886 1579024
-832.76611 374.3154 1348.4116 1710608
-815.81702 370.26132 1333.8074 1973780
-873.5036 400.33374 1442.1384 2236950
-878.44354 406.58847 1464.6703 2500121
-881.32336 412.00543 1484.184 2697501
-881.12604 416.07895 1498.858 2960672
-876.35114 418.05188 1505.9653 3289640
-877.83612 423.08264 1524.0878 921092
-907.47186 441.92737 1591.973 657920
-920.96265 453.22412 1632.6677 1184265
-906.2229 450.72073 1623.6497 1709838
-932.31763 468.69156 1688.3867 2104596
-939.96838 477.68063 1720.7683 2368024
-943.21063 484.60239 1745.703 2631710
-946.34607 491.6228 1770.9929 3092262
-939.27283 493.43811 1777.5321 1381647
-986.87427 524.34442 1888.8672 657922
-979.40668 526.36615 1896.1501 1118472
-978.50458 532.00464 1916.4619 1513231
-1001.0219 550.65887 1983.6609 1973781
-998.13403 555.61597 2001.5179 2697504
-1006.5787 567.07715 2042.8051 2829091
-1014.3996 578.46252 2083.8191 0
-1054.4279 608.72284 2192.8269 328960
-1046.0842 611.46594 2202.7087 789508
-1061.4694 628.32465 2263.4395 1382157
-1069.4615 641.1839 2309.7627 256
0 0 0 0
-1517.179 933.58215 3363.0808 768
-1631.2357 1017.1705 3664.1946 512
0 0 0 0
0 0 0 0
-1721.0359 1117.9546 4027.2532 768
-1723.111 1135.0934 4088.9932 768
-1792.9015 1197.9685 4315.4907 66560
-1786.4203 1210.9667 4362.3145 197888
0 0 0 0
-1395.2747 974.10254 3509.0491 66560
-1394.7626 988.52509 3561.0042 768
-1395.342 1004.1777 3617.3904 768
-1409.3516 1030.137 3710.9043 768
-1418.4122 1053.2469 3794.1545 768
-1421.1956 1072.3673 3863.0325 768
-1460.4253 1120.0681 4034.8669 768
-1445.6272 1127.2338 4060.6802 768
-1442.8937 1144.21 4121.834 768
-1433.0803 1156.0614 4164.5269 768
-1434.9071 1177.8848 4243.1421 1024
-1419.2388 1185.8707 4271.9102 768
-1433.7123 1219.7922 4394.1069 768
-1418.1019 1228.9026 4426.9258 512
-1396.2295 1232.8282 4441.0674 256
-1372.8514 1235.5504 4450.8735 512
-1352.6456 1241.2905 4471.5513 131840
-1321.9175 1237.411 4457.5762 723974
-1305.4996 1247.0426 4492.272 1250832
-1288.3605 1256.3728 4525.8828 3356722
-1255.5369 1250.4799 4504.6543 4015423
-1230.7563 1252.5153 4511.9863 4082244
-1198.4595 1246.8215 4491.4761 3950913
-1156.5229 1230.6115 4433.0815 2240041
-1120.7072 1220.3099 4395.9722 6122344
-1090.3925 1215.6494 4379.1836 7898754
-1083.1361 1237.0969 4456.4448 7240568
-1066.9014 1249.1084 4499.7139 1779495
-1039.1653 1247.9258 4495.4536 7240313
-995.07904 1226.5275 4418.3701 5266008
-978.03436 1238.2039 4460.4321 4081479
-964.43842 1255.0188 4521.0054 658445
-939.15924 1257.1588 4528.7144 2041643
-916.99731 1263.7209 4552.3535 6778996
-886.70612 1259.1385 4535.8457 7306626
-862.79791 1263.6169 4551.9785 6714489
-840.41711 1270.6948 4577.4756 6254195
-806.29065 1259.8928 4538.563 7701639
-777.73029 1257.3414 4529.3721 7701898
-754.19336 1263.0195 4549.8267 7372933
-723.25952 1256.272 4525.5195 7241090
-693.39917 1250.9397 4506.311 7372933
-671.09857 1259.3652 4536.6626 7307652
-644.29413 1259.6907 4537.835 8030604
-618.88733 1262.8966 4549.3838 8161932
-600.64746 1281.6886 4617.0791 7503489
-577.83374 1292.0531 4654.4155 4542545
-552.85297 1298.371 4677.1748 1383712
-518.4743 1282.1183 4618.627 1647140
-496.14615 1295.5135 4666.8813 4080968
-475.33105 1314.6807 4735.9277 5660512
-439.58194 1292.3558 4655.5063 6910581
-406.38782 1275.0472 4593.1543 7503745
-380.72693 1280.583 4613.0962 7372417
-353.00098 1279.4933 4609.1709 7569796
-326.29349 1282.2223 4619.0015 7701639
-299.04736 1283.1416 4622.3135 8030347
-270.64789 1278.7977 4606.665 7898761
-244.81186 1286.9514 4636.0376 7109243
-214.30583 1269.5098 4573.2065 7438208
-189.59418 1286.3116 4633.7324 7832966
-162.49313 1289.8594 4646.5132 8490126
-134.12799 1282.771 4620.978 8161674
-107.19396 1289.2433 4644.2935 7043450
-79.520851 1288.2334 4640.6553 7305850
-51.375427 1274.434 4590.9453 7437949
-24.298742 1285.9141 4632.3003 8227464
3.1889846 1265.382 4558.3369 7306105
31.172815 1302.3165 4691.3877 6055524
58.210533 1283.5076 4623.6313 4344648
84.614372 1267.271 4565.1421 134152
110.22235 1249.8959 4502.5508 1976356
140.72987 1284.0144 4625.457 4279111
167.72479 1280.1685 4611.603 6121057
194.13229 1273.5498 4587.7603 256
220.33931 1267.4084 4565.6372 1514521
250.1618 1281.1299 4615.0664 528654
280.1467 1292.8885 4657.4248 4213834
307.15079 1290.0126 4647.0649 4148042
337.6297 1301.001 4686.6489 2567982
362.44284 1290.1462 4647.5464 5595489
389.34454 1287.7371 4638.8677 5068886
426.79562 1318.2302 4748.7144 7043189
451.89963 1309.1696 4716.0747 5859172
480.09964 1309.6128 4717.6714 7437948
511.31808 1317.7864 4747.1152 8161671
540.85443 1320.9963 4758.6792 7109753
562.97223 1306.6687 4707.0659 6582895
583.48804 1290.1558 4647.5806 5003348
627.42078 1324.5725 4771.5615 3226935
650.0412 1312.9647 4729.7461 1712669
671.69043 1300.4392 4684.625 5200212
714.06366 1327.4366 4781.8789 2436137
736.09076 1315.9917 4740.6504 2436136
769.86963 1325.6261 4775.3569 725519
785.08191 1303.7427 4696.5254 1252377
811.54846 1301.4098 4688.1216 8556943
841.47229 1304.5919 4699.5845 5990758
861.7536 1293.1005 4658.1885 7042932
895.20007 1301.4645 4688.3184 2437165
938.17908 1322.7635 4765.0449 8095877
975.18414 1334.6382 4807.8213 5990502
1004.9915 1336.2661 4813.6855 6648431
1030.4904 1332.2339 4799.1602 7437689
1050.5518 1321.5786 4760.7764 6977138
1083.7933 1327.6279 4782.5684 3094837
1112.0626 1327.4327 4781.8652 3029560
1147.4163 1335.4928 4810.8999 6779501
1169.0769 1327.6111 4782.5073 8094848
1210.068 1341.5341 4832.6626 4081731
1232.5601 1334.7781 4808.3252 2107169
1270.5292 1344.7091 4844.1001 6383717
1313.4586 1359.3335 4896.7822 1448728
1318.4783 1334.9404 4808.9102 4081730
1341.1116 1329.038 4787.6475 2305319
1384.188 1343.2188 4838.7314 7174261
1404.4312 1335.1158 4809.5425 8095366
1455.8654 1356.3962 4886.2017 4608849
1490.6608 1361.6454 4905.1108 7371897
1519.4851 1361.3436 4904.0234 7371385
1530.3876 1345.2987 4846.2241 6187623
1554.6464 1341.3707 4832.0742 6516330
1604.7155 1359.4507 4897.2046 5793119
1610.3887 1339.9462 4826.9429 3621182
1659.1034 1356.3109 4885.894 5069141
1624.099 1304.85 4700.5142 9609634
1653.8168 1306.2501 4705.5581 7899530
1721.5149 1337.1031 4816.7012 9280669
1748.6531 1335.959 4812.5796 9083548
1770.981 1331.236 4795.5654 8885914
1798.7354 1330.6769 4793.5513 9083293
1841.2314 1340.8707 4830.2734 9412259
1876.8859 1345.8457 4848.1948 8754328
1911.848 1350.1814 4863.8135 6582648
1923.9136 1338.4589 4821.5845 8293522
1975.7977 1354.3752 4878.9209 8556693
2008.5874 1356.9314 4888.1294 8820379
2014.4097 1341.4565 4832.3833 9806760
2043.7013 1341.8259 4833.7144 7372163
2052.5955 1328.9786 4787.4336 7700872
2096.6836 1338.9575 4823.3813 9345441
2128.3735 1340.8568 4830.2231 10069678
2171.4556 1349.7865 4862.3911 9740713
2164.0298 1327.4985 4782.1021 10135471
2201.6401 1333.057 4802.1255 10069678
2245.9744 1342.4924 4836.1147 9938092
2278.3999 1344.6609 4843.9268 10003626
2317.9475 1350.9261 4866.4961 10003626
2341.3662 1347.7526 4855.064 10134955
2373.5432 1349.6365 4861.8506 10134955
2404.8923 1351.01 4866.7983 10266798
2445.1604 1357.3018 4889.4634 10069162
2480.0271 1360.4827 4900.9219 9805990
2509.7219 1360.7853 4902.0122 10003369
2543.5735 1363.3091 4911.104 10266541
2567.5898 1360.5638 4901.2144 10595251
2617.905 1371.6597 4941.1855 10924473
2618.5161 1356.7555 4887.4956 10463922
2628.6562 1347.0618 4852.5752 10398127
2660.7898 1348.7267 4858.5728 10200748
2683.78 1345.7709 4847.9253 10069162
2727.2766 1353.0514 4874.1523 10200748
2746.77 1348.3958 4857.3809 10134955
2782.5706 1351.7589 4869.4961 10069419
2824.9602 1358.2208 4892.7739 10201004
2874.4497 1367.9298 4927.749 10397870
2898.0437 1365.2435 4918.0723 10529456
2912.8503 1358.5128 4893.8262 9673632
2959.4951 1366.6171 4923.0205 9673116
2986.8604 1365.7472 4919.8867 5396054
3041.5591 1377.2712 4961.4004 3224108
3031.2449 1359.4176 4897.0854 1711125
3086.4346 1371.0007 4938.8115 2895914
0 0 0 0
0 0 0 0
0 0 0 0
0 0 0 0
0 0 0 0
0 0 0 0
1500.5861 624.94696 2251.2717 10594214
1475.6625 609.13403 2194.3083 1249040
1461.7717 598.11261 2154.6055 262144
1470.4204 596.42499 2148.5259 262144
1474.2456 592.82684 2135.5642 196608
1476.6791 588.73517 2120.8247 196608
1472.1451 581.95862 2096.4131 459776
1464.3306 574.0097 2067.7786 591362
1463.9899 569.09857 2050.0869 657154
1447.7454 558.13727 2010.6005 1183496
1448.0072 553.66687 1994.4966 1446411
1445.6112 548.26111 1975.0232 788482
1446.2112 544.06952 1959.9238 196608
1449.0342 540.7746 1948.0543 196608
1445.8298 535.30035 1928.3344 262144
1443.6803 530.29974 1910.3203 131072
1435.3116 523.11053 1884.4225 196864
1436.1677 519.36871 1870.9431 196864
1436.8983 515.6394 1857.5087 328448
1434.5009 510.85294 1840.2662 394240
0 0 0 0
0 0 0 0
1376.0858 479.08859 1725.8403 1183498
1368.0999 472.78314 1703.1259 1117705
0 0 0 0
1315.6564 448.0282 1613.9503 1051142
1319.7756 446.17697 1607.2815 1051399
1304.345 437.79065 1577.0712 985606
1299.0527 432.90259 1559.4626 854020
1315.5939 435.30807 1568.1281 722434
1312.105 431.09882 1552.9648 656898
1297.777 423.41199 1525.2742 591361
1286.214 416.72766 1501.1949 591361
1278.2 411.27734 1481.5612 657154
1258.3481 402.11884 1448.569 986119
1254.3678 398.12216 1434.1716 2301979
1263.8545 398.42493 1435.2623 2038805
1265.1559 396.16058 1427.1053 2104598
1271.8297 395.59744 1425.0767 2038805
1279.632 395.39041 1424.3311 1907219
1270.9384 390.12259 1405.3545 1775376
1270.1057 387.32083 1395.2616 1709327
1268.4136 384.29501 1384.3616 1709327
1267.2081 381.45471 1374.1299 1643533
1264.9374 378.33215 1362.8813 1446155
1259.5482 374.32263 1348.4376 1117190
1263.4135 373.09668 1344.0214 1051397
1262.3606 370.44296 1334.4618 1117190
1263.5825 368.48572 1327.411 1051398
1265.751 366.82709 1321.4362 985606
1261.8071 363.42844 1309.1931 919813
1262.9781 361.53564 1302.3746 985606
0 0 0 0
0 0 0 0
0 0 0 0
0 0 0 0
0 0 0 0
0 0 0 0
0 0 0 0
0 0 0 0
0 0 0 0
0 0 0 0
0 0 0 0
0 0 0 0
0 0 0 0
0 0 0 0
0 0 0 0
0 0 0 0
0 0 0 0
0 0 0 0
-951.09271 328.98294 1160.2601 2763297
-965.05505 336.25116 1185.8938 2105625
-948.01099 332.74341 1173.5227 1381902
-936.68475 331.20547 1168.0986 723974
-932.61884 332.23093 1171.7152 256
-925.59595 332.21048 1171.6431 0
-921.72504 333.32962 1175.5901 1381646
-909.97559 331.59491 1169.472 2762785
-896.87982 329.33914 1161.5164 2696733
-887.55328 328.44312 1158.3563 2762780
-878.77911 327.73914 1155.8735 2894110
-871.02142 327.40613 1154.6991 2696986
-863.6145 327.20074 1153.9747 2696987
-856.40393 327.06705 1153.5032 2696987
-849.65588 327.10922 1153.652 2960159
-843.03534 327.20166 1153.9779 2960158
-837.3031 327.64313 1155.5349 2960159
-831.50055 328.06421 1157.02 3025952
-826.19885 328.69156 1159.2325 3157281
-821.32074 329.49936 1162.0815 3223331
-817.12451 330.59677 1165.9519 3289124
-811.94696 331.31259 1168.4764 3289124
-808.47058 332.74088 1173.5137 3552040
-805.79358 334.52588 1179.8091 3158311
-802.58594 336.11996 1185.4312 3355433
-799.99713 338.00381 1192.0751 3289640
-796.9397 339.72153 1198.1332 3289640
-796.45563 342.57712 1208.2042 3158054
-795.45404 345.2601 1217.6666 2697506
-792.34583 347.06952 1224.0481 2500126
-797.60236 352.61047 1243.5901 855301
-802.99646 358.3165 1263.7141 855301
-800.65381 360.64539 1271.9276 1249804
-803.05237 365.17468 1287.9016 1447437
-825.39404 378.94727 1336.4749 1644816
-812.65692 376.72601 1328.6409 1842194
-854.44128 399.98389 1410.667 2105366
-880.23651 416.14374 1467.6598 2434330
-881.58337 420.95322 1484.6218 2565915
-878.67511 423.80762 1494.6887 2894880
-880.73682 429.142 1513.5021 3092261
-875.35498 430.92203 1519.78 1579024
-889.63965 442.52179 1560.6901 592128
-906.82562 455.82437 1607.6058 1184523
-927.78552 471.32755 1662.2826 1644045
-940.24756 482.80109 1702.7474 2038803
-941.44733 488.67841 1723.4757 2303001
-942.28705 494.49609 1743.9937 2697503
-941.04871 499.34061 1761.0793 2960676
-945.74146 507.47672 1789.7738 2105368
-953.29626 517.35126 1824.5992 789252
-972.01294 533.5802 1881.8358 987144
-977.83942 543.02875 1915.1591 1579024
-993.34802 558.14014 1968.454 1973783
-1003.6349 570.64282 2012.5487 2631968
-1010.6986 581.59253 2051.1663 2895140
-1013.6461 590.41217 2082.2712 131584
-1053.083 620.96643 2190.0303 592641
-1061.7793 633.93201 2235.7573 1184777
-1064.2542 643.46478 2269.3777 1710863
-1079.7623 661.22357 2332.0098 256
0 0 0 0
-1420.3524 892.71863 3148.4485 66048
-1434.0245 913.34821 3221.2051 66048
-1434.1707 925.80475 3265.137 768
-1370.8092 897.04431 3163.7046 768
-1365.7229 906.14886 3195.8145 768
-1406.3018 946.23645 3337.1958 768
0 0 0 0
0 0 0 0
0 0 0 0
0 0 0 0
-1401.5629 1014.6185 3578.3662 66304
-1462.2493 1074.8655 3790.8459 768
-1431.8252 1068.9771 3770.0786 768
-1424.7621 1080.6198 3811.1399 768
-1424.3929 1097.7977 3871.7234 768
-1410.0956 1104.6289 3895.8159 768
-1422.1475 1132.6743 3994.7268 768
-1466.4874 1187.8251 4189.2329 198144
-1477.9158 1217.7632 4294.8188 768
-1417.1488 1188.2209 4190.6289 768
-1398.9998 1193.9944 4210.9907 768
-1381.7719 1200.7786 4234.9175 512
-1365.8232 1208.947 4263.7261 768
-1386.4968 1250.4531 4410.1104 768
-1371.2926 1260.5782 4445.8193 768
-1335.116 1251.4432 4413.6021 856324
-1300.9381 1243.8529 4386.8325 256
-1292.292 1260.8629 4446.8237 512
-1254.6689 1249.7208 4407.5273 1185297
-1239.2111 1260.6522 4446.0801 5790809
-1232.814 1281.4783 4519.5298 5791838
-1178.271 1252.071 4415.8159 3884612
-1150.1738 1250.0659 4408.7446 3884868
-1131.1422 1258.0502 4436.9033 6582126
-1098.0122 1250.3611 4409.7856 7240055
-1064.2993 1241.6161 4378.9434 7371384
-1048.8298 1254.2488 4423.4966 2963254
-1022.1414 1253.77 4421.8081 4476752
-991.80255 1248.6702 4403.8218 6253675
-965.27386 1248.2207 4402.2368 6385007
-956.12891 1270.8521 4482.0532 4148045
-918.66229 1256.0575 4429.876 4082765
-889.64117 1252.2781 4416.5464 7898761
-868.71838 1260.0145 4443.8315 7899019
-842.93884 1260.9713 4447.2056 8030606
-814.4848 1257.8594 4436.2305 7635846
-802.18781 1280.3267 4515.4683 6846074
-766.76654 1266.1646 4465.521 6385779
-738.62518 1263.4388 4455.9082 6451317
-709.64386 1259.0203 4440.3247 7964813
-687.33386 1266.5535 4466.8931 8227986
-657.32526 1259.936 4443.5542 8030605
-634.07794 1266.2667 4465.8813 7899020
-609.38531 1270.1381 4479.5352 7833224
-592.73657 1291.8955 4556.2695 6582642
-565.64185 1291.8788 4556.2104 1251609
-540.45306 1296.4325 4572.2705 7767174
-512.29187 1293.9608 4563.5532 8096909
-479.74963 1279.528 4512.6514 7438467
-457.73776 1293.1343 4560.6382 5069919
-436.94977 1312.1292 4627.6294 7767432
-407.21198 1304.9951 4602.4692 8030346
-381.26593 1309.86 4619.627 7767175
-351.72974 1302.1887 4592.5718 7569796
-325.35168 1305.9025 4605.6694 6451314
-297.53076 1303.9751 4598.8721 6121579
-270.60965 1306.0002 4606.0142 6318958
-242.58902 1302.5776 4593.9434 6581872
-215.40926 1303.3743 4596.7529 6779508
-187.18585 1297.1703 4574.8726 5463391
-159.35225 1292.0173 4556.6992 6582129
-131.39104 1283.5068 4526.6846 7634817
-105.22111 1292.6179 4558.8174 7897989
-77.99482 1290.5714 4551.5996 5923942
-50.376053 1276.4059 4501.6406 5594977
-23.356169 1262.5033 4452.6084 593422
3.1268253 1267.2888 4469.4863 462606
30.196365 1288.54 4544.4355 3753027
57.294884 1290.3735 4550.9019 5068886
83.700851 1280.4364 4515.8555 5924193
110.54283 1280.3761 4515.6426 4411210
137.4814 1281.2393 4518.687 3160371
163.49892 1274.6399 4495.4121 2041375
191.50055 1283.1898 4525.5664 1778202
218.44237 1283.4066 4526.3306 768
247.47224 1294.4982 4565.4487 3358259
276.18909 1301.9216 4591.6299 594954
303.84372 1303.4529 4597.0303 5725782
333.0365 1310.7854 4622.8906 133122
360.66327 1311.3062 4624.7271 1383448
389.29019 1315.1321 4638.2202 2962738
413.73682 1305.2635 4603.416 6516586
438.77481 1298.3696 4579.1025 6976627
478.08963 1332.0596 4697.9204 5068372
496.48376 1306.9581 4609.3926 5002837
532.54138 1328.5483 4685.5371 6516077
560.17078 1328.0111 4683.6426 4804944
583.49609 1317.8043 4647.645 6779504
585.10852 1261.6998 4449.7749 6056036
632.79254 1305.4982 4604.2437 7108725
656.64026 1298.5275 4579.6592 7503482
679.70715 1290.6293 4551.8037 3819073
717.79309 1310.762 4622.8081 5069653
741.21484 1303.6191 4597.6167 7175032
762.40045 1293.1914 4560.8398 7504513
799.32434 1309.2584 4617.5054 5596260
828.76257 1312.4047 4628.6016 6056040
851.15918 1304.556 4600.9204 5529696
884.54169 1313.5096 4632.4985 3950406
928.534 1337.2023 4716.0576 5529181
968.47754 1353.8458 4774.7563 6845296
986.12018 1339.2548 4723.2964 3226422
1014.34 1339.4387 4723.9453 1778206
1027.0155 1319.6395 4654.1172 1251349
1058.5867 1324.5219 4671.3364 7438204
1080.5292 1317.4148 4646.2715 1844256
1099.6577 1307.3169 4610.6577 0
1125.5874 1305.5989 4604.5986 6582123
1178.3903 1334.3932 4706.1509 5332057
1215.557 1344.5566 4741.9951 5660765
1253.0341 1354.5946 4777.3975 5463386
1300.2889 1374.5237 4847.6836 4148554
1327.92 1373.2942 4843.3472 7043446
1326.7511 1342.965 4736.3818 7832962
1343.2214 1331.38 4695.5239 6780273
1365.75 1326.1495 4677.0771 4674127
1418.15 1349.5543 4759.6211 5726301
1433.4711 1337.4481 4716.9248 5462873
1471.0088 1346.1371 4747.5693 1579802
1500.5421 1347.3121 4751.7134 6582125
1533.3123 1351.2963 4765.7646 5990244
1582.6863 1369.5032 4829.9771 4476749
1596.7786 1357.0758 4786.1479 7503481
1612.8043 1346.6981 4749.5479 8424583
1618.7302 1328.3893 4684.9761 5463385
1643.4506 1325.8622 4676.0635 5528925
1681.7885 1334.2225 4705.5488 8228236
1718.8757 1341.3335 4730.6279 8491925
1728.7974 1327.3578 4681.3379 8688535
1771.6941 1338.7418 4721.4873 8820122
1794.6644 1334.9487 4708.1099 9346466
1827.4427 1338.4556 4720.478 9346207
1856.5486 1339.2074 4723.1294 7766405
1886.1853 1340.314 4727.0322 3686211
1908.1162 1335.9927 4711.792 3028283
1956.4292 1350.0011 4761.1968 4475471
2003.8523 1363.0044 4807.0571 4870229
2032.2065 1362.854 4806.5269 6582130
2017.564 1334.2729 4705.7266 9279644
2050.1123 1337.2555 4716.2456 7766920
2094.6846 1347.8947 4753.7676 9477539
2126.8035 1350.3436 4762.4048 9148575
2148.396 1346.1328 4747.5542 9214369
2181.2441 1348.9922 4757.6387 9806763
2207.7495 1347.9059 4753.8076 9937835
2251.136 1357.0233 4785.9629 9674404
2271.7585 1352.3619 4769.5229 9213853
2281.448 1341.3872 4730.8174 10003368
2322.8445 1349.0952 4758.002 10266284
2368.2886 1358.9402 4792.7231 9937062
2377.8367 1348.1985 4754.8394 7766403
2364.7454 1325.0239 4673.1069 8753556
2439.5298 1351.0547 4764.9126 9411744
2482.3721 1359.0009 4792.937 9937576
2518.1038 1362.9178 4806.752 10134956
2532.7996 1355.4891 4780.5522 10266543
2554.2795 1351.8159 4767.5972 10332336
2585.9326 1353.548 4773.7061 10398129
2613.2954 1353.0214 4771.8486 10266541
2635.1663 1349.6929 4760.1099 9937833
2672.2546 1354.1469 4775.8179 10003369
2691.1328 1349.376 4758.9922 9082267
2718.5854 1348.9592 4757.5225 10003369
2768.5757 1359.619 4795.1172 10331821
2796.8213 1359.4917 4794.6685 10266543
2832.6501 1363.016 4807.0977 10201005
2878.3655 1371.1794 4835.8887 10397614
2922.9297 1378.6384 4862.1953 10463405
2944.8938 1375.3961 4850.7603 5331550
3011.3723 1392.8053 4912.1592 3621187
2990.5989 1369.9125 4831.4204 2106662
2998.6143 1360.517 4798.2842 329735
0 0 0 0
0 0 0 0
0 0 0 0
0 0 0 0
0 0 0 0
0 0 0 0
1529.1144 650.46661 2294.0718 10989997
1529.9581 645.0719 2275.0459 919819
1471.5228 614.99725 2168.9783 196608
1469.6035 608.8598 2147.3325 196608
1475.3372 605.97125 2137.1453 327680
1478.0221 601.89062 2122.7537 262144
1446.0684 583.8927 2059.2783 262144
1443.895 578.12067 2038.9215 196608
1462.574 580.7243 2048.104 393984
1435.4758 565.25897 1993.5607 1446668
1446.6099 564.97858 1992.5719 1644047
1447.9729 560.91766 1978.2498 1380875
1444.3987 555.02496 1957.4675 788738
1418.6084 540.758 1907.1505 459776
1424.2848 538.61682 1899.5991 327936
1433.4844 537.83136 1896.8289 196608
1433.5677 533.66443 1882.1328 196608
1395.5082 515.47284 1817.9745 196608
1409.4481 516.62079 1822.0232 196608
1417.6569 515.66656 1818.6578 460035
1411.5969 509.5759 1797.1771 3815218
1388.7429 497.55972 1754.7985 1249291
1363.2039 484.76794 1709.6842 1249034
1367.6094 482.73523 1702.5153 1117448
1357.4733 475.63724 1677.4821 986119
1345.479 467.99649 1650.5345 985606
1306.2617 451.06592 1590.8236 919813
1299.0458 445.34982 1570.6639 919813
1314.472 447.42218 1577.9729 722434
1295.1956 437.73679 1543.8143 656641
1293.8311 434.19876 1531.3363 656641
1297.354 432.33893 1524.7771 525568
1284.2146 424.99072 1498.8613 525568
1278.5989 420.21649 1482.0236 459777
1259.1919 411.0061 1449.5403 1512463
1255.5853 407.04318 1435.5638 2236186
1261.5314 406.20966 1432.6241 2170135
1273.028 407.16266 1435.9851 2038805
1265.3749 402.01889 1417.8441 1973012
1267.6469 400.07562 1410.9906 1907219
1268.321 397.65698 1402.4604 1841426
1268.4437 395.09808 1393.4358 1775119
1268.3851 392.51639 1384.3306 1709327
1265.899 389.22156 1372.7103 1577741
1262.9423 385.82513 1360.7318 1511948
1262.1017 383.11432 1351.1713 1248776
1261.1265 380.39719 1341.5885 1117190
1261.6333 378.15845 1333.6929 985604
1262.308 375.99765 1326.0721 919814
1265.1266 374.49832 1320.7843 854021
1250.1655 367.78687 1297.1143 919813
1273.2885 372.29303 1313.0066 919813
0 0 0 0
0 0 0 0
0 0 0 0
0 0 0 0
0 0 0 0
0 0 0 0
0 0 0 0
0 0 0 0
0 0 0 0
0 0 0 0
0 0 0 0
0 0 0 0
0 0 0 0
0 0 0 0
0 0 0 0
0 0 0 0
0 0 0 0
0 0 0 0
-963.84863 340.38559 1175.8214 2763296
-950.87372 338.25668 1168.4674 2105622
-948.77197 339.99283 1174.4647 1512975
-938.94946 338.9675 1170.9229 657668
-932.37341 339.1076 1171.4069 65792
-926.33301 339.44611 1172.5762 131072
-921.16602 340.11221 1174.8771 591621
-913.35358 339.80426 1173.8134 2762528
-898.37 336.8031 1163.4462 2630941
-889.20575 335.95398 1160.5129 2762526
-879.21954 334.77863 1156.4529 2959904
-871.36078 334.40115 1155.1489 3025951
-864.10535 334.2511 1154.6306 2828573
-857.31769 334.28101 1154.7339 2894366
-850.71521 334.38419 1155.0903 3025952
-844.27466 334.55322 1155.6742 3157538
-838.6684 335.05835 1157.4192 3157281
-832.91681 335.51328 1158.9906 3157538
-827.78229 336.22644 1161.4542 3486247
-822.49561 336.88928 1163.7439 3355432
-818.64447 338.15634 1168.1208 3355176
-813.93488 339.08743 1171.3372 3420455
-809.60052 340.19226 1175.1537 3288869
-806.64136 341.89929 1181.0503 3026724
-803.21826 343.43787 1186.3651 3092261
-800.50714 345.31079 1192.835 2829089
-797.67725 347.16556 1199.2421 2829089
-797.74866 350.32785 1210.1658 2697502
-797.49817 353.40506 1220.7957 2302746
-798.32898 357.02234 1233.2911 1118475
-804.04535 362.91187 1253.6357 723715
-805.92987 367.16583 1268.3307 789510
-803.48267 369.50809 1276.4216 1117963
-813.88348 377.85992 1305.2721 1184266
-840.79803 394.11316 1361.4169 1579025
-818.05426 387.17938 1337.4651 1842194
-858.81702 410.46176 1417.8912 2105366
-877.97089 423.77557 1463.8822 2434329
-878.3313 428.19403 1479.1453 2631708
-875.39813 431.07996 1489.1144 2894880
-877.68555 436.62195 1508.2584 2960674
-877.52118 441.04608 1523.5411 2236695
-884.48413 449.18204 1551.6458 394752
-906.02179 464.96924 1606.1808 1184266
-917.46637 475.85785 1643.7942 1579024
-928.46332 486.74622 1681.4067 2104853
-938.37195 497.2948 1717.8457 2302745
-942.85254 505.16733 1745.0403 2631710
-940.5119 509.51965 1760.0748 3092263
-939.61584 514.76129 1778.1814 2829091
-959.33295 531.5434 1836.1533 723716
-965.19556 540.94708 1868.6372 1250058
-977.32385 554.12231 1914.1494 1644817
-1003.9143 575.90424 1989.3926 1974039
-1004.109 582.88293 2013.4995 2500382
-1013.7964 595.60687 2057.4529 2895396
-999.41937 594.33112 2053.0461 658435
-1031.3364 620.89423 2144.8052 855812
-1058.101 644.98157 2228.012 1250570
-1066.9905 658.64551 2275.2124 1973778
-1071.1693 669.71515 2313.4512 1381643
0 0 0 0
-1516.1853 972.93219 3360.8782 66048
-1554.1346 1010.6022 3491.0046 66048
-1492.4434 983.62201 3397.8049 768
-1516.2133 1012.9989 3499.2839 768
-1408.4641 954.10144 3295.8298 512
0 0 0 0
0 0 0 0
0 0 0 0
0 0 0 0
0 0 0 0
-1349.472 997.39191 3445.3716 512
-1360.7321 1021.2148 3527.6648 512
-1375.8881 1048.7533 3622.793 512
-1373.9026 1063.8938 3675.094 768
-1403.379 1104.28 3814.604 768
-1401.0352 1120.5435 3870.7837 768
-1407.0787 1144.1702 3952.3997 768
-1398.2812 1156.3265 3994.3921 768
-1391.5603 1170.6498 4043.8701 768
-1384.4514 1185.1445 4093.9404 768
-1419.9534 1237.2871 4274.061 768
-1402.4058 1244.2627 4298.1572 768
-1391.8315 1257.7991 4344.917 768
-1371.8134 1263.1514 4363.4058 526849
-1345.5791 1262.876 4362.4546 527107
-1323.9258 1266.9736 4376.6094 329216
-1310.1755 1278.9504 4417.9819 256
-1274.3782 1269.4552 4385.1816 256
-1248.3561 1269.5043 4385.3511 512
-1217.7247 1264.7679 4368.9902 6845808
-1189.5649 1262.4485 4360.9775 7109756
-1146.0742 1243.3927 4295.1519 7503747
-1118.0508 1240.6315 4285.6138 7372928
-1103.4071 1252.9344 4328.1128 7503486
-1084.3545 1260.6989 4354.9341 6581869
-1049.2516 1249.7264 4317.0312 5989731
-1039.8628 1269.5988 4385.6777 4871251
-1008.8902 1263.4631 4364.4829 6845558
-989.03485 1271.2936 4391.5322 7109499
-955.21783 1261.116 4356.375 7636359
-937.91473 1272.781 4396.6704 7964811
-909.83417 1270.0702 4387.3062 7833227
-884.74255 1271.4949 4392.2275 7899019
-851.67194 1261.1906 4356.6323 8031633
-830.02637 1267.6893 4379.0815 8097426
-800.19916 1261.7085 4358.4214 7833997
-775.02094 1262.9028 4362.5474 8097169
-746.23596 1258.0994 4345.9541 8097169
-728.80933 1272.7875 4396.6924 8030606
-703.1861 1273.7212 4399.918 7965069
-676.03052 1271.8442 4393.4341 7833484
-649.56793 1271.1726 4391.1143 8162193
-623.79407 1271.8489 4393.4507 7899020
-601.67413 1280.36 4422.8511 8030604
-571.10211 1270.8409 4389.9688 7898761
-550.14233 1282.8242 4431.3633 7570053
-526.98969 1290.6422 4458.3696 7701639
-500.64862 1291.066 4459.834 8030347
-475.77457 1295.5321 4475.2612 8162446
-446.93365 1289.0854 4452.9922 7899273
-429.07785 1315.5062 4544.2598 7700610
-409.0531 1338.3811 4623.2783 4476496
-378.55869 1327.8284 4586.8247 7569538
-348.40866 1316.9388 4549.2085 7108986
-317.15768 1299.7048 4489.6753 6384493
-291.53854 1304.5034 4506.2515 6384493
-262.10782 1291.4921 4461.3057 7174267
-234.29181 1284.4032 4436.8179 7174780
-212.4881 1312.6569 4534.4165 6845816
-185.63666 1313.4075 4537.0098 7372158
-155.84937 1290.1107 4456.5337 6911350
-129.64447 1292.9993 4466.5117 1580317
-102.95929 1291.3521 4460.8218 791058
-73.610527 1243.5636 4295.7422 7239800
-49.232655 1273.5903 4399.4658 5135708
-22.926506 1265.2622 4370.6978 6648945
3.1689599 1311.2955 4529.7139 5398365
29.435097 1282.3912 4429.8677 3292732
55.985558 1287.3228 4446.9028 4081476
82.41185 1287.1514 4446.311 659212
108.49942 1283.0576 4432.1699 1251862
134.15788 1276.481 4409.4512 2370855
163.99864 1305.3431 4509.1523 2304547
189.29674 1295.0179 4473.4854 725514
215.78914 1294.4008 4471.353 512
243.54143 1300.6475 4492.9316 593673
275.19144 1324.418 4575.0439 4147264
298.54739 1307.5857 4516.8989 396039
327.10965 1314.4525 4540.6196 1280
356.63531 1323.8488 4573.0776 2107168
381.66321 1316.4004 4547.3481 2830380
413.18057 1330.8397 4597.2271 263941
440.16748 1329.8003 4593.6367 2435623
467.54382 1329.9901 4594.2925 2369827
486.75717 1308.22 4519.0898 922384
511.18423 1302.0068 4497.6274 988179
539.68793 1306.2786 4512.3838 1778465
562.6709 1297.4159 4481.7686 5792864
600.52032 1322.0842 4566.9824 6911603
622.15747 1310.47 4526.8623 7569534
652.32013 1317.0317 4549.5293 7964293
676.56244 1311.5936 4530.7441 5859173
706.98364 1318.092 4553.1919 6187881
739.66107 1328.1625 4587.979 4411213
761.60126 1318.922 4556.0591 7833218
789.56659 1320.3921 4561.1372 6254189
808.87817 1307.7736 4517.5479 8030856
843.25793 1319.5449 4558.2104 7438464
877.91534 1331.0043 4597.7954 6254190
912.48822 1341.6471 4634.5601 7306364
953.16522 1360.3781 4699.2642 7635584
962.17303 1334.1305 4608.5947 2831924
976.76324 1316.8624 4548.9443 2700851
1005.9105 1319.6218 4558.4761 6385515
1039.33 1327.694 4586.3604 3358781
1063.3057 1323.5975 4572.21 8359561
1079.4862 1310.2443 4526.0825 7570046
1112.0396 1316.9296 4549.1763 7569536
1149.5555 1329.035 4590.9932 8096649
1169.7244 1320.9886 4563.1978 8556688
1185.1937 1308.12 4518.7446 6451312
1215.2267 1311.5397 4530.5576 5596003
1250.1514 1319.9762 4559.7002 4148301
1306.2389 1349.925 4663.1553 7438207
1335.1365 1351.1138 4667.2617 7043193
1352.4222 1340.7426 4631.4355 3029561
1377.4766 1338.3329 4623.1118 4344907
1415.5605 1348.4296 4657.9893 7897986
1450.7102 1355.3971 4682.0576 7239798
1488.1055 1364.1606 4712.3306 4871251
1508.3455 1357.1648 4688.1641 7306619
1519.2682 1342.1913 4636.4399 8030343
1521.5157 1320.2241 4560.5571 6254189
1548.6012 1320.2007 4560.4761 5728100
1579.3003 1323.2057 4570.8564 7636098
1636.5873 1348.0088 4656.5356 3556420
1667.1982 1350.3798 4664.7261 7306878
1681.7162 1339.8518 4628.3584 8557202
1711.319 1341.4877 4634.0093 8820120
1735.1035 1338.5829 4623.9751 8096654
1759.298 1336.0801 4615.3296 8161931
1815.0182 1357.2285 4688.3843 7503232
1826.6748 1345.2858 4647.1294 4936536
1872.046 1358.1587 4691.5972 5593949
1885.1512 1347.5884 4655.0835 4015170
1945.7538 1370.786 4735.2168 132099
1967.0396 1366.0182 4718.7471 256
1989.9622 1362.5051 4706.6118 66050
1977.4333 1335.153 4612.127 66051
2022.3278 1346.7905 4652.3276 856853
2056.2876 1350.9302 4666.6274 7239546
2086.458 1352.5037 4672.0625 7700097
2105.5876 1346.9724 4652.9556 7765892
2159.3994 1363.4836 4709.9917 9674147
2181.9644 1360.095 4698.2861 9674404
2210.9292 1360.7306 4700.4819 9805990
2231.6836 1356.3606 4685.3862 9542819
2261.6882 1357.6511 4689.8438 9937321
2278.3208 1350.9807 4666.8018 10200494
2305.8201 1350.8369 4666.3052 10200493
2332.2407 1350.0721 4663.6636 9937577
2374.6753 1358.4866 4692.73 10069162
2398.803 1356.3544 4685.3647 10134955
2412.0249 1348.1754 4657.1113 10003369
2458.6992 1358.6677 4693.356 10068907
2496.582 1364.121 4712.1934 10397873
2520.2661 1361.781 4704.1104 10398130
2542.9885 1358.9788 4694.4302 10398127
2572.7253 1359.9451 4697.7681 10463920
2600.884 1360.0653 4698.1836 10332590
2640.0508 1365.8783 4718.2637 10003113
2658.2593 1360.8397 4700.8589 10134700
2693.4041 1364.4862 4713.4551 10266287
2717.9509 1362.7438 4707.436 10200748
2741.7905 1360.686 4700.3276 10200748
2769.3926 1360.5181 4699.7476 10332334
2799.8809 1361.7572 4704.0278 10266541
2824.1516 1359.9778 4697.8813 10266540
2888.7534 1377.4645 4758.2871 10266285
2879.873 1359.913 4697.6572 10266540
2897.345 1355.0228 4680.7651 10397867
0 0 0 0
2939.8354 1348.9821 4659.8979 10858931
0 0 0 0
0 0 0 0
0 0 0 0
0 0 0 0
0 0 0 0
0 0 0 0
1540.2617 663.03271 2290.3674 131072
1505.5618 642.41632 2219.1506 787202
1480.3804 626.18433 2163.0791 196608
1485.4302 622.90924 2151.7659 196608
1486.9044 618.20355 2135.5105 196608
1455.3611 599.96619 2072.5117 196608
1452.0851 593.59027 2050.4868 196864
1471.0499 596.33649 2059.9734 459776
1445.2527 581.0415 2007.1387 1841428
1444.9814 576.17529 1990.329 1775633
1447.9172 572.65656 1978.1738 1315082
1435.4822 563.16425 1945.3838 920324
1432.0284 557.31903 1925.1921 854531
1427.7543 551.24976 1904.2266 788225
1430.3564 547.91003 1892.6898 591360
1428.4514 542.90936 1875.4156 525568
1408.1802 531.05975 1834.4827 591360
1403.1818 525.10785 1813.9226 722945
1423.3477 528.59204 1825.9583 920327
1402.4032 516.87183 1785.472 1578256
1366.781 499.95868 1727.0477 1380877
1364.1649 495.2811 1710.8895 1183498
1358.545 489.59024 1691.2312 986119
1347.5488 482.05975 1665.218 919813
1340.7377 476.12531 1644.7181 788227
1299.1508 458.01657 1582.1637 788227
1297.5898 454.17795 1568.9036 722434
1320.6639 458.9552 1585.406 656641
1321.0986 455.85294 1574.6896 590848
1289.9603 441.97647 1526.755 656385
1289.8727 438.85846 1515.9843 525569
1280.8607 432.7684 1494.9469 525568
1269.2275 425.88278 1471.1613 393984
1253.9421 417.87427 1443.4968 1973014
1256.4875 415.87634 1436.5953 2170393
1259.4762 414.05115 1430.2903 2104598
1263.1079 412.46039 1424.7952 2038805
1264.5657 410.18567 1416.9375 1973012
1266.712 408.1629 1409.9502 1907219
1267.8713 405.85083 1401.9633 1643534
1265.0775 402.31174 1389.7379 1643533
1265.7887 399.92603 1381.4968 1577741
1264.2999 396.88046 1370.9762 1511947
1261.0619 393.32831 1358.7058 1314569
1260.557 390.66843 1349.5176 1314569
1261.4147 388.46182 1341.895 1182983
1261.3363 385.99649 1333.3789 1051397
1262.8002 384.03098 1326.5892 985604
1263.7397 381.93137 1319.3364 919811
1264.8989 379.92365 1312.401 854020
1261.7651 376.65906 1301.1238 854021
0 0 0 0
0 0 0 0
0 0 0 0
0 0 0 0
0 0 0 0
0 0 0 0
0 0 0 0
0 0 0 0
0 0 0 0
0 0 0 0
0 0 0 0
0 0 0 0
0 0 0 0
0 0 0 0
0 0 0 0
0 0 0 0
0 0 0 0
0 0 0 0
-967.61066 348.73181 1180.4108 2302745
-962.52594 349.43353 1182.786 1645584
-949.48517 347.23599 1175.3477 1381902
-940.23926 346.40396 1172.5314 657668
-934.14191 346.72815 1173.6287 65536
-926.7807 346.58459 1173.1428 196608
-918.38641 346.04962 1171.3319 131072
-912.7052 346.53653 1172.9801 2761759
-897.78638 343.49658 1162.6903 2564635
-888.91016 342.73938 1160.1272 2630940
-880.53314 342.16431 1158.1807 2630939
-871.90399 341.48141 1155.8691 2762779
-864.78717 341.38464 1155.5416 3025952
-858.11267 341.46237 1155.8047 3025952
-851.45551 341.54828 1156.0955 3025952
-844.94916 341.69659 1156.5975 3091745
-839.70557 342.36218 1158.8505 3091745
-834.25372 342.95319 1160.851 3157538
-829.52106 343.85214 1163.8938 3223331
-824.71906 344.7373 1166.8899 3354917
-819.62305 345.51343 1169.5171 3289124
-814.89081 346.45758 1172.7129 3289125
-811.70721 348.08212 1178.2117 3091490
-808.56067 349.75095 1183.8605 2829089
-805.53564 351.50211 1189.7878 2763296
-802.11462 353.10999 1195.2303 2368538
-800.56061 355.57584 1203.5769 2500123
-800.39758 358.70956 1214.1842 2171160
-801.36774 362.41278 1226.7191 1250058
-806.03473 367.87128 1245.1953 394752
-813.82849 374.87122 1268.8892 526082
-813.44391 378.19977 1280.1559 723461
-814.57922 382.30447 1294.0498 1052426
-822.37958 389.64532 1318.8977 1184266
-830.0954 397.08716 1344.0873 1447438
-849.20386 410.17639 1388.3926 1710608
-869.60529 424.15326 1435.7024 2105366
-884.33539 435.61356 1474.494 2368537
-878.56885 437.10587 1479.5453 2565915
-874.229 439.34537 1487.1256 2894880
-872.25208 442.8302 1498.9214 2829089
-867.28845 444.85507 1505.7753 2894884
-883.19489 457.73849 1549.384 197376
-910.19775 476.70523 1613.5839 1118474
-914.83557 484.23785 1639.0807 1709840
-927.04034 495.98105 1678.8298 2038803
-933.86127 505.06805 1709.5883 2302745
-945.7901 517.14801 1750.4773 2631710
-941.99072 520.80103 1762.8423 2829092
-938.8089 524.88153 1776.6543 3223849
-954.84955 539.92438 1827.5721 591876
-952.87653 545.01025 1844.7872 1118473
-975.54895 564.4751 1910.6731 1644562
-983.35022 575.69232 1948.642 1908246
-1011.5909 599.28577 2028.5027 2368797
-1009.91 605.50854 2049.5659 2697760
-1003.7872 609.1875 2062.0188 1316366
-1040.7186 639.40967 2164.3167 1052934
-1058.017 658.17499 2227.835 1316619
-1056.9503 665.84686 2253.8032 2170903
-1078.9313 688.42145 2330.2151 2961186
-1063.1168 687.15381 2325.9243 66048
0 0 0 0
-1564.9977 1038.5656 3515.4062 66048
-1568.807 1055.1847 3571.6599 768
-1565.2922 1067.266 3612.5537 768
0 0 0 0
0 0 0 0
0 0 0 0
-1461.4225 1054.3079 3568.6921 512
-1443.6826 1056.8529 3577.3064 66304
0 0 0 0
-1354.7932 1021.8887 3458.9575 66048
-1373.8455 1052.2307 3561.6611 768
-1385.924 1078.0979 3649.218 768
-1377.6702 1088.7198 3685.1721 768
-1374.8158 1104.0211 3736.9646 768
-1382.3219 1128.2815 3819.0828 768
-1403.1121 1164.376 3941.2578 768
-1402.0465 1183.2512 4005.1482 768
-1387.1101 1190.8704 4030.9377 768
-1371.8604 1198.4835 4056.7075 768
-1364.4015 1213.2972 4106.8501 768
-1381.8315 1251.1866 4235.1006 768
-1345.9294 1241.2964 4201.623 768
-1355.125 1273.4102 4310.3242 256
-1338.6819 1282.205 4340.0933 66048
-1308.2605 1277.6938 4324.8237 512
-1285.7971 1280.9296 4335.7764 512
-1257.4135 1278.2792 4326.8052 256
-1238.8429 1285.7025 4351.9321 512
-1214.1393 1286.9417 4356.1265 3028786
-1158.7994 1255.0538 4248.1904 7569792
-1128.041 1248.9614 4227.5684 7438720
-1105.0813 1251.4227 4235.8999 4411730
-1067.2842 1236.8051 4186.4209 6648175
-1051.9352 1248.1239 4224.7334 5595231
-1028.1794 1249.7778 4230.332 7634815
-1013.5677 1262.9083 4274.7769 7569279
-996.62079 1273.7295 4311.4053 6648693
-967.00964 1268.5095 4293.7358 6846072
-944.33441 1272.3512 4306.7397 8030604
-920.60956 1274.9536 4315.5488 7504517
-886.32758 1262.6655 4273.9551 6780537
-863.01208 1265.7362 4284.3486 6977659
-840.62201 1270.392 4300.1079 7240834
-813.51807 1267.9926 4291.9863 8030606
-786.16968 1265.0444 4282.0073 7964556
-761.88672 1266.9968 4288.6157 8161937
-738.05023 1269.8524 4298.2817 7965073
-715.43951 1275.0977 4316.0361 7834000
-690.37939 1276.2051 4319.7847 7767950
-665.31866 1277.3971 4323.8193 8162451
-640.06915 1278.3077 4326.9019 8162707
-617.62061 1285.1229 4349.9702 8754588
-593.92694 1289.8298 4365.9023 8491157
-566.57404 1286.6567 4355.1621 7898763
-542.86975 1291.8627 4372.7832 5661799
-517.56342 1293.5878 4378.6226 6648181
-495.52795 1304.1039 4414.2183 7371902
-469.51093 1304.7317 4416.3433 5923943
-442.93555 1303.7904 4413.1572 3554108
-426.51208 1334.4945 4517.0864 3291193
-401.19879 1339.6407 4534.5059 4344397
-374.91348 1342.049 4542.6572 5462877
-346.23206 1335.5881 4520.7881 5397598
-310.69742 1299.3788 4398.2241 2963000
-284.47437 1299.0354 4397.062 4410189
-260.2012 1308.4275 4428.853 6252906
-232.56987 1301.1469 4404.209 2962486
-204.23997 1287.6147 4358.4048 7305851
-180.60622 1304.0585 4414.0645 7569023
-155.84811 1316.5945 4456.4976 8029831
-128.50662 1307.9718 4427.3105 8096137
-100.4048 1285.1747 4350.1455 7043706
-74.947296 1292.1492 4373.7529 6319726
-48.971512 1292.8513 4376.1299 4609620
-23.023586 1296.7142 4389.2051 7569278
3.0858979 1303.1487 4410.9849 6516074
29.879816 1328.5 4496.7959 2436394
56.853207 1334.1202 4515.8198 0
81.49884 1299.0323 4397.0518 329474
107.73439 1300.1747 4400.9185 329987
134.59517 1306.9417 4423.8237 592903
162.43871 1319.4792 4466.2617 4343871
190.91454 1332.9084 4511.7178 5792858
214.90828 1315.5911 4453.1011 6056286
241.89304 1318.3743 4462.5215 197634
266.01306 1306.5369 4422.4536 1250835
296.8194 1326.7153 4490.7554 512
323.25696 1325.6475 4487.1406 1536
348.82086 1321.4327 4472.874 922635
379.5162 1335.8774 4521.7676 856585
408.98264 1344.3716 4550.519 1514261
432.43149 1333.2585 4512.9028 2369826
460.8222 1337.7904 4528.2427 2435619
482.08255 1322.2648 4475.6904 263939
512.39838 1331.9016 4508.3101 2106655
533.245 1317.1902 4458.5137 198403
567.38434 1335.152 4519.312 4870475
589.31305 1324.0551 4481.7505 1646619
609.83954 1310.9041 4437.2358 2239014
648.42242 1336.048 4522.3447 7239539
668.92474 1323.4187 4479.5967 5199955
697.24475 1326.6311 4490.4702 3818303
719.06317 1317.6925 4460.2139 1647134
746.71173 1319.6934 4466.9868 1909536
769.07477 1312.5364 4442.7612 4674642
796.68073 1314.5052 4449.4258 7372670
835.60883 1334.4287 4516.8638 6846327
859.21362 1329.4026 4499.8511 8030344
891.10034 1337.1073 4525.9307 7306878
909.42004 1324.5995 4483.5933 8557202
951.01459 1345.7393 4555.1484 7701637
961.82147 1323.3483 4479.3579 8096394
992.55511 1328.842 4497.9536 5596003
1028.7041 1341.1073 4539.4702 8030345
1031.5411 1310.4274 4435.6226 7898757
