# .PCD v0.7 - Point Cloud Data file format
VERSION 0.7
FIELDS x y z rgb
SIZE 4 4 4 4
TYPE F F F U
COUNT 1 1 1 1
WIDTH 1414
HEIGHT 1
VIEWPOINT 0 0 0 1 0 0 0
POINTS 1414
DATA ascii
-346.88467 613.56403 1218.5714 263426
-341.38486 616.71588 1224.8312 256
-332.65433 614.04163 1219.5199 256
-325.30713 613.85846 1219.1561 256
-318.50107 614.71143 1220.8502 256
-311.37476 614.97162 1221.3669 256
-303.25735 613.24011 1217.9281 256
-297.60104 616.52246 1224.447 256
-289.37991 614.52271 1220.4753 256
-280.63577 611.28094 1214.037 257
-272.87463 610.06567 1211.6234 258
-265.93127 610.66235 1212.8085 2
-256.85077 606.24805 1204.0414 2
-247.89157 601.87506 1195.3564 2
-240.93318 602.2453 1196.0918 258
-233.25659 600.78827 1193.198 258
-228.65001 607.39508 1206.3195 258
-222.00961 608.85211 1209.2133 258
-214.60623 608.2442 1208.0059 2
-208.54929 611.54242 1214.5564 2
-200.51411 609.06836 1209.6427 2
-192.79364 607.40155 1206.3324 2
-186.30031 609.62158 1210.7415 1
-178.79089 608.56152 1208.6361 258
-171.62711 608.63831 1208.7887 258
-163.95113 606.82617 1205.1896 514
-157.93921 611.28894 1214.0529 2
-150.686 611.14478 1213.7666 2
-143.86867 612.84283 1217.139 2
-136.66757 612.99939 1217.45 131845
-129.52753 613.46271 1218.3701 263431
-122.3765 613.92572 1219.2897 329224
-115.20063 614.31458 1220.062 329224
-107.85826 613.80823 1219.0563 329224
-100.64471 614.01471 1219.4664 329479
-93.467659 614.49335 1220.417 395271
-86.444038 616.14606 1223.6995 395271
-79.148842 615.98895 1223.3875 395272
-72.081047 617.7489 1226.8828 198149
-64.449402 614.52887 1220.4875 3224884
-57.400612 616.75439 1224.9076 1909281
-50.231663 618.14801 1227.6754 66306
-43.158348 621.39233 1234.1188 263941
-35.669876 618.76392 1228.8987 329478
-28.444042 620.51111 1232.3687 3554105
-21.153 621.55438 1234.4407 3556416
-13.835919 622.53479 1236.3878 4873822
-6.4627914 620.35736 1232.0634 5993076
0.85136563 612.74396 1216.9426 6453372
8.079813 612.25946 1215.9805 5926515
15.238828 609.45563 1210.4119 5662830
22.491295 610.9892 1213.4576 4478300
29.782705 612.57892 1216.6149 3819598
37.102165 614.01147 1219.4601 2700605
44.388145 614.51221 1220.4546 2700092
51.974297 618.44409 1228.2634 2831935
59.316067 618.85748 1229.0845 2569276
66.472527 617.45892 1226.3069 3095876
73.43158 614.68427 1220.7963 4346458
80.854973 615.94611 1223.3024 3622991
88.495293 618.51587 1228.406 3820370
96.414429 622.49396 1236.3068 3030338
103.30525 619.73956 1230.8363 1582376
110.62492 619.75201 1230.8611 1056032
118.10822 620.62274 1232.5905 858910
125.55598 621.216 1233.7686 1780526
130.68895 610.92285 1213.3259 4282720
140.04239 620.40375 1232.1555 5402232
145.58337 612.89203 1217.2368 6652043
154.37785 619.14014 1229.6458 7441557
160.21146 613.48523 1218.4149 7572886
166.62669 610.4505 1212.3877 7704471
173.74088 610.12183 1211.735 8164509
181.76942 612.90253 1217.2576 8427936
189.18112 613.46991 1218.3845 8032922
196.73338 614.43457 1220.3003 7901335
203.96202 614.35571 1220.1437 6914440
211.41879 614.94586 1221.3158 6585475
219.03378 615.94183 1223.2938 6980490
225.95163 614.9762 1221.3761 6980235
232.80319 613.89606 1219.2308 7374991
239.78416 613.21204 1217.8723 6058102
249.34122 618.96295 1229.2939 3226687
255.29584 615.69836 1222.8103 857110
264.71829 620.7464 1232.8359 922905
272.00476 620.64856 1232.6416 1317406
279.61075 621.26581 1233.8676 1054750
287.92294 623.38055 1238.0675 2436406
294.84216 622.4491 1236.2175 1779760
303.61273 625.37634 1242.0312 2635069
308.64508 620.64746 1232.6395 4280151
314.75031 618.2453 1227.8687 2832962
321.23224 616.67529 1224.7505 5661805
325.99881 611.95471 1215.3752 6518143
329.68365 605.45239 1202.4613 7438734
335.92819 603.82715 1199.2334 7965590
343.79129 605.11823 1201.7976 8228763
351.78339 606.57922 1204.6992 8294555
360.31796 608.89862 1209.3057 7702419
368.08209 609.85083 1211.1968 5399663
377.2695 613.07935 1217.6088 4478561
383.7854 611.9267 1215.3196 5202283
395.59781 619.10559 1229.5773 6254715
402.36826 618.27661 1227.9309 6517886
410.36533 619.32843 1230.0198 6583679
416.58566 617.7088 1226.8032 5991542
424.51318 618.63281 1228.6383 5399662
430.96426 617.41034 1226.2104 6715265
439.57144 619.26605 1229.896 7834003
447.16669 619.65887 1230.676 8426398
454.81223 620.10748 1231.567 8426655
467.77972 627.68311 1246.6125 8098718
471.73828 623.12238 1237.5548 8230047
485.92166 632.00049 1255.1871 8493733
501.59222 642.51495 1276.0695 8625574
502.01883 633.48035 1258.1262 8756389
508.84995 632.67395 1256.5247 8558497
511.72519 627.04352 1245.3424 8097946
517.38672 624.93927 1241.1632 7768982
528.94666 629.91846 1251.0521 7440275
547.06805 642.46527 1275.9708 6782600
554.85059 642.69318 1276.4235 5466742
559.90894 639.80206 1270.6815 4283240
565.75586 637.87701 1266.8583 4085603
574.86621 639.63367 1270.347 3295569
576.88342 633.55475 1258.274 3361359
585.08618 634.33771 1259.8291 5795440
592.99866 634.79016 1260.7277 4610138
597.21936 631.32874 1253.853 2700341
607.24921 634.01782 1259.1937 658704
615.59558 634.90515 1260.9561 328968
621.43378 633.21545 1257.6002 65797
629.07837 633.38458 1257.9362 131846
636.19427 633.02374 1257.2195 328970
643.78137 633.1347 1257.4398 197640
651.90015 633.76001 1258.6816 263434
665.10809 639.26257 1269.61 197641
666.46069 633.37469 1257.9165 263433
674.12738 633.55164 1258.2678 131848
681.29169 633.25769 1257.6841 131848
688.3761 632.89673 1256.9672 131591
695.82538 632.87531 1256.9247 197641
704.19702 633.68439 1258.5315 197641
710.21576 632.38141 1255.9437 131848
717.51996 632.23828 1255.6594 131848
726.12799 633.23499 1257.639 329227
735.62231 634.97656 1261.0978 460813
741.5946 633.67334 1258.5096 592399
748.67767 633.33594 1257.8395 526606
755.57062 632.84595 1256.8663 526605
763.09167 632.88647 1256.9468 395019
770.6048 632.91974 1257.0128 263432
777.98328 632.84277 1256.86 131847
789.42908 636.04437 1263.2185 259
799.85706 638.37329 1267.8439 66053
805.55609 636.91968 1264.9569 132103
813.85406 637.52887 1266.1669 197640
817.24451 634.31781 1259.7896 66054
818.18762 629.28284 1249.7898 1053721
0 0 0 0
0 0 0 0
0 0 0 0
0 0 0 0
0 0 0 0
0 0 0 0
0 0 0 0
0 0 0 0
0 0 0 0
0 0 0 0
0 0 0 0
0 0 0 0
0 0 0 0
1473.0012 1005.1237 1996.23 789514
1462.2261 989.79645 1965.7893 789514
1462.1553 981.90063 1950.1079 921100
1463.0283 974.75806 1935.9222 789514
1465.1211 968.5332 1923.5593 789514
1462.1317 959.07117 1904.7673 921100
1465.949 954.185 1895.0631 1052429
1464.0707 945.69446 1878.2003 1315601
1455.8531 933.26862 1853.522 1315601
1453.7288 924.90613 1836.9137 1052173
1452.6665 917.33911 1821.8853 855050
1447.9032 907.56427 1802.4718 723464
1437.6785 894.53485 1776.5947 657669
1428.4772 882.3277 1752.3506 656899
1414.6323 867.44983 1722.8022 525313
1392.1016 847.49792 1683.1766 525313
1402.308 847.61865 1683.4165 327936
1392.7264 835.86169 1660.0665 327936
1395.8335 831.83185 1652.063 328192
1383.375 818.64697 1625.8773 262144
1379.1233 810.46796 1609.6333 393729
1376.4418 803.31812 1595.4332 525315
1373.9072 796.35132 1581.5968 656901
1371.9104 789.7887 1568.5631 722694
1373.0488 785.10748 1559.266 854280
1374.2345 780.51581 1550.1467 920073
1374.0999 775.24054 1539.6697 854280
1374.0056 770.05774 1529.3763 722694
1370.7202 763.16632 1515.6896 721924
1364.3529 754.66022 1498.796 459520
1359.9076 747.32062 1484.2192 525312
1359.0886 742.05573 1473.7628 393728
1350.1531 732.45502 1454.6953 393729
1352.1647 728.87756 1447.5902 327936
1352.6283 724.51617 1438.9283 196608
1356.3403 721.93866 1433.8092 0
1353.6708 716.01776 1422.05 65536
1340.4863 704.64307 1399.4594 65536
1351.2058 705.89673 1401.9491 65536
1346.0728 698.90399 1388.0612 0
0 0 0 0
0 0 0 0
0 0 0 0
0 0 0 0
0 0 0 0
0 0 0 0
0 0 0 0
0 0 0 0
0 0 0 0
0 0 0 0
0 0 0 0
0 0 0 0
0 0 0 0
0 0 0 0
0 0 0 0
0 0 0 0
0 0 0 0
0 0 0 0
0 0 0 0
0 0 0 0
0 0 0 0
-820.26324 521.12994 1022.9145 2237212
-813.34729 520.59576 1021.8659 2171420
-807.47968 520.72955 1022.1285 1908248
-802.27747 521.29767 1023.2437 1579283
-797.45569 522.12366 1024.865 1316112
-792.81683 523.08307 1026.7482 1316112
-785.85162 522.5105 1025.6243 1118733
-780.76105 523.18518 1026.9486 1118733
-777.5885 525.16589 1030.8365 1184526
-770.74274 524.67761 1029.8781 1184526
-765.27728 525.1286 1030.7633 855561
-760.37231 525.97461 1032.424 987147
-755.5849 526.91632 1034.2725 921611
-750.98523 528.00555 1036.4104 1184271
-745.82336 528.71429 1037.8015 1052685
-741.15839 529.78998 1039.913 1118477
-736.01453 530.53851 1041.3823 986893
-731.89062 532.04126 1044.332 1184272
-729.4718 534.81982 1049.786 1315858
-722.57593 534.33563 1048.8356 1710616
-723.01917 539.31732 1058.6141 1710616
-724.5199 545.18237 1070.1265 2171167
-727.05371 551.93555 1083.3821 2434339
-726.3584 556.33618 1092.02 2302753
-723.80035 559.37659 1097.9879 2236960
-722.76154 563.6571 1106.3901 1644823
-744.12543 585.64789 1149.5553 0
-742.92749 590.12494 1158.3431 0
-743.14026 595.81677 1169.5155 263170
-740.26465 599.11664 1175.9928 855307
-733.66888 599.43982 1176.6272 855307
-728.8277 601.21674 1180.115 1118479
-723.14185 602.32452 1182.2894 592134
-715.82336 602.08087 1181.8113 329989
-710.04651 603.14197 1183.894 1382678
-703.94629 603.94684 1185.4739 1974815
-697.06274 604.08911 1185.7532 593162
-691.51685 605.4054 1188.3369 921869
-683.54633 604.60431 1186.7644 0
-676.28278 604.41827 1186.3993 256
-669.95477 605.0733 1187.6851 65793
-663.87915 605.97266 1189.4503 0
-655.82611 605.06702 1187.6726 65792
-651.69214 607.79675 1193.0308 0
-644.98212 608.15747 1193.7389 0
-639.00134 609.22162 1195.8276 0
-631.80737 609.13995 1195.6674 0
-624.33801 608.78796 1194.9764 0
-619.36011 610.88525 1199.0931 131584
-611.99109 610.64545 1198.6224 263172
-602.58704 608.34552 1194.108 131586
-598.60504 611.52997 1200.3586 0
-593.64386 613.77881 1204.7728 0
-586.63007 613.93439 1205.0782 0
-579.75238 614.23804 1205.6743 0
-571.16492 612.71521 1202.6851 0
-565.32733 614.14105 1205.4839 256
-564.15417 620.73566 1218.4283 256
-553.32947 616.74426 1210.5938 256
-545.28333 615.7854 1208.7115 1
-537.04504 614.58112 1206.3477 2
-521.99762 605.44653 1188.4176 2
-522.46301 614.3009 1205.7976 2
-516.79138 616.08545 1209.3005 2
-508.14761 614.32721 1205.8494 2
-499.94812 613.06348 1203.3688 2
-486.8869 605.71472 1188.944 2
-476.67114 601.74152 1181.1451 258
-470.06409 602.27319 1182.1887 1
-471.4982 613.28027 1203.7942 198409
-463.55783 612.24518 1201.7625 516
-456.39264 612.21753 1201.7083 132356
-449.03986 611.93341 1201.1505 257
-441.66519 611.60974 1200.5153 256
-434.49997 611.57025 1200.4377 256
-427.61206 611.92627 1201.1366 264199
-421.67993 613.68542 1204.5895 515
-413.68326 612.44879 1202.1622 258
-406.67789 612.66217 1202.5811 258
-399.02988 611.89771 1201.0804 258
-393.46756 614.36188 1205.9174 257
-386.8555 615.24805 1207.6569 256
-379.17474 614.43604 1206.063 132099
-371.8277 614.14392 1205.4895 263685
-365.80899 616.07739 1209.2847 658443
-358.69986 616.21515 1209.5551 1447957
-351.8508 616.81445 1210.7314 0
-344.70392 616.90576 1210.9106 724234
-337.10083 616.16711 1209.4608 0
-329.17337 614.79047 1206.7587 256
-322.15402 615.08636 1207.3394 256
-314.09299 613.36145 1203.9536 256
-307.54129 614.57227 1206.3303 132099
-299.58694 612.97101 1203.1873 256
-291.26859 610.52844 1198.3928 257
-283.94055 610.09125 1197.5347 514
-275.32056 606.78418 1191.0433 526859
-268.97827 608.4549 1194.3226 1712932
-261.13956 606.73944 1190.9554 989208
-255.17606 609.40662 1196.1908 770
-247.72975 608.58405 1194.5762 258
-240.28319 607.71228 1192.865 1
-233.16672 607.64771 1192.7383 2
-226.8022 609.60022 1196.5708 2
-219.4209 608.85773 1195.1134 2
-212.41107 609.1308 1195.6494 2
-205.25916 609.00134 1195.3953 2
-198.70438 610.69763 1198.725 2
-191.38089 610.06989 1197.4927 2
-184.32727 610.28705 1197.9189 258
-177.36066 610.82129 1198.9677 258
-170.44913 611.5979 1200.4921 258
-163.1425 610.96289 1199.2455 258
-156.11795 611.37439 1200.0532 2
-149.09113 611.81592 1200.9199 2
-142.30113 613.32269 1203.8776 258
-135.51448 615.00421 1207.1781 66052
-127.94256 613.11066 1203.4614 131845
-120.93731 613.86926 1204.9504 263431
-113.7617 613.80414 1204.8226 263431
-106.70463 614.4129 1206.0175 197638
-99.575256 614.66296 1206.5084 329224
-92.742844 616.92731 1210.953 263944
-85.529816 616.82782 1210.7577 264201
-78.330078 616.8147 1210.7319 198666
-71.244606 617.78979 1212.6459 1976105
-63.498672 612.61249 1202.4835 3490371
-56.693901 616.35352 1209.8267 3687751
-49.848663 620.6778 1218.3147 2240046
-42.832588 623.98358 1224.8036 792087
-35.630024 625.37042 1227.5258 1187101
-28.213272 622.7439 1222.3702 3753800
-20.965755 623.32642 1223.5135 5530728
-13.592432 618.80035 1214.6295 6452347
-6.3091469 612.75983 1202.7727 7044741
0.84040868 611.99982 1201.2809 6913412
7.9712563 611.16541 1199.6431 6979206
15.078642 610.16962 1197.6885 6584448
22.223248 610.83569 1198.9958 4807780
29.56777 615.33875 1207.8348 2767940
36.835873 616.80237 1210.7076 3293257
43.913483 615.1192 1207.4038 2240568
51.464916 619.61353 1216.2257 2108982
58.748356 620.17157 1217.321 2964805
66.011971 620.42084 1217.8103 3425613
73.201492 619.99335 1216.9712 3754835
80.355293 619.36737 1215.7426 3952727
87.229652 616.86859 1210.8376 3162954
94.667824 618.43396 1213.9103 4347227
101.04654 613.34674 1203.9248 5400172
108.09875 612.75024 1202.7539 5334636
115.55005 614.34955 1205.8932 4808036
122.50552 613.27985 1203.7935 4676963
129.11105 610.67303 1198.6766 6519426
135.42014 607.01019 1191.4869 7308687
142.65491 607.65454 1192.7516 7637654
150.16652 609.36121 1196.1017 8427169
156.99301 608.25916 1193.9385 8624805
164.14531 608.46014 1194.3329 8558755
171.10179 607.94867 1193.329 8427170
178.40483 608.66028 1194.7258 8097948
185.99352 610.25464 1197.8553 7966875
192.51949 608.37317 1194.1622 7966619
199.85086 609.08014 1195.5499 7834776
208.01971 612.20319 1201.6802 7834775
214.78773 611.13318 1199.5798 7834776
221.80246 610.81122 1198.9479 7834516
228.87694 610.66882 1198.6683 7768722
236.29668 611.42834 1200.1592 7044743
242.2809 608.53784 1194.4855 7571599
249.29762 608.33136 1194.0802 8097944
256.85709 609.42407 1196.225 2767426
269.48849 622.16748 1221.2388 2306618
275.2814 618.86835 1214.7631 4084056
284.42267 623.07306 1223.0164 4412508
292.0159 623.76147 1224.3677 3096648
300.43994 626.14789 1229.0519 4543580
306.00919 622.61255 1222.1124 4806752
312.42142 620.91669 1218.7836 4807522
318.39185 618.43939 1213.921 3820371
320.74625 609.20398 1195.793 6386557
326.84949 607.3349 1192.1241 7702418
333.3168 606.20728 1189.9109 8162970
339.98895 605.49146 1188.5057 8426142
347.39523 606.08545 1189.6718 8492190
354.68152 606.45062 1190.3885 8557982
363.13278 608.75452 1194.9108 8755362
371.82767 611.37054 1200.0457 8492704
383.21573 618.23291 1213.5156 7900311
386.97653 612.7641 1202.7811 6912903
395.8111 615.38214 1207.9199 6781315
402.58386 614.75848 1206.6958 7307145
410.79803 616.31909 1209.7592 7636110
418.63315 617.26715 1211.6201 7505037
424.16498 614.84448 1206.8646 7504526
430.80298 614.07916 1205.3624 7636626
438.10272 614.26666 1205.7305 8031384
443.72693 612.13672 1201.5496 8492448
451.63846 613.17963 1203.5968 8426655
459.76016 614.47101 1206.1316 8689827
466.82065 614.32611 1205.8472 8887207
476.99393 618.22009 1213.4905 9084585
487.03003 621.82281 1220.5623 9150378
493.81854 621.23425 1219.407 9084332
499.69955 619.5376 1216.0767 9018795
505.67847 618.00897 1213.0762 8952745
511.79517 616.68939 1210.486 8821158
527.61237 626.93286 1230.5927 8820901
536.35693 628.60718 1233.8792 8755108
541.21295 625.74042 1228.2521 8623776
552.70117 630.51593 1237.6257 8426655
562.72809 633.52081 1243.524 8295327
569.41254 632.73364 1241.9789 8360607
574.03278 629.70215 1236.0284 8162972
586.45825 635.20129 1246.8226 8097179
593.47766 634.78094 1245.9974 7965592
603.04346 637.06085 1250.4727 7636881
607.59076 634.04834 1244.5594 7702159
626.48444 645.89911 1267.8212 7044487
635.77216 647.68237 1271.3214 5992056
637.09576 641.40564 1259.001 4610405
643.66211 640.49164 1257.2069 2765883
648.92511 638.31659 1252.9375 1448992
658.82245 640.69775 1257.6115 526864
664.57153 639.03656 1254.3508 265
673.99408 640.9054 1258.019 4
680.23682 639.74268 1255.7367 2
686.98975 639.07983 1254.4357 2
694.10181 638.76172 1253.8113 66054
701.65631 638.85321 1253.9908 66054
709.03564 638.78491 1253.8568 197897
716.14929 638.4812 1253.2606 65798
723.37695 638.28436 1252.8743 131847
730.72644 638.19794 1252.7046 66054
734.75275 635.24011 1246.8988 197640
745.37305 637.98541 1252.2875 263433
752.52167 637.73425 1251.7944 197897
760.78833 638.42627 1253.1528 66054
767.02002 637.4137 1251.1653 4
775.23505 638.05298 1252.4202 260
782.22046 637.67773 1251.6835 4
788.91241 637.07251 1250.4956 4
796.49408 637.19043 1250.7269 260
805.23486 638.22485 1252.7574 260
810.79742 636.74426 1249.8513 197640
817.78461 636.39935 1249.1742 260
826.72479 637.56671 1251.4656 395273
824.83643 630.43683 1237.4705 1250839
831.77588 630.12061 1236.8499 1316888
0 0 0 0
0 0 0 0
0 0 0 0
0 0 0 0
0 0 0 0
0 0 0 0
0 0 0 0
0 0 0 0
0 0 0 0
1452.0675 1010.6812 1983.8439 657929
1470.4431 1015.2252 1992.7632 723721
1468.0651 1005.4824 1973.6392 789515
1460.507 992.37433 1947.9095 723724
1467.1315 989.03326 1941.3516 657930
1463.9551 979.18903 1922.0284 855308
1459.9535 968.94952 1901.9296 789516
1455.3756 958.48785 1881.3947 723723
1465.4199 957.74237 1879.9313 789514
1456.473 944.69 1854.3112 789514
1453.4177 935.62659 1836.5208 723721
1453.4199 928.65179 1822.8301 789514
1442.948 915.13751 1796.3031 723721
1436.8505 904.57556 1775.5714 658185
1432.5596 895.29688 1757.3584 855307
1428.3435 886.19891 1739.5002 855050
0 0 0 0
1393.6582 852.33667 1673.0328 526342
1392.0677 845.33093 1659.2814 393985
1405.7499 847.63287 1663.7998 327936
1391.9874 833.46979 1635.9994 327936
1380.1766 820.66376 1610.8628 393729
1381.1598 815.58911 1600.9019 459522
1363.4131 799.59955 1569.5162 525572
1365.3439 795.28906 1561.0553 393729
1367.6481 791.25281 1553.1327 393729
1370.6656 787.68079 1546.1211 525315
1368.3568 781.1156 1533.2346 459522
1369.5718 776.63574 1524.4412 525315
1364.7396 768.80811 1509.0764 393729
1364.688 763.75812 1499.1639 525312
1353.5393 752.60352 1477.2688 459523
1355.0645 748.5943 1469.3992 459522
1346.5944 739.14984 1450.861 262144
1352.0753 737.43488 1447.4946 262144
1350.6002 731.97156 1436.7708 196608
1356.4336 730.513 1433.9078 0
1344.4841 719.55542 1412.3994 65536
1348.5795 717.26752 1407.9086 65536
1358.2655 717.96313 1409.2739 65536
1334.0708 700.85095 1375.6848 256
0 0 0 0
0 0 0 0
0 0 0 0
0 0 0 0
0 0 0 0
0 0 0 0
0 0 0 0
0 0 0 0
0 0 0 0
0 0 0 0
0 0 0 0
0 0 0 0
0 0 0 0
0 0 0 0
0 0 0 0
0 0 0 0
0 0 0 0
0 0 0 0
0 0 0 0
0 0 0 0
0 0 0 0
-820.25012 527.20288 1022.8981 2237213
-810.539 524.85236 1018.3376 1974041
-805.26135 525.35889 1019.3204 1776662
-799.6347 525.64374 1019.8731 1513491
-794.88782 526.51562 1021.5648 1316112
-790.14386 527.40302 1023.2864 1447698
-784.96893 528.01416 1024.4723 1184526
-779.94244 528.7356 1025.8719 1250319
-774.94458 529.48785 1027.3315 1118733
-769.6637 530.05719 1028.4362 1250319
-764.64178 530.81537 1029.9073 1250319
-759.31464 531.37231 1030.9878 1052940
-754.65289 532.40765 1032.9967 921354
-749.5351 533.13568 1034.4092 1118733
-745.02094 534.30859 1036.6849 1184526
-740.00128 535.13556 1038.2894 1250064
-735.25513 536.1759 1040.3079 1118478
-731.45056 537.92627 1043.7041 1118734
-728.51862 540.35394 1048.4143 1250065
-722.3667 540.41449 1048.5319 1579030
-723.19702 545.74518 1058.8746 1776409
-725.73523 552.4696 1071.9215 2171167
-726.10046 557.64429 1081.9617 2368546
-726.28424 562.77094 1091.9086 2105374
-724.89606 566.76093 1099.6501 2039581
-732.96411 578.28424 1122.0081 131585
-743.73608 592.17212 1148.9539 0
-740.68982 595.2132 1154.8542 0
-738.2323 598.78876 1161.7916 263170
-738.73541 604.85596 1173.5635 789514
-730.04675 603.44104 1170.8182 657928
-723.58813 603.85999 1171.6311 395526
-719.69128 606.44574 1176.6481 329476
-711.72351 605.61823 1175.0425 395269
-707.35681 607.86896 1179.4094 329476
-700.35413 607.87677 1179.4246 592648
-693.80896 608.28583 1180.2183 855820
-685.78546 607.39392 1178.4878 395269
-679.55243 608.08582 1179.8302 256
-665.05829 601.32275 1166.7083 256
-662.6394 605.4502 1174.7164 0
-655.66333 605.45734 1174.7303 0
-648.55945 605.34534 1174.5129 0
-647.16913 610.62183 1184.7506 0
-640.55151 611.02795 1185.5387 0
-633.90991 611.4201 1186.2996 0
-627.10376 611.66052 1186.766 0
-621.63 613.22083 1189.7933 0
-614.8952 613.55872 1190.449 0
-610.17969 615.94287 1195.0747 65793
-602.39447 615.24805 1193.7266 0
-597.31494 617.33282 1197.7716 0
-591.16791 618.3515 1199.748 0
-582.65674 616.89197 1196.9161 0
-578.21521 619.75836 1202.4777 256
-569.24243 617.77887 1198.637 256
-564.22833 620.09991 1203.1404 256
-554.61981 617.36633 1197.8365 256
-547.92725 617.84973 1198.7745 256
-540.04059 616.98169 1197.0902 256
-533.54706 617.70319 1198.4902 256
-515.98163 605.45264 1174.7212 256
-518.77979 617.08832 1197.2971 256
-510.91577 616.1886 1195.5515 258
-505.27002 617.97662 1199.0208 258
-495.65619 614.89319 1193.0381 258
-482.74182 607.56622 1178.822 258
-474.93112 606.54132 1176.8335 258
-465.89319 603.89502 1171.6991 258
-468.13907 616.01666 1195.2179 1027
-460.26694 614.99255 1193.2308 770
-453.43945 615.35413 1193.9324 513
-442.1109 609.52161 1182.616 256
-439.04099 615.07056 1193.3822 514
-431.75803 614.80261 1192.8623 257
-425.34164 615.78021 1194.7592 258
-418.37894 615.98669 1195.1598 258
-411.00333 615.58191 1194.3744 258
-404.0105 615.74628 1194.6932 258
-396.75778 615.51331 1194.2413 258
-390.41028 616.70178 1196.5472 257
-384.04465 617.90527 1198.8822 256
-377.01559 618.06653 1199.1952 0
-369.22821 616.96698 1197.0618 66306
-363.16367 618.75958 1200.5398 592650
-355.34613 617.57739 1198.2461 395269
-349.65927 620.12567 1203.1903 1184784
-341.62161 618.52411 1200.0829 329732
-335.5416 620.47412 1203.8665 395269
-327.68842 619.159 1201.3147 256
-320.26642 618.61804 1200.2651 256
-312.75275 617.87128 1198.8163 66563
-305.58823 617.79553 1198.6693 66564
-297.61642 616.04523 1195.2733 515
-287.33023 609.30151 1182.1888 132101
-282.72525 614.56897 1192.4091 2701884
-274.97824 613.10181 1189.5624 5729648
-265.27765 607.08643 1177.8911 5664626
-258.99185 608.77148 1181.1605 5335661
-251.72334 608.17621 1180.0055 4150359
-247.17862 614.31616 1191.9186 989208
-239.80368 613.57709 1190.4845 260
-232.64998 613.37628 1190.095 259
-225.99683 614.52399 1192.3218 259
-218.65019 613.79926 1190.9156 2
-210.59601 610.97333 1185.4326 258
-203.54886 610.97437 1185.4347 258
-197.79965 615.01117 1193.2671 258
-190.2854 613.65625 1190.6381 258
-183.17578 613.55182 1190.4355 258
-175.92526 612.94818 1189.2643 258
-169.22617 614.29559 1191.8787 258
-162.15059 614.33441 1191.954 258
-155.0705 614.35895 1192.0016 2
-148.14549 615.02972 1193.303 2
-141.15465 615.48077 1194.1781 2
-134.43323 617.21661 1197.5461 2
-127.153 616.43762 1196.0347 2
-120.30884 617.80548 1198.6886 66052
-113.21149 617.96362 1198.9955 66052
-106.10416 618.08496 1199.2308 263431
-98.960991 617.99982 1199.0657 329224
-91.952217 618.80591 1200.6298 263944
-84.890388 619.36066 1201.7061 264201
-77.709274 619.06708 1201.1364 988183
-70.528358 618.71576 1200.4547 3423808
-63.332653 618.14099 1199.3396 3688524
-56.504963 621.46802 1205.7948 4479069
-49.02845 617.58893 1198.2684 4544862
-42.076622 620.12372 1203.1866 4610398
-34.909859 619.88049 1202.7146 5268328
-27.778639 620.30554 1203.5393 5333609
-20.720423 623.22125 1209.1965 5859952
-13.440627 619.02985 1201.0642 6715519
-6.2584991 614.93396 1193.1172 7044742
0.83458972 614.85455 1192.9631 7110536
7.9250965 614.71698 1192.6962 7242379
15.010091 614.48364 1192.2435 7045257
22.111265 614.84998 1192.9542 6716035
29.284492 616.55536 1196.2631 6452863
36.524963 618.73334 1200.4889 4675680
43.881603 621.84552 1206.5272 2702147
51.166012 623.20343 1209.162 3294283
58.504353 624.8028 1212.265 3754577
65.893967 626.53882 1215.6334 4347227
72.830597 624.05029 1210.8051 4347228
79.905907 623.09088 1208.9435 4281435
86.636703 619.82495 1202.6069 4610400
93.562897 618.34845 1199.7421 4610400
100.62428 617.91113 1198.8937 4478814
107.72003 617.72888 1198.54 5071465
114.57642 616.2818 1195.7323 6321532
121.53081 615.5 1194.2155 6979978
128.17566 613.32343 1189.9924 7506067
134.991 612.14758 1187.7111 7637910
141.72285 610.72913 1184.9587 7769239
149.09276 612.06415 1187.5491 8295583
155.64667 610.08008 1183.6995 8690341
162.82867 610.62305 1184.7531 8492962
169.89696 610.71228 1184.9261 8295584
176.86078 610.43378 1184.3857 8098204
184.06013 610.95844 1185.4038 8031897
191.09592 610.92151 1185.3322 7768725
198.41852 611.77155 1186.9813 7966104
205.38638 611.50696 1186.468 7966361
212.54469 611.80817 1187.0525 7900311
219.52568 611.59607 1186.6409 7637140
226.32925 610.91821 1185.3257 7637139
233.95425 612.43164 1188.2621 7242638
240.92255 612.1875 1187.7885 7110795
247.47456 610.92981 1185.3481 6979209
253.72896 609.02722 1181.6567 7242637
262.3511 612.75745 1188.8943 7637909
273.2059 621.36981 1205.6042 8098972
282.85666 626.87341 1216.2825 8164509
290.86981 628.56378 1219.5623 7439759
297.66635 627.60681 1217.7056 5399147
303.70856 625.14264 1212.9244 3689045
309.82147 622.93488 1208.6409 4083288
316.66028 622.2536 1207.3191 6978952
317.61179 610.29016 1184.1072 7900825
323.84378 608.77191 1181.1614 8295069
330.43991 607.98816 1179.6407 8557728
337.31311 607.73615 1179.1517 8689315
344.52005 608.08344 1179.8256 8623521
351.9715 608.83984 1181.2931 8689571
358.5235 608.0412 1179.7437 8821414
365.90158 608.64734 1180.9197 9018535
373.7114 609.9353 1183.4186 9018535
383.17664 613.82751 1190.9705 8821157
390.91666 614.86493 1192.9833 8558756
397.99158 614.83801 1192.931 7966361
406.33386 616.73553 1196.6127 7834261
412.58722 615.45172 1194.1218 8163226
420.07443 616.02081 1195.226 8228762
427.88177 617.03259 1197.189 8097433
434.41055 616.19763 1195.569 7900054
440.76358 615.14429 1193.5253 8360862
446.78592 613.6701 1190.665 8558241
454.71249 614.81665 1192.8895 8887206
461.61737 614.56769 1192.4065 9150378
471.74506 618.55206 1200.1372 9347758
480.00665 620.00732 1202.9607 9347503
487.43158 620.35504 1203.6354 9413296
493.71112 619.25604 1201.5031 9479089
500.72818 619.10028 1201.2009 9413296
505.6853 616.43774 1196.0349 9281967
516.32764 620.68335 1204.2725 9281967
523.57123 620.78308 1204.4659 9281453
531.65857 621.867 1206.569 9215660
540.65338 623.96936 1210.6479 9149867
542.65991 618.05725 1199.1771 9149867
556.68225 625.80634 1214.2122 9018280
564.75867 626.75824 1216.0591 8886949
573.88147 628.83282 1220.0842 8820901
583.08527 630.94305 1224.1787 8755107
590.98547 631.60822 1225.4692 8689314
600.21393 633.65936 1229.449 8557984
605.95483 632.02362 1226.2753 8492190
618.78351 637.73157 1237.35 8426397
624.04083 635.59393 1233.2024 8163226
634.80457 639.04907 1239.9062 7768725
643.94006 640.80469 1243.3125 7637397
652.58832 642.04095 1245.7112 7571605
657.20551 639.32812 1240.4476 7439761
669.48407 644.04578 1249.6011 7440017
679.41223 646.42365 1254.2146 7374220
693.77655 652.92468 1266.8282 7044998
704.68506 656.06885 1272.9286 6716289
712.24286 656.05969 1272.9109 5597294
720.27802 656.4859 1273.7378 3952212
726.63458 655.38922 1271.61 2832452
732.30627 653.70374 1268.3397 1712676
734.29614 648.79944 1258.8242 725018
746.73236 653.13104 1267.2286 792351
756.98016 655.48114 1271.7883 1777957
762.98517 654.14722 1269.2002 1119254
758.09235 643.58759 1248.712 329224
764.64221 642.85297 1247.2866 263429
772.11871 642.90399 1247.3856 3
778.50525 642.05505 1245.7385 1
786.99274 642.93854 1247.4528 258
795.073 643.47601 1248.4955 131845
801.79272 642.91254 1247.4022 65797
806.61096 640.84863 1243.3978 4
814.28058 641.06714 1243.8218 259
821.11011 640.62622 1242.9663 3
825.49481 638.3028 1238.4583 1
822.85034 630.63324 1223.5775 723725
0 0 0 0
0 0 0 0
0 0 0 0
0 0 0 0
0 0 0 0
0 0 0 0
0 0 0 0
0 0 0 0
0 0 0 0
1459.6787 1027.835 1994.2427 592137
1464.6418 1023.0204 1984.9014 723723
1466.0078 1015.7904 1970.8734 657930
1468.5792 1009.5037 1958.6757 657930
1467.3528 1000.7257 1941.6444 657930
1467.7443 993.17969 1927.0033 723723
1445.631 970.64008 1883.2711 723723
1461.2729 973.60211 1889.0182 657930
1459.2163 964.81696 1871.9729 657930
1457.6932 956.51489 1855.8649 1250067
1455.1956 947.7027 1838.7672 789514
0 0 0 0
1440.696 924.37183 1793.4998 855307
1444.9777 920.3078 1785.6145 657928
1430.912 904.70282 1755.3373 723721
0 0 0 0
0 0 0 0
0 0 0 0
0 0 0 0
1394.824 850.85938 1650.8683 789513
1396.7764 846.0968 1641.6278 592135
1377.8597 828.84674 1608.1586 394757
1361.7963 813.53888 1578.4576 394756
1362.1774 808.1972 1568.0936 986637
1345.6973 792.99231 1538.5925 2434082
1362.5785 797.51917 1547.3756 65536
1365.4805 793.85809 1540.2722 196608
1363.5836 787.47437 1527.8864 196608
1361.5752 781.11115 1515.5403 196608
1354.5437 771.96893 1497.8021 196608
1354.4905 766.89709 1487.9617 262400
1348.415 758.5036 1471.6761 393729
1351.1525 755.14355 1465.157 327937
1347.535 748.29779 1451.8745 262144
1351.259 745.5899 1446.6206 196608
1349.0831 739.68152 1435.1569 196608
1330.5325 724.92578 1406.5273 65536
1336.0913 723.40802 1403.5825 65536
1340.9875 721.55267 1399.9827 65536
1352.2733 723.13696 1403.0566 0
1356.8708 721.14728 1399.1962 256
0 0 0 0
0 0 0 0
0 0 0 0
0 0 0 0
0 0 0 0
0 0 0 0
0 0 0 0
0 0 0 0
0 0 0 0
0 0 0 0
0 0 0 0
0 0 0 0
0 0 0 0
0 0 0 0
0 0 0 0
0 0 0 0
0 0 0 0
0 0 0 0
0 0 0 0
0 0 0 0
0 0 0 0
-818.38831 532.07361 1020.5763 2303006
-809.7002 530.35699 1017.2837 1908248
-804.18451 530.70825 1017.9574 1842455
-798.763 531.12738 1018.7614 1645076
-793.83569 531.88409 1020.2128 1579283
-789.24518 532.87976 1022.1226 1974042
-783.54169 533.13367 1022.6096 1513491
-778.87146 534.10004 1024.4633 1316112
-774.10089 535.01233 1026.2131 1250319
-769.10992 535.78558 1027.6963 1381905
-764.07324 536.53906 1029.1416 1447698
-758.93188 537.23065 1030.4681 1184526
-753.50018 537.72632 1031.4188 855561
-748.46246 538.51355 1032.9288 855561
-743.48975 539.36102 1034.5543 855561
-739.27307 540.77563 1037.2677 1118732
-734.1062 541.51306 1038.6823 1184526
-730.96735 543.77179 1043.0146 1118733
-728.34027 546.453 1048.1576 1250319
-721.7655 546.19318 1047.6592 1776409
-723.68835 552.41534 1059.594 1776409
-727.59949 560.27783 1074.675 2236960
-726.22565 564.17389 1082.1482 2171167
-725.73816 568.83435 1091.0875 1776409
-720.55505 569.8653 1093.0649 1184271
-735.76434 587.18945 1126.2946 0
-739.5921 595.66522 1142.552 0
-738.2442 600.09094 1151.0411 394757
-734.18597 602.37579 1155.4237 855307
-730.57428 605.07367 1160.5985 526342
-723.51416 604.9397 1160.3416 526342
-717.97546 606.08746 1162.5431 263683
-713.30231 607.9953 1166.2025 197890
-707.20758 608.71698 1167.5868 263683
-700.01355 608.49738 1167.1655 263683
-694.82043 610.03015 1170.1056 395269
-687.44061 609.6546 1169.3853 658441
-679.85895 609.09064 1168.3035 263684
-671.08398 607.43481 1165.1274 0
-659.12665 602.83386 1156.3024 0
-654.90979 605.29004 1161.0135 0
-649.61053 606.78748 1163.8857 0
-643.28638 607.34943 1164.9636 0
-635.34802 606.38306 1163.1101 0
-628.65448 606.59662 1163.5197 0
-624.42322 609.21716 1168.5461 0
-617.19366 608.93848 1168.0116 0
-612.11395 610.79871 1171.5797 0
-609.06122 614.74768 1179.1543 0
-608.03912 620.862 1190.8823 0
-599.11792 618.95972 1187.2335 0
-593.56335 620.53174 1190.2488 0
-586.00812 620.02484 1189.2765 0
-578.57098 619.63202 1188.5231 0
-571.55121 619.68201 1188.6189 256
-565.88177 621.21558 1191.5605 256
-559.47076 621.96368 1192.9955 256
-551.97925 621.5144 1192.1337 256
-545.16974 621.83136 1192.7416 256
-538.31561 622.10498 1193.2665 256
-531.21741 622.10022 1193.2573 2
-523.89575 621.83002 1192.739 2
-515.07739 619.75153 1188.7523 2
-509.14352 621.13422 1191.4044 258
-500.53284 619.24426 1187.7793 1
-494.13431 620.07611 1189.3749 258
-479.78506 610.81018 1171.6018 258
-478.72177 618.43469 1186.2264 258
-470.62558 617.06586 1183.6008 2
-465.40277 619.4801 1188.2317 2
-458.16623 619.24719 1187.7849 1
-450.88455 618.94489 1187.2051 1
-439.51883 612.93756 1175.6824 258
-430.39807 609.91748 1169.8894 513
-425.26257 612.53839 1174.9166 256
-420.22858 615.39545 1180.3969 257
-414.6254 617.50195 1184.4374 258
-407.89728 617.97687 1185.3483 258
-400.80191 617.90228 1185.2052 257
-393.46091 617.43958 1184.3177 258
-387.37509 618.96564 1187.2449 258
-380.19617 618.76929 1186.8683 258
-373.30649 619.04517 1187.3975 258
-366.74423 619.88513 1189.0085 257
-360.51501 621.33209 1191.7839 461063
-353.448 621.36414 1191.8455 329476
-346.01883 620.74786 1190.6633 1118992
-339.58765 621.93359 1192.9377 256
-332.57217 622.07697 1193.2128 395013
-325.88858 622.8609 1194.7164 66307
-318.62698 622.55048 1194.121 329992
-310.36838 620.23346 1189.6766 1779492
-302.80469 619.22949 1187.751 1780779
-295.36325 618.43353 1186.2242 4216406
-289.03891 619.99487 1189.219 6123379
-278.51077 612.39105 1174.6342 6057843
-269.32883 607.43243 1165.1228 6649982
-262.40704 607.44397 1165.145 6649983
-255.83505 608.28778 1166.7635 6518909
-248.77931 607.99646 1166.2047 6453630
-241.73277 607.71149 1165.6582 6059130
-234.68855 607.41577 1165.0909 3953499
-229.60773 612.33813 1174.5326 1581861
-224.19156 616.64703 1182.7975 67080
-215.65717 612.38037 1174.6135 515
-209.15154 613.7818 1177.3018 515
-202.62616 615.2204 1180.061 258
-195.7803 615.75421 1181.085 2
-188.80252 615.89734 1181.3595 258
-181.88205 616.24567 1182.0277 2
-174.76335 615.92346 1181.4097 2
-167.81487 616.19928 1181.9387 2
-160.82426 616.33777 1182.2043 2
-153.94246 616.92493 1183.3306 2
-146.90195 616.90186 1183.2863 2
-140.16292 618.20618 1185.7881 2
-133.18715 618.54919 1186.446 2
-126.12009 618.48285 1186.3188 2
-119.12088 618.76111 1186.8525 2
-112.18297 619.41284 1188.1027 66052
-105.19588 619.86237 1188.965 197638
-98.026657 619.22626 1187.7448 198152
-91.067177 619.91907 1189.0736 133128
-84.068916 620.44232 1190.0773 132874
-77.102776 621.32056 1191.7618 2568756
-70.059402 621.6911 1192.4727 3621959
-62.906342 621.06226 1191.2665 4346198
-55.352951 615.82007 1181.2113 5333607
-48.208618 614.2666 1178.2316 5070437
-41.405926 617.27814 1184.0081 4873058
-34.448215 618.73895 1186.8101 4938852
-27.364624 618.10895 1185.6017 5202023
-20.401339 620.70203 1190.5754 5662574
-13.302016 619.71277 1188.6779 5860211
-6.2207313 618.27344 1185.9171 6123639
0.82738912 616.58087 1182.6707 6386558
7.8473225 615.70544 1180.9915 6847621
14.839844 614.52173 1178.7209 6979209
21.860283 614.88257 1179.4131 7242379
28.868458 614.80695 1179.2681 7242379
35.805664 613.54492 1176.8473 7045002
43.213333 619.43921 1188.1532 7111565
50.966949 627.93951 1204.4578 6651013
58.100502 627.64709 1203.8969 5861498
65.324959 628.29321 1205.1361 5598325
72.245132 626.17419 1201.0717 5729398
78.883614 622.21454 1193.4766 4677222
85.850586 621.28558 1191.6948 4413537
93.018433 621.84119 1192.7605 4676453
99.924461 620.69171 1190.5557 5005674
106.75657 619.26556 1187.8202 6585476
113.13483 615.54712 1180.6877 6979977
119.75955 613.52563 1176.8103 7308942
126.29492 611.29486 1172.5315 7637397
133.17497 610.87854 1171.7329 7835032
140.04852 610.47522 1170.9594 7900825
147.42905 612.21539 1174.2972 8361376
154.07774 610.89667 1171.7677 8690343
161.32047 611.94531 1173.7792 8690344
168.22305 611.67035 1173.2517 8624549
175.11336 611.37427 1172.6838 8361378
182.47237 612.67468 1175.1781 8097436
189.16498 611.72412 1173.3549 7965850
196.0925 611.57379 1173.0665 7965849
202.69896 610.46698 1170.9435 7966105
209.68993 610.55316 1171.1088 7900312
217.31436 612.41895 1174.6876 7702677
223.81339 611.09576 1172.1497 7768725
230.67143 610.80316 1171.5884 7505554
237.847 611.34387 1172.6255 7571346
244.64687 610.91565 1171.8041 7702933
251.57816 610.83014 1171.6401 7965848
257.33514 607.97491 1166.1635 8097690
264.3689 608.20685 1166.6083 8558240
270.76917 607.00665 1164.3063 8952488
278.68906 609.18823 1168.4907 9018538
285.24194 608.34808 1166.8793 9019051
292.18832 608.36725 1166.916 9150635
298.07697 606.23413 1162.8245 9019049
304.86115 605.97797 1162.333 8886692
313.1279 608.61462 1167.3905 8689827
320.0589 608.59711 1167.3568 8426655
326.89935 608.41168 1167.0012 8557728
333.77966 608.30664 1166.7998 8557728
341.0361 608.8775 1167.8947 8557985
347.92957 608.79034 1167.7275 8689828
354.15106 607.55389 1165.3558 8821413
361.66754 608.54382 1167.2546 8887206
369.6553 610.27454 1170.5743 9018792
376.12408 609.47986 1169.05 9018792
382.51544 608.59082 1167.3448 9084588
390.0979 609.59485 1169.2706 9084588
397.59158 610.42737 1170.8676 9150638
404.76483 610.7478 1171.4821 9216430
413.17496 612.89203 1175.595 9347246
418.48666 610.44531 1170.902 9347503
427.60675 613.54315 1176.8439 9413553
432.37946 610.40381 1170.8223 9413296
438.7326 609.55975 1169.2032 9413297
449.6922 615.04218 1179.7192 9479090
457.84454 616.57587 1182.661 9479091
466.8743 619.22681 1187.7458 9610676
473.8511 619.11646 1187.5342 9610676
479.97809 617.91534 1185.2302 9544883
486.40353 617.12756 1183.7192 9610675
492.06854 615.41125 1180.4272 9610675
500.36401 616.98676 1183.4492 9610675
508.586 618.4292 1186.2159 9544882
515.67847 618.47754 1186.3087 9610418
524.83319 620.9646 1191.0791 9544625
530.97302 619.86578 1188.9714 9544625
529.91669 610.50525 1171.017 9347246
544.99146 619.73083 1188.7126 9413039
560.04816 628.69995 1205.9163 9281453
569.22498 630.92505 1210.1843 9215661
568.18951 621.91675 1192.9054 9149867
576.46619 623.19745 1195.3619 9084331
595.40955 635.83801 1219.6079 9084330
603.06635 636.26648 1220.4298 9084331
609.24585 635.14471 1218.2781 9018281
621.40637 640.21118 1227.9962 9018281
630.25702 641.78967 1231.0239 8886696
637.25952 641.47156 1230.4137 8820902
649.54163 646.41479 1239.8954 8755109
658.48065 647.95752 1242.8545 8689314
669.11926 651.11975 1248.92 8491936
678.44293 652.9472 1252.4253 8491935
687.6355 654.60999 1255.6147 8360350
697.99261 657.33392 1260.8395 8228506
708.32947 659.98108 1265.917 8097176
714.44904 658.68439 1263.4298 8097175
724.35028 660.86499 1267.6124 7505296
734.42432 663.15662 1272.0081 7176591
741.29382 662.53748 1270.8206 7177104
741.09857 655.68042 1257.6678 7440274
743.01489 650.80981 1248.3256 7637395
0 0 0 0
0 0 0 0
0 0 0 0
693.47699 584.0835 1120.337 6255743
756.96796 631.49377 1211.2753 5729912
759.4726 627.61273 1203.8309 6321791
771.42841 631.54138 1211.3666 5992822
0 0 0 0
797.76245 641.12958 1229.7578 5465193
0 0 0 0
803.60876 634.20386 1216.4735 4940394
811.19415 634.48022 1217.0035 4742242
815.90857 632.52594 1213.255 4412505
0 0 0 0
0 0 0 0
0 0 0 0
0 0 0 0
0 0 0 0
0 0 0 0
0 0 0 0
0 0 0 0
0 0 0 0
0 0 0 0
1451.3462 1025.427 1966.8829 328964
1464.889 1026.7233 1969.3694 592136
1453.6869 1010.7931 1938.8134 1184274
1466.9086 1011.9626 1941.0566 1052689
1463.1143 1001.4668 1920.9246 789518
1461.5298 992.6344 1903.983 658187
1458.6311 983.05212 1885.6031 592137
1462.2524 977.97662 1875.8678 591882
1461.4591 970.04773 1860.6593 657932
0 0 0 0
0 0 0 0
0 0 0 0
1448.1747 932.98309 1789.5652 723723
1431.7803 915.69385 1756.4025 789516
0 0 0 0
0 0 0 0
0 0 0 0
0 0 0 0
0 0 0 0
1326.3057 812.67657 1558.8038 526344
1336.3972 813.17816 1559.766 526345
1354.8451 818.72241 1570.4005 592136
1334.4021 800.85028 1536.1198 592136
1287.1475 767.2392 1471.65 526343
0 0 0 0
1346.1528 791.64893 1518.4706 657927
1348.1508 787.54242 1510.5939 394756
1357.3782 787.68567 1510.8687 262913
1348.3463 777.30078 1490.9493 131584
1342.3718 768.80261 1474.6488 131072
1346.1074 765.9397 1469.1575 196608
1346.4427 761.19153 1460.0499 196608
1347.4871 756.9024 1451.8229 196608
1350.193 753.59528 1445.4795 196608
1341.5234 744.02094 1427.1149 196608
1349.4359 743.70581 1426.5104 196608
1350.7939 739.80487 1419.028 196608
1352.431 736.10419 1411.9297 0
1382.1356 747.63159 1434.0404 0
1387.7528 746.06805 1431.0414 0
0 0 0 0
0 0 0 0
0 0 0 0
0 0 0 0
0 0 0 0
0 0 0 0
0 0 0 0
0 0 0 0
0 0 0 0
0 0 0 0
0 0 0 0
0 0 0 0
0 0 0 0
0 0 0 0
0 0 0 0
0 0 0 0
0 0 0 0
0 0 0 0
0 0 0 0
0 0 0 0
0 0 0 0
-815.47211 536.22345 1016.9396 2171420
-809.24908 536.10608 1016.717 1776662
-803.47565 536.28699 1017.0601 1710869
-798.19958 536.80511 1018.0428 1776662
-793.04657 537.41461 1019.1986 1842455
-787.78339 537.95819 1020.2296 1842456
-783.01709 538.85217 1021.925 1645077
-777.93134 539.53857 1023.2267 1579284
-773.0672 540.39075 1024.8428 1447698
-768.3385 541.35181 1026.6654 1381905
-763.49957 542.25 1028.3689 1381904
-758.91711 543.34637 1030.4481 1053196
-753.46234 543.83093 1031.3671 921354
-748.31561 544.54755 1032.7262 1118733
-743.93951 545.84155 1035.1802 1052940
-739.49408 547.10577 1037.5778 1052940
-734.38434 547.89563 1039.0758 1184526
-730.48322 549.60834 1042.3239 1184526
-727.42847 551.99255 1046.8455 1250319
-720.65857 551.5744 1046.0525 1908249
-722.62085 557.89056 1058.031 1513237
-724.07715 563.92358 1069.4725 2236960
-725.56122 570.08539 1081.1582 2039581
-728.77881 577.73145 1095.6589 1710616
-735.46271 588.28809 1115.6794 0
-736.90515 594.80621 1128.0409 65792
-737.91211 601.08929 1139.9567 394758
-736.50031 605.50031 1148.3221 921100
-731.5705 607.07458 1151.3077 394756
-726.59912 608.64374 1154.2836 131585
-718.44971 607.55524 1152.2194 197377
-714.72662 610.2251 1157.2826 1053199
-706.86664 609.38043 1155.6807 263683
-700.60974 609.91461 1156.6938 263683
-694.41803 610.51685 1157.8359 132097
-687.98969 610.92102 1158.6024 263683
-680.73352 610.59076 1157.9761 592648
-674.23981 610.94464 1158.6472 131585
-667.1015 610.7157 1158.2131 256
-660.82422 611.2785 1159.2804 0
-652.83966 610.25726 1157.3436 131585
-642.72955 607.20618 1151.5573 0
-637.33746 608.5946 1154.1904 0
-629.28125 607.44159 1152.0038 0
-624.49084 609.45044 1155.8135 0
-619.55548 611.3609 1159.4366 0
-617.15271 615.84155 1167.9342 0
-612.32422 617.97601 1171.9822 328965
-606.84265 619.49298 1174.859 0
-600.75854 620.42297 1176.6228 0
-595.99719 622.75714 1181.0494 0
-588.65021 622.4129 1180.3966 0
-581.9223 622.72284 1180.9845 0
-575.41925 623.284 1182.0486 2
-568.31262 623.19708 1181.8838 2
-561.26825 623.17719 1181.8461 2
-554.08228 622.99744 1181.5052 2
-547.62866 623.64722 1182.7375 1
-540.62988 623.68494 1182.8091 258
-533.69861 623.80255 1183.0321 258
-526.43457 623.52924 1182.5137 260
-520.04419 624.2973 1183.9703 2
-512.16467 623.27423 1182.0302 2
-507.36453 626.02222 1187.2416 3
-499.82413 625.41888 1186.0974 515
-490.57275 622.62689 1180.8024 1318685
-483.88235 623.05115 1181.6071 1978414
-475.85483 621.74103 1179.1224 3888466
-468.30014 621.01874 1177.7526 4612445
-447.79202 602.83606 1143.2694 4941925
-441.48517 603.50586 1144.5397 4218716
-434.80212 603.67432 1144.8591 4217176
-433.62009 611.60718 1159.9037 726804
-429.21487 615.1767 1166.6732 256
-424.43402 618.31635 1172.6276 257
-417.38998 618.20868 1172.4233 258
-411.46429 619.78198 1175.4071 259
-405.0658 620.68518 1177.12 258
-397.78458 620.24365 1176.2827 197894
-390.05743 619.07874 1174.0734 658959
-385.0426 622.25452 1180.0962 1251609
-378.45126 622.95312 1181.4211 528143
-368.95441 618.80511 1173.5546 198408
-363.13565 620.78497 1177.3093 0
-357.04202 622.36353 1180.303 514
-350.14041 622.56873 1180.6921 257
-343.37137 623.02283 1181.5533 592907
-336.22321 622.7937 1181.1188 2437424
-329.13968 622.677 1180.8975 3491141
-315.66357 610.19806 1157.2313 3755087
-308.53918 609.71478 1156.3148 3492428
-302.26776 610.93353 1158.6261 4347223
-292.88577 605.77551 1148.844 4874082
-286.99622 607.76697 1152.6208 5334121
-282.27615 612.39319 1161.3944 5728880
-273.75665 608.80188 1154.5835 6189688
-266.96371 608.96417 1154.8914 6387067
-258.78192 605.88336 1149.0486 6453118
-251.30586 604.3327 1146.1078 6651012
-245.18288 606.04004 1149.3457 6848648
-238.50981 606.44666 1150.1168 6848905
-232.98022 609.87048 1156.6101 6980234
-227.02876 612.36462 1161.3402 6914953
-222.32747 618.49316 1172.9629 6718347
-215.50266 618.91986 1173.7721 4021092
-208.77156 619.65314 1175.1628 2768194
-200.26904 614.99756 1166.3336 2308413
-194.33714 618.18518 1172.3788 3098440
-187.9518 620.11383 1176.0365 2638147
-181.10681 620.61639 1176.9896 2308926
-174.08353 620.5238 1176.814 2241847
-166.47766 618.25995 1172.5206 396045
-159.61655 618.68488 1173.3265 2
-152.71722 618.99384 1173.9124 259
-145.66605 618.68738 1173.3312 3
-138.97865 619.9729 1175.7692 2
-131.98059 619.9353 1175.6979 2
-124.96469 619.80505 1175.4508 1
-118.22624 621.11694 1177.9388 65794
-111.44177 622.3371 1180.2528 131843
-104.22691 621.15619 1178.0133 329481
-97.181129 620.88544 1177.4999 198408
-90.201866 621.0307 1177.7753 133128
-83.037834 619.82111 1175.4813 462096
-76.333763 622.13806 1179.8754 2502963
-69.754715 626.04596 1187.2866 3621961
-62.356571 622.65479 1180.8553 4148820
-55.083263 619.80786 1175.4562 4544094
-47.881702 617.05829 1170.2417 5005158
-40.969437 617.73578 1171.5265 5399916
-33.975037 617.19879 1170.5082 5005415
-27.082558 618.71356 1173.3809 5005159
-20.152863 620.13409 1176.075 5334123
-13.125864 618.47937 1172.9368 5531246
-6.1524634 618.46136 1172.9026 5926260
0.82057506 618.4762 1172.9307 6189434
7.7641087 616.12311 1168.4681 6387070
14.704114 615.8446 1167.9399 6716037
21.573366 613.73187 1163.9332 7308172
28.458519 612.98785 1162.5222 7373965
35.338387 612.44299 1161.4889 7440015
42.171707 611.40143 1159.5135 7506322
49.082081 611.61267 1159.9142 7637652
56.17807 613.79993 1164.0623 7703958
62.975819 612.60626 1161.7985 7901338
69.491638 609.17706 1155.295 7637910
76.383911 609.36798 1155.6571 7111565
84.071739 615.35034 1167.0026 5532278
91.481079 618.53766 1173.0472 5400948
97.92289 615.19495 1166.7079 6519172
104.4192 612.61426 1161.8136 6913930
111.66131 614.45776 1165.3098 6584966
118.35881 613.2641 1163.046 6519173
125.36509 613.71381 1163.8989 7177102
131.61269 610.59662 1157.9872 7703446
138.62715 611.17029 1159.0752 8164254
145.85004 612.565 1161.7202 8427169
152.34164 610.90112 1158.5647 8690344
159.29871 611.16693 1159.0687 8756136
166.2571 611.41553 1159.5403 8624550
173.41525 612.34985 1161.3121 8361379
180.15062 611.77679 1160.2253 8294558
186.93774 611.41528 1159.5398 8031643
193.53996 610.49615 1157.7968 8097436
200.60178 611.04028 1158.8286 7965850
207.5825 611.30933 1159.3389 7636885
214.59789 611.65991 1160.0038 7702678
221.27681 611.05951 1158.8651 7834264
227.85773 610.23291 1157.2975 7768471
234.78813 610.36334 1157.5448 7900057
241.85831 610.83929 1158.4475 6978955
248.66876 610.65118 1158.0907 7373713
255.81122 611.26648 1159.2576 7834264
262.17508 610.03778 1156.9274 8360865
268.57523 608.95422 1154.8724 8886952
275.40842 608.88208 1154.7356 9150124
282.05734 608.41589 1153.8516 9215917
289.2915 609.20435 1155.3468 9150124
296.16693 609.21832 1155.3733 9018795
303.36768 609.88568 1156.6389 9084331
310.44025 610.27142 1157.3705 8820903
317.90167 611.38831 1159.4886 8360351
324.7175 611.24255 1159.2123 8294815
331.7558 611.51294 1159.725 8360351
338.62241 611.46222 1159.6288 8557730
344.83112 610.24927 1157.3285 8623522
351.52866 609.93195 1156.7267 8689315
357.87128 609.02277 1155.0024 8689828
365.45996 610.22852 1157.2891 8755620
372.11389 609.85767 1156.5858 8952999
379.44556 610.59088 1157.9763 9084330
386.08136 610.19818 1157.2316 9215917
392.50055 609.48285 1155.875 9413296
399.48804 609.65942 1156.2098 9544882
406.37134 609.67371 1156.2369 9544882
415.96393 613.68463 1163.8436 9544882
420.43243 610.12817 1157.0989 9676468
428.10791 611.26538 1159.2555 9676468
437.01013 614.09033 1164.6129 9610675
444.25638 614.53644 1165.459 9610677
451.60889 615.11359 1166.5536 9742262
459.49246 616.38568 1168.9661 9808055
466.17825 616.03705 1168.3049 9808055
474.25723 617.51263 1171.1034 9808056
481.14258 617.41394 1170.9161 9808055
487.44986 616.58673 1169.3474 9742262
496.03812 618.6275 1173.2177 9742262
502.38812 617.85901 1171.7603 9676470
507.43829 615.53485 1167.3524 9807542
496.58456 594.24176 1126.9705 9741749
519.24438 613.08594 1162.7083 9741749
528.1283 615.38324 1167.0649 9610164
530.23059 609.82129 1156.5168 9609907
545.5658 619.42615 1174.7323 9610163
566.89819 635.51135 1205.2375 9544370
561.42664 621.52185 1178.7068 9413040
585.86957 640.58563 1214.861 9413040
592.75018 640.21637 1214.1606 9347247
599.92773 640.17291 1214.0782 9281454
607.2478 640.2807 1214.2826 9215916
616.55359 642.45508 1218.4064 9281453
