# .PCD v0.7 - Point Cloud Data file format
VERSION 0.7
FIELDS x y z rgb
SIZE 4 4 4 4
TYPE F F F U
COUNT 1 1 1 1
WIDTH 1434
HEIGHT 1
VIEWPOINT 0 0 0 1 0 0 0
POINTS 1434
DATA ascii
7850.3032 -1788.7839 14817.116 394240
7810.6943 -1760.0093 14578.767 1380614
7957.4937 -1773.4092 14689.762 1971979
8071.146 -1779.2114 14737.823 1051394
8315.2715 -1813.3414 15020.535 2498836
8746.9092 -1887.2036 15632.359 1380614
8560.4678 -1827.5599 15138.311 2367251
8510.5283 -1797.9954 14893.418 393216
0 0 0 0
6333.3921 -1310.7638 10857.51 393216
6275.2349 -1285.6246 10649.273 393216
6255.0146 -1268.6824 10508.935 524800
6239.71 -1253.0623 10379.548 458752
6239.667 -1240.783 10277.834 458752
6267.1646 -1234.1652 10223.017 458752
6298.3013 -1228.3843 10175.132 721664
6383.6138 -1233.1792 10214.85 524288
6370.9761 -1219.1399 10098.558 524288
6510.478 -1234.2042 10223.341 524288
6526.002 -1225.7045 10152.935 524288
6541.7578 -1217.4039 10084.178 589824
6597.4531 -1216.619 10077.676 458752
6545.4634 -1196.1691 9908.2822 524288
6495.1045 -1176.3793 9744.3564 524288
6599.1147 -1184.6512 9812.876 524288
6693.7568 -1191.1113 9866.3867 524288
6748.5195 -1190.4243 9860.6963 524288
6761.3477 -1182.4158 9794.3594 458752
6755.3862 -1171.2863 9702.1689 458752
6733.1768 -1157.5519 9588.4023 458752
6764.2129 -1153.125 9551.7334 458752
6708.0342 -1134.0277 9393.5439 656128
6502.7114 -1090.2404 9030.8379 984832
6788.479 -1128.8318 9350.5049 590080
6928.7085 -1142.792 9466.1416 393216
6900.8052 -1129.0195 9352.0596 918528
7711.3623 -1251.5487 10367.011 1642245
7961.23 -1281.8568 10618.063 984320
8292.6484 -1324.7155 10973.076 918528
8151.6914 -1292.0342 10702.366 1247232
8348.1797 -1312.9294 10875.449 589824
9105.4492 -1421.0206 11770.806 524288
8769.4043 -1358.1388 11249.934 458752
8292.5342 -1274.5641 10557.655 721152
8239.3301 -1256.8732 10411.115 589824
8253.3389 -1249.623 10351.06 524288
8290.877 -1246.0159 10321.181 589824
7695.7012 -1148.0715 9509.874 524288
7627.126 -1129.543 9356.3955 524288
7605.104 -1118.1272 9261.834 458752
7831.5205 -1143.139 9469.0166 524288
8346.2012 -1209.5706 10019.292 524288
8989.2656 -1293.5348 10714.796 655872
9088.8633 -1298.6639 10757.282 852736
9376.0039 -1330.3313 11019.595 1510659
8853.5361 -1247.4835 10333.338 1313281
8847.4707 -1238.0385 10255.101 1839624
8442.3672 -1173.2668 9718.5752 1708037
7864.4609 -1085.5239 8991.7705 1379072
7662.1309 -1050.4563 8701.293 1576451
7616.6587 -1037.2196 8591.6484 852736
7520.3745 -1017.2856 8426.5293 918528
7511.9302 -1009.4193 8361.3691 1379072
7566.8979 -1010.1213 8367.1836 1379073
7479.1763 -991.89056 8216.1729 458752
7732.7251 -1018.8621 8439.5879 524288
7435.3452 -973.36377 8062.7085 524288
0 0 0 0
0 0 0 0
0 0 0 0
0 0 0 0
0 0 0 0
0 0 0 0
0 0 0 0
0 0 0 0
0 0 0 0
0 0 0 0
0 0 0 0
0 0 0 0
0 0 0 0
0 0 0 0
0 0 0 0
0 0 0 0
0 0 0 0
0 0 0 0
0 0 0 0
0 0 0 0
0 0 0 0
0 0 0 0
0 0 0 0
0 0 0 0
0 0 0 0
0 0 0 0
0 0 0 0
0 0 0 0
0 0 0 0
-785.487 -112.43144 979.54657 2894880
-779.70599 -112.43756 979.59991 2763296
-773.46948 -112.3776 979.07751 2829089
-770.21985 -112.75399 982.35675 2500124
-766.10181 -113.00803 984.56995 2368538
-763.33771 -113.46722 988.57074 2368537
-760.7038 -113.95307 992.80359 2368281
-757.65735 -114.38422 996.56 2368538
-754.22198 -114.76299 999.85992 2236952
-753.61243 -115.58117 1006.9883 2105366
-751.58881 -116.19384 1012.3261 1973780
-749.31085 -116.77677 1017.4048 1842194
-746.97272 -117.35974 1022.4838 1842193
-751.33612 -119.0138 1036.8947 657925
-800.12347 -127.79033 1113.3593 65792
-797.92462 -128.50218 1119.5612 65536
-793.78003 -128.91002 1123.1144 196608
-782.63867 -128.17886 1116.7443 196608
-776.3631 -128.23892 1117.2675 196608
-774.45764 -129.02809 1124.1431 196608
-783.29504 -131.6364 1146.8676 196608
-778.1604 -131.9218 1149.3542 196608
-771.04041 -131.87273 1148.9266 196608
-768.29883 -132.57832 1155.074 460032
-799.11401 -139.13943 1212.2369 1446668
-804.89899 -141.42212 1232.1246 854530
-800.11932 -141.87346 1236.0569 131072
-800.35449 -143.23064 1247.8811 256
-796.05872 -143.79474 1252.7959 0
-795.02618 -144.96452 1262.9875 1315851
-793.53918 -146.07298 1272.6448 921095
-791.28937 -147.06097 1281.2526 460289
-789.41058 -148.13783 1290.6345 526084
-789.11011 -149.53491 1302.8064 591875
-785.75232 -150.37457 1310.1219 657668
-782.73749 -151.29735 1318.1615 723461
-780.05878 -152.3044 1326.9353 1052938
-779.56567 -153.76314 1339.6444 1316108
-778.15216 -155.06856 1351.0178 1974039
0 0 0 0
0 0 0 0
-9034.3291 -1857.8724 16186.51 1381128
-9323.7715 -1938.0382 16884.945 591105
-9189.4893 -1930.9153 16822.887 393984
-9698.3311 -2060.2568 17949.762 459776
-9408.541 -2020.9324 17607.15 393728
-9427.0723 -2047.6948 17840.316 328192
-9677.6006 -2126.033 18522.828 196608
-9568.9199 -2126.3528 18525.613 196608
-9599.7646 -2158.0454 18801.734 262400
-9653.1318 -2195.6079 19128.992 328448
-9661.3447 -2223.6729 19373.506 196608
0 0 0 0
-8952.46 -2110.8435 18390.492 2301984
-8337.1113 -1990.058 17338.162 13685200
-8680.1367 -2097.8752 18277.508 13487823
-8572.1104 -2098.0305 18278.861 13290956
-8417.3936 -2086.616 18179.412 13356749
-8255.293 -2073.05 18061.221 13357005
-8137.1304 -2070.3057 18037.311 13291982
-7459.4238 -1923.2234 16755.873 13160652
-7060.165 -1844.9226 16073.685 13095116
-7088.5605 -1877.7581 16359.761 8555911
-7762.2515 -2084.824 18163.799 8950669
-7723.1348 -2103.5823 18327.229 7435635
-7971.5396 -2202.311 19187.393 9804952
-8170.6157 -2290.0806 19952.076 10200736
-8061.5044 -2292.7844 19975.631 10333352
-7915.5376 -2284.9297 19907.199 7439485
-7061.7427 -2069.4111 18029.518 3688515
-7182.1514 -2137.1348 18619.553 5924191
0 0 0 0
-6705.7266 -2058.8328 17937.354 789510
-5465.3149 -1705.1099 14855.583 393984
-4861.9702 -1541.7887 13432.665 262144
-4849.397 -1563.4821 13621.666 262144
-4282.8716 -1404.2806 12234.641 262144
-3980.2319 -1327.5968 11566.542 262144
-3668.9526 -1245.2844 10849.404 393216
-3409.5876 -1177.9618 10262.863 393216
-3222.3057 -1133.5431 9875.8701 262144
-3158.2571 -1131.6312 9859.2129 262144
-3056.0642 -1115.7213 9720.5996 393472
-3043.1609 -1132.4247 9866.125 393216
-2956.4258 -1121.77 9773.2979 327680
-2937.1216 -1136.7867 9904.1299 327680
-2945.9277 -1163.5205 10137.044 1248257
-3007.4626 -1212.6315 10564.918 1116928
-2914.6357 -1200.27 10457.221 1182721
-3052.4475 -1284.4186 11190.356 1248513
-2908.906 -1251.2905 10901.731 1511683
-2878.3635 -1266.3677 11033.089 985346
0 0 0 0
0 0 0 0
0 0 0 0
0 0 0 0
0 0 0 0
0 0 0 0
0 0 0 0
0 0 0 0
0 0 0 0
-1034.507 -589.47308 5135.7197 196864
-984.79749 -578.2135 5037.6216 262144
-956.24255 -579.05774 5044.9771 262144
-929.35791 -581.00085 5061.9062 459520
-911.18439 -588.70227 5129.0034 1051136
-864.18176 -577.66595 5032.8511 985088
-893.56757 -618.73151 5390.6304 2366990
-845.63672 -607.32452 5291.248 1248513
-818.45581 -610.51416 5319.0376 196608
-782.38989 -607.06628 5288.998 196608
-746.20612 -603.23431 5255.6123 196608
-717.10071 -605.03967 5271.3413 196608
-685.3855 -604.70734 5268.4463 196608
0 0 0 0
-629.18475 -610.96289 5322.9473 2103819
-604.69244 -618.27667 5386.6675 2301199
-567.8739 -613.10065 5341.5718 1906441
-550.37006 -629.39948 5483.5737 525568
-496.03622 -602.98029 5253.3994 196608
-457.00485 -592.8623 5165.2476 131072
-427.00333 -593.84473 5173.8066 65792
-390.7403 -585.59558 5101.937 65792
-357.33972 -580.60889 5058.4912 196608
-331.60791 -588.3111 5125.5957 920322
0 0 0 0
0 0 0 0
-429.4985 -1051.989 9165.3379 919552
-397.80875 -1115.9456 9722.5527 985344
-352.13168 -1155.7394 10069.253 1182720
-306.30002 -1211.2233 10552.649 1840645
-243.14398 -1209.1371 10534.474 1577474
-182.99605 -1225.7522 10679.231 1248512
-117.88625 -1209.1287 10534.4 1380097
-56.351055 -1233.0414 10742.737 1840647
7.7814965 -1276.6736 11122.878 1511683
75.426407 -1302.9009 11351.381 985345
148.91441 -1357.6289 11828.192 1183234
238.9575 -1479.7676 12892.312 393984
328.45108 -1540.0057 13417.131 196608
406.08524 -1531.9628 13347.058 262144
484.50601 -1529.0317 13321.521 262144
563.35632 -1528.0895 13313.312 262144
641.92017 -1526.698 13301.188 262144
722.11603 -1529.0674 13321.832 196608
788.0343 -1503.7241 13101.031 196608
861.61194 -1496.2408 13035.834 262144
938.98328 -1496.037 13034.058 262144
1016.0458 -1495.4097 13028.593 262144
1101.2771 -1506.0425 13121.229 196608
1156.2065 -1476.5706 12864.459 196864
1248.9796 -1496.0867 13034.49 1380359
1356.5657 -1530.0295 13330.214 656896
1414.9729 -1507.8197 13136.714 1116928
1498.3667 -1513.1667 13183.3 1709060
1538.2322 -1476.2091 12861.31 2563854
1628.2745 -1488.6251 12969.482 2629390
1694.2267 -1478.8898 12884.665 2563340
1740.2815 -1453.3799 12662.412 2760206
1828.3655 -1463.6302 12751.718 2233862
1833.9351 -1409.6404 12281.337 2694413
1958.5027 -1447.7495 12613.359 2299398
2058.9404 -1465.8689 12771.222 1970690
2125.8792 -1459.6978 12717.456 2233862
2213.1626 -1467.4402 12784.911 2431241
2343.6997 -1502.3955 13089.456 1575936
2389.3806 -1482.4565 12915.74 1312768
2509.25 -1508.3552 13141.379 2694413
2741.8574 -1598.4124 13925.991 2365448
3055.981 -1729.3185 15066.498 1707524
3333.7454 -1832.7805 15967.898 2628877
3174.0811 -1696.6881 14782.208 2234375
3100.0491 -1612.4697 14048.466 2234378
2989.3496 -1514.0983 13191.415 1708804
2998.613 -1479.9641 12894.024 1050368
2978.9641 -1433.6174 12490.234 1116933
3031.1101 -1423.2361 12399.788 524800
3100.0168 -1421.0308 12380.574 327680
3237.9622 -1449.8403 12631.575 262144
3372.9043 -1476.0302 12859.75 722688
3744.0781 -1602.1456 13958.518 1775627
4055.4084 -1697.7393 14791.366 4670777
4251.3442 -1741.9922 15176.916 394497
4383.2065 -1758.6971 15322.456 196608
4536.3579 -1783.0902 15534.978 591360
4532.5713 -1746.0535 15212.299 459264
4273.4517 -1614.0298 14062.057 196864
4577.0645 -1695.5312 14772.129 2368020
4838.5273 -1758.644 15321.992 4604981
5557.9214 -1982.7916 17274.854 6382424
5427.8047 -1901.2408 16564.352 7237991
6306.0171 -2169.498 18901.514 1117703
0 0 0 0
0 0 0 0
0 0 0 0
6682.9229 -2146.1895 18698.439 327680
6694.4004 -2114.6995 18424.088 458752
6327.3037 -1966.5604 17133.441 590592
5214.0537 -1594.8811 13895.227 1576705
4525.7495 -1362.7511 11872.819 3419678
4571.499 -1355.3877 11808.667 4077093
4681.8979 -1367.1246 11910.924 788995
4825.6421 -1388.104 12093.703 1117954
4940.9346 -1400.4031 12200.858 3749162
5102.7871 -1425.3519 12418.223 854272
5114.1372 -1408.1492 12268.345 262144
5322.1211 -1444.8108 12587.756 459778
5481.4849 -1467.4398 12784.908 2959392
5567.2183 -1470.0079 12807.282 1643785
5608.5034 -1460.9286 12728.18 131072
5807.3271 -1492.5812 13003.949 131072
5786.2896 -1467.6362 12786.619 1644305
5894.9517 -1475.8088 12857.822 3354662
5886.3105 -1454.7811 12674.621 2960679
5869.8989 -1432.3888 12479.529 1445386
6053.8975 -1458.8495 12710.066 7894895
6217.7754 -1479.8691 12893.197 3683375
0 0 0 0
0 0 0 0
0 0 0 0
6875.3774 -1559.4827 13586.822 3616546
7696.6548 -1725.4941 15033.178 393216
7766.0137 -1721.0586 14994.534 657156
7943.5122 -1740.4171 15163.192 986377
7978.4331 -1728.4528 15058.955 131072
8138.2324 -1743.5078 15190.12 7499104
7894.3843 -1672.7052 14573.261 2366995
8126.2861 -1703.15 14838.508 525056
8368.375 -1735.0531 15116.46 788738
8326.0586 -1707.9379 14880.222 1050880
7205.6675 -1462.5704 12742.484 1577216
6937.2651 -1393.4419 12140.209 1445888
6532.9585 -1298.7196 11314.952 1116672
6419.8682 -1263.2306 11005.758 1182464
6254.6782 -1218.3096 10614.388 1051136
6223.6089 -1200.1494 10456.17 721920
6258.5625 -1194.9543 10410.908 590592
6433.1216 -1216.255 10596.488 458752
6455.8066 -1208.7074 10530.73 458752
6477.9551 -1201.2054 10465.37 458752
6459.9355 -1186.4685 10336.977 458752
6516.3433 -1185.5504 10328.978 590848
6587.5488 -1187.3164 10344.364 590592
6536.6504 -1167.2458 10169.502 722176
6570.2305 -1162.4902 10128.068 525312
6764.7866 -1186.0441 10333.279 459008
6545.4775 -1137.2659 9908.3037 459008
6590.5776 -1134.8884 9887.5908 458752
6625.9233 -1130.8883 9852.7402 524288
6638.3267 -1123.0768 9784.6836 393216
6720.4727 -1127.0978 9819.7158 656384
6703.6416 -1114.5929 9710.7676 458752
6699.8135 -1104.4449 9622.3555 393216
6536.5747 -1068.4128 9308.4297 524288
6623.4688 -1073.5273 9352.9883 655872
6468.1689 -1039.6287 9057.6504 590080
6465.6807 -1030.6484 8979.4111 853248
6811.9365 -1076.9508 9382.8154 458752
6957.3628 -1091.0082 9505.2891 458752
6908.5015 -1074.6178 9362.4893 1247488
7646.5815 -1179.9197 10279.92 655616
7935.1436 -1214.738 10583.271 852736
8335.3672 -1265.9675 11029.604 721408
8917.834 -1343.8604 11708.235 1247488
9058.3418 -1354.4619 11800.601 721152
9112.3857 -1352.0713 11779.772 786944
8727.5361 -1285.0918 11196.222 721664
8561.7676 -1251.1411 10900.43 655360
8378.0098 -1215.0914 10586.351 786944
8464.9189 -1218.5422 10616.415 458752
8575.9883 -1225.3943 10676.112 524288
8240.1934 -1168.7637 10182.725 655872
8681.7119 -1222.4067 10650.084 918528
9025.3359 -1261.5891 10991.456 458752
9901.1934 -1374.0706 11971.438 721408
10248.248 -1412.0839 12302.626 655872
10000.662 -1368.2048 11920.334 721664
9420.626 -1279.7804 11149.946 1115904
9383.3984 -1265.8164 11028.286 1181696
9241.5537 -1238.0311 10786.21 1313280
9039.0049 -1202.5527 10477.108 1839622
8458.0664 -1117.5632 9736.6475 1642244
8377.9072 -1099.4475 9578.8154 1510401
7467.5015 -973.35718 8480.2676 1905415
7394.8442 -957.42267 8341.4395 1115904
7621.8774 -980.24335 8540.2627 1247488
7659.6025 -978.57648 8525.7402 1247488
7822.6162 -992.83282 8649.9473 1510658
7737.8066 -975.65515 8500.2881 1707779
7748.498 -970.66394 8456.8027 590080
8056.251 -1002.7103 8736.0039 918528
7996.9189 -988.95026 8616.1201 1049856
0 0 0 0
0 0 0 0
0 0 0 0
0 0 0 0
0 0 0 0
0 0 0 0
0 0 0 0
0 0 0 0
0 0 0 0
0 0 0 0
0 0 0 0
0 0 0 0
0 0 0 0
0 0 0 0
0 0 0 0
0 0 0 0
0 0 0 0
0 0 0 0
0 0 0 0
0 0 0 0
0 0 0 0
0 0 0 0
0 0 0 0
0 0 0 0
0 0 0 0
0 0 0 0
0 0 0 0
0 0 0 0
-781.23969 -106.03149 974.24994 2368537
-776.53882 -106.18069 975.62079 2368537
-774.72687 -106.73012 980.66913 2302745
-772.26038 -107.19703 984.95929 2236952
-768.72076 -107.52098 987.93579 2039573
-766.89905 -108.09205 993.18292 1973780
-763.74817 -108.48318 996.77686 2039060
-760.56506 -108.87581 1000.3845 1973780
-757.8949 -109.34866 1004.7291 1776401
-757.14478 -110.10822 1011.7083 1579022
-753.69293 -110.48391 1015.1602 1447436
-750.1192 -110.84766 1018.5023 1381642
-748.95361 -111.57608 1025.1953 1315852
-751.07727 -112.81049 1036.5375 0
-819.46082 -124.09976 1140.2668 65536
-799.44696 -122.07876 1121.6971 131072
-793.159 -122.13737 1122.2357 196608
-800.19983 -124.26688 1141.8022 196608
-780.83221 -122.29662 1123.699 196608
-772.83173 -122.08809 1121.783 196608
-785.21533 -125.12415 1149.6792 196608
-778.34058 -125.11774 1149.6204 262144
-773.11224 -125.37825 1152.0139 196608
-770.82269 -126.12425 1158.8684 393984
-800.13873 -132.10175 1213.7915 1644048
-797.45819 -132.85738 1220.7345 1578254
-804.01038 -135.1792 1242.068 131584
-802.01373 -136.09341 1250.4681 65792
-801.31061 -137.24629 1261.0612 65792
-798.56512 -138.06783 1268.6096 328961
-796.87738 -139.08963 1277.9984 986887
-796.37482 -140.33998 1289.4869 591875
-792.57666 -141.02823 1295.8108 855047
-793.24371 -142.53232 1309.6309 197120
-791.43762 -143.61743 1319.6012 723461
-787.68457 -144.36746 1326.4926 657411
-783.52515 -145.05739 1332.8319 723974
-780.92816 -146.05365 1341.9858 921351
-781.63434 -147.69461 1357.0635 1381645
0 0 0 0
0 0 0 0
-7873.4492 -1535.2772 14106.599 196608
-8811.3271 -1736.656 15956.931 393216
-9205.874 -1834.1659 16852.881 393216
-9092.876 -1831.5864 16829.18 393216
-8556.625 -1742.7446 16012.874 393216
-8855.7031 -1823.9513 16759.025 393216
-8824.915 -1838.2924 16890.795 262144
-8797.6455 -1853.705 17032.412 262144
-9616.8281 -2049.9048 18835.154 525312
-9608.459 -2072.2495 19040.467 262144
-9268.9219 -2022.853 18586.596 196608
-9275.1777 -2048.6411 18823.545 985605
-9118.6885 -2038.6741 18731.965 1051402
-8355.1211 -1891.0575 17375.617 8947845
-8978.3613 -2057.5576 18905.471 13619664
-8807.1904 -2043.917 18780.139 11844022
-8713.4502 -2048.1267 18818.818 7829882
-8663.1416 -2062.7874 18953.525 6711411
-8470.624 -2043.5267 18776.553 5922153
-8149.3564 -1992.2765 18305.648 4936025
-7438.7578 -1843.1703 16935.615 12700615
-7611.8755 -1911.9434 17567.523 12437699
-7910.9287 -2014.7026 18511.707 2896432
-7816.5957 -2018.7626 18549.012 3751998
-7781.9111 -2038.5646 18730.959 4739150
-7707.957 -2048.5054 18822.297 9740188
-7856.8945 -2118.8479 19468.627 10069152
0 0 0 0
0 0 0 0
-7422.4365 -2094.2361 19242.486 2963250
0 0 0 0
-6117.0732 -1780.8225 16362.746 264448
-5544.1519 -1640.1143 15069.874 197376
-5034.9976 -1513.9573 13910.705 262144
-4430.5947 -1354.4686 12445.274 262144
-4338.9722 -1348.9862 12394.9 262144
-3841.373 -1214.9156 11163.019 196608
-3633.1167 -1169.2506 10743.435 327680
-3380.9834 -1107.5775 10176.764 262144
-3103.4202 -1035.1748 9511.5039 262144
-3055.2185 -1038.0099 9537.5547 262144
-3030.0901 -1048.9398 9637.9824 262144
-2985.9985 -1053.6 9680.8008 196608
-2925.3765 -1052.4958 9670.6562 262144
-2928.5649 -1074.7655 9875.2764 328192
-2946.2585 -1103.3787 10138.183 853504
-3031.4277 -1158.9845 10649.105 1051392
-2912.5098 -1137.2706 10449.593 985344
-2987.4697 -1191.9655 10952.146 853760
-2952.9121 -1204.4279 11066.653 1314306
-2841.2681 -1185.2996 10890.897 853760
0 0 0 0
0 0 0 0
0 0 0 0
0 0 0 0
0 0 0 0
0 0 0 0
0 0 0 0
0 0 0 0
0 0 0 0
0 0 0 0
-991.3158 -551.89325 5070.9653 262656
-962.4248 -552.61469 5077.5938 262144
-926.28595 -549.08643 5045.1748 262144
-915.13721 -560.63141 5151.2539 854272
-884.55798 -560.66022 5151.5186 1051136
-836.21149 -549.02582 5044.6182 1840647
-828.96777 -564.51624 5186.9487 1380868
-814.04663 -575.77338 5290.3828 196608
-789.53778 -580.88147 5337.3179 196864
-747.8631 -573.25928 5267.2827 196608
-719.53082 -575.64514 5289.2046 196864
-690.88672 -577.98822 5310.7334 131328
-656.01135 -575.09302 5284.1318 1644041
-624.04187 -574.58215 5279.438 1709833
-617.69073 -598.85431 5502.458 1512200
-601.31244 -615.57623 5656.1035 1314821
-509.61069 -552.60126 5077.4702 196864
-490.01495 -564.80804 5189.6299 131072
-457.54251 -562.8158 5171.3247 65792
-427.95129 -564.336 5185.2925 65792
-393.0293 -558.51685 5131.8247 65792
-357.61493 -550.95972 5062.3872 196864
-328.34509 -552.3501 5075.1626 1249539
0 0 0 0
0 0 0 0
-447.97449 -1040.4102 9559.6084 1445890
-406.83746 -1082.1598 9943.2168 1116928
-348.97961 -1086.0671 9979.1191 1314304
-301.5882 -1130.8195 10390.317 1577475
-241.48145 -1138.6691 10462.442 1182720
-182.40079 -1158.4824 10644.493 1182720
-121.29971 -1179.6982 10839.431 985345
-58.142166 -1206.3368 11084.193 3616804
7.8476343 -1220.8358 11217.415 656384
79.232216 -1297.7516 11924.141 1051136
156.58383 -1353.6084 12437.37 1116673
241.5071 -1418.0923 13029.868 393216
329.96381 -1466.9648 13478.925 393216
409.31689 -1464.1732 13453.274 393216
491.45523 -1470.6289 13512.591 393216
570.78143 -1468.0377 13488.782 327680
651.42822 -1469.063 13498.203 327680
721.32684 -1448.2833 13307.272 327680
788.42761 -1426.5488 13107.57 393216
862.54352 -1420.2755 13049.929 393216
939.89819 -1419.9304 13046.758 262144
1019.6841 -1423.0309 13075.245 262144
1075.9226 -1395.1581 12819.142 591104
1144.4279 -1385.8268 12733.403 262144
1214.7308 -1379.6954 12677.066 2498838
1324.455 -1416.4393 13014.681 1708808
1407.1136 -1421.7795 13063.748 1577218
1474.6832 -1412.1122 12974.922 2497806
1540.8245 -1402.1063 12882.984 2432011
1597.1802 -1384.5652 12721.811 2759950
1680.9661 -1391.3137 12783.818 2628619
1752.7924 -1388.0077 12753.441 2497290
1807.7953 -1372.2063 12608.253 2825999
1896.7404 -1382.401 12701.926 2562827
1959.0881 -1373.1724 12617.13 1444352
2050.5342 -1384.2677 12719.078 1904897
2101.3247 -1368.1047 12570.567 1970689
2188.4226 -1375.8784 12641.994 2168069
2301.4138 -1398.8749 12853.292 1510144
2380.0217 -1400.1655 12865.151 1246976
2569.7156 -1464.6927 13458.048 2365449
2709.73 -1497.8617 13762.814 1707777
2956.4626 -1586.3483 14575.855 1379328
3084.436 -1607.8873 14773.763 2103048
3059.9529 -1550.9597 14250.695 1445122
3056.176 -1507.312 13849.646 1643011
3057.1455 -1468.234 13490.586 2366477
3050.5386 -1427.6083 13117.304 853760
2983.2043 -1361.2968 12508.014 459264
3038.187 -1352.6689 12428.738 591104
3098.9109 -1346.9463 12376.157 525312
3141.2495 -1333.6832 12254.292 591104
3228.5767 -1339.6892 12309.477 591104
3397.604 -1378.5789 12666.807 262144
3487.4207 -1384.3391 12719.734 196864
3905.7109 -1517.476 13943.036 262144
4226.168 -1607.858 14773.494 196608
4379.8916 -1632.4171 14999.151 393984
4483.4839 -1637.6846 15047.55 262144
4326.5234 -1549.4355 14236.691 262144
4392.0425 -1542.7197 14174.984 526083
4130.6348 -1423.5847 13080.334 2038807
4879.814 -1650.7059 15167.194 327680
5701.5259 -1893.6765 17399.682 327680
0 0 0 0
0 0 0 0
0 0 0 0
0 0 0 0
0 0 0 0
7150.1924 -2141.6895 19678.502 393216
6661.1592 -1963.09 18037.475 788224
5622.1392 -1630.6327 14982.755 3551009
4841.9531 -1382.4467 12702.346 3682850
4800.3696 -1349.5265 12399.864 3682595
4708.6245 -1303.7133 11978.919 920579
4628.9858 -1262.5673 11600.856 1315079
5164.0542 -1387.8308 12751.816 4144179
5196.2183 -1376.2705 12645.598 131072
5129.4385 -1339.2076 12305.052 65792
5383.9043 -1385.8792 12733.884 4407604
0 0 0 0
0 0 0 0
5602.4321 -1383.7588 12714.401 131072
5702.1177 -1389.6313 12768.36 920584
5655.5854 -1360.1838 12497.788 2302492
5620.6167 -1334.245 12259.454 657664
5807.8027 -1361.0314 12505.575 3552038
6192.0303 -1432.7325 13164.388 5460288
6735.4722 -1539.0236 14141.022 3947316
6304.8008 -1422.8577 13073.653 5460031
0 0 0 0
0 0 0 0
0 0 0 0
6888.2114 -1481.4681 13612.185 1248516
7676.165 -1631.7649 14993.157 393216
7436.834 -1562.7423 14358.957 327680
7689.5605 -1597.5118 14678.43 328192
7808.8433 -1604.089 14738.862 1973007
7759.6558 -1576.297 14483.501 591360
7738.4717 -1554.7415 14285.442 262144
7770.6846 -1544.2651 14189.184 656896
8516.7637 -1674.3571 15384.507 2696214
7012.4868 -1363.9751 12532.623 393472
6843.2495 -1317.0635 12101.585 459008
6611.6382 -1259.2484 11570.361 853504
6703.5239 -1263.6024 11610.368 656128
6684.4624 -1247.1676 11459.359 655872
6551.1348 -1209.96 11117.485 524288
6520.9399 -1192.3534 10955.71 524288
6537.2881 -1183.5214 10874.559 458752
6554.3369 -1174.988 10796.151 393216
6625.3608 -1176.2023 10807.309 591618
6591.916 -1159.0249 10649.478 2301978
6617.5522 -1152.4635 10589.189 2565151
6575.3604 -1134.3248 10422.525 327936
6748.8545 -1153.3855 10597.661 393216
6680.1606 -1131.0863 10392.77 458752
6666.3633 -1118.4059 10276.258 458752
6678.3013 -1110.234 10201.172 524288
6703.3696 -1104.3726 10147.314 524288
6707.2686 -1095.1591 10062.658 524288
6815.6108 -1103.0112 10134.806 458752
6762.3188 -1084.7965 9967.4443 524288
6757.9619 -1074.6803 9874.4932 458752
6747.5327 -1063.781 9774.3477 458752
6760.2969 -1056.6931 9709.2217 393216
6683.4312 -1035.834 9517.5615 524288
6745.3457 -1036.6534 9525.0908 524544
6748.4414 -1028.495 9450.1279 458752
6601.1069 -997.73413 9167.4883 721664
6811.2188 -1021.0615 9381.8271 393216
7044.748 -1047.4918 9624.6768 393216
7174.1377 -1058.1365 9722.4834 524288
7455.7847 -1090.8883 10023.417 655360
7784.688 -1129.9802 10382.605 458752
8080.3477 -1163.6697 10692.154 590080
9442.2627 -1349.1885 12396.759 1313280
9085.9561 -1288.2213 11836.574 786944
9347.3213 -1315.0929 12083.479 589824
8751.2002 -1221.8333 11226.58 721152
8601.0693 -1191.7828 10950.467 786944
8506.8867 -1169.8778 10749.197 655616
8342.3594 -1138.6978 10462.705 393216
8728.5713 -1182.5966 10866.061 524288
8728.9375 -1173.9578 10786.685 655360
8878.0879 -1185.309 10890.983 1050112
10198.458 -1351.7328 12420.137 1115904
9495.8955 -1249.5659 11481.396 852736
10447.39 -1364.9617 12541.688 524288
9793.6182 -1270.4786 11673.548 1181696
9499.0947 -1223.6007 11242.819 1181696
9448.8301 -1208.6216 11105.187 1115904
9379.7334 -1191.4583 10947.484 1839622
8864.8252 -1118.2925 10275.216 1773828
8525.5537 -1068.1333 9814.3369 1641986
8300.6396 -1032.8857 9490.4727 1839108
8117.5249 -1003.2804 9218.4492 2497293
7945.9316 -975.48651 8963.0703 1181696
7673.4116 -935.75519 8598.0068 1510657
0 0 0 0
7507.1084 -903.43854 8301.0713 1510657
8641.7861 -1033.1985 9493.3457 1576193
7173.0264 -852.03131 7828.7256 1510657
0 0 0 0
0 0 0 0
0 0 0 0
0 0 0 0
0 0 0 0
0 0 0 0
0 0 0 0
0 0 0 0
0 0 0 0
0 0 0 0
0 0 0 0
0 0 0 0
0 0 0 0
0 0 0 0
0 0 0 0
0 0 0 0
0 0 0 0
0 0 0 0
0 0 0 0
0 0 0 0
0 0 0 0
0 0 0 0
0 0 0 0
0 0 0 0
0 0 0 0
0 0 0 0
0 0 0 0
0 0 0 0
0 0 0 0
0 0 0 0
-786.97913 -100.97589 981.40735 1644817
-784.98651 -101.47253 986.23425 1579024
-779.54565 -101.52753 986.76886 1513231
-776.36816 -101.88039 990.19843 1250059
-775.1322 -102.49538 996.17554 1250059
-771.88617 -102.852 999.6416 1118473
-767.13306 -103.01177 1001.1945 1052681
-764.60083 -103.47459 1005.6928 921094
-762.05402 -103.94274 1010.2427 789508
-758.53815 -104.2851 1013.5701 657923
-755.72711 -104.73059 1017.9001 855300
-757.06775 -105.76328 1027.937 263168
-755.48413 -106.40093 1034.1345 256
-794.34845 -112.79241 1096.2546 256
-806.97278 -115.53288 1122.8899 196608
-804.0033 -116.06792 1128.0901 196608
-800.81348 -116.57988 1133.0659 196608
-794.76227 -116.68044 1134.0433 196608
-787.79346 -116.64685 1133.7169 196608
-782.97968 -116.93454 1136.5129 196608
-782.41248 -117.86696 1145.5753 196608
-776.06372 -117.93713 1146.2574 196608
-770.61285 -118.14621 1148.2896 196608
-765.39148 -118.39454 1150.703 328192
-798.31293 -124.60066 1211.0217 1841426
-802.42072 -126.38158 1228.3309 1644047
-803.80365 -127.76212 1241.7487 1183496
-807.12476 -129.47917 1258.437 131072
-805.38171 -130.40836 1267.468 196608
-802.30743 -131.1375 1274.5547 196608
-802.36163 -132.39676 1286.7937 1052680
-798.32654 -132.99901 1292.6472 723461
-796.9411 -134.05869 1302.9464 591875
-794.69855 -134.99358 1312.0328 723461
-793.57056 -136.13821 1323.1577 197120
-790.14435 -136.90752 1330.6349 657668
-789.08649 -138.10692 1342.2921 789254
-784.93921 -138.78461 1348.8787 986633
-784.2832 -140.09991 1361.6625 1184265
-783.56537 -141.4315 1374.6045 1842196
0 0 0 0
0 0 0 0
-7755.4844 -1445.0583 14044.845 393216
-7890.2729 -1486.1737 14444.455 458752
-8081.3521 -1538.9132 14957.042 458752
-8033.5269 -1546.826 15033.949 458752
-8213.4121 -1599.255 15543.518 393216
-8411.1299 -1656.389 16098.816 327680
-9040.8301 -1800.8867 17503.221 327680
-9046.1992 -1822.938 17717.543 327680
-9099.7656 -1855.3356 18032.422 262144
-9247.1289 -1907.8578 18542.896 459264
-9245.8457 -1930.6086 18764.018 1577743
-8957.8535 -1893.3168 18401.57 1117193
-8887.2236 -1901.6124 18482.197 5854546
-8887.1191 -1925.395 18713.346 13357260
-8596.666 -1886.079 18331.225 9870231
-8275.8008 -1838.9954 17873.607 5725017
-8251.5732 -1857.4613 18053.082 6448997
-8141.7231 -1856.886 18047.49 6382690
-7906.938 -1827.4208 17761.111 9409934
-7445.2036 -1743.9965 16950.291 11780023
-7960.5752 -1890.3044 18372.293 12043966
0 0 0 0
-7928.6392 -1935.8434 18814.895 726032
-7788.3013 -1928.79 18746.342 1842461
-7990.0859 -2007.4893 19511.236 11253681
-7892.0054 -2012.0568 19555.629 10925229
-7550.3428 -1953.7312 18988.752 11254193
-7144.7861 -1876.8513 18241.537 1024
-7642.7617 -2038.6066 19813.674 66562
-7264.2925 -1967.9867 19127.303 920840
-6826.4546 -1878.781 18260.293 921093
-6393.7778 -1788.1356 17379.291 723713
-5362.5371 -1524.3636 14815.632 262144
-4879.769 -1410.2954 13706.978 459776
-4230.415 -1243.3905 12084.791 394240
-3746.5 -1120.1838 10887.317 525826
-3630.4302 -1104.5625 10735.49 262144
-3424.8013 -1060.646 10308.655 460032
-3238.3909 -1021.1894 9925.168 196608
-3171.8481 -1018.7687 9901.6406 196608
-3110.9736 -1018.1114 9895.2529 459520
-2999.4172 -1000.5227 9724.3047 196608
-2970.7803 -1010.446 9820.751 459776
-3056.4221 -1060.4158 10306.418 393984
-2929.1025 -1037.0322 10079.148 656640
-2972.8145 -1074.4893 10443.202 1248257
-3002.8811 -1108.5072 10773.83 787712
-2869.408 -1082.3218 10519.328 590848
-2888.4138 -1113.7651 10824.933 1051136
-2836.5881 -1118.7065 10872.96 1182464
-2608.7141 -1052.8286 10232.677 1314306
-2443.3604 -1009.6393 9812.9102 1248514
-2322.616 -983.2215 9556.1494 1051136
-2302.2686 -999.04498 9709.9424 1116928
-2258.2993 -1005.1685 9769.457 985344
-2173.8618 -993.12714 9652.4248 656384
0 0 0 0
0 0 0 0
0 0 0 0
0 0 0 0
0 0 0 0
-966.59174 -524.68982 5099.5776 196608
-938.42352 -525.89423 5111.2842 262144
-896.13513 -519.00153 5044.292 262400
-858.31342 -514.30798 4998.6748 1182721
-850.00757 -527.59821 5127.8452 1314304
-811.99622 -522.75317 5080.7554 1841418
-812.77222 -543.46942 5282.1006 525568
-784.68079 -545.7724 5304.4844 196864
-749.11017 -542.84845 5276.0659 196608
-720.09619 -544.62793 5293.3608 196864
-692.39679 -547.60968 5322.3413 196864
-664.18463 -550.45203 5349.9668 985858
-611.70044 -532.45288 5175.0283 1314820
-584.44135 -535.66718 5206.269 1512456
-555.69336 -537.79993 5226.998 6380882
-514.04657 -526.96259 5121.667 131072
-488.94382 -532.78796 5178.2856 131072
-455.05667 -529.18103 5143.2285 65792
-427.20667 -532.58063 5176.2705 65792
-393.06683 -528.05804 5132.3145 65792
-356.47125 -519.19757 5046.1973 131072
0 0 0 0
0 0 0 0
-500.94232 -976.04675 9486.417 1248769
-450.94019 -990.08893 9622.8955 1182464
-398.38913 -1001.8019 9736.7373 1116928
-344.09842 -1012.3793 9839.541 1380097
-292.04294 -1035.2128 10061.465 1314305
-241.18439 -1075.1447 10449.571 853760
-182.89618 -1098.1744 10673.403 1051136
-121.74364 -1119.3383 10879.1 1445380
-56.92944 -1116.6531 10853.001 722432
7.7525806 -1140.1676 11081.545 919552
79.181938 -1226.0829 11916.574 853760
158.16196 -1292.5641 12562.72 2235410
242.63817 -1346.9072 13090.893 262144
339.31506 -1426.1346 13860.922 590848
420.466 -1421.8953 13819.719 327936
506.22684 -1432.0833 13918.737 393728
587.67474 -1428.9214 13888.007 1446152
670.25214 -1428.9467 13888.253 393216
719.30353 -1365.3297 13269.945 393216
779.63751 -1333.5874 12961.435 393216
850.59027 -1324.0852 12869.08 262144
920.24341 -1314.2952 12773.929 262144
1004.9863 -1325.9061 12886.778 262400
1062.3473 -1302.3054 12657.397 854272
1121.4359 -1283.8046 12477.585 525569
1162.611 -1248.3647 12133.137 854017
1277.9641 -1292.0621 12557.841 1445379
1371.5358 -1310.1293 12733.44 2169098
1433.2684 -1297.4838 12610.536 3221527
1498.8124 -1289.3743 12531.717 2497803
1589.0802 -1302.2946 12657.293 3089683
1658.1958 -1297.4955 12610.649 3155477
1718.3425 -1286.3971 12502.782 2892562
1804.5128 -1294.8936 12585.36 2300425
1886.563 -1299.8743 12633.77 3154964
1939.6696 -1285.2949 12492.068 2102276
1999.5061 -1276.0854 12402.561 1575936
2084.1611 -1282.8073 12467.891 1773313
2176.3245 -1293.5299 12572.106 2168326
2269.3115 -1304.0139 12674.003 2694927
2377.844 -1322.4696 12853.379 3091747
2480.3713 -1336.5404 12990.136 1773827
2579.7522 -1348.1172 13102.652 1510656
2796.9526 -1418.7805 13789.445 1642498
2857.0486 -1407.9958 13684.627 1116160
2790.7913 -1337.2638 12997.166 1576705
3050.3889 -1422.2764 13823.422 1642755
3090.8242 -1403.3223 13639.203 2234893
2984.2568 -1320.3002 12832.293 1051136
3004.0906 -1295.9456 12595.586 853760
2989.0063 -1258.0787 12227.549 327936
3002.7012 -1233.8354 11991.923 590848
3026.9692 -1214.9606 11808.474 460032
3205.0615 -1257.2837 12219.821 196864
3360.3623 -1288.988 12527.964 196864
3434.4177 -1288.8289 12526.416 65792
3570.5007 -1311.4591 12746.365 6974562
4052.5774 -1457.5928 14166.671 3091487
4162.9185 -1466.7957 14256.115 196608
4400.6514 -1519.6219 14769.546 919809
4502.5269 -1524.3853 14815.842 328192
4276.4146 -1420.052 13801.804 591619
4074.355 -1327.4841 12902.115 2960924
4902.0986 -1567.6621 15236.458 12829369
5377.5293 -1688.5013 16410.922 13816007
0 0 0 0
0 0 0 0
0 0 0 0
0 0 0 0
0 0 0 0
7038.2197 -1992.9919 19370.334 2237195
6878.0498 -1916.2828 18624.783 8288611
5438.6382 -1491.244 14493.734 6314824
4769.2412 -1287.3037 12511.594 3617057
4769.9868 -1267.733 12321.381 3222557
4846.1318 -1268.4905 12328.742 1380871
5033.6533 -1297.944 12615.008 854529
5325.8198 -1353.1195 13151.271 4867902
5187.188 -1298.8302 12623.621 131072
5060.1392 -1248.9482 12138.808 262144
5349.8877 -1301.897 12653.429 1314822
0 0 0 0
6004.7109 -1421.2787 13813.726 854272
5644.3091 -1317.9487 12809.438 262144
5679.3071 -1308.4669 12717.283 525312
5619.877 -1277.7645 12418.879 393728
5742.0581 -1288.615 12524.338 985856
5978.3555 -1324.4694 12872.814 525568
6160.5298 -1347.5785 13097.417 0
6320.9829 -1365.4186 13270.809 394240
6799.4595 -1450.6693 14099.38 789761
6379.6626 -1344.5304 13067.791 460800
0 0 0 0
6626.9214 -1363.4338 13251.52 788992
7509.3081 -1526.8265 14839.569 656896
7644.5474 -1536.2751 14931.402 393216
7304.9287 -1451.173 14104.275 393216
7397.1353 -1452.8141 14120.226 853762
7428.4067 -1442.5847 14020.804 459520
7203.5757 -1383.3997 13445.571 656640
7118.7803 -1352.1115 13141.474 393216
7085.8481 -1331.2462 12938.68 393216
7055.8789 -1311.3799 12745.595 393216
6761.4292 -1243.3026 12083.937 458752
6742.9214 -1226.8639 11924.165 458752
6805.2886 -1225.3292 11909.249 655872
6761.6108 -1204.9288 11710.973 458752
6769.1953 -1193.9862 11604.619 393216
6634.5679 -1158.4332 11259.072 327680
6552.2896 -1132.6399 11008.381 525571
6644.5688 -1137.2324 11053.017 1249292
6653.5171 -1127.6124 10959.518 657413
6644.9307 -1115.2362 10839.23 65536
6682.6392 -1110.7928 10796.044 196608
6545.4009 -1077.6309 10473.735 196608
6648.4858 -1084.2877 10538.436 262144
6683.3896 -1079.8046 10494.862 393216
6707.0376 -1073.6025 10434.584 393216
6711.7842 -1064.5165 10346.274 524800
6738.2485 -1059.0087 10292.742 393216
6789.7954 -1057.5066 10278.144 590336
6779.4766 -1046.4817 10170.989 655616
6815.9937 -1042.8173 10135.374 721664
6782.6665 -1028.625 9997.4365 590080
6733.1128 -1012.2397 9838.1846 458752
6741.1587 -1004.7216 9765.1143 458752
6766.4731 -999.88354 9718.0918 393216
6808.6118 -997.59253 9695.8252 590080
6749.2529 -980.59357 9530.6084 721664
6641.4224 -956.89374 9300.2646 458752
6556.2358 -936.82086 9105.1719 655872
6779.5776 -960.80139 9338.2441 459008
7046.4009 -990.50458 9626.9355 655872
7312.5947 -1019.6412 9910.1211 524288
7743.1719 -1071.05 10409.775 655360
8074.2729 -1107.9929 10768.831 590080
8316.2158 -1132.2162 11004.263 786944
8224.9541 -1111.0508 10798.552 1115904
8450.6348 -1132.6956 11008.921 1050112
8560.6406 -1138.6218 11066.521 918528
8802.1377 -1161.8136 11291.926 852992
8675.8906 -1136.4823 11045.726 852736
8720.7559 -1133.7778 11019.44 524288
8620.3125 -1112.363 10811.305 589824
8810.543 -1128.4961 10968.105 1049856
9169.0205 -1165.7836 11330.512 590080
10399.918 -1312.6411 12757.853 721152
9392.3496 -1176.8864 11438.422 721152
9242.8818 -1149.8326 11175.48 852736
9587.7568 -1184.2233 11509.731 1115904
9554.3037 -1171.7289 11388.295 1247488
9516.1592 -1158.839 11263.016 1248000
9444.7686 -1142.109 11100.413 1773570
9046.7061 -1086.3823 10558.794 2233864
8773.2676 -1046.2864 10169.092 1839106
8617.0117 -1020.6185 9919.6201 1839107
0 0 0 0
8483.1406 -991.19543 9633.6504 2365451
0 0 0 0
0 0 0 0
0 0 0 0
0 0 0 0
0 0 0 0
0 0 0 0
0 0 0 0
0 0 0 0
0 0 0 0
0 0 0 0
0 0 0 0
0 0 0 0
0 0 0 0
0 0 0 0
0 0 0 0
0 0 0 0
0 0 0 0
0 0 0 0
0 0 0 0
0 0 0 0
0 0 0 0
0 0 0 0
0 0 0 0
0 0 0 0
0 0 0 0
0 0 0 0
0 0 0 0
0 0 0 0
0 0 0 0
0 0 0 0
0 0 0 0
0 0 0 0
0 0 0 0
0 0 0 0
0 0 0 0
0 0 0 0
-787.79248 -95.239662 982.42163 1644815
-784.05145 -95.495384 985.05945 1579022
-784.17212 -96.228828 992.62518 1381643
-780.2807 -96.477333 995.18854 1381643
-778.10425 -96.943314 999.99518 1381645
-772.94568 -97.042046 1001.0137 1315852
-769.60895 -97.372826 1004.4258 1250059
-765.60364 -97.623535 1007.0118 1118473
-764.00183 -98.187073 1012.825 855300
-759.27014 -98.354141 1014.5482 921092
-761.08337 -99.378471 1025.1145 65792
-791.14728 -104.13796 1074.2098 65792
-795.44061 -105.55514 1088.8284 196608
-797.39191 -106.68224 1100.4547 196608
-809.50055 -109.19818 1126.4073 196608
-804.95703 -109.49104 1129.4282 196608
-801.00769 -109.87034 1133.3408 196608
-792.63489 -109.64417 1131.0078 196608
-786.01019 -109.65802 1131.1506 196608
-778.29169 -109.51818 1129.7083 196608
-781.9375 -110.98899 1144.88 196608
-775.65405 -111.06386 1145.6523 196608
-765.65399 -110.6032 1140.9004 196608
-768.67236 -112.03168 1155.6356 459776
-799.15247 -117.5245 1212.2954 1973012
-804.47437 -119.3838 1231.4746 1841425
-805.29944 -120.60383 1244.0594 1578511
-809.73724 -122.39251 1262.5103 592129
-809.32153 -123.47421 1273.6683 256
-806.20306 -124.1601 1280.7433 131072
-803.91614 -124.98833 1289.2869 197121
-804.42291 -126.27106 1302.5184 1184012
-800.86829 -126.93499 1309.3671 526082
-797.16553 -127.58826 1316.1057 657668
-796.12317 -128.68449 1327.4137 0
-795.69446 -129.90288 1339.9816 526082
-791.25513 -130.48451 1345.9812 723461
-791.31488 -131.82753 1359.8348 920838
-789.17993 -132.82889 1370.1642 1118474
-786.73993 -133.79926 1380.1737 1315852
0 0 0 0
0 0 0 0
0 0 0 0
-8504.541 -1509.3152 15568.975 393216
-8261.082 -1482.2401 15289.688 458752
-7995.1206 -1450.4801 14962.075 393216
-8199.1221 -1504.2257 15516.476 393216
-8075.5996 -1498.4225 15456.613 459776
-8256.0566 -1549.5382 15983.886 196608
-8309.834 -1577.7916 16275.325 262144
-8299.9062 -1594.4722 16447.391 196608
-8635.7275 -1678.7634 17316.877 262656
-8940.9814 -1759.0748 18145.309 4472888
-8670.2725 -1726.6473 17810.811 3223337
-8729.8555 -1760.0074 18154.93 7501423
-8249.1064 -1683.9037 17369.9 11385523
-8616.9531 -1781.2919 18374.484 8819856
-9012.4043 -1886.9603 19464.482 922643
-8728.3799 -1851.2634 19096.258 790800
-8368.6416 -1798.3549 18550.492 856079
-7880.3999 -1716.05 17701.498 856079
-7888.7578 -1741.1216 17960.117 9739674
-8007.4233 -1791.561 18480.414 9476243
0 0 0 0
-7923.2588 -1822.7493 18802.127 659214
-7707.3345 -1798.4481 18551.455 1053971
-8031.292 -1901.2476 19611.857 10725798
-7640.2261 -1835.3147 18931.744 9279376
-7612.4966 -1855.9951 19145.066 10068125
-7181.9116 -1777.5925 18336.324 0
-7460.042 -1874.8905 19339.979 768
-7444.8857 -1900.3708 19602.814 921095
-7128.5435 -1848.5587 19068.359 921094
-6748.7134 -1778.3425 18344.061 985858
-5710.9146 -1529.5917 15778.131 2302487
-4557.8984 -1241.158 12802.863 4933953
-4247.8145 -1176.3638 12134.495 3815473
-3852.0771 -1085.2007 11194.124 2368027
-3515.9229 -1007.913 10396.882 1775634
-3343.0559 -975.50659 10062.602 2960677
-3247.4907 -964.88696 9953.0576 3355950
-3163.7473 -957.45087 9876.3525 3421486
-3086.3083 -951.67755 9816.7988 1907992
-3049.8003 -958.54614 9887.6504 1973526
-2970.4968 -951.96985 9819.8145 1250314
-2950.9939 -964.67871 9950.9092 5329222
-2941.2988 -981.17926 10121.116 3552555
-2986.9927 -1017.2319 10493.009 2434072
-2978.2405 -1035.8853 10685.423 3684138
-2820.9319 -1002.555 10341.613 1512717
-2796.187 -1015.9022 10479.293 1249030
-2774.3313 -1030.9314 10634.322 2762008
-2651.0386 -1008.0888 10398.695 2301712
-2438.9392 -949.57941 9795.1553 327936
-2398.4392 -956.6524 9868.1152 1840650
-2325.3311 -950.74799 9807.21 1116928
-2226.2429 -933.6441 9630.7793 985344
-2170.7302 -934.39447 9638.5195 722176
-2069.0576 -914.77728 9436.1631 722176
-1977.0498 -898.45862 9267.832 853760
0 0 0 0
0 0 0 0
0 0 0 0
0 0 0 0
-954.69177 -504.09717 5199.8921 327680
-916.37415 -500.05701 5158.2168 327680
-869.79016 -491.06998 5065.5132 1183233
-857.18164 -501.30835 5171.1245 1315072
-828.61951 -502.63113 5184.7695 1578246
-813.1734 -512.31958 5284.708 920834
-786.40796 -515.36865 5316.1602 196864
-754.16388 -514.93231 5311.6597 196864
-725.1601 -516.76703 5330.585 196864
-695.14526 -518.01599 5343.4683 196864
-665.82483 -519.92682 5363.1787 131328
-622.7699 -510.76547 5268.6772 1315076
-571.65387 -493.6723 5092.3569 1315334
-551.92596 -503.28955 5191.561 525825
-525.05591 -507.14758 5231.3579 196608
-490.27563 -503.36996 5192.3906 256
-456.43796 -500.11752 5158.8408 65792
-427.38748 -502.01962 5178.4614 65792
-396.21609 -501.53232 5173.4351 65792
-358.58875 -492.1033 5076.1724 262912
0 0 0 0
0 0 0 0
-509.25394 -934.9079 9643.8154 1314821
-439.81152 -909.85748 9385.4141 1446407
-406.9346 -964.16315 9945.5908 1380870
-346.10538 -959.44574 9896.9297 1050881
-288.86212 -964.77271 9951.8789 919040
-242.72298 -1019.4834 10516.233 1116672
-183.81493 -1039.9177 10727.019 919296
-122.0517 -1057.3297 10906.628 1248514
-57.513523 -1062.9254 10964.35 1116928
8.0112534 -1110.1315 11451.291 1380099
79.773354 -1163.8662 12005.579 1116928
165.96524 -1277.9644 13182.53 2038027
248.93904 -1302.0364 13430.84 656896
359.5993 -1424.0582 14689.526 1052161
434.09299 -1383.1556 14267.606 1315074
539.59113 -1438.2666 14836.09 854272
589.23511 -1349.9307 13924.882 1117441
649.0625 -1303.8148 13449.185 459520
711.745 -1272.9205 13130.503 262144
773.59064 -1246.7849 12860.906 262144
839.76508 -1231.6997 12705.3 262144
913.00317 -1228.61 12673.428 262144
976.95996 -1214.4536 12527.401 262144
1024.1279 -1182.9109 12202.03 591361
1048.5844 -1131.0437 11667.007 920067
1116.8787 -1129.9641 11655.87 1116928
1193.9795 -1137.3998 11732.571 1511683
1326.7574 -1194.1259 12317.716 1840390
1405.1169 -1198.501 12362.847 2629648
1473.1162 -1194.0437 12316.868 2234634
1564.1729 -1207.813 12458.901 1707522
1638.465 -1207.9772 12460.595 2628363
1710.0397 -1206.2104 12442.371 2760206
1783.7108 -1206.0076 12440.278 2760206
1863.5358 -1209.816 12479.563 3747101
1948.0083 -1216.2345 12545.771 2299654
1989.9968 -1196.6329 12343.577 2233862
2073.1143 -1202.2777 12401.805 2431241
2170.9277 -1215.7653 12540.931 2365704
2262.824 -1225.1531 12637.77 2629133
2351.5134 -1232.2573 12711.051 1248260
2418.9709 -1228.1393 12668.572 1642242
2538.4648 -1249.8916 12892.953 1839874
2731.9199 -1305.7186 13468.823 1774083
2724.0237 -1264.8707 13047.468 1905669
2787.5039 -1258.5101 12981.856 1971463
3042.7805 -1336.7522 13788.942 1576708
3163.7039 -1353.4133 13960.807 1379585
3011.7368 -1255.4661 12950.456 459264
2973.6694 -1208.6985 12468.036 722688
2933.5334 -1163.3851 12000.617 393984
2976.7183 -1152.4825 11888.154 131072
3041.9727 -1150.432 11867.003 197120
3132.1492 -1157.6862 11941.831 66048
3257.574 -1177.3582 12144.752 66048
3318.5415 -1173.386 12103.778 66048
3288.4438 -1138.0664 11739.448 131072
3700.626 -1254.0983 12936.347 131328
4103.7095 -1362.3849 14053.352 197120
4240.6841 -1379.7678 14232.66 1051904
4490.0649 -1432.3281 14774.834 788736
4221.4805 -1320.8114 13624.509 1052676
3994.114 -1226.1467 12648.02 1578505
4739.23 -1428.005 14730.238 1447425
5020.1738 -1485.2136 15320.36 1447680
5143.1196 -1494.4728 15415.871 2302979
6002.6528 -1713.6957 17677.213 3553043
5458.957 -1531.6603 15799.471 3289616
6470.0757 -1784.6499 18409.123 1512961
6493.1396 -1761.2201 18167.438 657664
6617.9888 -1765.7135 18213.789 1183232
6147.46 -1613.7697 16646.449 4599049
5008.8994 -1294.0538 13348.499 4730378
4975.4971 -1265.3765 13052.684 3877657
4863.8711 -1217.9913 12563.894 2827542
4949.0273 -1220.5718 12590.512 1117442
4766.4014 -1158.0165 11945.238 854786
5397.2407 -1292.0312 13327.635 5393989
5207.5571 -1228.5872 12673.192 196608
5046.5947 -1173.6321 12106.316 262144
5336.1479 -1223.5208 12620.932 721920
5452.9565 -1232.9667 12718.369 525312
5499.4766 -1226.4788 12651.443 920064
5553.4341 -1221.8021 12603.203 459776
5632.4482 -1222.6895 12612.355 591360
5753.8745 -1232.639 12714.988 656896
5857.771 -1238.624 12776.726 591104
6047.3145 -1262.334 13021.3 459520
6269.02 -1292.0734 13328.069 460032
6403.3013 -1303.2766 13443.634 196864
6402.9922 -1287.1479 13277.263 196864
6494.3257 -1289.6102 13302.661 591872
6545.9829 -1284.2291 13247.154 986626
6673.7051 -1293.7216 13345.07 1183747
7097.3984 -1359.6918 14025.57 525824
7522.7339 -1424.4409 14693.475 262144
7035.626 -1316.9143 13584.31 393216
7263.1436 -1344.0724 13864.452 656384
6986.6401 -1278.3965 13186.988 393472
6989.5708 -1264.741 13046.128 327680
6993.2969 -1251.5275 12909.828 459264
7013.7622 -1241.5641 12807.053 458752
6779.2847 -1187.1697 12245.961 393216
6663.3369 -1154.4672 11908.626 393216
6653.4375 -1140.6329 11765.922 393216
6717.0962 -1139.5657 11754.912 458752
6775.8706 -1137.7003 11735.672 327680
6684.7993 -1110.9695 11459.937 1445896
6724.0503 -1106.2185 11410.928 854021
6737.4429 -1097.3506 11319.454 262144
6671.998 -1075.9446 11098.645 393216
6782.0713 -1082.985 11171.27 393216
6827.0015 -1079.5876 11136.225 393216
6765.2378 -1059.5455 10929.485 393216
6729.5913 -1043.9363 10768.471 327680
6775.8081 -1041.2006 10740.252 327680
6748.4707 -1027.3188 10597.059 458752
6257.3887 -943.75104 9735.0352 393216
6712.4683 -1003.1091 10347.329 393216
6713.1841 -994.10571 10254.456 1050880
6910.6172 -1014.1326 10461.038 655872
6808.687 -990.26251 10214.812 721664
6929.981 -998.99347 10304.874 721664
6882.0439 -983.38953 10143.916 721152
6868.125 -972.87543 10035.46 458752
6832.4292 -959.48431 9897.3271 458752
6854.1611 -954.31744 9844.0303 458752
6844.9067 -944.96063 9747.5117 458752
6825.6675 -934.39386 9638.5127 655872
6663.3599 -904.58087 9330.9844 853248
6630.9531 -892.74921 9208.9375 787456
6720.5464 -897.40204 9256.9336 590848
7080.2046 -937.74866 9673.1182 524544
7359.272 -966.85706 9973.3789 524288
7554.5942 -984.58569 10156.255 524288
7881.0083 -1018.9829 10511.07 524288
8016.5098 -1028.3488 10607.682 852736
8180.106 -1041.1444 10739.672 1050112
8297.2803 -1047.8789 10809.141 655616
8406.6562 -1053.5328 10867.462 721408
8237.8594 -1024.5052 10568.035 787200
8840.0459 -1091.0751 11254.721 524288
8849.1045 -1083.9884 11181.62 589824
8968.5947 -1090.4341 11248.108 589824
10005.565 -1207.5094 12455.771 655360
10692.165 -1280.891 13212.72 524288
9491.6953 -1128.7854 11643.712 786944
9407.1748 -1110.634 11456.477 721152
9449.8252 -1107.6498 11425.693 589824
9482.2744 -1103.5211 11383.104 984320
9370.5088 -1082.7864 11169.22 852736
9327.5137 -1070.2341 11039.741 1773057
9310.5234 -1060.8203 10942.635 1838848
8913.249 -1008.5092 10403.031 1246976
8724.0293 -980.29742 10112.021 1575936
8512.625 -949.99603 9799.4531 1708033
8485.1113 -940.48895 9701.3857 1445120
0 0 0 0
0 0 0 0
0 0 0 0
0 0 0 0
0 0 0 0
0 0 0 0
0 0 0 0
0 0 0 0
0 0 0 0
0 0 0 0
0 0 0 0
0 0 0 0
0 0 0 0
0 0 0 0
0 0 0 0
0 0 0 0
0 0 0 0
0 0 0 0
0 0 0 0
0 0 0 0
0 0 0 0
0 0 0 0
0 0 0 0
0 0 0 0
0 0 0 0
0 0 0 0
0 0 0 0
0 0 0 0
0 0 0 0
0 0 0 0
0 0 0 0
0 0 0 0
0 0 0 0
0 0 0 0
0 0 0 0
0 0 0 0
0 0 0 0
-799.25391 -90.699715 996.7146 1446668
-779.0434 -89.066544 978.7674 1381389
-783.62091 -90.264091 991.92749 1315339
-781.849 -90.742867 997.18884 1250059
-777.89032 -90.973221 999.72021 1381646
-774.02332 -91.217926 1002.4093 1184266
-769.90814 -91.436966 1004.8163 986887
-768.39471 -91.970818 1010.683 986631
-767.74969 -92.617859 1017.7934 592131
-764.89001 -93.005882 1022.0575 65536
-769.37628 -94.300507 1036.2843 196608
-803.01605 -99.21814 1090.3251 196608
-793.34998 -98.821541 1085.9667 196608
-788.74744 -99.054329 1088.5249 196608
-804.78107 -101.90398 1119.8402 196608
-804.0426 -102.65974 1128.1453 196608
-796.0329 -102.49198 1126.3019 196608
-788.98859 -102.44675 1125.8049 196608
-785.56085 -102.87437 1130.504 196608
-775.53223 -102.43748 1125.7029 196608
-779.03412 -103.79572 1140.6289 196608
-775.18835 -104.19026 1144.9645 196864
-760.27026 -103.09041 1132.8781 262400
-765.19489 -104.68556 1150.4075 328192
-797.08887 -110.03241 1209.1649 1973012
-805.64246 -112.22529 1233.2628 1973010
-807.38422 -113.50084 1247.28 1907474
-805.4762 -114.28221 1255.8667 1579023
-811.84888 -116.26407 1277.6456 65792
-809.35583 -117.00172 1285.7518 65792
-806.39172 -117.68469 1293.2571 65792
-806.40045 -118.81885 1305.7206 1118475
-802.30121 -119.36388 1311.71 789254
-800.40094 -120.24996 1321.4474 526082
-799.55328 -121.31333 1333.1329 855047
-800.22095 -122.63021 1347.6042 394496
-793.27655 -122.79542 1349.4198 526082
-794.88751 -124.30185 1365.9742 855047
-791.90094 -125.11301 1374.8883 921353
-790.15717 -126.13951 1386.1686 1118474
-789.00714 -127.28342 1398.7391 2039574
0 0 0 0
0 0 0 0
-7242.6367 -1206.5377 13258.85 262144
-7863.7334 -1324.4194 14554.271 393728
-7948.02 -1353.5081 14873.931 459520
-7756.1479 -1335.6938 14678.166 459264
-7716.6309 -1344.0098 14769.552 196608
-8029.9678 -1414.6813 15546.173 459520
-8136.8706 -1450.2064 15936.564 920320
-8139.0107 -1467.6772 16128.555 196608
-8324.0527 -1518.9398 16691.889 986117
-8947.4756 -1652.3984 18158.488 3354665
-8767.6475 -1638.9629 18010.842 3091752
-8677.1465 -1642.0997 18045.312 3027243
-8761.9531 -1678.9064 18449.787 10134170
-8866.0898 -1720.397 18905.734 10924203
0 0 0 0
