# .PCD v0.7 - Point Cloud Data file format
VERSION 0.7
FIELDS x y z rgb
SIZE 4 4 4 4
TYPE F F F U
COUNT 1 1 1 1
WIDTH 1406
HEIGHT 1
VIEWPOINT 0 0 0 1 0 0 0
POINTS 1406
DATA ascii
7195.8613 -1319.3319 9521.7754 458752
7173.4194 -1304.9517 9417.9912 458752
7194.6978 -1298.6858 9372.7695 458752
7228.4673 -1294.7538 9344.3916 458752
7170.8726 -1274.6414 9199.2383 458752
7162.1509 -1263.4552 9118.5059 458752
7045.4297 -1233.528 8902.5176 458752
7091.4209 -1232.3229 8893.8203 1511171
7078.1997 -1220.922 8811.5391 786944
7650.6479 -1309.9688 9454.2002 655360
7987.8315 -1357.7278 9798.8828 655360
8019.7334 -1353.2808 9766.7881 786944
8265.7637 -1384.771 9994.0566 852736
8225.4912 -1368.1892 9874.3838 655616
8510.4688 -1405.5598 10144.092 1182208
9022.5566 -1479.6493 10678.805 459008
8973.4824 -1461.3188 10546.512 458752
9154.082 -1480.3855 10684.117 589824
9278.1416 -1490.1086 10754.291 524544
9658.3086 -1540.5493 11118.327 458752
9680.9053 -1533.6575 11068.588 458752
9715.5264 -1528.7507 11033.176 524288
9578.7637 -1497.1234 10804.917 458752
10661.093 -1655.1875 11945.684 458752
10524.296 -1623.1365 11714.368 393216
9989.2119 -1530.4841 11045.686 787456
9579.1367 -1458.0698 10523.062 590080
9473.5908 -1432.6477 10339.589 655872
8950.0576 -1344.7509 9705.2266 1642241
8989.8779 -1342.0818 9685.9639 655872
8913.7656 -1322.2496 9542.832 655360
9052.8252 -1334.3845 9630.4111 721152
9110.2949 -1334.416 9630.6387 852736
9068.2529 -1319.9625 9526.3262 852992
8953.666 -1295.1943 9347.5713 852736
8978.5898 -1290.7883 9315.7725 984320
1873.274 -267.65637 1931.7076 918528
0 0 0 0
0 0 0 0
0 0 0 0
0 0 0 0
0 0 0 0
0 0 0 0
0 0 0 0
0 0 0 0
0 0 0 0
0 0 0 0
0 0 0 0
0 0 0 0
0 0 0 0
0 0 0 0
0 0 0 0
0 0 0 0
0 0 0 0
0 0 0 0
0 0 0 0
0 0 0 0
-867.94421 -142.48216 1074.4098 131072
-856.04211 -141.57016 1067.5327 196608
-855.53705 -142.54344 1074.8718 196608
-850.91394 -142.84006 1077.1086 196608
-826.58948 -139.80893 1054.2518 262144
-821.0415 -139.93159 1055.1768 196608
-833.5282 -143.15347 1079.4719 196608
-830.57349 -143.75281 1083.9913 196608
-831.98596 -145.12329 1094.3257 131072
-828.48065 -145.6508 1098.3035 1052426
-827.38641 -146.61395 1105.5662 1249805
-825.71655 -147.4897 1112.1699 920840
-823.69189 -148.31569 1118.3984 789255
-821.64893 -149.15179 1124.7032 1118220
-822.1297 -150.46353 1134.5946 131328
-819.53522 -151.22948 1140.3704 262912
-816.22894 -151.87576 1145.2438 591876
-812.60651 -152.47359 1149.7518 657925
-809.61053 -153.20012 1155.2303 855817
-808.23053 -154.24747 1163.1281 1250319
-802.04999 -154.38882 1164.194 1447698
-796.46075 -154.64746 1166.1442 1645334
-800.05054 -156.70857 1181.6863 2303266
0 0 0 0
0 0 0 0
0 0 0 0
-9703.2334 -1969.7915 14853.532 10792360
-8504.8271 -1742.3674 13138.604 10464165
-8206.5498 -1696.8441 12795.328 10529701
-7910.3994 -1650.913 12448.977 10595750
-7579.0991 -1596.7089 12040.242 10068637
-7591.4771 -1614.5653 12174.892 9542806
-7666.334 -1646.1815 12413.298 10200737
-7864.5166 -1705.1511 12857.969 10990252
-8087.1738 -1770.6371 13351.776 11648182
-8590.7734 -1899.5416 14323.801 12240573
-8928.9316 -1994.0797 15036.681 12503231
-9546.332 -2153.5229 16238.989 12371902
-10508.358 -2394.7615 18058.086 12437438
-10931.383 -2516.8782 18978.928 12371901
0 0 0 0
0 0 0 0
0 0 0 0
0 0 0 0
0 0 0 0
0 0 0 0
0 0 0 0
0 0 0 0
0 0 0 0
0 0 0 0
0 0 0 0
0 0 0 0
0 0 0 0
0 0 0 0
-9364.1348 -2550.9924 19236.17 5857877
0 0 0 0
0 0 0 0
0 0 0 0
0 0 0 0
-8784.3145 -2548.6667 19218.633 65792
0 0 0 0
0 0 0 0
0 0 0 0
0 0 0 0
0 0 0 0
-8080.666 -2542.9678 19175.66 11908019
-7725.0283 -2465.8369 18594.043 11645616
-7738.5 -2505.9973 18896.879 131586
-7901.7119 -2596.5469 19579.682 131584
-7848.3721 -2617.5793 19738.281 591872
-7734.4126 -2618.7261 19746.928 460288
0 0 0 0
0 0 0 0
0 0 0 0
0 0 0 0
0 0 0 0
-7103.2144 -2645.988 19952.502 1314306
-6693.7383 -2535.8025 19121.629 1511942
-6557.4575 -2527.0928 19055.951 919808
-6379.4517 -2501.7141 18864.58 788480
-5971.4922 -2383.6365 17974.197 656896
-5427.6323 -2206.0208 16634.855 788736
-4757.7012 -1969.62 14852.239 393216
-4033.8398 -1701.5306 12830.667 327680
-3124.2024 -1343.2332 10128.866 459264
-3080.2026 -1350.3427 10182.478 262144
-2834.894 -1267.7155 9559.4141 722176
-2743.3276 -1251.865 9439.8906 1314305
-2651.0469 -1235.0197 9312.8652 327936
-2643.2915 -1257.6725 9483.6826 262144
-2622.5032 -1274.9768 9614.1689 459008
-2579.3223 -1281.923 9666.5479 853760
-2538.7319 -1290.5026 9731.2432 1051136
-2479.7546 -1289.9178 9726.834 985344
-2434.8005 -1296.7738 9778.5332 1248513
-2416.4463 -1318.479 9942.2041 1445635
-2322.2646 -1298.8616 9794.2764 590592
-2265.8413 -1299.8969 9802.083 788480
-2175.9753 -1281.2947 9661.8096 525568
-2151.0715 -1300.9729 9810.1963 1512200
0 0 0 0
0 0 0 0
0 0 0 0
0 0 0 0
0 0 0 0
-966.55896 -698.15204 5264.5283 460032
-881.34717 -657.90662 4961.0513 196608
-878.25421 -678.29681 5114.8066 262144
-832.49078 -666.01208 5022.1719 1183489
-807.92633 -670.40399 5055.2896 986112
-773.5683 -666.69476 5027.3198 1248512
-758.04773 -679.57483 5124.4438 1248512
-723.74353 -675.9892 5097.4058 788736
-718.5603 -700.47839 5282.0703 394496
-680.87543 -694.07416 5233.7783 196864
-644.63147 -688.5957 5192.4673 131328
-612.38531 -687.05145 5180.8228 196864
-580.56543 -685.84723 5171.7417 262144
-553.91687 -690.95898 5210.2881 657409
-500.20776 -660.92145 4983.7852 2761751
-472.62869 -663.80066 5005.4961 1511170
-454.1651 -680.72955 5133.1514 985088
-413.2905 -664.08685 5007.6543 2564372
-391.47278 -677.8584 5111.501 1051653
-352.40152 -661.55817 4988.5864 196864
-323.08401 -662.25537 4993.8438 65792
-292.24985 -659.67017 4974.3496 65792
-258.89917 -650.18311 4902.811 65792
-229.30383 -648.9162 4893.2578 65792
-198.58946 -643.65436 4853.5796 1249540
0 0 0 0
0 0 0 0
0 0 0 0
0 0 0 0
0 0 0 0
-52.15049 -1318.4443 9941.9434 1445632
6.928205 -1313.304 9903.1816 1643268
66.16185 -1320.4545 9957.1006 2630161
129.34793 -1362.4849 10274.037 1643268
194.03549 -1388.2953 10468.666 1511681
260.91278 -1413.4318 10658.211 1379840
336.74048 -1467.7571 11067.86 3551007
444.71869 -1621.5508 12227.566 1643269
548.85748 -1720.0975 12970.673 1248512
643.02795 -1766.9725 13324.142 1380099
750.91534 -1837.1239 13853.131 327680
810.38892 -1786.6702 13472.675 196608
876.03644 -1757.6798 13254.069 327680
958.13678 -1763.7615 13299.929 327680
1032.5704 -1755.8784 13240.485 262144
1114.6824 -1761.2443 13280.947 262144
1180.8057 -1742.3083 13138.158 262144
1238.606 -1714.2035 12926.229 262144
1305.3668 -1701.0592 12827.112 262144
1380.8304 -1700.0807 12819.733 262144
1457.3202 -1700.4017 12822.154 131072
1569.3594 -1740.1082 13121.567 723200
1614.347 -1705.2279 12858.547 525056
1645.8259 -1659.8776 12516.575 722944
1751.9608 -1690.4872 12747.392 1576708
1838.9888 -1700.8862 12825.809 1577220
1887.5868 -1676.3284 12640.626 2695185
1937.2974 -1654.6014 12476.79 2628875
2006.6479 -1650.6323 12446.86 2628874
2092.7483 -1660.2339 12519.262 3221009
2161.7012 -1656.0393 12487.632 3221009
2248.4604 -1665.3114 12557.55 2957838
2308.3882 -1654.7537 12477.938 2760974
2395.2375 -1663.551 12544.275 3681564
2498.9238 -1683.1576 12692.123 1707521
2581.1729 -1687.5991 12725.615 1707520
2683.5557 -1704.5765 12853.635 1904898
2738.083 -1691.0579 12751.695 2233862
2807.0549 -1686.9484 12720.707 2826001
2849.7292 -1667.665 12575.298 4339497
2869.886 -1636.5272 12340.499 2234119
2986.6689 -1660.6686 12522.54 1641729
3168.9199 -1719.1522 12963.546 1576448
3340.4404 -1769.1758 13340.756 1445122
3383.054 -1750.1903 13197.593 1905926
3551.8499 -1795.8646 13542.008 1774595
3599.6094 -1779.6733 13419.915 1840391
3470.2292 -1678.5042 12657.031 1248513
3449.9836 -1633.2958 12316.131 722688
3369.0073 -1561.8126 11777.102 525568
3400.9707 -1544.5315 11646.789 657152
3404.8574 -1515.4431 11427.444 131072
3539.1846 -1544.4141 11645.904 65792
3626.8186 -1552.2885 11705.282 66048
3746.1284 -1573.1686 11862.732 66048
3781.0544 -1558.4951 11752.085 65792
4796.0132 -1940.9803 14636.275 855040
4571.645 -1817.2073 13702.946 196608
4789.1963 -1870.3536 14103.705 657152
4932.6621 -1893.2362 14276.254 1249027
4782.2163 -1804.4445 13606.706 394240
4513.0654 -1674.5614 12627.301 3552544
4452.8647 -1625.1907 12255.014 1513475
4614.626 -1657.1162 12495.753 2039558
0 0 0 0
0 0 0 0
0 0 0 0
6075.5137 -2049.7319 15456.335 3553038
6671.1724 -2217.1592 16718.848 3750164
6792.4248 -2224.3171 16772.822 1973504
6613.6362 -2134.4346 16095.05 2893827
6290.3442 -2001.1449 15089.957 3419402
5447.4072 -1708.6138 12884.079 4076308
5291.1216 -1636.5815 12340.908 3550482
5222.6138 -1593.2986 12014.526 3419675
5026.0923 -1512.6565 11406.431 2828059
4905.7852 -1456.7936 10985.188 1578506
4932.6279 -1445.5214 10900.188 1973266
4905.0913 -1418.8118 10698.78 2828837
5596.8081 -1598.1692 12051.253 196608
5610.519 -1581.835 11928.082 262144
5986.8877 -1666.8804 12569.381 788480
5991.0776 -1647.4838 12423.117 854272
5937.1641 -1612.776 12161.398 722944
5725.7446 -1536.6332 11587.231 591616
5877.8398 -1558.6985 11753.618 1710349
5889.7725 -1543.5133 11639.112 722944
6297.9873 -1631.3274 12301.288 591360
6554.6938 -1678.3317 12655.731 394240
6510.0664 -1647.9879 12426.919 394241
6783.2954 -1697.8861 12803.185 197120
6877.4873 -1702.3604 12836.923 328960
6811.6514 -1667.5599 12574.505 0
7033.4678 -1703.1709 12843.035 65792
6978.6089 -1671.7386 12606.016 131328
7119.061 -1687.2644 12723.091 196608
7314.2061 -1715.2902 12934.423 196608
6941.8511 -1611.03 12148.233 262144
6955.2544 -1597.5204 12046.36 262144
7326.6094 -1665.6642 12560.21 196608
7319.4697 -1647.2524 12421.373 327680
6904.293 -1538.2968 11599.775 393216
7318.5757 -1614.4744 12174.204 590592
7131.8555 -1557.8773 11747.426 590592
7044.0674 -1523.7792 11490.304 590592
7085.9165 -1518.11 11447.554 919552
7130.6875 -1513.1685 11410.292 458752
7156.9521 -1504.4302 11344.399 393216
7235.5381 -1506.7505 11361.896 393216
7311.8726 -1508.5635 11375.566 393216
7250.4507 -1482.1821 11176.634 393216
7280.2104 -1474.7505 11120.595 327680
7317.877 -1469.0399 11077.533 262144
7350.2422 -1462.3765 11027.286 262144
7359.3594 -1451.2466 10943.359 393216
7359.2036 -1438.499 10847.234 393216
7350.1001 -1424.239 10739.705 393216
7408.4741 -1423.1873 10731.774 393216
7367.9302 -1403.3134 10581.912 393216
7440.542 -1405.1456 10595.728 393216
7428.0889 -1391.0172 10489.19 393216
7445.9136 -1382.7469 10426.827 458752
7466.1987 -1375.0665 10368.911 458752
7573.1543 -1383.3431 10431.322 590336
7467.8071 -1353.0204 10202.669 853248
7360.9194 -1322.9092 9975.6113 590336
7200.7637 -1283.7827 9680.5713 458752
7292.5381 -1289.8357 9726.2148 458752
7283.6821 -1278.1349 9637.9834 458752
7225.936 -1258.1045 9486.9404 458752
7289.4126 -1259.3269 9496.1582 458752
7330.0649 -1256.6178 9475.7295 458752
7326.7632 -1246.472 9399.2246 393216
7330.4087 -1237.6531 9332.7227 853248
7368.9385 -1234.812 9311.2998 919296
7186.856 -1195.321 9013.5117 1314048
7390.6309 -1220.1156 9200.4795 655872
7688.5547 -1259.9747 9501.043 918528
7861.7803 -1278.9664 9644.2529 984320
7893.8618 -1274.8876 9613.4961 1050112
8103.1909 -1299.2878 9797.4902 918784
8220.5176 -1308.6932 9868.4131 1181696
8302.999 -1312.4575 9896.7979 721920
8914.4199 -1399.1898 10550.817 458752
9036.6055 -1408.4573 10620.7 458752
9093.3691 -1407.4702 10613.257 458752
9154.2861 -1407.1351 10610.73 458752
9392.7871 -1433.9149 10812.667 458752
9357.9453 -1418.8854 10699.335 458752
9556.8389 -1439.2593 10852.967 458752
9677.9775 -1447.7285 10916.831 524288
10087.963 -1499.0059 11303.496 655872
9814.8438 -1448.7712 10924.693 919040
9567.8311 -1403.0251 10579.738 919040
9619.2754 -1401.3567 10567.156 393216
9409.1172 -1361.8462 10269.222 852992
9100.8398 -1308.7355 9868.7314 1181696
9077.2061 -1296.9755 9780.0537 524288
9139.9668 -1297.6311 9784.9971 524288
9111.251 -1285.3732 9692.5645 655360
9022.5049 -1264.8538 9537.835 852736
8926.8496 -1243.6283 9377.7803 655360
8852.9883 -1225.6835 9242.4648 524288
8853.6611 -1218.2156 9186.1523 1050112
8870.4463 -1213.0426 9147.1445 786944
0 0 0 0
0 0 0 0
0 0 0 0
0 0 0 0
0 0 0 0
0 0 0 0
0 0 0 0
0 0 0 0
0 0 0 0
0 0 0 0
0 0 0 0
0 0 0 0
0 0 0 0
0 0 0 0
0 0 0 0
0 0 0 0
0 0 0 0
0 0 0 0
0 0 0 0
0 0 0 0
-873.52765 -136.97017 1081.3214 65536
-866.82941 -136.92758 1080.9851 196608
-864.15887 -137.52533 1085.704 196608
-857.53351 -137.49796 1085.4879 196608
-853.03076 -137.81308 1087.9757 196608
-848.44958 -138.12025 1090.4008 196608
-840.32477 -137.85085 1088.2739 262144
-835.9541 -138.19789 1091.0137 262144
-836.23425 -139.32524 1099.9136 196608
-832.92102 -139.86693 1104.1899 131072
-831.02032 -140.65631 1110.4219 1447440
-828.10516 -141.28526 1115.3872 1249804
-826.41522 -142.13509 1122.0961 986633
-823.80206 -142.83867 1127.6506 789254
-822.34259 -143.75546 1134.8884 1118220
-824.4552 -145.31706 1147.2164 0
-820.84808 -145.88814 1151.7249 394497
-817.42194 -146.50125 1156.5652 591877
-813.62927 -147.05853 1160.9646 789768
-809.84778 -147.62738 1165.4554 855561
-810.2605 -148.97719 1176.1117 1118733
-804.83624 -149.26799 1178.4073 1513491
-802.43353 -150.12917 1185.2061 1645080
0 0 0 0
0 0 0 0
0 0 0 0
0 0 0 0
-8410.5322 -1645.8053 12992.934 10265760
-7914.0273 -1563.0022 12339.239 10134687
-7401.6777 -1475.4911 11648.376 10332322
-7213.1743 -1451.4941 11458.93 11450547
-7096.6553 -1441.663 11381.317 11647926
-7335.9067 -1504.6119 11878.272 11253423
-7483.8081 -1549.8662 12235.536 10595494
-7711.7446 -1612.7465 12731.949 10003355
-7911.2183 -1670.8621 13190.747 10529699
-8505.5273 -1814.3661 14323.65 10135713
-8966.6943 -1932.0842 15252.984 9873055
-10009.292 -2178.7703 17200.465 7964803
-11012.317 -2421.8459 19119.445 1448987
0 0 0 0
-11156.007 -2505.1619 19777.189 1645852
-10686.92 -2425.387 19147.4 1514007
-10374.509 -2379.835 18787.785 2961710
-10080.441 -2337.5447 18453.922 3027759
-9851.5029 -2309.5928 18233.254 3488310
-9849.3867 -2334.7869 18432.15 4145984
-10018.504 -2401.5952 18959.574 3290419
-10175.524 -2466.9912 19475.848 3290674
-10298.29 -2525.4924 19937.689 3948345
0 0 0 0
0 0 0 0
0 0 0 0
-9555.1064 -2456.3257 19391.648 4606015
-9262.874 -2410.2825 19028.156 1118987
0 0 0 0
0 0 0 0
0 0 0 0
0 0 0 0
0 0 0 0
0 0 0 0
0 0 0 0
0 0 0 0
-7417.3486 -2168.3972 17118.574 6580081
-7189.02 -2130.8845 16822.428 8421770
-7361.6328 -2212.8325 17469.373 4473925
-7463.5688 -2275.5771 17964.715 3290418
-7226.9868 -2235.4338 17647.801 1908253
-7561.4424 -2373.3418 18736.525 3882043
-7638.8535 -2433.4878 19211.352 6973800
-7355.2881 -2378.7188 18778.975 12303545
-6973.0273 -2289.8513 18077.404 11119526
-7404.0728 -2469.4617 19495.352 8356477
0 0 0 0
0 0 0 0
-6725.8013 -2353.7761 18582.062 5987418
-6365.332 -2264.8254 17879.836 5592913
-6404.0835 -2317.3113 18294.189 4671552
-6421.2612 -2363.6694 18660.166 2697507
-6365.2383 -2384.2385 18822.551 854273
-5992.7847 -2284.8965 18038.287 1051649
-5382.6362 -2089.6565 16496.949 788480
-4635.7769 -1833.1101 14471.625 722688
-4335.5581 -1746.8146 13790.359 393472
-3220.1409 -1322.415 10439.905 722432
-3322.7786 -1391.3833 10984.381 459520
-2807.488 -1199.1777 9466.999 1183235
-2824.3232 -1231.0476 9718.5986 1315077
-2687.2593 -1195.7673 9440.0752 722944
-2629.7886 -1195.1545 9435.2373 196608
-2575.0608 -1195.7886 9440.2432 196608
-2568.3789 -1219.2594 9625.5352 1116929
-2479.9336 -1204.1006 9505.8623 1050624
-2448.5872 -1216.6049 9604.5791 1380099
-2405.2515 -1223.6073 9659.8594 1380099
-2368.6929 -1234.4841 9745.7275 591104
-2332.8979 -1246.3143 9839.123 590592
-2273.9197 -1246.0493 9837.0303 985857
-2202.6611 -1238.8633 9780.2998 788480
-2125.8669 -1228.0898 9695.248 1577994
-2095.8853 -1244.5125 9824.8975 3486244
-2252.345 -1375.7573 10861.02 1315334
-2097.9185 -1319.2518 10414.934 2039064
0 0 0 0
0 0 0 0
0 0 0 0
-934.76569 -666.50085 5261.7412 196608
-857.20557 -632.36115 4992.2227 262144
-853.43762 -652.1615 5148.5381 196608
-819.93921 -649.87103 5130.4561 1183488
-777.93457 -640.40118 5055.6953 1051904
-764.16785 -654.3501 5165.8159 986112
-728.23425 -649.69104 5129.0347 854528
-707.08167 -658.38782 5197.6924 657408
-678.677 -660.81824 5216.8794 196864
-646.98779 -660.13019 5211.4473 196864
-614.67944 -658.70941 5200.231 196864
-583.08813 -657.94727 5194.2144 196608
-551.66705 -657.30267 5189.1255 196608
-497.99261 -628.49664 4961.7144 2235149
-477.06625 -639.99554 5052.4932 1511683
-450.2869 -644.66022 5089.3188 1774855
-436.49792 -669.93457 5288.8486 2432786
-398.62466 -659.29877 5204.8838 393984
-352.60898 -632.27252 4991.5229 196608
-323.75815 -633.88629 5004.2632 65792
-293.71017 -633.24567 4999.2056 65792
-260.9519 -625.95941 4941.6836 65792
-229.73782 -620.99847 4902.519 196864
-196.25046 -607.55823 4796.4141 1052161
0 0 0 0
0 0 0 0
0 0 0 0
0 0 0 0
-113.42864 -1283.9279 10136.065 1511682
-53.916462 -1301.9836 10278.607 1182720
7.0775433 -1281.4681 10116.646 1511681
67.760231 -1291.7288 10197.65 2366990
127.61346 -1283.9536 10136.269 1116928
191.30966 -1307.4296 10321.602 1248512
258.21381 -1336.1022 10547.959 1840389
362.60553 -1509.6421 11917.983 1775117
457.70642 -1594.0902 12584.665 1050880
562.80273 -1684.7303 13300.229 1314049
661.18799 -1735.424 13700.436 1050880
746.7088 -1744.9359 13775.527 525056
823.41754 -1734.0105 13689.276 262400
887.95068 -1701.7163 13434.328 262144
968.82477 -1703.4849 13448.289 196864
1062.6378 -1725.9999 13626.035 327936
1142.0424 -1723.5796 13606.929 393984
1208.808 -1703.6667 13449.725 262144
1240.0632 -1639.2822 12941.438 262144
1298.4806 -1616.2294 12759.444 262144
1364.8304 -1605.0498 12671.188 262144
1435.9801 -1600.3894 12634.395 131072
1528.2925 -1618.6053 12778.202 1117956
1567.4365 -1581.4526 12484.896 1512200
1608.239 -1549.257 12230.726 986112
1683.9279 -1551.9999 12252.38 2630164
1784.2036 -1576.2362 12443.716 1840390
1820.2313 -1544.0432 12189.565 2300426
1878.5406 -1532.4927 12098.379 2892562
1940.1179 -1524.3616 12034.188 2563338
2052.1428 -1555.0363 12276.351 3155220
2160.4038 -1580.8496 12480.137 3418391
2235.575 -1581.5396 12485.584 3023633
2314.1196 -1584.4954 12508.918 2694667
2413.7222 -1601.2366 12641.083 2431496
2436.5454 -1567.5701 12375.301 2562827
2542.2832 -1587.6576 12533.883 2562827
2611.8735 -1584.6697 12510.294 2562570
2706.7009 -1596.7349 12605.544 2497034
2797.5356 -1605.8582 12677.568 2957585
2910.8721 -1627.0806 12845.109 1774089
2908.9861 -1584.4589 12508.629 1839620
3051.4939 -1620.6494 12794.339 1905411
3175.2131 -1645.3439 12989.291 1905668
3263.7698 -1651.0775 13034.556 1971716
3303.6436 -1632.4886 12887.805 2103305
3463.4099 -1672.6443 13204.816 2235146
3466.0435 -1636.8151 12921.96 1643011
3471.4841 -1603.8364 12661.608 722688
3368.9663 -1523.4393 12026.906 854529
3353.0149 -1484.7153 11721.197 393984
3365.855 -1460.0573 11526.532 262400
3418.0063 -1453.0959 11471.575 65792
3493.9668 -1456.3307 11497.112 66048
3567.9863 -1458.6478 11515.405 66048
3646.7566 -1462.7834 11548.055 66048
3784.0925 -1489.8239 11761.526 66048
3867.1621 -1494.9058 11801.646 196864
4015.2512 -1524.4929 12035.224 328192
4410.6411 -1645.2941 12988.897 1315076
4595.6211 -1684.7998 13300.779 1577731
4637.9648 -1671.5618 13196.27 1117441
4409.5625 -1562.8082 12337.707 3420958
4050.1272 -1411.9332 11146.613 1249536
4694.0718 -1610.0779 12710.881 2697484
4782.1738 -1614.309 12744.284 2697739
4912.4272 -1632.4155 12887.227 1841921
5099.7344 -1668.6338 13173.154 3487250
5856.2876 -1887.1967 14898.616 3421969
6027.3525 -1913.3835 15105.351 3487760
6043.2529 -1890.2675 14922.859 3092747
5853.4375 -1804.4059 14245.018 3026182
5700.2563 -1732.125 13674.391 2695936
5409.7803 -1620.744 12795.085 3943437
5205.7817 -1538.001 12141.864 3088650
5135.9141 -1496.6068 11815.075 3288089
5044.855 -1450.2379 11449.012 3025950
4914.6968 -1394.0134 11005.144 1446920
4982.2896 -1394.6196 11009.93 1907473
5086.8232 -1405.4165 11095.166 2039320
5661.0903 -1544.0563 12189.668 262144
5677.9688 -1529.0857 12071.482 196608
5795.2495 -1541.1898 12167.039 327936
5878.7686 -1544.1277 12190.232 525312
5917.7871 -1535.4476 12121.707 591104
5955.9985 -1526.7697 12053.198 525312
6033.0073 -1528.125 12063.898 327936
6128.5767 -1534.0947 12111.026 459520
6247.2773 -1545.6488 12202.24 262144
6351.083 -1553.2948 12262.603 131328
6416.9199 -1551.5862 12249.114 196864
6505.2661 -1555.2979 12278.416 262144
6459.834 -1527.2976 12057.366 262144
6510.5513 -1522.3955 12018.666 262144
6515.7607 -1507.0737 11897.707 262144
6533.1006 -1494.8567 11801.259 196608
6580.3174 -1489.6627 11760.255 196608
6650.5986 -1489.7448 11760.901 262144
6691.4526 -1483.3018 11710.037 393216
6742.7988 -1479.2932 11678.392 327680
6759.1792 -1467.7734 11587.448 327680
6746.3228 -1450.2014 11448.725 327680
6799.0166 -1446.9304 11422.901 393216
6839.3438 -1441.1184 11377.018 656384
6992.2446 -1458.9083 11517.462 656384
7022.2334 -1450.9568 11454.688 656640
7083.9443 -1449.6495 11444.367 590592
7111.4805 -1441.4402 11379.558 393216
7148.4961 -1435.2887 11330.995 393216
7184.1494 -1428.9813 11281.2 393216
7227.9434 -1424.3948 11244.992 393216
7200.519 -1405.9861 11099.663 393216
7183.3291 -1389.8921 10972.607 393216
7238.7583 -1388.0122 10957.767 393216
7319.2339 -1390.9255 10980.767 393216
7382.6006 -1390.5647 10977.918 393216
7424.6069 -1386.2224 10943.637 393216
7443.0103 -1377.5867 10875.462 458752
7503.3765 -1376.7996 10869.248 458752
7515.3672 -1367.2252 10793.663 458752
7594.0483 -1369.843 10814.329 458752
7540.0142 -1348.6781 10647.24 458752
7525.7642 -1334.9224 10538.646 393216
7502.2173 -1319.7585 10418.933 458752
7543.7534 -1316.1982 10390.826 655872
7535.4897 -1304.0776 10295.139 655872
7508.1533 -1288.8781 10175.146 590080
7467.0513 -1271.5774 10038.563 458752
7469.0049 -1261.825 9961.5723 458752
7449.1982 -1248.5787 9856.999 458752
7439.8472 -1237.2781 9767.7852 458752
7384.1167 -1218.499 9619.5322 458752
7412.043 -1213.7072 9581.7031 458752
7359.0127 -1195.8333 9440.5957 458752
7318.5957 -1180.264 9317.6826 1116416
7401.0986 -1184.603 9351.9375 919296
7439.6914 -1181.9014 9330.6094 787456
7527.0591 -1186.931 9370.3164 786944
7699.2334 -1205.1616 9514.2393 984320
7909.2319 -1229.0038 9702.4629 984320
7923.5923 -1222.3207 9649.7031 1050112
8129.3706 -1245.0505 9829.1445 1115904
8170.8408 -1242.4707 9808.7783 852736
8320.4043 -1256.2479 9917.5439 458752
8841.749 -1325.5692 10464.806 655872
9092.8887 -1353.6953 10686.85 590336
9082.9766 -1342.837 10601.128 458752
9176.0938 -1347.2551 10636.007 458752
9356.1943 -1364.2966 10770.542 458752
9517.9756 -1378.4534 10882.304 458752
9769.7637 -1405.3661 11094.769 458752
9682.7363 -1383.5068 10922.199 458752
9783.7158 -1388.6229 10962.588 458752
9765.1836 -1376.8212 10869.418 458752
9724.5977 -1362.0853 10753.085 458752
9875.252 -1374.1533 10848.356 458752
9668.4316 -1336.6444 10552.24 524288
9420.4014 -1293.9587 10215.255 458752
9514.8887 -1298.5658 10251.626 458752
9639.7139 -1307.2281 10320.012 458752
9627.418 -1297.3038 10241.663 524288
9327.1553 -1248.9445 9859.8857 721152
9334.3174 -1242.0973 9805.8311 590080
8785.7959 -1161.8506 9172.3164 524288
9006.0479 -1183.6306 9344.2617 852736
9260.0527 -1209.5526 9548.9043 721152
0 0 0 0
0 0 0 0
0 0 0 0
0 0 0 0
0 0 0 0
0 0 0 0
0 0 0 0
0 0 0 0
0 0 0 0
0 0 0 0
0 0 0 0
0 0 0 0
0 0 0 0
0 0 0 0
0 0 0 0
0 0 0 0
0 0 0 0
0 0 0 0
0 0 0 0
0 0 0 0
-879.91138 -131.49562 1089.2238 65536
-874.03748 -131.5862 1089.974 0
-868.27612 -131.69519 1090.8768 196608
-862.0741 -131.73849 1091.2355 196608
-858.06714 -132.12044 1094.3993 196608
-853.40601 -132.40671 1096.7706 196608
-848.12695 -132.6008 1098.3783 196608
-841.73523 -132.62257 1098.5587 196608
-839.04553 -133.23256 1103.6113 196608
-835.85608 -133.77214 1108.0809 196608
-831.32996 -134.10469 1110.8356 131072
-830.70404 -135.07677 1118.8876 1710098
-829.51483 -135.97218 1126.3047 1184012
-827.10669 -136.68077 1132.1741 789255
-825.25342 -137.49341 1138.9055 723462
-825.08563 -138.60265 1148.0938 986634
-825.89917 -139.89662 1158.812 65792
-821.00201 -140.23688 1161.6306 591876
-817.05334 -140.74632 1165.8505 592389
-815.0191 -141.59706 1172.8975 723975
-812.13324 -142.31326 1178.83 1052940
-809.03845 -143.005 1184.5599 1118733
-805.73798 -143.67221 1190.0867 1315858
-806.25269 -145.03758 1201.3965 1908252
0 0 0 0
0 0 0 0
0 0 0 0
-8351.3516 -1557.5238 12901.509 11977146
-7889.7476 -1485.0742 12301.383 12240316
-7524.2402 -1429.5261 11841.259 12043195
-7310.0679 -1401.9524 11612.856 12306110
-7169.1426 -1388.0343 11497.568 12306110
-7157.3599 -1399.0929 11589.17 12174524
-7218.8374 -1424.8259 11802.326 12174781
-7424.6211 -1479.8264 12257.914 11977401
-7607.8579 -1531.3788 12684.94 12174781
-7756.8228 -1576.9958 13062.802 11977915
-8205.4863 -1685.0818 13958.115 11846072
0 0 0 0
-11009.617 -2307.613 19114.758 8950153
-11012.095 -2332.2048 19318.459 9870998
-10424.668 -2231.0652 18480.684 10265756
-10481.914 -2267.2114 18780.098 10199963
-10622.46 -2322.3484 19236.814 10397342
-8275.877 -1829.0155 15150.368 8752261
-8604.0352 -1922.4634 15924.43 3291189
-9992.2402 -2257.4797 18699.486 4409669
-9903.8799 -2262.6912 18742.654 8225663
-9936.2266 -2295.9121 19017.834 4409156
0 0 0 0
0 0 0 0
0 0 0 0
0 0 0 0
0 0 0 0
0 0 0 0
0 0 0 0
-9108.8643 -2315.5215 19180.266 394753
-9317.9727 -2398.7061 19869.312 2828317
0 0 0 0
0 0 0 0
0 0 0 0
-8740.4561 -2370.2278 19633.416 10525598
-7554.5015 -2076.3499 17199.125 9012620
-6677.9443 -1860.6124 15412.097 8946834
-7799.1807 -2203.2419 18250.215 5591646
-6807.0015 -1950.0835 16153.216 3354935
-6765.498 -1965.9285 16284.467 2170663
-6786.0317 -2000.5223 16571.018 4276294
-6518.1953 -1949.8713 16151.459 4473928
-6428.3184 -1951.7371 16166.913 5987426
-6160.3906 -1898.7799 15728.252 6579559
-5978.4131 -1871.0907 15498.891 9474962
0 0 0 0
-6930.3994 -2238.0254 18538.338 7698807
-6754.7358 -2216.5476 18360.43 8751752
-5698.7407 -1900.7413 15744.497 10529962
-6481.3545 -2197.8721 18205.734 9280408
-5767.1851 -1988.9061 16474.797 7174262
-6017.4146 -2111.0537 17486.588 4015424
-5684.2383 -2029.2253 16808.775 4211257
-6063.8916 -2203.4961 18252.32 197376
-5179.6025 -1916.4576 15874.682 131072
-4651.0864 -1752.8444 14519.417 196864
-4303.6948 -1652.5942 13689.011 262144
-3554.3877 -1391.1715 11523.555 262144
-3181.2659 -1269.6042 10516.571 262144
-3140.9775 -1278.6553 10591.544 262144
-2813.8442 -1168.9166 9682.541 655872
-2708.6296 -1148.7083 9515.1475 327680
-2629.7317 -1139.0365 9435.0332 590848
-2564.946 -1135.189 9403.1621 393728
-2532.5598 -1145.8287 9491.2959 393216
-2457.281 -1137.1049 9419.0332 393472
-2393.9849 -1133.6484 9390.4023 459008
-2342.7446 -1135.8722 9408.8223 853760
-2354.0225 -1169.2579 9685.3682 656896
-2329.8918 -1186.2893 9826.4453 1117441
-2286.8923 -1194.3423 9893.1504 1577221
-2227.2703 -1193.9102 9889.5703 722176
-2066.821 -1137.9415 9425.9629 787968
-2107.6123 -1192.7391 9879.8711 2301714
-2324.5078 -1353.1965 11208.995 1445893
-2112.2573 -1265.9277 10486.117 985601
0 0 0 0
0 0 0 0
0 0 0 0
0 0 0 0
-865.66577 -608.63013 5041.4937 196608
-832.0675 -605.9892 5019.6182 196864
-825.89331 -623.86761 5167.7114 591616
-781.06238 -612.79858 5076.0229 788992
-755.1546 -616.28308 5104.8857 1183488
-735.85065 -625.67444 5182.6777 986112
-707.60071 -627.94769 5201.5078 854784
-676.86298 -628.12 5202.9351 196864
-649.34967 -631.4444 5230.4722 196864
-614.64294 -627.75629 5199.9224 196608
-583.93671 -627.9798 5201.7739 196864
-552.01819 -626.85156 5192.4282 196608
-510.31885 -613.82513 5084.5259 1973006
-511.91748 -654.51746 5421.5942 1249027
-466.31204 -636.26953 5270.4409 1841163
-419.31851 -613.36243 5080.6929 1644041
-394.73599 -622.22552 5154.1094 196608
-354.83014 -606.39337 5022.9658 65792
-324.25089 -605.05493 5011.8794 65792
-295.19324 -606.57239 5024.4487 65792
-262.29105 -599.64215 4967.0435 65792
-230.16969 -592.96515 4911.7354 131072
0 0 0 0
0 0 0 0
0 0 0 0
0 0 0 0
0 0 0 0
-118.7746 -1281.3403 10613.785 1314818
-54.976383 -1265.2703 10480.671 1379842
7.5311646 -1299.6019 10765.053 1709062
68.749451 -1249.0754 10346.524 1577476
124.65711 -1195.344 9901.4482 1182720
191.12419 -1244.8585 10311.594 1314305
256.26712 -1263.7932 10468.437 1511683
326.15329 -1294.149 10719.885 985344
436.57016 -1449.1151 12003.522 1248513
527.09808 -1503.7947 12456.451 1183232
669.56323 -1674.9242 13873.978 2038543
791.74701 -1763.3462 14606.407 1380869
876.43628 -1759.0367 14570.71 920064
944.77191 -1725.6323 14294.01 920064
1083.4814 -1815.6724 15039.842 920064
1093.9403 -1693.4486 14027.421 985857
1178.1129 -1694.5681 14036.694 1380614
1203.8066 -1616.9889 13394.078 262400
1226.0802 -1544.7271 12795.509 262144
1289.675 -1529.9274 12672.917 262144
1347.1724 -1509.9272 12507.249 262144
1416.1683 -1504.233 12460.082 262144
1460.1227 -1473.8282 12208.229 525312
1478.5288 -1421.7361 11776.731 2828057
1559.2462 -1431.5634 11858.134 854528
1640.0211 -1440.5906 11932.91 2827543
1731.4381 -1457.8298 12075.709 2366990
1771.8411 -1432.4537 11865.51 2432269
1832.8855 -1425.0697 11804.346 2235145
1861.6702 -1394.0732 11547.591 2300425
1964.2457 -1418.5731 11750.531 2168581
2015.7607 -1405.7806 11644.567 3089426
2027.465 -1366.996 11323.3 2431496
2250.1365 -1468.375 12163.059 3023632
2336.9011 -1477.5138 12238.758 3023633
2407.2517 -1476.036 12226.517 3023631
2455.6387 -1461.5724 12106.71 2497288
2571.4053 -1486.8943 12316.46 2760459
2661.1052 -1496.1583 12393.197 2694668
2734.2073 -1495.8429 12390.584 2497547
2865.7676 -1526.6866 12646.073 2365961
2923.6108 -1517.6857 12571.516 1708289
2996.9209 -1516.9624 12565.524 2037253
3158.9929 -1560.1107 12922.937 2103559
3241.1963 -1562.7021 12944.403 1840387
3291.5864 -1550.191 12840.769 2103559
3436.2029 -1581.6177 13101.086 2169352
3448.511 -1552.1019 12856.597 1643009
3433.1904 -1511.7007 12521.939 1446403
3515.5439 -1515.1094 12550.175 1249027
3311.3813 -1397.4617 11575.658 788992
3314.8965 -1370.4635 11352.023 65792
3361.9382 -1362.1788 11283.398 66048
3427.6924 -1361.6519 11279.033 66048
3498.5034 -1363.1151 11291.154 66048
3547.5894 -1356.2183 11234.025 66048
3652.8584 -1370.6577 11353.632 768
3721.0461 -1370.9116 11355.735 66048
3811.542 -1379.2289 11424.63 197632
4287.8091 -1524.4045 12627.17 1512705
4310.6016 -1506.1388 12475.868 2367757
4043.5007 -1388.9144 11504.858 1380097
4279.042 -1445.3722 11972.518 2103814
4099.5933 -1362.1008 11282.752 2367240
4503.4492 -1472.1951 12194.701 1249280
4682.876 -1506.5967 12479.661 854528
4804.1694 -1521.5137 12603.224 2236675
5014.5771 -1563.7622 12953.185 3092241
5616.9658 -1725.1207 14289.771 5856316
5675.3745 -1717.0895 14223.246 2633228
5685.1709 -1694.8022 14038.633 3685656
5588.8721 -1641.9894 13601.166 4474399
5520.8384 -1598.8688 13243.983 2960401
5266.5127 -1503.7681 12456.231 3747857
5185.4072 -1460.0795 12094.343 2235658
4944.2617 -1373.1385 11374.182 3091224
5013.8228 -1373.6702 11378.586 3026208
5062.1694 -1368.4529 11335.368 1644299
5025.667 -1340.7367 11105.786 1644044
5307.4678 -1397.5546 11576.428 2235924
5728.7031 -1489.1633 12335.255 327680
5691.7397 -1460.854 12100.759 393216
5794.3916 -1468.6382 12165.238 393216
5859.1426 -1466.7424 12149.535 656128
5929.7202 -1466.3339 12146.15 327936
5985.6431 -1462.3549 12113.19 393984
6063.4756 -1463.7593 12124.824 262144
6092.981 -1453.6016 12040.685 525312
6154.9849 -1451.3428 12021.975 262144
6243.4971 -1455.3147 12054.875 262144
6323.0371 -1457.129 12069.903 262144
6379.543 -1453.6539 12041.118 262144
6381.5093 -1437.9664 11911.174 262144
6437.8921 -1434.7504 11884.534 262144
6461.7246 -1424.429 11799.037 262144
6490.3647 -1415.3774 11724.062 262144
6577.2363 -1419.0822 11754.748 262144
6596.3154 -1408.2361 11664.907 262144
6643.4028 -1403.5331 11625.95 262144
6660.1704 -1392.587 11535.28 262144
6659.5376 -1378.2631 11416.63 262144
6675.1636 -1367.5592 11327.966 393216
6729.0264 -1364.8243 11305.312 327680
6747.957 -1355.1287 11225 590592
6969.9307 -1385.9988 11480.707 853760
6914.6484 -1361.6714 11279.195 589824
7034.3511 -1371.9392 11364.247 458752
7093.7803 -1370.3683 11351.234 458752
7143.8174 -1367.0295 11323.579 458752
7124.2539 -1350.5591 11187.147 393216
7195.8887 -1351.5219 11195.123 393216
7197.2891 -1339.3964 11094.684 393216
7208.8765 -1329.3701 11011.632 393216
7238.7974 -1322.8744 10957.826 393216
7267.6499 -1316.301 10903.377 393216
7337.2095 -1317.1515 10910.422 393216
7559.3691 -1345.1414 11142.271 393216
7598.041 -1340.2781 11101.987 458752
7702.7573 -1347.0483 11158.067 458752
7729.4922 -1340.1821 11101.192 458752
7716.6118 -1326.6216 10988.865 458752
7627.3467 -1300.2671 10770.562 458752
7531.4629 -1273.2324 10546.625 458752
7600.1284 -1274.2327 10554.91 458752
7617.9053 -1266.7542 10492.963 590080
7600.9756 -1253.673 10384.606 590080
7606.0854 -1244.4083 10307.864 458752
7622.7119 -1237.1608 10247.831 458752
7617.833 -1226.5656 10160.067 458752
7605.7617 -1214.9883 10064.168 458752
7589.4502 -1202.9197 9964.1992 458752
7628.916 -1199.8099 9938.4404 458752
7658.9644 -1195.2784 9900.9043 393216
7647.6992 -1184.4176 9810.9404 721920
7530.1177 -1157.3804 9586.9824 984832
7579.7427 -1156.2562 9577.6699 393216
7587.5063 -1148.8104 9515.9941 984832
7660.8271 -1151.3274 9536.8428 1115904
7864.2285 -1173.2131 9718.1299 1050112
8051.3555 -1192.3696 9876.8096 984576
8128.1333 -1195.0247 9898.8027 984320
8158.4141 -1190.8546 9864.2607 524288
8327.1426 -1206.8086 9996.4131 458752
8604.3965 -1238.1531 10256.05 458752
8924.7285 -1275.2115 10563.019 524288
9069.6738 -1286.8671 10659.565 524288
9374.3955 -1320.8739 10941.255 590080
9677.5996 -1354.1995 11217.303 458752
9804.9561 -1362.6309 11287.143 458752
9816.9297 -1355.0212 11224.11 458752
9980.002 -1368.2299 11333.521 458752
10253.497 -1396.2983 11566.021 458752
10321.346 -1396.1748 11564.999 458752
10445.711 -1403.6475 11626.897 458752
10041.406 -1340.4486 11103.399 458752
10041.876 -1331.7566 11031.4 458752
9898.5645 -1304.2327 10803.41 458752
9908.7383 -1297.1565 10744.796 458752
9892.0273 -1286.674 10657.966 458752
9779.4102 -1263.9298 10469.567 524288
9011.5986 -1157.3286 9586.5537 524288
9394.4678 -1198.9169 9931.043 524288
9752.9697 -1236.8953 10245.631 524288
10569.049 -1332.073 11034.021 721152
9747.5439 -1220.9564 10113.604 655360
10222.821 -1272.6385 10541.705 721152
0 0 0 0
0 0 0 0
0 0 0 0
0 0 0 0
0 0 0 0
0 0 0 0
0 0 0 0
0 0 0 0
0 0 0 0
0 0 0 0
0 0 0 0
0 0 0 0
0 0 0 0
0 0 0 0
0 0 0 0
0 0 0 0
0 0 0 0
0 0 0 0
0 0 0 0
-885.44556 -124.8873 1088.0669 0
-884.71423 -125.70246 1095.1689 65536
-878.12354 -125.69105 1095.0695 0
-871.77313 -125.71411 1095.2704 196608
-856.69647 -124.46967 1084.4283 196608
-860.34088 -125.94698 1097.2992 196608
-855.29333 -126.16471 1099.1962 196608
-850.26691 -126.38892 1101.1497 196608
-846.03302 -126.73534 1104.1677 262144
-842.54938 -127.20045 1108.2198 262144
-836.4505 -127.27496 1108.869 262144
-831.38928 -127.50977 1110.9149 196608
-830.05273 -128.32419 1118.0104 262656
-834.52606 -130.05719 1133.109 1512720
-830.19592 -130.43524 1136.4027 1118219
-829.32245 -131.36707 1144.5211 723461
-826.55768 -132.01224 1150.1421 657668
-827.3714 -133.24446 1160.8777 986633
-826.83081 -134.27747 1169.8777 131072
-822.05914 -134.63507 1172.9932 395010
-819.54565 -135.37177 1179.4116 723975
-816.36853 -136.01062 1184.9777 723462
-813.00214 -136.6288 1190.3634 789255
-808.50311 -137.06583 1194.1709 986890
-805.62799 -137.78833 1200.4656 1447698
-804.62793 -138.84729 1209.6918 2566439
0 0 0 0
0 0 0 0
0 0 0 0
-7916.3149 -1416.6957 12342.806 10396576
-7624.543 -1377.2466 11999.109 9871512
-7346.0679 -1339.4771 11670.046 9937308
-7164.8242 -1318.8854 11490.644 10990509
-7255.5894 -1348.45 11748.222 11648436
-7224.0679 -1355.6415 11810.877 12174524
-7336.4873 -1390.2506 12112.406 12108729
-7546.2197 -1444.1696 12582.168 12240315
-7702.8838 -1488.9102 12971.966 12306621
-8143.0713 -1589.9131 13851.942 11977656
-8583.3984 -1693.0072 14750.139 11188141
-10538.172 -2100.0254 18296.24 8884874
-9222.5146 -1857.0116 16179.009 7371122
-8911.2734 -1813.2523 15797.762 7304815
-8783.1514 -1806.2188 15736.482 7041387
-8930.3125 -1856.2539 16172.408 4146241
-9681.9736 -2034.3971 17724.461 2962480
-10114.848 -2148.7393 18720.654 2172451
-10221.115 -2195.4714 19127.805 3093552
-10228.011 -2221.6699 19356.057 3883066
-9842.126 -2162.1768 18837.727 3291186
-9649.625 -2144.2864 18681.859 3356721
-9592.459 -2156.4033 18787.426 2369309
-9413.0029 -2140.9905 18653.145 3355947
-9470.8799 -2179.8352 18991.574 2697759
-9660.4014 -2250.2822 19605.338 2105876
-9615.9268 -2267.2781 19753.41 2697243
-9347.9365 -2231.3408 19440.312 789506
-8952.5361 -2163.7107 18851.092 789762
-8894.5566 -2176.9497 18966.436 788994
-8761.4014 -2171.8933 18922.381 328448
-8803.3916 -2210.6873 19260.369 459777
-8679.8662 -2208.3921 19240.375 591106
0 0 0 0
-7256.6895 -1896.2771 16521.105 6447456
-7208.9272 -1909.6432 16637.557 13750996
-7674.5947 -2061.2805 17958.682 13356238
-7076.2734 -1927.3939 16792.207 13422031
-6820.9175 -1884.4269 16417.861 13422542
-6743.2388 -1890.0118 16466.521 13488078
-6738.4038 -1916.4792 16697.115 13488591
-6906.1826 -1993.5656 17368.721 13094603
-6550.146 -1919.4901 16723.346 12568259
-6449.271 -1919.0576 16719.578 11976121
-6840.7148 -2067.4004 18011.998 10331038
-6946.521 -2132.7627 18581.461 12700100
-6832.3994 -2131.6233 18571.533 10529188
-6642.2695 -2106.343 18351.281 9015692
-6419.5122 -2069.699 18032.023 10330524
-5442.5503 -1784.5195 15547.43 5921622
-6095.8809 -2033.2666 17714.611 1118733
-6103.7549 -2071.6841 18049.32 5723726
-6117.5972 -2113.5388 18413.975 262912
-5350.5083 -1882.2024 16398.482 131328
-4768.8521 -1708.7217 14887.051 196864
-3872.6223 -1413.834 12317.873 262144
-3550.5322 -1321.2283 11511.056 262144
-3285.4404 -1246.6096 10860.949 262144
-3041.217 -1177.076 10255.146 262144
-2784.6096 -1099.8064 9581.9424 327680
-2741.052 -1105.2126 9629.0439 327680
-2670.584 -1099.7677 9581.6045 327680
-2542.1648 -1069.7002 9319.6455 327680
-2470.5237 -1062.7166 9258.8018 262144
-2483.9658 -1092.848 9521.3184 590848
-2403.6318 -1082.1648 9428.2422 524544
-2347.1716 -1081.9767 9426.6025 787712
-2355.2571 -1112.2606 9690.4482 985344
-2322.061 -1124.0793 9793.418 1116672
-2279.0947 -1131.6548 9859.418 1314307
-2195.1562 -1118.7489 9746.9766 1314306
-2126.7524 -1113.275 9699.2861 590848
-2065.2468 -1111.2075 9681.2734 1972750
-2254.0005 -1247.5341 10869.003 1117443
-2007.0151 -1143.6187 9963.6523 1183233
-1920.5624 -1127.6381 9824.4229 1051650
0 0 0 0
0 0 0 0
0 0 0 0
0 0 0 0
-849.33783 -588.10553 5123.8052 196864
-816.19177 -586.17755 5107.0078 196864
-809.02441 -603.47894 5257.7441 920064
-759.06689 -588.9696 5131.333 854528
-726.64838 -587.42377 5117.8652 788736
-704.01562 -593.99939 5175.1543 526080
-670.74823 -591.79309 5155.9321 131328
-651.42712 -602.26935 5247.2056 131328
-617.1416 -599.26855 5221.0615 131328
-584.63568 -597.76941 5208 196864
-554.48669 -598.64716 5215.6479 131328
-520.73853 -595.51312 5188.3423 985860
-516.36786 -627.69543 5468.7275 1051650
-463.71866 -601.57196 5241.1299 1643785
-433.43839 -602.79413 5251.7773 1446662
-400.97342 -600.93182 5235.5522 196864
-357.11304 -580.24054 5055.2822 65792
-324.98672 -576.56427 5023.2529 65792
-295.56091 -577.41986 5030.707 65792
-263.5972 -572.9516 4991.7778 65792
-231.10281 -566.04993 4931.6479 131072
0 0 0 0
0 0 0 0
0 0 0 0
0 0 0 0
-194.46542 -1302.5768 11348.558 1446660
-121.2521 -1243.6512 10835.175 1643782
-58.071449 -1270.6862 11070.713 1380097
7.5384984 -1236.8058 10775.535 1643269
67.658684 -1168.7228 10182.369 1906441
125.59217 -1145.0037 9975.7188 1314305
192.72508 -1193.4689 10397.967 1182720
260.28259 -1220.3848 10632.468 1182720
329.45364 -1242.869 10828.359 1116928
404.96106 -1277.9993 11134.428 1577478
520.93066 -1413.0109 12310.702 1445891
628.27637 -1494.2485 13018.476 2367250
779.02679 -1649.575 14371.74 2301457
878.49054 -1676.3323 14604.861 920322
974.05554 -1691.5059 14737.059 1775371
1036.4078 -1651.2588 14386.411 1775370
1075.7612 -1583.2986 13794.314 1643784
1123.3195 -1536.1862 13383.854 1051648
1198.3859 -1530.4369 13333.764 393728
1214.0751 -1454.2761 12670.222 196608
1284.3872 -1448.6216 12620.957 262400
1338.8569 -1426.7094 12430.048 196608
1404.6361 -1418.5105 12358.616 722944
1419.5966 -1362.3569 11869.386 788480
1403.4938 -1283.1227 11179.065 2301715
1495.5948 -1305.5042 11374.062 1051905
1582.8846 -1321.9314 11517.182 1445633
1625.9714 -1301.6111 11340.144 2235404
1752.7809 -1347.2616 11737.869 1379840
1845.5306 -1364.2391 11885.784 2103559
1882.3177 -1340.1218 11675.664 2892562
1951.6254 -1340.0494 11675.034 2168838
2024.6672 -1342.4581 11696.019 2628875
2134.0906 -1368.0286 11918.799 3615769
2274.9087 -1411.4341 12296.965 2563082
2393.0776 -1438.5219 12532.964 3549975
2374.2029 -1384.0818 12058.66 2036741
2387.1404 -1350.835 11769.002 2694667
2468.3875 -1357.0359 11823.026 2497289
2648.3079 -1415.6388 12333.598 2036738
2757.8962 -1434.5013 12497.935 2365962
2863.1567 -1450.1819 12634.551 2958355
2944.2964 -1453.1562 12660.464 1839874
3036.925 -1461.5111 12733.255 1905669
3044.0698 -1429.3213 12452.805 1445377
3259.6897 -1494.2236 13018.26 2366731
3353.2148 -1501.4465 13081.188 722688
3410.8206 -1492.6227 13004.312 1708802
3381.281 -1446.8994 12605.952 1116672
3246.8872 -1359.2632 11842.432 985856
3289.7048 -1347.9596 11743.95 394240
3205.2024 -1286.0403 11204.485 131328
3259.2507 -1281.1022 11161.462 65792
3319.333 -1278.6854 11140.406 512
3372.3477 -1273.6938 11096.918 768
3431.9717 -1271.3422 11076.43 768
3491.26 -1268.9572 11055.649 768
3549.0396 -1266.1219 11030.948 768
3628.6653 -1271.0417 11073.812 66048
3726.792 -1282.1514 11170.603 131584
4051.7537 -1369.5449 11932.01 986368
4066.0725 -1350.7367 11768.145 1512453
3869.0286 -1263.5382 11008.438 1051905
3996.915 -1283.5906 11183.142 1249792
4291.7798 -1355.7338 11811.682 1644292
4394.4448 -1365.8173 11899.533 1907465
4710.8989 -1440.9755 12554.34 1644554
4673.4023 -1407.2109 12260.17 1118978
4877.0444 -1445.9778 12597.923 1118464
5407.7974 -1579.0891 13757.64 986882
5435.1436 -1563.428 13621.195 789760
5388.3345 -1527.2092 13305.643 855040
5348.2441 -1493.915 13015.57 788736
5228.7793 -1439.7153 12543.361 1248768
4959.6299 -1346.4044 11730.4 3090190
4800.6401 -1285.1719 11196.919 1774856
4979.1436 -1314.7285 11454.428 4078118
5088.187 -1325.3942 11547.352 3617831
5077.543 -1305.0142 11369.793 1710092
5037.8945 -1277.8131 11132.807 1315081
5142.0923 -1287.3295 11215.717 2433302
5757.124 -1422.853 12396.451 262144
5692.9238 -1389.2028 12103.276 393216
5790.397 -1395.3521 12156.852 459008
5859.231 -1394.5333 12149.719 459008
5895.5156 -1386.0822 12076.088 196608
5960.7036 -1384.5477 12062.72 262144
6030.4663 -1384.0999 12058.818 327936
6066.9126 -1376.1057 11989.17 327680
6114.3325 -1370.7572 11942.571 327680
6183.0303 -1370.2471 11938.127 393216
6214.2061 -1361.5275 11862.158 393216
6282.7471 -1361.0985 11858.421 393216
6302.5205 -1350.2311 11763.739 393216
6373.6821 -1350.4906 11766.001 393216
6408.9551 -1343.2228 11702.681 393216
6447.9028 -1336.873 11647.359 393216
6408.5591 -1314.598 11453.291 458752
6459.3115 -1311.0787 11422.63 393216
6546.8091 -1315.0135 11456.91 393216
6560.543 -1304.2034 11362.729 393216
6579.418 -1294.6251 11279.279 393216
6601.1118 -1285.7892 11202.297 393216
6650.9448 -1282.556 11174.129 327680
6817.5605 -1301.6844 11340.783 787456
6906.0127 -1305.6604 11375.423 590080
6985.1367 -1307.8129 11394.176 458752
6735.7969 -1249.017 10881.923 458752
7093.7861 -1302.8853 11351.244 458752
7162.6245 -1303.1316 11353.391 393216
6806.0957 -1226.7067 10687.547 393216
7181.3862 -1282.376 11172.561 393216
7210.9238 -1275.8499 11115.702 393216
7165.1514 -1256.2386 10944.841 393216
7324.3237 -1272.589 11087.292 458752
7343.1353 -1264.4779 11016.625 393216
7589.6387 -1295.3717 11285.784 393216
7571.502 -1280.9521 11160.155 590336
8053.4399 -1350.6512 11767.4 262401
8111.7749 -1348.7185 11750.562 327936
8261.8105 -1361.9355 11865.714 458752
7882.3379 -1288.3799 11224.868 458752
7815.3062 -1266.6995 11035.979 524288
7757.6416 -1246.8856 10863.354 458752
7747.1558 -1234.9193 10759.099 458752
7725.1836 -1221.333 10640.729 458752
7705.5825 -1208.3392 10527.522 721664
7757.3613 -1206.658 10512.875 458752
7707.6909 -1189.3492 10362.075 458752
7667.7896 -1173.8107 10226.696 458752
7689.7729 -1167.9154 10175.335 458752
7647.3525 -1152.407 10040.219 393216
7718.8662 -1154.1749 10055.622 656128
7760.6431 -1151.5034 10032.347 1182208
7639.5825 -1124.8954 9800.5283 984832
7577.0571 -1107.2443 9646.7441 393216
7699.0503 -1116.6196 9728.4258 458752
7777.4097 -1119.5739 9754.1641 393216
7905.2041 -1129.5481 9841.0635 393216
8037.8438 -1140.0629 9932.6729 393216
8079.7583 -1137.6501 9911.6514 393216
8357.1299 -1168.1852 10177.686 524288
8472.7119 -1175.8284 10244.275 524288
8466.5186 -1166.5833 10163.729 524288
8695.9414 -1189.7041 10365.167 458752
9164.124 -1244.9349 10846.358 458752
9075.1738 -1224.2369 10666.029 458752
9318.2363 -1248.3037 10875.709 458752
9622.9873 -1280.2458 11154.001 458752
9721.4961 -1284.5002 11191.066 458752
9802.4805 -1286.3967 11207.59 524288
9848.166 -1283.6667 11183.806 524288
10092.851 -1306.7379 11384.811 524288
10113.399 -1300.676 11331.997 524288
10078.296 -1287.5841 11217.936 458752
10146.333 -1287.755 11219.424 458752
10043.132 -1266.3323 11032.78 458752
10208.872 -1278.8779 11142.084 393216
10278.709 -1279.3256 11145.983 458752
9999.0068 -1236.5411 10773.229 458752
10128.627 -1244.5986 10843.429 524288
8608.4414 -1051.1094 9157.6748 524288
4965.3159 -602.46558 5248.9155 524288
10567.868 -1274.2421 11101.693 524288
10704.901 -1282.7538 11175.851 589824
9767.2002 -1163.1708 10133.998 524288
9676.7852 -1145.3385 9978.6357 524288
0 0 0 0
0 0 0 0
0 0 0 0
0 0 0 0
0 0 0 0
0 0 0 0
0 0 0 0
0 0 0 0
0 0 0 0
0 0 0 0
0 0 0 0
0 0 0 0
0 0 0 0
0 0 0 0
0 0 0 0
0 0 0 0
0 0 0 0
0 0 0 0
0 0 0 0
0 0 0 0
-886.64508 -119.45173 1097.5592 65536
-880.19287 -119.46161 1097.65 262144
-873.49579 -119.43817 1097.4347 196608
-867.36542 -119.49244 1097.9333 196608
-864.2915 -119.97181 1102.3379 196608
-857.99646 -120.00797 1102.6702 196608
-851.91425 -120.07468 1103.2831 196608
-848.59772 -120.53526 1107.515 196608
-844.50378 -120.89175 1110.7906 196608
-840.37653 -121.24905 1114.0736 196608
-836.71765 -121.68017 1118.0348 196608
-831.26312 -121.85493 1119.6406 196608
-835.83362 -123.51397 1134.8844 460033
-829.35236 -123.55356 1135.248 1381391
-831.88495 -124.94765 1148.0575 1118219
-829.27759 -125.58643 1153.9268 789254
-828.59204 -126.52932 1162.5903 920840
-829.36395 -127.71252 1173.4619 197378
-827.57727 -128.51843 1180.8669 460803
-820.34692 -128.48557 1180.5648 658182
-820.65582 -129.6431 1191.2007 657925
-817.19275 -130.21976 1196.4991 658182
-813.00818 -130.69055 1200.825 986890
-810.69727 -131.47354 1208.0193 1316112
-808.28247 -132.25352 1215.186 1710870
0 0 0 0
0 0 0 0
0 0 0 0
0 0 0 0
-7677.0469 -1314.9036 12081.738 11319475
-8041.7051 -1390.3696 12775.144 10595494
-7866.2534 -1373.0021 12615.565 10069150
-7772.6909 -1369.7311 12585.511 9805976
-7795.9409 -1387.1818 12745.853 10003355
-7761.916 -1394.6836 12814.782 9411219
-7873.8921 -1428.8281 13128.512 9608597
-7941.1504 -1455.4602 13373.217 10200477
-8646.0596 -1600.6823 14707.562 10792871
-9130.6406 -1707.6647 15690.548 11252908
-9344.999 -1765.7952 16224.669 11253164
-9245.917 -1765.2939 16220.063 10990250
-8780.9521 -1694.1891 15566.731 11121834
-8560.1172 -1669.1735 15336.88 10662053
-8521.0635 -1679.447 15431.275 10991277
0 0 0 0
-10118.456 -2038.1702 18727.334 3817531
-10138.937 -2065.0173 18974.014 2369827
-9973.8057 -2054.2395 18874.984 2764327
-9653.1387 -2010.817 18476.006 658180
-9054.1855 -1907.7592 17529.078 197376
-8978.5479 -1913.8499 17585.041 1118214
-8938.6279 -1927.7876 17713.105 328704
-9098.5049 -1985.661 18244.865 525568
-9042.6875 -1997.2902 18351.717 393984
-8949.1953 -2000.7804 18383.785 196608
-8954.9961 -2026.8301 18623.139 328192
-8832.3252 -2024.0905 18597.967 196608
-8656.1855 -2008.8729 18458.143 196608
-8603.3867 -2022.2559 18581.109 459520
-8620.7891 -2052.7029 18860.865 328192
-8516.9541 -2054.7039 18879.252 196608
-8633.2275 -2110.5684 19392.553 591363
-8270.9131 -2049.3611 18830.16 1907223
-7996.7646 -2008.6195 18455.814 12829633
-8040.8354 -2047.7864 18815.691 13619918
-7869.0645 -2032.3137 18673.523 12633539
-7559.9785 -1980.4269 18196.771 9474454
-7313.3438 -1943.6309 17858.678 6645872
-7013.9785 -1891.5303 17379.963 6316899
