# .PCD v0.7 - Point Cloud Data file format
VERSION 0.7
FIELDS x y z rgb
SIZE 4 4 4 4
TYPE F F F U
COUNT 1 1 1 1
WIDTH 1429
HEIGHT 1
VIEWPOINT 0 0 0 1 0 0 0
POINTS 1429
DATA ascii
3347.2698 997.00146 8515.5801 4081738
3394.0256 995.86597 8505.8818 4608598
3470.4377 1003.3376 8569.6982 9741222
3565.6848 1015.9597 8677.5059 10070703
3579.1326 1005.2473 8586.0098 10859705
3608.2788 999.18329 8534.2158 10728118
3903.2798 1065.8857 9103.9336 10727604
3924.8665 1057.1221 9029.082 10728630
3782.666 1005.0759 8584.5459 9016470
3814.9731 1000.1658 8542.6074 6316382
3868.5544 1000.8889 8548.7832 197634
3895.4136 994.76917 8496.5137 394754
3933.0562 991.52454 8468.8008 1184524
4003.0815 996.42255 8510.6357 1052940
4077.7483 1002.3392 8561.1709 395009
4131.3403 1002.9936 8566.7598 921095
4212.7578 1010.3051 8629.209 1381648
4226.8691 1001.4933 8553.9463 2434333
4198.0474 982.83966 8394.6221 591874
4230.248 978.74323 8359.6328 131072
4286.5391 980.25067 8372.5088 197376
4334.5586 979.85376 8369.1182 196608
4411.9683 986.03424 8421.9072 920832
4459.8325 985.54712 8417.7461 262656
4508.2603 985.19379 8414.7285 196608
4534.7471 980.10608 8371.2734 131072
4610.5977 985.68219 8418.9004 196608
4655.0547 984.49915 8408.7949 196608
4721.646 987.97266 8438.4629 196608
4774.4229 988.51282 8443.0771 196608
4831.9224 990.00946 8455.8604 196608
4895.9019 992.78937 8479.6035 196608
4915.4556 986.5957 8426.7021 131072
4965.5244 986.5899 8426.6533 263170
5153.5991 1013.7306 8658.4668 0
5061.6362 985.7948 8419.8613 256
5118.2856 987.06616 8430.7207 256
5147.7925 983.12921 8397.0947 256
5259.1001 994.74011 8496.2656 131584
5345.1606 1001.4002 8553.1504 512
5340.689 991.13367 8465.4619 512
5368.6523 987.02185 8430.3428 512
5442.4717 991.33887 8467.2148 264193
5556.019 1002.7468 8564.6523 768
5636.4893 1008.032 8609.7939 132352
5599.3716 992.38184 8476.123 2566941
5747.9526 1009.6288 8623.4326 4211253
5846.3931 1017.8416 8693.5801 3948081
5954.8237 1027.6345 8777.2227 2698014
0 0 0 0
5928.5767 1005.4831 8588.0234 65792
5957.6235 1001.782 8556.4121 256
6011.855 1002.3428 8561.2012 256
6058.1006 1001.5737 8554.6328 66048
6147.8345 1007.9475 8609.0723 131584
6276.8579 1020.6044 8717.1777 723713
6325.1045 1020.0274 8712.249 986370
6466.9946 1034.4387 8835.3389 394240
6504.3887 1032.0376 8814.8301 131328
6629.4551 1043.4745 8912.5146 1183494
6833.249 1067.0234 9113.6514 1841425
6859.7983 1062.7426 9077.0869 1841424
6915.8145 1063.058 9079.7812 985858
6896.647 1051.9011 8984.4893 722688
6857.5415 1037.8982 8864.8877 852992
7025.666 1055.2344 9012.958 1313796
6975.5835 1039.782 8880.9766 1380358
0 0 0 0
0 0 0 0
0 0 0 0
0 0 0 0
0 0 0 0
0 0 0 0
0 0 0 0
0 0 0 0
0 0 0 0
0 0 0 0
0 0 0 0
0 0 0 0
1433.1313 194.48601 1661.1422 854275
1431.8698 192.98494 1648.3213 262400
1424.8562 190.73431 1629.0983 131072
1422.6704 189.15599 1615.6174 196608
1424.9617 188.19008 1607.3674 196608
1432.4185 187.9147 1605.0154 196608
1430.9604 186.48119 1592.7715 196608
1426.547 184.68391 1577.4207 196608
1419.5581 182.57887 1559.441 196608
1422.7186 181.79805 1552.7719 196608
1422.4282 180.58919 1542.4468 196608
1432.1166 180.65457 1543.0052 196608
1430.2167 179.26665 1531.1506 196608
1443.4803 179.78487 1535.5769 196608
1418.6454 175.58124 1499.6729 196608
1413.4873 173.85025 1484.8882 196608
1412.4824 172.64839 1474.6229 131072
1404.092 170.56419 1456.8214 393729
1414.1093 170.72794 1458.22 196608
0 0 0 0
0 0 0 0
0 0 0 0
0 0 0 0
0 0 0 0
0 0 0 0
0 0 0 0
0 0 0 0
0 0 0 0
0 0 0 0
0 0 0 0
0 0 0 0
0 0 0 0
0 0 0 0
0 0 0 0
0 0 0 0
0 0 0 0
0 0 0 0
0 0 0 0
-907.63049 137.21306 1115.3286 855048
-886.71527 135.03769 1097.6461 723462
-880.45624 135.07857 1097.9785 789255
-875.43195 135.31093 1099.8672 986634
-875.56348 136.34969 1108.3108 1117963
-870.59741 136.60432 1110.3806 1118220
-865.74005 136.88007 1112.6219 460548
-888.48627 141.55798 1150.6461 65536
-904.38654 145.2093 1180.3256 65536
-928.00177 150.16614 1220.6169 256
-918.52563 149.80417 1217.6747 0
-914.0144 150.25261 1221.3198 0
-938.15216 155.45547 1263.6111 0
-933.02051 155.85315 1266.8435 65792
-931.0813 156.79489 1274.4984 131584
-921.26355 156.41444 1271.406 197377
-922.35193 157.89471 1283.4382 197377
-916.64093 158.22598 1286.131 328963
-923.99353 160.83678 1307.3527 263171
-930.41571 163.32854 1327.6068 723975
-921.35913 163.12248 1325.9319 789768
-918.51447 164.02217 1333.2449 1052940
-912.63239 164.39037 1336.2378 1513491
-907.07428 164.82393 1339.762 1710869
-907.8465 166.42561 1352.7812 2895141
-906.33826 167.63419 1362.605 2631969
-903.60437 168.63577 1370.7463 2566176
-910.61133 171.49005 1393.9471 2697762
-910.45386 173.03513 1406.5062 2829348
-911.70691 174.87939 1421.4973 2631969
-908.38739 175.87291 1429.573 2434589
-911.6535 178.17224 1448.2631 2763557
-913.61993 180.25902 1465.2252 921354
-923.00165 183.86307 1494.5206 256
-924.29657 185.91066 1511.1643 65536
-927.88843 188.46498 1531.9269 65536
-935.24768 191.84271 1559.3826 65536
-935.87836 193.89404 1576.0568 790024
-931.76611 194.99432 1585.0004 395267
-932.49365 197.14027 1602.4435 66304
-925.96442 197.78052 1607.6477 526853
-930.05542 200.72617 1631.5913 256
-925.76593 201.90617 1641.1829 263680
-925.77594 204.05902 1658.6823 526854
-926.99756 206.52814 1678.7523 789767
-925.1311 208.35551 1693.6061 1184525
-931.55042 212.10977 1724.1222 1842455
0 0 0 0
0 0 0 0
0 0 0 0
-3301.3911 786.31989 6391.5566 256
-3279.8186 790.27777 6423.728 256
-3259.873 794.72552 6459.8813 256
-3222.47 794.97253 6461.8892 256
-3215.6577 802.86334 6526.0288 256
-3266.8821 825.61389 6710.9561 0
-3380.6995 864.94135 7030.627 256
-3393.6853 879.13306 7145.9834 197633
-3325.4014 872.36475 7090.9678 0
-3381.9246 898.58411 7304.0898 0
-3306.6443 890.00964 7234.3926 263684
-3347.0078 912.74579 7419.2026 256
-3271.3982 904.04034 7348.4409 512
-3243.3696 908.42603 7384.0898 256
-3229.4841 916.94788 7453.3589 132096
-3192.3044 919.00085 7470.0464 512
-3123.3787 911.84363 7411.8696 256
-3075.8521 910.81848 7403.5366 256
-3044.707 914.68475 7434.9629 256
-3019.353 920.4303 7481.6655 256
-2978.5544 921.56909 7490.9224 66048
-2962.0845 930.38397 7562.5737 256
-2899.8784 924.88373 7517.8647 256
-2845.0957 921.61572 7491.3013 0
-2806.9055 923.70416 7508.2773 65792
-2768.9099 925.92523 7526.3311 256
-2731.9377 928.56702 7547.8047 512
-2675.834 924.68585 7516.2568 1842705
-2613.0361 918.32037 7464.5146 395264
-2587.0156 924.883 7517.8594 132096
-2554.439 929.29144 7553.6929 263680
-2513.542 930.77655 7565.7646 512
-2459.8318 927.48444 7539.0044 512
-2420.2751 929.50586 7555.436 66048
-2395.7588 937.4892 7620.3281 789505
-2365.0908 943.32672 7667.7778 658433
-2304.8113 937.35077 7619.2031 1776913
-2261.9019 938.34131 7627.2539 263680
-2224.4392 941.67798 7654.3765 329216
-2168.9351 937.35699 7619.2534 263168
-2154.1191 950.81134 7728.6157 592384
-2097.0898 945.81305 7687.9883 855296
-2061.2351 950.3551 7724.9077 591616
-2028.6287 956.63586 7775.9604 328448
-1956.8105 944.28729 7675.5864 196864
-1933.8284 955.47833 7766.5518 196608
-1868.604 945.83502 7688.1665 256
-1860.0869 965.13159 7845.0171 65536
-1834.4419 976.30481 7935.8389 328706
-1775.2209 969.72711 7882.3721 131328
-1725.7982 968.2901 7870.6909 263170
-1691.6886 975.60406 7930.1421 657929
-1661.6893 985.77582 8012.8228 3750454
-1590.2828 971.25867 7894.8208 3224624
-1536.0544 966.66901 7857.5146 6186078
-1488.8076 966.323 7854.7021 7963517
-1368.2513 916.83173 7452.415 8424841
-1331.6821 922.1889 7495.9609 7700605
-1342.0299 961.53198 7815.7588 3620925
-1275.7399 946.81879 7696.1631 5068627
-1235.9932 951.44348 7733.7544 1449499
-1176.9463 940.99457 7648.8208 1054485
-1129.1058 939.02563 7632.8169 5266004
-1067.2072 924.71069 7516.4585 8161409
0 0 0 0
0 0 0 0
-604.16956 598.70618 4866.5493 512
-609.61377 634.48499 5157.375 512
-573.97217 629.02673 5113.0083 512
-541.85199 627.03308 5096.8027 512
-510.66223 625.9436 5087.9473 512
-477.66702 622.36469 5058.856 512
-445.99768 620.14832 5040.8403 66816
-418.76794 624.23047 5074.022 330501
-395.03888 634.5697 5158.064 10266529
0 0 0 0
0 0 0 0
-465.91476 975.62085 7930.2793 9017238
-414.82428 966.43195 7855.5879 8886168
-354.02609 929.42578 7554.7847 7636358
-316.37061 951.25012 7732.1831 6715770
-269.58862 948.38861 7708.9233 8820891
-226.19255 958.70587 7792.7861 9084319
-180.29747 961.01813 7811.5811 8952475
-135.13005 970.15887 7885.8813 6123632
-88.017899 967.63214 7865.3433 6716027
-41.585636 975.32385 7927.8647 7900558
5.5913615 983.25067 7992.2969 8097680
52.882893 979.11353 7958.6689 6847355
103.61398 1012.4943 8230.0029 2569012
150.50861 998.99689 8120.2896 1909538
197.96117 994.85907 8086.6558 2041380
244.10538 987.0481 8023.1646 1845029
288.47757 975.79669 7931.708 8689559
334.02972 971.13733 7893.835 2768445
401.43979 1023.3459 8318.209 5333602
446.61401 1013.6357 8239.2812 9214879
485.47275 992.92816 8070.9604 9347492
525.53296 978.18201 7951.0972 8887198
575.90997 983.48779 7994.2251 9084578
627.2926 989.57111 8043.6729 9544874
678.16199 994.04016 8079.9995 9808046
727.27643 995.51593 8091.9946 6781569
786.15112 1009.3397 8204.3604 9874096
833.84381 1008.0303 8193.7178 9479081
871.61652 995.53534 8092.1528 8756128
917.76562 993.41425 8074.9116 9282215
963.28571 990.85712 8054.126 9084836
1011.9281 991.60162 8060.1782 9545387
1066.6841 997.99878 8112.1768 9348265
1108.2695 992.0531 8063.8477 9676973
1178.5874 1011.2535 8219.917 9940145
1206.3713 993.883 8078.7217 9413547
1251.4764 991.56653 8059.8926 9545387
1298.0648 990.55292 8051.6528 10005682
1339.7444 985.9986 8014.6333 10203060
1375.0682 977.24017 7943.4409 9873838
1444.4609 992.4715 8067.2485 9413286
1504.3978 1000.4359 8131.9863 9544872
1554.2195 1001.387 8139.7178 8886942
1629.1128 1017.9467 8274.3223 8821149
1664.5133 1009.5818 8206.3291 9281700
1722.0503 1014.7376 8248.2373 9413286
1712.0724 980.92554 7973.3979 8755613
1770.2283 986.92065 8022.1284 9215907
1840.729 999.30298 8122.7773 8294805
1891.785 1000.7657 8134.668 9347749
1928.3391 994.67535 8085.1626 10005423
1949.6239 981.19653 7975.6006 9873837
2015.927 990.47638 8051.0308 9545129
2063.6484 990.4079 8050.4746 9676715
2105.8301 987.74402 8028.8213 9939886
2154.1697 988.02258 8031.0859 10005425
2198.0952 986.30853 8017.1533 10203061
2247.3201 986.99469 8022.73 10531256
2309.8315 993.36621 8074.521 10005167
2351.3638 990.63977 8052.3589 10465206
2424.3091 1000.9925 8136.5107 10531511
2479.9976 1003.9541 8160.584 9675947
2563.3611 1017.7906 8273.0537 10202548
2611.3489 1017.3246 8269.2656 10005168
2634.7703 1007.4821 8189.2612 7701899
2634.2493 989.00781 8039.0938 6057330
2729.3276 1006.4442 8180.8247 9873325
2847.4832 1031.6309 8385.5537 10136497
2977.8713 1060.3064 8618.6406 9807533
3049.6636 1067.5011 8677.1221 8820382
3117.0488 1072.9393 8721.3262 8557209
3152.2979 1067.3187 8675.6396 9215139
3188.2173 1062.1025 8633.2402 8688795
3238.0618 1061.6169 8629.293 9083553
3258.7168 1051.726 8548.8945 9149858
3297.4978 1047.8988 8517.7861 9740711
3355.4133 1050.1761 8536.2979 6648180
3375.2786 1040.6542 8458.8984 3489599
3325.135 1010.1437 8210.8965 10268851
3500.1428 1047.9254 8518.002 10729147
3561.582 1051.1123 8543.9072 10663095
3621.5591 1053.7843 8565.626 10202031
3626.6938 1040.6456 8458.8291 10004139
3709.0081 1049.7095 8532.5039 9741223
3750.3015 1047.0758 8511.0967 10859188
3791.3257 1044.438 8489.6553 10924981
3717.5571 1010.6618 8215.1074 10332587
3880.1619 1041.1891 8463.2471 7898244
3860.0808 1022.5411 8311.668 7436406
3989.1846 1043.3844 8481.0908 1974558
4014.1841 1036.8182 8427.7188 2565920
4057.7466 1035.1497 8414.1553 0
4101.8955 1033.6696 8402.124 394242
4099.6025 1020.6623 8296.3955 65536
4151.2397 1021.2316 8301.0234 131328
4167.9009 1013.2844 8236.4248 196864
4228.6533 1016.1165 8259.4453 657152
4303.2393 1022.1696 8308.6475 196608
4327.8423 1016.3473 8261.3213 262144
4378.3496 1016.6707 8263.9502 262144
4423.2402 1015.6973 8256.0381 196608
4560.4326 1035.7075 8418.6904 196865
4551.3164 1022.4163 8310.6533 196608
4687.7607 1041.7584 8467.875 1315084
4758.854 1046.3209 8504.9609 196608
4810.1895 1046.4889 8506.3262 1512721
4791.7642 1031.6345 8385.583 196865
4856.5171 1034.8094 8411.3896 196608
4899.6216 1033.3538 8399.5576 131072
4950.3164 1033.5121 8400.8447 65792
5139.3491 1062.2606 8634.5254 65792
5012.4307 1025.7819 8338.0098 256
5046.7563 1022.6926 8312.8994 256
5087.8013 1021.0118 8299.2363 256
5126.7368 1018.9439 8282.4277 256
5185.2183 1020.7632 8297.2158 256
5216.4844 1017.2411 8268.5869 512
5264.8223 1017.0828 8267.2998 512
5318.6992 1017.9875 8274.6543 132608
5484.9619 1040.189 8455.1172 66560
5487.9546 1031.3052 8382.9062 132864
5635.292 1049.4626 8530.498 1053958
5687.9092 1049.8138 8533.3525 4803903
5776.5786 1056.754 8589.7656 5263940
6030.2778 1093.4984 8888.4395 3684909
5690.3682 1022.8974 8314.5635 131840
5913.2681 1053.8116 8565.8477 65792
5952.5908 1051.7616 8549.1846 512
5984.6934 1048.4813 8522.5215 256
6007.959 1043.7211 8483.8281 3618860
6068.1313 1045.3983 8497.4609 3290152
6161.6855 1052.7512 8557.2285 263169
6342.7759 1074.8171 8736.5898 723458
6425.0303 1079.9125 8778.0068 262656
6576.7729 1096.5109 8912.9268 460034
6603.041 1092.0916 8877.0039 525056
6775.731 1111.7673 9036.9385 262144
6805.3994 1107.8511 9005.1045 393984
6810.1206 1099.9666 8941.0156 393728
6809.3198 1091.3191 8870.7256 920064
6823.959 1085.2601 8821.4756 920066
7021.8892 1108.2212 9008.1133 722690
6774.8896 1061.1458 8625.4629 920065
0 0 0 0
0 0 0 0
0 0 0 0
0 0 0 0
0 0 0 0
0 0 0 0
0 0 0 0
0 0 0 0
0 0 0 0
0 0 0 0
0 0 0 0
0 0 0 0
1426.6719 203.44054 1653.6549 328448
1427.9199 202.22501 1643.7744 131072
1424.744 200.40369 1628.97 196608
1425.7433 199.19029 1619.1071 196608
1426.1514 197.91113 1608.7095 196608
1433.4572 197.59985 1606.1792 196608
1436.5645 196.71777 1599.0093 196608
1426.7047 194.08328 1577.595 196608
1420.4285 191.96751 1560.3971 196608
1422.0066 190.93381 1551.9948 196608
1424.0834 189.97998 1544.2416 196608
1433.8784 190.06143 1544.9036 196608
1442.3158 189.963 1544.1035 196608
1447.6371 189.45801 1539.9988 196608
1416.5693 184.22693 1497.4781 196608
1408.7607 182.06718 1479.9229 131072
1413.744 181.57721 1475.9401 722691
1400.4713 178.76299 1453.0648 722436
1418.022 179.89357 1462.2548 196608
0 0 0 0
0 0 0 0
0 0 0 0
0 0 0 0
0 0 0 0
0 0 0 0
0 0 0 0
0 0 0 0
0 0 0 0
0 0 0 0
0 0 0 0
0 0 0 0
0 0 0 0
0 0 0 0
0 0 0 0
0 0 0 0
0 0 0 0
0 0 0 0
0 0 0 0
-895.17426 141.86969 1100.0219 855048
-900.4704 143.75926 1114.6732 986634
-892.30933 143.51253 1112.76 1118220
-887.56683 143.81601 1115.1132 1249806
-881.90393 143.97382 1116.3367 1249806
-875.91779 144.08081 1117.1664 1512978
-888.30292 147.23447 1141.619 328707
-897.12299 149.84123 1161.8313 65536
-924.13422 155.55038 1206.0985 65536
-924.6394 156.85243 1216.1943 65792
-919.79028 157.25958 1219.3512 0
-934.50171 161.04407 1248.6952 0
-933.72363 162.19849 1257.6462 65792
-931.91852 163.19168 1265.3473 131584
-928.07349 163.84091 1270.3812 131584
-923.36804 164.34764 1274.3103 197377
-922.23596 165.50406 1283.2769 197377
-915.71844 165.70523 1284.8367 328963
-922.56384 168.34824 1305.3298 263170
-926.70959 170.53928 1322.3186 658182
-921.78046 171.08348 1326.5382 789768
-918.44836 171.93607 1333.1489 1052939
-913.03546 172.41054 1336.828 1579283
-907.14465 172.80235 1339.866 1645076
-906.87854 174.28203 1351.339 2829348
-905.96423 175.66246 1362.0425 2631969
-902.34326 176.53827 1368.8334 2500383
-912.43005 180.13626 1396.7312 2631969
-911.07428 181.52055 1407.4647 2829348
-909.7688 182.94061 1418.4755 2829348
-907.80841 184.25433 1428.6617 2631969
-912.93903 187.04568 1450.3052 2829350
-915.34546 189.32683 1467.9926 1316113
-930.81805 194.38043 1507.177 256
-929.99921 196.09712 1520.4878 65536
-931.32886 198.30498 1537.6069 65536
-930.39783 200.07048 1551.2961 65536
-935.69696 203.22446 1575.7513 131072
-934.82758 205.08894 1590.208 723719
-932.76721 206.72758 1602.9136 263424
-933.38641 209.00002 1620.5336 66304
-932.87769 211.06467 1636.5424 329475
-929.2724 212.46487 1647.3992 256
-928.91998 214.64655 1664.3152 132096
-927.35986 216.59312 1679.4084 263681
-927.8916 219.07594 1698.6597 921866
-932.25732 222.52858 1725.4305 1316111
-931.78058 224.88928 1743.735 2105883
0 0 0 0
0 0 0 0
-3371.0613 841.71417 6526.4399 256
-3315.9978 837.60608 6494.5869 263424
-3346.5835 855.29083 6631.7095 256
-3359.9783 868.95123 6737.6294 66048
-3330.8679 871.81622 6759.8433 256
-3279.8081 868.93585 6737.5098 256
-3245.5879 870.50067 6749.6436 256
-3271.9231 888.54993 6889.5923 256
-3281.4084 902.42267 6997.1582 256
-3272.2632 911.46228 7067.2495 256
-3262.3582 920.52283 7137.5024 512
-3222.4294 921.23877 7143.0532 256
-3173.6733 919.41656 7128.9248 256
-3156.5859 926.84369 7186.5122 256
-3167.2642 942.73901 7309.7607 197634
-3287.8523 992.24652 7693.6299 512
-3056.728 935.50958 7253.7061 512
-2913.3875 904.39954 7012.4863 256
-2991.2288 942.04419 7304.373 256
-2929.7957 936.28925 7259.751 256
-2920.7527 947.35516 7345.5537 131584
-2968.5811 977.48346 7579.1606 263683
-2907.8062 972.2287 7538.417 5658700
-2774.9312 942.32544 7306.5542 132096
-2818.1909 972.23492 7538.4653 263680
-2724.0886 954.95746 7404.5 512
-2711.2556 966.07013 7490.6646 461056
-2674.2378 968.79254 7511.7739 4211506
-2616.0281 963.79999 7473.062 1711115
-2561.5723 960.04163 7443.9214 527104
-2523.5803 962.43005 7462.4404 512
-2481.991 963.50763 7470.7954 512
-2441.6111 965.10242 7483.1611 461056
-2395.23 964.34033 7477.252 66304
-2368.3762 971.55988 7533.231 131328
-2298.999 961.27747 7453.5039 256
-2258.0654 962.71777 7464.6714 512
-2203.1714 958.14459 7429.2119 0
-2164.1431 960.42517 7446.895 0
-2127.4407 963.85486 7473.4878 0
-2094.7366 969.28094 7515.561 1513494
-2058.0417 973.05676 7544.8374 329221
-2026.5189 979.50067 7594.8018 724491
-1974.7839 976.24622 7569.5674 1711900
-1925.0137 973.83386 7550.8633 6712939
-1866.3361 966.69281 7495.4927 5726300
-1818.677 965.04907 7482.7476 6318692
-1800.3522 979.27893 7593.0825 6910830
-1797.5881 1002.9225 7776.4087 8951182
-1745.7278 999.69904 7751.415 5004112
-1758.3079 1034.2036 8018.9551 4016448
-1670.804 1010.1231 7832.2407 1448467
-1660.6216 1032.7488 8007.6743 1447955
-1622.0166 1038.512 8052.3604 197377
-1555.2649 1026.0564 7955.7837 256
-1453.3511 988.89447 7667.6392 768
-1365.3494 959.09851 7436.6084 66816
-1325.7415 962.44049 7462.521 1054223
-1324.147 994.56573 7711.6123 330498
-1258.0345 978.79785 7589.3525 132353
-1242.14 1002.3818 7772.2158 512
-1185.2308 993.41125 7702.6611 1280
-1120.3925 976.80682 7573.9141 768
-1019.9243 926.44739 7183.4399 0
0 0 0 0
0 0 0 0
-639.89215 664.74847 5154.2925 512
-612.57605 668.37817 5182.436 512
-579.88849 666.22119 5165.7114 512
-544.98584 661.1358 5126.2808 512
-513.61176 659.98199 5117.3345 197632
-481.21756 657.28967 5096.4585 256
-449.65598 655.44916 5082.1875 132096
-426.08255 665.82635 5162.6499 132610
-400.71478 674.79297 5232.1748 5264979
0 0 0 0
0 0 0 0
-445.59503 978.16162 7584.4194 10531249
-395.28021 965.40125 7485.478 7176064
-355.59232 978.65015 7588.207 8360339
-312.7312 985.74713 7643.2349 7702410
-267.02371 984.75977 7635.5791 9083291
-223.40436 992.64612 7696.728 8952474
-178.47878 997.2962 7732.7842 9347233
-133.56256 1005.2436 7794.4062 6781306
-86.022148 991.3916 7687.0015 8623768
-41.050205 1009.2914 7825.791 8624282
5.4355197 1002.0361 7769.5361 8492696
52.618748 1021.3018 7918.917 8295317
101.10153 1035.6849 8030.4399 8427161
147.4048 1025.6757 7952.8311 8295318
192.45229 1013.9121 7861.6196 8755611
238.00006 1008.8665 7822.4971 10203314
280.47189 994.56305 7711.5913 6387062
340.3924 1037.4594 8044.1982 7308423
396.0835 1058.4845 8207.2217 6913921
445.19022 1059.2314 8213.0146 4413787
474.74307 1017.9051 7892.5801 8624541
518.06982 1010.8895 7838.1826 7439754
569.31268 1019.2036 7902.6479 7308423
600.23517 992.6449 7696.7192 4478553
630.54266 968.90381 7512.6367 8294547
703.77313 1009.8969 7830.4868 9676201
717.10248 965.17981 7483.7612 7373703
799.9743 1013.8195 7860.9009 9150372
854.47296 1023.117 7932.9912 9414057
900.41223 1021.729 7922.2295 8624284
928.07568 1000.7717 7759.7314 8755872
970.7348 997.2038 7732.0669 9084836
1024.5959 1004.9455 7792.0947 9479594
1065.7931 1000.1339 7754.7866 9414058
1122.0878 1009.3012 7825.8677 9611180
1168.4716 1009.1787 7824.918 9676718
1217.9835 1011.664 7844.188 9676973
1262.0305 1009.5941 7828.1387 9544874
1316.0928 1015.3985 7873.144 9018529
1350.5869 1006.2253 7802.0176 9347493
1401.4634 1009.4614 7827.1094 9544871
1441.7861 1005.132 7793.541 8557977
1505.4574 1016.8427 7884.3423 9939629
1557.5492 1020.2611 7910.8477 9742251
1588.338 1009.9337 7830.772 9742250
1640.6169 1013.4698 7858.1904 9873580
1682.1736 1010.3699 7834.1538 9544872
1728.7689 1010.382 7834.2476 9676201
1769.1895 1006.8792 7807.0874 9149857
1840.3469 1020.6012 7913.4844 7373447
1893.9784 1024.162 7941.0942 8031376
1927.4647 1016.9211 7884.9507 9939630
1966.0116 1012.6307 7851.6836 9610665
2017.3782 1014.9891 7869.9702 9808044
2070.3511 1018.0306 7893.5527 10005423
2120.6389 1019.646 7906.0781 9676460
2169.3315 1020.441 7912.2427 9742253
2214.7136 1019.6781 7906.3276 9873840
2232.2927 1006.4122 7803.4668 9741997
2340.0735 1033.5253 8013.6948 9544360
2411.1428 1043.6658 8092.3218 9610154
2444.3369 1037.3358 8043.2407 9741740
2474.9329 1030.1675 7987.6592 9808046
2541.3958 1037.917 8047.7476 10005425
2631.304 1054.7786 8178.4878 10137268
2630.7434 1035.4211 8028.3945 10203061
2737.7029 1058.3176 8205.9287 10202804
2800.3201 1063.5712 8246.6631 10334135
2908.5972 1085.6873 8418.1455 10334134
2943.2749 1080.0476 8374.417 10202291
3017.8335 1088.9865 8443.7275 10070706
3068.3049 1089.0833 8444.4775 9939119
3109.7246 1086.0159 8420.6934 9939117
3164.6165 1087.6758 8433.5645 10070191
3213.7986 1087.3523 8431.0566 9938860
3257.7522 1085.2969 8415.1191 9609638
3310.6309 1086.2319 8422.3691 9084064
3312.6626 1070.7047 8301.9746 9149857
3307.7205 1053.4122 8167.8936 9149857
3436.761 1078.6725 8363.7549 9281186
3510.5798 1086.1273 8421.5576 9215137
3566.199 1087.821 8434.6904 9280930
3618.7473 1088.5439 8440.2959 9741479
3687.7444 1094.1272 8483.5869 10333617
3733.8218 1092.8516 8473.6963 10135469
3723.4033 1075.2943 8337.5615 9280156
3744.9609 1067.3115 8275.665 9937316
3813.1443 1072.6517 8317.0713 9213593
3887.1785 1079.48 8370.0156 10661554
3903.3425 1070.2679 8298.5889 11253948
4118.3511 1115.1273 8646.416 10397867
4151.7715 1110.318 8609.126 8620422
4132.0513 1091.5872 8463.8926 2697769
4111.022 1072.9656 8319.5049 921102
4112.0977 1060.4874 8222.7529 986893
4102.3711 1045.5494 8106.9277 1579027
4128.1138 1039.8934 8063.0713 197376
4269.1538 1063.0776 8242.8359 131328
4333.5659 1066.8706 8272.2461 5395785
4366.4209 1062.897 8241.4355 2236957
4397.7896 1058.6536 8208.5332 66048
4449.2783 1059.2936 8213.4961 262912
4500.1948 1059.7849 8217.3057 393984
4592.3804 1069.8801 8295.5811 196864
4652.6885 1072.4132 8315.2227 262400
4725.064 1077.6454 8355.791 196608
4738.5049 1069.4673 8292.3799 65792
4808.7783 1074.1523 8328.707 986890
4771.5312 1054.9695 8179.9683 855304
4884.3477 1069.0176 8288.8936 65792
4927.3232 1067.652 8278.3047 131584
4948.0371 1061.5374 8230.8936 256
5013.2295 1064.9913 8257.6748 512
5094.0586 1071.6678 8309.4434 256
5074.3599 1057.2706 8197.8105 65792
5119.2114 1056.4689 8191.5938 65792
5150.7437 1052.9594 8164.3823 512
5194.5947 1052.0101 8157.022 512
5259.3071 1055.2643 8182.2539 512
5315.9907 1056.8625 8194.6465 330240
5533.6226 1090.1392 8452.6641 132352
5640.0547 1101.1072 8537.708 132352
5715.188 1105.8235 8574.2773 263424
5910.248 1133.4559 8788.5322 1447946
6097.9434 1159.2041 8988.1768 1645326
5440.1973 1025.1846 7949.0229 65792
5764.5415 1076.9508 8350.4053 197376
5891.3057 1091.2356 8461.166 65792
5919.7964 1087.2295 8430.1045 131328
6034.3291 1098.9608 8521.0654 256
6119.4653 1105.1875 8569.3457 460544
6193.5659 1109.3348 8601.5029 197632
6400.5791 1137.0253 8816.208 1512460
6438.8462 1134.5328 8796.8818 526080
6528.0083 1140.976 8846.8398 262912
6529.4307 1132.1033 8778.0439 327936
6545.1519 1125.8309 8729.4102 196608
6636.332 1132.5348 8781.3896 459520
6599.7749 1117.505 8664.8525 591104
6665.5825 1119.9066 8683.4746 656640
6619.3008 1103.5836 8556.9092 525056
6592.918 1090.8018 8457.8027 459264
0 0 0 0
0 0 0 0
0 0 0 0
0 0 0 0
0 0 0 0
0 0 0 0
0 0 0 0
0 0 0 0
0 0 0 0
0 0 0 0
0 0 0 0
0 0 0 0
0 0 0 0
1431.8308 214.04288 1659.6346 196608
1428.0948 212.02336 1643.9757 196608
1428.9302 210.70534 1633.7562 196608
1428.9855 209.29089 1622.7889 196608
1431.093 208.19397 1614.2837 196608
1438.4122 207.86479 1611.7313 196608
1436.0282 206.14702 1598.4122 196608
1424.6438 203.16835 1575.3162 196608
1421.1703 201.34933 1561.212 196608
1422.441 200.22174 1552.469 196608
1433.671 200.50151 1554.6382 196608
1433.6691 199.21692 1544.678 196608
1444.194 199.40218 1546.1143 196608
1409.6779 193.40552 1499.6177 196608
1405.7948 191.66064 1486.0884 197121
1408.849 190.87744 1480.0156 1051657
1416.762 190.75815 1479.0907 1182986
1417.2471 189.64641 1470.4706 788485
1417.9589 188.57843 1462.1897 131072
0 0 0 0
0 0 0 0
0 0 0 0
0 0 0 0
0 0 0 0
0 0 0 0
0 0 0 0
0 0 0 0
0 0 0 0
0 0 0 0
0 0 0 0
0 0 0 0
0 0 0 0
0 0 0 0
0 0 0 0
0 0 0 0
0 0 0 0
0 0 0 0
0 0 0 0
-911.83405 151.17142 1120.494 1249806
-906.08545 151.32388 1121.624 1447185
-895.94049 150.73891 1117.2882 1907737
-891.75745 151.15579 1120.3782 2237470
-883.91626 150.95419 1118.8839 2171421
-885.26025 152.33006 1129.0819 2105372
-886.4826 153.70589 1139.2797 723463
-897.32422 156.78358 1162.0918 65536
-924.13422 162.72075 1206.0985 0
-927.59601 164.6075 1220.0833 0
-922.94861 165.07361 1223.5381 0
-921.75616 166.16998 1231.6644 0
-928.47162 168.72092 1250.5721 0
-933.51611 171.00694 1267.5164 65792
-930.65997 171.87111 1273.9216 131585
-923.37469 171.9248 1274.3196 263170
-922.25128 173.13614 1283.2981 197377
-920.39368 174.22873 1291.3965 328963
-925.2984 176.63052 1309.1989 394756
-928.03113 178.65498 1324.2042 658182
-923.26465 179.25803 1328.6741 789768
-919.88593 180.14328 1335.2356 1118732
-912.19055 180.19122 1335.5909 1579283
-906.70074 180.6795 1339.2102 1776662
-904.04425 181.74605 1347.1155 2697762
-903.61932 183.28432 1358.5172 2566176
-910.83185 186.41342 1381.7103 2500383
-908.73816 187.67749 1391.0797 2500383
-911.88086 190.0562 1408.7108 2763555
-910.55334 191.53864 1419.6989 2895141
-908.04797 192.79872 1429.0387 2829347
-910.74664 195.19801 1446.8224 2829350
-915.71893 198.13498 1468.5914 1316111
-931.50098 203.48994 1508.2828 256
-926.80261 204.43147 1515.2615 65536
-934.6192 208.17909 1543.0392 65536
-935.66022 210.47687 1560.0704 65536
-939.00806 213.34474 1581.3274 65536
-939.09875 215.52312 1597.4736 0
-936.80115 217.19229 1609.8457 789768
-935.71912 219.18065 1624.5836 197632
-935.72357 221.46765 1641.5349 197888
-935.00909 223.63087 1657.569 66048
-932.659 225.44485 1671.0143 66304
-930.90277 227.44296 1685.8245 197888
-931.65082 230.10312 1705.5416 592645
-931.20197 232.5229 1723.4773 987146
-930.64435 234.96909 1741.6086 1710869
-932.14215 237.99509 1764.0376 2302749
0 0 0 0
0 0 0 0
-3282.802 867.4455 6429.5713 256
-3288.3044 879.13593 6516.2222 256
-3245.8223 878.12341 6508.7168 256
-3261.4597 892.99982 6618.9819 256
-3255.1387 902.15375 6686.832 263426
-3307.9314 928.12 6879.2959 256
-3239.551 920.31268 6821.4272 512
-3300.7371 949.58209 7038.374 131584
-3311.6304 964.94867 7152.2725 512
-3231.1921 953.75653 7069.3159 0
-3221.3999 963.39697 7140.7715 2040090
-3371.1372 1021.6412 7572.4814 461316
-3226.9993 991.19611 7346.8203 1381902
-3174.8994 988.57367 7327.3828 256
-3080.9829 972.67657 7209.5522 256
-3031.6694 970.6109 7194.2412 65792
-3020.7327 980.94849 7270.8643 65792
-2987.8923 984.37018 7296.2261 256
-2997.7275 1002.1592 7428.0801 197632
-2914.4116 988.8736 7329.606 66048
-2909.9189 1002.3358 7429.3887 197632
-2883.9338 1008.6957 7476.5288 256
-2750.0391 976.92096 7241.0117 256
-2731.3796 985.72278 7306.2515 256
-2708.2542 993.17108 7361.459 395008
-2674.1982 996.78998 7388.2827 262912
-2624.4778 994.59326 7372.0005 1184520
-2589.291 997.9234 7396.6836 460545
-2514.0815 985.67706 7305.9131 197632
-2505.8542 999.72321 7410.0239 1118991
-2461.6184 999.64899 7409.4741 65792
-2440.0046 1008.9263 7478.2378 789770
-2374.2847 999.9718 7411.8667 263426
-2327.3223 998.72803 7402.6479 394755
-2281.5889 997.97406 7397.0591 658183
-2257.4285 1006.8118 7462.5654 4409153
-2252.4614 1024.736 7595.4204 3028270
-2238.918 1039.4119 7704.1987 3422258
-2213.3521 1049.0026 7775.2866 3225392
-2171.396 1051.0688 7790.6021 4475971
-1996.3971 987.42206 7318.8467 3752764
-1948.0829 984.99341 7300.8457 4739148
-1862.574 963.2193 7139.4541 1844512
-1864.8328 986.87659 7314.8037 768
-1776.1443 962.38483 7133.269 512
-1763.3309 978.81256 7255.0322 198915
-1784.4517 1015.3729 7526.021 1449236
-1700.0504 992.22662 7354.4585 768
-1735.6268 1039.731 7706.5649 527877
-1682.902 1035.4802 7675.0581 66560
-1603.1486 1013.8986 7515.0923 512
-1582.8173 1029.7377 7632.4937 512
-1547.2053 1036.2773 7680.9663 1024
-1478.7747 1020.5652 7564.5063 512
-1426.4237 1015.3128 7525.5752 768
-1377.6636 1012.3589 7503.6802 1024
-1348.2985 1023.9362 7589.4927 263680
-1305.6693 1025.8936 7604.001 256
-1256.8768 1022.975 7582.3682 527105
-1201.9987 1014.7018 7521.0464 461569
-1151.188 1009.3558 7481.4209 922376
-1107.1195 1009.729 7484.1875 4080949
-1039.574 987.82513 7321.8345 1843990
0 0 0 0
0 0 0 0
-660.98981 718.31879 5324.2329 512
-623.58673 711.75574 5275.5874 512
-591.61969 711.03088 5270.2144 512
-550.42834 698.51874 5177.4736 512
-518.88043 697.4873 5169.8286 132352
-484.03293 691.61139 5126.2759 256
-452.4679 689.95105 5113.9692 66304
-425.46597 695.51086 5155.1792 132867
-393.93637 693.95789 5143.6685 593678
-373.54901 713.42352 5287.9492 6253675
0 0 0 0
-427.15955 980.91711 7270.6313 8491664
-394.84674 1008.7956 7477.269 2239274
-354.53799 1020.7274 7565.7085 5268066
-299.80249 988.55627 7327.2539 7373442
-256.70599 990.34906 7340.542 7965065
-217.53168 1011.1071 7494.4019 5004636
-171.79826 1004.2184 7443.3433 4149071
-126.66807 997.29944 7392.0591 3359041
-82.542206 995.13715 7376.0312 4280400
-39.862984 1025.281 7599.46 8492693
5.4234934 1045.9076 7752.3462 5004636
51.284061 1041.2808 7718.0513 2767161
98.548897 1056.072 7827.686 6385519
144.02452 1048.3511 7770.4575 3423033
188.1154 1036.7487 7684.459 6122603
233.3396 1034.7059 7669.3184 2767160
278.90158 1034.5841 7668.4155 6452334
318.4678 1015.38 7526.0732 791309
343.3761 959.93018 7115.0747 662289
395.04239 983.24292 7287.8711 4806993
464.91248 1042.7776 7729.1465 3557184
508.1553 1037.2507 7688.1802 6320749
552.1795 1034.0994 7664.8223 1252890
585.77863 1013.393 7511.3457 924955
615.31415 989.08807 7331.1958 5399651
666.11194 999.91589 7411.4521 3622728
723.64075 1018.8773 7551.9951 3622984
776.97998 1030.069 7634.9492 3425092
786.79254 985.50531 7304.6401 3029820
866.15826 1028.1664 7620.8472 5136221
887.40021 1001.0205 7419.6396 7043966
950.18097 1021.0839 7568.3516 9150885
978.10834 1003.5724 7438.5552 8230040
1039.217 1020.1484 7561.4175 9348008
1091.4979 1027.0432 7612.522 9019300
1128.3134 1019.4163 7555.9902 8689824
1171.726 1018.1055 7546.2744 8755871
1206.5157 1009.6755 7483.791 8953251
1265.9434 1021.73 7573.1396 9085093
1320.9429 1029.5054 7630.7715 9939890
1381.7683 1041.1542 7717.1133 10400440
1408.0775 1026.8823 7611.3296 9742510
1466.9362 1036.4977 7682.5996 9873839
1512.0513 1036.1149 7679.7622 9939632
1550.1143 1031.0638 7642.3228 10071218
1587.0455 1025.5691 7601.5952 10137011
1633.8368 1026.5737 7609.0415 10137011
1672.4062 1022.4977 7578.8296 10071218
1704.6042 1014.842 7522.085 9544874
1784.8409 1035.4467 7674.8086 10005424
1849.8663 1046.4196 7756.1406 10268340
1899.3002 1048.2535 7769.7339 10005424
1917.036 1032.9211 7656.0894 9873839
1979.6178 1041.903 7722.6641 9939632
2042.4589 1050.611 7787.208 8558232
2070.8035 1041.5818 7720.2832 8557976
2151.0566 1058.4874 7845.5884 5990252
2063.7119 993.95453 7367.2656 9741994
2205.7114 1040.2683 7710.5469 9939632
2282.7036 1054.6613 7817.229 10070962
2415.0566 1093.5475 8105.4565 9675947
2491.2056 1105.9608 8197.4648 8952224
2470.9846 1075.9355 7974.9155 7833486
2499.4053 1067.822 7914.7778 5991796
2555.3262 1071.5403 7942.3374 10334647
2618.6006 1078.1511 7991.3374 10663356
2676.3081 1082.2751 8021.9053 10663356
2733.1497 1085.9109 8048.853 10400184
2788.5945 1088.876 8070.8306 10400440
2851.6597 1094.6659 8113.7466 10400184
2895.6567 1093.0656 8101.8838 10268598
2973.5903 1104.1183 8183.8076 10202291
2983.3103 1089.8945 8078.3809 10070705
3082.5554 1108.3098 8214.876 10136499
3108.7104 1100.2815 8155.3691 10070705
3152.1487 1098.5229 8142.3345 10070706
3186.6304 1093.7433 8106.9077 9939120
3289.2212 1112.1349 8243.2275 9807790
3307.8333 1102.0088 8168.1724 9610154
3388.4309 1112.5276 8246.1387 9281446
3434.157 1111.4602 8238.2266 9347238
3492.2239 1114.3607 8259.7256 9346980
3551.4932 1117.5591 8283.4326 9148829
3629.0684 1126.3518 8348.6045 5924456
3662.7021 1121.453 8312.2939 5331033
3531.5227 1066.8937 7907.8965 5068633
3596.8955 1072.3673 7948.4673 7108472
3567.3843 1049.7775 7781.0298 5068377
3758.6592 1091.905 8093.2832 6910837
3866.9805 1109.1741 8221.2822 460807
4130.6758 1170.022 8672.291 6909551
4117.4126 1151.8878 8537.8789 7500398
4059.0781 1121.7395 8314.418 4605247
4025.7246 1099.1372 8146.8882 4605498
4026.2993 1086.2257 8051.187 3289898
4150.1753 1106.4912 8201.3965 10067351
4152.2314 1094.1843 8110.1772 0
4223.7061 1100.2433 8155.0859 328706
4262.8052 1097.8265 8137.1729 1252119
4337.3198 1104.4827 8186.5088 10265757
4386.2134 1104.5389 8186.9263 723462
4436.4341 1104.9247 8189.7852 592128
4460.6299 1098.8906 8145.0605 262400
4524.7222 1102.7094 8173.3652 262656
4557.1416 1098.8101 8144.4629 196608
4618.2695 1101.8419 8166.9355 394240
4671.7329 1103.0013 8175.5288 65792
4820.4399 1126.3922 8348.9043 1118473
4851.4556 1122.0859 8316.9854 1907990
4838.4878 1107.7961 8211.0684 65792
4845.3247 1098.2809 8140.5405 65792
4899.5229 1099.5829 8150.1914 65792
4946.7212 1099.304 8148.124 65792
5003.2827 1101.0909 8161.3696 65792
5046.71 1099.9808 8153.1411 256
5071.4463 1094.8571 8115.1626 512
5103.3252 1091.3569 8089.2197 256
5173.043 1095.9386 8123.1797 132096
5272.8828 1106.7579 8203.374 512
5276.7886 1097.4275 8134.2158 512
5423.5669 1117.7102 8284.5527 66048
5520.1772 1127.3821 8356.2412 132096
5640.9155 1141.7651 8462.8496 512
5685.0898 1140.5338 8453.7227 512
5762.5786 1145.9489 8493.8594 131584
5764.9336 1136.4584 8423.5156 66048
5827.5366 1138.9062 8441.6592 66048
5860.4976 1135.5685 8416.9189 65792
5900.4727 1133.6349 8402.5869 65792
5960.5303 1135.5597 8416.8545 131584
6085.4976 1149.7157 8521.7793 460547
6206.8037 1162.9519 8619.8877 723714
6287.0298 1168.3374 8659.8047 131072
6299.1899 1161.0891 8606.0801 196608
6246.3721 1142.0773 8465.1631 196608
6335.4243 1149.1013 8517.2256 327936
6600.6597 1187.7161 8803.4414 327936
6689.1362 1194.1678 8851.2617 854017
6602.3125 1169.468 8668.1846 393728
6540.3921 1149.5276 8520.3848 459264
6472.6929 1128.8859 8367.3867 393728
6769.0723 1171.5725 8683.7842 393472
0 0 0 0
0 0 0 0
0 0 0 0
0 0 0 0
0 0 0 0
0 0 0 0
0 0 0 0
0 0 0 0
0 0 0 0
0 0 0 0
1450.2798 231.58208 1716.5039 657154
1442.4987 228.73015 1695.3651 131072
1446.2006 227.72598 1687.9221 196608
1440.3788 225.24629 1669.5426 196608
1426.1342 221.49243 1641.7186 196608
1433.9485 221.19228 1639.4939 196608
1441.379 220.83739 1636.8633 196608
1437.6847 218.79419 1621.7191 196608
1445.4563 218.51155 1619.6241 196608
1429.0244 214.59801 1590.6166 196608
1428.7505 213.14641 1579.8572 196608
1423.8833 211.03299 1564.1925 196608
1435.3425 211.35103 1566.5498 196608
1433.5203 209.72194 1554.4747 196608
1441.5012 209.53868 1553.1166 196608
1414.2076 204.26288 1514.0118 131072
1415.5955 203.17021 1505.913 920071
1409.7203 201.05542 1490.238 1381391
1414.7346 200.51042 1486.1985 1184013
1416.8336 199.56158 1479.1655 1380365
1414.9453 198.0663 1468.0823 985864
1421.3331 197.74072 1465.6692 131072
0 0 0 0
0 0 0 0
0 0 0 0
0 0 0 0
0 0 0 0
0 0 0 0
0 0 0 0
0 0 0 0
0 0 0 0
0 0 0 0
0 0 0 0
0 0 0 0
0 0 0 0
0 0 0 0
0 0 0 0
0 0 0 0
0 0 0 0
0 0 0 0
0 0 0 0
-912.44165 157.93805 1121.2407 1973529
-904.62036 157.73659 1119.8104 2237214
-896.77698 157.52824 1118.3314 2631971
-889.18085 157.36055 1117.1409 2697764
-886.45984 158.0596 1122.1036 2697764
-883.28815 158.68826 1126.5667 2500385
-881.50366 159.57768 1132.8809 1381649
-900.89929 164.3445 1166.7217 65536
-924.13422 169.89113 1206.0985 0
-929.60425 172.23309 1222.7247 0
-923.3642 172.42528 1224.0891 0
-927.68451 174.60818 1239.5861 0
-937.62573 177.89247 1262.902 0
-933.49927 178.53923 1267.4935 0
-928.63879 179.05499 1271.155 197377
-925.80469 179.97313 1277.6731 263170
-926.18689 181.53687 1288.7745 263170
-922.16229 182.25574 1293.8779 328963
-929.03613 185.15878 1314.4873 460806
-930.75629 187.07526 1328.0928 658182
-925.15942 187.54121 1331.4009 855561
-918.14172 187.72475 1332.7037 1118732
-912.18872 188.13106 1335.5883 1579283
-906.80823 188.66362 1339.369 1908247
-906.10046 190.18639 1350.1796 2697762
-906.04504 191.87453 1362.1641 2697762
-917.67078 196.08916 1392.0847 2500383
-913.84723 197.04924 1398.9006 2368796
-910.49048 198.12856 1406.5629 2895141
-910.01428 199.86047 1418.8583 2960934
-906.70612 200.99704 1426.927 2631969
-905.52179 202.63034 1438.5221 2697762
-908.60876 205.25967 1457.1885 2105626
-934.97919 213.25012 1513.9146 256
-933.69342 215.02679 1526.5276 65536
-936.22632 217.72638 1545.6926 65536
-947.5166 222.53627 1579.8391 65536
-942.83966 223.6548 1587.78 131072
-938.90564 224.97398 1597.1451 65536
-941.97412 228.01515 1618.7352 65792
-939.01501 229.64502 1630.3059 592389
-937.77667 231.73407 1645.1367 197889
-940.32214 234.81206 1666.9879 395266
-935.69592 236.14563 1676.4554 256
-934.64709 238.42049 1692.6052 512
-934.27679 240.91988 1710.3489 395266
-935.98907 244.01717 1732.3374 658181
-935.29706 246.54958 1750.3156 1250318
-936.34998 249.60417 1772.0009 1842455
0 0 0 0
0 0 0 0
0 0 0 0
-3137.6018 875.80939 6217.584 256
-3220.053 909.53943 6457.0425 657928
-3149.0811 900.22467 6390.9146 131840
-3285.5601 950.71045 6749.3252 256
-3183.5188 932.57288 6620.5625 131840
-3317.4836 983.98187 6985.5273 1645587
-3289.7373 988.12189 7014.9185 263168
-3247.9595 988.09961 7014.7598 0
-3218.2334 991.79071 7040.9639 1316361
-3182.0046 993.54883 7053.4453 263680
-3148.075 996.08118 7071.4233 1052932
-3125.7461 1002.4026 7116.3003 131840
-3100.6477 1007.9969 7156.0161 256
-3026.53 997.58954 7082.1313 65792
-2707.0767 904.88129 6423.9727 65792
-2666.7566 904.15948 6418.8486 256
-2908.7993 1000.5413 7103.0864 256
-2904.802 1013.8854 7197.8193 65792
-2819.5525 998.84442 7091.04 65792
-2818.5178 1013.6334 7196.0308 131072
-2785.4412 1017.1772 7221.189 131072
-2728.4182 1011.9505 7184.083 131072
-2710.4736 1021.2819 7250.3291 131072
-2674.1235 1023.8677 7268.6865 196608
-2643.926 1028.933 7304.6465 131072
-2632.6816 1041.6666 7395.0449 65792
-2542.5903 1023.1055 7263.2759 256
-2507.5393 1026.4335 7286.9019 987403
-2455.2195 1022.6853 7260.292 3948600
-2583.5588 1095.4004 7776.5146 7304300
-2452.0134 1058.5695 7515.0425 5330507
-2285.46 1004.9775 7134.5801 592645
-2239.9197 1003.5775 7124.6411 657922
-2262.3049 1033.1438 7334.5391 197376
-2241.5767 1043.7961 7410.1631 0
-2292.8525 1089.0767 7731.6211 256
-2150.8489 1042.5264 7401.1494 256
-2093.5388 1035.9406 7354.3945 132096
-2107.0015 1064.8409 7559.5654 263938
-2047.7795 1057.467 7507.2158 512
-1941.2944 1024.8141 7275.4053 768
-1886.478 1018.5706 7231.0815 199168
-1859.0127 1027.1481 7291.9746 1024
-1805.6909 1021.5077 7251.9321 768
-1771.3685 1026.6027 7288.1025 768
-1729.0896 1027.2262 7292.5288 768
-1686.3346 1027.5916 7295.123 768
-1645.4182 1029.1263 7306.019 1024
-1596.9896 1025.9185 7283.2451 1024
-1558.3298 1028.9822 7304.9951 67328
-1524.4548 1035.4714 7351.0645 132608
-1481.0928 1035.7098 7352.7568 264192
-1435.8735 1034.6244 7345.0503 658688
-1377.0188 1023.3376 7264.9229 592899
-1338.4185 1026.8593 7289.9243 921861
-1292.5701 1024.87 7275.8013 461568
-1292.39 1060.2064 7526.6646 724738
-1204.7266 1023.7373 7267.7607 462080
-1168.1692 1029.5988 7309.3721 2962724
-1122.6716 1027.7286 7296.0967 2502173
-1060.2539 1009.5968 7167.3735 2896676
-999.04028 991.14093 7036.3511 527364
0 0 0 0
-715.54224 774.76654 5500.2563 66560
-673.48431 764.14832 5424.875 512
-641.88708 764.92792 5430.4097 512
-603.15491 756.83716 5372.9712 256
-555.91125 736.56409 5229.0479 132352
-524.30939 735.84174 5223.9199 263937
-488.70908 729.06348 5175.7993 256
-452.47635 720.36755 5114.0649 0
-421.55887 719.49054 5107.8389 0
-391.20615 719.51599 5108.0195 256
0 0 0 0
-420.53345 915.60455 6500.0996 988175
-401.50003 962.62134 6833.8838 593930
-374.25427 998.3186 7087.3071 2701102
-333.97931 1003.9088 7126.9937 4477000
-293.82056 1011.5237 7181.0537 659724
-252.72655 1017.9605 7226.75 1514776
-212.45741 1031.0371 7319.584 2700076
-167.16965 1020.2219 7242.8042 1516831
-125.35567 1030.4576 7315.4702 1779229
-83.484329 1050.8472 7460.2197 463111
-38.489048 1033.5656 7337.5337 2569000
5.200685 1047.1346 7433.8638 1253398
48.672539 1031.8038 7325.0273 4215111
91.65493 1025.4758 7280.1025 3689027
131.45277 999.00531 7092.1826 2174248
176.68338 1016.6526 7217.4648 5400157
221.56726 1025.798 7282.3896 3294009
264.07239 1022.7408 7260.686 1384983
299.70886 997.67798 7082.7593 1582617
353.97833 1033.1753 7334.7632 1448726
396.5054 1030.3719 7314.8613 3490873
445.83624 1044.0557 7412.0054 3359546
492.17697 1048.9054 7446.4351 3556925
533.33417 1042.8193 7403.229 3095605
575.37073 1039.2496 7377.8867 1912611
598.60846 1004.6358 7132.1543 1451805
632.34607 991.05737 7035.7583 7438972
673.33722 989.82684 7027.022 6189422
723.15887 1000.9628 7106.0791 5597287
775.52185 1014.1928 7200.0024 3162948
843.21448 1045.0377 7418.9775 2437940
880.63306 1037.1611 7363.0596 9216163
927.95746 1041.1444 7391.3379 8887456
962.86456 1031.4655 7322.625 7966355
1007.098 1032.1827 7327.7168 6189944
1044.4895 1026.1188 7284.6675 8097941
1082.6686 1021.2806 7250.3198 8755360
1142.1743 1036.1602 7355.9536 9414315
1171.6052 1023.665 7267.2476 8492441
1198.6538 1010.0512 7170.5996 5399910
1204.6443 980.23706 6958.9419 5794154
1283.2227 1009.5075 7166.7402 9741734
1288.4873 981.07452 6964.8872 9873836
1414.7898 1043.7028 7409.5005 9347494
1461.6544 1045.7163 7423.7949 8229013
1521.647 1056.7286 7501.9746 8426392
1558.635 1051.593 7465.5146 9479080
1592.1698 1044.4763 7414.9917 9544873
1641.4236 1047.7772 7438.4258 9544616
1683.1331 1046.2152 7427.3374 9478821
1767.573 1070.615 7600.5571 8294802
1785.7423 1054.6589 7487.2812 7635329
1810.0994 1043.0446 7404.8276 9084578
1865.0115 1049.1707 7448.3179 9808558
1919.4664 1054.7615 7488.0083 9808046
1937.7776 1040.6875 7388.0942 9413288
2003.7234 1052.2528 7470.1987 8820638
2048.2302 1052.302 7470.5483 9939376
2091.4348 1051.6942 7466.2339 10136499
2144.8179 1056.1238 7497.6802 10070707
2227.9653 1074.7306 7629.7749 9939377
2265.8899 1071.2156 7604.8208 10137012
2329.2764 1079.6399 7664.627 10268598
2440.4729 1109.4762 7876.4419 10268342
2444.8931 1090.5607 7742.1562 10268342
2444.3799 1070.1843 7597.4995 10531770
2526.0815 1085.8892 7708.9922 10400184
2584.6816 1091.2805 7747.2666 10268855
2637.54 1094.1014 7767.2925 10466234
2688.8064 1096.176 7782.021 10597563
2745.2954 1100.2737 7811.1113 10794942
2804.6792 1105.376 7847.334 10926528
2853.6982 1106.2931 7853.8447 10926015
2909.3792 1109.7219 7878.186 10728635
2934.0142 1101.3877 7819.0195 10399413
3006.1321 1110.8599 7886.2656 10202548
3062.0469 1114.1456 7909.5918 10268084
3107.5637 1113.6058 7905.7588 9807533
3155.3401 1113.8798 7907.7036 10070705
3188.8411 1109.1801 7874.3398 10070962
3242.2363 1111.4362 7890.3569 10136754
3278.7124 1107.9109 7865.3291 9939119
3336.6511 1111.6351 7891.7686 9873326
3390.313 1113.851 7907.4995 9807532
3419.658 1108.1263 7866.8594 9675944
3442.5664 1100.4988 7812.709 9346465
3466.9316 1093.5336 7763.2617 6846845
3497.7754 1088.7682 7729.4307 8886685
3607.209 1108.2721 7867.894 8557718
3789.1665 1149.2736 8158.9731 8360081
3902.916 1168.812 8297.6816 9412512
3916.865 1158.3486 8223.3994 6320238
3906.9375 1141.1691 8101.4375 6714225
3909.0818 1127.891 8007.1733 8095363
4014.802 1144.4578 8124.7847 10726055
4040.6104 1138.1217 8079.8037 3422006
4101.0791 1141.5828 8104.3745 3553073
4006.7671 1102.3787 7826.0552 1710614
4255.5811 1157.395 8216.6289 4277053
4249.5903 1142.6494 8111.9473 2565921
4468.5986 1188.0548 8434.291 3749938
4442.3267 1167.9642 8291.6631 6118741
4397.5269 1143.4966 8117.9609 5000003
4349.7368 1118.7911 7942.5708 2828834
4471.0815 1137.6521 8076.4697 723715
4479.1738 1127.6018 8005.1196 197120
4564.7314 1137.0591 8072.2598 591616
4594.7485 1132.6287 8040.8066 394752
4603.7681 1123.1665 7973.6333 131584
4703.5459 1135.8138 8063.4199 131584
4746.5327 1134.6302 8055.0171 263168
4818.6108 1140.3551 8095.6587 65792
4852.499 1137.0182 8071.9688 65792
4890.1426 1134.6178 8054.9287 131328
4962.7983 1140.309 8095.3311 65536
4983.5083 1134.0697 8051.0376 131072
5018.0532 1131.0676 8029.7241 131072
5059.7437 1129.7173 8020.1387 65792
5099.1177 1127.88 8007.0952 65792
5178.0405 1134.7437 8055.8223 65792
5244.1206 1138.6927 8083.8574 0
5371.2114 1155.6976 8204.5791 65792
5434.3486 1158.7596 8226.3174 131584
5535.5283 1169.8065 8304.7412 256
5593.0127 1171.5056 8316.8037 256
5633.4248 1169.6302 8303.4902 256
5674.9087 1168.0082 8291.9746 394752
5640.4248 1150.913 8170.6118 256
5784.5811 1170.2495 8307.8867 65792
5815.6089 1166.566 8281.7363 65792
5896.6436 1172.891 8326.6396 658176
5877.9722 1159.4436 8231.1729 1381641
6078.2534 1189.0504 8441.3594 1250057
6152.311 1193.6824 8474.2422 262912
6157.5479 1184.9948 8412.5664 196608
6182.0098 1180.1171 8377.9385 262144
6241.3887 1181.9296 8390.8057 262144
6273.8438 1178.6552 8367.5605 262144
6466.0591 1205.2101 8556.0801 722177
6490.9282 1200.4021 8521.9473 657409
6624.3174 1215.5825 8629.7168 722945
4691.8018 854.34314 6065.1904 525312
0 0 0 0
0 0 0 0
0 0 0 0
0 0 0 0
0 0 0 0
0 0 0 0
0 0 0 0
0 0 0 0
0 0 0 0
0 0 0 0
0 0 0 0
1463.661 244.01775 1732.3416 131072
1453.798 240.67989 1708.6451 196608
1458.3151 239.7525 1702.0614 196608
1444.7373 235.88351 1674.5946 196608
1433.0292 232.37067 1649.656 196608
1445.6061 232.81671 1652.8225 196608
1441.631 230.60898 1637.1494 196608
1439.7019 228.756 1623.9946 196608
1438.2 226.9951 1611.4935 196608
1441.1777 225.95987 1604.1442 196608
1430.4315 222.80063 1581.7159 65536
1435.7715 222.17184 1577.2521 65536
1441.9615 221.68192 1573.7739 65536
1451.2255 221.66782 1573.6738 65536
1421.3942 215.72054 1531.4526 65536
1416.0922 213.548 1516.0293 986634
1417.5387 212.41418 1507.9801 1447185
1415.5345 210.78081 1496.3844 1512978
1414.9341 209.37553 1486.408 1315598
1418.9904 208.67253 1481.4171 1381391
1416.4688 207.01685 1469.663 789255
1419.067 206.12511 1463.3324 131072
0 0 0 0
0 0 0 0
0 0 0 0
0 0 0 0
0 0 0 0
0 0 0 0
0 0 0 0
0 0 0 0
0 0 0 0
0 0 0 0
0 0 0 0
0 0 0 0
0 0 0 0
0 0 0 0
0 0 0 0
0 0 0 0
0 0 0 0
0 0 0 0
0 0 0 0
-914.03284 164.89098 1123.1959 2171677
-904.68683 164.40604 1119.8927 2566178
-896.29755 164.08905 1117.7335 2829350
-890.2254 164.19472 1118.4532 3026729
-886.49298 164.73679 1122.1456 3092522
-885.4707 165.79449 1129.3505 2631971
-891.76099 168.24802 1146.0632 1908248
-898.66327 170.85565 1163.8259 256
-919.34393 176.14369 1199.8467 0
-925.38776 178.68813 1217.1787 256
-927.09204 180.42812 1229.031 256
-921.79694 180.82269 1231.7189 0
-941.48645 186.16393 1268.1021 0
-937.64355 186.90068 1273.1206 131584
-934.29779 187.74931 1278.9012 263170
-925.94727 187.5979 1277.8699 197377
-926.04895 189.17059 1288.5826 328963
-921.58514 189.82909 1293.0681 394756
-926.19287 192.38295 1310.4645 460548
-927.27545 194.24171 1323.1259 723975
-927.15143 195.87738 1334.2676 987147
-919.44934 195.92645 1334.6019 1118732
-912.48822 196.13562 1336.0267 1645076
-906.79309 196.62303 1339.3467 1776661
-905.1225 197.9994 1348.7223 2566176
-905.25897 199.79924 1360.9823 2763555
-907.9704 202.20496 1377.3695 2368797
-914.11584 205.42622 1399.3119 2434590
-912.31903 206.9054 1409.3877 2829348
-910.97711 208.51613 1420.3595 2829348
-906.11237 209.34308 1425.9926 2632226
-905.98352 211.29016 1439.2556 2763557
