# .PCD v0.7 - Point Cloud Data file format
VERSION 0.7
FIELDS x y z rgb
SIZE 4 4 4 4
TYPE F F F U
COUNT 1 1 1 1
WIDTH 1319
HEIGHT 1
VIEWPOINT 0 0 0 1 0 0 0
POINTS 1319
DATA ascii
6665.4829 665.65973 8176.7227 2036484
6698.6714 664.13068 8157.9399 2233607
6800.895 669.41876 8222.8975 1904389
6889.5356 673.30389 8270.6211 1575424
6979.3511 677.24805 8319.0693 1707521
7134.8726 687.46765 8444.6035 1773315
7142.3745 683.38196 8394.416 1575937
7206.4658 684.72974 8410.9717 918272
7295.6787 688.42957 8456.4189 983808
7341.4277 688.00549 8451.21 1378560
7363.354 685.36981 8418.834 1181184
7459.5762 689.63824 8471.2666 1444352
7453.1562 684.42395 8407.2158 1510144
7584.5723 691.85229 8498.4629 1707522
7806.1699 707.35406 8688.8809 1445378
7857.4463 707.31989 8688.4609 4602409
8109.3223 725.22601 8908.4131 3023120
8058.6353 716.01678 8795.29 1575936
7793.1279 687.96234 8450.6797 1641985
7432.6313 651.93549 8008.1392 1642496
7288.2739 635.20477 7802.6255 1445120
7164.5566 620.47321 7621.668 590336
7007.6372 603.06946 7407.8862 459008
7019.5161 600.31891 7374.0996 459264
6999.3579 594.8797 7307.2866 393728
7033.8408 594.12292 7297.9907 393728
7000.6816 587.69696 7219.0562 393728
0 0 0 0
0 0 0 0
0 0 0 0
0 0 0 0
-6072.1851 587.43884 6724.792 6780537
-6092.6489 593.32507 6792.1753 3754313
-5904.7817 578.86646 6626.6577 2306097
-6179.1543 609.83289 6981.1509 2700855
-6411.4644 637.03882 7292.5947 2371891
-6224.2466 622.6474 7127.8467 1450533
-6063.8916 610.76434 6991.814 3161408
-6233.0312 632.13354 7236.4409 5924716
-6127.1035 625.70947 7162.8999 5727592
-6008.1499 617.8559 7072.9951 2306870
-6241.2944 646.35535 7399.2466 3226688
-6297.3516 656.78973 7518.6958 3423554
-6142.9277 645.2641 7386.7549 4147277
-5929.186 627.29675 7181.0708 5332063
-5915.293 630.36572 7216.2031 5793640
-5932.4341 636.81091 7289.9854 6321009
-5853.8975 633.00488 7246.4155 6189167
-5689.6074 619.80084 7095.2607 1384480
-6114.103 671.01843 7681.5811 5991018
-6225.6221 688.39935 7880.5518 3554879
-5717.6797 637.02747 7292.4648 7108473
-5462.2217 613.2157 7019.876 4016715
-5640.7012 638.1283 7305.0664 6780792
-6465.5005 737.11237 8438.2012 6320756
-6108.6196 701.87134 8034.7744 6122606
-6127.3828 709.57587 8122.9731 2174254
-6399.6143 746.98865 8551.2607 5266529
-5998.667 705.79517 8079.6934 4807777
-5883.4131 697.82245 7988.4238 6717315
-5701.1265 681.70447 7803.9116 7374988
-5516.7339 665.06824 7613.4658 6652813
-5494.2065 667.83185 7645.1021 7373960
-5470.9966 670.55786 7676.3086 3754830
-5385.1509 665.58807 7619.4165 4149075
-5298.4204 660.42371 7560.2964 2767936
-5249.373 659.9082 7554.395 4873055
-4955.7373 628.37085 7193.3667 7045503
-4731.5239 605.16357 6927.6982 329227
-4717.6064 608.68182 6967.9736 7504007
-4997.8579 650.55334 7447.3042 2569532
-5126.9766 673.32507 7707.9868 4411737
-5008.7534 663.73132 7598.1606 1515559
-4828.6011 645.68164 7391.5347 7240067
-4818.2539 650.21539 7443.4351 7831690
-4961.6685 675.77545 7736.0376 7833744
-5305.2114 729.32605 8349.0664 9348267
-5353.6323 742.93365 8504.8408 8296350
0 0 0 0
0 0 0 0
-5301.5571 757.15991 8667.6982 9809589
-5126.562 739.35382 8463.8604 9217195
-4656.1216 678.16315 7763.3711 8822437
-4716.7524 693.87201 7943.2007 9875125
-4703.6665 698.94464 8001.271 9611697
-4544.3853 682.17499 7809.2974 8230301
-4436.853 672.90759 7703.2075 8757414
-4484.1685 687.17651 7866.5527 7573912
-4543.8784 703.66553 8055.314 5201255
-4377.9116 685.18536 7843.7593 3291716
-4284.3638 677.76349 7758.7964 9545131
-4281.9819 684.75909 7838.8789 8624800
-4169.6294 674.12891 7717.189 7307656
-4289.1733 701.17145 8026.7622 11453641
-4264.8926 705.04633 8071.1206 8690079
-4294.873 718.08154 8220.3428 10598076
-4310.5181 728.99237 8345.2461 9413800
-4184.1235 715.85596 8194.8652 5203049
-4363.7222 755.37878 8647.3086 8295321
-4700.6841 823.40881 9426.0928 10137781
-4610.7114 817.39307 9357.2256 10532281
-4402.665 790.04236 9044.125 10400182
-4279.7744 777.48529 8900.376 10663608
-3974.5818 731.08136 8369.1602 11847882
-3936.9639 733.34216 8395.041 10466229
-4060.3115 766.0293 8769.2324 9281442
-4177.2891 798.34943 9139.2207 8886684
-4048.0105 783.83734 8973.0918 10334131
-3751.1697 736.05853 8426.1367 10071216
-3532.6257 702.55768 8042.6313 9018785
-3684.9185 742.90045 8504.4609 8294804
-3707.7976 757.91205 8676.3086 1252125
-3668.2615 760.40906 8704.8936 6779505
-3619.9844 761.13959 8713.2559 8753294
-3540.2439 755.17975 8645.0303 9478298
-3442.24 745.09113 8529.5391 461577
-3449.7761 757.88702 8676.0225 1185299
-3380.5344 753.948 8630.9297 2172447
-3478.2144 787.68921 9017.1865 592648
-3594.9961 826.88019 9465.832 7634036
-3403.6917 795.32855 9104.6396 1974557
-3500.8271 831.24487 9515.7969 131585
-3387.5684 817.56396 9359.1826 4671553
-3268.207 801.92883 9180.1973 2236955
-3107.6333 775.47852 8877.4033 197376
-3171.0442 804.97284 9215.0439 526339
-2980.4412 769.88904 8813.417 1447186
-2985.6125 785.02582 8986.6973 1645078
-2805.2197 751.03351 8597.5654 2039833
0 0 0 0
0 0 0 0
0 0 0 0
-1572.266 454.02945 5197.5684 256
-1542.6895 454.41934 5202.0312 65792
-1594.9012 479.40979 5488.1133 6184793
-1538.7507 472.19131 5405.479 5461317
-1497.4924 469.33234 5372.75 512
-1408.7825 451.15259 5164.6348 512
-1377.5436 450.9776 5162.6313 512
-1345.542 450.53918 5157.6128 512
-1320.7356 452.54575 5180.5835 256
-1286.2004 451.23508 5165.5791 256
-1246.4418 447.98285 5128.3486 0
-1203.9822 443.57242 5077.8599 0
-1166.9209 440.97516 5048.1274 65536
-1129.6355 438.15393 5015.8306 65536
-1085.3855 432.40497 4950.0186 65792
-1055.257 432.11819 4946.7363 65792
-1019.0744 429.26492 4914.0728 65792
-979.28314 424.67825 4861.5659 65792
-986.37231 440.76111 5045.6772 921091
0 0 0 0
0 0 0 0
0 0 0 0
0 0 0 0
-1701.7703 896.80273 10266.279 1907471
-1700.5903 929.51801 10640.793 1117955
-1632.7982 926.9455 10611.343 1117955
-1574.4965 929.77032 10643.682 525568
-1486.093 914.31189 10466.718 986115
-1358.1044 872.08319 9983.2998 788480
-1272.3868 854.37915 9780.6299 657153
-1226.1598 862.76642 9876.6436 788993
-1214.361 897.44031 10273.579 854785
-1153.2578 897.42029 10273.35 986115
-1162.9976 955.60797 10939.462 854531
-1086.3304 945.48499 10823.577 1052162
-1041.6497 963.67932 11031.859 854786
-965.42242 953.17267 10911.582 1183748
-927.5014 981.69672 11238.116 986373
-922.12177 1051.7656 12040.24 1380614
-872.32367 1078.7013 12348.59 1512455
-796.48236 1075.4233 12311.065 1183748
-708.72607 1053.7662 12063.142 1117954
-656.81207 1086.5242 12438.145 1315077
-601.57001 1121.3904 12837.28 1776140
-529.86401 1131.2385 12950.019 1841933
-433.06607 1081.7581 12383.583 2368536
-355.30194 1069.291 12240.864 986883
-256.00595 968.90942 11091.731 395010
-192.75725 982.63635 11248.873 2039566
-130.94989 1022.1995 11701.777 1512713
-63.325493 1054.5698 12072.341 1973262
8.7515173 1092.751 12509.426 1973004
75.826721 996.85358 11411.627 2169870
153.23827 1063.2434 12171.634 2893590
231.01053 1088.744 12463.556 2300938
300.31128 1071.6289 12267.629 2235145
362.73749 1041.4648 11922.32 3485212
454.78738 1092.3124 12504.405 2366731
529.98389 1094.0807 12524.648 3945763
604.99695 1095.0814 12536.104 2761489
684.99719 1103.8995 12637.052 2695696
759.0827 1102.3849 12619.712 3090456
837.86267 1107.347 12676.517 2761491
911.62433 1105.4052 12654.287 2169355
1004.9054 1125.6237 12885.74 2169353
1147.1447 1193.9329 13667.721 1840387
1241.9415 1207.0939 13818.383 1775107
1317.116 1200.7333 13745.569 2169865
1420.7122 1219.5125 13960.546 1248770
1517.6648 1230.8307 14090.113 2433294
1496.3285 1150.0502 13165.367 2695953
1535.4229 1121.4376 12837.82 2433298
1599.4293 1112.8685 12739.725 1116929
1666.0928 1106.8395 12670.706 920064
1743.7523 1108.3209 12687.666 525312
1823.5085 1110.957 12717.843 328448
1902.6483 1113.0227 12741.489 657408
2002.926 1126.822 12899.459 591616
2183.7527 1183.2483 13545.407 657408
2465.2461 1288.2667 14747.62 262656
2726.2993 1375.7571 15749.18 131584
3158.9294 1541.1447 17642.479 131072
3099.584 1463.5958 16754.727 131328
2855.9023 1306.5444 14956.857 262912
2871.7461 1274.1223 14585.7 65792
2769.6777 1192.8195 13654.975 7040605
3230.1084 1351.5007 15471.501 2698524
3558.2764 1447.5875 16571.469 10725013
3713.7834 1470.1469 16829.721 7500900
4508.0322 1737.7429 19893.064 5131326
0 0 0 0
0 0 0 0
0 0 0 0
0 0 0 0
4387.2271 1495.0637 17114.959 525314
3459.9458 1152.3424 13191.608 394240
3322.2078 1081.9446 12385.718 3485471
3362.4436 1071.3036 12263.903 3024921
3359.7092 1047.7141 11993.859 2301713
3413.2039 1042.2755 11931.601 1249284
3561.0588 1065.2861 12195.018 5986381
3679.5322 1078.7645 12349.313 196608
3798.7444 1091.9277 12500.002 328192
3814.8323 1075.5121 12312.082 853760
3957.8181 1094.8174 12533.082 1051395
4337.6997 1177.7288 13482.222 393984
4469.8394 1191.5875 13640.872 196608
4629.4795 1212.153 13876.298 788739
5281.2573 1358.6005 15552.776 4078643
5308.5947 1342.1353 15364.289 5263170
5466.8926 1358.7769 15554.796 1512716
5472.022 1337.4285 15310.407 262656
5301.5425 1274.5603 14590.714 1973267
5477.5889 1295.6842 14832.533 854786
5640.7368 1313.1362 15032.318 1710094
5638.1147 1292.0552 14790.99 1512201
5799.2344 1308.5693 14980.037 262400
5852.0244 1300.5093 14887.77 262144
5870.5044 1285.1785 14712.268 854272
5950.9375 1283.6615 14694.901 1314819
5988.3999 1273.0533 14573.464 986114
5784.9106 1212.2552 13877.469 854533
5438.5654 1123.6517 12863.167 1052169
5406.7598 1101.5907 12610.621 985859
5265.4263 1058.1228 12113.015 985857
5105.1479 1012.0722 11585.844 1380356
4859.5293 950.55444 10881.61 722176
4739.0981 914.81885 10472.522 459008
4679.1406 891.53229 10205.946 393216
4679.9355 880.26923 10077.01 327936
4600.3115 854.35559 9780.3594 1248517
4666.2002 855.7757 9796.6172 1182208
4604.1772 833.99121 9547.2354 1248002
4677.2056 836.90228 9580.5605 721664
4681.791 827.64398 9474.5752 393216
4682.106 817.85992 9362.5703 787200
4697.5635 810.91968 9283.1211 1642244
4770.7085 813.98334 9318.1924 1444865
4787.5405 807.47888 9243.7314 1116672
4902.2065 817.43549 9357.7119 524544
4903.7041 808.50995 9255.5352 1774087
4810.3032 784.30945 8978.4961 1248001
5028.0464 810.8147 9281.9189 1510916
5130.8999 818.41858 9368.9658 1379586
5217.4785 823.29126 9424.7461 1248000
5314.6187 829.70917 9498.2158 1247744
5499.8979 849.60748 9726.0049 1511172
5537.3359 846.49133 9690.333 590080
5602.605 847.65015 9703.5986 524288
5643.2642 845.09991 9674.4043 852992
5648.5605 837.35883 9585.7871 918784
5707.7856 837.68707 9589.5449 2103309
5678.5566 825.15552 9446.0879 458752
5702.5464 820.52698 9393.1016 656384
5785.0137 824.32068 9436.5312 1576963
5742.2441 810.36761 9276.8018 1576963
5978.6362 835.70172 9566.8174 1510657
5960.2012 825.27393 9447.4434 1050624
5796.8535 795.16296 9102.7432 1379072
5728.8018 778.55994 8912.6777 786944
5639.3672 759.38184 8693.1338 721408
5565.3638 742.61115 8501.1494 1576194
5366.6538 709.65192 8123.8438 2760723
5281.9141 692.21686 7924.2534 918528
5667.229 736.14813 8427.1631 1379072
5856.1499 754.02234 8631.7803 1379330
5756.7192 734.78113 8411.5137 1444865
6088.9155 770.48914 8820.2871 1444865
6208.1255 778.86639 8916.1865 1312769
6232.8086 775.34296 8875.8516 1641729
6145.1235 758.01764 8677.5176 1970691
6067.334 742.19141 8496.3438 1707520
5901.4692 715.94153 8195.8447 1773056
5873.5933 706.72467 8090.3335 1575936
5718.2563 682.4458 7812.3975 2430982
5733.0225 678.69543 7769.4648 1772032
5832.542 684.95831 7841.1602 2167811
6181.4868 720.18146 8244.3818 1246720
6430.2905 743.27515 8508.75 1707264
6583.0674 754.99524 8642.918 1773056
6529.208 743.01868 8505.8145 2036227
6525.7612 736.91907 8435.9883 2233353
6528.8677 731.64691 8375.6348 1838595
6477.1675 720.35925 8246.417 1773059
6423.0654 708.97607 8116.1069 1707008
6430.0874 704.45911 8064.3984 1904899
6617.6099 719.63776 8238.1582 2628366
6490.9458 700.67792 8021.1123 1970436
6552.9102 702.20795 8038.6274 1970436
6604.2246 702.58276 8042.9189 2101765
6679.1299 705.44391 8075.6719 2430730
6794.8071 712.53979 8156.9033 1970180
6779.8682 705.93512 8081.2949 1444354
6918.4336 715.29407 8188.4326 1378560
7002.3135 718.90778 8229.8018 1246976
7072.0747 721.03198 8254.1182 1575937
7130.0596 721.93451 8264.4502 1575937
7180.8862 722.1048 8266.3994 1312768
7246.9238 723.79199 8285.7139 1444352
7255.623 719.76837 8239.6533 1378560
7391.189 728.29962 8337.3164 1246976
7341.6089 718.59528 8226.2236 1575937
7130.7314 693.336 7937.0645 2431241
7416.585 716.38953 8200.9736 525056
7500.2407 719.73865 8239.3125 2497034
7625.4585 727.00671 8322.5156 3220500
7311.6846 692.59772 7928.6133 2036997
7232.2334 680.68359 7792.2246 1905666
7167.3833 670.28662 7673.2036 721664
6967.4536 647.46844 7411.9893 459008
6965.7607 643.24304 7363.6182 459008
6971.5103 639.7533 7323.6689 393472
7020.9067 640.28735 7329.7832 393728
6965.7793 631.34143 7227.3726 393728
6926.2051 623.90613 7142.2563 393728
0 0 0 0
0 0 0 0
0 0 0 0
0 0 0 0
-5980.4717 617.94202 6623.2217 2503219
-6079.3018 632.31702 6777.2959 2108718
-6004.0718 628.65875 6738.0864 1186845
-6338.3594 668.1181 7161.019 5003611
-6562.5864 696.43134 7464.4858 5859689
-6207.6265 663.24738 7108.814 2043438
-6036.9258 649.43048 6960.7217 3556679
-6057.2622 656.11578 7032.376 1844778
-6075.0488 662.61591 7102.0454 2831671
-6265.374 688.15778 7375.8086 461841
-6047.8208 668.94458 7169.8774 3
-6066.6382 675.78894 7243.2368 790032
-5960.0034 668.65668 7166.792 2435118
-5732.8877 647.8075 6943.3262 2698032
-5715.2119 650.49396 6972.1201 2829875
-5605.1519 642.62787 6887.8096 1514011
-5772.8394 666.72388 7146.0757 461325
-5853.2153 681.01862 7299.2896 6316903
-5865.9502 687.59802 7369.8091 3620932
-5707.6606 674.07843 7224.9033 1119769
-5718.8115 680.51654 7293.9082 1712676
-5612.2847 672.94287 7212.7319 2435887
-5495.7271 664.04059 7117.3154 5791846
-5690.9014 692.9585 7427.2632 5331810
-5961.7061 731.60986 7841.5361 5003102
-6199.3945 766.77448 8218.4375 8161680
-6149.2432 766.6134 8216.7109 6583418
-6021.8076 756.73779 8110.8623 7570827
-5804.2085 735.2807 7880.8813 3819853
-5868.9268 749.52954 8033.603 4543834
-5576.2524 717.99469 7695.606 3096128
-5241.7466 680.50714 7293.8076 7108217
-5310.2939 695.15704 7450.8276 2634804
-5063.1943 668.38519 7163.8818 924443
-5276.2793 702.42279 7528.7036 6187626
-5241.2866 703.73407 7542.7578 5594206
-5193.7998 703.37598 7538.9194 4939357
-4799.3921 655.62048 7027.0674 514
-4725.9292 651.25397 6980.2666 7964042
-4908.4556 682.39917 7314.0859 527117
-5008.0776 702.47217 7529.2324 1119768
-4798.3076 679.11804 7278.9189 1514787
-4778.229 682.43079 7314.4253 7372422
-4835.6895 696.98035 7470.3706 7043455
-4995.1768 726.6413 7788.2822 8096658
-5006.6675 735.12701 7879.2339 9150118
-4948.3286 733.42303 7860.9702 6255481
0 0 0 0
-4823.6943 728.71484 7810.5068 10005683
-5026.8149 766.78149 8218.5127 8690337
-5083.1885 782.99121 8392.251 8098713
-4735.708 736.69775 7896.0693 7901077
-4618.4146 725.64429 7777.5962 7308941
-4731.0054 750.85193 8047.7764 7835285
-4529.1138 726.1535 7783.0542 7177356
-4474.5845 724.8158 7768.7163 6979206
-4583.4346 750.19128 8040.6953 5268074
-4553.623 753.16699 8072.5894 8031378
-4535.2563 758.11926 8125.6689 8359824
-4390.8921 741.88947 7951.7148 9216427
-4333.9326 740.23511 7933.9829 8690079
-4321.8882 746.30023 7998.9907 7703184
-4311.7329 752.83026 8068.9805 8492701
-4240.2202 748.67358 8024.4287 8624031
-4236.7617 756.57501 8109.1177 10992835
-4266.5527 770.66425 8260.1289 9677744
-4255.8735 777.68628 8335.3926 9150630
-4353.9995 804.99017 8628.041 8887201
-4386.0771 820.58838 8795.2246 10137524
-4309.7632 816.03912 8746.4658 9282215
-4454.563 853.75732 9150.7363 8886944
-4158.9595 806.95734 8649.125 9019812
-4006.5127 787.10986 8436.3955 9546669
-3973.4919 790.51868 8472.9326 7900306
-4007.6116 807.54407 8655.4141 9545387
-3965.0024 809.35016 8674.7715 9413287
-3861.197 798.54767 8558.9883 9084320
-3867.4705 810.52649 8687.3799 6781306
-3605.4568 765.84216 8208.4443 11255744
-3606.8572 776.65161 8324.3027 8557716
-3672.1675 801.71472 8592.9336 8294541
-3677.3267 814.16754 8726.4053 5133908
-3571.3669 802.02264 8596.2344 3357753
-3513.3372 800.44507 8579.3252 9280405
-3364.5579 777.84094 8337.0498 5923419
-3448.8054 809.23907 8673.5811 66049
-3351.7126 798.39417 8557.3438 2896172
-3376.5586 816.70911 8753.6465 6185305
-3336.4197 819.63306 8784.9854 460805
-3341.7065 833.98694 8938.833 2697761
-3372.5718 855.29138 9167.1787 1908240
-3440.7627 886.91705 9506.1484 6118991
-3292.4065 862.84802 9248.1729 4737350
-3240.7434 863.73236 9257.6514 197376
-3158.4116 856.33215 9178.334 65536
-3086.252 851.47821 9126.3086 131584
-2991.4045 840.07916 9004.1309 394755
-2872.7864 821.46741 8804.6465 789513
-2656.9363 773.84564 8294.2275 1381648
0 0 0 0
0 0 0 0
-1568.2498 483.69077 5184.291 256
-1598.1295 502.7879 5388.978 256
-1518.0847 487.37546 5223.7847 65792
-1573.7488 515.79797 5528.4229 197633
-1523.5392 509.99274 5466.2012 256
-1419.4224 485.49606 5203.6411 256
-1382.1145 483.26816 5179.7617 512
-1347.7915 482.00616 5166.2354 512
-1312.9215 480.4852 5149.9331 256
-1279.1721 479.31137 5137.3521 256
-1245.5341 478.12289 5124.6138 256
-1204.9651 474.14758 5082.0054 256
-1166.5231 470.8262 5046.4067 65792
-1131.1938 468.61902 5022.7495 65536
-1076.7355 458.15271 4910.5693 65792
-1048.0336 458.36786 4912.8755 65792
-1015.5154 456.87842 4896.9111 65792
-986.7298 457.02988 4898.5347 263168
-1001.2247 477.84668 5121.6533 657921
0 0 0 0
0 0 0 0
0 0 0 0
0 0 0 0
-1650.7571 929.12396 9958.5312 986369
-1568.0267 915.38995 9811.3271 854530
-1572.7461 953.6189 10221.072 788738
-1483.8566 935.88068 10030.95 657152
-1441.6344 947.32294 10153.591 1315080
-1331.9929 913.52673 9791.3564 328192
-1291.71 926.38416 9929.1641 591360
-1249.4012 938.95032 10063.852 131584
-1203.2094 949.71558 10179.235 460544
-1187.6693 987.0965 10579.892 197376
-1125.6614 987.87799 10588.268 723457
-1057.078 982.63977 10532.123 525824
-1017.5614 1005.4629 10776.746 1051906
-960.81451 1013.1839 10859.502 986115
-894.94916 1011.7092 10843.694 722945
-854.42456 1040.8761 11156.312 1315333
-784.82684 1036.5541 11109.987 657408
-726.71118 1047.9962 11232.626 1381126
-669.32306 1062.9093 11392.468 328704
-598.44232 1057.3412 11332.788 1710092
-523.2511 1041.7784 11165.983 1907469
-471.73962 1075.689 11529.443 1512713
-399.22073 1065.0834 11415.771 920320
-329.13141 1057.9429 11339.236 723712
-257.80966 1042.142 11169.88 1184517
-189.88541 1033.8756 11081.278 1775883
-125.67393 1047.7803 11230.312 3091744
-62.078369 1104.1589 11834.59 1578505
8.5066824 1134.4691 12159.459 2236175
80.969177 1136.9031 12185.547 1051906
149.15465 1105.3425 11847.274 2104075
217.74226 1096.0524 11747.701 1906182
280.22403 1068.0037 11447.07 2169096
348.7247 1069.3735 11461.753 2893075
438.1568 1123.9905 12047.147 2300682
530.24615 1169.1193 12530.847 4472105
603.90283 1167.4945 12513.433 1709061
698.68921 1202.5951 12889.646 5261880
806.69586 1251.2631 13411.279 3419423
872.48041 1231.5759 13200.27 1577477
925.961 1199.2035 12853.295 2367250
1038.5996 1242.5411 13317.796 6972244
1141.1118 1268.4825 13595.842 1577476
1252.3584 1300.0592 13934.286 2037767
1383.1023 1346.7015 14434.209 2366734
1495.7028 1371.2606 14697.437 1840646
1526.8909 1322.5894 14175.769 2038025
1493.1715 1225.728 13137.59 2235147
1531.7411 1194.8876 12807.037 1578246
1589.2006 1181.006 12658.251 1248770
1659.553 1177.5277 12620.97 656896
1728.1022 1173.1262 12573.794 131328
1791.2015 1165.5436 12492.521 1052161
1873.8457 1170.7761 12548.605 328448
1902.1952 1142.9838 12250.722 131328
2016.9923 1167.2699 12511.024 131584
2222.2009 1240.2904 13293.673 460032
2499.0452 1346.9048 14436.387 854787
2728.5203 1421.7566 15238.662 196864
2804.832 1414.553 15161.453 196864
2874.3726 1404.4894 15053.589 1644558
2927.9771 1387.4819 14871.3 196864
2608.626 1199.9188 12860.963 6250060
3053.3362 1364.4839 14624.802 1579780
3230.5046 1403.6864 15044.982 2171148
0 0 0 0
4464.1313 1837.9347 19699.34 4737832
4413.6318 1770.6901 18978.6 2434573
4481.1055 1752.9475 18788.432 4145442
4504.5244 1719.2534 18427.291 2894618
4132.5884 1539.8459 16504.367 591874
4206.1758 1530.9167 16408.662 3881770
3779.1272 1344.3069 14408.541 11249567
3587.2639 1247.7745 13373.89 3288602
3469.0469 1180.4897 12652.719 3156505
3450.082 1149.1193 12316.482 525827
3482.6987 1135.8756 12174.534 1051905
3588.6147 1146.5911 12289.385 3946799
3629.2954 1136.4515 12180.707 262400
3759.7117 1154.2582 12371.562 722688
3809.0522 1146.9683 12293.428 1314821
3997.7454 1181.1243 12659.519 2038801
4128.7075 1197.2766 12832.643 4341812
4429.1074 1261.0864 13516.568 328448
4714.0825 1318.3083 14129.885 920838
5159.2798 1417.5488 15193.563 3552301
5218.3716 1409.1144 15103.161 854785
5188.2158 1377.2736 14761.885 65792
5479.9102 1430.5094 15332.478 2499606
5576.4814 1431.9008 15347.39 1710090
5547.8555 1401.6174 15022.807 1578757
5777.2681 1436.4518 15396.168 1512965
5833.6396 1427.8459 15303.93 1907469
5977.3828 1440.5612 15440.213 262400
6001.3247 1424.4561 15267.596 196608
5765.8989 1348.1853 14450.112 591360
5982.3252 1378.2554 14772.408 1315337
6064.8257 1377.0468 14759.454 459776
6127.106 1371.347 14698.363 525825
6084.5449 1342.6724 14391.022 657153
6428.1309 1398.8221 14992.847 985858
6195.686 1329.8007 14253.061 262144
5653.7471 1197.1101 12830.858 1051649
5171.8647 1080.4994 11581.002 1380357
4808.0874 991.3028 10624.976 787968
4667.8828 949.91669 10181.391 525056
4649.2373 934.01086 10010.909 393472
4619.6802 916.34265 9821.5381 1709064
4550.3511 891.32495 9553.3936 1445124
4537.2251 877.79749 9408.4033 1840137
4668.8799 892.26855 9563.5068 1444867
4697.5664 886.94983 9506.5 1115904
4679.0938 872.95929 9356.5469 1839622
4711.7505 868.72443 9311.1562 1971464
4766.3877 868.59344 9309.7529 1642500
4763.6523 858.13031 9197.6074 1116416
4902.2065 873.06805 9357.7119 1971720
4912.0552 865.00555 9271.2969 393472
5066.6987 882.33728 9457.0615 984832
5089.0146 876.49731 9394.4678 2432272
5207.0586 887.09271 9508.0312 1708549
5200.3818 876.44086 9393.8633 919296
5338.8003 890.20905 9541.4326 1182208
5460.7842 900.9762 9656.8369 1511171
5514.9238 900.44208 9651.1123 655872
5536.7529 894.69781 9589.5439 655872
5614.9424 898.08527 9625.8516 918784
5655.229 895.40314 9597.1035 919040
5693.5801 892.47119 9565.6787 787456
5744.3818 891.52954 9555.5859 393472
5768.5947 886.52014 9501.8945 1116416
5981.3184 910.29742 9756.7441 1445379
6123.5259 922.98914 9892.7764 1313793
6223.2534 929.09741 9958.2461 1378816
6059.4355 896.11542 9604.7383 590080
6071.2231 889.47668 9533.583 1115904
5875.2681 852.80652 9140.5449 984320
5647.9917 812.30377 8706.4287 1115904
5563.3516 792.8645 8498.0752 1444866
5335.9038 753.60596 8077.2949 1905417
5426.3862 759.54956 8140.9995 984320
5644.9155 783.15283 8393.9834 1379073
5859.0771 805.74158 8636.0947 1444867
5916.0347 806.50714 8644.2998 1708036
5948.7363 803.9812 8617.2266 1379072
6304.521 844.79077 9054.6309 2826258
6261.2158 831.88507 8916.3047 1641729
6104.0884 804.20007 8619.5723 1444352
5974.313 780.54968 8366.083 1641728
5860.8262 759.40045 8139.4009 590848
5767.02 741.12671 7943.5396 3418137
5749.8442 732.91766 7855.5537 852992
6008.0303 759.65778 8142.1592 1246464
5974.5049 749.38116 8032.0122 1773058
6280.6592 781.53564 8376.6504 1444353
6408.4385 791.16272 8479.835 1246720
6577.3574 805.67877 8635.4209 1575937
6503.4658 790.45776 8472.2793 721664
6448.5142 777.75507 8336.1299 918784
6529.0757 781.4657 8375.9014 1510400
6454.0454 766.63849 8216.9795 1313024
6467.5537 762.47186 8172.3213 1707522
6509.2441 761.6651 8163.6743 1773314
6628.7539 769.90875 8252.0312 1575936
6634.729 764.94141 8198.79 2233607
6509.0186 744.97479 7984.7842 2957074
6638.8979 754.33844 8085.1455 2233351
6588.29 743.20728 7965.8394 1904386
6645.499 744.31061 7977.665 1838339
6810.6509 757.40247 8117.9863 1641730
6775.0718 748.14423 8018.7544 2102279
6884.2358 754.88702 8091.0254 1575937
6888.7314 750.13861 8040.1313 1575680
7047.1274 762.09894 8168.3237 983808
7094.8354 762.0072 8167.3413 1115392
7120.4282 759.55774 8141.0864 1378304
7106.6973 752.97485 8070.5303 1379072
7108.9248 748.15973 8018.9204 1313536
7079.2046 740.06885 7932.2012 1576704
7037.7314 730.86456 7833.5483 1510144
6984.9663 720.61639 7723.7061 786944
6919.6968 709.22046 7601.562 1445120
6916.0146 704.24371 7548.2202 656384
7018.1318 710.03497 7610.2925 1313536
6933.9658 697.02625 7470.8618 393472
6869.2651 686.12738 7354.0459 458752
6879.4834 682.80219 7318.4062 393216
6917.9282 682.30273 7313.0527 656896
6955.3701 681.7113 7306.7139 393472
6980.6079 679.93835 7287.7114 393728
6903.2847 668.25922 7162.5312 393728
6848.187 658.86139 7061.8042 393728
0 0 0 0
0 0 0 0
0 0 0 0
0 0 0 0
-5937.9917 652.64868 6576.1763 3884614
-6156.8682 681.19055 6863.7681 4542546
-6121.6968 681.81812 6870.0913 2897975
-6145.1826 689.03101 6942.7695 3686979
-6241.0542 704.51263 7098.7646 5988964
-6137.9375 697.58972 7029.0083 2041638
-6102.5483 698.3219 7036.3862 2106662
-6014.2598 692.96912 6982.4507 2567213
-6123.1611 710.42029 7158.291 1776670
-6296.7905 735.6781 7412.7925 65795
-6118.0493 719.83307 7253.1357 1
-6051.7871 717.09094 7225.5054 1579290
-5887.5195 702.61371 7079.6309 5329235
-5777.2627 694.42004 6997.0703 1842204
-6096.603 738.11908 7437.3877 5197648
-6061.8379 739.27167 7449.0015 263430
-5969.5996 733.38049 7389.6411 658700
-6137.3369 759.57745 7653.605 5132369
-5790.3159 721.98157 7274.7842 1776669
-5960.9048 748.84528 7545.4663 66308
-5622.2173 711.65283 7170.71 1119508
-5679.7261 724.42511 7299.4058 9738394
-5505.6172 707.62488 7130.124 2501422
-5461.3809 707.38562 7127.7134 1646113
-5754.1143 751.13 7568.4873 6320244
-5978.9414 786.62958 7926.1865 6123380
-5986.8936 793.93317 7999.7773 7306628
-5805.7061 776.0705 7819.7915 6387067
-5822.7495 784.63177 7906.0557 3886417
-5541.6279 752.82678 7585.5845 2964801
-5502.0342 753.58057 7593.1797 4544086
-5250.6138 725.09418 7306.147 1648423
-5251.5693 731.27563 7368.4321 4609625
-5066.5327 711.44391 7168.605 923672
-5363.2075 759.4917 7652.7412 923159
-5258.8086 751.0791 7567.9746 2701626
-5161.6733 743.56757 7492.2876 2635836
-4689.8711 681.48267 6866.7114 515
-4733.6064 693.87775 6991.606 4674902
-4805.3198 710.62988 7160.4028 1778726
-5024.2896 749.65302 7553.6055 131587
-4892.3247 736.54639 7421.541 724753
-4887.9434 742.58374 7482.3745 2436144
-5012.2837 768.46729 7743.1802 7436671
-5129.7656 793.76935 7998.1279 10004654
-4991.7217 779.63544 7855.7124 9215911
-4926.853 776.77142 7826.854 6453631
-4879.1621 776.58691 7824.9946 5072749
-4927.5229 791.83398 7978.626 8230298
-4775.1602 774.80835 7807.0737 8361371
-4795.4849 785.74347 7917.2578 8558749
-4919.6426 814.07715 8202.752 6716289
-4877.8647 815.24518 8214.5205 9545644
-4890.9487 825.69861 8319.8516 8163734
-4632.9795 790.13861 7961.543 8624028
-4529.3438 780.43695 7863.7886 6782081
-5046.4966 878.61493 8853.043 8624800
-4594.7744 808.39954 8145.5425 8822182
-4403.8477 783.06097 7890.228 8361375
-4338.667 779.77686 7857.1372 9019050
-4314.0024 783.78247 7897.498 8624547
-4352.0425 799.39392 8054.8013 8623517
-4386.9263 814.76642 8209.6973 7505548
-4329.1914 813.08984 8192.8027 10137010
-4303.8916 817.53601 8237.6035 10400181
-4262.9639 819.08191 8253.1807 5531500
-4147.1333 806.10443 8122.417 11189956
-4298.2793 845.32648 8517.624 8558492
-4367.8364 869.24677 8758.6475 7177353
-4393.2119 884.84528 8915.8203 8954277
-4334.8701 883.75732 8904.8584 9348778
-4124.2339 851.21008 8576.9082 9940145
-3953.6199 826.21167 8325.0205 8164249
-4049.7576 857.03088 8635.5586 5204331
-4027.3655 863.23541 8698.0771 8821149
-3974.8521 863.06116 8696.3213 7241344
-3964.1533 872.08124 8787.209 9149339
-3854.4802 859.27795 8658.2002 8557972
-3741.5598 845.39417 8518.3057 9545383
-3641.7917 834.14197 8404.9277 5992302
-3650.3098 847.72455 8541.7871 9019036
-3650.8271 859.80591 8663.5205 8163470
-3649.5144 871.79596 8784.334 7568760
-3646.6904 883.76788 8904.9648 3028284
-3565.4355 876.80499 8834.8057 5659998
-3543.9585 884.55408 8912.8867 770
-3400.2817 861.57507 8681.3467 987921
-3297.1226 848.31238 8547.71 1316886
-3291.4014 860.09668 8666.4502 3620150
-3283.4565 871.66534 8783.0186 395526
-3337.7068 900.38593 9072.4102 2369312
-3290.5371 902.24127 9091.1055 526084
-3117.1262 868.96613 8755.8203 789512
-3209.0432 909.7829 9167.0957 263424
-3223.821 929.76263 9368.4141 65792
-3071.6721 901.45618 9083.1943 65536
-3019.075 901.87549 9087.4189 131584
-2876.7083 875.00482 8816.667 6710878
-2754.4133 853.35541 8598.5244 197379
0 0 0 0
0 0 0 0
0 0 0 0
-1582.8971 529.72821 5337.6133 256
-1516.9777 518.05334 5219.9756 256
-1567.2878 546.4126 5505.7271 256
-1548.7114 551.45294 5556.5146 512
-1497.7874 544.94403 5490.9297 512
-1371.1682 509.99097 5138.7383 512
-1335.8083 508.16138 5120.3027 512
-1298.512 505.49252 5093.4111 512
-1263.2192 503.4949 5073.2827 256
-1235.7566 504.59683 5084.3857 256
-1200.0386 502.29849 5061.2275 256
-1162.8412 499.2468 5030.4785 256
-1118.4552 492.86627 4966.187 256
-1075.9191 486.97699 4906.8462 256
-1046.4977 486.86078 4905.6753 512
-1014.3225 485.42014 4891.1587 512
-1042.9266 513.83972 5177.5186 131840
0 0 0 0
0 0 0 0
0 0 0 0
0 0 0 0
0 0 0 0
-1652.6439 989.45819 9969.9141 657152
-1559.9838 968.72461 9761.001 722944
-1508.6039 973.01392 9804.2197 657152
-1453.6329 975.23877 9826.6377 460032
-1395.2128 975.23877 9826.6377 393984
-1351.2623 985.79517 9933.0049 459776
-1285.3862 980.58972 9880.5547 327936
-1247.4495 997.22058 10048.13 65792
-1185.6555 995.49365 10030.729 131584
-1148.438 1015.3113 10230.413 263168
-1096.5414 1023.6421 10314.356 394752
-1038.5831 1026.9662 10347.851 394752
-978.28577 1028.2502 10360.788 723713
-920.39984 1032.4116 10402.72 592128
-859.75409 1033.8539 10417.252 460544
-814.414 1055.3539 10633.889 131584
-761.50201 1069.835 10779.802 197376
-703.50928 1079.1835 10873.999 1447437
-645.71393 1090.7574 10990.619 657921
-572.82129 1076.5634 10847.599 1315591
-508.95648 1077.8876 10860.941 2039056
-457.64618 1110.0481 11184.995 1183748
-382.28296 1084.8834 10931.433 1250056
-315.02151 1077.1116 10853.122 789504
-251.13148 1079.8326 10880.54 197376
-189.61375 1098.1815 11065.426 1974034
-125.67417 1114.5479 11230.335 789250
-61.88443 1170.8474 11797.617 1249797
8.3516865 1184.7705 11937.907 1249541
79.560242 1188.3035 11973.507 1775628
150.2626 1184.5095 11935.278 2235920
218.7729 1171.4121 11803.307 1972233
277.96231 1126.8883 11354.679 2038279
343.61658 1120.8525 11293.861 2433036
428.21896 1168.4943 11773.906 1972487
524.38928 1229.8799 12392.437 3880482
605.26013 1244.6793 12541.558 1906694
744.70404 1363.4735 13738.543 2564623
817.70593 1349.1602 13594.32 4998710
895.60583 1344.7762 13550.147 1051906
967.55511 1332.9182 13430.664 2301966
1094.2438 1392.5292 14031.312 4604210
1111.3387 1314.106 13241.109 1709574
1212.6023 1338.9996 13491.941 2894105
1317.1903 1364.2477 13746.345 4736310
1436.536 1400.9377 14116.038 2696472
1501.3315 1383.3156 13938.475 1907211
1539.0433 1343.8875 13541.191 1972234
1533.61 1272.5775 12822.663 1775113
1609.938 1272.6534 12823.429 2235408
1653.3577 1247.8846 12573.854 262144
1694.9369 1223.9297 12332.481 657408
1754.7361 1214.5726 12238.197 132096
1772.9806 1178.3428 11873.142 66048
1867.2003 1193.448 12025.344 66048
1963.3387 1208.6204 12178.222 66048
2038.6129 1210.3263 12195.411 131840
2369.7847 1358.624 13689.68 789504
2540.6426 1408.2158 14189.374 196864
2631.7876 1411.8573 14226.065 460288
2792.9548 1451.6667 14627.19 1512712
2729.9875 1376.0934 13865.703 65536
2574.4949 1259.6783 12692.69 4408880
2806.1289 1333.9175 13440.733 3422238
0 0 0 0
0 0 0 0
3741.8079 1638.7104 16511.867 2896655
4125.7285 1760.657 17740.617 3027732
4285.8091 1783.3812 17969.59 2435087
4459.5527 1810.5471 18243.318 921602
4509.0117 1787.1626 18007.693 526592
4595.3052 1779.1238 17926.691 592128
4051.877 1533.1715 15448.443 2105108
3568.9309 1320.5005 13305.541 2961181
3529.2375 1277.4991 12872.254 3947821
3473.6116 1230.6782 12400.48 1381897
3479.6304 1207.1899 12163.809 592131
3606.6128 1225.7695 12351.02 3749677
3725.1077 1240.7806 12502.274 525568
3864.9189 1262.1658 12717.753 196864
3849.4187 1232.9833 12423.707 1644045
3930.5063 1235.2549 12446.595 328704
4078.8467 1258.1875 12677.667 197376
4322.5742 1309.1779 13191.454 65792
4374.1807 1301.2003 13111.07 986891
4695.1689 1372.2329 13826.805 10132368
4916.3027 1412.139 14228.904 0
5211.1318 1471.5052 14827.086 5132610
5534.9253 1536.9393 15486.408 6580314
5731.6621 1565.5282 15774.473 7172189
5773.9448 1551.6885 15635.023 8751220
5803.2124 1534.8452 15465.309 10461328
5911.2725 1539.0414 15507.59 6513495
6095.5181 1562.6398 15745.369 131072
6163.8853 1556.2668 15681.155 131072
5878.6621 1462.1392 14732.712 525568
5995.7837 1469.3771 14805.643 65536
6063.9707 1464.5867 14757.374 657408
6141.1914 1462.0837 14732.153 262912
6536.2471 1534.2566 15459.377 1447440
7109.2422 1645.6168 16581.457 5724235
6738.1689 1538.3906 15501.032 131072
6512.1992 1466.7395 14779.065 4670776
5739.4595 1275.4868 12851.978 0
5059.811 1109.6753 11181.238 788224
4983.771 1078.8257 10870.394 656384
4811.7769 1028.2607 10360.895 1709064
4627.4087 976.36334 9837.9688 853760
4608.2251 960.17957 9674.8994 1247745
4601.1421 946.88513 9540.9424 1248002
4692.1021 953.84528 9611.0742 1642244
4746.9756 953.39038 9606.4902 918528
4817.7983 956.11139 9633.9072 458752
4854.0957 951.99725 9592.4531 458752
4935.3765 956.69855 9639.8242 655616
4977.4961 953.78778 9610.4951 393216
5071.6689 960.80438 9681.1953 524544
5134.043 961.70691 9690.2891 393216
5181.6274 959.84991 9671.5771 524544
5147.2378 943.01526 9501.9492 853761
5203.3008 942.93787 9501.1699 919296
5266.8984 944.21283 9514.0166 1379588
5390.9087 956.17621 9634.5605 1050624
5468.542 959.74847 9670.5557 1182466
5483.6255 952.38293 9596.3398 1248256
5540.6685 952.38165 9596.3262 985346
5575.5166 948.604 9558.2627 854018
5607.9385 944.49408 9516.8506 1379843
5646.1919 941.4386 9486.0625 656384
5711.4399 942.89996 9500.7881 393216
5719.3164 934.95416 9420.7246 787712
6011.9346 973.25861 9806.6855 1182208
6198.9165 993.89032 10014.573 1050624
6273.1704 996.22742 10038.122 1247488
6133.8882 964.92877 9722.7529 655360
6260.1685 975.6004 9830.2822 984320
5884.6118 908.59064 9155.082 1115648
5733.2036 877.10059 8837.7842 852736
5655.1099 857.29663 8638.2373 1049856
5415.9741 813.65552 8198.5029 1905418
5453.4258 811.97455 8181.5654 1181696
5725.4995 844.94812 8513.8115 786944
5694.4019 832.99481 8393.3691 1115904
5795.5654 840.42883 8468.2744 1050112
5963.147 857.28314 8638.1016 1707522
6188.7656 882.12213 8888.3818 2431243
6072.0435 858.15771 8646.9131 1246976
5883.7876 824.57074 8308.4863 1378304
5817.5474 808.50018 8146.5571 1378560
5752.3169 792.83423 7988.7051 2431497
5579.8237 762.76202 7685.6934 3089171
5860.2246 794.58618 8006.3574 1313024
6070.1738 816.42188 8226.377 983296
6240.0474 832.56158 8389.0029 590080
6375.9219 843.94495 8503.7041 655360
6453.0229 847.43103 8538.8301 655360
6641.5879 865.38623 8719.749 1576448
6558.1494 847.8963 8543.5176 1444864
6479.3418 831.26929 8375.9814 393216
6532.7163 831.72479 8380.5723 721664
6534.7056 825.68079 8319.6719 458752
6520.7695 817.73059 8239.5645 524288
6637.0083 826.10162 8323.9111 1510144
6710.5732 829.07648 8353.8867 1181184
6798.8359 833.81006 8401.583 1181184
6934.3872 844.23193 8506.5947 2497807
6778.6094 819.2915 8255.292 3154966
6464.0728 775.65942 7815.6489 1838849
6497.2539 774.07678 7799.7021 1707264
6648.7319 786.5105 7924.9858 1510144
6693.1611 786.19507 7921.8076 1050369
6761.5645 788.68036 7946.8501 2365452
6978.5034 808.33643 8144.9072 1378560
6908.3027 794.6908 8007.4121 1444352
6956.2607 794.73108 8007.8179 1378560
6978.041 791.80054 7978.2896 918016
7017.1987 790.86798 7968.8931 786688
7018.7524 785.73828 7917.2051 1379328
7005.0874 778.98462 7849.1543 1050368
6843.3369 755.96173 7617.1724 393216
6790.8413 745.23114 7509.0498 393216
6785.874 739.82257 7454.5522 590592
6761.4302 732.37457 7379.5049 787968
6748.2178 726.2312 7317.604 525056
6716.7524 718.21484 7236.8301 393216
6760.9346 718.33795 7238.0703 393216
6764.2163 714.1413 7195.7847 393472
6785.7314 711.91046 7173.3062 393472
6862.0835 715.4245 7208.7144 393472
6889.0073 713.7738 7192.0811 393472
6844.7192 704.81055 7101.7661 196864
6857.8901 701.83759 7071.8105 197120
0 0 0 0
0 0 0 0
0 0 0 0
0 0 0 0
-6111.9551 712.0105 6768.8364 1844262
-5965.0996 699.50818 6649.9814 2633522
-5911.9644 697.90265 6634.7183 922130
-6004.3311 713.56732 6783.6367 1776926
-6129.4829 733.36646 6971.8604 2171428
-6096.9238 734.43732 6982.0405 2501163
-6065.5483 735.66632 6993.7241 1777440
-5978.6772 730.13501 6941.1401 3027508
-5928.2905 729.01343 6930.4775 3027764
-6136.0869 759.8476 7223.6069 0
-6077.9521 757.95331 7205.5991 198148
-5969.1602 749.67017 7126.8535 526345
-5823.2544 736.57404 7002.3535 1446933
-5795.1494 738.29706 7018.7339 1644314
-5833.0039 748.50928 7115.8174 986897
-5837.376 754.54266 7173.1748 197379
-5996.2178 780.77863 7422.5913 986895
-6028.0381 790.74139 7517.3032 1118739
-5836.2339 771.29932 7332.4746 1447704
-5621.1992 748.47144 7115.458 789775
-5533.7104 742.40918 7057.8262 1315862
-5567.7456 752.68262 7155.4922 5658719
-5617.4136 765.24384 7274.9072 1514016
-5556.0903 762.7627 7251.3198 4277325
-5660.7173 783.20319 7445.6406 5726053
-5661.3652 789.46613 7505.1807 6844533
-5573.3604 783.36804 7447.208 8163216
-5663.2603 802.37805 7627.9292 6057840
-5473.6641 781.77588 7432.0718 1911340
-5560.9741 800.70941 7612.0664 2239275
-5567.2915 808.19611 7683.2393 3293251
-5316.6001 778.18823 7397.9653 3490372
-5145.9087 759.48706 7220.1797 6187371
-5148.9033 766.32135 7285.1509 1318176
-5642.1255 846.85205 8050.728 1055003
-5509.3306 833.99512 7928.5015 2699571
-4963.3062 757.8222 7204.3525 263429
-4740.6367 730.12451 6941.04 259
-4847.2598 753.10138 7159.4731 3291709
-4851.417 760.42456 7229.0923 593425
-4859.0776 768.43268 7305.2227 988181
-4783.3657 763.28156 7256.2524 396818
-4861.0215 782.73212 7441.1626 1317406
-4989.625 810.81915 7708.1758 5331552
-5170.9053 848.06628 8062.2715 8160907
-5059.5801 837.57184 7962.5044 7305857
-4984.8525 832.99481 7918.9927 4541779
-5061.3965 853.84998 8117.2549 3425610
-5025.4951 855.95441 8137.2617 6846591
-4921.9795 846.4718 8047.1138 2833213
-4629.4756 803.9823 7643.1802 3227971
-4889.1567 857.49652 8151.9214 7900046
-4713.0366 834.88306 7936.9434 9019043
-4607.4507 824.43323 7837.6006 8163992
-4554.1611 823.22314 7826.0967 8559007
-4717.5259 861.55548 8190.5083 5072494
-4773.0244 880.78235 8373.292 6518912
-4571.085 852.4079 8103.5459 5399147
-4432.8193 835.42926 7942.1357 6188663
-4339.7124 826.68744 7859.0303 9149861
-4388.7568 845.12897 8034.3477 8295833
-4436.8418 863.78961 8211.748 7436931
-4350.7681 856.45612 8142.0308 8556695
-4325.9829 861.15814 8186.7314 10467001
-4284.8984 862.68549 8201.251 8953507
-4126.2144 840.29895 7988.4307 7176839
-4171.1904 859.34937 8169.5356 10071475
-4208.228 877.19366 8339.1758 9413544
-4185.4951 882.85602 8393.0049 8755615
-4188.873 894.22906 8501.125 8558236
-4119.4473 890.14813 8462.3291 9545386
-4085.5129 893.73022 8496.3828 9545385
-3991.2649 884.04297 8404.2891 4216153
-4037.4026 905.59875 8609.2129 8295062
-3956.9766 898.9552 8546.0547 9874865
-3807.8809 876.33533 8331.0156 7638158
-3905.4585 910.63611 8657.1016 8755612
-3827.1086 904.28418 8596.7158 6320757
-3836.1819 918.69653 8733.7295 8820890
-3699.9214 898.22211 8539.0859 7372676
-3718.6387 915.32513 8701.6777 2766908
-3623.4775 904.48444 8598.6191 8886428
-3607.5127 913.38525 8683.2363 3357761
-3516.4724 903.26019 8586.9814 7634817
-3488.0317 909.15356 8643.0068 6845297
-3503.5481 926.85162 8811.2568 264966
-3358.6936 902.01752 8575.167 256
-3366.0154 917.91656 8726.3135 2171677
-3266.0063 904.58575 8599.583 2040093
-3254.5723 915.75391 8705.7549 1250576
-3209.5334 917.67474 8724.0146 0
-3118.6057 906.32251 8616.0928 65792
-3110.1382 918.95557 8736.1914 197633
-3193.4873 959.60773 9122.6572 256
-3145.9294 961.64886 9142.0615 591878
-3140.5454 976.88 9286.8594 65792
-3170.9385 1003.9841 9544.5283 2302749
-2929.7368 944.5166 8979.1914 5199438
-2877.1321 944.77185 8981.6182 1645592
-2686.4895 898.85181 8545.0723 3158315
0 0 0 0
0 0 0 0
0 0 0 0
-1559.5474 564.49518 5366.4595 512
-1488.6461 550.08496 5229.4663 256
-1457.7592 550.16138 5230.1934 256
-1521.7537 586.83014 5578.7905 512
-1422.9235 560.94427 5332.7021 512
-1349.1733 543.99084 5171.5322 512
-1305.847 538.79987 5122.1831 512
-1270.1898 536.60083 5101.2778 512
-1230.7316 532.64911 5063.7104 0
-1200.5491 532.61444 5063.3804 256
-1144.8536 520.9682 4952.6641 256
-1131.0112 528.25519 5021.9385 256
-1084.9 520.45709 4947.8047 256
-1044.5455 515.06293 4896.5244 512
-1000.4797 507.47699 4824.4077 512
0 0 0 0
0 0 0 0
0 0 0 0
0 0 0 0
0 0 0 0
-1636.9735 1002.8201 9533.4619 196608
-1606.7936 1019.6346 9693.3125 328192
-1496.7576 985.14044 9365.3877 722945
-1484.3969 1014.7527 9646.9014 196608
-1456.5671 1035.7455 9846.4727 920582
-1395.1888 1033.6414 9826.4697 197120
-1347.0005 1041.5522 9901.6758 328960
-1290.6335 1043.5734 9920.8896 263168
-1228.5432 1040.9385 9895.8408 65792
-1176.2491 1046.7563 9951.1494 131584
-1129.6228 1058.5016 10062.807 328960
-1084.6222 1073.1688 10202.243 263168
-1025.7129 1074.9966 10219.619 197376
-964.7326 1074.7473 10217.25 460544
-913.1145 1085.5953 10320.378 328960
-853.69659 1088.0651 10343.856 131584
-801.95306 1101.4587 10471.186 394752
-740.08148 1102.0255 10476.573 0
-676.76379 1100.3452 10460.6 197376
-619.75781 1109.6254 10548.823 328960
-555.88977 1107.326 10526.965 986885
-497.38681 1116.4865 10614.049 591873
-437.56122 1124.9084 10694.114 789507
-377.03122 1134.0752 10781.259 1315850
-320.01129 1159.7174 11025.03 197376
-251.1395 1144.5552 10880.888 394752
-186.56879 1145.2747 10887.729 1315851
-125.38435 1178.589 11204.437 592129
-61.915031 1241.5991 11803.451 788994
8.1021309 1218.2197 11581.191 854528
77.028999 1219.416 11592.564 1380357
144.78192 1209.674 11499.95 2366992
216.25067 1227.2698 11667.227 1709060
279.54489 1201.1932 11419.327 2498573
340.58102 1177.5006 11194.09 3880226
415.28256 1201.0767 11418.219 2498573
505.12479 1255.6655 11937.176 3222553
603.81653 1316.0935 12511.645 2498317
694.20105 1347.1458 12806.847 2893588
790.36932 1382.1742 13139.851 2893077
906.58624 1442.8081 13716.275 1182978
929.70856 1357.5037 12905.315 1841160
1027.6024 1386.0591 13176.782 1709576
1081.7203 1355.7052 12888.219 2038540
1134.8959 1328.2643 12627.347 1840648
1256.1852 1379.0015 13109.688 1249027
1453.9658 1502.8751 14287.312 2828057
1404.9844 1372.0897 13043.979 2433299
1482.5314 1372.089 13043.974 2301713
1512.5012 1330.2444 12646.171 1446150
1573.8063 1318.6169 12535.634 1709320
1632.7626 1306.1619 12417.228 723204
1659.5786 1270.1855 12075.213 393984
1680.262 1232.6934 11718.787 66048
1758.2351 1238.5427 11774.396 66048
1840.8844 1247.1119 11855.86 66048
1920.173 1252.8566 11910.473 66048
2028.5725 1276.5111 12135.348 66048
2172.2532 1319.9796 12548.588 256
2257.8845 1326.4589 12610.184 657666
2612.7441 1485.6045 14123.126 3091742
2638.7834 1453.6945 13819.769 1117954
2591.7925 1384.6941 13163.806 0
2528.446 1311.2568 12465.663 3421728
2688.1763 1354.3954 12875.767 1711365
3102.8037 1520.0155 14450.259 2435080
3266.2983 1556.9998 14801.856 3028237
3515.0459 1631.6165 15511.211 3686166
3772.0566 1706.1556 16219.829 3620117
4001.2771 1764.7223 16776.602 3027473
4399.4189 1893.1289 17997.32 592384
4343.8091 1824.8192 17347.922 526336
4158.2812 1706.3652 16221.821 2171662
3826.7009 1534.7067 14589.923 2434578
3438.7446 1348.549 12820.187 3421474
3481.9707 1335.8915 12699.856 3487270
3452.3813 1296.4279 12324.689 1381642
3469.0591 1275.6178 12126.854 1052680
3637.0828 1310.1737 12455.366 3025699
3765.3606 1329.3187 12637.372 196864
3926.3645 1359.0424 12919.943 131072
4011.0242 1361.7072 12945.277 1380873
4021.8635 1339.6821 12735.893 657408
4111.144 1344.1169 12778.053 460032
4270.2402 1370.8025 13031.743 196608
4193.667 1322.2322 12570.002 328704
4426.9961 1371.3618 13037.061 3881261
4862.3115 1480.2942 14072.643 591616
4884.0352 1461.756 13896.407 2171160
5560.5776 1636.5571 15558.181 10132109
4642.0088 1343.8556 12775.568 7171427
4827.1313 1374.9515 13071.187 9671815
5515.73 1546.1993 14699.18 9803402
5656.3628 1560.8922 14838.861 3223591
5828.3179 1583.6449 15055.162 526080
6231.7085 1667.6428 15853.701 131072
5958.2573 1570.7094 14932.188 2039573
5986.8872 1555.0872 14783.674 592128
6052.4668 1549.3759 14729.378 3686200
6413.1323 1618.2892 15384.514 4211517
8037.2788 1999.6086 19009.584 7567719
7259.7681 1781.1254 16932.541 986632
7230.6401 1749.717 16633.953 1579280
7570.8936 1807.3357 17181.713 4541248
0 0 0 0
0 0 0 0
4959.7368 1137.9369 10817.972 1182210
4786.7773 1084.1949 10307.064 985345
4784.6621 1070.0184 10172.293 1050880
4661.8857 1029.5483 9787.5586 919040
4614.3784 1006.4941 9568.3896 853504
4707.0391 1014.2024 9641.6699 984832
4765.0156 1014.342 9642.9971 590080
4885.5938 1027.646 9769.4736 1182208
4938.9189 1026.6576 9760.0771 458752
5039.5537 1035.4122 9843.3037 458752
5265.8091 1069.4791 10167.167 1248000
5400.7437 1084.4362 10309.358 787456
5346.4502 1061.4882 10091.199 393216
5370.7583 1054.4818 10024.593 787456
5366.4033 1042.0635 9906.5352 393216
5297.376 1017.4927 9672.9502 393216
5376.147 1021.5331 9711.3613 458752
5400.4351 1015.2455 9651.5859 458752
5494.1196 1021.9987 9715.7871 721664
5516.0098 1015.3955 9653.0127 1576965
5549.8374 1011.1031 9612.2061 1248002
5593.8394 1008.733 9589.6738 984832
5629.0938 1004.8491 9552.751 1313794
5726.4863 1012.0244 9620.9639 590592
5637.6313 986.46814 9378.0098 393216
5836.9175 1011.3375 9614.4346 984832
6006.0371 1030.5483 9797.0654 1182208
6086.0342 1034.2449 9832.207 1577221
6182.3716 1040.6216 9892.8281 2037517
6273.3159 1045.9789 9943.7578 1182726
6180.7886 1020.9307 9705.6328 1050624
5994.9858 981.08118 9326.7979 1050624
6024.6055 976.89301 9286.9824 1182208
5709.5327 917.39636 8721.3682 1642244
5348.9072 851.71716 8096.979 2629138
5501.9746 868.27631 8254.4014 1379073
5706.6875 892.62097 8485.8379 1905671
5862.981 909.03168 8641.8486 1247745
5925.6162 910.76221 8658.2998 590080
6008.1558 915.49567 8703.2998 655872
6114.3784 923.72638 8781.5459 1971718
6132.7471 918.65753 8733.3584 1642241
5924.4771 880.0094 8365.9434 1181953
5663.6851 834.26819 7931.0977 787200
5590.0742 816.62659 7763.3857 2036229
5678.9297 822.8136 7822.2026 1444353
6011.8735 863.97845 8213.543 1049856
6088.332 867.91699 8250.9854 655360
6238.0195 882.14813 8386.2764 590336
6450.333 904.9397 8602.9473 2170132
6635.8174 923.63831 8780.709 393216
6677.9199 922.24353 8767.4492 458752
6697.4995 917.784 8725.0537 1116160
6678.2954 908.11914 8633.1729 1445122
6680.8115 901.53259 8570.5576 1181696
6674.4229 893.85339 8497.5537 984320
6657.6582 884.91028 8412.5352 1181696
6682.9385 881.6474 8381.5156 1312768
6623.9707 867.40057 8246.0762 1246976
6646.8169 863.99786 8213.7275 1707265
6664.7993 860.01715 8175.8843 1378816
6715.4448 860.27838 8178.3677 2628624
6588.751 837.9812 7966.396 1247490
6560.2183 828.39758 7875.2886 1181184
6512.4458 816.5376 7762.5396 1773316
6534.0303 813.47931 7733.4653 1115649
6771.8296 837.19421 7958.9146 1707522
6718.4595 824.83276 7841.3989 1707522
6818.2876 831.32043 7903.0747 1575936
6840.7778 828.35443 7874.8779 1378560
6989.2285 840.5777 7991.0801 1838848
6945.3027 829.65546 7887.2466 1181696
6901.5981 818.90588 7785.0542 1379072
6790.2935 800.33209 7608.479 1379328
6739.6406 789.10529 7501.75 1116160
6693.0474 778.49835 7400.9131 393216
6669.1758 770.65552 7326.3545 458752
6658.3594 764.41339 7267.0122 458752
6679.8784 761.93988 7243.498 327680
6682.4644 757.35248 7199.8867 393472
6688.9956 753.2677 7161.0547 393472
6711.3506 751.00531 7139.5469 393216
6747.2334 750.27551 7132.6089 393472
6766.4033 747.70807 7108.2007 393472
6810.0054 747.85565 7109.6035 393472
6791.5444 741.22772 7046.5947 393728
6814.1445 739.13507 7026.7002 393728
0 0 0 0
0 0 0 0
0 0 0 0
0 0 0 0
-5889.8594 724.91663 6522.8711 329479
-5966.0601 739.16199 6651.0522 514
-6022.6045 751.14587 6758.8843 856337
-5889.6777 739.50098 6654.1025 2633004
-5821.123 735.83575 6621.1226 1712159
-5913.0781 752.54846 6771.5049 5594456
-6059.9771 776.53076 6987.3003 7436918
-5798.3496 748.13397 6731.7832 1777949
