# .PCD v0.7 - Point Cloud Data file format
VERSION 0.7
FIELDS x y z rgb
SIZE 4 4 4 4
TYPE F F F U
COUNT 1 1 1 1
WIDTH 1408
HEIGHT 1
VIEWPOINT 0 0 0 1 0 0 0
POINTS 1408
DATA ascii
1116.7416 3079.8948 12425.354 4077868
1176.6008 3043.6521 12279.138 2367508
1275.2375 3106.0933 12531.048 1709833
1372.079 3157.5107 12738.483 3288867
1389.8215 3031.0435 12228.271 2894365
1469.4802 3045.4692 12286.469 1249541
1567.7646 3095.3015 12487.51 1314819
1724.6989 3251.1877 13116.407 2433304
1827.3168 3295.6257 13295.687 1446149
1964.0294 3395.3203 13697.889 1117443
1959.4303 3252.5098 13121.741 1314821
1966.3339 3138.9976 12663.794 657152
2039.8064 3136.207 12652.536 1249030
2050.8833 3041.0933 12268.814 196608
2066.6611 2959.2441 11938.607 328448
2129.6646 2948.2075 11894.081 131328
2165.0498 2900.8748 11703.125 66048
2247.4692 2917.5471 11770.387 66048
2354.1865 2963.8025 11956.997 66048
2442.0972 2984.3635 12039.948 256
2732.8486 3244.5764 13089.736 65792
2807.7563 3241.2151 13076.176 131584
3181.3359 3573.5264 14416.833 3026208
3198.0806 3498.092 14112.505 526592
3113.8777 3318.9199 13389.662 256
3007.686 3125.8271 12610.661 4802873
3082.0857 3125.2471 12608.321 724224
3547.9236 3512.1904 14169.383 1711620
3795.7344 3670.3606 14807.494 2303757
4043.7229 3821.5276 15417.354 2632974
4415.7383 4080.6082 16462.574 1975046
4498.127 4066.6101 16406.102 2238215
4934.5742 4366.5063 17615.986 2172425
4726.7812 4095.7087 16523.496 2040325
4566.4521 3876.2285 15638.036 2171143
4153.9883 3455.7517 13941.69 2039305
3826.5137 3121.0476 12591.379 2301968
3707.8179 2966.208 11966.702 2368534
3707.4285 2910.0603 11740.183 1579021
3808.1128 2933.8569 11836.187 657922
3895.0752 2946.4099 11886.83 1447695
3808.3342 2829.4607 11415.016 920840
4207.3091 3071.1582 12390.106 196608
4370.7432 3135.5613 12649.931 131072
4493.4663 3169.074 12785.133 460033
4509.812 3127.6958 12618.199 525568
4554.21 3106.8083 12533.932 196608
4697.4033 3152.9053 12719.902 196864
4720.9312 3118.4939 12581.075 328192
4795.6372 3118.4355 12580.841 460544
4877.0874 3122.697 12598.033 460544
5012.5552 3160.8933 12752.129 263168
5142.7729 3194.6897 12888.476 0
5213.6875 3191.1953 12874.379 723712
5449.585 3287.324 13262.194 394752
5541.291 3294.9714 13293.047 197120
5926.1187 3474.2495 14016.316 460291
6083.5015 3517.0627 14189.04 197121
6439.2319 3671.8079 14813.333 196608
6282.395 3534.042 14257.539 262144
6143.3979 3409.8459 13756.489 131072
6212.7129 3403.0161 13728.936 131328
5966.9189 3226.0005 13014.794 196864
5893.4414 3145.4873 12689.976 657408
5878.1509 3097.6721 12497.073 854785
5847.3667 3042.9878 12276.458 394240
5542.5815 2848.8191 11493.114 196608
5458.8989 2771.6389 11181.743 262144
5434.3589 2725.9832 10997.553 458752
5386.1968 2669.7046 10770.505 393216
5291.7266 2592.0649 10457.28 393216
5199.5156 2517.3225 10155.743 393216
5202.1001 2489.6636 10044.158 393216
5144.9165 2434.3528 9821.0156 393216
5275.5112 2468.1353 9957.3047 853760
5182.7192 2397.8167 9673.6152 459264
5173.4209 2367.2461 9550.2842 393216
5298.3901 2398.1106 9674.8018 393216
5471.2515 2449.7559 9883.1562 458752
5610.0293 2485.2048 10026.17 458752
5698.2446 2497.7451 10076.762 458752
5744.5591 2491.8486 10052.974 458752
5823.3257 2500.0061 10085.883 458752
5813.4194 2470.3169 9966.1064 393216
5894.4028 2479.459 10002.989 393216
5942.2349 2474.6128 9983.4385 393216
5823.3149 2401.1067 9686.8887 393216
5885.0605 2402.8035 9693.7344 393216
5872.1494 2374.2815 9578.667 393216
5882.6313 2355.675 9503.6025 393216
5916.3936 2346.6565 9467.2188 393216
5968 2344.8191 9459.8057 656640
6079.4072 2366.292 9546.4346 393472
6085.2368 2346.6538 9467.207 459008
6170.7339 2357.8162 9512.2402 327680
6195.7944 2345.8928 9464.1377 524800
6295.6392 2362.2449 9530.1074 524544
6386.8965 2375.1118 9582.0166 590592
6549.8057 2414.1606 9739.5537 787712
6698.1289 2447.1965 9872.8311 393216
6862.3394 2485.4119 10027.006 393216
6565.8379 2357.5454 9511.1475 459264
6423.8682 2286.875 9226.0391 393216
6470.8491 2284.0977 9214.834 524288
6379.1968 2232.842 9008.0518 393216
6374.0864 2212.4795 8925.9023 590336
6398.187 2202.5088 8885.6768 1248001
6385.9067 2180.2798 8795.998 919040
6418.792 2173.7078 8769.4834 459008
6319.3711 2122.7971 8564.0928 458752
6291.9746 2096.7012 8458.8125 458752
6400.0898 2115.8184 8535.9375 458752
6304.9307 2067.9624 8342.8701 327680
6342.7295 2064.1221 8327.3779 393216
6286.4824 2029.9728 8189.6074 393216
6264.4795 2007.3217 8098.2246 655872
6233.8145 1982.2612 7997.1226 458752
6287.269 1984.1266 8004.6484 458752
6310.9985 1976.6537 7974.5 1313792
6690.7778 2079.9785 8391.3477 458752
6894.5405 2127.46 8582.9043 590336
7007.6558 2146.478 8659.6299 458752
7208.3555 2191.8508 8842.6797 458752
7195.6816 2172.1555 8763.2217 458752
7318.1562 2193.2476 8848.3135 524544
7268.564 2162.8376 8725.6299 1050624
7314.8218 2161.1782 8718.9355 1248260
7178.8823 2106.0903 8496.6914 525312
7335.6973 2137.0583 8621.627 1116417
7381.0103 2135.3389 8614.6904 787456
7484.4399 2150.3403 8675.2119 787456
7517.1914 2144.9695 8653.543 655872
7531.3906 2134.4136 8610.957 589824
7584.3213 2134.9026 8612.9307 458752
7600.7959 2125.1921 8573.7549 458752
7600.1055 2110.8435 8515.8672 458752
7551.2539 2083.3972 8405.1396 458752
7534.0361 2064.9819 8330.8467 458752
7323.1724 1994.0781 8044.7959 590080
7151.3511 1934.6566 7805.0688 919296
7303.9521 1963.2014 7920.2285 327680
7379.0186 1970.6738 7950.375 919552
7106.8311 1885.9023 7608.3779 1511681
7113.7529 1875.8002 7567.6221 327680
7182.811 1882.1067 7593.0649 393216
7080.4761 1843.705 7438.1387 393472
7097.7017 1836.7195 7409.957 393472
7095.5132 1824.8269 7361.9785 327936
6791.415 1735.911 7003.2612 262400
0 0 0 0
0 0 0 0
-7927.0083 2199.2888 8664.8633 256
-8329.79 2326.1538 9164.6924 256
-8289.332 2330.0967 9180.2266 0
-8324.7529 2355.5623 9280.5576 0
-8379.1094 2386.7617 9403.4785 0
-8394.8779 2407.3147 9484.4541 256
-8438.8535 2436.2891 9598.6084 256
-8575.4834 2492.5894 9820.4229 1118992
-9083.0488 2658.2183 10472.976 2237987
-8878.9482 2616.4216 10308.304 1580571
-8458.9004 2509.9675 9888.8906 257
-8819.0713 2635.1541 10382.106 7634558
-9100.9424 2738.5442 10789.447 6582897
-10010.208 3033.5295 11951.646 7702405
-10355.006 3160.4519 12451.699 7439233
-9874.1016 3035.3743 11958.913 7175292
-9992.8242 3094.1497 12190.479 2701109
-10266.47 3202.104 12615.802 4148554
-10281.908 3230.52 12727.757 6977398
-10021.822 3172.147 12497.776 4147785
-10448.898 3332.0298 13127.691 8161670
-10027.543 3221.7288 12693.121 8293774
0 0 0 0
-9478.5479 3091.8789 12181.532 9740703
0 0 0 0
0 0 0 0
0 0 0 0
0 0 0 0
0 0 0 0
-9796.3037 3349.0601 13194.787 7966872
-9621.4326 3315.8284 13063.86 7571344
-9272.8203 3221.6921 12692.978 7438730
0 0 0 0
0 0 0 0
0 0 0 0
0 0 0 0
0 0 0 0
0 0 0 0
0 0 0 0
-5296.9155 1968.4822 7755.52 1711400
-5320.4497 1994.5902 7858.3823 2435380
-5291.2607 2001.2203 7884.5034 1974319
-5249.0581 2003.0027 7891.5264 2
-5063.374 1949.5723 7681.0186 657934
-5000.769 1942.9901 7655.0859 723728
-4930.3989 1933.2426 7616.6816 1710365
-4860.6353 1923.554 7578.5103 526350
-4750.4595 1897.5419 7476.0269 196866
-4739.1187 1910.8903 7528.6172 1118744
0 0 0 0
0 0 0 0
0 0 0 0
0 0 0 0
0 0 0 0
0 0 0 0
0 0 0 0
0 0 0 0
-7781.4204 3429.0671 13510.003 10467261
-7749.9985 3450.8389 13595.781 10532799
-7802.0537 3510.6318 13831.355 10269881
-7858.9751 3573.9109 14080.666 10664382
-8803.7686 4046.6643 15943.242 10598587
0 0 0 0
0 0 0 0
0 0 0 0
0 0 0 0
0 0 0 0
0 0 0 0
0 0 0 0
0 0 0 0
0 0 0 0
-7795.0254 4015.2927 15819.644 8230554
-7436.5327 3877.4121 15276.415 7507088
-7648.6636 4037.3237 15906.441 6388092
-7666.2021 4097.2383 16142.497 6782079
-8222.8447 4450.4517 17534.102 7241856
-8387.7471 4597.9907 18115.385 9215131
0 0 0 0
0 0 0 0
0 0 0 0
0 0 0 0
0 0 0 0
0 0 0 0
-4201.5 2530.6267 9970.2842 263937
-3993.7827 2439.9377 9612.9834 329985
-3720.7983 2306.1631 9085.9316 526852
-3431.0247 2157.8872 8501.748 724229
-3406.2827 2174.3577 8566.6387 131584
-3308.9365 2144.2783 8448.1309 920581
-3326.6667 2188.9937 8624.3027 131072
-3261.3096 2179.5808 8587.2168 393984
-3213.6895 2181.9106 8596.3965 263168
-3198.0552 2206.3835 8692.8154 723712
-3203.3892 2246.364 8850.333 131584
-3168.5769 2259.0574 8900.3428 131584
-3137.0684 2274.5771 8961.4883 526336
-3096.0095 2283.5891 8996.9941 328960
-3016.8723 2264.3379 8921.1475 65792
-2944.0559 2249.2266 8861.6113 526336
-2892.7817 2250.3228 8865.9297 723713
-2828.6074 2241.238 8830.1377 657924
0 0 0 0
0 0 0 0
0 0 0 0
-1450.3286 1241.3132 4890.5854 0
-1419.5356 1239.8127 4884.6738 65792
-1386.7979 1236.5155 4871.6831 65792
-1355.6682 1234.5421 4863.9082 394752
-1338.9734 1245.9144 4908.7134 263168
-1296.6708 1233.4342 4859.5435 197888
-1295.8181 1260.7125 4967.0156 132096
-1297.5775 1291.8635 5089.7461 512
-1264.0123 1288.4933 5076.4678 256
-1229.4418 1283.9083 5058.4038 256
-1196.1254 1280.436 5044.7231 256
-1163.9282 1278.014 5035.1812 65792
-1133.8751 1277.8806 5034.6553 65792
-1091.1288 1263.0465 4976.2114 262912
-1070.0854 1273.2085 5016.248 920579
-1036.5913 1268.7142 4998.541 1052678
-1012.1562 1275.3694 5024.7612 65792
-985.96326 1280.1471 5043.585 256
-940.98706 1260.0719 4964.4917 256
-912.09601 1260.9336 4967.8867 256
-878.47131 1255.09 4944.8638 256
-834.13623 1233.0098 4857.8706 256
-786.94568 1204.9733 4747.4116 131840
-840.00952 1334.0713 5256.0381 920837
0 0 0 0
0 0 0 0
0 0 0 0
0 0 0 0
-1292.2874 2521.3162 9933.6016 723714
-1270.3861 2597.2786 10232.883 328960
-1227.0793 2634.9182 10381.178 592128
-1168.1156 2641.1436 10405.704 592128
-1079.4158 2577.0713 10153.269 526080
-1013.57 2563.2039 10098.634 656896
-949.6554 2552.7815 10057.57 328192
-927.78204 2661.5637 10486.156 722945
-885.55249 2723.4148 10729.84 788738
-807.79523 2677.1252 10547.467 328192
-763.32758 2742.6553 10805.645 591360
-703.54706 2760.1531 10874.583 393984
-622.81885 2690.6938 10600.925 986116
-564.99298 2715.6768 10699.354 1051908
-498.08276 2697.7947 10628.9 1117444
-434.90762 2697.8855 10629.259 921346
-378.35226 2746.0537 10819.034 526336
-316.34085 2766.2429 10898.576 263169
-251.98306 2771.03 10917.437 1118473
-187.39201 2775.6831 10935.77 1118471
-125.30716 2842.1245 11197.539 1052681
-59.56591 2882.2473 11355.616 197376
8.1932878 2972.575 11711.493 460544
75.107353 2868.9849 11303.364 921092
140.79105 2838.4238 11182.958 920835
207.20804 2837.5093 11179.355 1446920
273.79034 2838.7529 11184.255 920578
359.78354 3001.4436 11825.231 1052163
435.38235 3038.4072 11970.863 854529
497.35922 2983.2773 11753.659 1775371
554.84949 2918.1333 11497.002 1183235
605.15509 2833.6367 11164.098 1183235
674.3324 2845.4758 11210.742 2301199
765.21301 2938.5291 11577.357 3288094
858.65668 3025.2539 11919.041 3682850
930.50415 3028.4688 11931.706 2695956
998.64258 3020.0112 11898.385 1840648
1121.2888 3166.6064 12475.948 2432787
1156.2587 3062.7693 12066.845 2366994
1266.7463 3159.4141 12447.61 985344
1366.5176 3220.1372 12686.851 2104337
1390.7098 3105.7258 12236.087 1841164
1432.2717 3039.5498 11975.364 854272
1553.7245 3141.1562 12375.678 1380617
1749.5081 3377.0547 13305.082 2104594
1844.6759 3406.7285 13421.993 1973264
1873.9583 3317.3103 13069.698 525825
1924.5917 3271.3032 12888.438 722434
1926.8589 3149.7566 12409.562 525824
2025.9093 3189.5486 12566.336 591616
1989.5532 3020.9099 11901.926 855044
2048.5671 3003.6902 11834.083 196864
2053.616 2911.1155 11469.353 66048
2134.9109 2929.1006 11540.211 512
2215.8811 2945.5334 11604.954 512
2297.1611 2961.3738 11667.362 512
2394.9197 2996.906 11807.354 65792
2500.0244 3039.3459 11974.561 65792
2732.9551 3230.5342 12727.813 65536
2940.2976 3381.9888 13324.521 197120
3092.4675 3463.7007 13646.455 1118723
3007.3049 3282.208 12931.4 131840
2979.9341 3171.2651 12494.303 3882282
3024.6577 3140.5762 12373.393 3882539
3216.478 3260.4521 12845.686 2895640
3398.4634 3365.0295 13257.705 2040845
3706.6917 3587.0339 14132.369 2895897
4468.8584 4228.7451 16660.613 3619875
4493.5093 4159.8711 16389.26 2304015
4460.0962 4041.3086 15922.142 3225114
4248.4951 3769.5725 14851.543 2369548
4183.9087 3636.6882 14327.998 3618590
3855.9233 3284.7256 12941.319 2631441
3882.4153 3242.5938 12775.326 2433807
3671.0635 3007.2427 11848.079 2565399
3718.4023 2988.677 11774.933 2039317
3715.4714 2931.1392 11548.243 658179
3899.0308 3020.1423 11898.901 1513488
3839.0005 2920.6543 11506.934 1052683
4196.9014 3137.0386 12359.455 65536
4360.7866 3203.4519 12621.114 328448
4408.084 3183.4219 12542.197 131072
4433.0449 3148.1948 12403.409 196864
4514.8271 3153.813 12425.544 196608
4686.749 3221.2034 12691.052 196608
4673.4541 3161.1755 12454.552 196608
4780.5464 3183.1814 12541.251 393984
4829.2354 3166.22 12474.426 196608
4949.5918 3196.0491 12591.947 196608
5029.9551 3199.5493 12605.738 328448
5157.5854 3232.5725 12735.844 65792
5280.9976 3262.0342 12851.919 1382157
5494.5645 3345.5491 13180.954 1447440
6232.1621 3741.3025 14740.163 3750449
6567.8413 3888.146 15318.704 4737087
6395.8853 3734.5642 14713.615 131072
6237.8506 3593.146 14156.448 131072
5975.4722 3396.1882 13380.465 3618610
6173.3647 3462.5664 13641.984 1776146
5837.4058 3231.6746 12732.306 131328
5990.4927 3273.9712 12898.949 196864
5766.7095 3111.8325 12260.146 262144
5672.1436 3022.5989 11908.58 196608
5511.251 2900.6567 11428.146 788480
5609.6406 2916.4868 11490.515 722944
5606.7256 2879.9011 11346.372 1182720
5541.5034 2812.561 11081.063 722176
5559.6523 2788.6211 10986.743 1116928
5455.125 2704.4192 10655.001 722176
5461.1934 2676.3501 10544.412 853760
5347.1528 2590.7244 10207.06 459008
5339.3613 2557.9209 10077.819 393216
5370.8647 2544.4617 10024.792 393216
5393.8384 2527.3008 9957.1807 524800
5489.8467 2544.3621 10024.399 458752
5637.29 2584.6392 10183.085 458752
5679.585 2576.363 10150.479 458752
5712.0518 2563.8496 10101.178 458752
5748.2837 2553.269 10059.492 458752
5770.3252 2536.6682 9994.0869 393216
5803.7891 2525.3757 9949.5967 458752
5867.6455 2527.4023 9957.5811 458752
5900.9976 2516.3806 9914.1572 458752
5918.1738 2498.7471 9844.6836 393216
5954.3872 2489.4177 9807.9277 458752
5925.2739 2453.2227 9665.3242 393216
5969.6372 2447.8518 9644.1641 393216
5857.6978 2379.1011 9373.2959 393216
6015.0337 2419.9812 9534.3574 1248514
6097.8721 2430.4058 9575.4297 393472
6186.6338 2442.9768 9624.957 327680
6268.166 2452.4888 9662.4326 459008
6332.7583 2455.26 9673.3516 459008
6372.4199 2448.4031 9646.3359 524544
6456.7891 2458.6924 9686.874 393216
6575.9736 2481.9397 9778.4648 787712
6737.2388 2520.5229 9930.4775 393216
6877.2427 2550.5508 10048.782 393216
7304.7051 2685.7524 10581.456 458752
6883.272 2509.1934 9885.8398 458752
6764.7876 2445.124 9633.417 524288
6841.8613 2452.2217 9661.3799 787712
6830.8198 2427.8818 9565.4854 984832
6858.4058 2417.5603 9524.8193 1050624
6532.2368 2283.7314 8997.5547 984832
6561.3477 2275.2771 8964.2461 853248
6507.6104 2238.4609 8819.1963 589824
6463.2139 2205.4209 8689.0234 393216
6493.3398 2198.1323 8660.3066 393216
6610.5024 2220.1902 8747.2119 1576962
6584.877 2194.3215 8645.293 590336
6423.2998 2123.9004 8367.8447 590336
6413.7988 2104.4602 8291.2529 787456
6408.8271 2086.791 8221.6396 327680
6473.793 2091.9897 8242.1211 1116416
6444.0542 2066.7363 8142.627 1247744
6500.0991 2069.1675 8152.2051 984832
6997.0728 2210.8835 8710.5449 655872
7169.2725 2248.6519 8859.3467 393216
7343.8921 2286.6226 9008.9453 458752
7485.374 2313.8003 9116.0215 393216
7548.542 2316.554 9126.8701 393216
7460.2871 2273.1299 8955.7861 1182208
7392.9243 2236.6421 8812.0293 788226
7287.0894 2189.1101 8624.7617 1247745
7292.1245 2175.3164 8570.416 853249
7442.4585 2204.7576 8686.4092 1116416
7547.2031 2220.3804 8747.9609 787456
7559.1157 2208.665 8701.8047 853504
7605.6538 2207.1575 8695.8652 655616
7846.9312 2261.802 8911.1562 524544
7788.3706 2229.8677 8785.3398 458752
7829.7905 2226.7937 8773.2285 458752
7726.6709 2182.9248 8600.3916 458752
7663.6035 2150.8743 8474.1172 458752
7563.8389 2109.0098 8309.1777 458752
7509.1807 2080.1841 8195.6084 458752
7440.8076 2047.9551 8068.6318 393216
7454.2427 2038.5112 8031.4243 458752
7204.2207 1957.5985 7712.6401 656128
7106.6714 1918.8784 7560.0894 393216
7216.8735 1936.3876 7629.0728 393216
7117.0283 1897.6718 7476.5381 393472
7108.3174 1883.5852 7421.0391 393472
7194.3525 1894.6238 7464.5298 393472
6842.9688 1791.0396 7056.4233 262400
0 0 0 0
0 0 0 0
-8029.9741 2280.0381 8777.4121 256
-8244.7402 2356.3318 9071.1182 256
-8237 2369.6191 9122.2705 0
-8277.6699 2397.1016 9228.0693 256
-8355.7178 2435.8474 9377.2275 256
-8376.7539 2458.3816 9463.9775 256
-8549.7471 2526.1184 9724.7422 256
-9240.6084 2748.8291 10582.106 66050
-9013.958 2699.7874 10393.312 2172454
-8778.2354 2647.333 10191.379 66567
-8451.3145 2566.4543 9880.0225 66055
-8864.333 2710.7178 10435.39 2237733
-9229.4287 2842.2566 10941.771 1975074
-10020.484 3107.7705 11963.915 3555391
-9937.5732 3104.0894 11949.744 2240045
-9723.6475 3059.1375 11776.693 923671
-9756.7637 3091.8179 11902.503 660756
-9903.5059 3161.2463 12169.779 463121
-9752.96 3136.1023 12072.983 1646882
-9935.9619 3218.6343 12390.704 1450016
-9457.6318 3086.5684 11882.294 1710876
-9355.2012 3076.1157 11842.054 2040616
-9242.9062 3062.2361 11788.622 527376
0 0 0 0
0 0 0 0
0 0 0 0
0 0 0 0
0 0 0 0
0 0 0 0
0 0 0 0
0 0 0 0
0 0 0 0
0 0 0 0
0 0 0 0
-6912.0083 2519.2183 9698.1787 7046540
0 0 0 0
-5510.8677 2042.6221 7863.437 6124668
-5459.9731 2041.0723 7857.4707 6255228
-5236.6519 1974.4822 7601.1206 5004390
-5214.4375 1983.2203 7634.7598 5202283
-5268.9956 2021.5674 7782.3833 7834258
-5224.4565 2022.2363 7784.9585 4872803
-5176.4722 2021.5717 7782.3994 7505293
-5100.626 2009.9159 7737.5288 7175814
-5106.7891 2030.6582 7817.3794 6057586
-4966.3892 1992.967 7672.2808 7966870
-4879.312 1976.1735 7607.6309 1383969
-4832.6069 1975.5696 7605.3062 4345684
-4763.1255 1965.5553 7566.7549 4018008
-4702.6221 1959.0906 7541.8672 10006194
-4699.8027 1976.7637 7609.9028 9085864
-4743.0664 2014.3512 7754.6025 9611950
-4752.5239 2038.1783 7846.3296 9414572
-4736.0835 2051.2615 7896.6958 6124407
-4684.4009 2049.1895 7888.7192 5400429
0 0 0 0
0 0 0 0
-6753.1294 3045.6309 11724.697 9085606
-7248.5698 3303.1667 12716.128 9611437
-7095.7085 3267.5872 12579.158 9809074
-6319.8032 2941.2805 11322.982 9874868
0 0 0 0
0 0 0 0
0 0 0 0
0 0 0 0
0 0 0 0
0 0 0 0
0 0 0 0
0 0 0 0
0 0 0 0
0 0 0 0
0 0 0 0
0 0 0 0
0 0 0 0
0 0 0 0
0 0 0 0
0 0 0 0
0 0 0 0
0 0 0 0
0 0 0 0
0 0 0 0
0 0 0 0
0 0 0 0
0 0 0 0
-3603.7034 2253.1931 8674.0674 5663842
-3665.0195 2324.7981 8949.7236 5532253
-3427.4187 2206.1101 8492.8125 3425592
-3374.4753 2204.5078 8486.6445 1515799
-3338.5603 2214.1499 8523.7637 526854
-3333.1807 2244.6528 8641.1904 921614
-3321.3418 2271.6929 8745.2852 197632
-3203.325 2225.8152 8568.6719 1184519
-3207.0732 2264.4304 8717.3281 789765
-3162.2915 2269.4856 8736.7881 3026724
-3081.8828 2248.7139 8656.8242 256
-3058.4119 2269.4873 8736.7949 592386
-3048.4597 2301.1833 8858.8145 657921
-3025.3445 2323.8828 8946.2002 0
-2935.2668 2295.0378 8835.1562 263168
-2811.9524 2238.6809 8618.2002 328960
-2822.1758 2288.5188 8810.0596 526336
0 0 0 0
0 0 0 0
0 0 0 0
0 0 0 0
-1412.3275 1262.4097 4859.8701 0
-1386.165 1264.9008 4869.4604 65536
-1352.0122 1260.0513 4850.7915 460289
-1339.614 1275.7072 4911.0615 0
-1323.2318 1288.1824 4959.0869 131585
-1299.9337 1294.3398 4982.7915 256
-1290.5686 1314.9811 5062.2534 256
-1267.131 1321.9269 5088.9927 256
-1233.2567 1318.0583 5074.1001 256
-1199.278 1313.8812 5058.0195 256
-1173.5034 1318.7086 5076.6035 65792
-1147.7114 1323.7709 5096.0913 256
-1138.5898 1348.8564 5192.6626 789251
-1059.802 1290.5087 4968.0425 1183748
-1042.387 1305.6907 5026.4883 526338
-1010.3242 1302.8796 5015.667 65792
-976.15173 1297.0942 4993.395 256
-938.92621 1286.762 4953.6191 256
-910.07239 1287.6051 4956.8647 256
-874.07306 1278.0565 4920.106 256
-824.91321 1247.9376 4804.1577 256
-783.60236 1227.9579 4727.2422 526849
0 0 0 0
0 0 0 0
0 0 0 0
0 0 0 0
-1429.7202 2730.0312 10509.741 921093
-1332.7212 2661.1084 10244.41 657921
-1292.1262 2703.6025 10407.999 328960
-1226.5552 2695.4836 10376.743 592131
-1161.6984 2688.1572 10348.539 460544
-1059.7567 2589.3987 9968.3506 263168
-1005.6551 2602.7566 10019.774 131584
-949.41644 2611.9172 10055.04 65792
-908.07648 2666.0505 10263.436 197376
-856.41583 2695.4993 10376.804 263168
-803.57654 2725.5222 10492.383 328960
-741.87018 2727.9929 10501.894 197632
-686.68604 2757.1047 10613.965 723972
-615.74194 2722.4277 10480.47 328960
-543.84827 2675.2715 10298.933 657922
-479.44693 2657.6819 10231.219 329216
-429.98355 2729.8164 10508.913 0
-373.83279 2776.8037 10689.8 1512977
-314.04047 2810.449 10819.323 526337
-245.76108 2765.9099 10647.862 1118474
-185.6114 2813.7051 10831.857 1184266
-120.82753 2804.7114 10797.235 526337
-58.297615 2886.9502 11113.828 328960
7.7122231 2863.5791 11023.857 263168
72.201958 2822.6033 10866.113 0
137.79349 2843.0596 10944.863 1710865
205.65891 2882.261 11095.775 460033
270.50455 2870.3784 11050.032 393728
340.0423 2903.1995 11176.383 722948
407.85623 2912.9792 11214.031 591360
486.91858 2989.0615 11506.924 1183236
535.06067 2879.9705 11086.959 1577992
592.73944 2840.5103 10935.05 1184002
665.32239 2873.2151 11060.952 2498578
748.88867 2943.2012 11330.377 2103818
818.86938 2952.6504 11366.753 2827541
902.90668 3007.4795 11577.827 1511683
961.21692 2974.9175 11452.474 2301199
1038.4613 3001.3872 11554.374 1775371
1171.1467 3174.8677 12222.217 1709577
1253.6068 3199.8772 12318.495 985856
1292.049 3115.9697 11995.479 2301716
1393.3962 3184.6101 12259.723 788480
1415.8024 3074.9746 11837.662 1117442
1557.0941 3221.7026 12402.518 722688
1694.2932 3347.0776 12885.171 788481
1821.4376 3442.6021 13252.909 788480
1867.3876 3383.1072 13023.872 393728
1865.036 3244.3259 12489.61 327936
1910.7111 3196.5186 12305.566 854272
1913.3032 3082.8193 11867.861 394240
1952.9519 3034.7913 11682.969 196864
1996.8226 2996.3979 11535.167 131328
2020.4934 2931.249 11284.364 256
2090.9683 2936.0063 11302.679 512
2167.9319 2949.2954 11353.837 512
2235.0068 2948.7351 11351.68 512
2326.9709 2980.0823 11472.356 256
2421.3967 3012.7073 11597.952 65792
2621.3101 3171.1396 12207.865 329216
2589.917 3048.7498 11736.704 788992
2737.8672 3138.3594 12081.673 1776651
2887.4319 3225.1909 12415.945 855553
2936.2515 3197.9688 12311.149 2895129
2967.9341 3153.8599 12141.345 921600
3158.0488 3276.2058 12612.337 724224
3299.938 3344.0066 12873.349 395520
3397.7114 3365.0427 12954.33 263680
3754.8782 3636.3516 13998.782 790016
4082.1929 3867.6113 14889.058 593152
4295.4922 3983.3257 15334.521 1250308
4156.6069 3774.4272 14530.328 1316356
3901.1904 3470.3723 13359.815 1184000
3769.3638 3286.1992 12650.808 2236684
3704.7708 3166.7002 12190.775 1776135
3631.0173 3044.1077 11718.834 2236691
3705.8125 3048.3242 11735.065 2171158
3834.623 3095.9954 11918.584 921351
3960.7917 3139.8423 12087.382 1579023
3836.9539 2987.4705 11500.799 1250062
4182.8086 3199.7363 12317.953 65536
4359.75 3277.707 12618.115 131072
4356.7407 3220.0388 12396.111 196608
4448.2437 3232.9805 12445.934 196608
4491.4004 3210.936 12361.069 196608
4612.9478 3244.741 12491.208 196608
4629.2925 3204.6479 12336.862 196608
4688.3398 3194.9055 12299.357 591360
4765.5615 3197.6572 12309.95 196608
4955.417 3274.7593 12606.768 196608
4997.6826 3253.4829 12524.86 196608
5102.0464 3272.6628 12598.698 196608
5182.6333 3276.2578 12612.537 262144
5316.127 3312.7188 12752.899 131072
5432.0889 3337.3831 12847.85 196608
5460.9111 3308.5686 12736.923 131072
5911.3936 3532.5168 13599.051 196608
6018.6064 3548.0596 13658.886 196608
5802.5947 3375.179 12993.352 196608
5673.585 3256.7827 12537.564 196608
5756.4517 3261.5022 12555.732 196608
5639.0503 3154.0847 12142.21 262144
5658.3789 3124.8938 12029.834 262144
5641.6338 3076.7576 11844.525 196608
5758.8247 3101.9519 11941.516 196608
5586.1011 2972.2742 11442.298 393216
5646.2603 2968.1392 11426.379 393216
5524.0713 2869.3843 11046.205 393216
5536.1479 2841.8728 10940.295 458752
5510.8857 2796.0559 10763.914 393216
5514.793 2765.9204 10647.902 393216
5521.1699 2737.6934 10539.237 262144
5521.1538 2706.9656 10420.945 328192
5540.2939 2686.2075 10341.033 1446923
5530.7417 2652.146 10209.908 262144
5623.7153 2667.4548 10268.842 458752
5588.6621 2622.3608 10095.244 393216
5562.9668 2582.5696 9942.0605 524544
5560.1997 2554.147 9832.6426 393216
5601.7388 2546.4568 9803.0381 393216
5799.5264 2609.2217 10044.663 393216
5811.833 2588.1091 9963.3867 393216
5871.2163 2588.1753 9963.6416 393216
5913.6489 2580.8425 9935.4121 393216
5912.6851 2554.9028 9835.5527 393216
5949.6992 2545.7209 9800.2061 393216
5945.1787 2519.1182 9697.793 393216
5933.3696 2489.9673 9585.5723 393216
5902.541 2453.4658 9445.0527 393216
5951.0718 2450.3279 9432.9727 787968
6032.5645 2460.6938 9472.8779 393472
6173.6865 2494.9658 9604.8145 393216
6274.981 2512.6614 9672.9375 393216
6391.4795 2536.0691 9763.0488 393216
6455.5288 2538.4312 9772.1426 393216
6518.4419 2540.3083 9779.3691 393216
6638.4478 2564.2053 9871.3643 524544
6755.5059 2586.5547 9957.4023 393216
6869.8999 2607.5049 10038.054 393216
8365.0137 3147.6396 12117.399 458752
7907.9395 2950.2417 11357.48 458752
7010.5234 2593.2971 9983.3584 524288
6995.2812 2565.9351 9878.0234 721408
6958.2036 2531.0864 9743.8672 721664
6879.9619 2481.9624 9554.7559 458752
6983.0327 2498.5168 9618.4844 655872
7020.6973 2491.5898 9591.8184 393216
6866.812 2417.3428 9305.9912 459008
6794.959 2372.9299 9135.0156 1182976
6939.1733 2404.0779 9254.9248 262144
6929.1909 2381.7344 9168.9102 722176
6807.8901 2321.7756 8938.0879 787200
6757.3101 2286.6772 8802.9707 1116160
6609.8496 2219.5862 8544.6914 721920
6573.6284 2190.5876 8433.0566 1182209
6660.1582 2202.624 8479.3926 721664
6637.4824 2178.6345 8387.041 1050624
6642.8862 2164.1509 8331.2832 1116416
6889.1978 2227.7847 8576.2529 1182209
7235.5889 2322.6089 8941.2959 655872
7372.6787 2349.3547 9044.2588 459008
7757.1406 2453.9692 9446.9912 1445378
7605.0571 2388.5642 9195.2021 590080
7756.707 2418.8069 9311.627 458752
7719.5264 2390.1545 9201.3242 458752
7593.7363 2334.6626 8987.6992 721664
7449.8564 2274.4236 8755.7979 2366480
7526.4653 2281.8679 8784.457 1313796
7558.6138 2275.8235 8761.1875 919040
7693.8789 2300.6965 8856.9404 590336
7677.5674 2280.2134 8778.0869 1774087
7865.0317 2320.1194 8931.7119 787456
7957.478 2331.6484 8976.0947 458752
7972.2275 2320.4094 8932.8281 393216
7927.979 2292.2605 8824.4639 327680
7813.8242 2244.4021 8640.2256 787712
7759.6958 2214.2981 8524.334 787712
7662.084 2172.2571 8362.4893 327680
7562.0776 2130.0833 8200.1338 262144
7465.918 2089.5264 8044.0034 327680
7279.8438 2024.4812 7793.6006 393216
7152.0703 1976.3693 7608.3848 393216
7352.5122 2018.9894 7772.459 393216
7246.8154 1977.5371 7612.8804 196864
7364.8931 1997.2847 7688.9023 262400
7344.7983 1979.5491 7620.626 262400
7005.2056 1876.4484 7223.7212 262400
0 0 0 0
0 0 0 0
0 0 0 0
-7830.4443 2289.1455 8615.2969 0
-8180.4995 2407.2258 9059.6973 256
-8185.8296 2424.7593 9125.6846 256
-8239.0801 2456.8154 9246.3301 256
-8328.9863 2500.3066 9410.0107 256
-8443.8838 2551.9387 9604.3301 256
-8414.2627 2560.2996 9635.7969 256
-8570.793 2625.8057 9882.332 2
-8436.4932 2602.5007 9794.6221 258
-8671.8643 2693.7004 10137.856 461324
-8813.6865 2756.915 10375.768 8030857
-9145.1934 2880.772 10841.908 5663079
-10066.618 3193.5325 12018.996 7702407
-10071.084 3217.7896 12110.289 5135965
-9549.0889 3072.9763 11565.277 68363
-9370.5352 3037.3865 11431.334 68364
-9456.9229 3087.7827 11621.002 771
-8985.166 2955.3396 11122.547 1911080
-8664.0879 2870.8606 10804.606 3687751
-8719.3701 2910.7581 10954.763 1582376
-8719.3135 2932.6438 11037.13 1580831
-8942.5791 3030.5432 11405.578 3295307
0 0 0 0
0 0 0 0
-5750.73 1994.2236 7505.3462 7044997
-5897.5386 2061.126 7757.1353 7572112
-6096.9219 2147.6018 8082.5908 6979719
-5910.6499 2098.5278 7897.8994 8296091
-6548.0479 2343.4473 8819.6631 7177612
-7054.6919 2545.1475 9578.7715 7966100
0 0 0 0
0 0 0 0
-6563.4414 2426.6831 9132.9258 7768723
-6351.8896 2368.0564 8912.2812 8031637
-6267.4883 2356.2454 8867.8301 4478047
-5865.0449 2223.6526 8368.8115 7570061
-5634.9526 2154.6943 8109.2842 5794677
-5309.0015 2047.5754 7706.1377 4084059
-5369.7954 2089.05 7862.2285 5597299
-5279.7324 2072.0481 7798.2417 4544353
-5075.6514 2009.6022 7563.2236 2766139
-4715.8018 1883.8154 7089.8198 7966870
-4993.3364 2012.6709 7574.7729 7769749
-4907.6147 1996.1211 7512.4868 7439747
-4868.2842 1998.3098 7520.7241 5863029
-4850.8027 2009.5906 7563.1802 4478038
-4719.8823 1973.6473 7427.9062 3818316
-4785.7847 2020.1051 7602.7515 6451835
-4730.7246 2015.903 7586.937 8690591
-4734.9082 2037.1084 7666.7446 8953764
-5008.9204 2175.9436 8189.2563 8953765
-4877.5415 2139.668 8052.7319 9612208
-4757.6294 2107.7534 7932.6201 6652550
-4725.7607 2114.5957 7958.3711 6716033
-4384.8901 1981.9117 7459.0093 9874610
-5068.1655 2314.1462 8709.3877 9874867
0 0 0 0
0 0 0 0
0 0 0 0
0 0 0 0
0 0 0 0
-4222.3262 2053.8281 7729.6694 8887974
-4129.1157 2030.5883 7642.2061 9282732
0 0 0 0
-4087.1802 2055.1931 7734.8071 9348525
-4211.8315 2141.9717 8061.4023 9348782
-4136.4028 2127.824 8008.1558 8295838
-4225.5933 2199.0146 8276.0859 8493473
-4263.8608 2245.0708 8449.4199 9085353
0 0 0 0
0 0 0 0
0 0 0 0
0 0 0 0
0 0 0 0
0 0 0 0
-3806.4895 2184.3889 8221.041 5991532
0 0 0 0
-3540.0481 2085.0325 7847.1084 1648936
-3867.5957 2308.373 8687.6611 4808025
0 0 0 0
0 0 0 0
0 0 0 0
0 0 0 0
-3526.7449 2255.5422 8488.8291 4280652
-3441.3721 2232.894 8403.5918 6451307
-3432.7888 2260.1365 8506.1201 6451562
-3377.9294 2257.2698 8495.3311 9083281
-3244.8542 2201.2561 8284.5215 658956
-3330.4614 2294.1523 8634.1406 2764843
-3229.2129 2259.2288 8502.7041 395012
-3171.4736 2254.1187 8483.4717 2698535
-3136.3247 2265.1589 8525.0225 131585
-3200.0435 2349.1399 8841.0889 7174000
-3130.8389 2336.7183 8794.3389 2041636
-3022.7427 2294.3542 8634.9004 1843740
-2895.2278 2235.5327 8413.5225 1053452
-2901.605 2279.8445 8580.292 1447438
-2974.656 2379.0662 8953.7178 65792
-2880.6057 2345.825 8828.6123 65792
-2834.3909 2351.0276 8848.1924 65792
-2629.0295 2221.9241 8362.3057 789256
-2535.4165 2184.1082 8219.9844 1907738
0 0 0 0
0 0 0 0
0 0 0 0
-1392.2275 1299.5089 4890.7573 256
-1352.7877 1289.6289 4853.5737 256
-1283.8656 1250.6001 4706.6865 5198161
0 0 0 0
0 0 0 0
0 0 0 0
-1279.1897 1365.0497 5137.4229 256
-1247.0548 1363.3087 5130.8706 256
-1214.7245 1361.2616 5123.166 256
-1182.0656 1358.7314 5113.6436 65792
-1149.6085 1356.3059 5104.5151 65792
-1123.7417 1361.7346 5124.9463 131584
-1111.8324 1384.8508 5211.9453 131584
-1057.4557 1354.8806 5099.1509 65792
-1018.928 1344.0472 5058.3794 65792
-985.07904 1338.9143 5039.0615 256
-938.75244 1315.9681 4952.7021 256
-925.80878 1339.8481 5042.5757 256
-872.79413 1305.3942 4912.9067 256
-823.20306 1273.8523 4794.1978 256
0 0 0 0
0 0 0 0
0 0 0 0
0 0 0 0
-1318.1174 2466.7307 9283.6465 592128
-1305.5828 2550.0488 9597.2178 263168
-1252.5387 2558.2441 9628.0605 394752
-1216.3619 2603.3242 9797.7217 65792
-1178.3485 2648.8103 9968.9111 394752
-1136.2118 2689.3545 10121.501 131584
-1052.9685 2631.6958 9904.499 65536
-989.6156 2619.8628 9859.9658 65536
-937.22333 2637.3835 9925.9053 65536
-880.51215 2644.2886 9951.8926 131328
-827.18958 2663.0979 10022.683 197376
-772.28296 2679.3318 10083.779 131584
-716.76953 2696.0156 10146.57 65792
-654.72424 2688.9395 10119.938 263168
-591.30298 2674.2083 10064.497 131584
-535.75793 2695.791 10145.725 131584
-474.11264 2688.2615 10117.387 65792
-418.54565 2718.0156 10229.368 65792
-359.42297 2730.8706 10277.748 65792
-308.68051 2825.7051 10634.662 460545
-240.97919 2774.1633 10440.682 394752
-182.58969 2831.2463 10655.517 986888
-118.40062 2811.2781 10580.365 526336
-55.730366 2822.981 10624.409 921094
7.5465984 2866.2129 10787.114 0
72.316177 2891.7708 10883.303 65792
132.78885 2802.5049 10547.347 1513229
198.65082 2847.762 10717.674 921094
266.23068 2889.6829 10875.445 65536
331.48184 2894.8845 10895.021 460032
397.83109 2906.4075 10938.389 985857
459.84677 2887.4817 10867.16 1512200
523.47571 2882.1001 10846.907 1314820
587.48993 2879.7878 10838.205 1643783
643.9892 2844.7368 10706.289 2564371
717.42688 2884.084 10854.373 1971977
793.91132 2928.1746 11020.31 1774855
878.93939 2994.6516 11270.499 1248514
953.62537 3018.9705 11362.024 1709064
1014.2106 2998.3848 11284.549 1314820
1092.1052 3028.3521 11397.332 854272
1196.7399 3124.6345 11759.695 920064
1260.9231 3110.5015 11706.505 920064
1311.9242 3067.0293 11542.896 1644044
1416.0692 3145.9436 11839.894 722688
1543.5677 3266.8096 12294.777 1051649
1616.6428 3266.772 12294.636 327936
1712.5961 3310.9683 12460.971 920065
1768.6771 3277.6106 12335.428 788480
1779.8479 3166.9973 11919.13 656640
1833.585 3137.6956 11808.851 460032
1874.9375 3090.1431 11629.886 920576
1925.3447 3060.3657 11517.817 131072
1938.7697 2975.8687 11199.809 65792
1997.6559 2964.4456 11156.817 65792
2064.8345 2965.6667 11161.414 512
2127.385 2960.3716 11141.485 512
2192.9453 2959.4583 11138.048 512
2274.1189 2979.051 11211.786 512
2387.2112 3038.1509 11434.211 65792
2455.8291 3038.9434 11437.193 66048
2572.1541 3097.1375 11656.209 131072
2564.3115 3006.6899 11315.806 2039054
2743.3081 3134.3379 11796.215 657408
2867.8635 3194.9712 12024.411 788992
2997.3032 3257.9648 12261.49 788736
3159.1157 3352.3193 12616.597 66048
3248.4561 3367.1765 12672.513 131840
3310.8428 3354.0549 12623.13 66048
3407.8206 3375.781 12704.896 66048
3474.0249 3366.7415 12670.875 66304
3520.8105 3339.6663 12568.977 197632
3584.9067 3329.7949 12531.825 512
3619.8945 3293.8386 12396.503 393728
3714.7681 3312.7224 12467.572 2301190
3678.5737 3216.271 12104.573 1511168
3689.3005 3163.7576 11906.938 2235920
3765.3079 3168.1497 11923.467 2368280
3836.8242 3168.6702 11925.426 855558
3944.2229 3198.2678 12036.817 1776659
3891.4204 3099.2224 11664.056 1381647
4243.6099 3320.5437 12497.008 65536
4301.5884 3307.9949 12449.78 196608
4385.9473 3315.8149 12479.212 196608
4433.0542 3295.6804 12403.435 196608
4538.8423 3319.1167 12491.638 196608
4562.5156 3282.7168 12354.645 196608
4665.0293 3303.2974 12432.1 196608
4670.2949 3255.4482 12252.019 262400
4728.6738 3245.5232 12214.665 196608
5017.1797 3391.457 12763.894 196608
5005.5273 3333.168 12544.52 196608
5041.5063 3307.8418 12449.204 196608
5111.2563 3305.0864 12438.833 196608
5519.5112 3518.1746 13240.8 196608
5313.1387 3339.011 12566.511 196608
5745.207 3560.4773 13400.009 196608
5826.0596 3561.2034 13402.741 196608
5729.9766 3455.2168 13003.856 196608
5789.0972 3444.3953 12963.128 196608
5487.4165 3222.0085 12126.166 262144
5530.5542 3205.2285 12063.014 262144
5524.9595 3160.9968 11896.547 262144
5517.4995 3116.8293 11730.32 196608
5676.8179 3166.8015 11918.394 327680
5769.7686 3178.9756 11964.21 327680
5746.957 3127.8474 11771.787 393216
5545.2671 2981.7644 11221.998 393216
5621.0728 2986.5942 11240.175 393216
5597.5122 2939.1353 11061.561 262144
5605.4316 2909.116 10948.582 393984
5616.3477 2881.323 10843.982 1643788
5719.2539 2900.8188 10917.355 657414
5662.0742 2839.592 10686.926 131072
5669.7788 2811.9036 10582.719 393216
5545.7339 2720.199 10237.585 393216
5900.04 2862.5708 10773.407 458752
5743.2729 2756.5864 10374.53 458752
5798.7144 2753.6248 10363.385 458752
5697.6763 2677.2 10075.756 458752
5677.6431 2640.0315 9935.8711 458752
5887.9102 2709.6121 10197.741 393216
5869.7397 2673.7197 10062.658 458752
5897.6558 2659.332 10008.51 458752
5906.6265 2636.7747 9923.6143 458752
5939.1318 2625.0654 9879.5459 458752
5879.5952 2573.302 9684.7324 393216
5880.8188 2548.8774 9592.8086 393216
5882.8179 2525.2549 9503.9043 393216
5950.4028 2529.9673 9521.6396 393216
5981.1484 2519.075 9480.6465 393216
6141.1499 2562.3169 9643.3887 327680
6204.3047 2564.7241 9652.4492 393216
6138.8765 2514.4211 9463.1318 393216
6394.4927 2595.3345 9767.6523 393216
7750.2192 3117.2749 11731.997 393216
8344.0664 3326.1963 12518.282 327680
6538.8486 2583.5393 9723.2607 656128
6666.7773 2611.0027 9826.6201 459008
6856.3213 2661.9102 10018.213 458752
8647.0342 3328.228 12525.929 590336
8186.2749 3123.9795 11757.229 458752
7053.7295 2668.9976 10044.887 458752
7352.4307 2758.665 10382.354 524288
7232.1338 2690.9387 10127.463 458752
7040.9736 2598.1814 9778.3662 458752
7209.5669 2638.6082 9930.5146 458752
7039.6733 2555.5027 9617.7441 458752
7028.1255 2530.7551 9524.6055 393216
7160.1484 2557.6882 9625.9688 655872
7315.3735 2592.4167 9756.6709 919296
7200.0962 2531.4924 9527.3799 1708807
6985.0645 2436.7202 9170.7002 984832
6960.4346 2409.3223 9067.5879 1248000
6891.314 2367.064 8908.5469 1182208
6763.0918 2305.3044 8676.1123 1313792
6720.478 2273.4399 8556.1885 853248
6786.2354 2278.4392 8575.0029 919040
6852.8384 2283.6455 8594.5977 1379586
6847.522 2264.9858 8524.3711 1248001
6922.8076 2273.0657 8554.7803 1379585
7472.8804 2435.7844 9167.1787 787712
7839.2886 2536.7151 9547.0352 984832
7855.4243 2523.6643 9497.9189 1116416
7961.3862 2539.4519 9557.3359 1313536
7934.5527 2512.9585 9457.626 393216
7914.9941 2489.1255 9367.9297 393216
7735.5684 2415.7012 9091.5947 1116416
7761.6152 2407.0168 9058.9102 853248
7808.0747 2404.7388 9050.3369 1248001
7795.1885 2384.3398 8973.5645 984832
7938.3013 2411.6096 9076.1953 1708296
8477.3711 2557.9883 9627.0977 787456
8500.166 2547.6663 9588.251 656128
8601.1924 2560.7729 9637.5781 393216
8497.9707 2513.2996 9458.9102 459008
8280.7764 2432.9639 9156.5635 459008
8305.4014 2424.262 9123.8135 656128
7867.2871 2281.4807 8586.4502 854016
7757.8091 2235.229 8412.3799 590848
7495.8569 2145.9199 8076.2607 393984
7580.0957 2156.2241 8115.042 393472
7370.3936 2083.3132 7840.6377 393216
7463.7808 2096.4512 7890.083 393216
7382.5679 2060.6887 7755.4902 393472
7433.9937 2062.1643 7761.0435 327936
7368.0669 2031.269 7644.7681 327936
7012.4893 1921.3898 7231.2319 262400
0 0 0 0
0 0 0 0
0 0 0 0
-7699.3223 2301.1746 8471.0322 0
-8113.9438 2441.0635 8985.9893 256
-8096.9868 2452.1069 9026.6416 256
-8110.5625 2472.606 9102.1016 256
-8243.8682 2530.1262 9313.8447 256
-8265.9805 2554.0679 9401.9775 256
-8334.127 2592.656 9544.0273 256
-8422.8984 2638.2336 9711.8066 1
-8469.8936 2671.2642 9833.3984 2
-8565.3584 2720.1472 10013.346 260
-8514.7061 2722.9863 10023.797 2698803
-8413.5967 2709.6157 9974.5771 198152
-8533.2812 2767.6672 10188.275 592397
-9068.4932 2962.2834 10904.691 989724
-9552.9297 3142.9966 11569.93 3885644
-9623.126 3189.0544 11739.476 6122607
-9444.2549 3152.6418 11605.436 5727849
-8782.9697 2953.4712 10872.253 6714489
-8502.5752 2880.3796 10603.189 6057329
-8436.0215 2879.1799 10598.772 7373703
0 0 0 0
0 0 0 0
0 0 0 0
0 0 0 0
-5770.0835 2045.7052 7530.6045 7901079
-5926.8687 2117.7229 7795.7139 6453377
-5983.1997 2154.6995 7931.8315 7045770
-6011.7397 2182.1758 8032.9771 7307915
-6285.8877 2299.9585 8466.5557 9018789
-6653.5444 2454.1328 9034.0986 3821143
0 0 0 0
0 0 0 0
-5799.3174 2192.1406 8069.6587 5992057
-5492.9092 2093.6382 7707.0537 6979463
-5442.5747 2091.9026 7700.665 5992312
-5444.4985 2110.3938 7768.7349 7241866
-5488.6235 2145.6997 7898.7017 3820374
-5495.334 2166.8616 7976.603 6715521
-5583.5483 2220.8098 8175.1958 5860214
-5138.4917 2061.7388 7589.627 5464682
-5179.27 2096.51 7717.626 10597564
-5015.4468 2048.342 7540.311 8163735
-4744.3877 1955.1143 7197.123 4807777
-4658.2407 1937.0839 7130.75 1514272
-4627.1196 1941.8141 7148.1631 4282200
-4878.1685 2066.1453 7605.8477 5202789
-4735.978 2024.688 7453.2363 1580581
-4776.9814 2061.5051 7588.7666 8754589
-4865.4907 2119.7207 7803.0688 6189944
-4724.6357 2078.1697 7650.1118 9874352
-4967.2271 2206.1121 8121.0908 8624543
-4814.9072 2159.4512 7949.3242 10071988
-4668.3208 2114.4622 7783.7109 6584959
-4689.8403 2145.4761 7897.8794 7242632
-4963.0684 2293.4324 8442.5322 6782081
-4985.7969 2327.4727 8567.8408 10071989
-4943.6528 2331.6196 8583.1064 9151144
0 0 0 0
0 0 0 0
0 0 0 0
-4307.1846 2118.9207 7800.1235 8690596
-4237.6387 2107.3965 7757.7012 9874615
-4155.104 2089.0881 7690.3052 9217196
-4126.5269 2097.8032 7722.3862 9677490
-4133.561 2125.0212 7822.5811 9480111
-4102.0737 2132.8301 7851.3267 9809331
-4155.7637 2185.6152 8045.6382 8230043
-4055.8335 2157.8965 7943.6011 7637649
-4072.281 2192.1729 8069.7778 8361628
-4255.6997 2318.2212 8533.7842 9677488
-4232.9614 2333.6553 8590.5996 7637904
-4462.5801 2490.2915 9167.2051 8033176
-4656.7661 2630.7834 9684.3818 8625055
-4725.3013 2702.9197 9949.9277 9546412
-4230.2329 2450.4106 9020.3975 9480618
-3961.9871 2324.4944 8556.877 9020323
-3713.5969 2207.1028 8124.7378 8361881
-3776.8569 2274.2812 8372.0342 8493723
-3890.5571 2374.0332 8739.2383 7966864
-3767.2373 2329.8972 8576.7656 8426902
-3684.7769 2310.1665 8504.1338 10598070
-3764.323 2392.8701 8808.5801 8426901
-3715.2271 2394.979 8816.3438 6913406
-3523.2776 2303.7422 8480.4844 6122349
-3373.1184 2237.5776 8236.9209 8029574
-3478.4316 2341.4294 8619.2178 4213578
-3431.0146 2344.0427 8628.8379 5463901
-3391.1692 2351.9868 8658.0811 6187109
-3268.9402 2302.1567 8474.6484 198147
-3196.814 2286.6038 8417.3955 658442
-3134.4253 2277.6326 8384.3701 263425
-3072.5442 2268.7456 8351.6562 2040092
-3102.0742 2328.1731 8570.4189 4869191
-3239.1858 2471.6758 9098.6777 4277310
-3079.3257 2389.5989 8796.5381 3948599
-2903.03 2291.7112 8436.1963 3356206
-2965.7271 2382.3643 8769.9062 921353
-2931.03 2396.625 8822.4033 460547
-2950.3999 2456.4204 9042.5205 65792
-2890.1482 2450.9143 9022.251 65792
-2891.9666 2498.8318 9198.6445 920839
-2671.042 2352.4241 8659.6914 1315598
0 0 0 0
0 0 0 0
0 0 0 0
-1409.7844 1345.3391 4952.4326 256
-1365.3335 1330.7114 4898.5854 0
-1320.6012 1315.166 4841.3599 3552816
0 0 0 0
0 0 0 0
0 0 0 0
-1280.4211 1396.9357 5142.3682 256
-1249.9148 1397.0088 5142.6377 512
-1218.6736 1396.2439 5139.8218 512
-1189.0269 1397.3132 5143.7583 256
-1157.0272 1395.6011 5137.4556 65536
-1128.6179 1398.2441 5147.1851 65536
-1101.9012 1403.1898 5165.3911 65536
-1064.6743 1394.6515 5133.96 65536
-1031.1689 1390.6281 5119.1489 65536
-1002.7994 1393.4966 5129.7085 256
-969.43945 1389.3927 5114.6016 256
-952.33234 1409.071 5187.041 256
-857.3902 1311.0476 4826.1992 256
-823.7702 1303.2515 4797.5005 256
0 0 0 0
0 0 0 0
0 0 0 0
0 0 0 0
-1244.4342 2380.9465 8764.6875 197376
-1278.8585 2553.74 9400.7705 65792
-1237.0588 2583.1597 9509.0693 131584
-1193.4399 2611.416 9613.0869 131584
-1157.6561 2660.5215 9793.8525 197376
-1099.7463 2661.2852 9796.6641 65536
-1039.5236 2656.2241 9778.0332 65536
-984.6264 2664.9775 9810.2559 65536
-929.19617 2673.2998 9840.8916 65536
-871.07941 2674.4919 9845.2803 65536
-817.0672 2689.366 9900.0342 65536
-763.6507 2708.6621 9971.0674 262912
-705.77289 2714.0503 9990.9014 65536
-648.29456 2722.106 10020.556 65536
-589.88708 2727.4958 10040.397 65536
-534.76532 2751.002 10126.928 65536
-474.76117 2752.1699 10131.227 65536
-415.03366 2755.5132 10143.534 65536
-356.923 2772.5535 10206.262 65536
-297.80975 2787.1902 10260.143 0
-235.47334 2771.4321 10202.135 131328
-177.49628 2813.8489 10358.277 197376
-116.91061 2838.0093 10447.217 0
-54.399673 2817.2307 10370.728 65792
7.4278078 2884.2168 10617.314 65792
70.23439 2871.3645 10570.003 65792
133.22614 2874.6455 10582.081 0
197.33748 2892.2307 10646.815 65792
261.00253 2896.3225 10661.878 328448
329.79523 2944.5972 10839.586 131072
393.70944 2940.6526 10825.064 393728
455.8476 2926.4141 10772.65 1183235
519.42865 2923.8057 10763.049 788224
583.88403 2926.1511 10771.683 1182720
635.84912 2871.6243 10570.96 2038027
706.73914 2904.6877 10692.672 1182721
787.77197 2970.541 10935.089 525056
859.59406 2994.269 11022.437 721920
920.92468 2980.679 10972.409 920065
990.61011 2994.1396 11021.96 1117442
1053.5444 2986.7908 10994.907 788480
1133.8134 3026.5725 11141.352 722688
1225.1626 3089.908 11374.501 656896
1263.0133 3018.75 11112.556 1643786
1357.6919 3083.74 11351.795 985858
1460.3712 3159.8862 11632.104 525312
1568.0673 3239.5115 11925.218 196608
1656.7998 3274.7656 12054.994 591104
1685.3533 3193.0801 11754.295 591104
1746.4689 3177.1353 11695.6 1051649
1802.0635 3152.7524 11605.843 262656
1840.5273 3101.3025 11416.445 1249542
1884.6982 3062.7864 11274.661 131328
1912.1902 3000.7422 11046.266 65792
1971.228 2990.6785 11009.219 512
2034.9479 2988.1367 10999.862 512
2099.644 2987.1423 10996.201 512
2168.5332 2991.9927 11014.057 512
2249.4243 3012.6335 11090.039 512
2317.8074 3015.8235 11101.782 65792
2402.8564 3039.9214 11190.491 65792
2481.1836 3054.4458 11243.958 394240
2534.8757 3038.6772 11185.911 1578763
2631.25 3073.572 11314.365 526080
2794.0737 3182.4119 11715.024 460032
2952.2817 3280.8289 12077.314 460032
3084.1985 3346.0483 12317.399 395008
3175.2061 3364.8904 12386.759 512
3253.8369 3370.0588 12405.785 197632
3356.2795 3399.114 12512.743 512
3428.2556 3396.7229 12503.941 66048
3473.0876 3368.1096 12398.61 131584
3558.6035 3379.3198 12439.877 197120
3610.9133 3359.1824 12365.747 525056
3720.1035 3391.7078 12485.479 1906434
3609.0393 3226.0779 11875.766 919808
3709.0784 3251.886 11970.77 2565140
3813.7329 3280.6924 12076.812 2368537
3851.6821 3252.113 11971.606 921351
3954.7803 3278.5798 12069.035 1447438
3990.4675 3249.2146 11960.938 921095
4180.2759 3344.1731 12310.495 196608
4295.4385 3377.175 12431.982 262144
4353.9175 3365.2488 12388.079 328192
4451.1567 3383.1797 12454.085 262400
4570.6646 3417.1719 12579.217 196608
4528.9072 3331.4438 12263.638 196608
4655.2759 3370.1462 12406.107 131072
4621.7168 3293.6685 12124.579 196608
4858.4976 3409.2388 12550.014 262144
4923.7598 3402.7776 12526.229 262144
4972.5308 3385.2825 12461.826 262144
5053.1157 3389.6416 12477.873 262144
5127.5039 3389.7776 12478.374 196608
5232.1504 3409.6282 12551.447 196608
5272.7695 3387.7827 12471.03 196608
5219.9277 3307.3264 12174.856 196608
5454.7061 3408.8142 12548.45 196608
5464.23 3368.6934 12400.759 196608
5522.4487 3359.2617 12366.04 196608
5451.0874 3272.2913 12045.886 196608
5652.4888 3349.1924 12328.973 196608
5414.9062 3167.3491 11659.575 722688
5564.354 3213.6277 11829.935 262144
5659.2212 3227.6218 11881.449 262144
5732.7695 3229.2622 11887.488 262144
5711.584 3178.1489 11699.331 327680
5756.0391 3164.3511 11648.538 458752
5621.6504 3053.7317 11241.329 262144
5700.8125 3060.3516 11265.698 262657
5672.2251 3009.6462 11079.043 196608
5664.2178 2970.8994 10936.409 262144
5699.9712 2955.7246 10880.548 196608
5738.4741 2942.2996 10831.128 262144
5629.832 2854.564 10508.157 327680
5671.3965 2844.0793 10469.562 327680
5747.2998 2850.8555 10494.506 393216
5807.541 2849.8005 10490.622 393216
5848.3594 2839.3386 10452.11 393216
5862.0483 2816.064 10366.432 393216
5904.1997 2806.804 10332.345 393216
5900.751 2776.2805 10219.981 393216
5917.5625 2755.814 10144.642 459008
5969.7344 2752.0623 10130.83 459008
5938.9336 2710.5164 9977.8926 393216
5955.8604 2691.3596 9907.373 393216
5937.5439 2656.8086 9780.1846 393216
5904.5869 2616.4399 9631.5801 393216
5829.2666 2558.2546 9417.3896 393216
5813.519 2527.0725 9302.6025 393216
5839.8989 2514.6174 9256.7539 393216
5980.2446 2551.0098 9390.7207 524800
6302.5576 2663.6335 9805.3086 393216
6078.7515 2545.5027 9370.4482 393216
6478.4819 2688.2554 9895.9463 393216
6868.7358 2824.5417 10397.641 393216
8478.7451 3455.5068 12720.336 393216
6609.0327 2669.6956 9827.624 590336
6688.2324 2678.0137 9858.2441 458752
8975.915 3562.7966 13115.288 393216
8635.2588 3398.0625 12508.872 458752
8473.1719 3305.8101 12169.274 458752
7710.3247 2982.7173 10979.912 458752
7432.2964 2851.0256 10495.132 458752
7578.9434 2883.0757 10613.114 458752
7526.8003 2839.6001 10453.073 458752
7213.8286 2699.2407 9936.3848 787456
7466.5254 2771.1016 10200.917 524288
7456.4053 2745.0496 10105.016 524544
7637.6191 2789.29 10267.872 458752
7376.1592 2672.4441 9837.7422 721664
7424.1909 2668.6863 9823.9082 721664
7313.9648 2608.5437 9602.5137 1050624
7361.2358 2605.0696 9589.7246 1379329
7132.104 2504.5842 9219.8203 1116416
7124.978 2482.9993 9140.3623 1379329
6962.5615 2408.033 8864.3975 787712
6872.0547 2358.8767 8683.4443 1313793
6845.418 2332.2134 8585.292 1050624
6867.0269 2322.2605 8548.6533 1708294
7192.0083 2414.293 8887.4414 393472
7471.8726 2489.9482 9165.9424 1248001
7794.1831 2578.5508 9492.1035 1116416
7814.3086 2566.626 9448.2061 655872
7910.5078 2579.6794 9496.2588 918784
8011.5811 2594.1265 9549.4404 524288
7935.9595 2551.5593 9392.7432 458752
