# .PCD v0.7 - Point Cloud Data file format
VERSION 0.7
FIELDS x y z rgb
SIZE 4 4 4 4
TYPE F F F U
COUNT 1 1 1 1
WIDTH 1245
HEIGHT 1
VIEWPOINT 0 0 0 1 0 0 0
POINTS 1245
DATA ascii
510.76151 -1218.9795 6549.0903 8895826
515.10474 -1142.2682 6136.9507 6854710
562.52985 -1164.9219 6258.6597 6459956
676.19843 -1313.4344 7056.5586 10013035
744.59021 -1361.7883 7316.3447 9419876
788.08795 -1361.7883 7316.3447 8563802
846.02563 -1385.4349 7443.3887 7116351
885.40576 -1377.8518 7402.6475 6656052
884.31122 -1310.9835 7043.3906 6919994
886.05957 -1254.1858 6738.2397 7973198
929.61847 -1258.9232 6763.6919 6196023
973.12909 -1263.205 6786.6963 6788165
1015.8624 -1266.1771 6802.6641 6787143
1056.3062 -1266.1771 6802.6641 7181912
1056.4441 -1219.6449 6552.665 7181914
1069.0496 -1190.304 6395.0283 9747838
1107.0698 -1190.304 6395.0283 8630357
1145.0901 -1190.304 6395.0283 8235848
1215.5631 -1222.9542 6570.4448 10010979
1295.4354 -1262.7332 6784.1611 10997636
1349.0083 -1275.2484 6851.4009 10668674
1387.7461 -1273.4172 6841.5625 9353583
1473.2921 -1313.4189 7056.4761 9091180
1483.8629 -1286.2172 6910.3315 10340232
1524.9469 -1286.2172 6910.3315 10073755
1803.9731 -1481.6448 7960.2861 11258287
2027.9783 -1623.0459 8719.9775 11782322
2211.0554 -1725.4581 9270.1982 6255963
1852.3243 -1410.3573 7577.2866 8954240
1825.7168 -1357.0934 7291.1211 11389085
1869.0646 -1357.0934 7291.1211 13096646
1908.3055 -1354.1792 7275.4639 10860204
2521.0452 -1749.3423 9398.5176 8624529
2682.2937 -1820.8738 9782.8281 9677476
2789.1584 -1853.2343 9956.6875 9611429
2949.4495 -1919.0105 10310.077 7703689
3004.7847 -1915.2111 10289.664 7374981
3065.9597 -1915.2111 10289.664 11190207
0 0 0 0
0 0 0 0
0 0 0 0
5191.6616 -3003.3677 16135.896 8096909
5287.7402 -3003.4509 16136.343 7307653
5384.0156 -3003.6406 16137.362 5860209
5480.7739 -3004.0886 16139.769 6650239
5576.8452 -3004.1509 16140.104 9676973
5672.5259 -3004.0046 16139.317 9479081
5768.4785 -3004.0046 16139.317 10992319
5864.4316 -3004.0046 16139.317 10663353
5961.2627 -3004.4473 16141.695 9348264
6057.3843 -3004.5242 16142.108 9677230
6153.6167 -3004.6523 16142.798 6059392
6249.2148 -3004.4722 16141.83 8691620
6345.1992 -3004.48 16141.872 7376018
6441.1675 -3004.48 16141.872 10073271
6536.7178 -3004.2881 16140.841 9547439
6632.6797 -3004.2881 16140.841 9481647
6728.6406 -3004.2881 16140.841 9613233
6825.0122 -3004.4685 16141.81 7178891
6920.5513 -3004.2825 16140.811 10204852
7016.9058 -3004.4504 16141.713 9942191
7112.6055 -3004.3376 16141.106 11059646
7208.4233 -3004.2771 16140.781 8756890
7303.9907 -3004.115 16139.91 7704203
7399.7817 -3004.0479 16139.55 12045516
7495.7354 -3004.0479 16139.55 6386807
7591.7334 -3004.0649 16139.642 9282213
7687.688 -3004.0649 16139.642 8886686
7783.0649 -3003.8418 16138.443 12043465
7878.8076 -3003.7639 16138.024 11581887
7974.7056 -3003.7463 16137.93 12700109
8070.4932 -3003.6877 16137.615 13094614
8165.7734 -3003.4443 16136.307 12370639
8261.5107 -3003.3721 16135.92 10331059
8357.2715 -3003.3108 16135.59 11186624
8453.3174 -3003.3518 16135.81 13226198
8549.3447 -3003.3853 16135.989 13160916
8646.2588 -3003.7258 16137.82 9409711
8742.9023 -3003.9666 16139.112 11712464
8839.3926 -3004.1494 16140.096 11843789
8936.5488 -3004.553 16142.263 8355987
9032.5205 -3004.553 16142.263 13422294
9128.3525 -3004.5073 16142.019 13553621
9223.0029 -3004.0781 16139.713 13553363
9319.0156 -3004.0967 16139.812 13422804
9415.6211 -3004.3042 16140.927 11119048
9511.9131 -3004.4082 16141.485 7503251
9606.3262 -3003.9224 16138.876 9213611
9703.7617 -3004.3826 16141.349 9871027
9798.6279 -3004.0459 16139.539 13489116
9894.0527 -3003.8853 16138.676 6977153
9988.8896 -3003.5508 16136.879 6912133
10084.828 -3003.5508 16136.879 6123130
10180.476 -3003.4648 16136.418 7109001
9649.585 -2820.2639 15152.152 7174795
9332.6543 -2702.407 14518.953 6911622
9243.9033 -2652.1775 14249.091 8293532
8912.2461 -2533.8005 13613.099 9411498
8945.3486 -2520.3242 13540.696 7898772
8597.2979 -2400.6575 12897.774 7964306
8673.9795 -2400.6575 12897.774 7569547
8162.793 -2239.3818 12031.305 6252659
8545.2217 -2323.9336 12485.566 12371146
8619.4521 -2323.9336 12485.566 13357780
8341.8887 -2229.8945 11980.332 13423056
7984.4009 -2116.2637 11369.84 13554387
8051.9961 -2116.2632 11369.837 13488848
7722.5366 -2012.7759 10813.841 13685457
7646.8101 -1976.5834 10619.394 13685457
7689.1377 -1971.249 10590.733 13685457
7520.4663 -1912.3473 10274.278 13685457
7499.707 -1891.7034 10163.367 13685457
7560.1313 -1891.7034 10163.367 13685457
7748.8076 -1923.5405 10334.415 13685457
7794.855 -1919.7493 10314.047 13685457
7774.269 -1899.7345 10206.516 13685457
7834.9487 -1899.7341 10206.514 13685457
7886.52 -1897.5427 10194.739 13619665
7722.978 -1844.0215 9907.1914 13750225
7385.5835 -1750.114 9402.6641 13684430
6857.2974 -1612.7227 8664.5156 13750481
6924.7363 -1616.4403 8684.4883 13288646
7333.832 -1699.2655 9129.4756 10446206
7388.1099 -1699.2655 9129.4756 7159121
7237.333 -1652.447 8877.9385 10516096
7356.8276 -1667.569 8959.1826 12685980
7662.4785 -1724.3657 9264.3291 12488856
7634.96 -1705.9109 9165.1777 13540515
7689.4497 -1705.9109 9165.1777 12882331
7189.6758 -1583.8121 8509.1904 13078937
7240.2646 -1583.8121 8509.1904 13143962
7251.8281 -1575.3344 8463.6426 12748695
7986.0151 -1722.8694 9256.2891 8867423
8205.7793 -1758.1648 9445.918 6833236
8234.4033 -1752.3052 9414.4365 9729925
8533.3535 -1803.663 9690.3604 6375509
8677.8252 -1821.8989 9788.3359 7302258
9019.1377 -1880.9436 10105.559 13619148
9413.3955 -1950.175 10477.512 13685453
9894.7158 -2036.4144 10940.842 13554380
11108.065 -2271.2014 12202.259 13225159
11180.611 -2271.2014 12202.259 8357246
11253.157 -2271.2014 12202.259 9344399
10695.631 -2144.8499 11523.422 12370868
10128.323 -2018.1576 10842.755 12303536
9889.3018 -1958.0681 10519.918 7501675
9987.877 -1965.1573 10558.006 10134680
10262.886 -2006.6554 10780.958 5265245
10827.609 -2103.9333 11303.594 7698820
10757.258 -2077.3696 11160.878 7501439
10510.477 -2017.2698 10837.984 6909561
0 0 0 0
0 0 0 0
0 0 0 0
0 0 0 0
0 0 0 0
-7421.6216 -1490.7539 8273.4941 4019782
-7749.5469 -1567.0087 8696.6982 3427134
-7660.6123 -1559.4298 8654.6367 3690306
-7140.1699 -1463.3149 8121.2109 2111533
-7640.5962 -1576.5336 8749.5605 1650982
-6739.9355 -1400.2275 7771.084 4283466
-7175.0557 -1500.9125 8329.873 3625789
-7158.8872 -1507.9385 8368.8662 4415047
-7262.5723 -1540.4851 8549.4961 5006412
-7085.2764 -1513.4708 8399.5703 4743494
-7111.7993 -1529.9194 8490.8574 5072456
-6588.3799 -1427.4515 7922.1738 5335628
-6541.2808 -1427.4515 7922.1738 5533264
-6501.7388 -1429.1127 7931.3931 5138761
-6454.5845 -1429.1127 7931.3931 3691834
-6775.8555 -1511.2863 8387.4463 6520935
-6725.9897 -1511.2863 8387.4463 3494211
-6833.54 -1546.9209 8585.2139 2967613
-6791.4028 -1548.9517 8596.4844 1651496
-6676.4668 -1534.2837 8515.0791 2309423
-6737.5098 -1560.1416 8658.5869 5468246
-6383.6997 -1489.5944 8267.0586 5534807
-6334.5498 -1489.5944 8267.0586 4547395
-6345.5649 -1503.8529 8346.1924 6126432
-5854.8828 -1398.5009 7761.5015 4218434
-6380.8911 -1536.2511 8525.998 4744523
-5699.291 -1383.1379 7676.2393 6323810
-5858.7266 -1433.308 7954.6772 3296826
-6060.4438 -1494.7229 8295.5215 3493692
-6011.125 -1494.7229 8295.5215 3559486
-6000.0015 -1504.2992 8348.6689 4808778
-5950.3662 -1504.2992 8348.6689 4874828
-5621.8267 -1433.1969 7954.0601 5861468
-5828.9009 -1498.593 8317 3887940
-6056.5674 -1570.4475 8715.7832 2243118
-5689.1626 -1487.9106 8257.7148 1650983
-5640.0684 -1487.9106 8257.7148 1519397
-5590.9741 -1487.9106 8257.7148 3888458
-5959.061 -1599.9177 8879.3389 3625282
-5929.0034 -1606.0756 8913.5146 2704175
-6071.2798 -1659.4481 9209.7256 4349246
-6016.5254 -1659.4481 9209.7256 4348988
-6067.0342 -1688.7479 9372.3359 5928017
-6163.9878 -1731.6387 9610.374 6783837
-6209.2622 -1760.6779 9771.5381 6783836
-6120.8691 -1752.0054 9723.4062 3164965
-6150.708 -1777.3323 9863.9678 8165743
-6016.9663 -1755.4227 9742.373 7178337
-5942.3662 -1750.5095 9715.1045 5467722
-5968.5234 -1775.4723 9853.6445 7243880
-6024.7002 -1809.9484 10044.983 1849379
-6152.1572 -1866.7434 10360.188 3099445
-6064.2944 -1858.6923 10315.505 4152133
-5924.0547 -1834.259 10179.904 3757121
-5863.5327 -1834.259 10179.904 2836018
-5711.1494 -1805.223 10018.758 1384729
-5623.29 -1796.1851 9968.5986 1519136
-5592.0205 -1805.223 10018.758 3295801
-5490.3076 -1791.4701 9942.4307 4677449
-5411.0991 -1784.8407 9905.6387 5335114
-5291.8594 -1764.7159 9793.9492 5203782
-5209.498 -1756.5786 9748.7871 3756589
-5223.3652 -1781.0699 9884.7109 6125388
-5350.0991 -1845.0422 10239.749 8165217
-5277.3926 -1840.916 10216.85 7046740
-5143.4868 -1815.097 10073.558 5401924
-5092.6343 -1818.324 10091.467 1583894
-5023.7065 -1815.097 10073.558 4348991
-5130.9854 -1876.2252 10412.811 4941129
-5066.0469 -1875.103 10406.583 5532746
-5004.1768 -1875.103 10406.583 4940353
-4880.627 -1851.7017 10276.709 4282678
-4799.6724 -1844.0726 10234.368 4479289
-4752.9355 -1849.5632 10264.841 5400641
-4704.0308 -1854.3422 10291.362 7901797
-4639.2354 -1852.8999 10283.358 4019756
-4578.0977 -1852.8999 10283.358 6125645
-4469.8018 -1833.5551 10175.997 5336386
-4555.7681 -1894.4609 10514.017 5600071
-4493.2593 -1894.4609 10514.017 6785110
-4430.7505 -1894.4609 10514.017 4284726
-4345.1748 -1884.457 10458.496 5469253
-4139.0449 -1821.1205 10106.986 5865034
-3678.0703 -1642.1381 9113.6572 5865793
-3623.8872 -1642.1381 9113.6572 4417573
-2996.2866 -1378.3542 7649.6904 9748058
-2950.8069 -1378.3542 7649.6904 6786874
-3163.0029 -1500.6013 8328.1465 4549402
-3487.1221 -1680.6801 9327.5596 5535282
-2648.8423 -1297.2869 7199.7769 7837269
-2659.1707 -1323.7363 7346.5684 8561250
-2600.8516 -1316.326 7305.4419 2837013
-2644.0986 -1360.941 7553.0493 8299866
-2488.7993 -1303.1385 7232.2524 7905113
-2444.5979 -1302.4971 7228.6929 4745775
-2461.8943 -1335.1855 7410.1099 4152875
-2742.282 -1514.3502 8404.4512 8100446
-2645.5422 -1488.0417 8258.4424 5469502
-2303.5103 -1320.1594 7326.7168 11720610
-2186.6292 -1277.3282 7089.0093 10800788
-2137.5017 -1273.17 7065.9312 7906405
-2135.3259 -1297.3717 7200.248 7116106
-2100.7275 -1302.4613 7228.4941 7774545
-2043.6617 -1293.5428 7178.998 7709004
-1953.0977 -1262.5887 7007.2065 7248454
-1868.1965 -1234.0259 6848.686 7774802
-1855.8679 -1253.1957 6955.0762 7182924
-1783.0051 -1231.4313 6834.2866 7248718
-1671.1848 -1181.1184 6555.0566 7709012
-1669.1036 -1207.8135 6703.2109 6590015
-1725.3104 -1279.0251 7098.4263 5997880
-1689.511 -1283.8906 7125.4292 8432217
-1701.248 -1326.0593 7359.46 3892251
-1941.287 -1553.1046 8619.5332 7775568
-1992.7078 -1637.4686 9087.7422 7183427
-2014.353 -1701.3856 9442.4736 8564569
-2146.1882 -1864.7056 10348.878 6722112
-2084.6614 -1864.7056 10348.878 7182153
-1568.2412 -1445.4344 8021.9771 4681261
-1446.8091 -1375.3378 7632.9492 8497248
-1313.615 -1289.1587 7154.666 5995083
-1216.381 -1233.6831 6846.7837 2902306
-1175.6749 -1233.6831 6846.7837 4876103
-1145.0555 -1244.647 6907.6323 4151610
-978.20905 -1102.8428 6120.6367 4283199
-941.82013 -1102.8428 6120.6367 5138250
-889.61957 -1083.5837 6013.7515 6190682
-834.55164 -1059.0729 5877.7197 7311462
-800.90796 -1060.796 5887.2827 2902316
-773.18939 -1070.8832 5943.2651 6916189
-750.30157 -1088.9474 6043.5195 5404715
-697.33051 -1062.9717 5899.3569 8038732
-689.23511 -1106.2732 6139.6748 6128450
-616.54303 -1044.9371 5799.2676 4480831
-579.0545 -1039.5331 5769.2759 4413762
-536.10333 -1023.0242 5677.6538 2043683
-502.53146 -1023.3976 5679.7266 3622205
-466.89474 -1019.317 5657.0791 4082758
-429.43866 -1010.3222 5607.1597 4082499
-395.19083 -1007.9969 5594.2544 3292982
-375.66434 -1046.2437 5806.519 4017218
-333.88403 -1023.9815 5682.9668 4017988
-307.11026 -1047.9111 5815.7734 7179099
-262.7858 -1010.4291 5607.7529 6916943
-227.04921 -999.87347 5549.1704 8365155
-195.23616 -1005.9447 5582.8652 5863503
-165.57155 -1027.8402 5704.3823 3692077
-131.65741 -1027.8402 5704.3823 5140022
-100.35849 -1055.3412 5857.0093 5866014
-67.143677 -1081.2145 6000.6025 7445555
-30.715395 -1055.3412 5857.0093 7313733
4.2068229 -1081.2145 6000.6025 6852680
44.545403 -1207.6385 6702.2402 6917964
89.53215 -1281.1921 7110.4531 6129208
131.80577 -1281.1921 7110.4531 7510865
180.52899 -1328.66 7373.8936 8694892
228.7397 -1354.5432 7517.5425 2771492
278.32385 -1378.7688 7651.9912 3099952
301.34842 -1283.1003 7121.0435 4746287
350.12531 -1307.1443 7254.4844 5339955
393.25522 -1307.1443 7254.4844 6657336
440.0658 -1318.1692 7315.6709 6788926
483.95972 -1319.2604 7321.7266 5999671
527.48944 -1319.2604 7321.7266 6854977
552.53784 -1276.5618 7084.7554 7907403
584.79614 -1255.3898 6967.2534 7512388
642.75946 -1288.5499 7151.2876 7842366
676.19843 -1271.4812 7056.5586 9486673
744.59021 -1318.2906 7316.3447 8366680
788.08795 -1318.2906 7316.3447 9945722
845.99731 -1341.137 7443.1396 7115609
843.2038 -1270.2648 7049.8076 5997122
824.34937 -1183.0551 6565.8047 6853189
870.33228 -1192.5747 6618.6377 6261820
929.61847 -1218.7112 6763.6919 4155433
972.25635 -1221.7595 6780.6099 6327874
1013.4778 -1222.8562 6786.6963 6984787
1053.8267 -1222.8562 6786.6963 7511128
1077.4307 -1204.1422 6682.8354 6787661
1069.0496 -1152.2838 6395.0283 6327620
1028.4568 -1070.4602 5940.9175 8827494
1066.6897 -1073.3909 5957.1826 8565074
1102.1067 -1073.3909 5957.1826 9354340
1258.474 -1187.5219 6590.5952 8630362
1297.6569 -1187.5219 6590.5952 10340726
1347.2933 -1196.8079 6642.1309 8498016
1428.4211 -1232.7422 6841.5625 9814633
1426.272 -1196.8079 6642.1309 9419874
1480.6963 -1209.0023 6709.8091 9814132
1566.5034 -1245.5092 6912.417 9748083
1658.3586 -1284.8354 7130.6729 12048287
1807.2753 -1365.3082 7577.2866 11521931
1692.1771 -1247.2672 6922.1738 8561501
1702.3972 -1225.0076 6798.6362 10667645
1789.7303 -1257.9825 6981.6426 11521930
1807.1835 -1241.458 6889.9336 12046510
1958.0388 -1315.2764 7299.6162 8427913
2388.4336 -1569.5973 8711.0654 7178366
2562.4424 -1648.2108 9147.3604 7046269
2834.1033 -1785.0634 9906.874 7112318
2841.417 -1753.2338 9730.2236 8493972
2899.2659 -1753.2338 9730.2236 8955035
2263.0073 -1341.7067 7446.3013 9415073
0 0 0 0
0 0 0 0
0 0 0 0
5287.7402 -2907.5159 16136.343 5071455
5383.7158 -2907.5378 16136.465 9743532
5480.5874 -2908.0342 16139.22 7835282
5576.5186 -2908.0232 16139.158 7966355
5672.5259 -2908.052 16139.317 9018787
5768.8027 -2908.2151 16140.224 8755357
5864.7583 -2908.2136 16140.216 10663866
5961.1431 -2908.4221 16141.372 10071987
6057.3843 -2908.5549 16142.108 10400440
6153.6797 -2908.7087 16142.964 9018788
6249.0635 -2908.4338 16141.438 7242636
6345.2002 -2908.5122 16141.873 6914696
6441.168 -2908.5122 16141.873 8888486
6536.3193 -2908.1492 16139.857 7573395
6632.2695 -2908.1467 16139.844 8296862
6728.6406 -2908.3264 16140.841 8297374
6825.0122 -2908.501 16141.81 8494494
6920.9805 -2908.501 16141.81 7573392
7016.8306 -2908.4524 16141.54 8757667
7112.7964 -2908.4524 16141.54 8296862
7208.4658 -2908.3325 16140.876 6652035
7303.9907 -2908.1587 16139.91 7310221
7399.7817 -2908.0938 16139.55 9152422
7495.7788 -2908.1104 16139.642 9283752
7591.6899 -2908.0938 16139.55 8165016
7686.9961 -2907.8484 16138.188 7375499
7782.9414 -2907.8484 16138.188 11256261
7878.8076 -2907.8188 16138.024 7570569
7973.9082 -2907.511 16136.315 9083551
8070.4932 -2907.7451 16137.615 7174530
8166.2271 -2907.6709 16137.203 7305093
8261.708 -2907.5093 16136.307 8818335
8357.458 -2907.4448 16135.948 9475239
8454.1719 -2907.7139 16137.44 8290709
8549.8115 -2907.6111 16136.871 10527929
8646.2588 -2907.7822 16137.82 12040652
8742.4414 -2907.8616 16138.261 13488088
8839.5996 -2908.2603 16140.474 13290452
8936.7998 -2908.6641 16142.715 8027268
9032.8857 -2908.7004 16142.917 13423058
9128.6221 -2908.6248 16142.496 13685204
9223.0029 -2908.123 16139.713 13619153
9319.0156 -2908.1411 16139.812 13422803
9415.4863 -2908.3 16140.695 13291731
9511.584 -2908.3418 16140.927 8030360
9607.5303 -2908.3372 16140.9 6781064
9703.4922 -2908.3372 16140.9 6188668
9798.3662 -2908.0139 16139.107 6780548
9893.2832 -2907.71 16137.42 7372684
9988.8291 -2907.5947 16136.781 6912133
10084.731 -2907.5847 16136.725 5596273
10179.983 -2907.3889 16135.639 8293016
9246.335 -2616.0876 14518.953 6451839
9320.8369 -2612.7751 14500.569 7043720
9406.46 -2612.6123 14499.665 6648962
8912.2461 -2452.8669 13613.099 5529197
8880.3486 -2422.0925 13442.305 6779519
7299.2012 -1973.0818 10950.353 7501699
7363.1758 -1972.7795 10948.675 7304318
7930.6426 -2106.1987 11689.134 6909045
8042.7524 -2117.418 11751.399 13488338
8549.1182 -2231.3459 12383.686 13423057
8341.8926 -2158.6689 11980.337 13554386
8413.1152 -2158.668 11980.332 13554385
8051.9976 -2048.6667 11369.84 13685457
8119.5923 -2048.6663 11369.837 13685457
8187.1895 -2048.6663 11369.837 13685457
7689.1377 -1908.2841 10590.733 13685457
7520.4663 -1851.2638 10274.278 13685457
7499.7085 -1831.2797 10163.369 13685457
7560.1328 -1831.2797 10163.369 13685457
7748.8105 -1862.1002 10334.419 13685457
7794.8579 -1858.4303 10314.051 13685457
7856.1753 -1858.4296 10314.047 13685457
7825.9097 -1836.9321 10194.739 13685457
7710.4473 -1795.921 9967.1328 13619665
6928.8057 -1601.5522 8888.4111 13750224
6981.6494 -1601.5522 8888.4111 13750737
6557.5552 -1492.9669 8285.7764 13684172
6606.8159 -1492.9669 8285.7764 12226459
7454.9585 -1672.1571 9280.2588 9130854
7707.0732 -1716.0067 9523.6182 5710901
7552.3198 -1669.2869 9264.3291 5513777
7290.1143 -1599.6652 8877.9385 6370885
7580.4707 -1651.4213 9165.1777 12817567
7437.4438 -1608.6989 8928.0742 13145502
7450.4141 -1600.0848 8880.2676 13079193
7416.0415 -1581.4961 8777.1016 13144217
7468.2236 -1581.4961 8777.1016 13209498
7264.6025 -1527.702 8478.5518 13406624
7368.8276 -1538.9417 8540.9297 13011868
8045.5269 -1668.7673 9261.4463 7617103
8202.0781 -1689.6747 9377.4795 8540515
8257.8301 -1689.6747 9377.4795 9464954
8338.0088 -1694.6395 9405.0332 5649729
8648.5771 -1746.0509 9690.3604 10132629
8797.5039 -1764.3645 9791.998 13357243
9715.9414 -1935.7502 10743.167 12962997
10088.665 -1996.8822 11082.442 11251876
10664.995 -2097.2603 11639.527 6514023
10734.195 -2097.2603 11639.527 6317162
10676.056 -2072.5398 11502.332 5725537
10256.986 -1978.5128 10980.494 4804179
10134.693 -1942.5594 10780.958 7238007
10257.25 -1953.6945 10842.755 6382959
10463.553 -1980.5419 10991.755 8422284
11391.536 -2142.8079 11892.311 7369856
10793.409 -2017.7734 11198.386 6316911
10708.809 -1989.6847 11042.497 5988202
0 0 0 0
0 0 0 0
0 0 0 0
0 0 0 0
-6970.3857 -1345.0039 7719.3027 4612418
-7399.4473 -1437.2585 8248.7744 7178088
-7372.4336 -1441.5657 8273.4941 6585953
-7380.458 -1452.8279 8338.1309 6191196
-7140.1699 -1415.032 8121.2109 4085055
-7320.9512 -1460.7367 8383.5215 3295544
-7224.5791 -1451.389 8329.873 5006158
-7175.0557 -1451.389 8329.873 4413764
-7106.23 -1447.4574 8307.3086 3361076
-7098.481 -1455.9985 8356.3281 2571562
-6891.0078 -1423.4049 8169.2651 3690299
-6842.4395 -1423.4049 8169.2651 5598548
-6793.8701 -1423.4049 8169.2651 4744013
-6401.1147 -1350.7739 7752.4185 4218176
-6501.7388 -1381.9583 7931.3931 2573098
-6460.6914 -1383.266 7938.8984 6718305
-6591.6147 -1421.6836 8159.3857 5072973
-6543.105 -1421.6836 8159.3857 2572590
-6833.54 -1495.8794 8585.2139 4679246
-6791.4028 -1497.8433 8596.4844 4481356
-6804.3169 -1512.0703 8678.1377 1257253
-6752.7231 -1512.0703 8678.1377 2638387
-6536.4932 -1474.9214 8464.9307 3427644
-6395.1851 -1454.2325 8346.1924 4612677
-6103.3647 -1398.7269 8027.6318 4678728
-5854.8828 -1352.3566 7761.5015 6060891
-6380.8911 -1485.5618 8525.998 7047274
-6162.2007 -1446.1355 8299.7217 5007947
-6112.8569 -1446.1355 8299.7217 4678467
-6057.0884 -1444.6034 8290.9287 6323293
-5947.2808 -1430.0521 8207.415 5994328
-5870.5151 -1423.2709 8168.4956 5994327
-5672.0981 -1386.6367 7958.2441 4481345
-5528.4355 -1362.8848 7821.9253 5402706
-5461.9043 -1357.9055 7793.3486 4481104
-5847.6665 -1466.2498 8415.1621 2836024
-5619.1309 -1421.1049 8156.0649 2243118
-5640.0684 -1438.8163 8257.7148 3427136
-5643.7437 -1452.3964 8335.6543 3032376
-5959.061 -1547.1274 8879.3389 3558977
-6051.7876 -1585.2451 9098.1055 3032632
-6093.1938 -1610.4858 9242.9678 1716256
-6123.6895 -1633.2759 9373.7656 3492917
-6067.96 -1633.2759 9373.7656 4348732
-6084.02 -1652.7783 9485.6943 4217656
-6106.8516 -1674.5023 9610.374 6126422
-6137.4727 -1698.7927 9749.7822 2902311
-6108.3901 -1706.8634 9796.1016 5270345
-6021.5425 -1698.7927 9749.7822 4744770
-5955.6553 -1696.5361 9736.8311 5468237
-6088.2051 -1751.317 10051.231 7178853
-6028.4478 -1751.317 10051.231 1190424
-6190.0493 -1816.2675 10423.998 1322525
-6090.563 -1805.1493 10360.188 4151874
-6076.896 -1819.4993 10442.547 5928281
-5964.8843 -1804.3961 10355.865 4350014
-5803.0103 -1773.7368 10179.904 5073226
-5651.585 -1745.6588 10018.758 2440738
-5592.0132 -1745.6564 10018.744 4150589
-5490.3076 -1732.3595 9942.4307 857351
-5431.1973 -1732.3595 9942.4307 1715732
-5340.8994 -1722.3025 9884.7109 7111774
-5282.1323 -1722.3025 9884.7109 6322511
-5244.9395 -1729.4163 9925.5381 4809266
-5185.9292 -1729.4163 9925.5381 7178831
-5212.6274 -1758.3274 10091.467 8298081
-5063.6562 -1727.9651 9917.209 6456391
-5092.6343 -1758.3274 10091.467 7837024
-4988.8838 -1743.0404 10003.73 2637609
-5111.2705 -1807.3468 10372.801 4085310
-5028.6274 -1799.84 10329.717 5532746
-4967.2148 -1799.84 10329.717 5598538
-4880.627 -1790.604 10276.709 4875071
-4836.6289 -1796.957 10313.171 5335367
-4765.2158 -1793.1571 10291.362 4480056
-4712.4834 -1796.3793 10309.854 4480306
-4689.2456 -1811.0773 10394.211 7178841
-4627.4487 -1811.0773 10394.211 7244889
-4699.5342 -1864.1847 10699.008 5007681
-4555.7681 -1831.952 10514.017 3955764
-4478.085 -1825.7654 10478.51 6521688
-4430.7505 -1831.952 10514.017 3889710
-4347.9932 -1823.4602 10465.279 5139520
-4225.4512 -1797.7948 10317.979 5599563
-3862.168 -1667.4365 9569.8213 334857
-4125.9043 -1807.9344 10376.173 4085570
-4095.0991 -1821.6729 10455.021 3955249
-4010.3425 -1811.4652 10396.437 4284724
-3948.5327 -1811.4652 10396.437 4942138
-3825.3381 -1782.8557 10232.24 4875831
-3550.6558 -1681.5778 9650.9814 3889179
-3240.7498 -1560.0167 8953.3135 6850115
-2615.4932 -1280.059 7346.5684 6785086
-2588.1294 -1288.1787 7393.1694 7445045
-2543.7883 -1287.9829 7392.0454 8695623
-2505.9495 -1291.1304 7410.1099 5865277
-2792.2488 -1464.3834 8404.4512 3298334
-3051.1541 -1629.3218 9351.0713 4614189
-2931.5046 -1594.4814 9151.1152 6984264
-2302.655 -1276.1262 7323.9971 8039241
-2186.6292 -1235.1823 7089.0093 9290580
-2137.5017 -1231.161 7065.9312 7447126
-2143.7026 -1259.4858 7228.4941 7512916
-2112.3745 -1266.4688 7268.5708 6591297
-2017.2954 -1234.7236 7086.3774 7578953
-1908.9138 -1193.3085 6848.686 8697692
-1911.438 -1220.929 7007.2065 7973972
-1869.7782 -1220.929 7007.2065 7250509
-1814.5181 -1211.8458 6955.0762 7118663
-1655.0125 -1131.094 6491.6216 6129986
-1767.5125 -1236.823 7098.4263 6524234
-1731.8737 -1241.528 7125.4292 8893291
-1712.0983 -1258.1261 7220.6899 5801523
-1706.7035 -1286.4172 7383.0596 8236362
-1973.7828 -1526.9993 8763.8184 7578431
-1992.7078 -1583.4395 9087.7422 8104284
-2014.353 -1645.2474 9442.4736 7906401
-2154.9099 -1810.5063 10390.934 4615732
-2093.1331 -1810.5063 10390.934 7839839
-1492.1891 -1329.9578 7632.9492 8102772
-1341.0649 -1232.754 7075.0737 5799512
-1299.0017 -1232.754 7075.0737 4284992
-1216.0182 -1192.6212 6844.7412 4810818
-1124.0244 -1140.5664 6545.9863 5731662
-1160.8867 -1220.2195 7003.1348 5797449
-1089.353 -1187.6243 6816.063 7114053
-987.70923 -1118.4156 6418.8579 5205298
-922.19312 -1086.1965 6233.9453 6323273
-839.37482 -1030.0471 5911.6895 4348980
-808.52374 -1035.5487 5943.2651 7375457
-786.23206 -1053.017 6043.5195 5401425
-750.30157 -1053.017 6043.5195 7705702
-719.52734 -1060.6174 6087.1401 6192447
-683.33759 -1060.6174 6087.1401 4482598
-601.60565 -985.97778 5658.7651 8035659
-576.76251 -1001.2542 5746.4399 8692316
-542.59833 -1001.2542 5746.4399 1450012
-511.03772 -1006.3814 5775.8662 3029297
-468.76392 -989.63013 5679.7266 3950402
-434.99887 -989.6358 5679.7593 2239783
-401.23108 -989.6358 5679.7593 3095346
-366.53488 -987.13525 5665.4082 4017474
-333.88403 -990.19464 5682.9668 3689016
-306.62161 -1011.7223 5806.519 7113050
-266.45975 -990.74988 5686.1533 8889724
-230.46333 -981.42108 5632.6133 6981979
-199.86377 -995.80975 5715.1934 5073731
-166.65424 -1000.4255 5741.6836 4810815
-132.51833 -1000.4255 5741.6836 5535296
-101.57379 -1032.8777 5927.9351 7773789
-69.118881 -1076.2964 6177.1255 7577668
-31.468428 -1045.5393 6000.6025 6722612
4.3719106 -1086.5691 6236.083 7182671
45.016418 -1180.14 6773.1089 9747591
91.076828 -1260.2933 7233.1284 9221253
137.72426 -1294.5499 7429.7349 7642468
184.04584 -1309.8494 7517.5425 6591038
232.83064 -1333.2756 7651.9912 6919750
291.11893 -1394.5687 8003.7671 9812616
314.23114 -1293.8068 7425.4697 4547660
358.37762 -1293.8068 7425.4697 3493432
405.39804 -1303.0442 7478.4858 3888440
449.85971 -1303.0442 7478.4858 4348987
488.56448 -1287.8689 7391.3911 3560494
532.50842 -1287.8689 7391.3911 6129465
583.14294 -1302.8168 7477.1807 6394425
600.24304 -1246.0334 7151.2876 6723644
680.42548 -1319.0516 7570.3564 7447112
706.18524 -1284.0529 7369.4902 7052353
792.36005 -1356.5782 7785.731 8236113
788.08795 -1274.7928 7316.3447 6788412
801.29065 -1228.3517 7049.8076 7906647
790.71411 -1151.8865 6610.9551 6196289
824.34937 -1144.0195 6565.8047 6722123
863.38483 -1144.0195 6565.8047 7247953
941.21753 -1193.2035 6848.0835 3035445
981.63245 -1192.8405 6845.9995 5273668
1020.53 -1190.7357 6833.9199 6920014
1061.1193 -1190.6906 6833.6611 6393412
1077.4307 -1164.4108 6682.8354 5933116
1101.6685 -1148.262 6590.1533 7907666
1018.916 -1025.5369 5885.8047 7578187
1063.7772 -1035.1398 5940.9175 7446091
1099.0977 -1035.1398 5940.9175 6985038
1190.9355 -1086.7112 6236.8984 7050576
1281.7362 -1134.2502 6509.7363 7115854
1320.4384 -1134.2502 6509.7363 8235092
1359.1406 -1134.2502 6509.7363 8169295
1366.4332 -1108.7635 6363.4624 8893540
1461.0526 -1153.6007 6620.7935 8630627
1511.8147 -1162.3652 6671.0957 7906135
1607.5995 -1204.4128 6912.417 7379788
1651.0229 -1206.1129 6922.1738 10340725
1685.3129 -1201.2203 6894.0942 10801028
1683.1113 -1171.1678 6721.6162 9813878
1789.7303 -1216.4747 6981.6426 11194494
1850.7114 -1229.4105 7055.8848 11455880
1978.5444 -1285.198 7376.062 3820863
2077.0039 -1319.8997 7575.2231 5662817
2384.0039 -1482.8394 8510.374 6255212
2393.7893 -1457.9827 8367.7148 6585203
2443.5376 -1457.9827 8367.7148 5400933
2218.7371 -1297.4364 7446.3013 8691096
1879.8207 -1077.7462 6185.4463 9150874
0 0 0 0
0 0 0 0
0 0 0 0
0 0 0 0
0 0 0 0
5480.2017 -2811.884 16138.083 7637382
5576.147 -2811.884 16138.083 6518645
5672.3721 -2812.0227 16138.88 7834505
5768.873 -2812.2913 16140.42 11518403
5864.832 -2812.2913 16140.42 7176581
5961.1431 -2812.4573 16141.372 8624024
6057.6431 -2812.7056 16142.798 10268852
6153.6167 -2812.7056 16142.798 6649985
6249.0635 -2812.4685 16141.438 6189692
6345.4507 -2812.6555 16142.512 7045770
6441.0186 -2812.4795 16141.5 6980233
6536.3423 -2812.2031 16139.914 7178123
6632.6797 -2812.3645 16140.841 7244172
6728.6406 -2812.3645 16140.841 8823202
6825.0132 -2812.5337 16141.812 9086116
6920.981 -2812.5337 16141.812 6914947
7016.8086 -2812.4775 16141.489 8494233
7112.7964 -2812.4863 16141.54 10006957
7208.5688 -2812.4109 16141.106 6849409
7304.5322 -2812.4109 16141.106 7376267
7399.9922 -2812.2195 16140.008 8561311
7496.1411 -2812.2917 16140.423 9416620
7591.6899 -2812.1396 16139.55 7837075
7686.9604 -2811.8894 16138.114 7376013
7782.9058 -2811.8894 16138.114 7309963
7878.8076 -2811.8738 16138.024 9743793
7974.7056 -2811.8572 16137.93 9217192
8070.8745 -2811.9353 16138.377 10795712
8166.6704 -2811.8833 16138.079 9083558
8261.708 -2811.5745 16136.307 7962768
8357.458 -2811.5122 16135.948 12107208
8454.1719 -2811.7722 16137.44 13423061
8549.8115 -2811.6731 16136.871 13357270
8646.4951 -2811.915 16138.261 12764369
8742.6016 -2811.9668 16138.558 5990513
8839.6152 -2812.3057 16140.502 9410725
8936.7998 -2812.6912 16142.715 8422545
9032.5205 -2812.6123 16142.263 10330797
9128.6221 -2812.6531 16142.496 10196645
9224.1387 -2812.5142 16141.7 12631492
9319.6592 -2812.3796 16140.927 12105661
9415.4863 -2812.3391 16140.695 9081241
9511.3242 -2812.303 16140.487 8358804
9606.2891 -2812.0117 16138.815 10268083
9702.2393 -2812.0117 16138.815 9413028
9798.2998 -2812.0435 16138.998 10859193
9893.1846 -2811.7407 16137.26 7504008
9988.4863 -2811.561 16136.229 7043204
9855.79 -2747.8179 15770.392 6648704
9621.8311 -2657.3101 15250.946 7898515
9234.6279 -2526.5652 14500.569 6385019
9320.2559 -2526.4077 14499.665 6911619
8966.2178 -2408.1663 13821.049 6581884
8912.2461 -2371.9333 13613.099 4607327
8085.5161 -2132.5386 12239.155 6383223
7105.9165 -1857.4552 10660.385 6448245
7169.2954 -1857.4552 10660.385 6119534
7396.833 -1899.6134 10902.341 13817559
7815.7188 -1989.7533 11419.676 13488596
8112.6177 -2047.5526 11751.399 13554384
8341.8887 -2087.4414 11980.332 13554387
7984.4009 -1981.0701 11369.84 13619921
8051.9961 -1981.0695 11369.837 13685457
8119.5942 -1981.0701 11369.84 13685457
8326.4844 -2014.7748 11563.28 13685457
7689.1377 -1845.3192 10590.733 13685457
7697.4995 -1832.3215 10516.137 13685457
7499.7085 -1770.8556 10163.369 13685457
7560.1328 -1770.8556 10163.369 13685457
7864.8013 -1827.6129 10489.113 13685457
7794.8579 -1797.1104 10314.051 13685457
7856.1753 -1797.1096 10314.047 13685457
7696.4795 -1746.9435 10026.132 13685457
7402.0664 -1667.2056 9568.4961 13685200
7458.9536 -1667.2056 9568.4961 13684687
7585.9736 -1682.7627 9657.7822 13749966
6954.1348 -1531.0165 8786.874 13344940
7006.3755 -1531.0165 8786.874 13277862
7740.1733 -1678.8467 9635.3066 13473700
7859.811 -1692.2716 9712.3564 13342112
7763.6938 -1659.3861 9523.6182 13012120
7290.1143 -1546.8834 8877.9385 11367806
7333.501 -1544.9043 8866.5791 13011860
7268.9033 -1520.3672 8725.7549 13143188
7431.855 -1543.4349 8858.1465 13077909
7387.7959 -1523.489 8743.6719 13012630
7356.6479 -1506.4656 8645.9707 13143703
7264.6025 -1477.2948 8478.5518 13078423
7368.8276 -1488.1633 8540.9297 12946840
7632.6021 -1530.8844 8786.1162 12618645
8008.5342 -1595.3676 9156.2002 12486803
8208.1387 -1624.0911 9321.0508 12487316
8263.5547 -1624.0911 9321.0508 11961480
8371.8223 -1634.4091 9380.2686 10451318
8449.8398 -1638.724 9405.0332 11054998
9715.9414 -1871.879 10743.167 12437672
10157.506 -1944.1705 11158.064 12107441
10589.477 -2013.6992 11557.107 7172467
10627.121 -2007.83 11523.422 5725025
10199.794 -1914.7491 10989.209 5330780
10372.75 -1934.824 11104.423 7370366
10438.769 -1934.824 11104.423 7172732
10611.754 -1954.5255 11217.495 5527908
10783.462 -1973.7473 11327.813 8948885
11391.536 -2072.1047 11892.311 6711926
10793.409 -1951.1959 11198.386 7304062
10696.596 -1921.8398 11029.904 7896199
0 0 0 0
0 0 0 0
0 0 0 0
0 0 0 0
-7276.8076 -1356.22 8058.647 5861972
-7475.4546 -1402.4771 8333.5059 6782816
-7712.0664 -1456.5214 8654.6367 4677952
-7660.6123 -1456.5214 8654.6367 6388572
-6838.356 -1308.9768 7777.9287 5467215
-7320.9512 -1410.8943 8383.5215 3098413
-7224.5791 -1401.8657 8329.873 5795927
-7155.6187 -1398.0682 8307.3086 4414273
-7064.8599 -1389.9292 8258.9463 5137740
-6883.4946 -1363.7257 8103.2461 5006153
-6891.0078 -1374.8363 8169.2651 6322527
-6493.2954 -1304.6836 7752.4185 7046248
-6832.5723 -1382.6682 8215.8018 5335375
-6783.7271 -1382.6682 8215.8018 7244397
-6507.8911 -1336.067 7938.8984 2967853
-6640.1255 -1373.1737 8159.3857 6125398
-6591.6147 -1373.1737 8159.3857 6651996
-6543.105 -1373.1737 8159.3857 2572834
-6556.2539 -1386.2103 8236.8496 6323036
-6773.3418 -1442.8873 8573.623 5006412
-6804.3169 -1460.4764 8678.1377 3887172
-6812.123 -1473.3235 8754.4746 1847849
-6536.4932 -1424.5951 8464.9307 1913643
-6395.1851 -1404.6122 8346.1924 3427905
-6071.999 -1344.0574 7986.377 3822659
-5842.4277 -1303.4335 7744.9897 4283205
-5987.9751 -1346.5171 8000.9927 5072715
-6162.2007 -1396.7914 8299.7217 5861715
-6092.3555 -1392.1068 8271.8857 4677698
-6057.0884 -1395.3116 8290.9287 5401681
-5947.2808 -1381.2567 8207.415 4743754
-5791.0962 -1356.1093 8057.9888 3361847
-5610.1328 -1324.6913 7871.3037 4611914
-5528.4355 -1316.3812 7821.9253 3691326
-5789.1313 -1390.1492 8260.2539 2178343
-6056.5674 -1466.8119 8715.7832 5863007
-6004.7495 -1466.8119 8715.7832 5731418
-5847.832 -1440.9152 8561.9053 3494710
-5643.7437 -1402.8386 8335.6543 5402705
-5637.9419 -1413.8113 8400.8535 4415555
-6051.7876 -1531.1544 9098.1055 4941646
-6071.2798 -1549.9393 9209.7256 2835500
-6122.7554 -1577.3055 9372.3359 3888186
-5958.1133 -1548.9884 9204.0752 2834988
-6040.6265 -1584.9973 9418.0391 6059854
-6049.4434 -1602.1616 9520.0303 5205059
-5992.8442 -1602.1616 9520.0303 3428396
-5936.2446 -1602.1616 9520.0303 4546360
-5941.0249 -1618.8871 9619.4121 6060371
-5993.3467 -1649.0184 9798.4521 4612671
-6083.4062 -1690.2261 10043.309 2704936
-6023.6958 -1690.2261 10043.309 3757373
-6190.0493 -1754.2939 10423.998 4020548
-6146.5479 -1759.5819 10455.42 3690814
-6077.5068 -1757.5923 10443.597 1519645
-5863.5327 -1713.2145 10179.904 2769712
-5742.2275 -1695.2695 10073.276 3230001
-5682.3389 -1695.2695 10073.276 6651740
-5605.3198 -1690.1044 10042.585 5467719
-5506.8633 -1678.2944 9972.4111 5928269
-5447.5747 -1678.2944 9972.4111 4414522
-5502.4707 -1713.8597 10183.739 2967076
-5320.2471 -1675.5388 9956.0371 5861963
-5244.9395 -1670.4062 9925.5381 5006652
-5185.9292 -1670.4062 9925.5381 6717774
-5223.5942 -1701.9039 10112.698 7178577
-5163.4717 -1701.9039 10112.698 5073714
-5188.9292 -1730.4441 10282.283 7902815
-5127.7983 -1730.4441 10282.283 4743994
-5143.3218 -1756.624 10437.845 2045726
-4965.394 -1716.5669 10199.824 3295533
-4921.3647 -1722.3804 10234.368 4348219
-4844.1128 -1716.5669 10199.824 3624751
-4836.6289 -1735.6422 10313.171 4940358
-4799.9248 -1744.5873 10366.322 795146
-4763.6392 -1753.9192 10421.771 2177564
-4689.2456 -1749.2809 10394.211 4940862
-4554.8638 -1721.8419 10231.17 6718041
-4565.6523 -1749.2809 10394.211 3493938
-4427.6069 -1719.666 10218.239 2441764
-4361.002 -1717.3605 10204.541 3494963
-4410.2119 -1761.2411 10465.279 4811070
-4347.9932 -1761.2411 10465.279 6719057
-4156.0835 -1707.9448 10148.593 8035176
-4161.856 -1735.5125 10312.399 332040
-4182.0312 -1770.0004 10517.326 794638
-4203.9697 -1806.2926 10732.975 2966578
-4140.1592 -1806.2926 10732.975 3888698
-4124.9858 -1827.8445 10861.035 3428398
-4060.4141 -1827.8445 10861.035 2967589
-3822.2009 -1748.4146 10389.063 4349491
-3703.6709 -1722.0222 10232.24 3955235
-3187.5198 -1506.7867 8953.3135 5995324
-2674.2468 -1285.6246 7639.1699 3495193
-2544.175 -1244.2244 7393.1694 6193976
-3162.3433 -1573.7269 9351.0713 4680486
-3133.6853 -1587.3717 9432.1484 4877108
-3159.9604 -1629.8472 9684.5371 3823395
-3102.3831 -1629.8472 9684.5371 6521416
-2547.9109 -1363.8655 8104.0762 3890207
-2369.3787 -1292.7451 7681.48 8959583
-2389.6125 -1329.4086 7899.3335 4287013
-2275.0283 -1291.0352 7671.3193 5142316
-2145.0718 -1242.1898 7381.0806 5603121
-2010.6479 -1188.6633 7063.0264 4485663
-1968.6562 -1188.6633 7063.0264 7117887
-1948.3674 -1202.053 7142.5879 6921017
-1908.0195 -1203.3879 7150.5205 6921276
-1863.4382 -1202.053 7142.5879 6592056
-1834.795 -1211.1768 7196.8013 4286505
-1892.1335 -1278.8492 7598.9106 4614712
-1755.0272 -1215.197 7220.6899 3429666
-1712.0983 -1215.197 7220.6899 7575638
-1706.7035 -1242.5228 7383.0596 5141806
-1972.964 -1474.2841 8760.1826 7510863
-2051.5232 -1574.5514 9355.9697 9157223
-2069.7756 -1632.8319 9702.2725 8370020
-2045.5254 -1659.9628 9863.4834 4089383
-2016.6588 -1684.8381 10011.293 8035929
-1461.3843 -1258.0588 7475.3745 7181134
-1328.4215 -1179.465 7008.3706 9353338
0 0 0 0
0 0 0 0
0 0 0 0
-1129.8765 -1147.1008 6816.063 4218163
-1090.765 -1148.5878 6824.8979 8827219
-1064.1844 -1163.8943 6915.8496 8366665
-949.54736 -1080.2538 6418.8579 8366416
-884.21088 -1048.0441 6227.4683 8694882
-816.36792 -1009.9183 6000.9253 4283698
-773.18939 -1000.2144 5943.2651 1913372
-694.68634 -941.69623 5595.5503 2898993
-719.52734 -1024.4276 6087.1401 10734414
-683.33759 -1024.4276 6087.1401 7050545
-566.15216 -896.21234 5325.2856 6063651
-558.67755 -936.76593 5566.2544 8826698
-542.59833 -967.09003 5746.4399 3098151
-515.9024 -981.29529 5830.8481 2964532
-476.69861 -972.04224 5775.8662 3490106
-436.25909 -958.63721 5696.2139 3161141
-402.39349 -958.63721 5696.2139 4740427
-366.53488 -953.45282 5665.4082 4478023
-336.58759 -964.1521 5728.9829 4544321
-300.40359 -957.38416 5688.7681 9808269
-266.45975 -956.94409 5686.1533 2965548
-239.30663 -984.30756 5848.7466 6321761
-200.25542 -963.71625 5726.3931 3229488
-171.31418 -993.30865 5902.2314 7904867
-132.16542 -963.71625 5726.3931 7840333
-105.84361 -1039.5717 6177.1255 7183674
-69.778587 -1049.4939 6236.083 7446332
-31.688482 -1016.9257 6042.5635 6788656
4.3719106 -1049.4939 6236.083 6591281
44.923466 -1137.5183 6759.1235 7182911
93.56691 -1250.5718 7430.8857 6985029
139.35194 -1265.1555 7517.5425 7577165
184.04584 -1265.1555 7517.5425 6985784
232.83064 -1287.7823 7651.9912 6459186
279.60645 -1293.7168 7687.2534 5538601
325.3093 -1293.7168 7687.2534 7444068
360.93637 -1258.5825 7478.4858 4613943
416.73257 -1293.7712 7687.5771 3295288
459.24799 -1284.8483 7634.5566 3690561
488.56448 -1243.925 7391.3911 4151622
534.10205 -1247.6477 7413.5112 7377260
583.14294 -1258.3628 7477.1807 5208118
614.57855 -1232.2605 7322.0806 6458694
670.46973 -1255.4023 7459.5894 6655822
689.68445 -1211.2596 7197.2939 6523978
739.07202 -1222.1699 7262.1226 6721856
760.6991 -1188.5033 7062.0757 6392639
757.38727 -1121.4326 6663.5425 8103262
769.84137 -1083.2134 6436.4438 4550187
822.05792 -1101.9125 6547.5537 6854221
866.63867 -1109.1482 6590.5488 6919502
864.18427 -1058.165 6287.6074 4680511
969.021 -1137.337 6758.0464 4481606
988.21057 -1113.6832 6617.4956 5337173
1027.5535 -1113.6832 6617.4956 5470796
1051.6418 -1097.7598 6522.8789 6590288
1052.1685 -1059.2485 6294.0454 7642456
1028.4568 -999.81934 5940.9175 7511630
1063.7772 -999.81934 5940.9175 9550950
1142.0021 -1038.8483 6172.8271 11195519
1205.2891 -1062.2815 6312.0674 7380540
1243.7545 -1063.0836 6316.8335 8565842
1281.3098 -1063.0836 6316.8335 8302669
1320.8834 -1064.7104 6326.5 7381572
1366.4332 -1070.931 6363.4624 9223521
1441.8053 -1099.5597 6533.5737 9815914
1413.2357 -1049.4972 6236.1025 9289315
1551.4762 -1122.7037 6671.0957 8828506
1614.3672 -1139.0945 6768.4888 10604141
1669.5077 -1149.3522 6829.4399 9221976
1683.1948 -1131.2622 6721.9502 11194244
1776.2568 -1166.1215 6929.083 9219439
1850.7114 -1187.4614 7055.8848 4347718
1978.5444 -1241.3452 7376.062 4215365
2077.0039 -1274.8628 7575.2231 9020048
2237.0251 -1343.9423 7985.6924 7309683
2110.6401 -1241.6614 7377.9404 10007712
2154.5039 -1241.6614 7377.9404 7441271
2052.1643 -1159.084 6887.2666 12375744
1943.2427 -1076.0927 6394.1328 10203799
0 0 0 0
0 0 0 0
0 0 0 0
0 0 0 0
0 0 0 0
5479.6543 -2715.6677 16136.473 11059386
5576.1113 -2715.9214 16137.98 11059389
5672.3721 -2716.0728 16138.88 8492436
5768.873 -2716.3318 16140.42 10005676
5864.9199 -2716.3728 16140.662 9741479
5960.9004 -2716.3816 16140.715 6648953
6056.8613 -2716.3816 16140.715 9279389
6153.5073 -2716.6841 16142.512 4475476
6248.8916 -2716.4285 16140.994 5004905
6345.5977 -2716.7468 16142.885 7045770
6441.481 -2716.7085 16142.657 6651524
6536.4131 -2716.2761 16140.089 7770261
6632.9507 -2716.5139 16141.501 7507599
6728.9165 -2716.5139 16141.501 9350057
6825.0132 -2716.5662 16141.812 9284520
6920.9224 -2716.5432 16141.675 8427929
7016.52 -2716.4001 16140.825 7967634
7112.7964 -2716.5205 16141.54 9546666
7208.7622 -2716.5205 16141.54 8165013
7304.8862 -2716.5791 16141.889 6718079
7399.9922 -2716.2627 16140.008 7441545
7496.1411 -2716.3325 16140.423 7967890
7592.7656 -2716.5703 16141.836 8362392
7688.0601 -2716.3325 16140.423 7375498
7783.606 -2716.1882 16139.566 7901330
7878.9956 -2715.9937 16138.409 8888482
7974.8843 -2715.9736 16138.29 9019812
8070.8901 -2715.9937 16138.409 7505035
8167.0811 -2716.0745 16138.891 7439502
8262.167 -2715.7905 16137.203 13357523
8357.4219 -2715.5676 16135.879 13423058
7498.999 -2408.9893 14314.192 13422801
7584.1001 -2408.9893 14314.192 13423571
8461.7803 -2657.9475 15793.5 13751511
8742.6016 -2716.0186 16138.558 5991035
8839.6152 -2716.3459 16140.502 8950942
8936.7998 -2716.7183 16142.715 6976637
9032.207 -2716.5481 16141.704 10267058
9128.4287 -2716.6238 16142.154 10791597
9224.3984 -2716.6238 16142.154 11517887
9319.6641 -2716.4187 16140.936 8228495
9415.3652 -2716.3433 16140.487 8491924
9510.2324 -2716.0312 16138.634 7374214
9605.3838 -2715.8059 16137.294 7505288
9701.3242 -2715.8059 16137.294 5860464
9796.5215 -2715.5996 16136.069 7570314
9892.5527 -2715.6267 16136.229 7438985
9762.0303 -2654.0583 15770.392 8754078
9531.1592 -2566.6392 15250.946 6714238
9423.9238 -2513.8472 14937.257 5266536
9234.0518 -2440.2031 14499.665 6911107
8884.0469 -2325.9963 13821.049 6910595
8966.2178 -2325.9963 13821.049 9278638
8572.9922 -2203.79 13094.9 5001323
8650.8447 -2203.79 13094.9 5726586
7299.2012 -1842.876 10950.353 4540499
7406.0234 -1853.316 11012.388 13422808
7747.8252 -1921.8602 11419.676 13554134
7822.6665 -1923.5688 11429.828 13685201
8252.8262 -2011.8669 11954.495 13684946
8323.8984 -2011.8669 11954.495 13685456
7941.1074 -1903.0979 11308.19 13685457
8008.3354 -1903.0972 11308.187 13685457
8119.5923 -1913.4727 11369.837 13685457
8326.4854 -1946.0284 11563.283 13685457
7689.1372 -1782.3541 10590.732 13685457
7697.4976 -1769.7997 10516.134 13685457
7499.707 -1710.4313 10163.367 13685457
7560.1313 -1710.4313 10163.367 13685457
7864.7998 -1765.252 10489.111 13685457
7794.855 -1735.7898 10314.047 13685457
7591.9326 -1677.4062 9967.1328 13685457
7345.1787 -1610.3182 9568.4961 13685457
7402.0664 -1610.3182 9568.4961 13488590
7628.1987 -1646.8566 9785.6064 13488846
6981.6494 -1495.8641 8888.4111 9070706
6954.1348 -1478.776 8786.874 10055806
7006.3755 -1478.776 8786.874 10252414
7740.1733 -1621.562 9635.3066 10776704
7707.0732 -1602.7655 9523.6182 10908545
7928.71 -1636.8322 9726.042 10317177
7778.2539 -1594.1451 9472.3965 7818071
7344.8228 -1494.4937 8880.2676 8148062
7386.2153 -1492.1899 8866.5791 8081757
7450.4141 -1494.4937 8880.2676 8213086
7387.7959 -1471.5055 8743.6719 9002346
7302.6621 -1444.3851 8582.5234 9790834
7353.6875 -1444.3851 8582.5234 10185077
7368.8276 -1437.3853 8540.9297 10579579
7632.6021 -1478.6486 8786.1162 11171201
7936.627 -1527.0957 9073.9883 12422037
8062.9707 -1540.9313 9156.2002 12093326
8276.4678 -1571.126 9335.6162 12027790
8393.9248 -1582.8085 9405.0332 11896458
8756.1445 -1640.1848 9745.9639 9861236
9684.1914 -1802.0997 10708.061 13357764
10157.506 -1877.8326 11158.064 11514534
10323.891 -1896.2085 11267.254 6776935
10390.878 -1896.2085 11267.254 7105387
10263.106 -1860.8951 11057.422 9013130
10372.75 -1868.8052 11104.423 9605783
10545.062 -1887.8345 11217.495 9474455
10885.48 -1936.5304 11506.847 8422795
11788.64 -2084.105 12383.732 7106680
12332.808 -2166.7756 12874.961 6581108
10793.409 -1884.6185 11198.386 6778230
10708.809 -1858.3833 11042.497 6450291
0 0 0 0
0 0 0 0
0 0 0 0
0 0 0 0
-6781.6123 -1219.2772 7510.2471 4941390
-7228.896 -1308.3091 8058.647 5862492
-7180.9854 -1308.3091 8058.647 3822140
-7187.8198 -1318.3502 8120.4961 5006926
-6838.356 -1262.735 7777.9287 2835247
-6992.6914 -1300.0247 8007.6182 3361080
-6945.084 -1300.0247 8007.6182 4743242
-6949.4863 -1309.8275 8067.9995 4940620
-6901.52 -1309.8275 8067.9995 5006413
-7090.2988 -1355.0732 8346.6953 4216642
-6948.5591 -1337.3444 8237.4922 2374441
-6769.7793 -1312.1842 8082.5161 7177838
-6793.8701 -1326.2678 8169.2651 3756346
-6673.6738 -1312.1842 8082.5161 3691069
-6587.5444 -1304.6433 8036.0674 2967089
-6657.7627 -1328.1824 8181.0586 4414791
-6591.6147 -1324.6638 8159.3857 6585957
-6605.2241 -1337.2401 8236.8496 5533523
-6561.1191 -1338.2323 8242.9619 5533011
-6666.8599 -1370.0326 8438.8389 6717539
-6864.1709 -1421.2756 8754.4746 6651747
-6812.123 -1421.2756 8754.4746 1846564
-6556.3164 -1378.4363 8490.6016 1255197
-6486.167 -1374.2687 8464.9307 1189662
-6071.999 -1296.5762 7986.377 3229242
-5795.0508 -1247.1912 7682.1851 5138513
-5987.9751 -1298.949 8000.9927 3428149
-6141.5337 -1342.9281 8271.8857 5533523
-6019.3999 -1326.8467 8172.8311 4546629
-6057.0884 -1346.0197 8290.9287 4678730
-5841.7129 -1308.8093 8061.728 4152132
-5790.6528 -1308.1022 8057.3721 4415048
-5672.0981 -1292.0088 7958.2441 3690813
-5695.2817 -1308.2021 8057.9888 1782817
-5789.1313 -1341.0397 8260.2539 3230264
-5794.4917 -1353.7655 8338.6396 2242340
-6019.166 -1418.3915 8736.709 3033649
-5967.2241 -1418.3915 8736.709 5007693
-5724.8647 -1372.7323 8455.4678 3428659
-5830.5498 -1410.4592 8687.8496 4612933
-6026.6816 -1470.9359 9060.3613 1980444
-5997.6973 -1477.0636 9098.1055 5270346
-6229.855 -1548.2002 9536.2773 4480829
-5883.125 -1475.4609 9088.2334 4612153
-6040.6265 -1529.0044 9418.0391 4612406
-6027.625 -1539.988 9485.6943 3362596
-5793.1489 -1494.0607 9202.8008 4745025
-5781.3779 -1505.2412 9271.668 4087092
-5714.9224 -1502.2622 9253.3184 5337162
-5995.4756 -1591.3289 9801.9326 4745281
-6010.6577 -1611.0176 9923.2061 7047778
-6023.6958 -1630.516 10043.309 5205575
-6074.7578 -1660.8003 10229.849 3955257
-6139.5972 -1695.5022 10443.597 2967856
-6076.896 -1695.3315 10442.547 3756605
-5894.123 -1661.3142 10233.014 2177315
-5777.6484 -1645.4691 10135.414 3098161
-5757.1406 -1656.9092 10205.88 3953208
-5696.4639 -1656.9092 10205.88 3887404
-5576.0786 -1639.355 10097.754 4545590
-5585.3154 -1659.942 10224.562 5203266
-5625.6968 -1690.3402 10411.802 3623978
-5441.9253 -1653.3147 10183.739 4940607
-5348.9639 -1643.3553 10122.395 4874554
-5283.7173 -1641.7811 10112.698 5401663
-5223.5942 -1641.7811 10112.698 7046742
-5250.0605 -1669.313 10282.283 3427882
-5105.9351 -1642.6133 10117.823 4612927
-5127.7983 -1669.313 10282.283 4152890
-5129.3008 -1689.9489 10409.392 2046234
-4843.6768 -1615.3341 9949.7949 3559475
-4911.3696 -1658.1597 10213.583 4612161
-4912.8301 -1679.4165 10344.516 1716760
-4868.5566 -1685.3804 10381.251 5204038
-4799.9248 -1682.9567 10366.322 4677694
-4745.4805 -1685.5093 10382.045 3361836
-4689.2456 -1687.4844 10394.211 2045978
-4667.5532 -1702.1093 10484.294 4678207
-4659.9209 -1722.3263 10608.823 4349237
-4631.4258 -1735.2816 10688.623 6980698
-4361.002 -1656.6918 10204.541 6717783
-4283.2651 -1650.1161 10164.038 2835996
-4292.6011 -1677.3774 10331.956 4678458
-4231.1753 -1677.3774 10331.956 4613435
-4161.856 -1674.2025 10312.399 6784864
-4182.0312 -1707.4718 10517.326 2243874
-4241.1426 -1757.8896 10827.879 2836522
-4176.7681 -1757.8896 10827.879 3100205
-4163.7339 -1779.8357 10963.058 4152632
-4046.8179 -1757.3684 10824.668 3560493
-3911.0471 -1725.8546 10630.556 3428906
-3783.2495 -1696.8816 10452.095 4086576
-3633.4531 -1656.9093 10205.881 4612915
-3375.5671 -1565.4517 9642.5391 4152616
-3291.2759 -1552.7311 9564.1855 5797439
-3387.9778 -1626.4514 10018.273 4678956
-3334.2666 -1629.3104 10035.883 5928768
-3291.0762 -1637.5078 10086.376 3889444
-3209.1951 -1626.4017 10017.967 6192201
-3116.2378 -1609.1559 9911.7393 5139781
-2969.6206 -1563.0023 9627.4531 3561265
-2912.3828 -1563.0023 9627.4531 2640676
-2845.1841 -1557.5494 9593.8652 3561511
-2295.6851 -1282.4448 7899.3335 5008943
-2101.1892 -1198.3073 7381.0806 8894792
-2062.3591 -1201.2501 7399.2075 8566594
-2011.752 -1197.3121 7374.9512 6393907
-1950.795 -1186.9015 7310.8262 5735722
-1881.5114 -1170.835 7211.8628 6590264
-2048.5513 -1304.509 8035.2397 6851903
-2000.7798 -1304.509 8035.2397 5074991
-1796.2196 -1199.7825 7390.167 9088117
-1750.5978 -1198.6285 7383.0596 7971424
-1708.3463 -1199.7825 7390.167 10735000
-1815.4387 -1308.6509 8060.7524 9880187
-1920.8823 -1422.2024 8760.1826 9750601
-1995.8993 -1518.9275 9355.9697 7446844
-2101.8396 -1645.4067 10135.029 5733954
-2093.1331 -1686.9523 10390.934 4023337
-1683.1809 -1397.808 8609.9238 4747054
-1558.7633 -1335.087 8223.5879 8695653
-1372.4979 -1213.6157 7475.3745 994311
-1338.1884 -1222.876 7532.4146 5402429
0 0 0 0
-1096.2745 -1073.6685 6613.3574 4612402
-1090.765 -1108.0118 6824.8979 4614691
-1073.5476 -1132.6564 6976.6982 9682249
-1023.0677 -1122.7777 6915.8496 6458154
-923.34137 -1055.7625 6503.063 4483859
-850.71826 -1015.2343 6253.4263 9484882
