# .PCD v0.7 - Point Cloud Data file format
VERSION 0.7
FIELDS x y z rgb
SIZE 4 4 4 4
TYPE F F F U
COUNT 1 1 1 1
WIDTH 1384
HEIGHT 1
VIEWPOINT 0 0 0 1 0 0 0
POINTS 1384
DATA ascii
-3698.0315 -2468.2095 9163.1182 6326105
0 0 0 0
0 0 0 0
0 0 0 0
0 0 0 0
-2518.47 -1814.5813 6736.5522 1916690
-2478.4194 -1814.5813 6736.5522 1784846
-2482.6436 -1847.5297 6858.8716 2113554
-2543.9006 -1924.73 7145.4746 1126662
-2501.4187 -1924.73 7145.4746 2904088
-2437.0205 -1907.5748 7081.7871 4812584
-2380.177 -1895.8341 7038.1997 4418084
-2434.1755 -1973.5396 7326.6782 4351783
-2390.6162 -1973.5396 7326.6782 5732672
-2302.5076 -1936.0798 7187.6104 13097400
-2248.7358 -1926.6217 7152.4976 3892024
-2206.2122 -1926.6217 7152.4976 10402188
-2165.106 -1927.8838 7157.1826 4351796
-2109.2314 -1915.7825 7112.2578 5600832
-2107.2598 -1953.1471 7250.9717 3233811
-1999.3114 -1891.7947 7023.2036 5405236
-1957.5566 -1891.7947 7023.2036 5469752
-1987.3583 -1962.4546 7285.5254 5008691
-1881.7961 -1899.6173 7052.2451 9018504
-1828.6505 -1888.035 7009.2461 11781048
-1655.717 -1749.3503 6494.3857 6580846
-1597.4218 -1728.0565 6415.3325 11710134
-1578.4951 -1749.3503 6494.3857 14012116
-1493.7417 -1696.9313 6299.7817 13814992
-1402.569 -1634.3357 6067.3984 13683665
-1313.4503 -1570.8921 5831.8672 13288906
-1308.8896 -1607.882 5969.1904 10462138
-1283.1284 -1620.1642 6014.7876 3888191
-1188.0708 -1543.144 5728.854 4480576
-1154.0111 -1543.144 5728.854 3094072
-1086.0094 -1496.3763 5555.231 13089742
-1039.5193 -1477.2448 5484.2056 923429
-1030.974 -1512.543 5615.2485 3095115
-1138.3835 -1726.0139 6407.75 8418447
-1085.4103 -1702.676 6321.1094 13747923
-1035.9355 -1683.3485 6249.3569 10064024
-998.78131 -1683.3485 6249.3569 7505797
-856.86163 -1499.9545 5568.5146 1978411
-886.47052 -1614.151 5992.4639 2306863
-790.64899 -1499.9545 5568.5146 990233
-793.93256 -1572.0078 5836.0088 6057319
-759.2359 -1572.0078 5836.0088 1512476
-720.75446 -1563.796 5805.5234 13417168
-686.53235 -1564.4647 5808.0054 14732764
-699.39691 -1678.1873 6230.1958 2301745
-666.09058 -1687.6477 6265.3174 9341597
-609.565 -1635.9146 6073.2598 11313850
-549.79352 -1568.407 5822.6411 8682869
-506.11319 -1540.8152 5720.208 2048044
-466.6723 -1523.0846 5654.3838 2245678
-422.24747 -1485.0724 5513.2651 2048812
0 0 0 0
0 0 0 0
-313.89673 -1439.1464 5342.7671 1979688
-282.75525 -1442.323 5354.5601 796689
-243.85674 -1401.7173 5203.8135 862986
-212.91862 -1401.7173 5203.8135 4679993
-181.9805 -1401.7173 5203.8135 5732419
-162.30193 -1506.2094 5591.7354 3758119
-129.47156 -1511.0416 5609.6748 3757355
-95.533188 -1501.8092 5575.3999 136704
-60.82196 -1464.1611 5435.6333 70657
-28.637951 -1470.9586 5460.8687 663303
3.8575001 -1482.1266 5502.3291 1255950
36.294819 -1470.9586 5460.8687 1651218
63.746449 -1363.6816 5062.6074 1322765
87.586464 -1272.7367 4724.9785 1454091
110.65436 -1217.4669 4519.792 1717776
132.66855 -1174.4675 4360.1587 928258
158.5909 -1174.4675 4360.1587 1389578
182.29785 -1160.366 4307.8071 2311192
202.43083 -1129.7919 4194.3022 1456652
215.36775 -1070.1667 3972.9463 2444060
256.20163 -1147.2478 4259.1064 336131
289.96649 -1181.6553 4386.8428 536068
325.51407 -1217.0494 4518.2422 2509343
394.52225 -1362.6147 5058.6465 1521425
429.73822 -1379.1129 5119.8955 730884
450.5097 -1350.1395 5012.333 1980693
0 0 0 0
0 0 0 0
0 0 0 0
0 0 0 0
0 0 0 0
0 0 0 0
0 0 0 0
0 0 0 0
0 0 0 0
0 0 0 0
0 0 0 0
0 0 0 0
0 0 0 0
0 0 0 0
748.28223 -1125.6594 4178.9604 1851672
840.67725 -1224.0109 4544.0859 3826234
882.93896 -1245.5175 4623.9282 3168301
910.42957 -1245.5175 4623.9282 2970408
937.92004 -1245.5175 4623.9282 2245917
955.1756 -1232.3129 4574.9067 4215368
0 0 0 0
0 0 0 0
951.58862 -1131.0625 4199.019 3037735
1213.3353 -1405.3083 5217.145 3234852
1337.8254 -1510.8716 5609.0439 3498015
1465.9027 -1615.2529 5996.5552 4681522
1623.0077 -1745.9032 6481.5884 4944180
1739.9663 -1828.309 6787.5156 4154663
1780.3199 -1828.309 6787.5156 5010230
1708.4277 -1715.5922 6369.0601 4812594
1715.1948 -1685.0402 6255.6367 4285504
0 0 0 0
0 0 0 0
0 0 0 0
0 0 0 0
0 0 0 0
0 0 0 0
0 0 0 0
0 0 0 0
0 0 0 0
0 0 0 0
5479.7051 -4346.6167 16136.621 8496024
5576.8125 -4347.5293 16140.01 10139822
5672.1265 -4347.0361 16138.18 11187118
4371.7959 -3294.75 12231.613 11844280
4444.5161 -3294.75 12231.613 10073773
5960.2417 -4347.2393 16138.932 8691608
6056.5303 -4347.4814 16139.832 8229527
6152.4858 -4347.4814 16139.832 7110797
0 0 0 0
0 0 0 0
0 0 0 0
0 0 0 0
0 0 0 0
6726.1343 -4346.1328 16134.826 13619407
6821.2339 -4345.6074 16132.873 13553870
6916.5713 -4345.2441 16131.526 13685457
7012.4775 -4345.2441 16131.526 13685457
7108.5962 -4345.374 16132.009 13685457
7204.5063 -4345.374 16132.009 13619664
7299.9331 -4345.0874 16130.944 13685457
7395.5093 -4344.8955 16130.231 13685457
7491.2783 -4344.8203 16129.952 13619921
7587.0767 -4344.7637 16129.742 13619921
7682.8877 -4344.7153 16129.563 13685457
7778.7256 -4344.6836 16129.446 13685457
7874.5303 -4344.6343 16129.263 13685457
7973.4707 -4346.2959 16135.43 13554128
8071.4185 -4347.3828 16139.465 13554387
8167.3716 -4347.3828 16139.465 11844304
8263.2725 -4347.355 16139.362 6781069
8358.6562 -4347.0591 16138.263 5861506
8454.9932 -4347.2598 16139.008 7243929
8551.1143 -4347.3462 16139.33 6190982
8646.8662 -4347.2451 16138.954 5796482
8742.208 -4346.9424 16137.83 5335676
8838.1523 -4346.9424 16137.83 5862279
8934.75 -4347.2607 16139.012 6520468
9031.1367 -4347.4707 16139.792 8293795
9127.0928 -4347.4707 16139.792 4215655
9223.0488 -4347.4707 16139.792 4281191
9318.6973 -4347.3271 16139.26 7177108
9414.6494 -4347.3271 16139.26 4479081
9510.3389 -4347.207 16138.813 3755357
9605.1787 -4346.7046 16136.949 3689565
9700.9883 -4346.6475 16136.734 4282217
9796.7275 -4346.5591 16136.408 3755615
9892.6631 -4346.5591 16136.408 4545129
9988.9561 -4346.7148 16136.986 6190465
10084.477 -4346.5347 16136.317 2769486
0 0 0 0
8646.3965 -3657.1228 13576.906 4342355
10372.655 -4346.6914 16136.898 3819610
10468.432 -4346.624 16136.648 4477794
10565.517 -4347.0962 16138.401 5793649
10661.463 -4347.0962 16138.401 6649467
10756.603 -4346.77 16137.189 7570056
10852.382 -4346.7051 16136.95 4015952
10948.016 -4346.5845 16136.502 6715265
11043.496 -4346.4048 16135.835 6320765
11139.375 -4346.3843 16135.759 6321277
11235.307 -4346.3843 16135.759 2768208
11331.777 -4346.5913 16136.526 3492702
11428.204 -4346.7778 16137.22 7505562
11524.145 -4346.7778 16137.22 8097187
11620.085 -4346.7778 16137.22 4147298
11716.385 -4346.9111 16137.715 5989243
11812.015 -4346.7959 16137.287 2370114
11907.955 -4346.7959 16137.287 3688540
12004.029 -4346.8442 16137.466 4017504
12100.197 -4346.9258 16137.768 3491672
12195.302 -4346.6265 16136.658 3492439
12292.514 -4347.0776 16138.332 7112078
12388.987 -4347.2622 16139.018 4409431
12484.883 -4347.2427 16138.945 7042178
12579.085 -4346.6387 16136.703 3819348
12675.873 -4346.9307 16137.787 5203570
12772.115 -4347.0322 16138.164 7768213
12868.265 -4347.1011 16138.419 3686475
12964.008 -4347.0322 16138.164 8951965
10899.534 -3627.9326 13468.538 13685198
13153.963 -4346.3926 16135.789 13619662
12508.296 -4103.1245 15232.667 13619405
12482.561 -4065.249 15092.057 13685457
12014.271 -3884.8142 14422.201 13685457
12100.015 -3884.8142 14422.201 13619665
12533.734 -3995.749 14834.041 13750737
12638.862 -4001.1099 14853.943 13750737
12727.173 -4001.1099 14853.943 13750737
12145.623 -3791.9736 14077.533 13750480
12139.908 -3764.25 13974.611 13553871
14115.051 -4346.9375 16137.812 13750481
14211.684 -4347.1489 16138.597 13356234
14307.845 -4347.2129 16138.835 8088453
14403.956 -4347.2612 16139.016 4211543
14499.505 -4347.1411 16138.568 3487819
14593.933 -4346.688 16136.887 2565941
14689.87 -4346.688 16136.887 3290424
14785.81 -4346.688 16136.887 5723742
14880.652 -4346.3687 16135.7 4737361
14970.508 -4344.6055 16129.154 2697526
14872.383 -4288.6577 15921.451 2170929
14694.227 -4210.4854 15631.24 2236979
14300.021 -4071.7781 15116.296 2631738
14206.161 -4019.7896 14923.29 3092802
12718.598 -3576.5305 13277.71 2763835
11846.196 -3310.6592 12290.675 2698302
11919.268 -3310.6592 12290.675 2699072
0 0 0 0
0 0 0 0
0 0 0 0
0 0 0 0
-7221.144 -2106.5564 7997.0034 1649694
-7587.5566 -2228.1167 8458.4756 1649439
-7537.2686 -2228.1167 8458.4756 2833713
-7486.981 -2228.1167 8458.4756 1912610
-7071.7368 -2118.7717 8043.376 1123862
-7023.917 -2118.7717 8043.376 1978660
-7584.3306 -2303.5039 8744.6641 2438955
-7327.5771 -2240.8838 8506.9434 2636332
-6646.02 -2046.579 7769.3149 2176037
-6439.2075 -1996.7711 7580.2319 2767918
-7179.4224 -2241.9998 8511.1797 1846818
-7649.1143 -2405.6309 9132.3633 1978404
-6889.9922 -2182.3792 8284.8457 2241321
-6840.7363 -2182.3792 8284.8457 1912357
-7115.6611 -2286.5518 8680.3105 1912100
-7103.9795 -2299.4751 8729.3701 1122584
-7012.4478 -2286.5518 8680.3105 1714977
-6763.292 -2221.6594 8433.9629 2110247
-6487.1094 -2146.8533 8149.981 2044707
-6371.0381 -2124.3076 8064.3916 3690043
-6846.5537 -2300.1692 8732.0059 3623995
-6794.6392 -2300.1692 8732.0059 2900275
-6555.0039 -2236.1313 8488.9023 2374189
-6570.1108 -2258.675 8574.4834 2571569
-7020.0923 -2432.2417 9233.3848 2308144
-6965.1978 -2432.2417 9233.3848 1716263
-6453.7207 -2271.5374 8623.3115 1123869
-6544.748 -2322.0225 8814.9658 1650472
-6492.3403 -2322.0225 8814.9658 465940
-6430.7988 -2318.7288 8802.4619 1912875
-6387.0532 -2321.8508 8814.3135 1583909
-6498.1929 -2381.7947 9041.875 1452582
-6444.4365 -2381.7947 9041.875 1781290
-6225.4932 -2320.2295 8808.1592 1386275
-6058.791 -2277.2556 8645.0195 1584424
-6037.626 -2288.7158 8688.5254 1913389
-6312.6001 -2413.6016 9162.6221 2044975
-6342.3853 -2446.0984 9285.9883 1387045
-6287.1772 -2446.0984 9285.9883 1716010
-6188.0205 -2428.8481 9220.502 1781290
-6102.9443 -2416.8655 9175.0127 1649704
-6021.7998 -2406.2378 9134.668 1781290
-5987.0151 -2414.1101 9164.5527 794907
-5932.5293 -2414.1101 9164.5527 1716007
-6000.5874 -2464.439 9355.6133 2044971
-5944.9658 -2464.439 9355.6133 1255964
-5960.8149 -2494.3464 9469.1494 1913892
-5995.6562 -2532.8474 9615.3086 2769968
-5938.4902 -2532.8474 9615.3086 3361845
-6043.7236 -2602.7859 9880.8125 3559226
-6038.1812 -2625.9229 9968.6455 2506541
-5978.915 -2625.9229 9968.6455 2045737
-5853.8857 -2596.7507 9857.9014 2440495
-5753.022 -2577.8167 9786.0234 993049
-5616.707 -2542.4485 9651.7568 2374190
-5586.6924 -2554.9648 9699.2715 1189662
-5529.0273 -2554.9648 9699.2715 398861
-5490.2017 -2563.762 9732.668 729110
-5224.9058 -2465.8652 9361.0283 333324
-5132.2646 -2448.2217 9294.0488 333838
-5077.0093 -2448.2217 9294.0488 1057816
-5260.7705 -2564.748 9736.4111 926996
-5217.0688 -2571.7402 9762.9551 2374438
-5144.9995 -2564.748 9736.4111 598793
-5142.0918 -2592.4661 9841.6357 2967593
-5091.7021 -2596.6079 9857.3594 2704417
-5025.334 -2592.6028 9842.1543 2375710
-5063.5376 -2643.0879 10033.809 3033642
-5014.5977 -2648.7473 10055.293 927755
-4988.9121 -2666.9744 10124.487 664587
-4929.7173 -2667.5144 10126.537 992784
-4869.5122 -2667.5144 10126.537 1387540
-4747.7271 -2633.3586 9996.874 1979933
-4557.6997 -2560.0061 9718.4092 1190671
-2883.4775 -1640.411 6227.4014 1059597
-2508.7825 -1445.8109 5488.6519 2244634
-2931.0754 -1711.4388 6497.0405 6719060
-3014.636 -1783.7361 6771.4985 6786877
-2853.822 -1711.4388 6497.0405 4418331
-3024.5181 -1838.6921 6980.1255 5602865
-2983.0193 -1838.6921 6980.1255 6457924
-2997.3071 -1873.5632 7112.5049 6392394
-2934.2507 -1860.3943 7062.5122 5011002
-3473.3289 -2234.1548 8481.3984 2247191
-3657.5549 -2387.3127 9062.8232 2509596
-2424.0813 -1605.8724 6096.2847 732932
0 0 0 0
0 0 0 0
0 0 0 0
-2518.47 -1774.5305 6736.5522 1981462
-2523.4214 -1806.7517 6858.8716 665605
-2606.9175 -1897.1926 7202.207 2046487
-2565.5557 -1898.2708 7206.3003 1256968
-2522.7119 -1898.2708 7206.3003 929027
-2581.2507 -1975.8759 7500.9087 2969368
-2507.4973 -1953.1637 7414.687 1917191
-2464.6902 -1954.1747 7418.5254 4088357
-2439.3208 -1969.3004 7475.9463 4680245
-2394.8743 -1969.3004 7475.9463 11259810
-2259.7751 -1893.3474 7187.6104 4155195
-2244.343 -1916.6619 7276.1172 8562048
-2201.0845 -1916.6619 7276.1172 8098156
-2156.2739 -1915.2831 7270.8833 8955033
-2151.2415 -1949.9032 7402.3101 4089900
-2111.0056 -1953.3945 7415.564 4287025
-1965.6511 -1857.6897 7052.2451 5142575
-2007.2225 -1938.3225 7358.3467 5142323
-1944.0438 -1919.1401 7285.5254 3825706
-1975.7507 -1994.8882 7573.0835 5073228
-1464.318 -1512.98 5743.6421 8357249
0 0 0 0
-1628.4745 -1764.906 6700.0151 3355198
-1521.14 -1689.9154 6415.3325 7494518
-1456.2877 -1659.4773 6299.7817 9597587
-1344.3781 -1572.3934 5969.1904 13153739
-1371.2751 -1647.3384 6253.6992 5192267
-1283.1284 -1584.4045 6014.7876 4143173
-1247.3688 -1584.4045 6014.7876 2039589
-1156.1472 -1511.8777 5739.4575 4212301
-1097.7424 -1479.1588 5615.2485 2764605
-1055.3336 -1466.6171 5567.6372 9009799
-1030.974 -1479.1588 5615.2485 3284017
-1077.3457 -1597.4155 6064.1802 10849956
-1125.1763 -1726.099 6552.6943 13750227
-1089.0118 -1730.5377 6569.5444 11184569
-1008.7155 -1662.5681 6311.5151 4084312
-961.62714 -1646.1945 6249.3569 6453109
-886.47052 -1578.5242 5992.4639 2766136
-780.20538 -1447.4728 5494.9609 2768449
0 0 0 0
0 0 0 0
0 0 0 0
-758.60431 -1690.5464 6417.728 10067870
-725.77502 -1703.0436 6465.1704 13619155
-666.09058 -1650.3987 6265.3174 13550543
-603.67303 -1584.3439 6014.5566 9206417
-548.52179 -1530.2419 5809.1729 3749968
-506.11319 -1506.807 5720.208 2110003
-466.6723 -1489.4677 5654.3838 1188891
-426.79993 -1467.9523 5572.7061 2241324
0 0 0 0
0 0 0 0
0 0 0 0
-282.75525 -1410.4886 5354.5601 1453080
-241.14503 -1355.5361 5145.9468 993545
-210.55093 -1355.5361 5145.9468 1653001
-189.81766 -1429.8132 5427.9209 5337662
-162.30193 -1472.965 5591.7354 4020780
-129.05751 -1472.965 5591.7354 334340
-92.336868 -1419.5238 5388.8599 201729
-60.380199 -1421.4451 5396.1533 531207
-28.516949 -1432.4144 5437.7954 992012
3.8284333 -1438.4922 5460.8687 1190156
36.141464 -1432.4144 5437.7954 1453582
60.361687 -1262.7734 4793.7969 1914388
87.586464 -1244.6454 4724.9785 664065
114.00526 -1226.6499 4656.6631 927747
135.18517 -1170.3323 4442.8677 993795
160.59589 -1163.0656 4415.2817 928514
185.63383 -1155.5205 4386.6387 1390346
207.90897 -1134.7549 4307.8071 2705950
235.39862 -1143.8834 4342.4614 2772254
261.21576 -1143.8834 4342.4614 798466
293.21506 -1168.5205 4435.9897 534528
335.2103 -1225.6399 4652.8291 1982741
399.29907 -1348.6737 5119.8955 2640419
429.73822 -1348.6737 5119.8955 1257746
460.17746 -1348.6737 5119.8955 270085
472.34079 -1298.4346 4929.1753 4217663
0 0 0 0
0 0 0 0
0 0 0 0
0 0 0 0
0 0 0 0
0 0 0 0
0 0 0 0
0 0 0 0
0 0 0 0
0 0 0 0
0 0 0 0
0 0 0 0
0 0 0 0
748.28223 -1100.8142 4178.9604 2970148
830.4126 -1182.3798 4488.603 2378526
858.81897 -1184.7529 4497.6123 1983514
882.66559 -1180.8827 4482.9194 3495983
932.83368 -1211.4215 4598.8525 2705695
955.1756 -1205.1138 4574.9067 4083528
982.37463 -1205.1138 4574.9067 8884617
1094.2137 -1306.1473 4958.4551 6318937
1159.2444 -1347.4709 5115.3296 2049041
1193.6501 -1351.9945 5132.502 3694119
1430.2516 -1579.6019 5996.5552 4154665
1584.4728 -1707.3684 6481.5884 6260791
1750.0442 -1841.0082 6988.9175 3694366
1756.7142 -1805.165 6852.8481 5865020
1791.0779 -1798.7592 6828.5303 5930817
1708.4277 -1677.7263 6369.0601 7904098
1746.2936 -1677.7263 6369.0601 6654550
1548.1633 -1455.8085 5526.6055 3034929
1581.0204 -1455.8085 5526.6055 6720844
1590.2538 -1434.4984 5445.707 5273401
1622.63 -1434.4984 5445.707 8037973
1655.0062 -1434.4984 5445.707 7838561
0 0 0 0
0 0 0 0
0 0 0 0
0 0 0 0
0 0 0 0
0 0 0 0
5575.6416 -4250.6802 16136.621 5995627
0 0 0 0
5767.3804 -4250.5806 16136.244 12108989
5863.3149 -4250.5806 16136.244 7641480
5960.5742 -4251.5259 16139.832 5863278
6056.7295 -4251.666 16140.364 6519676
6152.9976 -4251.8789 16141.174 7834775
6248.6479 -4251.666 16140.364 8163743
0 0 0 0
0 0 0 0
0 0 0 0
0 0 0 0
0 0 0 0
6821.2339 -4249.6929 16132.873 13553869
6917.8174 -4250.1035 16134.434 13488079
7015.0347 -4250.8872 16137.408 13422285
7109.665 -4250.1035 16134.434 13488078
7205.3848 -4249.9834 16133.977 13619664
7299.9414 -4249.189 16130.961 13685457
7395.5229 -4249.0044 16130.261 13685457
7491.3242 -4248.9487 16130.05 13685201
7587.0923 -4248.877 16129.775 13619921
7682.9336 -4248.8467 16129.661 13685457
7778.7407 -4248.7979 16129.477 13685457
7874.5161 -4248.7339 16129.233 13685457
7970.4458 -4248.7539 16129.309 13619410
8070.7451 -4251.0747 16138.119 13553619
8166.7622 -4251.1118 16138.261 13422803
8262.8887 -4251.2046 16138.613 10660024
8358.8379 -4251.2046 16138.613 6386307
8454.2227 -4250.9214 16137.538 6519689
8550.4033 -4251.0396 16137.987 6125703
8646.1074 -4250.9214 16137.538 6519433
8742.208 -4250.9985 16137.83 6257029
8838.0244 -4250.937 16137.597 7178389
8933.9658 -4250.937 16137.596 3493470
9030.7168 -4251.3179 16139.042 13161688
9126.6689 -4251.3179 16139.042 4673115
9223.6055 -4251.772 16140.766 4610408
9318.9551 -4251.4927 16139.707 5136751
9414.9102 -4251.4927 16139.707 4676201
9510.3389 -4251.2573 16138.813 4018270
9605.707 -4251 16137.836 4216163
9701.1348 -4250.7739 16136.979 3952992
9797.0732 -4250.7739 16136.979 3689563
9892.6631 -4250.624 16136.408 4215905
9988.5986 -4250.624 16136.408 3163987
10084.477 -4250.5996 16136.317 3952731
9177.2871 -3831.7678 14546.328 8425884
10279.566 -4251.9321 16141.374 6845570
10373.321 -4251.0259 16137.935 3556950
10468.593 -4250.7529 16136.898 6978946
10565.21 -4251.0259 16137.935 6189429
10661.463 -4251.1489 16138.401 4610396
10756.216 -4250.6768 16136.609 4411994
10851.511 -4250.4253 16135.655 8492466
10947.441 -4250.4253 16135.655 11517130
11043.268 -4250.3848 16135.502 3161675
10099.56 -3853.6899 14629.551 6649223
10655.543 -4031.1208 15303.122 3359830
11331.462 -4250.5366 16136.077 3820894
11427.078 -4250.4189 16135.63 5333621
11523.794 -4250.7085 16136.729 5597048
11619.731 -4250.7085 16136.729 4741739
11716.385 -4250.9678 16137.715 8623272
11812.015 -4250.8555 16137.287 4544107
11908.615 -4251.0908 16138.182 6452101
12004.763 -4251.1621 16138.451 6715016
12101.044 -4251.2793 16138.897 8228510
12196.917 -4251.2524 16138.795 3622743
12293.209 -4251.3706 16139.244 3228241
12389.495 -4251.4854 16139.679 4149599
12485.682 -4251.5645 16139.979 5136494
12581.639 -4251.5645 16139.979 3886683
12677.507 -4251.5342 16139.865 5071209
12773.462 -4251.5342 16139.865 5334895
12869.272 -4251.4863 16139.683 5136488
12964.212 -4251.1533 16138.419 7375242
10930.34 -3557.8857 13506.604 8814983
13154.037 -4250.4844 16135.879 13487567
13249.969 -4250.4844 16135.879 13554386
12482.561 -3975.5225 15092.057 13554385
12204.534 -3859.2344 14650.598 13685457
12100.015 -3799.0703 14422.201 13619665
12548.899 -3912.2842 14851.988 13750737
13720.221 -4247.5713 16124.82 13684944
13826.654 -4250.8203 16137.154 13684944
13921.82 -4250.584 16136.257 13619661
12562.769 -3809.3906 14461.379 13619664
14114.874 -4250.9409 16137.611 13816019
14210.994 -4250.9937 16137.812 12565442
14307.845 -4251.2632 16138.835 4343127
14403.956 -4251.3105 16139.016 6381939
14499.869 -4251.2993 16138.974 3618633
14594.765 -4250.9927 16137.808 4210511
14690.3 -4250.874 16137.358 4079438
14786.115 -4250.8379 16137.222 4474450
14880.678 -4250.4443 16135.728 5987684
14976.584 -4250.4375 16135.7 6974579
15072.424 -4250.4116 16135.602 7039602
14694.227 -4117.5532 15631.24 7368824
12560.718 -3497.5906 13277.71 6710898
11505.896 -3183.8611 12086.716 4079947
11577.755 -3183.8611 12086.716 3487299
11264.307 -3078.5557 11686.951 3355715
11919.268 -3237.5874 12290.675 2829626
0 0 0 0
0 0 0 0
0 0 0 0
0 0 0 0
-7221.144 -2059.012 7997.0034 991510
-7388.4424 -2120.6777 8236.5068 1188633
-7339.4741 -2120.6777 8236.5068 1320475
-7290.5059 -2120.6777 8236.5068 859668
-7139.4077 -2090.7688 8120.3442 1188632
-6977.0928 -2057.1458 7989.7549 1451804
-6966.9238 -2068.2285 8032.7998 3096885
-6919.167 -2068.2285 8032.7998 1517852
-6871.4102 -2068.2285 8032.7998 2438955
-6450.3608 -1955.0848 7593.3608 2110246
-6853.5156 -2091.9209 8124.8184 1517853
-6921.3428 -2127.6199 8263.4697 1451805
-6866.4033 -2125.8208 8256.4824 1780256
-6817.3169 -2125.8208 8256.4824 1648670
-6992.6875 -2196.3203 8530.2959 1254169
-7103.9795 -2247.5767 8729.3701 1188632
-7052.0811 -2247.5767 8729.3701 1780513
-6763.292 -2171.5171 8433.9629 1978660
-6640.1782 -2147.9128 8342.2861 1978146
-6450.8291 -2102.3669 8165.3901 3163446
-6655.9419 -2185.6626 8488.9023 2900272
-6605.4731 -2185.6626 8488.9023 3097906
-6555.0039 -2185.6626 8488.9023 2965809
-6488.5981 -2180.3074 8468.1035 1913125
-6332.4907 -2144.491 8328.9961 1057817
-6467.0381 -2207.3159 8573.002 860438
-6416.0693 -2207.3159 8573.002 2439469
-6583.7959 -2283.1562 8867.5586 2636592
-6670.7544 -2331.9856 9057.207 3162937
-6450.9858 -2273.5105 8830.0947 1913128
-6551.9492 -2328.0381 9041.875 1978922
-6498.1929 -2328.0381 9041.875 794394
-6444.4365 -2328.0381 9041.875 1386274
-6291.0845 -2291.7568 8900.9619 1781289
-6110.959 -2245.0239 8719.4561 2307634
-6007.394 -2225.8584 8645.0195 1321509
-6162.4722 -2303.022 8944.7148 1387302
-6342.3853 -2390.8906 9285.9883 1387045
-6324.1152 -2404.9375 9340.5449 992289
-6188.0205 -2374.0298 9220.502 860445
-6133.2021 -2374.0298 9220.502 860701
-6048.396 -2362.3176 9175.0127 2241841
-5967.4917 -2351.9299 9134.668 2110766
-5913.1836 -2351.9299 9134.668 1716009
-6014.1211 -2414.25 9376.7139 1650213
-5958.374 -2414.25 9376.7139 1650467
-5902.6265 -2414.25 9376.7139 662801
-5904.5181 -2438.0498 9469.1494 1650977
-5850.3779 -2438.9487 9472.6416 2243109
-6020.5273 -2534.2776 9842.8896 3690552
-6120.0176 -2601.4426 10103.752 3164207
-5984.9707 -2569.2561 9978.7422 400136
-5925.644 -2569.2561 9978.7422 1716513
-5780.9316 -2531.8596 9833.498 2111271
-5602.8491 -2478.9351 9627.9443 2242858
-5559.3242 -2485.0662 9651.7568 1913894
-5529.0273 -2497.2998 9699.2715 333837
-5517.0332 -2518.1455 9780.2334 465680
-5224.9058 -2410.2114 9361.0283 597265
-5092.9233 -2374.6226 9222.8047 399886
-5109.269 -2408.1711 9353.1045 1320217
-5180.1045 -2468.4233 9587.1182 1320728
-5123.1064 -2468.4233 9587.1182 1715739
-5159.0259 -2513.6968 9762.9551 137220
-5142.0918 -2533.9548 9841.6357 1980191
-5212.4526 -2598.1924 10091.128 1650967
-5079.3354 -2561.3193 9947.917 1256208
-5074.3794 -2588.9658 10055.293 2243106
-5014.5977 -2588.9658 10055.293 1256212
-4940.3496 -2581.4067 10025.935 992017
-4997.3247 -2643.0667 10265.415 992528
-4936.2939 -2643.0667 10265.415 465413
-4880.0254 -2645.6482 10275.442 1387027
-4704.6372 -2582.8975 10031.724 1650709
-2883.4775 -1603.3873 6227.4014 1388047
0 0 0 0
-2809.4304 -1603.3873 6227.4014 2442766
-2892.4487 -1672.812 6497.0405 5733178
-2852.2917 -1671.915 6493.5566 6720085
-2813.6855 -1671.915 6493.5566 6786388
-2754.8403 -1659.7214 6446.1978 5997371
-2637.8669 -1611.6689 6259.5664 5734960
-2600.6521 -1611.6689 6259.5664 2114576
-2917.9072 -1834.5292 7125.1338 2772770
-3180.7087 -2029.2155 7881.2769 995337
-2494.1375 -1614.9906 6272.4678 2443806
-2543.7693 -1672.129 6494.3877 1784850
-2412.4465 -1610.2463 6254.041 1653264
-2285.9539 -1549.7007 6018.8877 1784593
-2493.376 -1717.1976 6669.4292 3362856
-2711.4795 -1897.5831 7370.0293 796929
-2716.1609 -1932.0815 7504.0176 4017971
-2640.5381 -1909.6552 7416.9165 399874
-2596.4426 -1909.6552 7416.9165 1716755
-2581.2507 -1931.2809 7500.9087 1650706
-2507.9744 -1909.4445 7416.0977 862466
-2464.6902 -1910.0695 7418.5254 1255692
-2469.5791 -1948.7305 7568.6807 6126914
-2434.7876 -1956.9337 7600.5415 5140275
-2287.6018 -1873.4033 7276.1172 4154144
-1775.6307 -1482.1586 5756.5605 5270866
-2199.5012 -1872.0558 7270.8833 12703929
-2109.2314 -1831.2139 7112.2578 3498803
-2155.0933 -1909.307 7415.564 2971675
-2193.635 -1984.0415 7705.8257 4352811
-2090.8528 -1931.4165 7501.4355 3102745
-2008.3542 -1895.6433 7362.4951 3102236
-1963.2871 -1894.3937 7357.6421 2048276
-2166.228 -2137.8455 8303.1855 2968357
-1671.175 -1687.7396 6555.0181 8355963
0 0 0 0
-1628.4745 -1725.0725 6700.0151 10983102
-1375.6444 -1493.7839 5801.7124 8287909
-1402.569 -1562.1908 6067.3984 8551315
-1366.4965 -1562.1908 6067.3984 12826312
-1477.1331 -1734.4573 6736.4648 14143964
-1222.1305 -1475.0249 5728.854 11379380
-1287.1313 -1598.0115 6206.522 13813717
-1156.1472 -1477.755 5739.4575 6829663
-1122.0244 -1477.755 5739.4575 13218249
-1115.4993 -1515.2422 5885.0542 8483460
-1042.0598 -1461.3206 5675.6279 3226436
-1045.6692 -1515.4545 5885.8784 4475478
-1010.676 -1515.4545 5885.8784 6380136
-1110.0151 -1724.1027 6696.248 12959697
-1008.7155 -1625.0443 6311.5151 5919338
0 0 0 0
0 0 0 0
0 0 0 0
0 0 0 0
0 0 0 0
0 0 0 0
0 0 0 0
0 0 0 0
-648.00299 -1569.3448 6095.1836 12761802
-575.38263 -1476.0129 5732.6919 13684183
-535.23627 -1459.4779 5668.4712 6775399
-500.41431 -1456.2148 5655.7979 1845551
-466.78903 -1456.2148 5655.7979 1513259
0 0 0 0
0 0 0 0
0 0 0 0
-313.89673 -1375.6179 5342.7671 1650967
-284.27063 -1386.0428 5383.2568 1191436
0 0 0 0
0 0 0 0
0 0 0 0
-154.6521 -1371.8617 5328.1782 2310422
-127.80714 -1425.7719 5537.5601 1717520
-92.298683 -1386.9117 5386.6313 2111258
-60.298592 -1387.4856 5388.8599 531720
-28.516949 -1400.0852 5437.7954 861449
3.8122578 -1400.0852 5437.7954 1256719
33.770123 -1308.2217 5081.0068 1651730
61.928387 -1266.3088 4918.2212 1191432
88.862144 -1234.2729 4793.7969 1125639
114.00526 -1198.9647 4656.6631 928516
139.13148 -1177.3113 4572.5635 599297
165.21704 -1169.5276 4542.332 1126663
188.99341 -1149.8812 4466.0273 1784337
214.45897 -1144.0864 4443.521 1061127
240.82083 -1143.8199 4442.4863 2179348
267.23267 -1143.8199 4442.4863 2048019
300.44165 -1170.2968 4545.3193 1718285
364.17685 -1301.4984 5054.894 797441
394.52225 -1302.4646 5058.6465 1916180
424.62094 -1302.537 5058.9277 1718288
483.88449 -1386.1462 5383.6582 1784338
484.77438 -1302.537 5058.9277 2902565
0 0 0 0
0 0 0 0
0 0 0 0
0 0 0 0
0 0 0 0
0 0 0 0
0 0 0 0
0 0 0 0
0 0 0 0
0 0 0 0
0 0 0 0
0 0 0 0
694.18567 -1032.4635 4009.9883 1983508
748.28223 -1075.9692 4178.9604 4220213
818.19525 -1138.6908 4422.5649 1720591
858.81897 -1158.0134 4497.6123 1193740
899.9812 -1176.8734 4570.8628 5271885
949.34546 -1205.0391 4680.2554 3561268
977.1709 -1205.0391 4680.2554 4284485
994.34399 -1192.2664 4630.6475 2902568
1147.7148 -1339.0901 5200.8965 2705956
1221.6427 -1387.9519 5390.6709 3561514
1286.5593 -1424.3394 5531.9961 2640920
1340.5842 -1447.1552 5620.6108 4681524
1498.9381 -1578.7449 6131.6924 5142073
1623.0077 -1668.8335 6481.5884 5207866
1656.9263 -1664.1971 6463.5811 5536833
1635.0194 -1604.9712 6233.5532 3760164
1658.0503 -1591.5051 6181.252 7312989
1709.1396 -1604.9712 6233.5532 5404993
1676.6741 -1541.0685 5985.3608 6260300
1633.7294 -1470.3905 5710.8545 6062404
1590.2538 -1402.1222 5445.707 4286508
1622.63 -1402.1222 5445.707 3430949
1663.7629 -1409.5409 5474.5205 7048556
0 0 0 0
0 0 0 0
0 0 0 0
0 0 0 0
0 0 0 0
0 0 0 0
0 0 0 0
0 0 0 0
0 0 0 0
5863.9668 -4155.1084 16138.038 8426899
5961.0698 -4155.915 16141.174 7242371
6056.73 -4155.707 16140.365 6255224
6153.0327 -4155.9395 16141.267 6452866
6248.9976 -4155.9395 16141.267 6123905
0 0 0 0
0 0 0 0
0 0 0 0
0 0 0 0
0 0 0 0
6822.3862 -4154.48 16135.598 13553872
6920.5508 -4155.8213 16140.809 13488079
7016.5151 -4155.8228 16140.813 13553870
7112.4731 -4155.8203 16140.806 13619664
7206.3423 -4154.6143 16136.121 13685457
7300.9082 -4153.8364 16133.099 13685457
7395.4946 -4153.0894 16130.198 13685457
7491.2944 -4153.0347 16129.986 13619665
7587.0767 -4152.9722 16129.742 13619921
7682.8804 -4152.9224 16129.549 13685457
7778.687 -4152.8755 16129.366 13685457
5967.2681 -3147.002 12222.651 13685454
7898.5381 -4115.394 15983.793 13554126
8071.6426 -4155.5908 16139.914 13291471
8167.5986 -4155.5908 16139.914 12172754
8262.8887 -4155.2559 16138.613 8424352
8358.8379 -4155.2559 16138.613 6716301
8454.1006 -4154.9189 16137.305 5269111
8549.8535 -4154.8281 16136.95 5532280
8645.3115 -4154.5967 16136.053 4216935
8741.3867 -4154.6641 16136.314 4348519
8838.0244 -4154.9946 16137.597 4545642
8933.9658 -4154.9946 16137.597 6848398
9030.7168 -4155.3662 16139.042 7965856
9127.1367 -4155.5796 16139.868 4016732
9223.6055 -4155.8101 16140.766 4215393
9319.3359 -4155.7075 16140.367 4149601
9415.2949 -4155.7075 16140.367 5005680
9510.9883 -4155.5918 16139.917 4084063
9606.7051 -4155.4878 16139.513 3952220
9702.2363 -4155.3071 16138.812 3755100
9797.0732 -4154.835 16136.979 4873323
9894.5918 -4155.4985 16139.555 3755099
9988.7471 -4154.7505 16136.648 3163218
10086.492 -4155.4956 16139.542 4347489
10182.446 -4155.4956 16139.542 6321793
10278.4 -4155.4956 16139.542 5070696
10372.977 -4154.9434 16137.398 1846071
10468.593 -4154.8145 16136.898 5794163
10564.368 -4154.7505 16136.648 3425615
10660.279 -4154.7402 16136.609 3952218
10756.006 -4154.6592 16136.294 6057338
10851.407 -4154.4551 16135.502 5465455
10451.64 -3966.3403 15404.883 3557459
10232.739 -3849.5356 14951.225 3886426
10104.146 -3768.4236 14636.193 6847109
11235.217 -4154.4883 16135.63 3096912
11331.147 -4154.4883 16135.63 2307398
9777.8271 -3554.8774 13806.801 2964817
9491.0938 -3421.9041 13290.346 2899280
9551.2363 -3415.1562 13264.137 6123393
11714.759 -4154.4482 16135.476 3096914
11811.803 -4154.8398 16136.997 5533311
11908.615 -4155.145 16138.182 6188927
12005.014 -4155.3013 16138.789 4215651
12101.298 -4155.416 16139.235 3951965
12197.462 -4155.4888 16139.517 4741481
12293.376 -4155.4751 16139.464 3820379
12389.495 -4155.5303 16139.679 3162961
12485.283 -4155.4751 16139.464 3426390
12581.639 -4155.6079 16139.979 4479076
12678.783 -4155.9976 16141.492 4676711
12774.054 -4155.771 16140.613 3755608
12868.981 -4155.438 16139.318 3360592
12962.348 -4154.6089 16136.099 4939877
10615.873 -3377.5349 13118.019 4676705
11010.641 -3477.585 13506.604 13554642
12030.331 -3772.1323 14650.598 13554385
12125.495 -3774.6423 14660.346 13619919
12013.913 -3713.2158 14421.771 13685457
12099.654 -3713.2158 14421.771 13619664
12859.653 -3918.6802 15219.774 13619661
13720.221 -4151.7051 16124.82 13554126
13827.483 -4155.1299 16138.122 13749458
13923.43 -4155.1299 16138.122 9794456
14017.755 -4154.6494 16136.257 8413832
10300.979 -3032.3013 11777.165 6636910
14209.191 -4154.5225 16135.765 4471128
14305.519 -4154.6377 16136.212 7172748
14404.317 -4155.4644 16139.421 10395049
14499.869 -4155.3491 16138.974 6711162
14594.359 -4154.9331 16137.358 3027013
14689.482 -4154.7021 16136.461 2697788
14785.278 -4154.6626 16136.309 2763579
14880.652 -4154.5063 16135.7 2960957
14970.508 -4152.8208 16129.154 4408143
15066.401 -4152.8208 16129.154 4934744
14210.15 -3892.0371 15116.296 4803158
12263.488 -3337.7539 12963.514 4408400
11095.486 -3000.9988 11655.589 3158590
11164.782 -3000.9988 11655.589 5264220
10655.494 -2846.4395 11055.296 5001560
10721.221 -2846.4395 11055.296 1383199
0 0 0 0
0 0 0 0
0 0 0 0
-6595.0742 -1825.058 7255.894 662545
-7715.7622 -2149.2446 8544.7646 595985
-7388.4424 -2071.7092 8236.5068 1648673
-7469.8018 -2108.4966 8382.7627 1254425
-7290.5059 -2071.7092 8236.5068 596496
-7024.5938 -2009.6443 7989.7549 1912356
-6977.0928 -2009.6443 7989.7549 1912100
-6789.7324 -1969.0842 7828.4995 1320219
-6919.167 -2020.4713 8032.7998 1188633
-6871.4102 -2020.4713 8032.7998 859412
-6872.1523 -2034.832 8089.894 1386012
-6824.0557 -2034.832 8089.894 1517598
-6805.2109 -2043.6166 8124.8184 1715234
-6796.6147 -2055.626 8172.5649 1254683
-6817.3169 -2076.7336 8256.4824 1517598
-7023.7383 -2155.1328 8568.1748 1517341
-7024.3286 -2171.0598 8631.4951 1385755
-6936.3813 -2159.6548 8586.1523 1977892
-6700.3901 -2101.6453 8355.5234 1847075
-6548.6045 -2069.3782 8227.2393 2373161
-6228.5215 -1983.0427 7883.9951 2241317
-6452.2651 -2069.8552 8229.1357 3030834
-6403.3403 -2069.8552 8229.1357 1452060
-6555.0039 -2135.1938 8488.9023 1584158
-6334.4609 -2079.3647 8266.9424 1584160
-6251.6548 -2068.23 8222.6748 1452576
-6467.0381 -2156.3472 8573.002 860438
-6416.0693 -2156.3472 8573.002 1255966
-6653.2949 -2253.9807 8961.165 2966581
-6789.9092 -2318.8306 9218.9883 3492923
-6450.9858 -2221.0132 8830.0947 2243112
-6387.0532 -2217.0435 8814.3135 1518881
-6027.1836 -2109.4346 8386.4912 1321248
-6345.3232 -2239.3042 8902.8145 1057565
-6291.0845 -2238.8381 8900.9619 1715495
-6158.4424 -2210.2258 8787.208 1123358
-6059.1196 -2193.1843 8719.4561 1386530
-6132.731 -2238.9849 8901.5459 1123358
-6342.3853 -2335.6829 9285.9883 135435
-6324.1152 -2349.4053 9340.5449 3162941
-6286.5806 -2356.1504 9367.3613 1056794
-6213.9106 -2349.7305 9341.8369 794394
-6142.4844 -2343.6689 9317.7383 2439473
-5710.3608 -2198.6204 8741.0684 2307885
-5545.2471 -2154.6565 8566.2812 2176811
-5909.687 -2317.5479 9213.8887 2440238
-5931.0195 -2347.6753 9333.666 1782307
-5942.0132 -2374.2405 9439.2822 2242856
-5904.5181 -2381.7529 9469.1494 2506028
-5953.6079 -2424.6729 9639.7861 1453337
-6075.8164 -2498.4951 9933.2812 2506280
-6080.1685 -2524.8257 10037.964 2703914
-5984.9707 -2509.9297 9978.7422 2045984
-6021.375 -2550.4783 10139.952 2177059
-5780.9316 -2473.3967 9833.498 1848097
-5602.8491 -2421.6943 9627.9443 2111015
-5538.2334 -2418.4734 9615.1396 268299
-5336.2134 -2354.5574 9361.0283 2044712
-5326.0239 -2374.8296 9441.624 1584417
-5011.2954 -2258.2959 8978.3203 1255195
-4956.4683 -2257.636 8975.6973 1058070
-5237.103 -2411.4253 9587.1182 1979427
-5180.1045 -2411.4253 9587.1182 1848094
-5123.1064 -2411.4253 9587.1182 1453331
-5186.103 -2468.5417 9814.1963 2835241
-5142.0918 -2475.4436 9841.6357 1782807
-5182.8452 -2523.7803 10033.809 1848088
-5100.4902 -2512.5974 9989.3486 1518615
-5063.5376 -2523.7803 10033.809 135683
-4981.7109 -2512.5974 9989.3486 268040
-5058.3555 -2582.0359 10265.415 1057296
-5005.4263 -2586.2214 10282.057 1190164
-4944.1665 -2586.1536 10281.786 1189905
-4880.0254 -2584.5579 10275.442 1650712
-4749.5 -2547.3176 10127.386 1322000
-4595.2676 -2496.2427 9924.3271 1256460
0 0 0 0
0 0 0 0
0 0 0 0
0 0 0 0
-2717.6304 -1577.55 6271.8755 4745514
-2754.8403 -1621.3971 6446.1978 4416809
-2637.8669 -1574.4541 6259.5664 2507796
-2600.6521 -1574.4541 6259.5664 4090155
-2563.4373 -1574.4541 6259.5664 2181652
-2998.041 -1868.5123 7428.6558 3431977
-2582.3801 -1633.5182 6494.3877 2049298
-2595.6357 -1666.825 6626.8057 1850894
-2489.2644 -1623.1544 6453.1846 2310931
-2403.2241 -1591.5811 6327.6587 1850127
-2344.5825 -1577.4376 6271.4282 1587464
-2595.9451 -1774.7783 7055.9971 2574351
-2667.6626 -1853.7662 7370.0293 4679458
-2623.8457 -1853.7662 7370.0293 4612663
-2496.4795 -1793.7355 7131.3647 1781516
-2681.5896 -1960.0256 7792.4854 1454088
-2509.3069 -1866.3447 7420.0376 1848847
-2514.5769 -1903.7325 7568.6807 2573336
-2479.9749 -1911.7465 7600.5415 2904346
-2490.0679 -1955.1514 7773.1069 2509079
-2443.8545 -1955.1514 7773.1069 1587464
0 0 0 0
0 0 0 0
-2279.6499 -1933.4688 7686.9033 5470264
-2463.2847 -2131.9573 8476.0352 3890982
-2219.3552 -1960.9536 7796.1753 3167522
-2147.8218 -1938.2284 7705.8257 2839070
-2087.4082 -1924.7655 7652.3018 3694124
-2201.6624 -2075.3496 8250.9805 3430954
-2219.9692 -2140.2932 8509.1768 5140549
-1776.6052 -1752.7849 6968.5576 4283965
-1735.1752 -1752.7849 6968.5576 3356470
-1693.7451 -1752.7849 6968.5576 13354190
0 0 0 0
-1446.2804 -1573.6807 6256.4912 7239808
-1580.6625 -1765.3014 7018.3193 10724519
-1568.2479 -1798.9242 7151.9937 10920105
-1525.7273 -1798.9242 7151.9937 13684178
-1459.1898 -1769.795 7036.1846 12697797
-1368.7679 -1709.1229 6794.9707 13814995
-1156.7888 -1488.3612 5917.2866 12760519
-1111.7584 -1475.2898 5865.3184 7028342
-1042.0598 -1427.5774 5675.6279 3748449
-1033.0981 -1462.6631 5815.1182 11640498
-974.57343 -1427.5774 5675.6279 6380399
-1110.0151 -1684.2916 6696.248 6182499
0 0 0 0
0 0 0 0
0 0 0 0
0 0 0 0
0 0 0 0
0 0 0 0
0 0 0 0
0 0 0 0
0 0 0 0
0 0 0 0
0 0 0 0
0 0 0 0
-501.53558 -1425.7772 5668.4712 1782320
-480.40222 -1464.0773 5820.7407 2372914
-423.60367 -1391.1927 5530.9731 5987940
-360.67575 -1284.2159 5105.6646 5987167
-339.35342 -1319.3313 5245.2734 3952710
-316.27557 -1354.038 5383.2568 1518366
-276.98419 -1319.3313 5245.2734 1516828
0 0 0 0
0 0 0 0
0 0 0 0
-150.90573 -1307.7188 5199.1055 398338
-122.9746 -1340.1842 5328.1782 1717012
-89.913994 -1319.8811 5247.459 729098
-58.716389 -1319.8811 5247.459 69633
-28.298571 -1357.2817 5396.1533 1321745
3.5884814 -1287.4698 5118.6016 1256205
33.770123 -1278.0138 5081.0068 796164
62.081619 -1240.1295 4930.3901 730883
88.25795 -1197.5742 4761.2031 862467
114.49973 -1176.3597 4676.8604 1191432
141.69043 -1171.2795 4656.6631 1586445
173.89233 -1202.5142 4780.8428 796674
202.16852 -1201.6388 4777.3628 1125385
215.99872 -1125.693 4475.4243 1323276
242.09695 -1123.3293 4466.0273 532227
269.21399 -1125.693 4475.4243 1255693
300.44165 -1143.2734 4545.3193 268800
354.37164 -1237.2128 4918.7944 1258250
384.49704 -1240.0568 4930.1011 1587470
424.28232 -1271.4456 5054.894 1785103
454.69763 -1272.4602 5058.9277 1324298
484.77438 -1272.4602 5058.9277 3297577
0 0 0 0
0 0 0 0
0 0 0 0
0 0 0 0
0 0 0 0
0 0 0 0
0 0 0 0
0 0 0 0
0 0 0 0
0 0 0 0
705.20203 -1100.1978 4374.0625 2179352
733.41608 -1103.5215 4387.2769 2047766
790.23309 -1148.1758 4564.8096 1718801
785.58325 -1103.5215 4387.2769 2442269
770.84375 -1048.0194 4166.6172 1653268
895.13757 -1179.1144 4687.812 3166507
923.89996 -1180.2539 4692.3428 2377250
951.79724 -1180.2539 4692.3428 3297583
1001.9564 -1207.0731 4798.9678 1718553
1030.4875 -1207.0731 4798.9678 1981725
1132.6218 -1290.9662 5132.502 1784346
1178.6357 -1308.1693 5200.8965 2706214
1211.8455 -1310.6448 5210.7383 3232811
1275.1736 -1344.759 5346.3662 3891508
1306.9592 -1344.759 5346.3662 4352057
1363.7427 -1369.8691 5446.1968 4483638
1403.1575 -1376.7726 5473.6426 4944446
1463.0404 -1402.9908 5577.8789 4682028
1648.307 -1545.6195 6144.9287 4878639
1703.8666 -1563.0735 6214.3208 5470776
1676.6741 -1505.4838 5985.3608 4944432
1633.7294 -1436.4379 5710.8545 6128707
1590.2538 -1369.746 5445.707 6325584
1695.0553 -1430.8839 5688.7734 5930832
1728.8766 -1430.8839 5688.7734 6060886
0 0 0 0
0 0 0 0
0 0 0 0
0 0 0 0
0 0 0 0
0 0 0 0
0 0 0 0
0 0 0 0
0 0 0 0
5864.4551 -4059.501 16139.382 7505543
5961.7637 -4060.4241 16143.053 7570825
6056.73 -4059.7483 16140.365 5926004
6153.0327 -4059.9749 16141.267 6649219
6248.9976 -4059.9749 16141.267 7768215
6345.4937 -4060.3157 16142.62 5399924
0 0 0 0
0 0 0 0
0 0 0 0
6727.5942 -4059.2361 16138.329 13488081
6824.4834 -4059.7964 16140.558 13488596
6921.1279 -4060.1982 16142.154 12633032
7016.9038 -4060.0859 16141.708 10332076
7112.4761 -4059.8611 16140.813 12699078
7207.918 -4059.5679 16139.648 13619664
7302.106 -4058.5862 16135.746 13619662
7395.4111 -4057.1455 16130.018 13685457
7491.21 -4057.0918 16129.804 13619665
7587.001 -4057.0356 16129.58 13619921
7682.814 -4056.9924 16129.409 13685457
7778.623 -4056.9482 16129.233 13685457
7874.3198 -4056.8472 16128.832 13685456
7974.3862 -4058.9731 16137.283 13488079
8071.6719 -4059.6494 16139.973 13488592
8167.5986 -4059.6348 16139.914 9671340
8263.4238 -4059.5706 16139.658 10659263
8358.8379 -4059.3074 16138.613 10330296
8453.4561 -4058.6687 16136.073 5135214
8549.2891 -4058.6211 16135.885 4283242
8643.6494 -4057.8833 16132.95 4414571
8741.002 -4058.551 16135.605 4085605
8837.3223 -4058.7292 16136.314 4677742
8934.3174 -4059.2112 16138.23 5467257
9031.1299 -4059.6006 16139.778 7045265
9127.3389 -4059.7131 16140.227 10725816
9223.6055 -4059.8489 16140.766 4608611
9319.8867 -4059.9885 16141.32 4477795
9415.8506 -4059.9885 16141.32 5926010
9511.2783 -4059.7593 16140.409 5333357
9607.2354 -4059.7583 16140.404 3491410
9702.2979 -4059.3833 16138.914 3623252
9798.249 -4059.3833 16138.914 4281438
9895.0059 -4059.7144 16140.23 6518656
9990.9648 -4059.7144 16140.23 2965834
10086.923 -4059.7144 16140.23 4809318
10182.446 -4059.5413 16139.542 4480097
10277.035 -4059.002 16137.398 5006697
10372.977 -4059.002 16137.398 4545636
10469.266 -4059.137 16137.935 4348772
10565.21 -4059.137 16137.935 3032141
10660.223 -4058.782 16136.524 9217453
10755.669 -4058.5974 16135.789 6979466
10764.019 -4025.8408 16005.559 4018780
10624.022 -3938.6619 15658.961 3097421
10717.119 -3938.6619 15658.961 3623764
10104.146 -3681.4075 14636.193 4807526
10191.161 -3681.4075 14636.193 2174011
9695.7422 -3472.7925 13806.801 4212823
9746.5791 -3461.6941 13762.678 2765637
9491.0938 -3342.8896 13290.346 3094350
9551.2363 -3336.2974 13264.137 5397362
9630.0947 -3336.2974 13264.137 8489369
11811.306 -4058.73 16136.317 4607334
11909.062 -4059.3513 16138.787 5594222
12005.014 -4059.3518 16138.789 3883856
12101.298 -4059.4639 16139.235 6977159
12197.462 -4059.5349 16139.517 5661555
12293.271 -4059.4871 16139.326 3754328
12389.569 -4059.5999 16139.775 4346722
12485.12 -4059.4683 16139.253 3820634
12582.12 -4059.8064 16140.597 4873066
12678.8 -4060.0366 16141.512 2898763
12773.921 -4059.7683 16140.444 2504006
12866.772 -4058.7881 16136.548 3557462
12962.348 -4058.675 16136.099 5069927
10711.474 -3329.2581 13236.151 7569545
10790.166 -3329.2581 13236.151 12898254
11170.898 -3421.7764 13603.977 13488850
12125.495 -3687.4824 14660.346 13488592
11526.508 -3480.3076 13836.68 13685457
11608.771 -3480.3076 13836.68 13685455
11925.406 -3550.0781 14114.066 13554126
12009.318 -3550.0781 14114.066 13750479
13825.886 -4058.7148 16136.257 14534102
13921.82 -4058.7148 16136.257 4531032
14017.755 -4058.7148 16136.257 4476012
10300.979 -2962.2827 11777.165 4081768
11170.126 -3190.5388 12684.645 4081757
11245.54 -3190.5388 12684.645 5138036
14401.055 -4058.5911 16135.765 13028564
14497.05 -4058.6089 16135.836 7434118
14594.359 -4058.9919 16137.358 8355219
14690.164 -4058.9546 16137.21 6316397
14785.278 -4058.7278 16136.309 6447981
14880.678 -4058.5818 16135.728 6052967
13228.71 -3584.9104 14252.549 6447726
12667.535 -3410.9861 13561.077 4013384
12054.811 -3225.4688 12823.516 4145486
11734.46 -3120.0215 12404.288 3092541
10508.401 -2776.5803 11038.867 2237233
10608.741 -2785.6951 11075.104 2369074
10163.63 -2652.3533 10544.977 3028032
9993.1797 -2591.8843 10304.569 2633531
0 0 0 0
0 0 0 0
0 0 0 0
-6595.0742 -1781.9198 7255.894 727824
-7715.7622 -2098.4436 8544.7646 135177
-7388.4424 -2022.7408 8236.5068 925463
-7513.3955 -2070.6731 8431.6846 1583137
-7290.5059 -2022.7408 8236.5068 1320219
-7187.0483 -2007.5208 8174.5308 1912356
-7138.4487 -2007.5208 8174.5308 1714978
-6825.7612 -1932.7433 7870.0405 1649439
-6919.167 -1972.7141 8032.7998 2241576
-6871.4102 -1972.7141 8032.7998 1978404
-6872.1523 -1986.7354 8089.894 1715232
-6832.2227 -1989.1129 8099.5752 1188375
-6805.2109 -1995.3121 8124.8184 1122583
-6796.6147 -2007.0378 8172.5649 1319961
-6911.7725 -2055.7402 8370.8779 1122583
-7023.7383 -2104.1926 8568.1748 1056790
-6987.4282 -2108.6077 8586.1523 1188376
-6739.373 -2048.7185 8342.2861 1386012
-6597.5176 -2020.465 8227.2393 2043684
-6548.6045 -2020.465 8227.2393 2898993
-6450.8291 -2005.2759 8165.3901 1452059
-6402.2837 -2005.2759 8165.3901 1847326
-6210.8462 -1960.1783 7981.7549 2900272
-6538.9434 -2079.6169 8468.1035 4019010
-6488.5981 -2079.6169 8468.1035 927253
-6242.9077 -2016.5186 8211.1699 1978918
-6524.7705 -2124.1733 8649.5352 1978919
-6632.1606 -2176.2869 8861.7393 926488
-6594.0034 -2181.0925 8881.3066 1123612
-6789.9092 -2264.021 9218.9883 1583649
-6556.085 -2203.845 8973.9541 1386528
-6451.1831 -2186.3745 8902.8145 1847078
-6265.6709 -2141.0691 8718.333 1123612
-6345.3232 -2186.3745 8902.8145 1189151
-6291.0845 -2185.9194 8900.9619 1452323
-6191.4453 -2169.5481 8834.2988 1847081
-6138.9233 -2169.5481 8834.2988 1320738
-6211.1797 -2214.0266 9015.4131 991772
-6189.0068 -2225.3262 9061.4248 1978667
-6342.272 -2300.459 9367.3613 1781545
-6286.5806 -2300.459 9367.3613 1649957
-6213.9106 -2294.1907 9341.8369 1255199
-5943.7563 -2214.2397 9016.2812 1386785
-5710.3608 -2146.6523 8741.0684 1979175
-5545.2471 -2103.7275 8566.2812 1781539
-5734.6436 -2195.7461 8940.9756 2111527
-5911.207 -2284.5269 9302.4873 2506282
-5942.0132 -2318.1213 9439.2822 2177059
-5885.8945 -2318.1213 9439.2822 3163953
-6039.9546 -2401.696 9779.5947 1979167
-6056.0571 -2431.5054 9900.9766 2308389
-6048.333 -2452.2397 9985.4053 1979425
-5903.4902 -2417.2402 9842.8896 2506024
-5849.2393 -2419.0054 9850.0771 1650203
-5780.9316 -2414.9338 9833.498 1189652
-5651.0571 -2384.7976 9710.7842 1321239
-5545.6084 -2364.4536 9627.9443 2702893
-5488.3677 -2364.4536 9627.9443 1058068
-5520.5708 -2403.3928 9786.5039 1321240
-5051.2988 -2222.5183 9049.9912 794897
-4980.9258 -2215.1499 9019.9873 1518617
-5360.5337 -2409.9177 9813.0723 1979422
-5298.585 -2408.2783 9806.3965 861453
-4998.0557 -2296.9578 9353.1045 2966826
-5181.9814 -2408.2783 9806.3965 729863
-5127.7549 -2410.1938 9814.1963 2704160
-5089.4688 -2419.7319 9853.0361 3625264
-5100.4902 -2453.208 9989.3486 1255436
-5041.1006 -2453.208 9989.3486 991758
-4973.98 -2449.4009 9973.8457 465420
-5038.6846 -2511.2014 10225.495 1122582
-5005.4263 -2525.092 10282.057 596492
-4944.2964 -2525.092 10282.057 728588
-4883.0381 -2525.0254 10281.786 926222
-4818.9351 -2523.4675 10275.442 1189390
-4598.6479 -2439.0327 9931.6279 1321999
-4463.3647 -2398.072 9764.8379 2309657
0 0 0 0
0 0 0 0
0 0 0 0
-2700.6833 -1530.6571 6232.7646 1453575
-2843.8438 -1634.2184 6654.4609 5666363
-2699.8772 -1573.3761 6406.7144 6456906
-2729.8291 -1613.5953 6570.4854 3562783
-2623.6978 -1573.3761 6406.7144 5733697
-2758.814 -1678.7742 6835.8901 1917708
-2582.3801 -1594.9071 6494.3877 2377494
-2595.6357 -1627.4266 6626.8057 1126405
-2495.8328 -1588.97 6470.2119 2245396
-2457.3655 -1588.97 6470.2119 2375958
-2418.8982 -1588.97 6470.2119 861958
-2580.6184 -1722.5978 7014.3379 70656
-2569.377 -1743.2646 7098.4927 4678972
-2538.8774 -1751.3374 7131.3647 5205572
-2491.2759 -1747.6873 7116.501 1388047
-2598.5088 -1854.407 7551.0591 1059081
-2553.6155 -1854.407 7551.0591 1980434
-2553.3901 -1887.4247 7685.5049 1586188
-2479.9749 -1866.5592 7600.5415 1455879
-2467.3459 -1891.5189 7702.1768 5469508
-2838.8694 -2217.4912 9029.5205 6128470
0 0 0 0
0 0 0 0
-2566.0474 -2124.9324 8652.626 2376725
-2562.3372 -2165.2678 8816.8691 5666621
-2226.6077 -1920.86 7821.6523 6456396
-2132.9031 -1879.2705 7652.3018 1850894
-2046.2546 -1842.2203 7501.4355 3430949
-2041.6847 -1879.0602 7651.4458 4878648
-2116.0352 -1991.8685 8110.7959 3430432
-2169.3796 -2089.7039 8509.1768 4942904
-1896.6246 -1870.588 7616.9473 5730380
-1776.3254 -1794.7938 7308.3169 12041654
-1708.3059 -1769.3464 7204.6958 13553615
-1665.472 -1769.3464 7204.6958 12830409
-1651.7872 -1801.131 7334.1216 6187117
-1629.3624 -1824.8506 7430.7065 8291469
-1585.1849 -1824.8506 7430.7065 13420751
-1542.0078 -1826.0354 7435.5312 13552593
-1422.2358 -1733.9099 7060.4009 13814992
-1156.7888 -1453.1814 5917.2866 13749715
-1106.9027 -1434.1276 5839.7007 13880021
0 0 0 0
0 0 0 0
0 0 0 0
0 0 0 0
0 0 0 0
0 0 0 0
0 0 0 0
0 0 0 0
0 0 0 0
0 0 0 0
0 0 0 0
0 0 0 0
0 0 0 0
0 0 0 0
0 0 0 0
0 0 0 0
-515.00812 -1429.4714 5820.7407 2503727
-480.40222 -1429.4714 5820.7407 1581852
-423.60367 -1358.3096 5530.9731 3029810
-387.43637 -1346.8925 5484.4834 2898992
-343.04349 -1302.1538 5302.3096 1450783
-308.16882 -1288.1467 5245.2734 594453
-250.8717 -1166.7075 4750.7788 5856099
0 0 0 0
0 0 0 0
0 0 0 0
-150.90573 -1276.8087 5199.1055 1783319
-122.9746 -1308.5067 5328.1782 1914905
-89.913994 -1288.6835 5247.459 1585431
-55.670059 -1221.8239 4975.21 135937
-26.091055 -1221.8239 4975.21 795401
3.5884814 -1257.0383 5118.6016 2243356
34.187553 -1263.2297 5143.8125 2178328
62.081619 -1210.817 4930.3901 1981718
88.25795 -1169.2676 4761.2031 1520397
118.94433 -1193.1385 4858.4043 1586189
142.9077 -1153.4191 4696.6689 1914644
179.29425 -1210.5636 4929.3584 1322255
202.16852 -1173.2361 4777.3628 993288
217.78923 -1108.196 4512.5229 1190160
244.61743 -1108.196 4512.5229 1519889
272.35419 -1111.9054 4527.627 268547
300.44165 -1116.2504 4545.3193 2573600
338.51218 -1153.9081 4698.6602 863236
378.28928 -1191.1982 4850.5039 1916179
413.80786 -1210.746 4930.1011 1587213
443.11868 -1210.746 4930.1011 1718543
484.77438 -1242.3835 5058.9277 1323532
0 0 0 0
0 0 0 0
0 0 0 0
0 0 0 0
0 0 0 0
0 0 0 0
0 0 0 0
0 0 0 0
0 0 0 0
0 0 0 0
746.38165 -1136.9192 4629.4819 2377244
768.07141 -1128.349 4594.5845 2640417
795.38757 -1128.349 4594.5845 2442524
785.58325 -1077.4379 4387.2769 2771747
818.19525 -1086.104 4422.5649 1981720
895.13757 -1151.244 4687.812 2047770
923.89996 -1152.3567 4692.3428 2508067
951.12207 -1151.5393 4689.0142 2377250
989.55365 -1163.9534 4739.564 2509093
