# .PCD v0.7 - Point Cloud Data file format
VERSION 0.7
FIELDS x y z rgb
SIZE 4 4 4 4
TYPE F F F U
COUNT 1 1 1 1
WIDTH 1475
HEIGHT 1
VIEWPOINT 0 0 0 1 0 0 0
POINTS 1475
DATA ascii
-5906.2563 -150.38835 7648.7568 133121
-5962.542 -152.99951 7781.561 265986
-6027.6548 -155.87979 7928.0522 264704
-5980.5205 -155.87979 7928.0522 768
-5900.3145 -155.01096 7883.8628 768
-5730.5239 -151.75581 7718.3062 512
-5875.4141 -156.84877 7977.3345 133376
-5915.7988 -159.21205 8097.5312 1024
-5764.9736 -156.42589 7955.8262 397825
-5771.5068 -157.89865 8030.7314 134144
-5987.9985 -165.18802 8401.4688 924164
-5797.2983 -161.27251 8202.3262 1647890
-5759.9399 -161.59254 8218.6025 133888
-5844.6094 -165.37074 8410.7627 1024
-5951.874 -169.85899 8639.0352 199168
-5486.7686 -157.94849 8033.2661 199680
-5959.231 -173.05571 8801.6201 199169
-5607.5762 -164.28629 8355.6064 463105
-5514.8608 -163.0141 8290.9033 332288
-5508.2231 -164.28629 8355.6064 595457
-5510.7588 -165.85771 8435.5293 595712
-5460.6074 -165.85771 8435.5293 464128
-5489.3755 -168.27699 8558.5742 133120
-5296.3081 -163.87755 8334.8184 529664
-5246.7549 -163.87755 8334.8184 726532
-5197.2021 -163.87755 8334.8184 768
-5366.2002 -170.83519 8688.6846 133632
-5201.0337 -167.18645 8503.1094 330753
-5271.3232 -171.10904 8702.6123 1024
-5300.2515 -173.75351 8837.1104 67584
-5338.4814 -176.75891 8989.9648 265728
-5196.6538 -173.80301 8839.6279 134912
-5144.0996 -173.80301 8839.6279 332032
-5307.8516 -181.18675 9215.165 463872
-5276.0278 -181.97879 9255.4482 1792
-5221.002 -181.97879 9255.4482 768
-5165.2529 -181.95332 9254.1533 200192
-5163.1709 -183.83818 9350.0166 529664
-5132.2236 -184.72508 9395.125 67328
-5145.2393 -187.23129 9522.5908 200704
-5020.5103 -184.72508 9395.125 1714445
-5032.0103 -187.23129 9522.5908 595200
-5037.4951 -189.56818 9641.4443 728064
-5058.6279 -192.5545 9793.3291 1057536
-5159.0415 -198.66327 10104.021 1913097
-5146.1621 -200.50194 10197.536 663041
-5085.5352 -200.50194 10197.536 1582602
-4973.3647 -198.44528 10092.935 200960
-4820.0889 -194.67819 9901.3408 199424
-4804.4624 -196.44618 9991.2607 67840
-4745.0615 -196.44618 9991.2607 2304
-4733.8867 -198.46805 10094.093 66816
-4656.4478 -197.72807 10056.457 264962
-4596.6592 -197.72807 10056.457 1024
-4531.6353 -197.49986 10044.852 768
-4471.9155 -197.49986 10044.852 528388
-4442.6685 -198.86388 10114.225 1280
-4382.5366 -198.86388 10114.225 1024
-4279.8213 -196.90471 10014.581 68864
-4304.1216 -200.81641 10213.53 594945
-4166.9878 -197.20029 10029.614 793348
-4254.4385 -204.2618 10388.763 1582858
-4212.1157 -205.20894 10436.935 529154
-4109.1899 -203.18776 10334.138 727042
-4047.7505 -203.18776 10334.138 199169
-4062.7261 -207.08275 10532.236 1024
-3922.5569 -203.06793 10328.042 1024
-3872.759 -203.67827 10359.085 1024
-3833.8428 -204.88989 10420.708 397312
-3771.8889 -204.88989 10420.708 1280
-3716.7632 -205.267 10439.888 66560
-3636.2598 -204.23157 10387.226 397824
-3596.5457 -205.49088 10451.274 529409
-3527.1003 -205.06592 10429.66 397056
-3486.0061 -206.30354 10492.606 266240
-3492.3315 -210.44374 10703.177 133376
-3461.8799 -212.48035 10806.759 330752
-3380.03 -211.37964 10750.776 1779471
-3326.8838 -212.06618 10785.693 69376
-3318.9832 -215.72046 10971.551 398080
-3274.2502 -217.07932 11040.662 858883
-3164.3284 -214.0834 10888.29 792833
-3098.9507 -214.03894 10886.028 792326
-2990.0432 -210.92192 10727.497 1280
-3047.8638 -219.68658 11173.269 265729
-2981.4353 -219.68658 11173.269 726788
-2865.8645 -215.983 10984.903 529153
-2775.4482 -214.04663 10886.42 397313
-2710.7253 -214.04663 10886.42 1280
-2718.7393 -219.93062 11185.68 1536
-2581.4707 -214.06247 10887.226 2560
-2516.7432 -214.06247 10887.226 792577
-2418.0999 -211.10159 10736.636 529664
-2354.2676 -211.10159 10736.636 990977
-2335.4517 -215.25061 10947.654 69120
-2330.5405 -220.95581 11237.82 1516555
-2375.011 -231.81773 11790.259 133632
-2113.9426 -212.61067 10813.387 1280
-2022.7786 -209.82288 10671.6 1024
-1962.2107 -210.13106 10687.273 1024
-1950.2413 -215.83836 10977.548 133120
-1914.4586 -219.21416 11149.241 133120
-1835.7596 -217.74178 11074.355 1024
-1701.7271 -209.35251 10647.676 768
-1633.1681 -208.68097 10613.522 1024
-1586.3346 -210.84303 10723.484 68096
-1548.328 -214.40848 10904.823 2560
-1487.9258 -215.04874 10937.387 199936
-1506.0438 -227.61461 11576.488 857604
-1437.2185 -227.61461 11576.488 463872
-1339.0374 -222.7317 11328.143 661760
-1270.5946 -222.5401 11318.398 1912330
-1203.3035 -222.5401 11318.398 2702102
-1131.5416 -221.66426 11273.854 660739
-1073.4465 -223.524 11368.439 1792
-949.43634 -210.98586 10730.748 199936
-851.8811 -202.94368 10321.724 1024
0 0 0 0
0 0 0 0
0 0 0 0
-329.09033 -110.13311 5601.374 133121
-341.98672 -127.33439 6476.2319 330243
-283.05157 -118.76156 6040.2173 330243
-247.14081 -118.76156 6040.2173 1536
-253.48038 -142.51631 7248.3848 1713434
-243.03209 -164.63033 8373.1045 1516309
-235.62601 -200.7289 10209.079 1280
-188.52126 -216.32434 11002.265 1024
-123.10973 -216.32434 11002.265 69634
-57.527702 -215.6851 10969.753 201218
8.1732836 -229.22423 11658.353 201986
80.449089 -237.99158 12104.261 2560
139.5296 -217.87529 11081.146 69888
205.41011 -217.87529 11081.146 728838
295.23743 -237.10715 12059.278 2770209
417.32788 -269.67148 13715.502 1126152
461.17825 -249.29651 12679.229 533506
547.49872 -254.37892 12937.723 1322510
682.70544 -278.12482 14145.438 1716758
766.80402 -278.12482 14145.438 3072
877.49493 -286.81674 14587.511 597513
983.52045 -292.55731 14879.477 3162673
1141.6796 -311.57834 15846.887 2570536
1229.4983 -309.96603 15764.884 201221
1323.2249 -309.96603 15764.884 1281
1416.9515 -309.96603 15764.884 2306
1514.9341 -310.83926 15809.297 134149
1539.3024 -297.38843 15125.188 512
1629.2258 -297.38843 15125.188 512
1710.9996 -295.97867 15053.486 512
1742.09 -286.37732 14565.162 512
1598.6016 -250.34575 12732.595 512
1528.4075 -228.53143 11623.118 512
1601.4437 -229.09419 11651.739 512
1775.0538 -243.40125 12379.397 4610123
1872.3448 -246.52065 12538.049 2702637
1969.8361 -249.42653 12685.843 1057554
1884.3744 -229.8063 11687.957 1584410
0 0 0 0
0 0 0 0
0 0 0 0
0 0 0 0
0 0 0 0
0 0 0 0
0 0 0 0
0 0 0 0
0 0 0 0
0 0 0 0
0 0 0 0
0 0 0 0
0 0 0 0
492.19919 -39.587757 2013.4348 133128
514.49243 -40.398312 2054.6597 513
531.04175 -40.730709 2071.5654 1024
536.32782 -40.203735 2044.7637 1581078
0 0 0 0
0 0 0 0
0 0 0 0
0 0 0 0
0 0 0 0
0 0 0 0
0 0 0 0
0 0 0 0
0 0 0 0
0 0 0 0
585.25549 -35.115898 1785.996 3621157
599.61414 -35.33633 1797.2072 856844
572.22461 -33.131821 1685.0856 527879
581.03503 -33.063084 1681.5897 329993
588.3302 -32.911911 1673.9011 198411
599.60577 -32.984734 1677.6049 133137
611.71783 -33.100437 1683.4895 1580586
621.59363 -33.093353 1683.1292 4081233
622.58502 -32.620987 1659.1047 3290945
632.44885 -32.620987 1659.1047 2040104
642.31274 -32.620987 1659.1047 2895153
652.93707 -32.659031 1661.0396 2434346
669.66925 -32.996891 1678.223 2
679.64673 -32.996891 1678.223 4
0 0 0 0
0 0 0 0
0 0 0 0
0 0 0 0
0 0 0 0
0 0 0 0
0 0 0 0
0 0 0 0
821.6944 -35.237587 1792.1851 1250580
819.25739 -34.683334 1763.9957 526600
0 0 0 0
0 0 0 0
0 0 0 0
881.94885 -35.518661 1806.4806 1053201
897.10498 -35.69437 1815.4171 658443
907.89813 -35.69437 1815.4171 790029
887.47491 -34.481506 1753.7307 790029
0 0 0 0
0 0 0 0
0 0 0 0
0 0 0 0
0 0 0 0
963.19806 -34.959312 1778.0321 2699323
0 0 0 0
0 0 0 0
0 0 0 0
0 0 0 0
0 0 0 0
0 0 0 0
6169.0239 -207.931 10575.379 724232
7019.71 -234.21684 11912.277 461062
8737.1562 -288.60867 14678.648 592648
7228.7568 -236.42131 12024.396 329475
8624.1807 -279.29749 14205.08 1184783
8719.6777 -279.65167 14223.095 987661
7678.8203 -243.90469 12405.002 1514004
7716.1963 -242.76027 12346.797 1776920
8649.0234 -269.54388 13709.012 658696
8722.6494 -269.30066 13696.642 1052941
7599.0728 -232.44171 11821.994 657928
6781.7231 -205.5394 10453.742 395013
6812.0767 -204.58446 10405.174 1051400
6906.0239 -205.5394 10453.742 1510923
6792.1484 -200.3472 10189.666 2691602
6746.6431 -197.24567 10031.922 2953746
6806.2856 -197.24567 10031.922 1114112
6835.5859 -196.37398 9987.5879 1311232
6251.4854 -178.04718 9055.4863 1245955
6948.2446 -196.20174 9978.8281 851968
7015.5591 -196.4254 9990.2031 1246212
7074.9541 -196.4254 9990.2031 1180676
7243.1885 -199.42201 10142.611 851968
7358.5986 -200.92679 10219.145 1114369
7419.3545 -200.92679 10219.145 2034956
7392.3945 -198.57062 10099.31 2034441
7266.7539 -193.62308 9847.6768 1705219
7209.0986 -190.55161 9691.4619 1770756
6907.1899 -181.12389 9211.9678 1508099
6721.9731 -174.8804 8894.4238 1639427
6831.2573 -176.33638 8968.4746 1508099
6857.8809 -175.65259 8933.6973 1376771
6937.8975 -176.33638 8968.4746 1573892
6964.1074 -175.65259 8933.6973 1245184
7105.6392 -177.86584 9046.2637 2033411
7379.2686 -183.32762 9324.0498 1835008
7416.9775 -182.89056 9301.8213 2820870
7472.2798 -182.89056 9301.8213 4136472
7363.4712 -178.90331 9099.0293 3938840
6631.9253 -159.95453 8135.2935 2162688
0 0 0 0
0 0 0 0
0 0 0 0
0 0 0 0
0 0 0 0
0 0 0 0
0 0 0 0
0 0 0 0
0 0 0 0
8077.8291 -181.5851 9235.4248 917761
8132.7358 -181.5851 9235.4248 786432
7926.8774 -175.80186 8941.2891 1969679
7980.0366 -175.80186 8941.2891 1443335
7770.2231 -170.04688 8648.5908 1903888
9243.2734 -200.95393 10220.525 1248268
9558.6318 -206.45284 10500.199 1773327
9621.0586 -206.45284 10500.199 1313033
8755.1582 -186.66081 9493.5762 3484202
8811.6006 -186.66081 9493.5762 1577746
10904.839 -229.53273 11674.044 2168598
10476.591 -219.12404 11144.656 854280
10542.849 -219.12404 11144.656 1905169
10833.866 -223.7663 11380.763 2431769
9476.2891 -194.51164 9892.8691 590593
9923.3574 -202.43178 10295.688 1379338
10380.824 -210.46568 10704.293 1182476
0 0 0 0
0 0 0 0
0 0 0 0
0 0 0 0
-6293.4302 -95.598877 6969.6138 266241
-6800.7163 -103.98934 7581.3193 266752
-7095.4629 -109.22018 7962.6724 463364
-7057.0811 -109.35901 7972.793 68352
-6302.5088 -98.326309 7168.457 2048
-6259.8896 -98.326309 7168.457 1280
-6393.1616 -101.10802 7371.2563 67584
-6591.6987 -104.96742 7652.626 1186571
-6437.6357 -103.22658 7525.7104 990473
-6392.312 -103.21719 7525.0259 1187595
-6347.5737 -103.21719 7525.0259 726791
-6302.835 -103.21719 7525.0259 792837
-6480.4053 -106.8838 7792.3398 398081
-6434.0776 -106.8838 7792.3398 727300
-6526.7266 -109.20926 7961.876 858629
-6160.0552 -103.8269 7569.4761 1517070
-6250.9897 -106.13496 7737.7451 1582607
-6095.6934 -104.26553 7601.4541 793350
-6174.438 -106.40128 7757.1606 1451277
-6491.1968 -112.70164 8216.4873 594436
-6182.814 -108.16138 7885.481 199936
-5948.9004 -104.86447 7645.1201 858631
-5903.4482 -104.86447 7645.1201 595458
-5997.5137 -107.362 7827.2017 989959
-6176.812 -111.43626 8124.2354 989706
-6030.3042 -109.65054 7994.0474 989705
-5970.269 -109.4213 7977.3345 989706
-5873.0225 -108.50091 7910.2344 1055498
-5875.4141 -109.4213 7977.3345 1280
-5937.6733 -111.48068 8127.4736 594948
-5867.6562 -111.06998 8097.5312 265473
-5988.7329 -114.29964 8332.9893 1055753
-5963.8223 -114.77367 8367.5479 529666
-5843.8154 -113.41016 8268.1416 594690
-5759.9399 -112.73065 8218.6025 1536
-5888.0835 -116.22455 8473.3242 1536
-5951.874 -118.49753 8639.0352 265217
-5895.8975 -118.40485 8632.2783 792326
-5844.5762 -118.40485 8632.2783 133888
-5607.5762 -114.60987 8355.6064 133888
-5543.5112 -114.31318 8333.9756 265728
-5493.9639 -114.31318 8333.9756 2048
-5297.4595 -111.22762 8109.0239 792834
-5249.249 -111.22762 8109.0239 462593
-5354.6289 -114.51224 8348.4883 133632
-5098.9692 -110.06503 8024.2661 1385227
-5151.1431 -112.24139 8182.9321 200960
-5102.4932 -112.24139 8182.9321 1319688
-5366.2002 -119.17855 8688.6846 1517069
-5314.5435 -119.17855 8688.6846 462595
-5352.791 -121.21444 8837.1104 68352
-5468.814 -125.06938 9118.1543 2560
-5414.604 -125.06938 9118.1543 1280
-5162.9219 -120.46193 8782.249 2560
-5090.1914 -119.97833 8746.9922 594180
-5163.9014 -122.97202 8965.2471 1024
-5158.7412 -124.1304 9049.6982 2304
-5104.938 -124.1304 9049.6982 2304
-5145.9751 -126.46106 9219.6152 332032
-5110.2344 -126.93481 9254.1533 529408
-5132.2236 -128.86845 9395.125 1280
-5083.0337 -129.0377 9407.4639 1536
-5002.79 -128.4136 9361.9639 792836
-4820.5586 -125.12814 9122.4385 398336
-4979.5718 -130.72647 9530.583 134400
-4980.1738 -132.2471 9641.4443 1452034
-5159.0415 -138.59204 10104.021 1452802
-5139.2949 -139.6881 10183.928 1847046
-5078.7485 -139.6881 10183.928 1122561
-4952.0649 -137.84708 10049.709 332544
-4850.561 -136.67056 9963.9355 726531
-4791.3223 -136.67056 9963.9355 264962
-4732.084 -136.67056 9963.9355 768
-4685.6606 -137.04536 9991.2607 791304
-4659.4971 -138.02997 10063.043 512
-4599.6699 -138.02997 10063.043 512
-4531.6353 -137.78044 10044.852 512
-4471.9155 -137.78044 10044.852 512
-4457.3774 -139.19131 10147.711 768
-4339.3604 -137.36523 10014.581 768
-4278.8335 -137.33354 10012.271 331008
-4291.708 -139.69008 10184.073 68096
-4208.5913 -138.94495 10129.75 200192
-4213.2197 -141.11714 10288.112 397824
-4212.1157 -143.15846 10436.935 1845776
-4100.1333 -141.43604 10311.361 793093
-4045.3628 -141.66484 10328.042 1024
-3983.96 -141.66484 10328.042 1024
-3913.3635 -141.33281 10303.836 1280
-3895.7971 -142.93588 10420.708 1024
-3833.8428 -142.93588 10420.708 1450256
-3767.3472 -142.76378 10408.16 1280
-3677.4236 -141.68329 10329.388 198656
-3601.709 -141.12285 10288.529 1280
-3588.7881 -143.04594 10428.731 528384
-3526.7864 -143.04594 10428.731 199680
-3464.7844 -143.04594 10428.731 265984
-3452.6829 -145.14363 10581.663 2560
-3428.6982 -146.81038 10703.177 989955
-3351.4377 -146.21587 10659.834 924418
-3291.1973 -146.35527 10669.998 1121796
-3227.761 -146.35527 10669.998 1280
-3146.4395 -145.52805 10609.688 67328
-3143.2058 -148.35254 10815.608 529152
-3099.5945 -149.34949 10888.29 1911058
-2990.0432 -147.14397 10727.497 1280
-2948.2903 -148.25146 10808.239 1280
-2884.0322 -148.25146 10808.239 595201
-2869.9148 -150.88763 11000.429 726786
-2800.1921 -150.65511 10983.476 1056006
-2706.0557 -149.06659 10867.666 67584
-2663.9072 -150.33426 10960.085 134656
-2598.7466 -150.33426 10960.085 1792
-2533.5857 -150.33426 10960.085 397568
-2418.0999 -147.26932 10736.636 924928
-2342.8247 -146.55351 10684.45 859136
-2335.209 -150.14816 10946.518 1583620
-2330.5405 -154.14383 11237.82 2109708
-2263.7285 -154.14383 11237.82 1780750
-2113.9426 -148.32207 10813.387 68608
-2018.6344 -146.07735 10649.735 2048
-1955.3186 -146.07735 10649.735 1280
-1906.1407 -147.16888 10729.313 1280
-1854.9116 -148.17215 10802.457 1024
-1834.5076 -151.79807 11066.803 462338
-1768.7125 -151.79807 11066.803 528644
-1638.4236 -146.04909 10647.676 265217
-1598.9291 -148.25671 10808.622 331520
-1534.6688 -148.25671 10808.622 1024
-1493.59 -150.59402 10979.023 1536
-1473.7354 -155.38274 11328.143 989702
-1437.2185 -158.78917 11576.488 332544
-1339.0374 -155.38274 11328.143 332288
-1270.5946 -155.24907 11318.398 2636056
-1203.3035 -155.24907 11318.398 531456
-1141.0352 -155.93547 11368.439 925699
-1073.4465 -155.93547 11368.439 67584
-987.55841 -153.09853 11161.612 2048
-842.99487 -140.10132 10214.055 463361
0 0 0 0
0 0 0 0
0 0 0 0
-327.92752 -76.559906 5581.582 512
-341.98672 -88.83139 6476.2319 330500
-287.79565 -84.239395 6141.4541 988173
-251.28302 -84.239395 6141.4541 133377
-211.23006 -82.850777 6040.2173 1976349
-243.03209 -114.84989 8373.1045 594439
-235.62601 -140.03308 10209.079 462854
-195.76199 -156.70908 11424.84 264708
-127.10429 -155.80951 11359.257 1792
-59.570347 -155.80951 11359.257 1057040
8.1732836 -159.91206 11658.353 1517848
80.449089 -166.02838 12104.261 134914
139.5296 -151.9948 11081.146 399109
205.41011 -151.9948 11081.146 1387281
269.78143 -151.14926 11019.502 1322255
381.40616 -171.93571 12534.934 1256463
455.92984 -171.93571 12534.934 3840
542.10028 -175.71077 12810.153 664326
682.70544 -194.02623 14145.438 1848087
766.80402 -194.02623 14145.438 1254160
877.49493 -200.08995 14587.511 1536
970.96704 -201.48969 14689.56 1024
1013.5636 -192.97223 14068.596 1024
1162.0471 -204.37633 14900.01 1280
1262.1592 -206.26012 15037.348 1280
1351.5604 -206.26012 15037.348 2049
1370.2228 -196.13452 14299.143 265478
1464.9412 -197.44269 14394.514 726285
1568.9021 -199.78339 14565.162 198660
1655.496 -199.78339 14565.162 463368
1663.1799 -190.73396 13905.416 2240800
1650.9969 -180.37112 13149.915 2571559
1528.4075 -159.42877 11623.118 3360561
1601.4437 -159.82135 11651.739 3558455
1797.8026 -171.97844 12538.049 1912608
1877.7941 -172.47897 12574.54 202761
2059.0437 -181.88582 13260.344 1584415
0 0 0 0
0 0 0 0
0 0 0 0
0 0 0 0
0 0 0 0
0 0 0 0
0 0 0 0
0 0 0 0
0 0 0 0
0 0 0 0
0 0 0 0
0 0 0 0
0 0 0 0
0 0 0 0
487.15753 -27.334438 1992.811 198921
512.01447 -28.047049 2044.7637 512
526.70795 -28.182787 2054.6597 768
536.32782 -28.047049 2044.7637 1714199
0 0 0 0
0 0 0 0
0 0 0 0
0 0 0 0
0 0 0 0
0 0 0 0
0 0 0 0
0 0 0 0
0 0 0 0
0 0 0 0
585.25549 -24.497656 1785.996 1975058
599.61414 -24.651434 1797.2072 592902
0 0 0 0
577.73346 -22.9345 1672.0345 264201
585.69775 -22.857372 1666.4114 198667
599.60577 -23.010906 1677.6049 67342
609.07336 -22.991796 1676.2117 1383207
619.03894 -22.991796 1676.2117 4080976
619.98431 -22.662086 1652.1742 3422531
629.43195 -22.648594 1651.1904 1908774
639.24872 -22.648594 1651.1904 3223862
653.30237 -22.796434 1661.9689 2565675
675.69434 -23.226492 1693.3221 2
683.53253 -23.150995 1687.818 4
690.50751 -23.048868 1680.3724 5
696.15942 -22.90612 1669.9655 1
0 0 0 0
0 0 0 0
0 0 0 0
0 0 0 0
0 0 0 0
0 0 0 0
0 0 0 0
0 0 0 0
0 0 0 0
0 0 0 0
0 0 0 0
889.8244 -24.999899 1822.6119 592650
902.82758 -25.060053 1826.9976 592137
907.89813 -24.901213 1815.4171 789516
858.17242 -23.260839 1695.8262 657930
0 0 0 0
0 0 0 0
0 0 0 0
0 0 0 0
0 0 0 0
963.19806 -24.38842 1778.0321 2896958
0 0 0 0
0 0 0 0
0 0 0 0
0 0 0 0
0 0 0 0
5779.0166 -137.28606 10008.809 1317391
6948.8882 -163.39503 11912.277 1711383
8704.5371 -202.61209 14771.388 1053966
8786.8164 -202.48444 14762.08 1118992
7228.7568 -164.93291 12024.396 790538
8170.9014 -184.60349 13458.475 1382932
7648.3101 -171.12096 12475.534 2304034
7642.7905 -169.35513 12346.797 2304546
7698.1963 -168.96007 12317.995 856844
7936.2412 -172.54326 12579.227 988174
8884.251 -191.35092 13950.395 197634
8077.1851 -172.3591 12565.801 197121
6905.1392 -145.99843 10643.982 262913
6897.0698 -144.50352 10534.997 459521
6959.7031 -144.50352 10534.997 1903884
6768.6123 -139.28247 10154.356 2494223
6822.9819 -139.16008 10145.434 2625550
6889.353 -139.28247 10154.356 1441792
6943.6167 -139.16008 10145.434 1442305
6433.0967 -127.8182 9318.5566 1245441
6947.6528 -136.86317 9977.9785 917504
7015.5591 -137.03085 9990.2031 1246212
7109.7256 -137.70433 10039.303 1049090
7297.146 -140.15775 10218.168 851968
7326.9712 -139.56868 10175.223 1245698
7387.4663 -139.56868 10175.223 1968392
7385.061 -138.39 10089.291 2231307
7179.9097 -133.46162 9729.9883 1771013
7452.7749 -137.42647 10019.045 1771013
7512.3413 -137.42647 10019.045 1573891
7584.9653 -137.66347 10036.323 1771270
6886.6963 -124.01463 9041.2578 1310976
6884.5771 -123.0163 8968.4746 1376515
6994.2017 -124.01463 9041.2578 1442306
7813.1338 -137.47859 10022.846 1245184
7327.7065 -127.96117 9328.9795 2033155
7285.4541 -126.26761 9205.5107 2031872
7340.1831 -126.26761 9205.5107 2820870
7472.2798 -127.58865 9301.8213 3939093
7527.582 -127.58865 9301.8213 3938840
7599.8633 -127.87436 9322.6504 2294016
0 0 0 0
0 0 0 0
0 0 0 0
0 0 0 0
0 0 0 0
0 0 0 0
0 0 0 0
0 0 0 0
7376.6392 -116.47345 8491.4697 1574664
8077.8291 -126.67793 9235.4248 1114370
8132.7358 -126.67793 9235.4248 1048576
7947.1255 -122.95667 8964.1279 2363410
8163.1562 -125.45773 9146.4668 1705480
8033.1948 -122.6434 8941.2891 2100240
9485.2002 -143.85931 10488.03 1511184
9684.6445 -145.92494 10638.624 2036243
9621.0586 -144.02623 10500.199 918533
9256.8984 -137.68144 10037.634 3813424
9234.6406 -136.4706 9949.3574 2892322
10904.839 -160.12729 11674.044 1971477
10698.543 -156.10449 11380.763 985610
10766.205 -156.10449 11380.763 1708047
10833.866 -156.10449 11380.763 2037269
9573.8076 -137.09219 9994.6748 655873
10142.456 -144.3391 10523.009 1314314
10420.567 -147.3878 10745.274 2433309
0 0 0 0
0 0 0 0
0 0 0 0
0 0 0 0
-6704.8262 -57.703136 7425.2114 660743
-6800.7163 -58.91629 7581.3193 68096
-6908.5493 -60.249794 7752.9136 660743
-6887.4697 -60.469402 7781.1729 858120
-6406.2441 -56.62476 7286.4458 396292
-6362.9243 -56.62476 7286.4458 594948
-6637.1958 -59.470432 7652.626 199937
-6744.1616 -60.845951 7829.6274 792327
-6697.6123 -60.845951 7829.6274 463874
-6438.0127 -58.896912 7578.8252 924423
-6347.5737 -58.478821 7525.0259 595460
-6302.835 -58.478821 7525.0259 332288
-6566.8726 -61.364178 7896.3125 199936
-6302.8584 -59.321178 7633.4199 990472
-6526.7266 -61.873692 7961.876 266752
-6423.3164 -61.338219 7892.9717 266496
-6252.8604 -60.149906 7740.0605 332545
-6095.6934 -59.072762 7601.4541 1056264
-6174.438 -60.282799 7757.1606 1056263
-6300.812 -61.979561 7975.4995 1714193
-6102.9453 -60.4884 7783.6177 1714193
-5997.2451 -59.894924 7707.2495 727044
-5951.4233 -59.894924 7707.2495 398080
-5997.5137 -60.827099 7827.2017 726535
-5950.9785 -60.827099 7827.2017 660740
-5947.1865 -61.267429 7883.8628 265729
-5970.269 -61.99382 7977.3345 2560
-5935.25 -62.123699 7994.0474 199936
-5985.9937 -63.160587 8127.4736 331520
-5915.7988 -62.927902 8097.5312 331777
-5911.9448 -63.402874 8158.6509 1536
-6013.5693 -65.026268 8367.5479 134400
-6094.7832 -66.454193 8551.293 594180
-5849.0908 -64.31176 8275.6055 66816
-5596.3052 -62.054325 7985.1196 1024
-5744.9014 -64.247032 8267.2764 1024
-5947.2188 -67.083557 8632.2783 660741
-5900.5122 -67.136063 8639.0352 594948
-5844.5762 -67.083557 8632.2783 199424
-5593.0591 -64.765366 8333.9756 1024
-5543.5112 -64.765366 8333.9756 1024
-5493.9639 -64.765366 8333.9756 1536
-5566.1172 -66.213097 8520.2686 1024
-5505.9453 -66.098846 8505.5674 1253897
-5354.6289 -64.878151 8348.4883 1056260
-5304.9946 -64.878151 8348.4883 398592
-5376.8896 -66.378448 8541.5459 858883
-5326.1079 -66.378448 8541.5459 990468
-5534.3765 -69.638031 8960.9873 332544
-5303.7466 -67.384727 8671.0332 199937
-5352.791 -68.675346 8837.1104 1280
-5468.814 -70.859413 9118.1543 1280
-5414.604 -70.859413 9118.1543 1121289
-5116.1738 -67.631042 8702.7295 660739
-5045.3159 -67.375748 8669.8779 67584
-5038.1885 -67.975021 8746.9922 199680
-4986.1851 -67.975021 8746.9922 2816
-5030.5889 -69.303154 8917.8965 68096
-5140.8281 -71.576225 9210.3936 68608
-5091.1621 -71.647888 9219.6152 529408
-4985.7871 -70.928589 9127.0557 989956
-4931.5239 -70.928589 9127.0557 792837
-4877.2612 -70.928589 9127.0557 134400
-4820.5586 -70.892708 9122.4385 134656
-4798.6641 -71.373741 9184.3379 398592
-4922.9097 -74.064491 9530.583 1583876
-5019.3066 -76.394066 9830.3506 1189377
-4960.8628 -76.394066 9830.3506 1847559
-4902.4185 -76.394066 9830.3506 2438419
-4926.3442 -77.693115 9997.5117 68864
-4833.4004 -77.158241 9928.6846 2304
-4777.3843 -77.206932 9934.9502 133120
-4668.3921 -76.389984 9829.8252 462593
-4640.3125 -76.893089 9894.5645 265474
-4590.6152 -77.046303 9914.2803 768
-4577.0034 -77.817001 10013.454 768
-4494.354 -77.418808 9962.2139 768
-4517.708 -78.860352 10147.711 768
-4462.7988 -78.956268 10160.054 768
-4375.7993 -78.479294 10098.677 1024
-4278.8335 -77.807808 10012.271 1280
-4291.708 -79.142929 10184.073 68352
-4274.3857 -79.951439 10288.112 134144
-4213.7915 -79.962288 10289.508 68096
-4236.2544 -81.572792 10496.746 1648654
-4119.2046 -80.504845 10359.324 529920
-4045.3628 -80.261742 10328.042 1581843
-3974.6226 -80.073631 10303.836 1280
-3897.7449 -79.754059 10262.713 1280
-3872.6145 -80.499985 10358.698 1024
-3811.0293 -80.499985 10358.698 768
-3683.8423 -79.09153 10177.459 768
-3632.957 -79.301575 10204.487 1024
-3573.1873 -79.321526 10207.055 67840
-3547.7368 -80.11718 10309.439 265472
-3486.4443 -80.11718 10309.439 660224
-3434.073 -80.325859 10336.292 200448
-3452.6829 -82.232697 10581.663 266240
-3392.7512 -82.30497 10590.963 1187845
-3351.4377 -82.840187 10659.834 1056516
-3323.1125 -83.723251 10773.467 1845776
-3227.761 -82.919167 10669.998 1792
-3134.7729 -82.144775 10570.349 2048
-3083.3621 -82.450493 10609.688 2816
-3136.9294 -85.634781 11019.441 660993
-3012.5483 -83.993477 10808.239 463616
-2948.2903 -83.993477 10808.239 2048
-2959.5222 -86.192024 11091.146 332032
-2906.2688 -86.569916 11139.774 266240
-2773.4045 -84.53875 10878.404 463872
-2706.0557 -84.455299 10867.666 463360
-2663.9072 -85.173508 10960.085 134144
-2608.23 -85.484322 11000.081 1536
-2585.7354 -86.926659 11185.68 332288
-2406.3467 -83.031487 10684.45 266240
-2329.3157 -82.552711 10622.843 1253891
-2310.5728 -84.170609 10831.032 1253889
-2335.9561 -87.534798 11263.935 2964507
-2268.989 -87.534798 11263.935 2372118
-2113.9426 -84.033478 10813.387 68096
-2011.8937 -82.485352 10614.174 1536
-1934.093 -81.863304 10534.129 1280
-1885.6853 -82.485352 10614.174 1280
-1854.9116 -83.94854 10802.457 67072
-1849.4757 -86.704552 11157.099 1024
-1781.2625 -86.613075 11145.328 67072
-1663.1893 -83.996452 10808.622 67072
-1626.7952 -85.460342 10996.994 331520
-1579.2694 -86.437553 11122.742 463360
-1545.6606 -88.295197 11361.782 332032
-1473.7354 -88.033775 11328.143 924165
-1406.3865 -88.033775 11328.143 265217
-1339.0374 -88.033775 11328.143 200960
-1254.2263 -86.824944 11172.591 925440
-1198.5679 -87.611877 11273.854 1385986
-1141.0352 -88.346931 11368.439 1583365
-1073.4465 -88.346931 11368.439 728064
-987.55841 -86.739624 11161.612 332800
0 0 0 0
0 0 0 0
0 0 0 0
0 0 0 0
-327.92752 -43.375843 5581.582 256
-327.49832 -48.196201 6201.8638 527622
-287.79565 -47.726746 6141.4541 922380
-247.14081 -46.94001 6040.2173 1252113
-209.41469 -46.536598 5988.3066 594696
-173.81255 -46.536598 5988.3066 1713688
-215.38274 -72.521164 9331.9883 1536
-196.77815 -89.246101 11484.145 68610
-127.83813 -88.785233 11424.84 200966
-59.570347 -88.275566 11359.257 1385750
7.9635973 -88.275566 11359.257 69377
75.800728 -88.630074 11404.874 1057551
139.5296 -86.114296 11081.146 1847833
214.42783 -89.894806 11567.619 1322255
283.20056 -89.894806 11567.619 1913882
363.36304 -92.803787 11941.945 467971
430.72556 -92.027 11841.989 3840
542.32654 -99.592384 12815.5 1520147
656.81 -105.75805 13608.894 1717270
766.80402 -109.92767 14145.438 1320721
883.63354 -114.15617 14689.56 1536
991.22626 -116.53802 14996.056 1024
1001.5052 -108.02979 13901.22 512
1097.2054 -109.33051 14068.596 264966
1260.1783 -116.67552 15013.748 768
1403.8536 -121.3803 15619.157 1536
1385.9568 -112.39813 14463.337 2048
1471.9454 -112.39813 14463.337 2044702
1730.7837 -124.86848 16068.016 2704419
1596.1528 -109.13204 14043.057 3428902
1663.1799 -108.0624 13905.416 4414518
1650.9969 -102.19122 13149.915 264707
1532.171 -90.548523 11651.739 1024
1601.4437 -90.548523 11651.739 1024
1705.1885 -92.416809 11892.149 134405
1848.653 -96.203339 12379.397 2175527
2004.2173 -100.30547 12907.259 1189143
0 0 0 0
0 0 0 0
0 0 0 0
0 0 0 0
0 0 0 0
0 0 0 0
0 0 0 0
0 0 0 0
0 0 0 0
0 0 0 0
0 0 0 0
0 0 0 0
0 0 0 0
0 0 0 0
487.15753 -15.486623 1992.811 330507
510.89664 -15.855667 2040.2994 512
520.57037 -15.781201 2030.7173 263941
0 0 0 0
0 0 0 0
0 0 0 0
0 0 0 0
0 0 0 0
0 0 0 0
0 0 0 0
0 0 0 0
0 0 0 0
0 0 0 0
0 0 0 0
595.57776 -14.124207 1817.496 1909777
606.3833 -14.124207 1817.496 725001
568.19189 -13.002926 1673.2101 396038
578.13965 -13.002926 1673.2101 264457
583.15222 -12.893809 1659.1689 132875
599.60577 -13.037078 1677.6049 67599
606.74426 -12.976439 1669.8018 1383463
616.67169 -12.976439 1669.8018 3752524
619.68689 -12.833291 1651.3816 3488837
629.43195 -12.831806 1651.1904 1184791
639.24872 -12.831806 1651.1904 3354934
654.95227 -12.948186 1666.1661 2434089
674.46576 -13.135296 1690.2433 65540
683.53253 -13.116448 1687.818 4
695.26465 -13.148552 1691.9492 5
696.15942 -12.977711 1669.9655 65795
0 0 0 0
0 0 0 0
0 0 0 0
0 0 0 0
0 0 0 0
0 0 0 0
0 0 0 0
0 0 0 0
0 0 0 0
864.23926 -14.100119 1814.3964 1053201
875.02643 -14.100119 1814.3964 1053201
896.51556 -14.270471 1836.3171 724236
904.25629 -14.220515 1829.8888 592650
911.49634 -14.163963 1822.6119 790029
0 0 0 0
0 0 0 0
0 0 0 0
0 0 0 0
0 0 0 0
0 0 0 0
963.19806 -13.817524 1778.0321 3093308
0 0 0 0
0 0 0 0
0 0 0 0
0 0 0 0
0 0 0 0
0 0 0 0
7301.3838 -97.26918 12516.55 1185552
9508.96 -125.40049 16136.474 1448725
8792.3574 -114.79208 14771.388 1119760
8493.5293 -109.79398 14128.234 1185553
8170.9014 -104.5891 13458.475 2040605
7950.0542 -100.77537 12967.725 922381
7722.4805 -96.950432 12475.534 922124
7739.7207 -96.242516 12384.439 790795
8458.4883 -104.18913 13407.007 526853
8884.251 -108.41194 13950.395 263170
7723.0103 -93.369995 12014.805 262913
6991.7319 -83.754303 10777.462 328706
6968.4204 -82.716995 10643.982 985350
6979.9722 -82.108482 10565.679 2035468
6915.292 -80.622063 10374.407 2363150
6882.064 -79.525375 10233.286 2691086
6984.5864 -80.002815 10294.723 1441792
7045.791 -80.002815 10294.723 1442048
6681.6924 -75.21521 9678.6562 1245441
6739.2354 -75.21521 9678.6562 1114112
7006.9751 -77.541313 9977.9785 1311491
6684.4385 -73.351036 9438.7754 1114369
7169.4121 -78.017883 10039.303 1048576
7243.522 -78.173538 10059.333 1442820
7303.3276 -78.173538 10059.333 1442305
7385.061 -78.406357 10089.291 2363149
7157.3369 -75.376404 9699.3984 1704705
7250.1436 -75.743523 9746.6396 1901827
7308.0898 -75.743523 9746.6396 1902343
6721.9731 -69.120743 8894.4238 1836806
6843.8628 -69.824821 8985.0234 1508098
6827.7329 -69.120743 8894.4238 1442307
7022.1821 -70.542915 9077.4277 1573891
7824.708 -78.005363 10037.692 1114112
7561.4429 -74.810295 9626.5518 2296327
7047.9468 -69.206123 8905.4102 1901056
7100.8926 -69.206123 8905.4102 2557699
7448.687 -72.058495 9272.4512 3610129
7527.582 -72.286736 9301.8213 3939610
7703.4512 -73.436089 9449.7197 2426115
7759.6323 -73.436089 9449.7197 2492681
0 0 0 0
0 0 0 0
0 0 0 0
0 0 0 0
0 0 0 0
0 0 0 0
0 0 0 0
0 0 0 0
8135.71 -72.285019 9301.6006 1245956
8988.7061 -79.324623 10207.453 1048576
9049.3926 -79.324623 10207.453 2363923
9212.0049 -80.212128 10321.657 1771787
9273.3701 -80.212128 10321.657 1902859
9485.2002 -81.505058 10488.03 1641742
9902.0264 -84.531097 10877.42 2035472
10168.313 -86.241081 11097.46 1114370
10234.291 -86.241081 11097.46 1641227
9316.5752 -78.004913 10037.634 1115140
10119.211 -84.185898 10833 2364950
10183.616 -84.185898 10833 1248268
10477.41 -86.07029 11075.482 1509898
10627.002 -86.753952 11163.455 984067
10122.473 -82.122314 10567.459 721666
9773.5479 -78.802437 10140.259 1510924
10422.813 -83.522156 10747.59 2104088
0 0 0 0
0 0 0 0
0 0 0 0
0 0 0 0
-6293.4302 -12.726283 6969.6138 67328
-6878.9473 -14.002481 7668.5303 200194
-6908.5493 -14.156563 7752.9136 331267
-6862.4556 -14.156563 7752.9136 858376
-6408.541 -13.30958 7289.0586 1779735
-6696.3438 -14.001986 7668.2583 727044
-6931.9536 -14.594002 7992.4795 332288
-6884.436 -14.594002 7992.4795 989960
-6697.6123 -14.296639 7829.6274 397568
-6321.5195 -13.588278 7441.689 1648402
-6277.2759 -13.588278 7441.689 659972
-6241.2861 -13.606269 7451.542 1253386
-6348.2412 -13.938372 7633.4199 727043
-6287.7041 -13.90486 7615.0664 398337
-6470.2427 -14.412304 7892.9717 924676
-6368.9849 -14.290397 7826.2085 1253640
-6249.4873 -14.125469 7735.8848 1582605
-6173.9541 -14.058205 7699.0469 69376
-6174.438 -14.164318 7757.1606 529920
-6171.8164 -14.264852 7812.2188 68352
-6062.6353 -14.118752 7732.2065 2560
-5929.5044 -13.914222 7620.1938 68096
-5970.6948 -14.118752 7732.2065 332033
-5975.3169 -14.239315 7798.2329 332288
-6176.812 -14.834584 8124.2354 1253388
-6030.3042 -14.596866 7994.0474 1581842
-5982.7769 -14.596866 7994.0474 1280
-6085.2061 -14.96566 8196.0195 1280
-6036.4785 -14.96566 8196.0195 1024
-5891.1899 -14.724318 8063.8472 396802
-5911.9448 -14.897427 8158.6509 67328
-6013.5693 -15.278865 8367.5479 768
-6094.7832 -15.614378 8551.293 1024
-5917.6567 -15.288119 8372.6162 768
-5596.3052 -14.580563 7985.1196 768
-5593.3062 -14.697429 8049.1216 768
-5695.75 -15.095773 8267.2764 1024
-5692.5815 -15.218705 8334.6006 331520
-5643.0303 -15.218705 8334.6006 67584
-5613.9478 -15.274397 8365.1006 2304
-5566.8599 -15.281657 8369.0771 331521
-5517.1035 -15.281657 8369.0771 200448
-5547.2651 -15.505034 8491.4111 266240
-5505.9453 -15.530884 8505.5674 265472
-5423.8311 -15.441075 8456.3828 529408
-5373.5557 -15.441075 8456.3828 924163
-5376.8896 -15.59658 8541.5459 1280
-5326.1079 -15.59658 8541.5459 529152
-5584.7598 -16.511425 9042.5654 791811
-5481.1006 -16.362465 8960.9873 463361
-5523.0239 -16.649446 9118.1543 1536
-5468.814 -16.649446 9118.1543 1280
-5414.604 -16.649446 9118.1543 1280
-5116.1738 -15.890896 8702.7295 66816
-4983.6357 -15.637372 8563.8867 331008
-4966.9795 -15.745976 8623.3643 2816
-4915.7114 -15.745976 8623.3643 397824
-4868.8535 -15.760255 8631.1836 528384
-4987.7998 -16.317251 8936.2256 2048
-5086.0698 -16.817873 9210.3936 68096
-4985.7871 -16.665701 9127.0557 989699
-4931.5239 -16.665701 9127.0557 595457
-4877.2612 -16.665701 9127.0557 67584
-4946.5928 -17.092777 9360.9463 858624
-4785.0747 -16.722803 9158.3281 135168
-4872.8491 -17.225563 9433.667 661760
-4966.1157 -17.759672 9726.1748 596480
-4932.063 -17.845688 9773.2812 1649414
-4887.1099 -17.893843 9799.6533 1451271
-4936.8047 -18.293886 10018.74 727555
-4836.4507 -18.140888 9934.9502 199936
-4777.3843 -18.140888 9934.9502 200192
-4762.3994 -18.310371 10027.768 923912
-4709.5464 -18.33671 10042.192 67840
-4633.6074 -18.272686 10007.13 67328
-4577.0034 -18.284235 10013.454 265728
-4586.0566 -18.561834 10165.482 1536
-4529.0215 -18.575785 10173.123 1713679
-4524.0674 -18.806616 10299.538 529664
-4392.2163 -18.509031 10136.564 529920
-4331.9517 -18.509031 10136.564 727042
-4335.5513 -18.785751 10288.112 727296
-4278.7021 -18.80472 10298.501 1056260
-4220.6646 -18.818945 10306.291 68864
-4236.2544 -19.16671 10496.746 134912
-4133.77 -18.982666 10395.953 529664
-4071.9626 -18.982666 10395.953 990216
-3974.6226 -18.814463 10303.836 1024
-3897.7449 -18.739374 10262.713 1280
-3791.3594 -18.517773 10141.353 1024
-3738.1379 -18.55287 10160.573 1024
-3670.7732 -18.517773 10141.353 512
-3623.3347 -18.583702 10177.459 768
-3562.8267 -18.583702 10177.459 1280
-3547.0764 -18.821192 10307.521 67328
-3486.4443 -18.824696 10309.439 264960
-3434.073 -18.873726 10336.292 1280
-3442.3333 -19.263849 10549.944 661248
-3389.7717 -19.321766 10581.663 1385479
-3387.1636 -19.671993 10773.467 595712
-3376.6733 -19.989059 10947.109 1846286
-3311.5896 -19.989059 10947.109 1056262
-3146.4395 -19.372938 10609.688 199424
-3143.2058 -19.748941 10815.608 1280
-3087.8521 -19.806337 10847.041 1713936
-3023.3633 -19.806337 10847.041 133632
-2958.8748 -19.806337 10847.041 331521
-2927.0701 -20.029995 10969.528 1280
-2869.9148 -20.086418 11000.429 332033
-2770.667 -19.843998 10867.666 660992
-2706.0557 -19.843998 10867.666 200192
-2662.512 -20.00227 10954.345 134656
-2608.23 -20.085783 11000.081 199680
-2552.8411 -20.164848 11043.382 2048
-2418.0327 -19.604197 10736.338 134400
-2329.3157 -19.396957 10622.843 990721
-2290.3716 -19.604197 10736.338 1187589
-2208.0901 -19.44174 10647.367 1517066
-2268.989 -20.567572 11263.935 1516556
-2081.95 -19.446064 10649.735 1024
-2016.6825 -19.427259 10639.438 1280
-1953.428 -19.427259 10639.438 1280
-1948.2367 -20.024035 10966.264 1280
-1914.7513 -20.361258 11150.946 768
-1847.5245 -20.351 11145.328 1280
-1781.2625 -20.351 11145.328 1024
-1711.525 -20.309759 11122.742 1792
-1645.3972 -20.309759 11122.742 528640
-1578.3206 -20.297556 11116.06 2304
-1502.9316 -20.172718 11047.691 332032
-1445.0601 -20.282337 11107.725 1318667
-1405.678 -20.674393 11322.437 1280
-1420.0134 -21.93569 12013.192 398337
-1271.048 -20.674393 11322.437 530176
-1177.1245 -20.217388 11072.155 1583366
-1134.7749 -20.644505 11306.067 267264
-1045.4705 -20.217388 11072.155 1912334
-947.52551 -19.554554 10709.151 67840
0 0 0 0
0 0 0 0
0 0 0 0
0 0 0 0
-358.35925 -11.137583 6099.5537 768
-327.49832 -11.324397 6201.8638 263938
-290.62653 -11.324397 6201.8638 329987
-254.03615 -11.336956 6208.7417 1580823
-209.41469 -10.934449 5988.3066 1025
-173.81255 -10.934449 5988.3066 1252882
-145.70081 -11.527049 6312.8472 1186323
-196.77815 -20.969667 11484.145 134147
-127.10429 -20.741627 11359.257 1280
-59.15963 -20.598619 11280.938 2048
7.8812141 -20.527054 11241.745 1792
73.882553 -20.297937 11116.269 991500
143.73341 -20.843414 11415.002 1058317
214.42783 -21.122089 11567.619 1059085
283.20056 -21.122089 11567.619 860937
360.32162 -21.623079 11841.989 1388558
409.9216 -20.578688 11270.023 861708
567.72015 -24.496378 13415.566 1784089
656.81 -24.849388 13608.894 2440991
737.71869 -24.849388 13608.894 2374178
948.04865 -28.777966 15760.399 1280
1066.5505 -29.46311 16135.622 1536
990.1781 -25.096083 13743.997 768
1097.2054 -25.688789 14068.596 1280
1260.1783 -27.414608 15013.748 1280
1449.2125 -29.441555 16123.816 594953
1500.5344 -28.592863 15659.027 135169
1471.9454 -26.409575 14463.337 1451283
1549.8568 -26.272655 14388.353 66817
1636.1616 -26.284895 14395.056 4875593
1679.6427 -25.642157 14043.057 3494451
1629.2526 -23.69507 12976.726 5533266
1521.8123 -21.131849 11572.964 924431
1555.6917 -20.667856 11318.856 267013
1624.9108 -20.692375 11332.284 2048
1775.8906 -21.71467 11892.149 1024
1996.1453 -23.473305 12855.274 133636
0 0 0 0
0 0 0 0
0 0 0 0
0 0 0 0
0 0 0 0
0 0 0 0
0 0 0 0
0 0 0 0
0 0 0 0
0 0 0 0
0 0 0 0
0 0 0 0
0 0 0 0
0 0 0 0
488.76138 -3.6507862 1999.3717 198409
510.89664 -3.7255192 2040.2994 0
532.48846 -3.7929151 2077.2092 1120018
544.83807 -3.7929151 2077.2092 265474
0 0 0 0
0 0 0 0
0 0 0 0
0 0 0 0
0 0 0 0
0 0 0 0
0 0 0 0
0 0 0 0
0 0 0 0
0 0 0 0
582.47919 -3.2456992 1777.5237 2171926
595.9184 -3.2614141 1786.1299 921866
567.0556 -3.0491161 1669.8639 593161
577.73346 -3.0530796 1672.0345 264200
586.91125 -3.0491161 1669.8639 132875
599.54022 -3.0629156 1677.4214 1549
604.70459 -3.0387528 1664.1884 1120291
614.13385 -3.0364549 1662.9299 3751754
619.61511 -3.0150189 1651.1904 3882569
627.37872 -3.0051842 1645.8043 1184275
637.16351 -3.0051842 1645.8043 3552571
652.58502 -3.0313675 1660.1438 2039075
673.49799 -3.0818996 1687.818 3
678.78357 -3.0604877 1676.0917 261
694.67798 -3.0868361 1690.5215 5
718.11029 -3.1454504 1722.6218 1
728.35175 -3.1454504 1722.6218 921361
0 0 0 0
0 0 0 0
0 0 0 0
0 0 0 0
0 0 0 0
0 0 0 0
0 0 0 0
812.11304 -3.1525524 1726.5114 723979
864.23926 -3.3130274 1814.3964 723979
909.21301 -3.4424648 1885.2833 855565
891.96558 -3.3360372 1826.9976 526601
900.66046 -3.3280289 1822.6119 526857
909.2066 -3.3196688 1818.0333 921615
0 0 0 0
0 0 0 0
0 0 0 0
0 0 0 0
0 0 0 0
0 0 0 0
0 0 0 0
0 0 0 0
0 0 0 0
0 0 0 0
0 0 0 0
0 0 0 0
5915.0581 -18.705975 10244.422 1712153
7253.6641 -22.705435 12434.746 1053966
8583.7881 -26.59791 14566.479 1448725
8409.5342 -25.797686 14128.234 725002
7942.8926 -24.125217 13212.298 132609
7331.2764 -22.049479 12075.509 396037
7592.4629 -22.613575 12384.439 725002
7722.4805 -22.779911 12475.534 725001
7978.0493 -23.309912 12765.792 1053967
8271.5674 -23.939758 13110.729 592904
8538.1963 -24.480749 13407.007 921357
7896.3374 -22.431004 12284.453 197378
7705.4131 -21.688051 11877.571 460549
7055.8071 -19.679287 10777.462 853764
6959.7031 -19.236555 10534.997 1838603
6949.896 -19.038115 10426.32 2231822
7011.8828 -19.038115 10426.32 2494478
7041.2676 -18.950369 10378.266 1507328
7045.791 -18.797821 10294.723 1310720
6830.0273 -18.065245 9893.5234 1179648
6903.7427 -18.104307 9914.916 1048576
7047.5605 -18.324989 10035.773 1377541
7160.0742 -18.46125 10110.397 1048833
7561.0005 -19.332684 10587.643 1114368
7623.9468 -19.332684 10587.643 1376512
7241.4009 -18.212263 9974.0381 2955285
7122.062 -17.766636 9729.9883 2362378
7157.3369 -17.710779 9699.3984 1836034
7386.3979 -18.131506 9929.8115 1901570
7308.0898 -17.797041 9746.6396 1638657
6631.0513 -16.021246 8774.1172 1771013
6739.2627 -16.155603 8847.6982 1705220
6798.0269 -16.170261 8855.7256 1573634
6994.2017 -16.509037 9041.2578 1639427
7824.708 -18.328493 10037.692 1245184
7561.4429 -17.577765 9626.5518 2099205
7003.0278 -16.157347 8848.6523 1900544
7340.1831 -16.808958 9205.5107 2689284
7448.687 -16.931189 9272.4512 3675665
7544.438 -17.02285 9322.6504 3741715
7784.1973 -17.435738 9548.7705 2425088
7840.9683 -17.435738 9548.7705 2557959
7465.5898 -16.481691 9026.2812 2098179
0 0 0 0
0 0 0 0
0 0 0 0
0 0 0 0
0 0 0 0
0 0 0 0
7746.2563 -16.282051 8916.9473 1574151
8584.2012 -17.920702 9814.3633 1509127
9161.623 -18.997021 10403.814 1048576
9150.6396 -18.847004 10321.657 2560788
9283.2617 -18.992788 10401.497 1968651
9273.3701 -18.847004 10321.657 1902857
9578.9043 -19.339985 10591.641 1640970
10016.111 -20.090643 11002.742 2034702
10290.848 -20.507784 11231.191 983040
10427.161 -20.645472 11306.598 1509641
9584.7803 -18.856024 10326.597 1180676
9877.1895 -19.307604 10573.907 1772813
9942.3398 -19.312042 10576.338 1246469
10005.219 -19.312042 10576.338 1575434
10059.646 -19.29583 10567.459 1378312
9832.8311 -18.743706 10265.085 852738
9773.5479 -18.515778 10140.259 1511437
10422.813 -19.624743 10747.59 1774355
0 0 0 0
0 0 0 0
0 0 0 0
0 0 0 0
0 0 0 0
-6878.9473 31.589064 7668.5303 530432
-6934.853 32.058262 7782.4321 1121804
-6887.4697 32.053074 7781.1729 923912
-6741.9336 31.587946 7668.2583 463617
-6894.7808 32.52401 7895.4971 594947
-6790.7109 32.252674 7829.6274 594947
-6744.1616 32.252674 7829.6274 67840
-6544.0718 31.513292 7650.1357 2048
-6360.7988 30.845114 7487.9292 1536
-6316.2817 30.845114 7487.9292 332032
-6271.7632 30.845114 7487.9292 726530
-6348.2412 31.444435 7633.4199 2560
-6302.8584 31.444435 7633.4199 792323
-6459.9692 32.461987 7880.4395 595712
-6307.7002 31.928379 7750.9019 924676
-6249.4873 31.866518 7735.8848 1253642
-6083.3115 31.249153 7586.0132 595970
-6105.0278 31.594946 7669.958 332290
-6171.8164 32.180962 7812.2188 1536
-6102.9453 32.063145 7783.6177 266240
-6006.1548 31.795729 7718.6997 1280
-5970.6948 31.851368 7732.2065 398082
-5949.5762 31.984968 7764.6392 134144
-5962.0029 32.30241 7841.7012 792837
-6066.8472 33.129528 8042.4912 1187596
-6019.0327 33.129528 8042.4912 331778
-6134.2627 34.034134 8262.0928 1280
-6032.3037 33.738605 8190.3511 1024
-5891.1899 33.217499 8063.8472 768
-5905.6089 33.572006 8149.9067 768
-5984.4907 34.301865 8327.0869 1024
-5967.4341 34.489414 8372.6162 768
-5894.499 34.354446 8339.8516 512
-5596.3052 32.893196 7985.1196 512
-5720.2319 33.909245 8231.7754 768
-5742.1333 34.332817 8334.6006 768
-5692.5815 34.332817 8334.6006 768
-5833.251 35.490143 8615.5518 198914
-5782.0293 35.490143 8615.5518 66816
-5694.7612 35.266911 8561.3604 66816
-5597.749 34.978767 8491.4111 133632
-5608.7764 35.366631 8585.5684 2560
-5505.9453 35.037083 8505.5674 2304
-5423.8311 34.834473 8456.3828 67584
-5398.5015 34.996189 8495.6406 462848
-5188.7549 33.954174 8242.6816 1792
-5261.252 34.75684 8437.5361 397824
-5562.6553 37.101711 9006.7754 924675
-5455.9917 36.743996 8919.9365 1582350
-5402.96 36.743996 8919.9365 792836
-5398.6865 37.078873 9001.2305 1280
-5345.1714 37.078873 9001.2305 1024
-5225.0981 36.612492 8888.0127 594946
-5018.2476 35.522324 8623.3643 1187336
-4966.9795 35.522324 8623.3643 1792
-4920.1685 35.554535 8631.1836 660484
-4956.5229 36.194733 8786.5977 66816
-4977.5693 36.735592 8917.8965 1280
-5054.8701 37.707741 9153.8936 67328
-5000.4473 37.707741 9153.8936 198912
-5067.1104 38.630875 9377.9932 923649
-4956.0288 38.20438 9274.457 1280
-4900.8896 38.20438 9274.457 2048
-4790.8696 37.77169 9169.4189 2048
-4872.8491 38.86021 9433.667 265984
-4816.7632 38.86021 9433.667 1451779
-4803.0879 39.206398 9517.707 2307091
-4839.1855 39.971966 9703.5547 1280
-4988.3853 41.701508 10123.417 133376
-4912.3311 41.567242 10090.822 1253130
-4852.3379 41.567242 10090.822 397569
-4886.6797 42.385464 10289.454 2560
-4715.0796 41.415516 10053.99 858629
-4633.6074 41.222485 10007.13 67840
-4574.1123 41.222485 10007.13 1647884
-4494.354 41.03746 9962.2139 858880
-4529.0215 41.906265 10173.123 266752
-4524.0674 42.427006 10299.538 792832
-4375.7993 41.599594 10098.677 332544
-4315.7603 41.599594 10098.677 463617
-4336.1392 42.385689 10289.508 727043
-4293.1289 42.565773 10333.226 68864
-4231.6948 42.565773 10333.226 2048
-4252.6387 43.406601 10537.344 2048
-4266.3784 44.197941 10729.449 660229
-4094.5408 43.061615 10453.596 768
-3996.0266 42.673283 10359.324 134145
-3872.1108 41.99728 10195.219 768
-3783.7642 41.6917 10121.036 768
-3710.761 41.548042 10086.161 512
-3616.3696 41.15625 9991.0508 512
-3575.282 41.368126 10042.485 512
-3545.249 41.717285 10127.247 768
-3575.3582 42.798431 10389.705 768
-3495.5254 42.578407 10336.292 396800
-3474.1501 43.075314 10456.921 199936
-3442.3333 43.458508 10549.944 463872
-3379.6108 43.458508 10549.944 727552
-3405.8557 44.624168 10832.919 859138
-3376.6733 45.094551 10947.109 596224
-3311.5896 45.094551 10947.109 1582858
-3217.3452 44.68951 10848.781 530432
-3152.8464 44.68951 10848.781 1582859
-3087.8521 44.682339 10847.041 1121796
-3023.3633 44.682339 10847.041 1024
-3005.3562 45.384266 11017.439 595201
-2927.0701 45.186905 10969.528 200448
-2861.8533 45.186905 10969.528 397824
-2769.9453 44.755642 10864.836 594945
-2727.6387 45.124359 10954.345 595456
-2662.512 45.124359 10954.345 1024
-2618.4971 45.491131 11043.382 792580
-2552.8411 45.491131 11043.382 1536
-2407.0957 44.026279 10687.776 661248
-2329.3157 43.758801 10622.843 1122561
-2280.0122 44.026279 10687.776 2044172
-2335.9561 46.399654 11263.935 1583114
-2268.989 46.399654 11263.935 1280
-2130.4844 44.892265 10898.002 1536
-2016.6825 43.827156 10639.438 768
-1953.428 43.827156 10639.438 198656
-1978.0017 45.863613 11133.806 1024
-1921.5918 46.09832 11190.783 1024
-1869.0249 46.445362 11275.03 1024
-1743.5614 44.93935 10909.433 512
-1711.525 45.818039 11122.742 528642
-1644.4086 45.790512 11116.06 134400
-1578.3206 45.790512 11116.06 266240
-1483.7911 44.929306 10906.994 134144
-1445.0601 45.756176 11107.725 1845264
-1392.1276 46.191036 11213.29 398080
-1353.9762 47.18475 11454.523 529920
-1258.7952 46.191036 11213.29 1583624
-1176.0017 45.566151 11061.594 1386755
-1110.2374 45.566151 11061.594 1583882
-1019.079 44.458305 10792.654 1912590
-940.50671 43.78756 10629.824 792835
-843.39423 42.094807 10218.894 332032
0 0 0 0
0 0 0 0
0 0 0 0
-375.04178 26.295637 6383.5029 512
-335.24835 26.15197 6348.6265 512
-292.78128 25.73682 6247.8452 263938
-255.63609 25.73682 6247.8452 2830890
-217.12344 25.575739 6208.7417 1121039
-173.81255 24.6677 5988.3066 660745
-230.2066 41.08712 9974.2695 67841
-193.61998 46.54752 11299.83 1280
-126.22794 46.4697 11280.938 2049
-59.15963 46.4697 11280.938 1536
7.8812141 46.30825 11241.745 1536
73.882553 45.791374 11116.269 2048
137.73776 45.060493 10938.841 1518868
211.59877 47.02195 11415.002 1190671
289.42975 48.698738 11822.058 268290
359.71515 48.698738 11822.058 1387791
411.91605 46.650616 11324.857 4096
542.32654 52.791035 12815.5 70145
647.47943 55.262894 13415.566 1519123
727.23871 55.262894 13415.566 1123086
902.0705 61.773422 14996.056 265730
991.22626 61.773422 14996.056 1536
949.72803 54.302975 13182.537 1280
1056.3284 55.793858 13544.463 1024
1208.4316 59.306713 14397.238 1583643
1450.298 66.468773 16135.894 3757111
1546.2305 66.468773 16135.894 4153911
1642.1277 66.467354 16135.549 3758638
1613.0179 61.685532 14974.719 2243866
1649.8502 59.793823 14515.49 1453842
1721.744 59.297718 14395.056 1847322
1790.3219 58.739796 14259.615 2504738
1488.3978 46.625896 11318.856 4675393
1496.9958 44.866718 10891.8 924428
1596.0897 45.853226 11131.284 988942
1626.5054 44.866718 10891.8 461831
1759.6578 46.68121 11332.284 263939
0 0 0 0
0 0 0 0
0 0 0 0
0 0 0 0
0 0 0 0
0 0 0 0
0 0 0 0
0 0 0 0
0 0 0 0
0 0 0 0
0 0 0 0
0 0 0 0
0 0 0 0
0 0 0 0
497.53555 8.3838863 2035.2642 132359
512.39252 8.4292374 2046.2734 256
532.48846 8.5566721 2077.2092 527626
544.83807 8.5566721 2077.2092 462341
0 0 0 0
0 0 0 0
0 0 0 0
0 0 0 0
0 0 0 0
0 0 0 0
0 0 0 0
0 0 0 0
0 0 0 0
0 0 0 0
581.62018 7.3113756 1774.9023 2632727
593.04706 7.3221736 1777.5237 1053450
575.29474 6.9786348 1694.1265 658441
579.99286 6.9145679 1678.5736 198408
588.95679 6.9026632 1675.6838 1033
599.54022 6.9098215 1677.4214 780
604.70459 6.85531 1664.1884 988449
614.13385 6.8501263 1662.9299 3817291
619.68689 6.8025551 1651.3816 3948362
629.50482 6.8025551 1651.3816 921103
