# .PCD v0.7 - Point Cloud Data file format
VERSION 0.7
FIELDS x y z rgb
SIZE 4 4 4 4
TYPE F F F U
COUNT 1 1 1 1
WIDTH 1410
HEIGHT 1
VIEWPOINT 0 0 0 1 0 0 0
POINTS 1410
DATA ascii
0 0 0 0
0 0 0 0
0 0 0 0
0 0 0 0
0 0 0 0
4380.5415 -4395.8564 13614.901 13685457
4512.5103 -4446.1309 13770.61 13685457
4626.2993 -4477.0195 13866.28 13685457
4740.7256 -4507.4326 13960.477 13685457
4846.376 -4528.5991 14026.033 13685457
5003.5459 -4596.3765 14235.953 13685457
5182.6636 -4681.7256 14500.297 13685457
5292.9453 -4703.1157 14566.548 13685457
5433.7729 -4750.5229 14713.378 13750737
5577.5864 -4798.9966 14863.512 13750737
5665.9541 -4798.9966 14863.512 13750737
5716.9272 -4767.8105 14766.921 13750737
5804.7202 -4767.8105 14766.921 13750737
6180.771 -5001.0479 15489.306 13750737
6315.4282 -5034.9858 15594.42 13750737
6417.7549 -5042.5396 15617.814 13750737
6545.8052 -5069.8003 15702.248 13750737
6671.2339 -5094.2935 15778.108 13750737
6767.4834 -5096.1338 15783.809 13750737
6880.7012 -5110.5273 15828.388 13750737
6988.1182 -5120.2812 15858.599 13750737
7106.3408 -5137.5879 15912.201 13750737
7235.417 -5162.1841 15988.38 13750737
7418.8164 -5224.3965 16181.065 13750737
7597.333 -5281.6221 16358.305 13750737
7699.8496 -5285.2344 16369.492 13750737
7841.8027 -5315.4878 16463.193 13750737
7939.6816 -5315.4878 16463.193 13750737
7996.9775 -5288.6494 16380.069 13750737
8093.0874 -5287.8169 16377.491 13750737
8193.001 -5289.46 16382.58 13750737
8309.3818 -5301.5708 16420.09 13750737
8415.0605 -5306.6514 16435.826 13750737
8554.2832 -5332.5254 16515.963 13750737
8623.8496 -5314.8843 16461.324 13750737
8721.7178 -5314.8843 16461.324 13750737
8819.584 -5314.8843 16461.324 13750737
8858.0596 -5279.4863 16351.689 13750737
8983.6729 -5296.2275 16403.541 13750737
9147.2949 -5334.7769 16522.936 13750737
9296.4834 -5364.1787 16614 13750737
9371.8789 -5350.8301 16572.656 13750737
9466.1309 -5348.4136 16565.172 13750737
9564.6152 -5348.4136 16565.172 13750737
9720.3584 -5380.1055 16663.328 13750737
9682.6377 -5305.1582 16431.201 13750737
9780.3252 -5305.1582 16431.201 13750737
9877.7725 -5305.0283 16430.799 13750737
9850.9521 -5238.8154 16225.724 13750737
9948.3682 -5239.3149 16227.271 13750737
10044.933 -5239.3618 16227.416 13750737
10141.41 -5239.3618 16227.416 13750737
10238.696 -5239.7769 16228.701 13750737
10964.44 -5558.8018 17216.789 13750737
11054.582 -5552.6655 17197.783 13750737
11156.828 -5552.6655 17197.783 13750737
11272.363 -5559.2192 17218.082 13750737
11379.108 -5561.3599 17224.711 13750737
11496.442 -5568.5908 17247.107 13750737
11604.472 -5571.2266 17255.271 13750737
11712.699 -5573.9106 17263.584 13750737
11820.941 -5576.5547 17271.773 13750737
11928.058 -5578.6265 17278.191 13750737
11668.115 -5410.4604 16757.344 13750737
11582.128 -5325.1201 16493.027 13750737
11680.958 -5325.4736 16494.121 13750737
11780.69 -5326.228 16496.459 13750737
12054.778 -5405.1484 16740.893 13750737
12156.071 -5405.9331 16743.322 13750737
12258.628 -5407.2627 16747.439 13750737
12360.358 -5408.2085 16750.369 13750737
12005.887 -5211.126 16139.963 13619151
12100.16 -5210.4014 16137.719 13684944
12197.067 -5210.813 16138.994 13554129
12292.678 -5210.6689 16138.548 13225424
12387.249 -5210.0898 16136.753 12829897
12483.024 -5210.0215 16136.543 14146016
12579.209 -5210.1245 16136.861 3750476
8730.9268 -3588.8513 11115.434 3619930
8797.0107 -3588.8513 11115.434 4080484
11612.827 -4702.2749 14563.943 3357535
12678.159 -5095.6558 15782.327 2766681
12649.118 -5046.6338 15630.496 2635608
12581.77 -4983.1543 15433.887 2569559
13123.562 -5160.105 15981.939 4280686
12756.404 -4979.6875 15423.148 3886183
11384.843 -4412.5557 13666.621 4544113
11064.316 -4257.9375 13187.736 4609906
11111.415 -4245.9746 13150.685 3294559
11549.352 -4382.4849 13573.485 4083558
12708.798 -4788.9829 14832.497 4083810
12453.005 -4660.2583 14433.809 5859188
12276.684 -4562.8315 14132.058 6056309
12176.336 -4494.7744 13921.27 5661805
12259.102 -4494.7744 13921.27 3621964
12428.498 -4526.3237 14018.986 3950162
13648.195 -4937.4141 15292.219 4542302
13790.648 -4955.9346 15349.581 3817297
13435.305 -4796.4951 14855.764 3685714
12549.935 -4451.1509 13786.158 3685975
13420.305 -4728.9648 14646.607 3488596
13803.591 -4832.668 14967.798 2765127
14674.73 -5104.7471 15810.485 3160141
14768.729 -5104.7471 15810.485 4278621
15047.499 -5168.209 16007.04 4607329
15264.424 -5209.7651 16135.748 3489359
15362.145 -5210.3721 16137.628 3686482
15458.282 -5210.438 16137.833 3686482
15553.352 -5210.145 16136.925 2304826
15649.289 -5210.145 16136.925 3620940
0 0 0 0
0 0 0 0
0 0 0 0
0 0 0 0
-7437.4956 -2610.3906 8236.6006 2242111
-7472.3804 -2640.0164 8330.0791 2044732
-7560.8135 -2689.0823 8484.8975 1913146
-7445.7983 -2665.9631 8411.9492 2110525
-7395.7866 -2665.9631 8411.9492 2439491
-7257.0156 -2633.75 8310.3066 2242883
-7097.7622 -2593.6108 8183.6553 2440260
-6887.5596 -2534.1716 7996.1055 2637896
-6825.2256 -2528.6899 7978.8096 3098190
-6479.3667 -2417.353 7627.5068 2769736
-6434.019 -2417.353 7627.5068 3427665
-6870.106 -2599.5188 8202.2969 3954520
-6518.9897 -2484.2969 7838.7358 5138535
-6307.7656 -2421.1108 7639.3633 3889752
-6482.4229 -2506.1948 7907.8306 2902346
-6847.4185 -2666.6475 8414.1084 1980472
-7128.873 -2796.6877 8824.4268 2439996
-7182.6689 -2838.6829 8956.9346 2505275
-7023.9458 -2796.6877 8824.4268 2834500
-6755.5835 -2710.0776 8551.1445 3360844
-7218.082 -2917.5703 9205.8486 3493196
-7262.167 -2957.8171 9332.8408 4020051
-6852.0239 -2812.2563 8873.5508 4216402
-6678.2998 -2762.2227 8715.6787 4479830
-6366.2715 -2653.7546 8373.4277 5926762
-6207.7637 -2608.0754 8229.2959 6388078
-5795.9297 -2454.3953 7744.3862 4086605
0 0 0 0
0 0 0 0
0 0 0 0
0 0 0 0
0 0 0 0
0 0 0 0
0 0 0 0
0 0 0 0
0 0 0 0
0 0 0 0
0 0 0 0
0 0 0 0
-2618.053 -1236.3423 3901.0474 6456166
-2594.8601 -1236.3423 3901.0474 4811599
-2571.6672 -1236.3423 3901.0474 3692609
-2793.2219 -1355.0765 4275.6914 5863779
-2823.5503 -1382.3704 4361.812 5601371
-2902.5381 -1434.2137 4525.394 3890750
-2946.3496 -1469.4834 4636.6807 5075018
-2980.4324 -1500.521 4734.6143 5667157
-2952.2837 -1500.521 4734.6143 4087107
-2906.1995 -1491.3174 4705.5737 3888707
-2808.3611 -1455.1189 4591.3564 7704711
-2765.6694 -1447.0641 4565.9409 2568496
-2760.7449 -1458.8059 4602.9902 6911601
-2711.3779 -1447.0641 4565.9409 2768696
-2681.5706 -1445.6293 4561.4136 6514535
-2687.1167 -1463.4189 4617.5454 8419715
-2642.6204 -1454.0408 4587.9546 6574428
-2615.3435 -1454.0408 4587.9546 4011058
-2700.7356 -1517.3408 4787.686 4216381
-2680.001 -1521.7299 4801.5347 3295273
-2824.2939 -1620.9263 5114.5303 4675640
-2891.3396 -1677.4655 5292.9297 4152120
-2891.1299 -1695.7999 5350.7808 2638117
-2989.9473 -1773.2733 5595.2334 4742730
-2910.2119 -1745.403 5507.2935 4278336
-2873.3557 -1742.9076 5499.4199 9669257
-2708.4346 -1661.7797 5243.4355 4999748
-2677.2607 -1661.7797 5243.4355 7041639
-2581.0874 -1620.9587 5114.6333 3490612
-2596.4768 -1650.0631 5206.4663 2372643
-2570.5625 -1653.3042 5216.6934 4018500
-2468.8777 -1607.2965 5071.5244 4348221
-2438.7261 -1607.2965 5071.5244 4611911
-2408.5745 -1607.2965 5071.5244 6782572
-2418.1731 -1634.1592 5156.2842 4477771
-2322.9558 -1589.9692 5016.8511 5001823
-2220.4844 -1539.6 4857.9204 2697530
-2203.1567 -1547.7167 4883.5312 14079457
-2042.9856 -1454.3627 4588.9702 3026505
-1918.7361 -1384.3995 4368.2144 2629443
-2154.6946 -1575.9783 4972.7056 4340050
-2149.2844 -1593.8909 5029.2251 12629704
-2176.3359 -1636.7216 5164.3696 13684692
-2149.4846 -1639.66 5173.6411 13618900
-2070.3215 -1602.2003 5055.4443 8684943
-2002.9436 -1572.892 4962.9673 13223376
-1973.4374 -1572.892 4962.9673 988960
-1945.7684 -1574.3784 4967.6577 9205137
-1928.5096 -1584.4639 4999.4805 4866129
-1886.7003 -1574.3784 4967.6577 4146246
-1778.8522 -1507.9891 4758.1787 4018510
-1684.459 -1451.0448 4578.5015 5198172
-1597.0676 -1398.3605 4412.2656 5134440
0 0 0 0
0 0 0 0
0 0 0 0
0 0 0 0
0 0 0 0
-1534.7164 -1490.6747 4703.5459 12630978
-1506.7526 -1490.6747 4703.5459 13748687
0 0 0 0
-1408.5938 -1447.2837 4566.6338 993052
-1754.4739 -1838.0924 5799.7578 4087870
-1724.3807 -1842.7817 5814.5542 3627062
-1689.8116 -1842.7817 5814.5542 2243364
-1652.4642 -1839.6887 5804.7949 11579057
-1584.965 -1802.1798 5686.4419 13881301
-1472.3147 -1710.5778 5397.4092 13553620
-1440.2256 -1710.5778 5397.4092 6319218
-1514.3577 -1839.6133 5804.5566 2638119
-1474.8263 -1833.371 5784.8599 1585682
-1440.4337 -1833.371 5784.8599 3427629
-1446.3384 -1885.9155 5950.6548 2112283
-1355.9524 -1812.3911 5718.6621 2045724
-1300.2189 -1782.5933 5624.6406 2242337
-1227.0656 -1726.7094 5448.3091 1057549
-1159.189 -1675.4218 5286.481 2241824
-1126.5643 -1673.6464 5280.8789 2505762
-1063.9718 -1625.9718 5130.4507 267525
-1067.2042 -1679.0465 5297.9185 2769439
-1015.8961 -1646.9307 5196.5825 6058829
-884.0036 -1478.0621 4663.7495 9673610
-836.89832 -1444.6127 4558.2061 198145
-817.31519 -1458.022 4600.5161 2239011
-788.83661 -1455.9414 4593.9517 1318422
0 0 0 0
0 0 0 0
-734.57758 -1512.9471 4773.8228 3756328
-719.43188 -1541.3038 4863.2969 2045717
-682.59882 -1523.6271 4807.521 1648147
0 0 0 0
0 0 0 0
-568.42999 -1451.0704 4578.582 862981
-637.13202 -1708.2557 5390.0825 1784335
-530.49023 -1497.6588 4725.583 1651980
-502.39536 -1497.6588 4725.583 1520649
-520.75659 -1644.3494 5188.438 3033114
-465.64841 -1562.9175 4931.4946 2243856
-421.43988 -1509.584 4763.2109 1585160
-407.01022 -1562.9175 4931.4946 1651466
-413.85919 -1712.5841 5403.7397 2440723
-387.98038 -1740.6144 5492.1841 3888425
-355.32779 -1740.6144 5492.1841 1322248
-316.10507 -1705.1727 5380.3545 333825
-282.3389 -1694.499 5346.6758 332034
-249.47633 -1687.228 5323.7334 989707
-211.09517 -1635.0983 5159.2476 727301
-186.42349 -1689.4875 5330.8628 992007
-153.30244 -1673.8998 5281.6787 2375694
-121.9014 -1673.8998 5281.6787 4153633
-92.760063 -1715.6958 5413.5581 4483100
-60.89682 -1724.812 5442.3228 4022803
-28.397852 -1716.1797 5415.085 1654017
3.7963359 -1716.1797 5415.085 4219165
35.495865 -1692.5923 5340.6592 4678957
67.968864 -1710.7469 5397.9429 2110227
104.90839 -1793.6205 5659.4351 3495449
139.45004 -1805.203 5695.9814 3035156
173.31187 -1805.1785 5695.9038 3890724
202.72289 -1766.3806 5573.4849 4153381
231.61032 -1734.563 5473.0903 4873773
265.79846 -1745.3921 5507.2593 5330266
298.54068 -1745.3921 5507.2593 10724520
338.85895 -1785.3075 5633.2046 14406619
377.155 -1808.3463 5705.8994 13749970
401.8382 -1767.6993 5577.646 13749715
428.05136 -1739.4672 5488.564 13683920
457.22803 -1726.424 5447.4087 13684433
447.0892 -1576.4762 4974.2769 13553106
0 0 0 0
0 0 0 0
0 0 0 0
481.04254 -1341.3069 4232.2437 1911848
506.20441 -1341.3069 4232.2437 5400416
0 0 0 0
0 0 0 0
0 0 0 0
0 0 0 0
0 0 0 0
0 0 0 0
0 0 0 0
0 0 0 0
848.4585 -1553.3008 4901.1509 13618899
0 0 0 0
0 0 0 0
0 0 0 0
0 0 0 0
0 0 0 0
0 0 0 0
928.96033 -1371.0703 4326.1567 12499914
962.22443 -1381.9047 4360.3423 13684942
0 0 0 0
0 0 0 0
0 0 0 0
1073.0347 -1391.1306 4389.4531 13488081
1097.9849 -1389.6798 4384.8755 13553361
1000.4067 -1236.8131 3902.5332 11052973
0 0 0 0
0 0 0 0
0 0 0 0
0 0 0 0
0 0 0 0
0 0 0 0
0 0 0 0
0 0 0 0
0 0 0 0
4299.5972 -4314.9126 13614.901 13685457
4408.2666 -4342.2227 13701.073 13685457
4537.2539 -4388.1914 13846.119 13685457
4638.2231 -4405.9077 13902.02 13685457
4739.9238 -4423.6855 13958.115 13685457
4846.376 -4445.2104 14026.033 13685457
4984.8208 -4494.855 14182.677 13685457
5144.7617 -4561.9092 14394.253 13685457
5292.9453 -4616.5137 14566.548 13685457
5446.3862 -4673.8726 14747.532 13750737
5563.4736 -4698.71 14825.903 13750737
5651.6177 -4698.71 14825.903 13750737
5711.0684 -4675.2212 14751.788 13750737
5798.772 -4675.2212 14751.788 13750737
6156.8906 -4889.9927 15429.461 13750737
6267.8887 -4905.0693 15477.032 13750737
6408.1411 -4942.2729 15594.42 13750737
6538.896 -4971.1934 15685.674 13750737
6654.4839 -4987.9326 15738.492 13750737
6750.4082 -4989.6733 15743.983 13750737
6828.8584 -4978.6265 15709.128 13750737
6922.2534 -4978.6265 15709.128 13750737
7068.9092 -5016.4229 15828.388 13750737
7200.9429 -5042.9858 15912.201 13750737
7399.9453 -5115.1514 16139.906 13750737
7500.896 -5118.5601 16150.661 13750737
7684.1665 -5177.3462 16336.15 13750737
7781.2896 -5177.3462 16336.15 13750737
7878.4121 -5177.3462 16336.15 13750737
7996.9775 -5191.2651 16380.069 13750737
8093.0874 -5190.4482 16377.491 13750737
8191.7456 -5191.2651 16380.069 13684944
8281.5508 -5186.5186 16365.092 13684944
8407.0039 -5203.9487 16420.09 13750737
8521.792 -5214.4521 16453.232 13750737
8619.6113 -5214.4521 16453.232 13750737
8717.4297 -5214.4521 16453.232 13750737
8760.8447 -5182.271 16351.689 13750737
8806.5625 -5152.1431 16256.626 13750737
8969.8506 -5190.7051 16378.302 13750737
9147.2949 -5236.543 16522.936 13750737
9242.9805 -5235.1006 16518.383 13750737
9341.1875 -5235.1006 16518.383 13750737
9439.3936 -5235.1006 16518.383 13750737
9564.6152 -5249.9292 16565.172 13750737
9583.1699 -5206.5034 16428.15 13750737
9682.0107 -5207.1328 16430.137 13750737
9780.0859 -5207.3428 16430.799 13750737
9878.0137 -5207.4702 16431.201 13750737
9978.002 -5208.6709 16434.99 13750737
10077.275 -5209.479 16437.539 13750737
10178.069 -5211.0498 16442.496 13750737
10141.41 -5142.8853 16227.416 13750737
10862.082 -5456.4434 17216.789 13750737
10969.841 -5459.1309 17225.27 13750737
11059.799 -5452.9917 17205.898 13750737
11162.093 -5452.9917 17205.898 13750737
11271.098 -5456.2407 17216.15 13750737
11374.729 -5456.853 17218.082 13750737
11495.227 -5465.4741 17245.283 13750737
11603.293 -5468.0835 17253.518 13750737
11711.51 -5470.7183 17261.83 13750737
11820.941 -5473.8691 17271.773 13750737
11926.795 -5475.3237 17276.363 13750737
11637.901 -5297.0811 16713.951 13750737
11582.128 -5227.0645 16493.027 13750737
11682.506 -5228.104 16496.307 13750737
11783.209 -5229.27 16499.986 13750737
12055.686 -5306.0195 16742.154 13750737
12154.307 -5305.6196 16740.893 13750737
12140.245 -5256.437 16585.707 13750481
11740.465 -5042.3862 15910.31 13554125
12004.217 -5114.458 16137.719 13554125
12100.16 -5114.458 16137.719 11577793
12195.944 -5114.3916 16137.509 9145004
12291.151 -5114.0854 16136.543 9737656
12262.245 -5062.5435 15973.912 11846100
12357.215 -5062.5435 15973.912 11646142
12452.184 -5062.5435 15973.912 10067628
8715.8555 -3516.6855 11096.246 10069692
8666.4727 -3470.4932 10950.493 3884378
10158.549 -4037.6636 12740.095 6123143
12385.35 -4886.3052 15417.825 2043721
12649.118 -4953.7061 15630.496 2635604
13028.544 -5065.0879 15981.939 3622756
13251.695 -5114.541 16137.981 5004922
12756.404 -4887.9922 15423.148 3952747
11626.769 -4423.3433 13957.034 3754597
11466.095 -4331.3037 13666.621 3754596
11111.415 -4167.79 13150.685 2767957
11189.601 -4167.79 13150.685 2241354
11970.753 -4427.8076 13971.122 2371912
12192.664 -4478.8125 14132.058 5133927
12118.304 -4421.0317 13949.742 5529708
11464.347 -4154.0244 13107.249 4674397
12131.276 -4366.0049 13776.113 4476503
12428.498 -4442.9775 14018.986 8095376
12813.785 -4550.1968 14357.298 5990254
12899.144 -4550.1968 14357.298 2962761
12953.154 -4539.2119 14322.637 3620693
12549.935 -4369.188 13786.158 2962764
13611.949 -4708.1738 14855.764 2436165
14292.534 -4911.7085 15497.979 2896970
14747.071 -5035.4507 15888.425 3752276
15072.348 -5113.7612 16135.521 3883604
15168.523 -5113.8442 16135.781 4475742
15264.931 -5114.0034 16136.284 3423054
15362.145 -5114.4292 16137.628 2633282
15458.282 -5114.4946 16137.833 2764864
15552.363 -5113.8818 16135.899 2699069
15648.295 -5113.8818 16135.899 6384243
0 0 0 0
0 0 0 0
0 0 0 0
0 0 0 0
-7370.0151 -2538.1819 8161.8696 1452850
-7472.3804 -2590.4917 8330.0791 2176316
-7560.229 -2638.4333 8484.2422 2374465
-7445.7983 -2615.9517 8411.9492 1913657
-7395.7866 -2615.9517 8411.9492 1782585
-7212.3496 -2568.4365 8259.1572 2045759
-7163.2461 -2568.4365 8259.1572 2374465
-6920.1597 -2498.4021 8033.9526 2111293
-6666.7935 -2423.6572 7793.6001 2440512
-6479.3667 -2372.0054 7627.5068 3559247
-6835.9531 -2520.1848 8103.998 3230026
-6870.106 -2550.7539 8202.2969 3098949
-6792.4067 -2539.9341 8167.5049 3954514
-6307.7656 -2375.6926 7639.3633 3098951
-6693.666 -2539.3184 8165.5239 2177852
-7107.167 -2715.8816 8733.2871 2112058
-7128.873 -2744.2241 8824.4268 1914678
-7349.0581 -2849.9573 9164.4258 2967110
-7192.542 -2810.094 9036.2402 2769986
-7136.2061 -2809.0654 9032.9326 3099462
-7189.8359 -2851.636 9169.8242 3296582
-7028.7993 -2809.0654 9032.9326 3296068
-7077.1436 -2850.1626 9165.0869 3823180
-6799.2676 -2759.5007 8873.5508 3823180
-6366.2715 -2603.9722 8373.4277 3626056
-6172.0229 -2544.4163 8181.917 4020555
-5795.9297 -2408.3525 7744.3862 3428676
-5048.8442 -2114.7192 6800.1685 3559492
-5008.4155 -2114.7192 6800.1685 2901047
0 0 0 0
0 0 0 0
0 0 0 0
0 0 0 0
0 0 0 0
0 0 0 0
0 0 0 0
0 0 0 0
0 0 0 0
0 0 0 0
-2915.1545 -1350.8199 4343.7456 3100977
-2939.447 -1374.2509 4419.0908 4284996
-2982.2458 -1406.8344 4523.8677 5403734
-2991.4465 -1424.0172 4579.1216 4943183
-2928.4546 -1406.8344 4523.8677 2903345
-2973.916 -1441.917 4636.6807 2178851
-2946.3496 -1441.917 4636.6807 4219457
-2980.4324 -1472.3724 4734.6143 4087099
-2934.1755 -1463.3413 4705.5737 3692086
-2906.1995 -1463.3413 4705.5737 6323035
0 0 0 0
0 0 0 0
-2733.2793 -1417.199 4557.1968 6449275
-2708.6895 -1418.5104 4561.4136 2901819
-2724.3862 -1441.1593 4634.2441 3621959
-2687.1167 -1435.9663 4617.5454 10525353
-2567.5759 -1386.2473 4457.667 11577279
-2541.1931 -1386.3124 4457.8765 7300732
-2671.3586 -1472.6818 4735.6089 7965069
-2680.001 -1493.1833 4801.5347 4216387
-2882.3049 -1623.1882 5219.583 7308919
-2891.3396 -1645.9977 5292.9297 11053732
-3017.5793 -1736.7661 5584.8081 2830896
-3003.8564 -1748.1028 5621.2627 1779498
-2956.6819 -1740.0082 5595.2334 6511990
-2780.1943 -1654.7627 5321.1147 13223627
-2418.6528 -1456.1436 4682.4282 13618125
-2537.4629 -1545.4609 4969.6401 13090755
-2528.7385 -1558.2919 5010.8999 11447215
-2596.4768 -1619.1093 5206.4663 4014916
-2686.7935 -1695.6436 5452.5728 4085302
-2649.1631 -1692.3131 5441.8633 5796685
-2561.605 -1656.6117 5327.0605 4219704
-2448.8289 -1603.5034 5156.2842 2838570
-2376.8176 -1576.0804 5068.1016 2640174
-2346.6863 -1576.0804 5068.1016 3033402
-2313.0334 -1573.6846 5060.397 3295292
-2203.1567 -1518.6827 4883.5312 3749453
-2077.0095 -1450.8466 4665.395 13813467
-2084.5627 -1475.8314 4745.7368 8614552
-2154.6946 -1546.4142 4972.7056 10060726
-2149.2844 -1563.9906 5029.2251 6308735
-2176.3359 -1606.0179 5164.3696 12298438
-2145.6326 -1606.0179 5164.3696 13815764
-2087.0884 -1584.8765 5096.3867 9474466
-2008.002 -1547.2834 4975.501 4546379
-1992.2329 -1558.0852 5010.2354 3689790
-1958.2332 -1554.7406 4999.4805 8352130
-1916.2344 -1544.8444 4967.6577 13156812
-1886.7003 -1544.8444 4967.6577 3159862
-1803.8101 -1500.4613 4824.938 3296060
-1684.459 -1423.8243 4578.5015 2309935
-1597.0676 -1372.1283 4412.2656 11389638
0 0 0 0
0 0 0 0
0 0 0 0
0 0 0 0
0 0 0 0
-1471.0087 -1401.9922 4508.2969 11513022
-1452.1757 -1409.7291 4533.1763 13816275
0 0 0 0
0 0 0 0
-1763.7566 -1813.1538 5830.4434 5335377
-1729.093 -1813.1538 5830.4434 3296306
-1689.8116 -1808.2125 5814.5542 2637356
-1652.4642 -1805.1777 5804.7949 9011605
-1584.965 -1768.3722 5686.4419 11969982
-1488.223 -1696.6248 5455.728 12234680
-1455.7871 -1696.6248 5455.728 6058593
-1520.3898 -1812.2938 5827.6777 3427637
-1547.0569 -1887.0845 6068.1772 1255700
-1466.4047 -1831.4138 5889.1606 1453336
-1431.392 -1831.4138 5889.1606 1782300
-1370.1638 -1797.031 5778.5981 1913884
-1300.2189 -1749.1533 5624.6406 1255698
-1235.6703 -1706.1989 5486.5151 1453077
-1166.2341 -1653.9839 5318.6104 1715992
-1126.5643 -1642.2501 5280.8789 2373923
-1056.2306 -1583.8617 5093.123 926221
-1025.9506 -1583.8617 5093.123 1057548
-1006.1447 -1600.5233 5146.7012 9150859
-884.0036 -1450.3348 4663.7495 7174008
-880.23578 -1490.9166 4794.2456 856081
-828.54901 -1450.3348 4663.7495 1646367
-788.83661 -1428.6292 4593.9517 12827321
0 0 0 0
0 0 0 0
0 0 0 0
-706.19586 -1484.5656 4773.8228 3822885
-677.81415 -1484.5656 4773.8228 137728
-591.7829 -1352.782 4350.0547 4679211
-576.23047 -1377.4268 4429.3032 4679473
-568.42999 -1423.8495 4578.582 665601
-543.7735 -1430.5963 4600.2773 928258
-518.81262 -1437.2145 4621.5591 1125640
-493.46118 -1443.4303 4641.5469 2112279
-467.38013 -1448.1219 4656.6338 1586192
-448.97037 -1478.6698 4754.8643 1519885
-410.46851 -1442.7035 4639.21 1257481
-382.88712 -1442.7035 4639.21 2507033
-393.74612 -1598.7891 5141.124 3098910
-363.18069 -1598.7891 5141.124 2309135
-349.16721 -1678.3495 5396.9614 3558945
-314.12637 -1662.7115 5346.6758 596992
-282.3389 -1662.7115 5346.6758 1057801
-243.95836 -1618.9587 5205.9824 663299
-202.23305 -1537.0688 4942.6543 2177049
-189.5401 -1685.5089 5419.9839 1717008
-153.30244 -1642.4987 5281.6787 1189639
-121.27921 -1634.1155 5254.7212 1784074
-88.582474 -1607.6913 5169.7505 2310415
-60.592037 -1683.9856 5415.085 2244623
-27.72024 -1643.8033 5285.8735 2244115
3.7057502 -1643.8033 5285.8735 2506777
35.044407 -1639.7169 5272.7334 4151857
68.938545 -1702.6033 5474.9526 664579
105.5844 -1771.3147 5695.9038 3560992
139.47644 -1771.6742 5697.0596 3298845
173.31187 -1771.3147 5695.9038 3759399
203.62804 -1740.9835 5598.3696 2903070
212.0302 -1558.1365 5010.4004 4546367
263.96039 -1700.8065 5469.1748 5335889
296.47614 -1700.8065 5469.1748 2834997
337.54224 -1745.0094 5611.3159 3162431
372.29843 -1751.5743 5632.4258 5324885
395.42032 -1706.8361 5488.564 8021889
428.05136 -1706.8361 5488.564 11311020
460.68243 -1706.8361 5488.564 13618641
486.95901 -1684.8501 5417.8652 13487314
0 0 0 0
0 0 0 0
0 0 0 0
0 0 0 0
0 0 0 0
0 0 0 0
0 0 0 0
0 0 0 0
0 0 0 0
0 0 0 0
0 0 0 0
0 0 0 0
0 0 0 0
0 0 0 0
0 0 0 0
0 0 0 0
0 0 0 0
0 0 0 0
0 0 0 0
0 0 0 0
0 0 0 0
853.62158 -1202.9363 3868.2056 9674401
0 0 0 0
0 0 0 0
956.35504 -1246.9287 4009.6694 10725033
1050.4292 -1336.277 4296.981 12895688
1097.9849 -1363.6105 4384.8755 13619152
0 0 0 0
0 0 0 0
0 0 0 0
0 0 0 0
0 0 0 0
0 0 0 0
0 0 0 0
0 0 0 0
0 0 0 0
4250.6172 -4266.0488 13718.062 13685457
4332.1748 -4266.0488 13718.062 13685457
4423.8032 -4275.7827 13749.361 13685457
4537.2539 -4305.8721 13846.119 13685457
4640.854 -4325.7085 13909.904 13685457
4762.9873 -4361.8218 14026.033 13685457
4884.8296 -4396.4307 14137.322 13685457
5015.2339 -4437.4448 14269.208 13685457
5144.7617 -4476.3311 14394.253 13685457
5294.7354 -4531.4434 14571.474 13685457
5449.1279 -4588.5024 14754.956 13750737
5542.7334 -4593.3779 14770.634 13750737
5614.2402 -4580.0737 14727.852 13750737
5697.3237 -4576.4771 14716.285 13750737
5789.3628 -4580.0737 14727.852 13750737
6103.9917 -4757.0347 15296.894 13750737
6243.0781 -4794.0024 15415.769 13750737
6350.1646 -4805.6841 15453.332 13750737
6538.896 -4877.938 15685.674 13750737
6639.1592 -4883.0918 15702.248 13750737
6750.4082 -4896.0708 15743.983 13750737
6844.4316 -4896.373 15744.954 13750737
6922.2534 -4885.2314 15709.128 13750736
6932.4072 -4827.2681 15522.738 13619149
7303.0112 -5018.5234 16137.746 13684941
7400.5649 -5019.6157 16141.259 12434625
7496.5293 -5019.6157 16141.259 13684941
7596.0459 -5021.9644 16148.811 13619150
7688.2036 -5019.4497 16140.725 13619151
7783.3003 -5018.8921 16138.932 13619662
7879.0713 -5018.7778 16138.565 13619664
0 0 0 0
8073.5361 -5020.3755 16143.701 13684946
8222.0596 -5052.6641 16247.531 13619406
8427.9072 -5119.0229 16460.916 13750734
8453.4873 -5075.6226 16321.355 13750737
8539.0381 -5068.8052 16299.435 13750737
8600.3818 -5047.9331 16232.316 13750737
8698.9775 -5049.146 16236.217 13750737
8799.043 -5051.1763 16242.746 13750737
8895.6104 -5051.1763 16242.746 13750737
9067.2236 -5093.3315 16378.302 13750737
9206.4482 -5116.5903 16453.094 13750737
9317.6719 -5123.9629 16476.801 13750737
9415.6318 -5123.9629 16476.801 13684944
9483.6729 -5107.8486 16424.984 13750737
9582.2002 -5108.3164 16426.488 13750737
9680.4512 -5108.6284 16427.49 13750737
9779.1006 -5109.1416 16429.143 13750737
9877.7725 -5109.6572 16430.799 13750737
9979.5498 -5111.7534 16437.539 13750737
10080.314 -5113.2944 16442.496 13750737
10179.146 -5113.8354 16444.234 13750737
10277.691 -5114.2236 16445.482 13750737
10884.323 -5365.0474 17252.041 13750737
10998.539 -5370.7354 17270.332 13750737
11105.602 -5372.8569 17277.154 13750737
11167.526 -5353.3027 17214.273 13750737
11269.869 -5353.3027 17214.273 13750737
11296.615 -5317.7153 17099.84 13750737
10978.705 -5121.9697 16470.391 13750737
11600.713 -5364.3135 17249.682 13750737
11707.583 -5366.292 17256.043 13750737
11819.683 -5370.6113 17269.934 13750737
11922.356 -5370.6113 17269.934 13750737
11668.115 -5211.2061 16757.344 13750737
11737.271 -5197.7119 16713.951 13750737
11867.369 -5211.2061 16757.344 13750737
12050.552 -5247.5913 16874.346 13750737
12150.874 -5247.5913 16874.346 13750481
12152.739 -5205.4189 16738.734 13619410
11645.874 -4947.7949 15910.31 13619667
11681.533 -4922.9595 15830.447 13554130
11979.863 -5008.3335 16104.979 13553619
12100.003 -5018.4497 16137.509 13619411
12195.374 -5018.2144 16136.753 12828879
11521.234 -4703.813 15125.751 9867182
11480.453 -4650.8613 14955.479 4276572
11343.14 -4559.9185 14663.039 6580613
11581.139 -4620.0864 14856.519 3752280
8601.3691 -3405.3894 10950.493 4740202
8450.7129 -3320.6089 10677.87 3292760
10539.414 -4110.4609 13217.748 2634833
12961.884 -5017.8311 16135.521 3161691
12830.724 -4930.5654 15854.905 2964312
13155.658 -5018.5615 16137.868 2832984
13251.695 -5018.5967 16137.981 2504018
13111.113 -4929.6646 15852.009 3622756
11981.437 -4472.7651 14382.786 2635862
11709.747 -4340.3647 13957.034 3293788
11111.415 -4089.6057 13150.685 3820389
11189.601 -4089.6057 13150.685 1977671
11970.753 -4344.7461 13971.122 2109254
12024.117 -4334.041 13936.7 2306887
12091.48 -4328.4946 13918.864 2175042
11194.979 -3980.3252 12799.278 3622227
11774.351 -4158.0552 13370.793 4805474
12330.013 -4325.084 13907.897 5528939
12747.798 -4441.8462 14283.361 2699842
12832.715 -4441.8462 14283.361 2962762
11515.554 -3959.7278 12733.045 2436420
12416.229 -4241.5498 13639.281 2239811
13664.438 -4637.667 14913.051 2831179
14191.215 -4785.4023 15388.114 3291214
13892.578 -4654.6924 14967.798 4804452
15072.348 -5017.8311 16135.521 3818068
15168.704 -5017.9727 16135.975 4212055
15266.201 -5018.4868 16137.628 4409435
15362.339 -5018.5503 16137.833 2238009
15458.282 -5018.5503 16137.833 8357513
15551.931 -5017.8096 16135.451 6251883
15647.861 -5017.8096 16135.451 4606801
0 0 0 0
0 0 0 0
0 0 0 0
0 0 0 0
-7027.6387 -2373.9995 7782.7075 1386543
-7417.1919 -2522.2002 8268.5557 1452336
-7482.9658 -2561.5437 8397.5361 1452337
-7445.7983 -2565.9404 8411.9492 1057581
-7261.4521 -2519.3335 8259.1572 1255214
-7087.8613 -2475.8486 8116.6011 1781558
-7097.7622 -2496.3025 8183.6553 1716276
-6920.1597 -2450.6379 8033.9526 1979702
-6607.7285 -2356.26 7724.5522 2045748
-6279.3389 -2254.8303 7392.0342 3493449
-6947.3652 -2512.2932 8236.0771 2835775
-6983.1763 -2543.1675 8337.293 3428167
-7136.0884 -2617.4346 8580.7637 3427656
-6743.8486 -2491.3762 8167.5049 3033153
-6786.4785 -2525.3081 8278.7441 1716785
-7147.8345 -2679.2026 8783.2588 1979957
-7403.5435 -2795.4722 9164.4258 2703938
-7470.1426 -2841.5305 9315.4199 2374717
-7565.2886 -2899.2173 9504.5352 2441020
-7272.8135 -2808.1074 9205.8486 2111798
-7218.082 -2808.1074 9205.8486 2506555
-7069.0547 -2771.1426 9084.666 2506553
-7015.0444 -2771.1426 9084.666 3033152
-6961.0327 -2771.1426 9084.666 2507063
-6562.4233 -2632.8875 8631.4229 2638648
-6172.0229 -2495.7722 8181.917 2441269
-5439.3877 -2216.9905 7267.9829 3757385
-5051.041 -2075.1929 6803.127 1914922
-5142.9453 -2130.0076 6982.8267 2375472
-5052.1685 -2109.439 6915.3965 2177575
-4201.2261 -1768.536 5797.8105 3690812
0 0 0 0
0 0 0 0
0 0 0 0
0 0 0 0
0 0 0 0
-3137.0383 -1388.933 4553.3535 4088386
-3109.9675 -1388.933 4553.3535 4614473
-2924.7136 -1317.667 4319.7217 5338964
-3104.8054 -1411.1953 4626.3364 4614981
-3103.1487 -1423.0487 4665.1958 3957050
-3078.7654 -1424.6 4670.2812 2904616
-3099.0669 -1447.0442 4743.8604 4483389
-3070.8633 -1447.0442 4743.8604 3956786
-3031.4243 -1441.7007 4726.3428 3891762
-2981.0015 -1430.9847 4691.2124 3957557
-2953.1108 -1430.9847 4691.2124 1324044
-2902.8367 -1420.0349 4655.3154 4417341
-2770.7378 -1368.4613 4486.2412 7837809
0 0 0 0
0 0 0 0
0 0 0 0
-2711.9285 -1393.0553 4566.8682 3758388
-2848.1858 -1477.8435 4844.8301 4678722
-2772.7458 -1453.3982 4764.6904 4346968
-2681.2363 -1419.938 4654.9976 5332321
-2755.5366 -1474.5057 4833.8877 3097921
-2842.7522 -1537.2075 5039.4438 5926758
-2832.7742 -1548.1284 5075.2456 1713435
-2882.3049 -1592.1564 5219.583 1976612
-2871.6465 -1603.533 5256.8789 10721701
-3010.9578 -1699.8247 5572.5532 10391203
-2977.8276 -1699.8247 5572.5532 9139093
-2827.5061 -1632.1763 5350.7808 13550289
-2699.9246 -1576.2642 5167.4839 14075096
-2418.6528 -1428.3053 4682.4282 6310024
-2537.4629 -1515.915 4969.6401 12827345
-2507.917 -1515.915 4969.6401 13684180
-2495.313 -1526.2777 5003.6123 13420750
-2735.9553 -1693.6593 5552.3413 2575416
-2671.6018 -1674.0197 5487.9565 4417349
-2616.8096 -1659.9596 5441.8633 2837550
-2507.1868 -1610.3307 5279.1641 2902572
-2376.8176 -1545.9491 5068.1016 2113825
-2343.1189 -1543.599 5060.397 2902574
-2313.0334 -1543.599 5060.397 3230778
-2203.1567 -1489.6488 4883.5312 4479566
-2077.0095 -1423.1096 4665.395 10987702
-2123.4583 -1474.6276 4834.2871 3552583
-2184.5977 -1537.9012 5041.7178 4079973
-2186.3762 -1560.5653 5116.0181 7367323
-2176.3359 -1575.3142 5164.3696 10918098
-2145.6326 -1575.3142 5164.3696 6508693
-2089.9697 -1556.7234 5103.4229 6908533
-2107.1133 -1592.6138 5221.0825 4612427
-2076.0725 -1592.6138 5221.0825 4084805
0 0 0 0
0 0 0 0
0 0 0 0
-1803.8101 -1471.7758 4824.938 2898990
-1709.4028 -1417.2852 4646.3008 2243110
-1633.083 -1376.2473 4511.7661 4216387
0 0 0 0
0 0 0 0
0 0 0 0
0 0 0 0
0 0 0 0
0 0 0 0
-1444.2057 -1375.1891 4508.2969 13945306
0 0 0 0
-1426.6892 -1410.8788 4625.2988 4015936
-1786.4484 -1801.3718 5905.4561 3296820
-1751.3389 -1801.3718 5905.4561 6118746
-1575.6067 -1653.7728 5421.5811 7564651
-1652.4642 -1770.6666 5804.7949 5262664
-1653.8344 -1809.9344 5933.5273 3225384
-1589.684 -1777.6466 5827.6777 4807498
-1555.0369 -1777.6466 5827.6777 3625004
-1610.979 -1883.5641 6174.9082 3361837
-1574.2676 -1883.5641 6174.9082 8749432
-1466.4047 -1796.4011 5889.1606 1449236
-1431.392 -1796.4011 5889.1606 1648927
-1325.2684 -1704.9189 5589.2539 1254425
-1287.5717 -1699.0245 5569.9302 858129
-1235.6703 -1673.5801 5486.5151 1580567
-1166.2341 -1622.3632 5318.6104 3682344
-1127.7595 -1612.5625 5286.481 3230250
-1056.2306 -1553.5815 5093.123 1388309
-1017.5914 -1540.9236 5051.626 859915
-1006.1447 -1569.9249 5146.7012 3821624
-975.54602 -1569.9249 5146.7012 398341
-908.31677 -1509.0669 4947.1899 1780761
-873.19434 -1499.2631 4915.0498 2371107
-823.22949 -1462.4136 4794.2456 4539974
0 0 0 0
0 0 0 0
0 0 0 0
0 0 0 0
-624.54382 -1341.7404 4398.6416 398848
-598.3927 -1341.7404 4398.6416 529668
-598.4975 -1403.303 4600.4629 2309657
-571.12341 -1403.2463 4600.2773 2112276
-543.7735 -1403.2463 4600.2773 599040
-521.05646 -1415.835 4641.5469 2309914
-493.46118 -1415.835 4641.5469 1783061
-447.24872 -1359.2546 4456.0591 796933
0 0 0 0
-394.2637 -1359.2546 4456.0591 467459
-358.36584 -1324.4934 4342.1006 3168045
-329.74097 -1313.302 4305.4121 3299629
-314.74832 -1359.0913 4455.5234 1654033
-345.30643 -1628.0602 5337.2871 2967838
-313.5748 -1628.0602 5337.2871 1520137
-281.84311 -1628.0602 5337.2871 1783565
-243.95836 -1588.0076 5205.9824 2572824
-202.23305 -1507.6833 4942.6543 2178322
-182.05635 -1588.0076 5205.9824 2309907
-152.51999 -1602.8748 5254.7212 2112786
-119.73687 -1582.4906 5187.8955 2507800
-88.080177 -1568.0137 5140.436 1915405
-59.146229 -1612.3773 5285.8735 1389062
-26.957535 -1568.0137 5140.436 1783565
3.6417315 -1584.5227 5194.5576 1585931
34.524822 -1584.5227 5194.5576 2704925
67.247574 -1629.0887 5340.6592 1520395
105.5844 -1737.4509 5695.9038 1981714
139.44814 -1737.4509 5695.9038 1981713
170.34416 -1707.6996 5598.3696 2245139
203.62804 -1707.6996 5598.3696 2179860
223.07816 -1607.9838 5271.4702 6060635
258.67493 -1634.8853 5359.6616 4744783
290.53961 -1634.8853 5359.6616 2836790
334.59967 -1696.7269 5562.3979 3165761
372.34991 -1718.3256 5633.2046 4536388
395.01898 -1672.5056 5482.9927 13681358
415.73663 -1626.0392 5330.6616 10457757
457.49341 -1662.6155 5450.5698 13684179
486.95901 -1652.6395 5417.8652 13684179
0 0 0 0
0 0 0 0
0 0 0 0
0 0 0 0
0 0 0 0
0 0 0 0
0 0 0 0
0 0 0 0
0 0 0 0
0 0 0 0
0 0 0 0
0 0 0 0
0 0 0 0
0 0 0 0
0 0 0 0
0 0 0 0
0 0 0 0
0 0 0 0
883.90192 -1329.2272 4357.6196 13814738
0 0 0 0
0 0 0 0
0 0 0 0
0 0 0 0
0 0 0 0
956.35504 -1223.0902 4009.6694 13684948
1050.4292 -1310.7302 4296.981 9212566
0 0 0 0
0 0 0 0
0 0 0 0
0 0 0 0
0 0 0 0
0 0 0 0
0 0 0 0
0 0 0 0
2263.8005 -2317.5166 7597.5386 13685457
4090.2529 -4105.3931 13458.753 13685457
4286.0796 -4219.4019 13832.51 13685457
4362.9419 -4214.2095 13815.487 13685457
4454.9351 -4223.5532 13846.119 13685457
4539.6406 -4225.7749 13853.402 13685457
4685.626 -4283.9434 14044.098 13685457
4808.7754 -4319.563 14160.87 13685457
4908.248 -4333.0542 14205.098 13685457
5005.0151 -4343.7412 14240.133 13685457
5137.6255 -4384.6626 14374.286 13685457
5262.0244 -4417.3521 14481.452 13619921
5446.3862 -4498.5161 14747.532 13750737
5542.7334 -4505.5625 14770.634 13750737
5650.7788 -4521.7505 14823.703 13750737
5697.3237 -4488.9844 14716.285 13750737
5829.9312 -4523.9932 14831.056 13750737
6103.9917 -4666.0903 15296.894 13750737
6243.0781 -4702.3516 15415.769 13750737
6350.1646 -4713.8096 15453.332 13750737
6538.896 -4784.6821 15685.674 13750737
6632.1641 -4784.6914 15685.704 13750737
6750.8242 -4802.7646 15744.954 13750737
6897.8853 -4840.2729 15867.918 13750737
6997.9844 -4844.2598 15880.989 13750736
6932.4072 -4734.981 15522.738 13619660
7302.3662 -4922.1445 16136.319 13619404
7399.5723 -4922.9907 16139.093 9344431
7495.9014 -4923.2388 16139.906 12041421
7591.3994 -4922.9414 16138.932 10856890
7687.3496 -4922.9414 16138.932 13553871
7783.1235 -4922.8296 16138.565 13488334
0 0 0 0
0 0 0 0
0 0 0 0
8173.2646 -4926.6562 16151.109 13619662
8391.3662 -4999.3882 16389.547 13750479
8453.4873 -4978.5874 16321.355 13750737
8498.21 -4948.1279 16221.5 13750737
8594.6514 -4948.1279 16221.5 13750737
8697.1777 -4951.5928 16232.858 13750737
8799.043 -4954.6089 16242.746 13750737
8844.7002 -4926.2529 16149.788 13619150
8933.2627 -4922.147 16136.326 13619662
9031.958 -4923.6514 16141.258 11118776
9127.918 -4923.6489 16141.251 13092811
9223.8828 -4923.6489 16141.251 13619662
9460.3643 -4997.8843 16384.617 13619149
9580.7373 -5009.8916 16423.98 13750481
9679.8604 -5010.6562 16426.488 13750481
9778.1172 -5010.9624 16427.49 13685201
9876.2627 -5011.2061 16428.289 13684945
9980.0879 -5014.2979 16438.426 13750737
10079.952 -5015.3594 16441.906 13750737
10179.507 -5016.248 16444.818 13750737
10742.096 -5243.1221 17188.582 13750737
10888.699 -5264.5952 17258.979 13750737
11002.884 -5270.1396 17277.154 13750737
11106.969 -5270.7886 17279.281 13750737
11167.526 -5250.9585 17214.273 13750737
11129.904 -5185.7446 17000.482 13750737
11086.047 -5118.8257 16781.1 13750737
10977.588 -5023.5371 16468.715 13750737
11076.627 -5024.0483 16470.391 13750737
11701.897 -5261.1431 17247.662 13750737
11810.175 -5263.6997 17256.043 13750737
11510.624 -5086.0112 16673.525 13750737
11662.391 -5109.0708 16749.121 13750737
11766.096 -5110.8638 16754.998 13750737
11867.696 -5111.7197 16757.805 13750737
12049.655 -5146.8857 16873.09 13750737
12149.97 -5146.8857 16873.09 13684945
12153.565 -5106.2495 16739.871 13684946
11741.928 -4893.2329 16041.536 13685203
11595.218 -4793.1621 15713.475 13685203
11932.671 -4893.2329 16041.536 13619411
12101.049 -4922.9331 16138.904 13553877
12195.213 -4922.2124 16136.54 12171979
11391.538 -4561.9468 14955.479 11184073
11255.964 -4472.7427 14663.039 6118781
11179.863 -4408.3604 14451.975 6117753
9650.6689 -3776.3572 12380.072 2372174
8601.3691 -3340.2854 10950.493 3754595
10082.805 -3886.177 12740.095 3688033
12958.996 -4957.4946 16252.207 3227225
12964.283 -4922.8125 16138.508 3424860
13058.88 -4922.3027 16136.838 3622241
12924.986 -4836.3037 15854.905 3162202
13149.917 -4884.8438 16014.036 2635857
13111.113 -4835.4199 15852.009 4083304
13205.358 -4835.4199 15852.009 2438479
12066.946 -4387.2554 14382.786 2964310
11804.628 -4261.6836 13971.122 3293275
10497.527 -3763.3162 12337.319 2503758
10898.783 -3880.054 12720.021 2766414
10974.407 -3880.054 12720.021 3161426
11407.213 -4005.4727 13131.184 2569286
11485.281 -4005.4727 13131.184 4279899
11774.351 -4078.562 13370.793 3687507
11154.969 -3838.0996 12582.482 2699845
12747.798 -4356.9272 14283.361 2436416
11182.653 -3796.7026 12446.771 3620692
11515.554 -3884.0266 12733.045 3620691
12334.446 -4133.0566 13549.443 3028556
12698.448 -4227.4185 13858.79 3225678
12495.557 -4133.0566 13549.443 3554387
12863.237 -4227.4185 13858.79 2699077
14947.33 -4881.0767 16001.685 2370113
15168.698 -4922.0381 16135.969 3620434
15265.908 -4922.4497 16137.318 2830918
15361.849 -4922.4497 16137.318 3225415
15456.932 -4922.1763 16136.422 2961725
14524.755 -4596.7988 15069.734 4474709
14614.349 -4596.7988 15069.734 4802645
0 0 0 0
0 0 0 0
0 0 0 0
0 0 0 0
-6888.3608 -2281.5967 7628.4648 1913143
-6981.3687 -2327.729 7782.7075 1978935
-6983.6733 -2344.033 7837.2192 1716020
-7294.7583 -2464.8928 8241.3105 1452336
-7349.1309 -2500.0574 8358.8828 1583921
-6975.1724 -2388.9973 7987.5562 1321006
-6951.3389 -2397.1545 8014.8301 1781813
-6903.6885 -2397.1545 8014.8301 2110774
-6879.5596 -2405.3787 8042.3271 2044979
-6702.4253 -2359.8464 7890.0913 3229762
-6899.9795 -2446.5254 8179.9009 3493189
-7086.4478 -2530.4768 8460.5898 2440501
-7240.4834 -2603.9641 8706.293 2572089
-7129.6313 -2582.5601 8634.7285 3230021
-7078.2959 -2582.5601 8634.7285 1980211
-7419.7178 -2726.907 9117.3496 1848624
-7439.5488 -2754.3171 9208.9951 2374200
-7713.1899 -2876.7976 9618.5049 2242613
-7636.207 -2869.3582 9593.6318 1716268
-7294.3306 -2761.5222 9233.085 1453097
-7239.4375 -2761.5222 9233.085 1519143
-7184.5439 -2761.5222 9233.085 3887435
-7015.0444 -2717.1318 9084.666 3033151
-6887.6279 -2688.4792 8988.8672 2309427
-6535.8896 -2571.1331 8596.5234 1914926
-6511.1074 -2581.5713 8631.4229 2177840
-6433.6724 -2571.1331 8596.5234 2309426
-6372.2119 -2566.9629 8582.5801 2770490
-5907.6245 -2399.0203 8021.0679 2244145
-5760.1445 -2358.166 7884.4727 2507055
-5266.6001 -2173.8022 7268.0566 3493945
-4701.9551 -1956.7982 6542.5093 4349506
-3818.5271 -1602.4008 5357.5894 4744520
-3595.0579 -1521.3145 5086.4795 2704937
-3433.74 -1465.3763 4899.4512 4744777
-3189.4048 -1372.7494 4589.7554 2705710
-3235.97 -1404.8104 4696.9507 5403733
-3208.0452 -1404.8104 4696.9507 4088383
-3318.1543 -1465.7865 4900.8228 3168047
-3289.0176 -1465.7865 4900.8228 3232815
-3235.5605 -1454.8511 4864.2603 3561523
-3127.2708 -1418.8407 4743.8604 2180123
-3099.0669 -1418.8407 4743.8604 2838306
-3070.4045 -1418.6285 4743.1514 4285493
-3082.5872 -1437.4595 4806.1118 3035687
-3146.2498 -1480.873 4951.2642 2969638
-3025.4399 -1437.4595 4806.1118 2180124
-3087.3765 -1480.873 4951.2642 5865302
0 0 0 0
0 0 0 0
-2311.0879 -1141.1644 3815.4563 2706466
-2739.0798 -1365.9041 4566.8682 4022582
-3053.9673 -1538.1771 5142.8589 3759155
-2946.4873 -1499.0513 5012.043 2705700
-2772.7458 -1425.0707 4764.6904 5007942
-3050.9797 -1584.2561 5296.9233 3691314
-3019.488 -1584.2561 5296.9233 4283198
-3003.7852 -1592.6274 5324.9126 3097640
-2869.4858 -1537.6267 5141.0186 3554135
0 0 0 0
0 0 0 0
0 0 0 0
0 0 0 0
0 0 0 0
-2725.9485 -1560.4392 5217.292 1251872
-2718.2739 -1573.9558 5262.4844 3817281
-2589.6868 -1516.9602 5071.9209 3290680
-2525.061 -1496.5299 5003.6123 5649230
-2304.0396 -1381.8162 4620.0698 10130346
-2700.6675 -1639.2305 5480.7285 2039852
-2697.0754 -1657.0428 5540.2842 6907002
-2545.5496 -1583.2839 5293.6724 2300212
-2514.0771 -1583.2839 5293.6724 4472645
-2482.1848 -1583.0159 5292.7764 2505007
-2536.8652 -1638.6621 5478.8281 4736075
-2460.9631 -1610.3101 5384.0337 9926815
-2335.6143 -1548.4296 5177.1377 3554635
-2078.6833 -1396.4968 4669.1543 1714987
-2359.0847 -1606.327 5370.7168 3096125
-2205.8328 -1522.5844 5090.7251 2371119
-2175.5671 -1522.5844 5090.7251 2371378
-2229.4788 -1582.3276 5290.4756 988441
-2231.5742 -1606.4789 5371.2246 2171172
-2166.5723 -1582.3276 5290.4756 2237236
-2061.5217 -1527.7853 5108.1143 2565678
0 0 0 0
0 0 0 0
0 0 0 0
0 0 0 0
0 0 0 0
-1875.0377 -1524.3147 5096.5103 1456416
-1876.4296 -1550.502 5184.0669 2178600
-1887.2991 -1585.526 5301.1689 3555394
-1875.6482 -1602.499 5357.918 10391463
0 0 0 0
0 0 0 0
0 0 0 0
0 0 0 0
0 0 0 0
0 0 0 0
-1426.6892 -1383.38 4625.2988 3228209
-1585.8969 -1567.9767 5242.4932 3360305
-1568.0166 -1581.3779 5287.2998 4410445
-1615.3622 -1662.4543 5558.3774 13685204
-1711.1641 -1797.8282 6010.9961 12765388
-1675.427 -1797.8282 6010.9961 3884104
-1741.8306 -1909.8195 6385.4365 2505765
-1703.8673 -1909.8195 6385.4365 2110236
-1572.8856 -1803.1815 6028.895 1057041
-1405.1526 -1648.4553 5511.5718 12962760
-1372.3848 -1648.4553 5511.5718 9738394
-1354.3514 -1666.5868 5572.1938 1385250
-1304.0457 -1644.9189 5499.748 989722
-1271.2527 -1644.7957 5499.3354 1515038
-1202.1582 -1596.4574 5337.7178 1643803
-1161.9556 -1584.9064 5299.0977 14014419
-1123.6769 -1575.4091 5267.3433 7303030
-1092.361 -1575.4091 5267.3433 8684932
-1032.1807 -1532.5519 5124.0513 595213
-990.40192 -1515.2411 5066.1729 1583131
-960.2821 -1515.2411 5066.1729 68355
-927.86835 -1511.5042 5053.6787 1516824
-876.69244 -1475.9308 4934.7397 2767658
-843.97302 -1470.0417 4915.0498 4150593
-763.25592 -1377.1287 4604.3975 1713432
-626.27209 -1172.0057 3918.5735 3099683
-602.9751 -1172.0057 3918.5735 3626275
0 0 0 0
-618.7796 -1303.447 4358.0444 1056774
-629.40588 -1383.7729 4626.6123 3692327
-661.74103 -1521.3495 5086.5962 3231272
-580.37842 -1398.1926 4674.8242 2308892
-597.22717 -1511.149 5052.4912 990987
-567.18872 -1511.149 5052.4912 1912855
-541.05365 -1522.1302 5089.2065 1320719
-501.47122 -1494.3405 4996.2925 203521
0 0 0 0
0 0 0 0
0 0 0 0
0 0 0 0
0 0 0 0
0 0 0 0
0 0 0 0
-239.59146 -1357.0199 4537.1641 1322759
-212.61676 -1357.0199 4537.1641 1454346
0 0 0 0
0 0 0 0
0 0 0 0
-114.08262 -1478.3748 4942.9111 1718023
-87.962997 -1535.407 5133.5972 1719049
-56.006744 -1497.0344 5005.2993 1916171
-24.894257 -1419.7788 4746.9971 2179345
3.7023299 -1579.4922 5280.9946 1916175
36.17046 -1627.6945 5442.1582 1718283
68.376198 -1624.1456 5430.2925 1454858
99.014931 -1597.5897 5341.5039 1192200
130.77165 -1597.5897 5341.5039 2047508
165.43016 -1626.1132 5436.8711 2113812
209.51096 -1722.7906 5760.1099 2771999
239.99049 -1696.1742 5671.1187 2180637
258.67493 -1603.0205 5359.6616 3363379
279.43359 -1541.7445 5154.7866 4939601
319.54688 -1588.8132 5312.1597 6057569
392.57324 -1776.3423 5939.1587 14606564
411.50403 -1708.3447 5711.8105 13684693
400.36475 -1535.396 5133.5605 13815506
430.88522 -1535.396 5133.5605 13684176
0 0 0 0
0 0 0 0
0 0 0 0
0 0 0 0
0 0 0 0
0 0 0 0
0 0 0 0
0 0 0 0
0 0 0 0
0 0 0 0
0 0 0 0
0 0 0 0
0 0 0 0
0 0 0 0
0 0 0 0
0 0 0 0
0 0 0 0
0 0 0 0
0 0 0 0
0 0 0 0
0 0 0 0
0 0 0 0
0 0 0 0
0 0 0 0
0 0 0 0
0 0 0 0
0 0 0 0
0 0 0 0
0 0 0 0
0 0 0 0
0 0 0 0
0 0 0 0
3639.6931 -3886.0483 12992.911 13685457
3716.9397 -3886.0483 12992.911 13685457
3866.9707 -3960.595 13242.156 13685457
4014.9939 -4030.1519 13474.718 13685457
4151.333 -4085.4878 13659.732 13685457
4297.3262 -4148.019 13868.805 13685457
4379.7798 -4148.019 13868.805 13685457
4477.7632 -4162.4551 13917.071 13685457
4616.9985 -4214.0186 14089.472 13685457
4781.604 -4286.4878 14331.771 13685457
4901.8301 -4317.3315 14434.896 13685457
4966.1616 -4298.7314 14372.708 13685457
5052.5024 -4299.4897 14375.242 13685457
5137.9673 -4299.4897 14375.242 13685457
5374.1636 -4423.5596 14790.067 13619921
5486.04 -4442.9517 14854.905 13750737
5577.2212 -4445.2354 14862.539 13750737
5665.583 -4445.2354 14862.539 13750737
5753.3452 -4444.7715 14860.989 13750737
5857.7773 -4457.0059 14901.896 13750737
6129.7876 -4594.481 15361.539 13750737
6273.8242 -4633.4072 15491.688 13750737
6442.3867 -4689.0591 15677.758 13750737
6550.0537 -4699.4316 15712.439 13750737
6637.6895 -4695.3442 15698.772 13750737
6693.0806 -4668.8765 15610.279 13750737
6897.8853 -4745.9336 15867.918 13684944
7111.4834 -4826.8799 16138.56 13684941
7207.4312 -4826.8799 16138.56 13619663
7303.3799 -4826.8799 16138.56 10987201
7398.4644 -4826.3164 16136.676 8624563
7494.6089 -4826.4507 16137.124 7506082
7590.5488 -4826.4507 16137.124 9609144
7686.8242 -4826.6611 16137.828 13422542
7782.8999 -4826.7432 16138.103 13619153
7878.5166 -4826.5415 16137.428 13554122
0 0 0 0
0 0 0 0
8168.3667 -4827.7388 16141.431 13553869
8267.002 -4829.2988 16146.646 13685200
8398.0947 -4849.5654 16214.408 13619665
8502.9092 -4854.3696 16230.471 13619665
8659.9199 -4888.5312 16344.688 13619665
8814.2852 -4920.457 16451.434 13619921
8854.2676 -4888.5312 16344.688 13619921
8839.0449 -4827.1494 16139.461 13553872
8934.998 -4827.1494 16139.461 13619664
9030.9521 -4827.1494 16139.461 8750499
9127.4141 -4827.4185 16140.36 8886447
9223.373 -4827.4185 16140.36 10063773
9319.2217 -4827.3613 16140.169 13685199
9421.8418 -4830.7773 16151.591 13553871
9565.4092 -4854.9067 16232.268 13685457
9743.2432 -4895.7729 16368.901 13685457
9877.2109 -4914.0068 16429.865 13685201
9979.6025 -4916.3281 16437.627 13750737
10079.543 -4917.4082 16441.238 13750737
10546.591 -5095.8442 17037.836 13750737
10682.836 -5112.5708 17093.76 13750737
10790.046 -5115.2173 17102.609 13750737
10936.349 -5136.1743 17172.678 13750737
10880.961 -5062.897 16927.678 13750737
10858.081 -5005.9502 16737.277 13750737
10957.589 -5005.9502 16737.277 13750737
11047.551 -5001.6289 16722.828 13750737
10976.036 -4924.9297 16466.387 13750737
11074.835 -4925.3306 16467.727 13750737
11276.393 -4971.0239 16620.502 13750737
11409.857 -4986.167 16671.133 13750737
11510.969 -4987.0327 16674.025 13750737
11628.864 -4995.0923 16700.973 13750737
11742.188 -5001.0679 16720.953 13750737
11865.708 -5011.2505 16754.998 13750737
12048.803 -5046.2139 16871.896 13750737
12149.111 -5046.2139 16871.896 13684945
11878.413 -4893.3755 16360.886 13685201
11818.511 -4829.1533 16146.161 13685201
11715.343 -4748.4297 15876.264 13685203
11718.963 -4711.9341 15754.241 13619410
12099.915 -4826.5303 16137.392 13553616
10034.521 -3971.1785 13277.542 13554133
9856.9375 -3870.4517 12940.765 13159890
8813.793 -3434.0439 11481.646 10397631
8626.8896 -3335.3904 11151.799 8487064
8097.5649 -3106.8616 10387.719 7173001
8321.0342 -3168.4373 10593.596 6383995
8825.5361 -3335.2937 11151.477 6778497
11407.639 -4278.9624 14306.61 5529714
12962.581 -4826.2305 16136.389 4082788
13058.517 -4826.2305 16136.389 3885666
13153.85 -4826.0098 16135.65 2701651
13149.917 -4789.6362 16014.036 5070199
11417.229 -4128.6411 13804.016 2964567
11429.958 -4103.7461 13720.779 1977415
11511.532 -4103.7461 13720.779 2766674
11672.646 -4131.9023 13814.918 2437710
11300.463 -3972.2063 13280.978 2240330
10738.904 -3748.6211 12533.426 2502985
10949.473 -3795.7856 12691.12 2700618
11183.334 -3850.3247 12873.47 1976635
11485.281 -3927.4041 13131.184 3819097
11934.429 -4053.4385 13552.576 3555154
10782.61 -3637.6724 12162.473 2173244
12095.576 -4053.4385 13552.576 2304831
11421.241 -3802.1292 12712.33 2633284
11526.774 -3812.0356 12745.451 2304576
12183.143 -4002.7903 13383.235 2172734
12262.71 -4002.7903 13383.235 3883350
12342.276 -4002.7903 13383.235 2567491
11693.668 -3768.1445 12598.702 2304573
11712.206 -3750.0969 12538.361 2633281
13362.086 -4251.3096 14214.153 3159368
14888.969 -4707.3345 15738.862 4014418
15094.611 -4742.5459 15856.591 4672089
13973.683 -4363.1143 14587.97 7961994
14037.866 -4356.1177 14564.577 5790311
15341.789 -4731.5552 15819.843 3356226
0 0 0 0
0 0 0 0
0 0 0 0
0 0 0 0
-6913.1064 -2244.2769 7655.8691 1649454
-7010.3296 -2290.9231 7814.9932 1781041
-6963.8672 -2290.9231 7814.9932 1386283
-6929.6636 -2294.9827 7828.8418 991525
-7199.4839 -2400.4658 8188.6748 991525
-7054.376 -2368.0972 8078.2559 1254697
-6951.3389 -2349.5042 8014.8301 2044981
-6903.6885 -2349.5042 8014.8301 1847601
-6840.9487 -2344.333 7997.1899 2308150
-7001.2065 -2416.0439 8241.8164 2834494
-6952.2065 -2416.0439 8241.8164 2571832
