# .PCD v0.7 - Point Cloud Data file format
VERSION 0.7
FIELDS x y z rgb
SIZE 4 4 4 4
TYPE F F F U
COUNT 1 1 1 1
WIDTH 1442
HEIGHT 1
VIEWPOINT 0 0 0 1 0 0 0
POINTS 1442
DATA ascii
-2314.7156 -1283.6083 5492.7393 13813975
-2184.531 -1228.7506 5257.9956 13554127
0 0 0 0
0 0 0 0
0 0 0 0
0 0 0 0
0 0 0 0
0 0 0 0
0 0 0 0
-1817.2737 -1154.3214 4939.5029 3289144
-2044.615 -1320.0591 5648.7178 13813715
-2082.3223 -1366.8547 5848.9629 8942729
-1893.8553 -1264.256 5409.9282 14934241
-1782.9771 -1210.8014 5181.189 7179919
-1717.2054 -1186.6376 5077.7881 727831
-1624.5826 -1142.7219 4889.8672 1318428
-1512.0455 -1082.943 4634.0649 5792608
-1566.4395 -1142.7219 4889.8672 3293491
-1547.0145 -1149.8923 4920.5503 1384981
-1513.3837 -1146.5764 4906.3608 265992
-1424.4292 -1100.3917 4708.7305 725262
-1363.7607 -1074.6448 4598.5557 4803916
-1349.8098 -1085.411 4644.6255 1449501
-1410.1848 -1157.6422 4953.7129 1122826
-1380.7335 -1157.6422 4953.7129 1846295
-1404.0858 -1202.8788 5147.2866 1059336
-1344.6696 -1177.6437 5039.3022 1190921
-1277.8568 -1144.6331 4898.0449 860682
-1210.1812 -1109.292 4746.8154 926730
-1181.96 -1109.292 4746.8154 2560
-1141.4657 -1097.4917 4696.3203 860938
-1106.4761 -1090.5249 4666.5083 861447
-1066.3289 -1077.9857 4612.8516 1980436
-997.05347 -1034.5607 4427.0298 1388298
-905.90167 -965.46594 4131.3638 928004
-862.53589 -944.86749 4043.22 533248
-856.7774 -965.46594 4131.3638 664834
-838.81012 -973.11676 4164.1025 796163
-827.05884 -988.66339 4230.6289 1255948
-801.90656 -988.66339 4230.6289 69632
-807.50293 -1027.8005 4398.1025 597253
-743.948 -978.59521 4187.5459 1124363
-702.78345 -956.45465 4092.8032 598785
-638.79712 -900.55267 3853.5908 1323015
-680.12109 -994.47693 4255.5059 1915150
-649.89594 -986.99731 4223.4995 1849099
-629.34991 -994.20709 4254.3511 401408
-604.05664 -994.20709 4254.3511 729345
-589.76471 -1013.1052 4335.2192 3033372
-546.05157 -980.88116 4197.3276 1388043
0 0 0 0
0 0 0 0
0 0 0 0
0 0 0 0
0 0 0 0
0 0 0 0
0 0 0 0
0 0 0 0
0 0 0 0
0 0 0 0
-253.07002 -914.11346 3911.6194 2310681
-229.81436 -914.11346 3911.6194 2967584
-206.55869 -914.11346 3911.6194 5401927
-200.97186 -1002.2261 4288.666 1848596
-175.47455 -1002.2261 4288.666 2374944
-149.47374 -998.86145 4274.2681 3427633
-117.21294 -943.71747 4038.2988 4547398
-92.09391 -932.4762 3990.196 2704928
0 0 0 0
0 0 0 0
0 0 0 0
0 0 0 0
0 0 0 0
65.405914 -1213.8884 5194.3984 1718546
98.117111 -1236.9471 5293.0698 2311706
134.82962 -1287.0005 5507.2554 2970656
156.7469 -1203.8623 5151.4951 3168033
0 0 0 0
0 0 0 0
0 0 0 0
0 0 0 0
0 0 0 0
0 0 0 0
0 0 0 0
0 0 0 0
0 0 0 0
0 0 0 0
0 0 0 0
588.16144 -1350.5693 5779.2749 13159116
0 0 0 0
0 0 0 0
0 0 0 0
0 0 0 0
936.7771 -1664.8047 7123.9321 5534814
979.13086 -1664.8047 7123.9321 8757898
0 0 0 0
0 0 0 0
0 0 0 0
0 0 0 0
0 0 0 0
2681.7087 -3620.1167 15490.986 13685199
2777.272 -3624.6389 15510.337 13685457
2897.5352 -3660.0706 15661.954 13685457
2996.2124 -3666.8787 15691.086 13685457
3089.2722 -3666.6077 15689.927 13685457
3182.5532 -3666.6077 15689.927 13685457
3325.1819 -3721.842 15926.283 13685457
3420.1394 -3722.1375 15927.547 13685457
3514.8333 -3722.1375 15927.547 13685457
3515.6587 -3625.3408 15513.34 13685457
3498.2654 -3515.186 15041.973 13685457
3587.6938 -3515.186 15041.973 13685457
3779.8652 -3613.4038 15462.261 13619407
4040.5784 -3770.9255 16136.317 13619407
4136.5713 -3770.9783 16136.544 12829892
4232.8882 -3771.3174 16137.995 13554127
4328.833 -3771.3174 16137.995 9804209
4424.4863 -3771.0693 16136.933 8689325
4520.0132 -3770.7258 16135.463 7308444
4616.0459 -3770.8096 16135.821 7177113
4712.6221 -3771.325 16138.026 6059658
4808.876 -3771.5671 16139.063 6650765
4904.8271 -3771.5671 16139.063 9612217
5001.1431 -3771.842 16140.24 4875116
5097.0703 -3771.8193 16140.143 6848395
5193.0596 -3771.842 16140.24 6979470
5289.5601 -3772.229 16141.896 5530224
5385.5283 -3772.229 16141.896 5991035
5481.0381 -3771.9143 16140.548 5727861
5577.5537 -3772.2896 16142.154 5991290
5673.3652 -3772.1843 16141.704 5399924
5769.332 -3772.1843 16141.704 5070702
5864.9712 -3771.9736 16140.803 9476780
5960.9048 -3771.9558 16140.727 5003882
6057.3706 -3772.2703 16142.072 6387074
6153.3398 -3772.2703 16142.072 12702938
6248.7192 -3771.9143 16140.549 13357271
6344.3105 -3771.6953 16139.611 13423832
6440.876 -3772.0527 16141.142 3755359
6537.0381 -3772.1672 16141.631 4743022
6632.8696 -3772.0908 16141.304 5729919
6729.5811 -3772.5095 16143.096 6124422
6824.7988 -3772.0908 16141.304 5400699
6920.5977 -3772.0005 16140.917 4742768
7016.5596 -3772.0005 16140.917 4808044
7112.7622 -3772.1274 16141.462 3754840
7208.7271 -3772.1274 16141.462 4875637
7305.1187 -3772.3474 16142.402 5664897
7401.5103 -3772.5618 16143.32 4676978
7495.9595 -3771.793 16140.03 4874869
7591.937 -3771.8035 16140.074 4939889
7687.814 -3771.7642 16139.906 11581632
7783.77 -3771.7642 16139.906 13292498
7879.7305 -3771.7664 16139.915 13619661
7983.1133 -3775.2781 16154.943 13750737
8174.6289 -3819.8899 16345.844 13750737
8271.8096 -3819.8899 16345.844 13750737
8753.5391 -3995.4109 17096.922 13750737
8914.8047 -4022.3108 17212.031 13750737
9017.1348 -4022.3108 17212.031 13750737
9136.0986 -4029.6477 17243.426 13750737
9236.9668 -4028.9282 17240.348 13750737
9339.4648 -4028.9282 17240.348 13750737
9486.8975 -4048.1013 17322.393 13750737
9575.9814 -4042.2329 17297.281 13750737
9518.2744 -3975.1841 17010.369 13750737
9183.6133 -3795.0945 16239.74 13750737
9266.2529 -3789.4055 16215.397 13619151
9327.9092 -3775.3416 16155.215 13421776
9414.165 -3771.4192 16138.431 12895436
9509.5859 -3771.2104 16137.537 12632523
9605.7461 -3771.2959 16137.902 6777197
9700.4082 -3770.7976 16135.771 11843000
6189.1235 -2382.3113 10194.243 6316395
6704.3716 -2555.614 10935.83 4606808
7103.6987 -2681.8245 11475.902 5264481
7901.0967 -2954.4861 12642.659 7172219
7436.9932 -2754.7361 11787.9 6316393
7507.0757 -2754.7361 11787.9 6316651
8699.6758 -3162.8359 13534.219 4276815
9422.3115 -3394.1631 14524.1 4803929
9750.4482 -3480.47 14893.418 2238002
9838.9932 -3480.47 14893.418 2501173
9698.8174 -3400.283 14550.286 2895932
8405.1533 -2920.6907 12498.044 2698810
8479.458 -2920.6907 12498.044 1646379
8750.4756 -2987.8586 12785.465 1317414
9009.5195 -3049.8164 13050.591 1975344
8801.1475 -2953.842 12639.903 1975856
10159.074 -3380.7239 14466.59 3291461
9966.167 -3288.6858 14072.746 3160129
10331.09 -3380.7239 14466.59 3949390
10083.176 -3272.3538 14002.859 2962494
10091.547 -3248.2515 13899.723 1843500
9865.3008 -3149.636 13477.733 3488325
10420.159 -3299.9792 14121.072 3027778
9848.5898 -3094.0396 13239.828 1119783
9064.0596 -2824.9924 12088.538 1185832
9878.2314 -3054.5256 13070.742 1054245
10038.939 -3079.9897 13179.707 1120037
10117.297 -3079.9897 13179.707 1185831
9973.3311 -3012.8286 12892.315 1120292
10049.979 -3012.8286 12892.315 1580841
10506.067 -3125.7183 13375.385 1844270
10639.437 -3141.6184 13443.425 1909549
11143.584 -3265.9492 13975.453 3225408
11498.665 -3345.0745 14314.042 3752262
10544.416 -3044.9387 13029.719 2567218
10621.881 -3044.9387 13029.719 4869973
10983.991 -3125.946 13376.36 4606801
10489.526 -2963.7676 12682.376 5067093
10834.042 -3039.2622 13005.428 4474956
10911.362 -3039.2622 13005.428 5395545
10546.647 -2917.0032 12482.265 4737871
10620.857 -2917.0032 12482.265 3092533
11086.871 -3023.8645 12939.539 3224376
11000.403 -2979.6062 12750.152 2829618
11076.207 -2979.6062 12750.152 2961975
11282.056 -3014.3521 12898.834 3092537
11358.742 -3014.3521 12898.834 1514019
11614.591 -3061.5784 13100.923 1382175
11831.963 -3098.1011 13257.208 1842980
12679.359 -3298.0154 14112.669 4145478
14464.094 -3737.5085 15993.321 3159095
14689.075 -3770.854 16136.013 2435114
14785.232 -3770.9114 16136.258 5594717
14881.993 -3771.1208 16137.154 5397344
14977.934 -3771.1208 16137.154 10593964
13476.174 -3371.415 14426.757 12041157
13749.931 -3418.1472 14626.729 6777477
13647.717 -3371.415 14426.757 11387355
13234.577 -3248.9385 13902.662 3684691
13317.233 -3248.9385 13902.662 4474991
11138.766 -2700.7063 11556.7 3817057
11207.474 -2700.7063 11556.7 1381690
0 0 0 0
0 0 0 0
0 0 0 0
0 0 0 0
-6565.3584 -1655.8899 7270.7578 2307358
-6786.5747 -1723.0289 7565.5547 2044697
-6741.5957 -1723.0289 7565.5547 2768675
-6784.3057 -1745.5913 7664.6226 1781780
-6835.7109 -1770.7112 7774.9199 1518609
-6789.4863 -1770.7112 7774.9199 2110487
-6743.2627 -1770.7112 7774.9199 2636832
-6673.5869 -1764.5105 7747.6938 3031338
-6794.7085 -1809.0215 7943.1348 201219
-6968.6196 -1868.3086 8203.4551 662284
-6774.9805 -1829.1954 8031.7158 1254168
-6827.8779 -1856.5627 8151.8809 924691
-6807.9062 -1864.3657 8186.1426 662030
-6630.1899 -1828.7711 8029.8525 399112
-6480.7349 -1800.512 7905.771 530695
-6125.9507 -1714.3777 7527.5684 1188880
-5997.0605 -1690.6584 7423.4204 1123342
-5799.2119 -1647.0028 7231.7354 1847832
-5380.1523 -1539.4008 6759.272 992778
-4208.3086 -1213.1675 5326.8315 992521
-4034.6538 -1171.9258 5145.7456 1453584
-3978.2778 -1164.3794 5112.6108 1650699
0 0 0 0
0 0 0 0
-3577.168 -1071.5421 4704.9766 4810538
-3705.6282 -1118.7709 4912.3506 2706445
-3663.3906 -1114.8049 4894.937 4351525
-3647.2175 -1118.7709 4912.3506 3693346
-3703.4722 -1145.197 5028.3838 4746553
-3882.3843 -1210.2903 5314.1982 3036704
-3862.4924 -1213.9684 5330.3481 2904602
-3740.3018 -1185.2892 5204.4224 1258504
-3868.4302 -1236.1185 5427.606 2310678
-3709.6125 -1195.3408 5248.5576 1192198
-3773.9441 -1226.3862 5384.873 4021297
-3926.7229 -1286.9508 5650.8027 467971
-3893.1272 -1286.9508 5650.8027 335872
-3798.2051 -1266.5016 5561.0132 4020015
-3763.3154 -1265.8867 5558.3135 3072
-3730.2698 -1265.8867 5558.3135 4877098
-3760.4407 -1287.5312 5653.3516 4613923
-3772.8037 -1303.4143 5723.0913 3496212
-3738.7786 -1303.4143 5723.0913 2904078
-3704.7529 -1303.4143 5723.0913 3825695
-3655.5916 -1298.0397 5699.4922 3825183
-3501.2661 -1254.8732 5509.9546 2179599
-3350.9524 -1212.3427 5323.21 862720
-3301.8845 -1205.9802 5295.2734 1783564
-3256.55 -1200.8721 5272.8442 3362852
0 0 0 0
0 0 0 0
0 0 0 0
-2609.2239 -1000.6989 4393.9146 3890222
-2618.0591 -1014.2416 4453.3789 1719053
-2788.4138 -1091.2736 4791.6143 1455621
-3138.1011 -1240.8037 5448.1782 1258242
-3244.3604 -1296.1976 5691.4043 1785095
-3631.0186 -1465.9659 6436.8306 2771731
-3592.75 -1465.9659 6436.8306 3298328
-3536.5054 -1458.5522 6404.2783 3561759
-3624.627 -1511.1658 6635.2964 2968857
-3647.3135 -1537.356 6750.2935 2574101
-3607.1814 -1537.356 6750.2935 2179087
-3638.8943 -1568.3206 6886.2539 4416050
-3255.2432 -1418.9357 6230.3281 2835992
-3119.8572 -1375.5746 6039.936 2565928
0 0 0 0
0 0 0 0
-3374.9546 -1541.2687 6767.4731 13089222
-3325.5813 -1537.0449 6748.9272 13153480
-3055.6738 -1429.5447 6276.9106 12625600
-2987.644 -1414.9991 6213.043 12161979
-2950.7058 -1414.9991 6213.043 12620481
-2869.2959 -1393.4025 6118.2158 10971561
-2671.6702 -1314.0895 5769.9644 12558271
-2449.3594 -1220.4135 5358.6475 13283785
-2200.4585 -1110.8453 4877.5508 13680081
-2256.6665 -1154.4338 5068.9414 13548762
-2138.3154 -1108.6954 4868.1108 1317170
-2287.7085 -1202.4292 5279.6816 2497852
-2374.3145 -1265.3108 5555.7847 13947091
-2322.7573 -1255.2983 5511.8218 13683405
-2282.0596 -1250.9524 5492.7393 10331057
-2153.271 -1197.4904 5257.9956 5197404
0 0 0 0
0 0 0 0
0 0 0 0
0 0 0 0
0 0 0 0
0 0 0 0
0 0 0 0
0 0 0 0
-1920.8867 -1228.8092 5395.5122 2174256
-1829.0046 -1189.9022 5224.6772 1781036
-1792.1761 -1186.0859 5207.9204 1911594
-1708.5103 -1150.593 5052.0767 1450528
-1545.7002 -1059.5764 4652.437 1186586
-1487.7563 -1038.4387 4559.6245 14014421
0 0 0 0
-1547.0145 -1120.6383 4920.5503 5853014
-1513.3837 -1117.4067 4906.3608 921108
-1432.0813 -1078.158 4734.0259 1119002
-1379.8081 -1059.6288 4652.667 4867931
0 0 0 0
0 0 0 0
-1380.7335 -1128.1909 4953.7129 1779740
-1404.0858 -1172.2767 5147.2866 994063
-1344.6696 -1147.6837 5039.3022 796933
-1306.1807 -1140.2383 5006.6108 3822642
-1185.5334 -1059.0527 4650.1372 3098154
-1257.2242 -1149.9106 5049.0806 399361
-1185.6915 -1111.0109 4878.2778 926217
-1137.3175 -1092.4047 4796.5806 795399
-1066.3289 -1050.5609 4612.8516 861446
-997.05347 -1008.2407 4427.0298 927237
-928.49017 -964.36523 4234.3789 730369
-880.68597 -940.20612 4128.3003 730371
-859.86151 -944.29077 4146.2354 1124360
-835.211 -944.29077 4146.2354 70400
-795.32043 -926.53625 4068.2781 268289
-739.55103 -888.58936 3901.6592 1124621
-776.75427 -963.51111 4230.6289 1387535
-739.61963 -948.15027 4163.1821 1519889
-714.86835 -948.15027 4163.1821 533249
-720.90149 -990.44501 4348.8916 730625
-702.62738 -1001.2483 4396.3271 928513
-669.76898 -991.30078 4352.6489 1652490
-643.89124 -991.30078 4352.6489 1784074
-618.01355 -991.30078 4352.6489 3428387
-623.01288 -1042.9923 4579.6187 1915150
-496.36526 -868.94513 3815.4043 1783819
0 0 0 0
0 0 0 0
0 0 0 0
0 0 0 0
0 0 0 0
0 0 0 0
0 0 0 0
0 0 0 0
0 0 0 0
0 0 0 0
-266.90979 -939.57654 4125.5361 863749
-242.38234 -939.57654 4125.5361 3034660
-201.47104 -868.91541 3815.2739 1981459
-200.97186 -976.72888 4288.666 3165222
-175.47455 -976.72888 4288.666 598789
-144.99707 -944.29541 4146.2559 1519377
-117.21294 -919.70862 4038.2988 3626033
-95.456451 -941.93378 4135.8862 3823923
-68.371086 -908.75336 3990.196 3692600
0 0 0 0
0 0 0 0
0 0 0 0
29.209024 -1000.8891 4394.75 1717779
59.500515 -1076.1945 4725.4043 2376474
98.117111 -1205.4784 5293.0698 3232294
133.19296 -1239.0333 5440.4048 2245143
156.7469 -1173.2352 5151.4951 2969888
0 0 0 0
0 0 0 0
0 0 0 0
0 0 0 0
0 0 0 0
0 0 0 0
0 0 0 0
0 0 0 0
0 0 0 0
0 0 0 0
0 0 0 0
0 0 0 0
0 0 0 0
0 0 0 0
0 0 0 0
0 0 0 0
0 0 0 0
979.13086 -1622.4508 7123.9321 9414549
1021.4846 -1622.4508 7123.9321 5926509
0 0 0 0
0 0 0 0
0 0 0 0
0 0 0 0
0 0 0 0
2777.272 -3532.4258 15510.337 13685457
2905.283 -3576.4937 15703.833 13685457
3056.1152 -3645.0369 16004.796 13685457
3151.4817 -3645.2839 16005.88 13685457
3239.6294 -3637.4111 15971.312 13685457
3334.5833 -3637.4111 15971.312 13685457
3429.5371 -3637.4111 15971.312 13685457
3514.8333 -3627.4436 15927.547 13685457
3491.6089 -3508.9404 15407.218 13685457
3450.8889 -3379.3628 14838.262 13685457
3587.6938 -3425.7573 15041.973 13685456
3677.1228 -3425.7573 15041.973 13553871
4040.6353 -3675.0422 16136.544 13291216
4136.5713 -3675.0422 16136.544 11185857
4232.5073 -3675.0422 16136.544 13554132
4328.291 -3674.9126 16135.976 8947870
4424.2241 -3674.9126 16135.976 8097444
4520.064 -3674.8367 16135.643 12766935
4616.4043 -3675.1631 16137.074 9348538
4712.6191 -3675.3777 16138.018 8821938
4808.876 -3675.616 16139.063 10597313
4904.8945 -3675.6665 16139.285 5993857
5001.4702 -3676.1245 16141.297 5467257
5097.1128 -3675.8928 16140.278 6060420
5193.0718 -3675.8928 16140.278 6389128
5289.4683 -3676.197 16141.615 12044239
5385.4346 -3676.197 16141.615 6649733
5481.8057 -3676.4683 16142.807 5530739
5578.0171 -3676.6255 16143.496 9544883
5673.8364 -3676.5227 16143.045 5333619
5769.811 -3676.5227 16143.045 5071215
5864.3198 -3675.604 16139.011 12045267
5959.9961 -3675.4346 16138.267 7108484
6057.1343 -3676.1577 16141.442 6385537
6153.1006 -3676.158 16141.444 7831949
6248.7192 -3675.9541 16140.549 12567499
6344.1353 -3675.6389 16139.165 8029594
6439.5361 -3675.3242 16137.783 4411234
6536.7241 -3676.0244 16140.857 7767191
6632.1328 -3675.7173 16139.51 7041927
6728.6484 -3676.0244 16140.857 6189700
6824.7988 -3676.1262 16141.304 5137525
6920.6304 -3676.0554 16140.993 5664126
7015.6245 -3675.5483 16138.767 8360622
7111.3794 -3675.4473 16138.323 12700628
7207.5239 -3675.5483 16138.767 2439243
7305.1187 -3676.3762 16142.402 4151660
7400.3555 -3676.0117 16140.802 4085866
7495.335 -3675.53 16138.687 4678001
7591.937 -3675.8459 16140.074 7965847
7687.6909 -3675.749 16139.647 13226451
7783.6455 -3675.749 16139.647 13357265
7879.5947 -3675.7463 16139.636 13356492
7976.21 -3676.0508 16140.973 13553358
8074.5664 -3677.1414 16145.761 13684943
8201.1982 -3690.9307 16206.309 13684944
8753.5391 -3893.7649 17096.922 13750737
8897.2012 -3912.2402 17178.045 13750737
8987.7695 -3907.2146 17155.979 13750737
9101.458 -3912.2402 17178.045 13750737
9203.75 -3912.3101 17178.352 13750737
9337.6621 -3925.6716 17237.02 13750737
9440.1406 -3925.6716 17237.02 13750737
9128.501 -3755.3101 16488.988 13750737
9091.585 -3700.3848 16247.819 13750737
9171.0938 -3693.5022 16217.6 13750737
9041.96 -3603.6101 15822.897 13750481
9316.9209 -3674.9602 16136.185 13554128
9412.9668 -3675.0039 16136.376 13619668
9508.7139 -3674.9312 16136.057 12829640
0 0 0 0
0 0 0 0
6189.1235 -2321.7036 10194.243 7764614
6524.2153 -2423.6716 10641.969 8159370
7184.7861 -2643.4312 11606.898 5395031
7253.7925 -2643.4312 11606.898 5921375
7436.9932 -2684.6536 11787.9 6512998
8452.876 -3022.8875 13273.033 4869201
9400.5986 -3330.7144 14624.654 2895418
9487.5459 -3330.7144 14624.654 2829883
9750.4482 -3391.9243 14893.418 2566970
9838.9932 -3391.9243 14893.418 1909553
10028.664 -3426.4756 15045.127 2304311
9396.5273 -3182.1128 13972.167 2501690
8909.9795 -2990.9041 13132.599 1843760
9194.5293 -3059.6106 13434.279 1120037
9274.4004 -3059.6106 13434.279 1120037
9203.7236 -3010.3696 13218.069 1251623
10609.224 -3440.7051 15107.605 2041137
9966.167 -3205.0193 14072.746 2831422
10277.295 -3277.5598 14391.261 2502200
10116.634 -3199.6848 14049.324 3489351
10166.426 -3189.1028 14002.859 3489352
10122.261 -3149.458 13828.786 3752012
10420.159 -3216.0254 14121.072 2435897
9932.5674 -3041.0361 13352.722 1580589
9621.0146 -2922.2927 12831.337 725535
9697.3008 -2922.2927 12831.337 2699068
10343.505 -3092.6975 13579.559 1580844
10424.239 -3092.6975 13579.559 1120291
10195.653 -3001.6328 13179.707 1120548
10245.36 -2993.2625 13142.954 1581354
10344.18 -2999.259 13169.284 2634553
10585.588 -3046.1978 13375.385 2042159
10719.361 -3061.6936 13443.425 3489345
10595.037 -3003.7871 13189.166 4081226
10673.45 -3003.7871 13189.166 1843495
10621.881 -2967.4734 13029.719 1843492
10414.126 -2888.3672 12682.376 2961975
10067.868 -2772.2605 12172.569 5264729
10564.927 -2888.3672 12682.376 4080455
10170.804 -2760.9131 12122.744 3158582
10546.647 -2842.7927 12482.265 2303021
10034.163 -2685.7571 11792.746 1315872
10104.274 -2685.7571 11792.746 1645607
10260.351 -2708.4497 11892.386 1645352
10331.055 -2708.4497 11892.386 2040110
10338.981 -2692.1038 11820.613 1711401
10409.259 -2692.1038 11820.613 1579557
10854.988 -2788.5544 12244.113 1777191
10927.783 -2788.5544 12244.113 2961463
11910.781 -3019.2832 13257.208 1710627
12026.931 -3028.6846 13298.487 2632238
12512.694 -3130.4329 13745.249 2501166
14785.206 -3674.9702 16136.229 2632495
14881.993 -3675.1812 16137.154 10067105
14977.934 -3675.1812 16137.154 13685979
15072.273 -3674.791 16135.441 9540255
15169.4 -3675.0808 16136.715 4209998
15265.829 -3675.1995 16137.234 2040365
15361.274 -3675.0808 16136.715 12237257
15456.121 -3674.8218 16135.576 13816287
13689.883 -3234.8066 14203.538 13028057
13457.488 -3160.3992 13876.826 10132911
0 0 0 0
0 0 0 0
0 0 0 0
0 0 0 0
0 0 0 0
-6721.2188 -1661.8898 7492.6973 1583634
-6722.4517 -1673.2847 7544.0718 2570784
-6677.6006 -1673.2847 7544.0718 2044439
-6813.312 -1718.8364 7749.4438 2899747
-6767.2393 -1718.8364 7749.4438 1452302
-6743.2627 -1724.4871 7774.9199 1715218
-6720.4526 -1730.5164 7802.103 2044187
-6794.7085 -1761.7974 7943.1348 1385747
-6772.0122 -1768.2018 7972.0093 859660
-6724.6167 -1768.2018 7972.0093 728076
-6810.166 -1803.4071 8130.7339 1451287
-6761.8267 -1803.4071 8130.7339 1122834
-6573.6978 -1765.8563 7961.4346 1978397
-6404.4453 -1732.8683 7812.7065 1188625
-6158.292 -1678.4388 7567.3096 1122831
-6018.6943 -1652.4637 7450.1997 1123341
-5952.9263 -1646.524 7423.4204 1189134
-5907.9736 -1646.2959 7422.3921 1715989
-5863.8452 -1646.2959 7422.3921 1255181
-5808.3271 -1643.0739 7407.8657 1584145
-5070.377 -1445.2797 6516.1016 860678
0 0 0 0
0 0 0 0
0 0 0 0
-3558.241 -1046.2292 4716.9673 993794
-3642.3113 -1079.4561 4866.7715 2244368
-3733.3672 -1115.3019 5028.3838 1980945
-3825.7097 -1152.1138 5194.3516 4151346
-3883.1604 -1178.9316 5315.2607 265984
-3566.606 -1091.7096 4922.0166 465155
-3537.3433 -1091.7096 4922.0166 925964
-3709.3601 -1154.3475 5204.4224 1649429
-3709.6125 -1164.1367 5248.5576 794889
-3773.9441 -1194.3717 5384.873 3229228
-3926.7229 -1253.3551 5650.8027 398594
-3881.7209 -1249.683 5634.2466 532737
-3743.3357 -1215.6212 5480.6777 861442
-3710.7515 -1215.6212 5480.6777 1651975
-3763.7781 -1243.9154 5608.2427 1784327
-3675.8062 -1225.6992 5526.1147 1915650
-3674.6152 -1236.3525 5574.1455 3231767
-3648.6973 -1238.8044 5585.2002 598784
-3635.3464 -1245.6075 5615.8721 72192
-3572.7429 -1235.5044 5570.3218 2045717
-3473.4375 -1212.4014 5466.1606 1782801
-3333.3662 -1174.4984 5295.2734 1322758
-3281.7598 -1167.3398 5262.999 2046227
-3256.55 -1169.5236 5272.8442 1651472
0 0 0 0
0 0 0 0
0 0 0 0
-2730.9436 -1020.0396 4598.8896 3496475
-2816.9014 -1062.7861 4791.6143 2509839
-3149.5156 -1200.4178 5412.1323 1785099
-3227.8896 -1242.9884 5604.0635 2245649
-3244.3604 -1262.3607 5691.4043 797444
-3631.0186 -1427.6971 6436.8306 5403713
-3592.75 -1427.6971 6436.8306 4285484
-3536.5054 -1420.4771 6404.2783 2245649
-3602.7537 -1462.8357 6595.2544 2771225
-3590.6887 -1473.9791 6645.4946 2836512
-3607.1814 -1497.2236 6750.2935 1189643
-3638.8943 -1527.3798 6886.2539 1715732
-3255.2432 -1381.8947 6230.3281 2571042
-3195.6299 -1372.2021 6186.6289 4018237
0 0 0 0
0 0 0 0
0 0 0 0
-3377.739 -1520.3979 6854.7759 13287628
-3276.1147 -1492.6641 6729.7363 13684691
-3018.356 -1392.2267 6276.9106 13618899
-2950.7058 -1378.0608 6213.043 13619152
-2883.5229 -1363.7566 6148.5522 13684689
-2671.6702 -1279.7854 5769.9644 13289675
-2503.1858 -1214.6741 5476.4072 13288652
-2196.2 -1079.7532 4868.1108 13353422
0 0 0 0
0 0 0 0
-2287.7085 -1171.04 5279.6816 1908794
-2411.3154 -1251.4838 5642.3652 3613005
-2394.3669 -1260.2191 5681.749 14802660
-2746.8022 -1466.4032 6611.3384 5601362
-2388.3066 -1293.5273 5831.9209 3954746
-2216.8752 -1218.3665 5493.0547 4742216
0 0 0 0
0 0 0 0
0 0 0 0
0 0 0 0
0 0 0 0
0 0 0 0
0 0 0 0
-1842.7637 -1148.0601 5176.0752 12628162
-1820.7285 -1153.5963 5201.0356 12694467
-1747.9592 -1126.624 5079.4302 12312794
-1663.5911 -1091.0959 4919.2505 1252893
-1514.8646 -1011.3305 4559.6245 2568753
0 0 0 0
0 0 0 0
-1547.0145 -1091.3843 4920.5503 3616850
-1496.7111 -1076.248 4852.3081 461337
-1467.8627 -1076.248 4852.3081 526608
-1379.8081 -1031.9674 4652.667 7957902
0 0 0 0
-1329.1361 -1035.5909 4669.0039 3418926
-1436.1379 -1142.8286 5152.4893 526602
-1421.2617 -1155.6406 5210.2524 461834
-1390.2853 -1155.6406 5210.2524 2106913
-1329.9175 -1130.653 5097.5947 2835727
-1106.8445 -962.94745 4341.4878 3033371
-1261.5779 -1123.7706 5066.5654 333569
-1227.2061 -1119.8925 5049.0806 464899
-1156.6887 -1082.0082 4878.2778 70912
-1036.3573 -994.37885 4483.1973 466176
-951.56232 -937.12012 4225.0439 335360
-926.44324 -937.12012 4225.0439 663555
-881.33948 -916.34174 4131.3638 925958
-859.86151 -919.64026 4146.2354 2816
-831.59821 -915.66223 4128.3003 531203
-765.06012 -868.01678 3913.4888 794630
-739.55103 -865.39294 3901.6592 861191
-738.12708 -891.69513 4020.2439 993287
-735.17456 -917.84943 4138.1616 861187
-725.39648 -936.99823 4224.4946 796160
-738.34888 -987.93481 4454.144 1125379
-725.09558 -1006.2924 4536.9102 1651466
-695.44312 -1002.4305 4519.4985 598784
-657.21771 -985.40424 4442.7349 928002
-648.87134 -1013.6272 4569.9795 2572825
-655.70312 -1069.0637 4819.917 1125382
-594.76306 -1014.0215 4571.7573 861700
0 0 0 0
0 0 0 0
0 0 0 0
0 0 0 0
0 0 0 0
0 0 0 0
0 0 0 0
0 0 0 0
0 0 0 0
0 0 0 0
-269.97772 -925.56696 4172.9561 994049
-271.61694 -1025.4165 4623.1318 1191428
-220.35895 -925.56696 4172.9561 1323015
-201.44368 -953.46472 4298.7344 731906
-175.47455 -951.23151 4288.666 1521170
-140.85681 -893.38525 4027.8635 1784601
-117.21294 -895.69977 4038.2988 1915930
-95.456451 -917.34485 4135.8862 3692340
-71.689201 -927.98193 4183.8442 1126922
-48.06155 -952.68982 4295.2407 2771490
-22.555573 -953.9765 4301.0415 1981462
3.0810132 -974.76111 4394.75 863238
30.331556 -1012.2221 4563.6445 1980948
59.201626 -1042.8358 4701.6675 1520910
87.59436 -1048.1006 4725.4043 1850642
132.50558 -1200.4612 5412.3281 2969893
164.50873 -1199.188 5406.5879 2180630
187.37398 -1142.6082 5151.4951 3561768
0 0 0 0
0 0 0 0
0 0 0 0
0 0 0 0
0 0 0 0
0 0 0 0
0 0 0 0
0 0 0 0
0 0 0 0
0 0 0 0
0 0 0 0
0 0 0 0
0 0 0 0
0 0 0 0
0 0 0 0
0 0 0 0
1865.2723 -3010.1306 13571.296 6849903
2313.7344 -3579.0312 16136.207 7639670
2410.1943 -3579.8118 16139.728 5597038
0 0 0 0
0 0 0 0
0 0 0 0
0 0 0 0
0 0 0 0
2982.9829 -3576.2842 16123.822 13685456
3057.6572 -3551.6748 16012.87 13685457
3151.4817 -3550.1245 16005.88 13685457
3246.4214 -3549.884 16004.796 13685457
3345.231 -3553.7686 16022.311 13685457
3444.0125 -3557.4089 16038.723 13685457
3494.9553 -3512.7708 15837.47 13685457
3505.248 -3430.689 15467.401 13685457
3511.457 -3348.9099 15098.696 13685457
3678.7085 -3420.9663 15423.565 13685456
3690.9893 -3348.9099 15098.696 13554127
4040.5784 -3579.0557 16136.317 13290958
4136.6855 -3579.2046 16136.99 9540771
4232.3584 -3578.98 16135.976 9676982
4328.291 -3578.98 16135.976 6782860
4424.2241 -3578.98 16135.976 6782862
4520.1138 -3578.9458 16135.821 6059395
4616.5322 -3579.3228 16137.522 5993603
4712.9292 -3579.668 16139.079 5795712
4808.9414 -3579.7134 16139.283 7835037
4904.9688 -3579.7681 16139.529 5532538
5001.2256 -3579.9851 16140.507 5269109
5097.6587 -3580.3176 16142.007 5598073
5193.6274 -3580.3176 16142.007 6585225
5289.5962 -3580.3176 16142.007 7966620
5385.832 -3580.4949 16142.807 6256003
5481.8057 -3580.4949 16142.807 5203312
5577.7085 -3580.4495 16142.603 4545126
5673.6807 -3580.4495 16142.603 5992317
5769.6528 -3580.4495 16142.603 5465974
5865.2979 -3580.2495 16141.701 11516359
0 0 0 0
6056.2939 -3579.6956 16139.202 7505560
6153.2725 -3580.2927 16141.896 6320515
6248.1978 -3579.6956 16139.202 11518159
6343.5918 -3579.3809 16137.783 10004663
6438.9985 -3579.0825 16136.438 13224915
5445.8286 -2982.5959 13447.154 13290965
4864.564 -2625.7 11838.074 13159126
5550.272 -2953.0928 13314.139 4937573
6824.0977 -3579.7937 16139.645 6518669
6918.686 -3579.0869 16136.459 7897750
7014.4658 -3579.0073 16136.101 5662848
0 0 0 0
0 0 0 0
7304.5122 -3580.1084 16141.063 4414056
7400.3555 -3580.0505 16140.802 6584712
7495.9595 -3579.8792 16140.03 9677242
7592.228 -3580.0264 16140.694 9212830
7687.9448 -3579.9126 16140.182 13488598
7782.1328 -3579.0989 16136.512 12633288
7878.4961 -3579.2927 16137.387 9873332
7975.4653 -3579.7539 16139.466 9736864
8071.5 -3579.79 16139.629 13422287
8167.7461 -3579.9177 16140.204 13750480
8297.5488 -3594.5798 16206.309 13750734
8893.6182 -3808.5776 17171.127 13750737
8917.0879 -3775.2927 17021.061 13750737
9055.1992 -3790.7471 17090.736 13750737
9183.9541 -3801.9846 17141.402 13750737
9285.8643 -3801.9846 17141.402 13750737
8896.583 -3603.0554 16244.521 13750737
8978.2568 -3597.084 16217.6 13684944
9074.6748 -3597.084 16217.6 13684944
9171.0938 -3597.084 16217.6 13684944
9223.3848 -3579.9568 16140.381 13684944
9316.9209 -3579.0259 16136.185 13357261
9413.3145 -3579.2007 16136.972 13619666
9508.7139 -3578.9978 16136.057 13619410
8409.0654 -3133.4861 14127.448 6906225
0 0 0 0
6207.0967 -2267.6624 10223.848 3619143
6389.1411 -2311.5332 10421.642 3092287
6797.9033 -2435.7983 10981.896 4079951
7253.7925 -2574.4248 11606.898 3290179
7299.9536 -2566.3933 11570.688 3027005
10278.253 -3579.7192 16139.311 2434867
10179.662 -3512.5901 15836.655 3092541
9487.5459 -3243.7668 14624.654 2764346
9750.4482 -3303.3792 14893.418 1645610
9669.5215 -3246.4802 14636.887 1646123
10028.664 -3337.0283 15045.127 1646637
10330.169 -3406.9663 15360.445 1646381
9514.4697 -3110.4451 14023.568 1514796
9597.8438 -3110.4451 14023.568 988452
9549.377 -3068.0864 13832.593 922659
9203.7236 -2931.7844 13218.069 856608
9726.5068 -3072.083 13850.611 1119524
9949.5791 -3116.1577 14049.324 1712172
10033.106 -3116.1577 14049.324 1316901
10083.176 -3105.8518 14002.859 2238771
10427.407 -3185.582 14362.325 2896701
10122.261 -3067.2422 13828.786 2502456
10204.477 -3067.2422 13828.786 2699835
9932.5674 -2961.6506 13352.722 3687244
9665.8525 -2859.27 12891.136 3555145
10144.204 -2977.1658 13422.673 1646634
10343.505 -3011.9634 13579.559 1054756
10303.808 -2977.1658 13422.673 988707
9729.0127 -2789.4814 12576.49 988194
9803.7832 -2789.4814 12576.49 1119521
10001.647 -2824.2405 12733.202 1251620
10178.688 -2852.6406 12861.246 1842985
10255.151 -2852.6406 12861.246 2172206
10331.615 -2852.6406 12861.246 1974825
10673.45 -2925.3735 13189.166 2369839
10971.195 -2985.0496 13458.217 1119772
10414.126 -2812.967 12682.376 3751490
10067.868 -2699.8914 12172.569 5857123
10098.731 -2688.8401 12122.744 2830131
9469.9629 -2503.5596 11287.4 6382697
9832.8857 -2581.2139 11637.508 2961461
9902.0742 -2581.2139 11637.508 1645343
9971.2627 -2581.2139 11637.508 2960436
10222.613 -2628.0444 11848.646 2237227
10293.057 -2628.0444 11848.646 1842469
10338.981 -2621.8271 11820.613 2895670
10545.923 -2656.249 11975.807 4343629
10854.988 -2715.7598 12244.113 3290427
11327.574 -2815.1152 12692.062 3487805
11910.781 -2940.4656 13257.208 3027254
11242.302 -2757.1899 12430.902 1777701
11316.206 -2757.1899 12430.902 2239534
14785.206 -3579.0359 16136.229 2370607
14883.106 -3579.509 16138.361 6909813
14979.295 -3579.5667 16138.621 7041142
15074.048 -3579.2827 16137.341 5462112
15169.988 -3579.2827 16137.341 8028296
15266.828 -3579.4932 16138.29 12503247
15362.553 -3579.4417 16138.058 13423065
15457.911 -3579.3054 16137.444 13488600
15377.089 -3538.6287 15954.05 7434382
15471.941 -3538.6287 15954.05 8620963
0 0 0 0
0 0 0 0
0 0 0 0
0 0 0 0
0 0 0 0
-6649.7939 -1600.1564 7413.0742 859913
-6722.4517 -1628.4331 7544.0718 925704
-6657.5991 -1623.5554 7521.4751 1387024
-6766.2974 -1661.2211 7695.9692 4018486
-6720.5425 -1661.2211 7695.9692 860679
-6889.1567 -1714.5731 7943.1348 1781780
-6632.271 -1662.0325 7699.728 1583892
-6794.7085 -1714.5731 7943.1348 1386516
-6680.7383 -1697.6127 7864.5615 1188881
-6633.9814 -1697.6127 7864.5615 464903
-6643.123 -1712.0186 7931.2993 1386006
-6595.9688 -1712.0186 7931.2993 2504744
-6548.8154 -1712.0186 7931.2993 925452
-6404.4453 -1686.4194 7812.7065 1122316
-6381.519 -1692.6587 7841.6108 991502
-6155.6235 -1644.7572 7619.6968 860169
-5974.4009 -1608.1703 7450.1997 925705
-5930.1074 -1608.1703 7450.1997 1583890
-5961.3379 -1628.8057 7545.7974 2242333
-5916.4761 -1628.8057 7545.7974 728837
-6357.9907 -1763.7281 8170.8555 531458
-5421.9595 -1515.6499 7021.5796 1320975
0 0 0 0
0 0 0 0
-3558.241 -1018.1857 4716.9673 1584656
0 0 0 0
-3613.377 -1050.5217 4866.7715 861700
-3914.761 -1147.3308 5315.2607 3098661
-3892.5432 -1150.1031 5328.104 4742976
0 0 0 0
-3395.2812 -1019.7782 4724.3452 1846038
-3540.1902 -1072.1714 4967.0684 1187085
-3706.0227 -1131.8363 5243.4785 529413
-3789.7029 -1167.2108 5407.3589 1188366
-3926.7229 -1219.7596 5650.8027 1978650
-3881.7209 -1216.1858 5634.2466 529668
-3798.2051 -1200.3779 5561.0132 597253
-3667.2441 -1169.1665 5416.4189 136960
-3794.051 -1220.3098 5653.3516 3954471
-3778.9419 -1226.3137 5681.166 2440733
-3674.6152 -1203.2126 5574.1455 135168
-3641.4751 -1203.2126 5574.1455 596740
-3608.3354 -1203.2126 5574.1455 399619
-3505.9351 -1179.9034 5466.1606 1122829
-3382.6003 -1149.0468 5323.21 728837
-3180.2043 -1090.4969 5051.9653 1124363
-3281.7598 -1136.0499 5262.999 794889
-3250.4697 -1136.0499 5262.999 3361834
0 0 0 0
0 0 0 0
0 0 0 0
-2730.9436 -992.69788 4598.8896 2641174
-3092.2434 -1135.3977 5259.9775 3168027
-3255.1387 -1207.4196 5593.6348 1324037
-3227.8896 -1209.6707 5604.0635 1389830
-3209.3352 -1215.2609 5629.9614 1915660
-3274.6057 -1253.0452 5805.0054 2705432
-3449.4565 -1334.0125 6180.104 2376467
-3229.2664 -1262.3036 5847.8975 2639640
-3224.9326 -1274.3295 5903.6094 1191177
-3189.834 -1274.3295 5903.6094 1125894
-3428.7866 -1385.0303 6416.4551 1783060
-3390.6392 -1385.0303 6416.4551 3098922
-3255.2432 -1344.8536 6230.3281 4085816
-3316.9976 -1386.1393 6421.5928 1190926
-3158.8486 -1335.4209 6186.6289 3163178
0 0 0 0
0 0 0 0
-3325.5813 -1456.7964 6748.9272 13354447
-3285.457 -1456.7964 6748.9272 13880786
-3277.4814 -1471.2275 6815.7827 13684432
-3187.4912 -1448.7435 6711.6211 13750226
-3056.4685 -1406.8036 6517.3252 13750224
-2749.8162 -1281.9114 5938.7344 13619153
-2714.5085 -1281.9114 5938.7344 13553362
-2417.5007 -1156.6962 5358.6475 13553618
0 0 0 0
0 0 0 0
-2287.7085 -1139.6509 5279.6816 4874067
-2271.1533 -1147.1436 5314.3926 990991
-2250.9324 -1152.9697 5341.3838 1451284
-2750.3113 -1428.92 6619.7842 2966559
-2699.0393 -1422.6394 6590.688 3164709
-2353.634 -1258.855 5831.9209 1780758
0 0 0 0
0 0 0 0
0 0 0 0
0 0 0 0
0 0 0 0
0 0 0 0
0 0 0 0
0 0 0 0
-1778.1578 -1096.4254 5079.4302 13422804
0 0 0 0
-1573.3601 -1004.2563 4652.437 1185307
0 0 0 0
0 0 0 0
0 0 0 0
-1476.4946 -1013.7136 4696.2495 6444122
-1448.5741 -1013.7136 4696.2495 133901
-1456.9436 -1039.6084 4816.2129 265231
-1364.5997 -993.23639 4601.3848 4013892
0 0 0 0
-1329.1361 -1007.8325 4669.0039 3553334
-1448.3972 -1121.6896 5196.4722 460806
-1421.2617 -1124.6642 5210.2524 131329
-1390.2853 -1124.6642 5210.2524 14408148
-1306.1807 -1080.7069 5006.6108 2438178
0 0 0 0
-1180.0013 -1022.9305 4738.9492 529155
-1231.4558 -1093.6484 5066.5654 1058056
-1124.3621 -1023.5765 4741.9419 268288
-1036.3573 -967.72491 4483.1973 333569
-951.56232 -912.00104 4225.0439 860422
-928.49017 -914.01605 4234.3789 597249
-903.43365 -914.1355 4234.9321 69632
-878.14099 -914.01605 4234.3789 71168
-829.11078 -888.45294 4115.9521 1585166
-765.06012 -844.75 3913.4888 795653
-741.79333 -844.75 3913.4888 2178067
-738.12708 -867.7937 4020.2439 467712
-753.14917 -915.08636 4239.3374 862209
-735.14185 -924.13324 4281.249 862976
-738.34888 -961.45367 4454.144 797184
-722.31281 -975.56079 4519.4985 3033884
-695.44312 -975.56079 4519.4985 928768
-676.04114 -986.4574 4569.9795 1521413
-659.78601 -1003.0507 4646.8511 2179857
-705.23322 -1118.9977 5184.001 2574356
-594.76306 -986.84113 4571.7573 3561251
0 0 0 0
0 0 0 0
0 0 0 0
0 0 0 0
0 0 0 0
-525.1864 -1200.599 5562.0371 1717526
-500.57547 -1221.2311 5657.6196 1849111
-453.39987 -1185.8201 5493.5703 993544
0 0 0 0
-358.76212 -1096.2408 5078.5752 1980692
-335.3425 -1118.8416 5183.2778 2375706
-305.92841 -1123.9923 5207.1396 730628
-257.32407 -1051.8593 4872.9678 401665
-209.7012 -965.94403 4474.9468 1257227
-179.75615 -948.32227 4393.3101 2441243
-140.85681 -869.43842 4027.8635 862983
-120.34643 -894.99414 4146.2559 1718806
-95.695778 -894.99414 4146.2559 4021559
-72.267479 -910.39264 4217.5928 1389835
-48.371296 -933.12872 4322.9224 3100706
-22.670319 -933.12872 4322.9224 4021810
3.1001806 -954.53467 4422.0903 1258250
30.24732 -982.35431 4550.9707 796933
58.431385 -1001.679 4640.4966 1257740
86.020424 -1001.679 4640.4966 3561006
116.83769 -1030.1417 4772.3564 1917204
145.21068 -1030.1417 4772.3564 2970912
160.06084 -949.88977 4400.5718 5404226
0 0 0 0
0 0 0 0
0 0 0 0
0 0 0 0
0 0 0 0
0 0 0 0
0 0 0 0
0 0 0 0
0 0 0 0
0 0 0 0
0 0 0 0
0 0 0 0
0 0 0 0
0 0 0 0
0 0 0 0
1325.34 -2175.5796 10078.847 6189414
2217.8 -3483.0972 16136.207 5927782
2314.2393 -3483.8569 16139.728 7704697
2410.3291 -3484.0518 16140.63 6717053
2506.2888 -3484.0505 16140.625 4807780
0 0 0 0
0 0 0 0
0 0 0 0
0 0 0 0
2986.2805 -3484.2708 16141.646 13619663
3078.8435 -3480.4236 16123.822 13619664
3152.8579 -3456.4736 16012.87 13553871
3248.0591 -3456.4736 16012.87 13619664
3369.6526 -3483.7603 16139.28 13685457
3468.4517 -3486.6216 16152.535 13685457
3494.9553 -3418.6128 15837.47 13685457
3585.3062 -3414.9861 15820.669 13685457
3587.0112 -3329.2688 15423.565 13685457
3678.7085 -3329.2688 15423.565 13685457
3633.2554 -3208.165 14862.525 13619662
4040.3572 -3482.9302 16135.435 13292495
4136.9424 -3483.4824 16137.992 9478319
4232.3584 -3483.0469 16135.976 6584971
4328.3623 -3483.104 16136.241 5928068
4424.5933 -3483.3374 16137.321 6783377
4521.9326 -3484.415 16142.314 5928066
4616.978 -3483.7168 16139.079 5664636
4712.9292 -3483.7168 16139.079 5599612
4808.6138 -3483.5237 16138.185 7573657
4904.3599 -3483.3813 16137.525 5267823
5001.1245 -3483.9546 16140.182 5072498
5097.6587 -3484.3489 16142.007 5401463
5194.0103 -3484.6057 16143.196 4940143
5289.5962 -3484.3489 16142.007 4085345
5387.4277 -3485.5535 16147.589 4545639
5482.8965 -3485.2151 16146.02 4611432
5578.0171 -3484.6704 16143.496 4545126
5673.8364 -3484.573 16143.045 5005162
5769.811 -3484.573 16143.045 3622738
5865.624 -3484.4768 16142.599 9741233
0 0 0 0
6056.2939 -3483.7432 16139.202 4675943
6153.1006 -3484.2273 16141.444 4544609
6248.1978 -3483.7432 16139.202 4413023
6343.5918 -3483.437 16137.783 6057339
6438.9985 -3483.1467 16136.438 5133927
5391.96 -2873.9365 13314.139 6777212
4864.564 -2555.3193 11838.074 6384761
5400.5 -2796.3843 12954.861 4214619
4988.7026 -2546.833 11798.761 12701139
6603.46 -3324.4536 15401.257 7437191
6695.0249 -3324.4536 15401.257 4281962
6786.5894 -3324.4536 15401.257 5729665
7207.2817 -3483.5325 16138.226 3557981
7305.4604 -3484.5974 16143.158 4150113
7400.3555 -3484.0889 16140.802 5203057
7496.3174 -3484.0889 16140.802 4413286
7591.9873 -3483.9546 16140.182 13095382
7687.8862 -3483.9282 16140.059 13226708
7783.6392 -3483.8369 16139.636 8357776
7879.5908 -3483.8354 16139.629 6846077
7974.4375 -3483.3516 16137.387 9673633
0 0 0 0
0 0 0 0
0 0 0 0
8893.6182 -3706.4905 17171.127 13750737
8897.7305 -3666.1221 16984.111 13750737
9006.9863 -3669.4954 16999.738 13750737
9156.8086 -3689.1377 17090.736 13750737
9258.418 -3689.1377 17090.736 13750737
8876.0557 -3498.3867 16207.041 13619151
8964.8301 -3495.4309 16193.347 13619152
9038.0889 -3486.5525 16152.215 11053225
9126.0381 -3483.4683 16137.927 13421773
9221.8721 -3483.4263 16137.733 13618640
9317.1113 -3483.1631 16136.515 13619152
9413.4658 -3483.3179 16137.23 7894908
9509.3965 -3483.3145 16137.215 6512742
9605.1514 -3483.2476 16136.904 12171199
8504.8252 -3053.7197 14147.023 4802389
6494.79 -2309.1655 10697.714 3552579
6558.3911 -2309.1655 10697.714 4078667
6797.9033 -2370.5078 10981.896 2894907
7253.7925 -2505.4185 11606.898 2171697
10180.711 -3483.2229 16136.792 3816778
10278.646 -3483.8997 16139.927 5198173
10374.205 -3483.7666 16139.311 3224894
10456.725 -3479.2969 16118.604 2896189
10552.555 -3479.2969 16118.604 1777194
9669.5215 -3159.4595 14636.887 1580842
10028.664 -3247.5808 15045.127 2041138
10429.97 -3347.677 15508.845 2501690
10522.174 -3347.677 15508.845 1514796
10281.432 -3242.6685 15022.37 922658
10295.55 -3219.1572 14913.449 988707
9203.7236 -2853.1995 13218.069 987938
9726.5068 -2989.7373 13850.611 1383210
10141.618 -3091.1643 14320.493 1120292
10033.106 -3032.6309 14049.324 2370102
9817.2617 -2942.8889 13633.576 2896957
9898.3174 -2942.8889 13633.576 3884108
9953.207 -2935.1729 13597.829 3226179
10034.05 -2935.1729 13597.829 2831678
10106.528 -2932.7458 13586.585 1383975
9822.8115 -2827.8147 13100.469 2172979
9697.3008 -2769.7209 12831.337 2041138
9736.3633 -2759.1724 12782.468 988449
9999.9062 -2811.9094 13026.784 1054242
9729.0127 -2714.7107 12576.49 988192
9803.7832 -2714.7107 12576.49 1646377
9853.2471 -2707.7563 12544.272 3028029
9804.9404 -2674.24 12389 1448996
10389.117 -2812.4431 13029.257 1580069
10466.58 -2812.4431 13029.257 2501171
10673.45 -2846.9604 13189.166 1185311
10422.269 -2759.6877 12784.856 395535
10163.979 -2671.8108 12377.746 3225148
10237.568 -2671.8108 12377.746 4277835
9605.626 -2488.9944 11530.81 4935763
9327.293 -2399.7463 11117.35 5922400
9683.6357 -2473.8965 11460.865 5790044
10684.982 -2710.6392 12557.628 6119009
9704.9375 -2444.9314 11326.679 2829872
9840.7715 -2462.0679 11406.067 3619644
9914.7559 -2463.6016 11413.172 4277831
9982.6104 -2463.6016 11413.172 6120293
10006.913 -2452.926 11363.715 5659486
10617.122 -2585.0496 11975.807 2698289
11327.574 -2739.6575 12692.062 856342
11418.015 -2743.2573 12708.738 1053463
11039.941 -2634.9858 12207.147 1251614
11316.206 -2683.2847 12430.902 1119770
14785.577 -3483.1892 16136.635 8949394
14883.106 -3483.562 16138.361 5790815
14979.043 -3483.5593 16138.349 5001558
15073.632 -3483.2456 16136.896 4541778
15171.301 -3483.6428 16138.737 3753289
15267.25 -3483.6428 16138.737 12504021
15362.774 -3483.5466 16138.29 11513275
15457.911 -3483.3638 16137.444 7501186
15420.425 -3453.4822 15999.011 7569553
15471.941 -3443.7771 15954.05 9804973
0 0 0 0
0 0 0 0
0 0 0 0
0 0 0 0
0 0 0 0
-6840.5991 -1600.7332 7625.7808 794123
-6922.2012 -1630.6356 7768.2344 1254670
-6876.0171 -1630.6356 7768.2344 2044441
-6779.5249 -1618.6245 7711.0146 2241564
-6720.5425 -1615.4663 7695.9692 1847063
-6687.8369 -1618.6245 7711.0146 465155
-6582.3633 -1604.0931 7641.7876 596487
-6503.355 -1595.8541 7602.5376 69890
-6351.4434 -1569.4845 7476.9155 858635
-6560.3032 -1632.521 7777.2163 858892
-6694.6548 -1677.7793 7992.8237 661515
-6683.2095 -1686.8846 8036.2007 1056272
-6909.1812 -1756.4783 8367.7402 727306
-6757.5483 -1730.3889 8243.4521 69376
-6708.5386 -1730.3889 8243.4521 1056269
-6290.583 -1634.5233 7786.7549 1188108
-6624.9165 -1734.1576 8261.4062 1714709
-6229.5889 -1642.8555 7826.4487 1649683
-5989.9741 -1591.5525 7582.0449 2373150
-6325.7539 -1693.5145 8067.7852 331012
-5851.5586 -1578.5334 7520.0234 992009
-6270.8105 -1704.6564 8120.8647 1123597
-6233.1753 -1707.5728 8134.7573 1386766
-6152.0776 -1698.5352 8091.7031 925957
-5277.2593 -1468.4885 6995.7773 1979668
-4248.8594 -1191.7108 5677.2271 1190662
-3994.5691 -1129.3595 5380.1899 2639129
-3924.2205 -1118.4261 5328.104 4284975
-3892.5432 -1118.4261 5328.104 3035414
-3818.9556 -1106.2853 5270.2661 3430684
-3829.2661 -1118.4485 5328.2109 3628829
-3758.9529 -1107.0698 5274.0034 3496474
-3765.9106 -1118.4485 5328.2109 4153893
-3769.7791 -1129.095 5378.9302 333568
-3757.5549 -1135.0625 5407.3589 1982480
-3791.2375 -1155.12 5502.9111 2704665
-3692.5967 -1134.8591 5406.3901 2375953
-3726.6138 -1155.3707 5504.106 2243857
-3763.1394 -1177.0304 5607.291 2835483
-3778.9419 -1192.5376 5681.166 70400
-3745.1658 -1192.5376 5681.166 136448
-3618.5471 -1162.7057 5539.0488 662279
-3547.7192 -1150.4169 5480.5059 399107
-3315.8018 -1085.1797 5169.7202 926980
-3303.4304 -1091.246 5198.6201 2375957
-3285.8601 -1095.6934 5219.8066 2507538
-3254.8269 -1095.6934 5219.8066 3758371
-3033.0862 -1030.8762 4911.0225 2575125
-2703.6833 -927.85156 4420.2202 3889963
0 0 0 0
-2651.1245 -927.85156 4420.2202 924169
-3212.1013 -1135.4397 5409.1553 2902302
-3239.3955 -1156.6682 5510.2866 2243602
-3409.0078 -1229.6661 5858.0439 1652490
-3221.8831 -1174.1638 5593.6348 2310167
-3188.627 -1174.1638 5593.6348 1847826
-3141.9651 -1169.1752 5569.8691 1584398
-3121.1716 -1173.8087 5591.9429 2243349
-3220.6912 -1224.2765 5832.3682 1256967
-3156.0652 -1212.7675 5777.54 2638363
-3121.7163 -1212.7675 5777.54 3296805
-3076.27 -1208.4083 5756.7734 2705439
-3247.46 -1290.0067 6145.5024 3034405
-3343.6577 -1343.3336 6399.5479 3166250
-2963.6108 -1204.3518 5737.4482 3495473
-2806.4153 -1153.7502 5496.3857 2443299
0 0 0 0
0 0 0 0
0 0 0 0
0 0 0 0
0 0 0 0
-3104.3708 -1372.1027 6536.6016 13750225
-3069.3362 -1373.8158 6544.7627 13750224
-3017.7212 -1368.0564 6517.3252 13619151
-2875.1079 -1320.3572 6290.0894 13422290
0 0 0 0
0 0 0 0
0 0 0 0
0 0 0 0
0 0 0 0
-1922.6713 -957.70325 4562.4316 135938
-2118.593 -1070.3951 5099.2881 2965285
-2321.6013 -1189.9913 5669.0356 2308380
-2392.9358 -1244.6243 5929.3037 2767912
-2613.4517 -1379.6442 6572.5288 923410
0 0 0 0
0 0 0 0
0 0 0 0
0 0 0 0
0 0 0 0
0 0 0 0
0 0 0 0
0 0 0 0
0 0 0 0
0 0 0 0
0 0 0 0
0 0 0 0
0 0 0 0
-1604.2671 -1071.1012 5102.6519 2434855
-1573.9303 -1071.1012 5102.6519 592142
-1543.5938 -1071.1012 5102.6519 461071
-1380.9683 -977.4657 4656.5786 2106152
0 0 0 0
0 0 0 0
-1349.2361 -1016.1165 4840.708 329989
-1406.1331 -1082.046 5154.792 856076
-1359.213 -1069.2443 5093.8052 3883320
-1319.0698 -1061.3116 5056.0151 2440723
0 0 0 0
-1098.4238 -925.98529 4411.3296 201728
-1109.8308 -958.48688 4566.165 2111506
-1082.6837 -958.48688 4566.165 1584650
-1055.5366 -958.48688 4566.165 2308117
-1013.1486 -944.28198 4498.4937 1057802
-972.3855 -930.86237 4434.5635 465922
-941.72473 -926.63519 4414.4253 993285
-917.58319 -928.76434 4424.5684 532481
-874.30676 -911.07935 4340.3184 400896
-846.42084 -908.8443 4329.6709 532992
-803.55725 -889.88226 4239.3374 1848846
0 0 0 0
-753.14917 -889.88226 4239.3374 401920
-743.40845 -908.78558 4329.3911 1060866
-702.80511 -889.96338 4239.7236 1784842
-685.82037 -900.76172 4291.166 2574101
-691.79224 -943.71075 4495.7725 1850376
-665.06366 -943.71075 4495.7725 1982219
-658.74695 -973.8877 4639.5332 1718791
-688.32092 -1062.0815 5059.6826 1192705
-658.23969 -1062.0815 5059.6826 1719048
-619.93536 -1048.178 4993.4473 1521670
-545.89594 -969.41656 4618.2329 2310932
-508.8103 -951.41162 4532.459 665602
-568.65497 -1122.7762 5348.8276 1652241
-536.85468 -1122.7762 5348.8276 1257229
0 0 0 0
0 0 0 0
-395.43207 -1005.7261 4791.2095 1848596
-399.59399 -1095.2048 5217.4795 729861
-368.57462 -1095.2048 5217.4795 729604
-337.55527 -1095.2048 5217.4795 1716497
-310.03094 -1107.6921 5276.9683 598020
-278.6579 -1107.6921 5276.9683 1387790
-195.54956 -875.94812 4172.9561 928005
0 0 0 0
0 0 0 0
-115.15591 -832.80579 3967.4287 862724
0 0 0 0
-70.969086 -869.41187 4141.8174 3889964
-51.690659 -969.69763 4619.5723 5996366
-24.226015 -969.69763 4619.5723 1654284
3.147146 -942.30634 4489.082 2309914
29.860929 -943.09399 4492.8345 4219189
54.801437 -913.57629 4352.2139 1784852
76.991646 -871.84857 4153.4258 797958
0 0 0 0
0 0 0 0
0 0 0 0
0 0 0 0
0 0 0 0
0 0 0 0
0 0 0 0
950.98724 -3020.0459 14387.288 3034394
1162.5819 -3387.3328 16137.018 3230250
1116.8885 -3006.1265 14320.978 3230250
0 0 0 0
0 0 0 0
0 0 0 0
0 0 0 0
0 0 0 0
0 0 0 0
0 0 0 0
1265.4185 -2115.6577 10078.847 7703168
2121.8452 -3387.1294 16136.049 6715762
2218.3003 -3387.9265 16139.846 5334115
2314.5225 -3388.3164 16141.703 5334888
2410.4893 -3388.3164 16141.703 5334122
2506.7148 -3388.666 16143.368 4741217
0 0 0 0
0 0 0 0
0 0 0 0
0 0 0 0
2985.3423 -3387.2402 16136.576 13553871
3082.3911 -3388.4631 16142.402 13290698
3177.915 -3387.9863 16140.132 13553871
3273.7002 -3387.8076 16139.28 13553871
3369.793 -3387.9487 16139.952 13685457
3487.2134 -3408.9312 16239.91 13685457
3582.7153 -3407.9331 16235.156 13685457
3659.3176 -3389.4819 16147.256 13685457
3679.3645 -3320.9277 15820.669 13685457
3731.9485 -3284.4275 15646.783 13685457
3888.332 -3338.8323 15905.965 13619920
4040.9978 -3387.5374 16137.992 13488340
4136.9424 -3387.5374 16137.992 13160660
4232.4424 -3387.1807 16136.294 12043726
4328.5269 -3387.2981 16136.854 6125442
4425.1914 -3387.8545 16139.503 5599356
4525.1177 -3390.8311 16153.684 5664893
4618.1182 -3388.6025 16143.065 5994113
4714.0439 -3388.5667 16142.896 6323332
4809.085 -3387.9094 16139.765 4216926
4904.3599 -3387.4395 16137.525 12108227
5000.8452 -3387.8076 16139.28 5005934
5097.2358 -3388.0989 16140.668 4545383
5194.1934 -3388.7493 16143.766 5005676
5291.4258 -3389.5518 16147.589 4019294
5391.4146 -3392.0603 16159.54 4545895
5487.5645 -3392.1079 16159.766 3953245
5578.6343 -3389.0676 16145.282 4545636
5673.6812 -3388.5054 16142.604 4019038
5768.6909 -3387.9402 16139.911 3162447
5864.481 -3387.844 16139.453 8688291
5960.7656 -3388.0325 16140.351 4412000
6056.5605 -3387.9407 16139.913 3622738
6152.5166 -3387.9407 16139.913 6386552
6248.4736 -3387.9407 16139.913 6518137
6344.1152 -3387.7727 16139.113 5201508
6439.0249 -3387.2246 16136.502 7700360
5366.9326 -2781.8081 13252.34 6582650
6032.4683 -3081.5327 14680.207 5399916
5825.3047 -2933.27 13973.894 4215644
5908.3833 -2933.27 13973.894 6453128
6910.0396 -3382.9827 16116.293 9148330
7015.3896 -3387.5864 16138.226 4477800
7112.0688 -3387.9358 16139.89 4674402
7208.2808 -3388.0554 16140.461 4082526
7304.8125 -3388.321 16141.726 4412517
7400.936 -3388.3928 16142.067 4149345
7496.8184 -3388.3535 16141.88 4282725
7591.9292 -3387.9712 16140.059 8161428
7687.8862 -3387.9712 16140.059 7043977
7784.5439 -3388.2759 16141.51 4478563
7880.2896 -3388.1814 16141.06 6321281
7975.021 -3387.658 16138.566 4939370
8069.8296 -3387.1797 16136.288 8619662
8165.5322 -3387.0835 16135.83 13488595
8261.4648 -3387.0835 16135.83 13488591
8540.2168 -3461.1772 16488.807 13750481
8897.7305 -3565.1467 16984.111 13750737
8998.7061 -3565.1467 16984.111 13750737
8735.4688 -3422.4529 16304.327 13750737
