# .PCD v0.7 - Point Cloud Data file format
VERSION 0.7
FIELDS x y z rgb
SIZE 4 4 4 4
TYPE F F F U
COUNT 1 1 1 1
WIDTH 1390
HEIGHT 1
VIEWPOINT 0 0 0 1 0 0 0
POINTS 1390
DATA ascii
-3632.8604 -1106.8655 5273.0298 71936
-3626.1309 -1114.432 5309.0767 3099939
-3570.1611 -1106.8655 5273.0298 2441755
-3489.259 -1091.3665 5199.1938 794634
-3745.9453 -1182.1248 5631.5601 69632
-4282.6636 -1363.6879 6496.5142 2560
-4230.1343 -1359.2198 6475.2285 200449
-3938.728 -1277.209 6084.5347 464131
-3705.1599 -1212.6069 5776.7749 265729
-3557.0945 -1175.0406 5597.812 2305308
-3451.3774 -1150.8862 5482.7417 2177299
-3357.937 -1130.4039 5385.1655 1322501
-3325.9207 -1130.4039 5385.1655 1782539
-3376.1262 -1158.621 5519.5894 465664
-3340.4502 -1157.6295 5514.8667 465664
-3307.4177 -1157.5438 5514.458 860423
-3274.6328 -1157.5438 5514.458 3887410
-3261.3906 -1164.5219 5547.7007 1387018
-3078.5588 -1110.4696 5290.1997 269056
-2986.2976 -1088.3085 5184.626 1717003
-2955.4734 -1088.3085 5184.626 1651209
-2876.8826 -1070.5338 5099.9482 1651721
-2890.1375 -1086.9215 5178.0186 1718025
-3372.0154 -1281.7992 6106.4023 1389063
-3335.7109 -1281.7992 6106.4023 1717774
-3134.6082 -1217.776 5801.3999 269568
-3154.0342 -1238.9554 5902.2974 3584
-3118.9431 -1238.9554 5902.2974 72704
-3317.4211 -1332.7928 6349.3325 994309
-3211.8076 -1305.214 6217.9487 1718284
-2816.6245 -1157.9473 5516.3804 1717773
-2792.4973 -1161.5533 5533.5596 1059331
-2867.0664 -1206.788 5749.0537 599043
-2887.9417 -1230.241 5860.7822 1191176
-2853.0977 -1230.241 5860.7822 730627
-2760.3911 -1204.9824 5740.4521 1059081
-3054.2698 -1349.9585 6431.1084 598020
-2979.9465 -1333.8055 6354.1567 795398
-2760.4006 -1251.4025 5961.5938 1321485
-2691.0754 -1235.8425 5887.4678 1453327
-2854.4531 -1328.1469 6327.1992 925705
-2525.7229 -1190.8861 5673.2983 2701605
0 0 0 0
0 0 0 0
-2303.3215 -1131.3483 5389.6646 12033475
-2284.3333 -1137.8511 5420.6431 11704253
-2172.0024 -1097.3796 5227.8403 10786498
0 0 0 0
0 0 0 0
0 0 0 0
0 0 0 0
0 0 0 0
0 0 0 0
-1716.8723 -963.99213 4592.3916 3163951
-1799.9761 -1026.9854 4892.4868 71936
-1861.6257 -1079.6061 5143.168 1585428
-1975.9504 -1165.042 5550.1787 1782548
-1981.078 -1187.9027 5659.0854 1914645
-1992.1814 -1215.1982 5789.1201 1848342
0 0 0 0
0 0 0 0
0 0 0 0
0 0 0 0
0 0 0 0
0 0 0 0
0 0 0 0
0 0 0 0
-1391.0555 -1004.7481 4786.5503 658710
-1453.0092 -1071.4152 5104.147 1776164
0 0 0 0
0 0 0 0
-1327.2976 -1044.1376 4974.1987 198929
-1297.7246 -1044.1376 4974.1987 395539
0 0 0 0
0 0 0 0
0 0 0 0
-1133.4404 -1003.4212 4780.229 67845
-1145.103 -1039.8184 4953.6221 793096
-1115.6523 -1039.8184 4953.6221 1255692
-1026.8392 -982.99072 4682.8994 2375191
0 0 0 0
0 0 0 0
-822.30536 -856.89075 4082.168 1385743
-798.03571 -856.89075 4082.168 794885
-720.37006 -797.75842 3800.4656 1189897
0 0 0 0
-763.70721 -902.35718 4298.7666 1915912
-741.95343 -907.00684 4320.9175 864000
-776.78571 -983.6452 4686.0171 1916426
-750.37769 -985.55176 4695.1001 1258753
-688.90784 -939.776 4477.0273 535040
-660.19531 -936.8028 4462.8633 1191936
-633.66241 -936.8028 4462.8633 1651974
-610.80676 -942.47693 4489.8945 333824
-562.00439 -906.8042 4319.9521 793352
-547.77124 -926.164 4412.1807 334848
-514.01312 -912.79828 4348.5073 2309912
-488.16006 -912.79828 4348.5073 1059845
-458.00125 -904.29688 4308.0073 796416
-432.38895 -904.29688 4308.0073 204288
-407.76389 -906.49164 4318.4629 201472
-384.70648 -912.70044 4348.0415 463619
-363.19165 -923.72717 4400.5718 862210
-358.45801 -982.45959 4680.3691 467712
-359.57495 -1068.4628 5090.082 2112527
-359.12732 -1165.1959 5550.9121 1454852
-337.1666 -1204.6437 5738.8384 3364876
-297.82898 -1183.899 5640.0127 1522944
-255.47182 -1144.3649 5451.6748 2246912
-217.69974 -1116.8647 5320.666 3430669
-209.61681 -1258.2229 5994.0859 1126402
-173.98029 -1258.2229 5994.0859 2508314
-136.03125 -1237.1907 5893.8901 1652492
-94.005234 -1151.6179 5486.2275 1915152
-59.943966 -1124.5267 5357.167 2178324
-27.242743 -1090.4486 5194.8213 399108
3.536871 -1058.9962 5044.9844 796422
29.843805 -942.55328 4490.2583 533505
61.253315 -1021.1334 4864.6084 2639134
96.866081 -1096.9054 5225.5811 1783824
121.8665 -1044.8859 4977.7637 2310423
147.14836 -1015.1363 4836.0386 2310680
175.89995 -1015.1363 4836.0386 2968864
223.68102 -1109.5284 5285.7163 3758379
255.10609 -1109.5284 5285.7163 5798727
253.12997 -980.18988 4669.5562 1323791
269.12167 -939.11731 4473.8892 1324046
282.7684 -897.98633 4277.9443 336640
295.90298 -862.15167 4107.2305 4679477
325.7348 -876.72137 4176.6396 1851404
0 0 0 0
0 0 0 0
0 0 0 0
0 0 0 0
0 0 0 0
0 0 0 0
0 0 0 0
0 0 0 0
0 0 0 0
2217.9226 -3387.3499 16137.099 4939613
2314.0559 -3387.6333 16138.45 3822149
2410.1362 -3387.8198 16139.339 5336134
2506.2468 -3388.0334 16140.355 5398614
0 0 0 0
0 0 0 0
0 0 0 0
0 0 0 0
0 0 0 0
0 0 0 0
0 0 0 0
0 0 0 0
0 0 0 0
0 0 0 0
0 0 0 0
0 0 0 0
0 0 0 0
3844.9932 -3383.916 16120.74 13554382
3941.8169 -3384.7588 16124.755 13619662
4038.4243 -3385.3801 16127.715 13290699
4134.3081 -3385.3801 16127.715 13488078
4230.0415 -3385.2598 16127.142 13553871
4312.0547 -3374.408 16075.444 13685457
4389.8506 -3360.7979 16010.607 13685457
4446.5151 -3331.9316 15873.09 13685457
4540.8853 -3331.9316 15873.09 13685457
4553.4131 -3273.1016 15592.828 13685457
4630.2866 -3261.9497 15539.701 13685201
4704.8232 -3249.6196 15480.962 13685203
4999.9102 -3387.1741 16136.261 13488338
5096.269 -3387.4561 16137.604 13159629
5192.2578 -3387.4866 16137.75 8096162
5288.6025 -3387.7437 16138.975 6650768
5384.3501 -3387.6155 16138.364 6585998
5473.1045 -3383.1694 16117.185 6059653
5568.9258 -3383.1694 16117.185 5928067
5671.478 -3387.1897 16136.335 5730686
5768.7437 -3387.9712 16140.059 5599355
5865.0273 -3388.1594 16140.956 9086389
5960.6035 -3387.9402 16139.911 3755358
6056.5601 -3387.9402 16139.911 4809069
6152.5161 -3387.9402 16139.911 5993088
6248.3521 -3387.8748 16139.601 5400436
6344.3047 -3387.874 16139.596 4150626
6430.8091 -3382.9028 16115.914 4610919
6534.9424 -3387.2148 16136.457 4413542
6631.4297 -3387.4971 16137.8 4216420
6727.561 -3387.5913 16138.25 4414310
6824.0454 -3387.8584 16139.521 4413541
6920.02 -3387.8689 16139.571 8886444
7014.8501 -3387.3257 16136.984 11580878
7110.8726 -3387.3655 16137.174 3291981
7206.7266 -3387.3252 16136.981 5004136
7302.6655 -3387.3252 16136.981 5728633
6280.439 -2875.3921 13698.168 3359824
6253.3179 -2826.3262 13464.421 6782351
6333.3682 -2826.3262 13464.421 11975119
5870.937 -2587.2607 12325.529 7236995
4809.4087 -2093.3281 9972.4688 4409948
0 0 0 0
0 0 0 0
0 0 0 0
8103.1704 -3361.2158 16012.598 2966876
8262.8262 -3387.6418 16138.49 7374750
8359.7373 -3388.032 16140.349 3162711
8455.751 -3388.054 16140.454 3559265
8551.7109 -3388.054 16140.454 5928071
8647.6699 -3388.054 16140.454 7112089
8743.6602 -3388.0659 16140.511 7701140
8839.7295 -3388.1082 16140.712 13489108
8936.2402 -3388.3167 16141.704 13488852
9032.207 -3388.3167 16141.704 4872037
9127.8096 -3388.1814 16141.06 8687261
9222.4922 -3387.7107 16138.818 5987951
9255.8672 -3364.9617 16030.444 13751248
9351.1729 -3364.9617 16030.444 13684943
9475.0674 -3375.1458 16078.959 13750735
9694.2207 -3418.7197 16286.542 13750737
9738.8262 -3400.4851 16199.674 13750737
9843.4141 -3403.3467 16213.307 13750737
9989.4668 -3420.3501 16294.311 13750737
10086.342 -3420.3501 16294.311 13750737
9941.6348 -3339.208 15907.754 13750737
10136.499 -3372.5754 16066.714 13684944
10277.252 -3387.4839 16137.738 13750737
10372.852 -3387.3721 16137.205 13684944
10468.792 -3387.3721 16137.205 13684944
10564.727 -3387.3704 16137.195 13684944
10660.371 -3387.2764 16136.748 13488336
10756.711 -3387.4031 16137.353 13553873
10852.666 -3387.4077 16137.374 13422035
10948.607 -3387.4077 16137.374 4144711
11043.554 -3387.1023 16135.92 4013385
11139.479 -3387.1001 16135.909 3619143
8268.2676 -2492.6057 11874.6 2501175
8338.8652 -2492.6057 11874.6 4079952
8459.082 -2507.3127 11944.664 2895932
8397.1562 -2468.2368 11758.509 3553608
8601.1104 -2507.3127 11944.664 1645867
9436.1572 -2728.2124 12997.014 2500919
9513.4277 -2728.2124 12997.014 2567738
9288.9404 -2642.3726 12588.079 3093314
10079.414 -2844.3181 13550.134 1646381
9245.459 -2588.2969 12330.466 1514797
9318.7666 -2588.2969 12330.466 1514797
9406.2109 -2592.1921 12349.023 1712176
9781.9531 -2674.8625 12742.858 1712176
9714.5908 -2636.0266 12557.848 1119530
9982.877 -2688.166 12806.235 988453
9487.9902 -2535.5659 12079.26 1054246
9710.084 -2575.4248 12269.145 856866
10358.008 -2726.7908 12990.241 1777711
10435.238 -2726.7908 12990.241 2501690
10830.718 -2809.3401 13383.501 1711916
11140.046 -2868.502 13665.344 2435896
11221.29 -2868.502 13665.344 3028287
11689.511 -2966.7139 14133.219 2370357
11440.2 -2882.7192 13733.074 2567736
11004.79 -2753.3538 13116.785 1712171
10338.846 -2568.5356 12236.325 2830910
10453.943 -2578.9834 12286.097 3883342
10971.974 -2687.9995 12805.442 4410200
11233.044 -2732.9949 13019.797 857124
10661.484 -2576.1826 12272.754 922660
10338.891 -2481.2512 11820.509 988451
10273.199 -2448.8406 11666.106 791072
10151.419 -2403.584 11450.507 857120
10366.847 -2438.2405 11615.607 2040879
10765.534 -2515.2549 11982.499 1383204
11557.65 -2682.5732 12779.592 4803926
11251.691 -2594.5032 12360.032 2040620
11316.635 -2592.5466 12350.712 1974828
11185.875 -2546.0703 12129.302 1448225
11030.447 -2494.6106 11884.151 3422013
11177.98 -2511.8867 11966.453 5330008
11713.704 -2615.6255 12460.657 5526873
10973.138 -2434.8608 11599.508 2500397
11042.101 -2434.8608 11599.508 4210759
11982.652 -2625.8596 12509.412 1513249
12521.575 -2727.033 12991.395 1250078
14541.21 -3147.4678 14994.317 1579044
0 0 0 0
0 0 0 0
0 0 0 0
0 0 0 0
0 0 0 0
0 0 0 0
-6576.6001 -1505.3451 7380.3936 332295
-6688.2095 -1541.1744 7556.0571 200709
-6643.2866 -1541.1744 7556.0571 266246
-6474.9238 -1512.3428 7414.7017 989969
-6561.1587 -1542.9894 7564.9556 857613
-6516.1826 -1542.9894 7564.9556 265989
-6513.4131 -1553.053 7614.2954 200707
-6606.186 -1586.198 7776.7983 529416
-6475.8618 -1565.8654 7677.1113 661000
-6378.2227 -1553.2032 7615.0317 792840
-6206.0771 -1522.0869 7462.4751 859401
-6138.8047 -1516.4286 7434.7334 1385489
-6327.1069 -1574.2791 7718.3623 1122317
-6344.3062 -1590.0907 7795.8838 924938
-6185.0986 -1561.5964 7656.1821 1714201
-6264.5093 -1593.3719 7811.9707 660744
-6311.3262 -1617.2701 7929.1382 2560
-6383.7227 -1648.1318 8080.4468 331781
-6496.8931 -1690.0686 8286.0537 529416
-6485.0176 -1699.8687 8334.1016 397830
-6531.5513 -1725.2477 8458.5303 200451
-6372.3491 -1696.2559 8316.3896 463621
-6386.4048 -1713.2908 8399.9082 989709
-6448.4258 -1743.5636 8548.3291 727047
-6339.4473 -1727.714 8470.6221 398083
-6263.3301 -1720.6381 8435.9297 332033
-6153.4009 -1704.0844 8354.7705 1056522
-5852.0103 -1633.8075 8010.2178 1517072
-5759.4771 -1621.1663 7948.2402 596484
-5709.4297 -1620.3738 7944.355 1123082
-5326.5742 -1524.3269 7473.457 1583632
-5282.1426 -1524.3269 7473.457 1452302
-4650.6455 -1353.4736 6635.7993 1321224
-4027.2651 -1182.0795 5795.4893 3821867
-3992.8096 -1182.0795 5795.4893 6914906
-3715.3015 -1109.4971 5439.6328 5336377
-3570.1611 -1075.5157 5273.0298 6060108
-3607.7681 -1096.473 5375.7788 6983011
-3745.9453 -1148.6436 5631.5601 3072
-3730.48 -1154.2177 5658.8887 1056267
-3601.2517 -1124.3745 5512.5737 2306595
-3584.0537 -1129.2822 5536.6353 795910
-3669.8955 -1167.0481 5721.7935 6061143
-3405.801 -1093.1978 5359.7207 3495467
-3304.8206 -1070.8035 5249.9263 4614701
-3312.615 -1083.5627 5312.4824 1060099
-3377.8225 -1115.5283 5469.2026 2046729
-3358.0757 -1119.7861 5490.0781 1650952
-3325.4353 -1119.7861 5490.0781 663810
-3307.4177 -1124.7588 5514.458 2110740
-3316.6167 -1139.1793 5585.1587 1716497
-3299.1404 -1144.6365 5611.9141 860676
-3093.594 -1084.2876 5316.0361 1321480
-3061.9885 -1084.2876 5316.0361 926721
-2951.707 -1056.1368 5178.0186 1782797
-2876.8826 -1040.2131 5099.9482 993796
-2846.562 -1040.2131 5099.9482 2574098
-3368.2295 -1244.0966 6099.5464 2771474
-2965.5315 -1107.2765 5428.7461 2902552
0 0 0 0
0 0 0 0
-3098.9844 -1196.1608 5864.5269 532738
-3014.1711 -1176.6626 5768.9316 1848849
-2979.8733 -1176.6626 5768.9316 1651723
-2816.6245 -1125.1509 5516.3804 1651467
-2843.7454 -1149.3679 5635.1113 795906
-2849.5469 -1165.4427 5713.9233 927750
-2887.9417 -1195.397 5860.7822 795907
-2818.782 -1181.0193 5790.2915 598786
-2784.3569 -1181.0193 5790.2915 1190926
-2789.1477 -1197.8613 5872.8643 1189391
-2979.9465 -1296.0283 6354.1567 795912
-2716.0112 -1196.4054 5865.7266 795403
-2672.0149 -1192.3345 5845.7676 1518105
-2634.5596 -1191.1135 5839.7817 2965555
-2525.7229 -1157.1567 5673.2983 989205
0 0 0 0
0 0 0 0
0 0 0 0
-2298.7271 -1112.5903 5454.7988 11642563
0 0 0 0
0 0 0 0
0 0 0 0
0 0 0 0
0 0 0 0
0 0 0 0
0 0 0 0
-2032.0731 -1108.656 5435.5093 597763
-1835.0079 -1017.3196 4987.7061 266499
-1861.6257 -1049.0284 5143.168 464647
-1848.9065 -1059.2598 5193.3296 1320470
-1958.8835 -1141.3264 5595.6855 990991
-2098.054 -1243.5317 6096.7773 1911841
-1899.8605 -1145.8575 5617.9009 1647900
0 0 0 0
0 0 0 0
0 0 0 0
0 0 0 0
0 0 0 0
0 0 0 0
-1408.3837 -968.63641 4749.0225 1029
-1380.1494 -968.63641 4749.0225 1382686
-1417.3727 -1015.5362 4978.9624 1119000
-1344.7662 -984.06616 4824.6714 12567494
-1316.0822 -984.06616 4824.6714 197895
-1327.2976 -1014.5646 4974.1987 461582
-1312.1547 -1025.8459 5029.5093 263690
0 0 0 0
0 0 0 0
-1118.1234 -938.29877 4600.2832 67848
-1110.0494 -954.88019 4681.5786 528389
-1121.7114 -989.72839 4852.4321 2769438
-1099.6195 -995.84784 4882.4346 4546871
-1025.0417 -953.47772 4674.7026 1914639
0 0 0 0
0 0 0 0
0 0 0 0
-868.15686 -905.78119 4440.8564 596742
-847.48029 -911.94226 4471.063 4018489
-827.64069 -919.43219 4507.7842 1716503
-800.8407 -919.43219 4507.7842 730374
-795.81134 -945.29211 4634.5703 2375705
-782.23102 -962.4856 4718.8662 663811
-754.82288 -963.3111 4722.9136 136448
-708.09088 -938.5863 4601.6929 861698
-680.73248 -938.5863 4601.6929 993792
-653.37421 -938.5863 4601.6929 1059330
-646.70477 -969.60522 4753.7725 201472
-584.1131 -915.78326 4489.8945 400384
-547.77124 -899.93231 4412.1807 993541
-514.01312 -886.94513 4348.5073 3297316
-488.16006 -886.94513 4348.5073 1060868
-458.24017 -879.14301 4310.2549 1256971
-437.39728 -888.8623 4357.9067 402688
-406.09671 -877.21576 4300.8062 1785355
-382.08942 -880.81714 4318.4629 4746529
-356.41495 -880.81714 4318.4629 1455369
-390.08115 -1038.8511 5093.2705 336640
-395.07126 -1140.6892 5592.5615 2968854
-364.89188 -1150.3676 5640.0127 2509066
-337.1666 -1170.5247 5738.8384 2246913
-301.08429 -1162.9413 5701.6587 2641667
-267.18634 -1162.9413 5701.6587 4615708
-270.87424 -1350.3065 6620.2715 2773259
-231.53729 -1350.4371 6620.9121 1192448
-178.15912 -1251.9517 6138.0576 1916427
-136.03125 -1202.1499 5893.8901 1651975
-99.468277 -1184.0306 5805.0552 1455367
-64.955612 -1184.0306 5805.0552 1126660
-29.673891 -1154.1198 5658.4087 3429669
3.6510298 -1062.2153 5207.8203 2640412
29.870432 -916.6745 4494.2642 336129
68.271881 -1105.9021 5422.0078 2442524
100.50723 -1105.9021 5422.0078 2442780
132.74257 -1105.9021 5422.0078 1785360
164.92865 -1105.5719 5420.3887 3758637
194.68031 -1091.6982 5352.3691 6587993
226.50163 -1091.6982 5352.3691 2377238
259.63876 -1097.2589 5379.6318 5074749
286.53113 -1078.1034 5285.7163 2114571
349.89777 -1186.4086 5816.7144 5141802
295.72015 -912.51874 4473.8892 1457410
0 0 0 0
0 0 0 0
0 0 0 0
0 0 0 0
0 0 0 0
0 0 0 0
0 0 0 0
0 0 0 0
0 0 0 0
0 0 0 0
1578.3234 -2448.1392 12002.716 2241843
2218.1084 -3291.6858 16138.45 2899260
2314.27 -3291.9902 16139.942 5992042
2410.4219 -3292.2573 16141.251 8163205
2506.1829 -3291.9902 16139.942 7176052
2601.698 -3291.4321 16137.205 4807251
0 0 0 0
0 0 0 0
0 0 0 0
0 0 0 0
0 0 0 0
0 0 0 0
0 0 0 0
0 0 0 0
0 0 0 0
0 0 0 0
0 0 0 0
0 0 0 0
3845.9507 -3288.8926 16124.755 13554128
3945.1831 -3291.7012 16138.524 13553613
4040.947 -3291.551 16137.789 13225162
4136.3989 -3291.1602 16135.871 13488078
4230.5869 -3289.8035 16129.221 13619664
4325.5342 -3289.0845 16125.696 13685457
4402.1929 -3274.792 16055.623 13685457
4480.3179 -3262.1738 15993.759 13685457
4548.0576 -3242.6755 15898.162 13685457
4601.5327 -3214.0078 15757.611 13685457
4666.9014 -3194.6255 15662.583 13685201
4760.02 -3194.6255 15662.583 13619409
5000.0938 -3291.3604 16136.854 13619155
5096.3145 -3291.5432 16137.75 12895946
5192.2578 -3291.5432 16137.75 13094610
5288.6025 -3291.793 16138.975 7768986
5384.3501 -3291.6685 16138.364 5993602
5473.1045 -3287.3484 16117.185 5599872
5568.5977 -3287.1548 16116.235 5731199
5665.1035 -3287.5554 16118.199 5665406
5768.6924 -3291.9846 16139.915 5994628
5863.8345 -3291.5276 16137.674 6059142
5960.1064 -3291.7097 16138.565 8754073
6056.4434 -3291.9207 16139.601 4940142
6152.396 -3291.9197 16139.596 4545640
6248.3486 -3291.9185 16139.591 4676714
6343.2798 -3291.3879 16136.989 3887454
6430.8091 -3287.0894 16115.914 4545641
6526.7378 -3287.1475 16116.198 3888224
6631.2495 -3291.4641 16137.361 4348517
6727.561 -3291.645 16138.25 4086115
6823.5073 -3291.645 16138.25 2702667
6919.6367 -3291.7319 16138.676 11911115
7015.2417 -3291.5706 16137.886 3161674
7110.8726 -3291.4258 16137.174 3359566
7206.7266 -3291.3862 16136.981 5004903
7153.9014 -3224.3369 15808.252 5992565
6488.3823 -2886.4597 14151.711 6846846
6361.8779 -2793.9526 13698.168 4149337
6557.5869 -2843.5024 13941.1 11386052
6778.7407 -2902.7104 14231.385 4740961
5944.2158 -2513.9819 12325.529 5005159
0 0 0 0
0 0 0 0
8069.6729 -3291.1809 16135.975 7764882
8166.3643 -3291.4866 16137.474 2503753
8262.3662 -3291.5107 16137.591 3293784
8359.7373 -3292.073 16140.349 3096919
8456.4463 -3292.3655 16141.782 3689309
8551.7402 -3292.1062 16140.511 3689820
8647.6699 -3292.0945 16140.454 2439506
8743.4893 -3292.0422 16140.196 13226973
8840.3516 -3292.3789 16141.848 12633295
8936.5479 -3292.4629 16142.26 7107454
9032.5176 -3292.4629 16142.26 4873575
9126.9062 -3291.8923 16139.462 7241865
9222.4922 -3291.761 16138.818 2042676
9317.4502 -3291.4104 16137.101 14015445
9351.1729 -3269.6562 16030.444 13619663
9446.4775 -3269.6562 16030.444 13684943
9632.3701 -3300.6978 16182.633 13684945
9728.5811 -3300.6978 16182.633 13750737
9816.0879 -3297.7739 16168.297 13750737
9939.8066 -3306.9541 16213.307 13750737
9847.0586 -3244.6318 15907.754 13750737
9844.2412 -3212.8459 15751.913 13684944
9935.8535 -3212.187 15748.684 13487566
10277.255 -3291.5417 16137.743 13092808
10373.197 -3291.5417 16137.742 13224650
10469.141 -3291.5417 16137.742 11315883
10564.907 -3291.4866 16137.473 13488078
10660.667 -3291.4299 16137.195 11053737
10756.606 -3291.4299 16137.195 8882576
10853.27 -3291.6492 16138.27 12106434
10949.418 -3291.71 16138.568 6315625
11045.366 -3291.71 16138.568 4407887
8967.4482 -2649.4397 12989.65 3420993
7987.9771 -2339.9028 11472.057 3421764
8168.3086 -2372.4697 11631.726 2632505
8459.082 -2436.2986 11944.664 1974831
8530.0967 -2436.2986 11944.664 2369334
8923.8262 -2527.709 12392.831 4145999
9436.1572 -2650.9414 12997.014 4869722
9384.7949 -2615.0977 12821.278 3093312
9461.0205 -2615.0977 12821.278 2961726
10228.399 -2804.6106 13750.421 1514539
10561.345 -2872.9414 14085.434 1909810
9505.5225 -2565.3909 12577.577 2041141
9565.2715 -2561.3667 12557.848 2106933
9781.9531 -2599.1025 12742.858 1843761
9714.5908 -2561.3667 12557.848 1185832
10152.607 -2656.4395 13023.969 725281
9046.708 -2349.1633 11517.458 857124
9710.084 -2502.4814 12269.145 725280
9994.9854 -2556.7 12534.967 1383209
10435.238 -2649.5601 12990.241 856864
11095.956 -2796.6221 13711.256 988193
11168.041 -2794.2622 13699.686 3160131
11221.29 -2787.2578 13665.344 3291972
11330.938 -2794.2622 13699.686 4212818
11440.2 -2801.0723 13733.074 2765628
11004.79 -2675.3708 13116.785 2896959
10819.71 -2611.8677 12805.442 2370102
10895.842 -2611.8677 12805.442 3620170
10880.447 -2590.0796 12698.621 856351
10955.944 -2590.0796 12698.621 987682
10661.484 -2503.2175 12272.754 987681
9873.9209 -2302.5466 11288.906 1053218
9941.0361 -2302.5466 11288.906 987424
9991.3916 -2298.6907 11270.001 1580073
10366.847 -2369.1824 11615.607 1316899
10435.904 -2369.1824 11615.607 1777450
11178.208 -2521.0193 12360.032 1580071
12118.866 -2715.3159 13312.628 2237999
11325.176 -2521.0193 12360.032 1251616
11013.293 -2435.7888 11942.164 1054493
11030.447 -2423.9561 11884.151 3093560
11059.687 -2414.9131 11839.815 5724768
10422.671 -2261.4253 11087.298 5067093
10436.367 -2250.1663 11032.097 5132116
11042.101 -2365.8987 11599.508 5066323
11207.354 -2386.4019 11700.031 3684671
12057.023 -2551.4875 12509.412 2236970
12012.34 -2526.4478 12386.646 2894902
0 0 0 0
0 0 0 0
0 0 0 0
0 0 0 0
0 0 0 0
0 0 0 0
-6576.6001 -1461.4667 7380.3936 133635
-6668.5034 -1491.8431 7533.7944 67585
-6666.521 -1501.4846 7582.4839 134148
-6674.5479 -1513.5272 7643.2988 265733
-6363.165 -1452.8087 7336.6714 265733
-6319.5469 -1452.8087 7336.6714 594952
-6268.7905 -1451.1564 7328.3271 396293
-6602.9868 -1539.2169 7773.0317 1055245
-6556.7734 -1539.2169 7773.0317 726790
-6378.2227 -1507.9297 7615.0317 1516562
-6206.0771 -1477.7205 7462.4751 1582866
-6137.4517 -1471.9026 7433.0947 1582866
-6218.042 -1502.0453 7585.3154 1517073
-6344.3062 -1543.7421 7795.8838 793350
-6185.0986 -1516.0782 7656.1821 1977624
-6325.77 -1562.0551 7888.3643 1253648
-6311.3262 -1570.129 7929.1382 661511
-6452.9331 -1617.439 8168.0527 661513
-6534.5659 -1650.3201 8334.1016 924172
-6573.1338 -1672.7441 8447.3428 266243
-6522.9126 -1672.7441 8447.3428 398085
-6295.042 -1626.8342 8215.498 463621
-6382.9697 -1662.4564 8395.3906 661254
-6336.4648 -1663.3511 8399.9082 529669
-6286.5249 -1663.3511 8399.9082 1121804
-6253.4019 -1667.8363 8422.5586 1253390
-6153.4009 -1654.4128 8354.7705 1122058
-6067.7891 -1644.6714 8305.5752 1189133
-5759.4771 -1573.9117 7948.2402 2504993
-5712.2222 -1573.9117 7948.2402 1978390
-5392.8267 -1498.3021 7566.4121 530946
-5258.9976 -1473.4105 7440.71 992261
-4931.5503 -1393.3906 7036.6104 532227
-4477.7363 -1275.9916 6443.7461 3494173
-4037.3389 -1160.4225 5860.123 1652743
-3958.3538 -1147.6237 5795.4893 6193972
-3682.9614 -1077.1569 5439.6328 4943400
-3607.7681 -1064.5125 5375.7788 2508557
-3605.8184 -1073.4468 5420.8965 4153627
-3600.8696 -1081.6414 5462.2788 5074476
-3568.395 -1081.6414 5462.2788 1914896
-3568.478 -1091.6007 5512.5737 2374937
-3669.8955 -1133.0304 5721.7935 1914647
-3490.8574 -1087.8385 5493.5747 927239
-3458.1968 -1087.8385 5493.5747 2309133
-3425.5359 -1087.8385 5493.5747 2706701
-3410.7024 -1093.5544 5522.4399 2838795
-3373.2375 -1092.0547 5514.8667 3365394
-3340.2026 -1091.9739 5514.458 3626784
-3349.822 -1105.9739 5585.1587 1058568
-3556.3186 -1185.906 5988.8149 398592
-3524.3228 -1187.1218 5994.9546 660484
-3488.6812 -1187.1218 5994.9546 528897
-3363.9849 -1156.5057 5840.3438 333312
-3252.3899 -1129.802 5705.4897 1386249
-3294.54 -1156.5057 5840.3438 2111506
-3641.4172 -1291.8882 6524.0239 795905
-3909.2268 -1401.8325 7079.2417 1783056
-2965.5315 -1075.0012 5428.7461 1717517
0 0 0 0
0 0 0 0
-3183.5264 -1192.9752 6024.5146 1387016
-3064.1182 -1161.2944 5864.5269 728834
-2999.3857 -1149.8451 5806.7075 70400
-2938.6343 -1139.6729 5755.3374 3165975
-2901.2461 -1138.4285 5749.0537 1915917
-2976.7427 -1181.9777 5968.9771 1389321
-2941.2554 -1181.9777 5968.9771 928006
-2818.782 -1146.5944 5790.2915 2835741
-2784.3569 -1146.5944 5790.2915 2638364
-2691.6372 -1122.2882 5667.5449 1585935
-2657.9421 -1122.2882 5667.5449 1914643
-2591.7407 -1108.3865 5597.3418 2967334
-2524.3315 -1093.6 5522.6699 3887671
-2525.1853 -1108.3865 5597.3418 2043935
-2525.7229 -1123.4274 5673.2983 661266
-2491.9937 -1123.4274 5673.2983 461074
0 0 0 0
0 0 0 0
0 0 0 0
0 0 0 0
0 0 0 0
0 0 0 0
0 0 0 0
0 0 0 0
0 0 0 0
0 0 0 0
-2097.1511 -1110.8105 5609.5835 4352
-1999.7576 -1076.3403 5435.5093 859152
-1927.4236 -1054.4473 5324.9497 3587
-1825.8716 -1015.5716 5128.6274 1386006
-1864.1071 -1054.4473 5324.9497 793613
-2025.3265 -1165.4352 5885.437 1517592
-1899.8605 -1112.4576 5617.9009 2832687
0 0 0 0
0 0 0 0
0 0 0 0
-1531.0005 -964.28186 4869.6147 1454100
-1530.54 -982.57233 4961.9814 859148
-1473.098 -964.28186 4869.6147 2832670
-1505.2626 -1005.09 5075.6953 67073
-1380.1494 -940.4021 4749.0225 132355
-1417.3866 -985.94452 4979.0112 1185814
-1387.7849 -985.94452 4979.0112 2106916
-1367.0975 -992.41559 5011.6899 725262
-1327.2976 -984.99158 4974.1987 133126
-1307.5056 -992.41559 5011.6899 66050
-1182.5 -918.46478 4638.2388 7698296
-1154.9244 -918.46478 4638.2388 461835
-1137.8827 -927.04688 4681.5786 68098
-1110.0494 -927.04688 4681.5786 3293741
-1100.1445 -942.40466 4759.1353 1848596
-1081.6063 -950.98267 4802.4541 1519632
-1034.8881 -934.57721 4719.6064 3559978
-983.53876 -912.95862 4610.4326 3427626
-956.12848 -912.95862 4610.4326 1123086
-894.55902 -879.37903 4440.8564 1024
-905.2984 -917.00067 4630.8452 512
-874.86768 -913.97211 4615.5508 512
-850.91901 -917.73834 4634.5703 133888
-823.36511 -917.73834 4634.5703 267520
-810.28595 -934.43066 4718.8662 1585931
-836.72656 -999.52948 5047.6147 2771226
-806.71716 -999.52948 5047.6147 1981963
-732.95386 -943.22351 4763.2705 1850630
-748.02686 -1001.308 5056.5967 3364381
-717.96399 -1001.308 5056.5967 2640401
-659.29858 -959.67419 4846.3462 3889450
-628.10175 -956.04553 4828.0215 2112777
-561.29504 -895.27124 4521.1118 1981705
-521.53961 -873.70062 4412.1807 1784073
-493.05493 -869.7265 4392.1108 1520647
-466.94263 -869.7265 4392.1108 995072
-444.86465 -877.68591 4432.3062 1389826
-411.48831 -862.95337 4357.9067 2048009
-389.35425 -871.40186 4400.5718 2705682
-363.19165 -871.40186 4400.5718 401665
-421.93005 -1090.9167 5509.1201 3891222
-395.43796 -1108.4679 5597.7529 2181124
-364.89188 -1116.8362 5640.0127 3364880
-337.1666 -1136.4056 5738.8384 2049025
-301.08429 -1129.0433 5701.6587 2639626
-310.23361 -1310.9471 6620.2715 202240
-274.69437 -1329.4354 6713.6367 532227
-238.07809 -1348.1112 6807.9492 203008
-187.95969 -1282.3218 6475.7134 1784076
-137.60066 -1180.574 5961.8882 1454852
-91.793816 -1060.827 5357.167 3298582
-61.409702 -1086.7661 5488.1592 1588225
-29.673891 -1120.4789 5658.4087 1654274
3.9804709 -1124.3058 5677.7344 2903822
37.97995 -1131.5686 5714.4116 3429908
73.037041 -1148.6053 5800.4468 6653248
102.58824 -1095.8971 5534.271 2443016
137.48665 -1112.0385 5615.7847 3364876
168.3938 -1095.8971 5534.271 6128169
198.7124 -1081.8284 5463.2236 5008931
223.68102 -1046.6783 5285.7163 598024
0 0 0 0
0 0 0 0
349.89777 -1151.8267 5816.7144 3825684
0 0 0 0
0 0 0 0
0 0 0 0
0 0 0 0
0 0 0 0
0 0 0 0
0 0 0 0
0 0 0 0
0 0 0 0
0 0 0 0
0 0 0 0
2122.1609 -3195.7383 16138.45 4216140
2218.2319 -3195.9163 16139.349 5071196
2314.27 -3196.0337 16139.942 6189420
2410.4272 -3196.3 16141.287 4018508
2506.1755 -3196.0244 16139.896 2702390
2602.1318 -3196.0244 16139.896 6386281
2698.1699 -3196.1218 16140.386 6188905
0 0 0 0
0 0 0 0
0 0 0 0
0 0 0 0
0 0 0 0
0 0 0 0
0 0 0 0
0 0 0 0
0 0 0 0
0 0 0 0
0 0 0 0
3849.1121 -3195.6511 16138.009 13553873
3945.5208 -3196.0266 16139.906 11776960
4041.479 -3196.0281 16139.914 9673129
4137.3208 -3195.9397 16139.468 12895947
4232.3311 -3195.2278 16135.871 13553870
4317.4487 -3187.2441 16095.555 13685454
4402.1929 -3179.3369 16055.623 13685457
4497.436 -3179.187 16054.866 13685457
4561.4468 -3157.4248 15944.966 13685457
4620.856 -3133.4277 15823.781 13685457
4709.8535 -3130.0522 15806.735 13685201
4809.0098 -3133.4277 15823.781 13619410
5000.0938 -3195.4226 16136.854 13684945
5096.3145 -3195.5999 16137.75 9541296
5192.2578 -3195.5999 16137.75 7635354
5288.2563 -3195.6328 16137.917 7833500
5384.2007 -3195.6328 16137.917 5138295
5479.6963 -3195.3711 16136.597 5007223
5365.8647 -3075.1541 15529.5 4217449
5671.478 -3195.3196 16136.335 4085864
5767.8149 -3195.5422 16137.46 4414828
5863.5054 -3195.4055 16136.769 8887980
5959.4702 -3195.4199 16136.843 3557721
6056.2461 -3195.8621 16139.075 4151141
6152.0669 -3195.7944 16138.733 3690332
6248.0166 -3195.7944 16138.733 4413799
6344.0488 -3195.8364 16138.946 3953247
6430.9229 -3191.332 16116.198 3624282
6535.1411 -3195.4412 16136.948 3887454
6631.3477 -3195.5701 16137.6 3558489
6727.8501 -3195.8357 16138.942 3426903
6823.2324 -3195.5701 16137.6 3558230
6919.6367 -3195.783 16138.676 9019561
7015.5854 -3195.783 16138.676 3227469
7111.1934 -3195.6299 16137.902 3425103
7206.7266 -3195.4475 16136.981 5400428
7130.6719 -3120.1875 15756.92 3426637
7224.3506 -3120.1875 15756.92 3360585
6572.5186 -2802.324 14151.711 8950960
6878.5513 -2895.7383 14623.452 9609382
6965.4917 -2895.7383 14623.452 4807009
7009.2832 -2878.0212 14533.982 3689045
6299.3086 -2555.0071 12902.764 3492182
6584.0107 -2638.354 13323.664 7439773
8069.6729 -3195.2483 16135.975 10662085
8165.9102 -3195.3674 16136.577 7306897
8261.7568 -3195.3325 16136.401 8820649
8359.2227 -3195.9175 16139.355 2700874
8455.751 -3196.1353 16140.454 4084581
8551.7109 -3196.1353 16140.454 4084065
8647.4307 -3196.0466 16140.008 4084064
8743.3877 -3196.0466 16140.008 6121592
8840.1084 -3196.3228 16141.402 5463661
8936.3193 -3196.4114 16141.848 3163473
9032.2656 -3196.4031 16141.808 6189437
9127.4551 -3196.1311 16140.433 8097432
9222.9863 -3195.9824 16139.683 2307134
9317.7803 -3195.5845 16137.673 13160401
9412.8711 -3195.2949 16136.212 13488850
9334.2969 -3136.6541 15840.075 13619920
9604.9365 -3195.3608 16136.543 13619665
9719.9619 -3201.6487 16168.297 13750737
9793.291 -3194.2129 16130.748 13750737
9752.4834 -3150.0559 15907.754 13750737
9822.0898 -3142.0684 15867.417 13750737
9941.6348 -3150.0559 15907.754 13619407
10166.757 -3191.03 16114.674 13619408
10277.825 -3195.7754 16138.639 6974571
10373.312 -3195.634 16137.922 5724248
10469.258 -3195.634 16137.922 6447970
10564.907 -3195.5447 16137.473 7764348
10660.667 -3195.4897 16137.195 9081479
10756.606 -3195.4897 16137.195 11579566
10853.27 -3195.7026 16138.27 7168887
10949.216 -3195.7026 16138.27 4602950
9852.5498 -2850.6433 14395.724 5461342
8967.4482 -2572.2126 12989.65 5395805
8002.1631 -2275.7327 11492.43 4935001
8168.3086 -2303.3159 11631.726 3159104
8409.4629 -2351.4099 11874.6 1711658
8903.251 -2468.7549 12467.19 2304053
8977.3711 -2468.7549 12467.19 2172724
8821.8047 -2406.1086 12150.827 2567480
9384.7949 -2538.8716 12821.278 2830908
9461.0205 -2538.8716 12821.278 3949132
9752.374 -2596.1396 13110.481 922912
10561.345 -2789.1997 14085.434 1448999
9505.5225 -2490.6138 12577.577 1975599
9580.2988 -2490.6138 12577.577 2041394
9868.8291 -2545.7534 12856.031 1844015
9945.2617 -2545.7534 12856.031 1054243
9663.3311 -2454.7202 12396.315 988450
9637.1406 -2429.5378 12269.145 1185574
9821.9531 -2457.5283 12410.496 1185317
9981.3994 -2478.8018 12517.928 1120036
10304.749 -2540.1636 12827.803 1119778
11095.956 -2715.105 13711.256 2764857
11168.041 -2712.8137 13699.686 2106925
10919.164 -2633.1558 13297.413 3225149
11316.818 -2709.4331 13682.613 2764855
11022.56 -2620.1489 13231.729 3093309
11004.79 -2597.3879 13116.785 1185568
10380.898 -2432.8948 12286.097 1580069
10804.95 -2514.583 12698.621 2238001
10880.447 -2514.583 12698.621 3488068
10955.944 -2514.583 12698.621 1316899
10513.134 -2396.4363 12101.982 987935
9643.5146 -2183.2676 11025.482 856349
9591.9961 -2156.9426 10892.541 1975085
9656.7549 -2156.9426 10892.541 3685447
10058.396 -2231.6873 11270.001 2238001
10125.398 -2231.6873 11270.001 1119518
10478.711 -2294.3765 11586.581 1842985
11251.691 -2447.5354 12360.032 1579813
12471.073 -2695.1807 13610.639 922138
10959.793 -2353.3015 11884.151 460553
10731.532 -2289.5291 11562.102 2698290
11198.063 -2373.8562 11987.952 4540493
10506.839 -2213.2383 11176.834 5066323
10573.289 -2213.2383 11176.834 5263702
11136.613 -2316.5962 11698.791 4803407
11388.731 -2354.3374 11889.383 5526873
11852.785 -2435.155 12297.511 4408391
11963.533 -2442.8396 12336.318 3487034
0 0 0 0
0 0 0 0
0 0 0 0
0 0 0 0
0 0 0 0
0 0 0 0
-6543.2349 -1410.3964 7342.9507 1537
-6668.5034 -1447.0526 7533.7944 1280
-6760.9424 -1477.0323 7689.8784 2048
-6715.2236 -1477.0323 7689.8784 1536
-6455.4346 -1429.6243 7443.0571 265734
-6411.1836 -1429.6243 7443.0571 726539
-6471.2065 -1453.038 7564.9556 1187088
-6602.9868 -1493.0042 7773.0317 463622
-6436.6167 -1465.6439 7630.5864 266496
-6378.2227 -1462.6562 7615.0317 792838
-6345.8848 -1465.6439 7630.5864 1451280
-6287.6758 -1462.6562 7615.0317 2503968
-6218.042 -1456.9485 7585.3154 1386257
-6356.0728 -1500.1704 7810.3418 1385230
-6309.6377 -1500.1704 7810.3418 134400
-6358.4668 -1522.9882 7929.1382 134144
-6311.3262 -1522.9882 7929.1382 1121808
-6427.5703 -1562.7115 8135.9497 68864
-6570.4736 -1609.5677 8379.8975 858635
-6583.2617 -1625.0222 8460.3584 792585
-6532.9634 -1625.0222 8460.3584 266243
-6341.4263 -1589.618 8276.0332 529157
-6350 -1604.2145 8352.0264 529157
-6333.0566 -1612.5436 8395.3906 529158
-6283.144 -1612.5436 8395.3906 463363
-6115.4097 -1582.0631 8236.7002 1450512
-6084.2007 -1586.6948 8260.8145 1056011
-6114.8872 -1607.6749 8370.043 529925
-5662.0908 -1500.8433 7813.8447 134144
-5762.9624 -1540.2181 8018.8423 69632
-5491.1494 -1479.8148 7704.3643 464386
-5347.8423 -1453.3176 7566.4121 69632
-4961.7085 -1359.8213 7079.6416 465408
-4521.2134 -1249.6992 6506.3125 2112019
-4482.5317 -1249.6992 6506.3125 1717256
-4004.415 -1126.1212 5862.9287 1059584
-3793.5439 -1076.1879 5602.96 4022560
-3640.1301 -1041.8142 5424.0005 2047495
-3795.4141 -1095.9658 5705.9302 1455620
-3761.491 -1095.9658 5705.9302 1781518
-3684.5354 -1083.3136 5640.0591 2375192
-3568.478 -1058.8269 5512.5737 793860
-3437.6658 -1029.4677 5359.7207 3362339
-3490.8574 -1055.1776 5493.5747 2638623
-3478.7317 -1061.4434 5526.1958 2560
-3445.877 -1061.4434 5526.1958 2507286
-3413.022 -1061.4434 5526.1958 3034133
-3420.1863 -1074.0101 5591.6226 4810289
-3423.655 -1085.6519 5652.2324 331009
-3631.3667 -1162.9323 6054.5781 333824
-3595.3706 -1162.9323 6054.5781 596484
-3744.3372 -1223.3641 6369.2041 530432
-3706.4705 -1223.3641 6369.2041 267520
-3550.4084 -1183.9496 6164.0005 1847058
-3672.3984 -1237.4016 6442.2881 531201
-3641.228 -1239.8298 6454.9297 661250
-3602.8521 -1239.8298 6454.9297 1189894
-3102.4407 -1079.1204 5618.228 1058820
-3028.6382 -1064.915 5544.2705 597762
-2995.6763 -1064.915 5544.2705 135168
-3219.344 -1157.1578 6024.5146 530435
-3266.6028 -1187.3546 6181.728 463621
-3064.1182 -1126.4283 5864.5269 399107
-3260.5208 -1212.4257 6312.2554 466178
-2964.8635 -1115.3226 5806.7075 859657
-2993.0249 -1139.1808 5930.9204 859912
-2957.7637 -1139.1808 5930.9204 335616
-2893.5979 -1127.9138 5872.2612 730112
-2793.1157 -1102.0427 5737.5684 859139
-2759.0044 -1102.0427 5737.5684 1122058
-2662.0457 -1076.6251 5605.2363 1388045
-2611.8818 -1069.7284 5569.3301 1717008
-2545.1328 -1055.7747 5496.6831 2309146
-2558.4631 -1075.1088 5597.3418 399873
-2592.1328 -1103.6119 5745.7383 2045720
-2680.2234 -1156.3557 6020.3384 1913622
-2879.3528 -1259.0823 6555.1641 4084016
0 0 0 0
0 0 0 0
0 0 0 0
0 0 0 0
0 0 0 0
0 0 0 0
0 0 0 0
0 0 0 0
0 0 0 0
-2130.5017 -1077.46 5609.5835 3294518
-2125.5266 -1092.0386 5685.4839 332295
-2004.8612 -1046.6892 5449.3813 2562
-1972.4629 -1046.6892 5449.3813 660748
-1737.9969 -937.67108 4881.7998 529418
-1818.0308 -997.50812 5193.3296 1253907
-2017.215 -1125.9171 5861.8657 1254417
-1956.3939 -1111.1666 5785.0703 1649427
0 0 0 0
0 0 0 0
0 0 0 0
-1610.7672 -984.06238 5123.3271 2177055
-1580.3077 -984.06238 5123.3271 1280
-1484.3101 -942.44958 4906.6782 3491633
-1505.2626 -974.91351 5075.6953 68352
-1341.14 -886.38593 4614.7935 768
-1417.3866 -956.34296 4979.0112 1778459
-1414.5907 -974.81525 5075.1836 1119763
-1358.1833 -956.34296 4979.0112 659468
-1287.3982 -926.69818 4824.6714 264458
-1307.5056 -962.61969 5011.6899 593420
-1262.8662 -951.43665 4953.4673 4080707
-1165.7159 -899.21362 4681.5786 68101
-1137.8827 -899.21362 4681.5786 2305
-1097.7838 -889.27765 4629.8491 2174494
-1094.6134 -909.51453 4735.2085 1122061
-1089.4032 -929.08026 4837.0732 1792
-1034.8881 -906.51782 4719.6064 463364
-988.40277 -889.92773 4633.2334 1647127
-956.12848 -885.54828 4610.4326 199682
-928.71814 -885.54828 4610.4326 1714712
-933.81171 -917.4837 4776.6982 1647382
-923.4801 -935.79181 4872.0156 729860
-894.51459 -935.79181 4872.0156 3625774
-960.19995 -1038.124 5404.7881 2311944
-923.79956 -1033.3505 5379.9355 3167500
-901.67743 -1044.7789 5439.4355 2181376
-869.52563 -1045.0039 5440.6069 3430927
-837.30859 -1045.1647 5441.4443 2312449
-798.1344 -1036.3053 5395.3193 2181376
-745.22113 -1008.118 5248.5679 1983745
-710.49487 -1003.1453 5222.6782 1192197
-663.59131 -979.73914 5100.8188 3563279
-590.17981 -913.0802 4753.7725 3036428
-553.57355 -899.52222 4683.1851 2772236
-525.73071 -899.52222 4683.1851 336640
-466.94263 -843.61407 4392.1108 731392
-444.86465 -851.33472 4432.3062 665601
-410.53787 -835.11096 4347.8408 2048015
-412.91821 -896.39368 4666.897 2179855
0 0 0 0
-414.58905 -1039.7531 5413.2695 6326084
-395.43796 -1075.1877 5597.7529 4286996
-367.12335 -1089.9296 5674.5039 1325314
-338.37741 -1106.2451 5759.4473 600832
-304.4213 -1107.2831 5764.8516 269312
-310.23361 -1271.5879 6620.2715 531970
-274.69437 -1289.5209 6713.6367 2816
-239.27 -1314.1826 6842.0327 133888
-160.43427 -1061.6726 5527.3892 790539
0 0 0 0
-91.321136 -1023.6786 5329.5811 3560217
-61.409702 -1054.1376 5488.1592 1587201
-29.967585 -1097.5948 5714.4116 2377479
4.0061841 -1097.5948 5714.4116 3628553
41.08836 -1187.4258 6182.0981 3628809
73.037041 -1114.1201 5800.4468 3497482
104.29188 -1080.6471 5626.1763 4089103
138.15991 -1083.9332 5643.2847 3890449
168.24504 -1062.0554 5529.3823 2640395
194.68031 -1028.0557 5352.3691 5797697
0 0 0 0
0 0 0 0
0 0 0 0
0 0 0 0
0 0 0 0
0 0 0 0
0 0 0 0
0 0 0 0
0 0 0 0
0 0 0 0
0 0 0 0
0 0 0 0
0 0 0 0
1264.8381 -2031.1884 10574.982 12504268
1473.3801 -2254.042 11735.227 2767414
2122.2651 -3099.9431 16139.243 3293758
2218.2793 -3100.0293 16139.692 4214860
2314.4629 -3100.3357 16141.287 3425601
2410.4272 -3100.3357 16141.287 2372655
2506.1755 -3100.0684 16139.896 1977643
2602.2107 -3100.1626 16140.386 5266523
2698.3164 -3100.3308 16141.263 3884100
0 0 0 0
0 0 0 0
0 0 0 0
0 0 0 0
0 0 0 0
0 0 0 0
0 0 0 0
0 0 0 0
0 0 0 0
0 0 0 0
0 0 0 0
3849.1121 -3099.7058 16138.009 10397108
3945.5208 -3100.0706 16139.906 8162713
4041.479 -3100.072 16139.914 8491936
4137.3208 -3099.9863 16139.468 11583171
4233.0688 -3099.8357 16138.684 13554386
4317.4487 -3091.5515 16095.555 13685455
4402.5757 -3084.1497 16057.019 13685457
4497.6479 -3083.8818 16055.623 13685457
4567.5093 -3066.6978 15966.158 13685457
4607.8931 -3030.8245 15779.391 13685457
4701.7061 -3030.8245 15779.391 13685201
4826.8804 -3050.6453 15882.584 13619411
4999.9414 -3099.3899 16136.363 13357009
5096.0649 -3099.5046 16136.96 13488340
5192.0039 -3099.5046 16136.96 13422289
5287.9429 -3099.5046 16136.96 13422039
4616.4873 -2657.7151 13836.87 5790064
5480.001 -3099.6067 16137.492 4151657
5575.9429 -3099.6067 16137.492 4283756
5671.873 -3099.6006 16137.46 3888483
5767.3345 -3099.3425 16136.116 3955045
5863.5054 -3099.4678 16136.769 4874863
5960.2974 -3099.9124 16139.083 10202812
6056.2461 -3099.9109 16139.075 4414056
6151.897 -3099.7595 16138.287 3361109
6247.3408 -3099.51 16136.989 4742760
6343.2798 -3099.51 16136.989 5005417
6439.2026 -3099.5022 16136.948 3689558
6535.1411 -3099.5022 16136.948 3755353
6631.3477 -3099.6274 16137.6 4610406
6727.8501 -3099.8855 16138.942 3163729
6823.499 -3099.7488 16138.23 3031373
6919.6367 -3099.8342 16138.676 5269872
7015.5742 -3099.8291 16138.649 5006443
7111.1934 -3099.6855 16137.902 3295566
7206.2583 -3099.3071 16135.933 7374476
6885.77 -2922.5635 15215.751 3031882
7398.23 -3099.3521 16136.166 4742242
7494.1646 -3099.3521 16136.166 4741731
7455.5322 -3044.4031 15850.085 4808036
7398.3579 -2983.3491 15532.219 2637379
7259.9297 -2891.4385 15053.705 5136745
7349.4282 -2891.4385 15053.705 3490640
7823.3643 -3040.866 15831.669 2898758
8069.6729 -3099.3152 16135.975 3293005
8165.4438 -3099.2539 16135.655 4675946
8261.6777 -3099.3674 16136.246 2175300
8358.2939 -3099.6204 16137.563 9873851
8455.4189 -3100.0542 16139.821 5268080
8551.4736 -3100.0898 16140.008 5399410
8647.4307 -3100.0898 16140.008 2833484
8743.3877 -3100.0898 16140.008 3557206
8839.5811 -3100.1731 16140.44 4346978
8935.7891 -3100.2593 16140.889 3558229
9031.5 -3100.1731 16140.44 5532275
9127.4551 -3100.1716 16140.433 4085344
9223.1582 -3100.0852 16139.983 4020574
9317.9727 -3099.7051 16138.005 7700872
9412.8711 -3099.3608 16136.212 13553362
9334.2969 -3042.4805 15840.075 13554128
9591.084 -3094.9541 16113.27 13619662
9522.6445 -3042.4805 15840.075 13750737
9576.2578 -3029.6484 15773.268 13750737
9670.0342 -3029.6484 15773.268 13750737
9822.0898 -3047.7322 15867.417 13750737
10084.626 -3099.4268 16136.555 13684942
10180.278 -3099.3406 16136.105 13685201
10277.825 -3099.8271 16138.639 13355723
10373.773 -3099.8271 16138.639 4671309
10468.783 -3099.5488 16137.191 2894904
10564.614 -3099.5171 16137.025 2894907
10660.555 -3099.5171 16137.025 2763323
10755.828 -3099.3257 16136.028 2960695
10851.762 -3099.3257 16136.028 4539732
10947.353 -3099.2285 16135.523 2566452
9852.5498 -2765.0569 14395.724 1973547
8694.0137 -2418.9087 12593.571 1184286
7572.0239 -2088.7527 10874.679 2894904
7834.9902 -2142.9944 11157.078 2105902
8776.4688 -2380.3513 12392.831 2040622
8952.8916 -2407.9854 12536.702 2041137
8977.3711 -2394.634 12467.19 1581354
8889.8828 -2351.8794 12244.597 3028793
9596.4834 -2518.1941 13110.481 2699828
10047.146 -2615.21 13615.575 4344655
10389.665 -2682.7512 13967.216 1778475
9105.1221 -2332.4231 12143.301 1844009
9505.5225 -2415.8364 12577.577 1581093
9853.2402 -2484.6636 12935.911 3161408
9930.1484 -2484.6636 12935.911 4147018
9945.2617 -2469.3206 12856.031 2041643
10021.695 -2469.3206 12856.031 1448484
9703.8896 -2372.9167 12354.123 1185314
9906.9766 -2404.3794 12517.928 1054241
9994.9854 -2407.6521 12534.967 1054242
10254.197 -2451.8115 12764.874 1515048
10910.171 -2589.4924 13481.682 4278096
10631.812 -2505.021 13041.899 5659490
10709.349 -2505.021 13041.899 4343627
11330.938 -2631.3652 13699.686 4211530
11398.164 -2628.0862 13682.613 3619137
11479.512 -2628.0862 13682.613 2303791
10883.002 -2473.9917 12880.351 1317151
10804.95 -2439.0862 12698.621 1645862
10442.486 -2340.9077 12187.475 1974828
10517.255 -2341.4221 12190.153 3422272
10513.134 -2324.4868 12101.982 4737873
9643.5146 -2117.7183 11025.482 4408908
9591.9961 -2092.1833 10892.541 3882563
9747.8525 -2111.9199 10995.296 3685184
9813.2227 -2111.9199 10995.296 3750978
9801.0859 -2095.3501 10909.028 2303534
10327.259 -2193.3254 11419.116 1909289
10981.097 -2316.9575 12062.782 1975081
11062.493 -2318.9866 12073.347 2172716
10765.539 -2242.189 11673.515 3487807
10620.312 -2197.7732 11442.273 3553598
10688.34 -2197.7732 11442.273 2895927
10911.364 -2229.4429 11607.154 855827
11067.06 -2247.0437 11698.791 1250843
11268.961 -2273.7478 11837.82 3355705
11366.591 -2279.2119 11866.269 3816255
11590.304 -2309.7351 12025.181 4539976
11963.533 -2369.4968 12336.318 5658456
0 0 0 0
0 0 0 0
0 0 0 0
0 0 0 0
0 0 0 0
0 0 0 0
-6611.1304 -1380.9222 7419.144 990223
-6668.5034 -1402.2621 7533.7944 264964
-6760.9424 -1431.314 7689.8784 463112
-6499.686 -1385.3732 7443.0571 66817
-6363.165 -1365.5717 7336.6714 256
-6319.5469 -1365.5717 7336.6714 512
-6268.7905 -1364.0186 7328.3271 1516051
-6467.1543 -1417.0288 7613.1304 1581586
-6421.8921 -1417.0288 7613.1304 1319181
-6254.2041 -1389.8231 7466.9648 924677
-6345.8848 -1420.278 7630.5864 1122057
-6372.1011 -1436.4142 7717.2798 1977877
-6097.4424 -1384.4686 7438.1973 1649167
-6273.6782 -1434.891 7709.0962 1319692
-6309.6377 -1453.7357 7810.3418 2109210
-6325.77 -1468.2581 7888.3643 924173
-6475.9414 -1514.3409 8135.9497 2304
-6427.5703 -1514.3409 8135.9497 2560
-6623.356 -1572.3005 8447.3428 660999
-6583.2617 -1574.7231 8460.3584 595461
-6532.9634 -1574.7231 8460.3584 1253391
-6341.4263 -1540.4148 8276.0332 792840
-6317.0195 -1546.4851 8308.6475 858121
-5991.0967 -1478.2548 7942.0728 331776
-6189.2432 -1539.2775 8269.9229 660997
-6115.4097 -1533.0936 8236.7002 661251
-6084.2007 -1537.5822 8260.8145 1714194
-6067.7891 -1545.9133 8305.5752 1977110
-5662.0908 -1454.3878 7813.8447 133632
-5574.7021 -1443.7865 7756.8887 200704
-5528.5854 -1443.7865 7756.8887 398594
-5355.0376 -1410.228 7576.5923 399617
-5214.8599 -1384.9628 7440.8516 465154
-5135.8638 -1375.6528 7390.833 1320971
-5008.9526 -1353.2372 7270.4028 2177559
-4927.354 -1342.7794 7214.2178 138240
-4662.1187 -1281.6552 6885.8213 1519626
-3869.2905 -1073.1232 5765.4624 1847831
-4841.9712 -1354.8928 7279.2979 68097
-4798.6938 -1354.8928 7279.2979 1792
-4753.3457 -1354.3027 7276.1279 3840
-3800.0669 -1092.6425 5870.332 1058056
-3765.1663 -1092.6425 5870.332 3822876
-3789.4614 -1109.9818 5963.4888 69632
-3696.0762 -1092.8528 5871.4619 532992
-3526.7988 -1052.7438 5655.9717 3099160
-3453.4302 -1040.7664 5591.6226 1453574
-3457.2593 -1052.0477 5652.2324 2571284
-3461.4714 -1063.6682 5714.6646 2439705
-3758.0405 -1166.2473 6265.7812 2816
-3815.7175 -1196.0018 6425.6406 2816
-3938.0698 -1246.8352 6698.748 332032
-3749.0007 -1199.1005 6442.2881 662530
-3704.5876 -1197.1255 6431.6772 861187
-3672.3984 -1199.1005 6442.2881 3230243
-3419.7212 -1128.3654 6062.2563 2507030
-3352.6851 -1118.0295 6006.7266 3033629
-3316.9734 -1118.0295 6006.7266 1257473
-3069.0386 -1045.7185 5618.228 1257475
-3479.929 -1198.7687 6440.5054 2047247
-3333.2051 -1160.9999 6237.5889 860674
-3266.6028 -1150.6025 6181.728 1388037
-3229.8506 -1150.6025 6181.728 2304
-3342.1567 -1204.3145 6470.3003 1650950
-3142.3999 -1145.5186 6154.4141 2375440
-3133.116 -1155.5898 6208.5229 2046731
-3000.0166 -1119.6898 6015.646 1454850
-2892.5115 -1092.5912 5870.0562 1915146
-2793.1157 -1067.9313 5737.5684 2638869
-2759.0044 -1067.9313 5737.5684 1191425
-2644.9929 -1036.6172 5569.3301 1190916
-2586.0159 -1026.3514 5514.1763 2178066
-2453.6814 -986.33374 5299.1772 400640
-2512.4534 -1023.0953 5496.6831 3956767
-2598.0496 -1071.8929 5758.853 2312202
-2734.7703 -1143.3683 6142.8618 2311439
-2918.2083 -1236.5748 6643.623 1454856
-3133.9133 -1346.1997 7232.5933 6519389
0 0 0 0
0 0 0 0
0 0 0 0
0 0 0 0
0 0 0 0
0 0 0 0
0 0 0 0
0 0 0 0
-2115.5645 -1036.7892 5570.2544 136195
-2057.5833 -1024.4099 5503.7456 2306595
-1998.7428 -1011.1957 5432.751 199940
-1935.1757 -995.11694 5346.3662 595468
-1717.9742 -898.1792 4825.5581 135171
-1708.9734 -908.64746 4881.7998 1385748
-1921.265 -1039.1696 5583.043 1649426
-1888.0723 -1039.1696 5583.043 1913362
-1797.2627 -1006.8905 5409.6206 992518
0 0 0 0
-1610.5166 -935.75922 5027.4604 2045720
-1623.3051 -961.02545 5163.2061 1321234
-1590.8667 -959.97443 5157.5596 662025
-1549.8481 -953.60278 5123.3271 726539
-1476.3469 -926.58893 4978.1924 462856
-1413.5482 -905.32434 4863.9463 67329
-1359.291 -888.75629 4774.9326 461576
-1341.0697 -895.54565 4811.4092 1843743
-1353.271 -923.38953 4961.0029 330504
-1254.3575 -874.96692 4700.8477 66565
-1294.2819 -923.38953 4961.0029 461578
-1272.5265 -929.03955 4991.3589 330246
-1228.9999 -918.68542 4935.73 1792
-1156.7333 -885.81592 4759.1353 1536
-1097.7838 -861.75195 4629.8491 3555884
-1094.6134 -881.36243 4735.2085 1057030
-1081.6063 -893.87885 4802.4541 4546092
-1034.8881 -878.45844 4719.6064 3493662
-988.40277 -862.38184 4633.2334 1847821
-951.96429 -854.40057 4590.353 3072
-924.67334 -854.40057 4590.353 2440978
-993.45795 -945.87439 5081.8052 2902794
-1065.9012 -1046.6792 5623.3892 3035658
-1018.173 -1032.1868 5545.5273 3364880
-985.20331 -1032.1868 5545.5273 1851904
-952.23358 -1032.1868 5545.5273 2641927
-1033.4921 -1160.4468 6234.6172 2971144
-890.48138 -1037.0632 5571.7266 2774023
-862.27399 -1043.0121 5603.6875 3102473
-810.61298 -1019.9294 5479.6733 1787136
-762.7522 -999.89539 5372.0386 798976
-719.39221 -984.26825 5288.0801 864000
-687.95312 -984.26825 5288.0801 930816
-625.79059 -938.2066 5040.6099 2707474
-595.82281 -938.2066 5040.6099 799488
-575.35095 -953.95142 5125.2002 2246159
-472.25732 -826.80658 4442.1016 798464
-445.84781 -826.80658 4442.1016 2310672
-483.64432 -953.37097 5122.0815 533760
-453.19208 -953.37097 5122.0815 402944
-374.06485 -843.59814 4532.3159 1126405
-419.86786 -1020.3987 5482.1948 2113812
-387.27472 -1020.3987 5482.1948 1586189
-371.53613 -1068.8885 5742.7109 271872
-361.27405 -1144.5417 6149.166 1521669
-311.56335 -1098.1835 5900.1016 1060608
-274.91891 -1091.9607 5866.6689 1587206
-233.01399 -1059.9991 5694.9521 6850649
