# .PCD v0.7 - Point Cloud Data file format
VERSION 0.7
FIELDS x y z rgb
SIZE 4 4 4 4
TYPE F F F U
COUNT 1 1 1 1
WIDTH 1431
HEIGHT 1
VIEWPOINT 0 0 0 1 0 0 0
POINTS 1431
DATA ascii
12619.498 -6197.8037 15041.381 13750737
12738.356 -6212.1577 15076.217 13750737
12825.935 -6211.1626 15073.802 13750737
12910.692 -6208.8252 15068.129 13750737
12969.678 -6194.2124 15032.665 13750737
13059.052 -6194.2124 15032.665 13750737
13162.336 -6200.7661 15048.57 13750737
13247.089 -6198.5591 15043.215 13750737
13326.979 -6194.1226 15032.447 13750737
13290.695 -6136.1094 14891.655 13750737
13376.087 -6134.6675 14888.156 13750737
13444.932 -6125.7056 14866.407 13750737
13576.601 -6145.2974 14913.954 13750737
13720.439 -6170.1079 14974.167 13750737
13819.377 -6174.5371 14984.916 13750737
13893.353 -6167.8271 14968.632 13750737
13856.074 -6112.1274 14833.454 13750737
13929.95 -6105.8535 14818.229 13750737
14018.049 -6105.8535 14818.229 13750737
14158.653 -6128.5811 14873.385 13750737
14095.277 -6063.2808 14714.908 13750737
13768.673 -5886.2539 14285.284 13553616
13853.603 -5886.2539 14285.284 13487568
0 0 0 0
0 0 0 0
0 0 0 0
0 0 0 0
0 0 0 0
-6244.0889 -2826.8154 6960.8013 4021093
-6795.9346 -3097.1733 7626.5352 3494749
-6632.9292 -3043.1892 7493.604 3428444
-6754.6187 -3119.9766 7682.6865 3953760
-6670.6157 -3102.1523 7638.7959 3953503
-6625.2002 -3102.1523 7638.7959 4608350
-6572.4263 -3098.6824 7630.2515 8752025
-6533.4609 -3101.7202 7637.7319 13818588
-6246.751 -2986.3621 7353.6719 8029070
-6183.8887 -2977.146 7330.978 6716032
-6140.3037 -2977.146 7330.978 3888730
-6096.7192 -2977.146 7330.978 3296595
-6096.9136 -2998.6785 7383.9995 3231318
-6098.6655 -3021.2942 7439.6895 3033940
-6388.6733 -3188.0867 7850.4019 2967635
-6342 -3188.0867 7850.4019 3032660
-6332.7246 -3207.0254 7897.0371 3229782
-6269.061 -3198.498 7876.0396 3492697
-6162.8467 -3167.9695 7800.8652 3690846
-6233.4912 -3228.5803 7950.1143 4216675
-6186.2256 -3228.5803 7950.1143 6251144
-6038.4478 -3175.7195 7819.9487 12628687
0 0 0 0
0 0 0 0
0 0 0 0
0 0 0 0
0 0 0 0
0 0 0 0
0 0 0 0
-2816.8352 -1578.6562 3887.3118 13750485
-3068.4878 -1733.9177 4269.6304 10986419
-3136.4297 -1787.0939 4400.5718 12762569
-3110.2671 -1787.0939 4400.5718 12630736
-3039.7629 -1761.3998 4337.3027 9339054
-2895.7966 -1692.3342 4167.2344 13159114
-3024.3901 -1782.7382 4389.8467 13553613
-3046.2368 -1811.246 4460.0444 13554125
-3044.3711 -1826.0315 4496.4526 13684944
-2975.4768 -1800.5187 4433.6294 13750737
-2940.5261 -1795.2732 4420.7129 13619665
-2914.2437 -1795.2732 4420.7129 13685457
-2887.9614 -1795.2732 4420.7129 13487825
-2923.219 -1833.8801 4515.7798 13422803
-2691.9497 -1704.4476 4197.0625 13684948
-2648.5996 -1692.6901 4168.1104 13421006
-2665.9004 -1719.8379 4234.9595 4941420
-2734.3206 -1780.7959 4385.064 5660518
-2734.1045 -1797.7964 4426.9263 7039109
-2787.6978 -1850.8531 4557.5742 12696265
-2767.7317 -1855.6335 4569.3457 13619153
-2733.6077 -1850.9221 4557.7441 13553618
-2706.5105 -1850.9221 4557.7441 12565187
-2679.4133 -1850.9221 4557.7441 9079455
-2555.9988 -1783.7069 4392.2319 11579849
-2498.6628 -1761.693 4338.0244 9671081
-2463.2307 -1754.8245 4321.1113 13552853
-2404.9387 -1731.3539 4263.3169 13553363
-2332.3982 -1697.0164 4178.7637 13553616
-2407.5774 -1770.5751 4359.896 6447973
-2410.0601 -1791.691 4411.8921 6910321
-2345.54 -1762.9121 4341.0264 5330012
-2137.251 -1624.2333 3999.5415 2238000
-2192.4441 -1684.9242 4148.9878 13945821
-2280.8035 -1772.7748 4365.3125 13749465
-2302.9182 -1810.5659 4458.3701 13352405
-2278.688 -1812.3761 4462.8276 3944000
-2249.9058 -1810.5659 4458.3701 4276304
-2238.3696 -1822.7563 4488.3882 4736097
-2302.157 -1897.3188 4671.9922 13684690
-2274.3806 -1897.3188 4671.9922 13684944
-2170.303 -1832.8801 4513.3169 13619153
-2098.9514 -1794.8125 4419.5786 13685200
-2055.8069 -1780.205 4383.6084 13684689
-2013.6063 -1766.0503 4348.7539 13815506
-1947.4822 -1730.2722 4260.6533 13878740
-1838.6851 -1655.1378 4075.6411 11896500
0 0 0 0
0 0 0 0
-1677.017 -1571.7473 3870.2988 6246784
-1744.6393 -1657.8721 4082.3743 4339795
-1825.9166 -1759.5862 4332.8364 10323355
-1800.1567 -1759.5862 4332.8364 14669786
-1774.7605 -1759.9468 4333.7246 4073519
-1850.6298 -1862.2177 4585.5581 13418186
-1823.3673 -1862.2177 4585.5581 13750484
-1807.1028 -1873.6205 4613.6367 13684176
-1779.6736 -1873.6205 4613.6367 3420974
-1752.2443 -1873.6205 4613.6367 4610886
-1622.4193 -1762.391 4339.7432 6781545
-1549.8984 -1710.8202 4212.7544 8161411
-1519.1865 -1704.4634 4197.1011 2697779
-1537.4069 -1753.7109 4318.3691 12233921
-1496.4301 -1735.9585 4274.6553 13814742
-1430.8163 -1688.5183 4157.8379 13684181
-1328.8441 -1595.7489 3929.4011 13618900
0 0 0 0
0 0 0 0
0 0 0 0
0 0 0 0
0 0 0 0
0 0 0 0
0 0 0 0
0 0 0 0
-1344.8588 -1918.5348 4724.2349 6643307
-1348.6049 -1964.9156 4838.4434 11313588
-1319.839 -1964.9156 4838.4434 6970474
-1291.0425 -1964.869 4838.3286 13617618
-1200.4592 -1868.6426 4601.3794 13485265
-1327.9519 -2115.3027 5208.7593 6048881
-1296.9843 -2115.3027 5208.7593 6124121
-1114.9625 -1862.9161 4587.2783 9867154
-1127.1576 -1930.5137 4753.7314 13881044
-1098.8954 -1930.5137 4753.7314 11437214
-1167.4244 -2105.0432 5183.4961 6702180
-1145.4886 -2121.4922 5224.0005 13680594
-1114.4305 -2121.4922 5224.0005 11509941
-989.79742 -1938.2509 4772.7837 11905725
-966.34961 -1948.1854 4797.2466 11510450
-958.96942 -1992.1017 4905.3872 13355469
-929.8056 -1992.1017 4905.3872 1449737
-900.64166 -1992.1017 4905.3872 12437181
-822.26471 -1879.6061 4628.376 197892
0 0 0 0
0 0 0 0
0 0 0 0
0 0 0 0
0 0 0 0
0 0 0 0
0 0 0 0
0 0 0 0
0 0 0 0
0 0 0 0
0 0 0 0
-469.22321 -1792.3691 4413.562 3226154
-442.98334 -1792.3691 4413.562 2109734
-397.98672 -1711.6984 4214.917 1841952
0 0 0 0
0 0 0 0
0 0 0 0
-254.35173 -1462.205 3600.5598 3821639
-272.35754 -1709.5962 4209.7402 5002581
-255.88499 -1768.7336 4355.3618 13618897
-236.42737 -1818.2311 4477.2451 13684433
-225.33516 -1952.7837 4808.5698 13618641
-184.48619 -1831.092 4508.9141 12564415
-159.82294 -1855.9838 4570.208 13684690
-131.27669 -1836.7448 4522.833 13684689
-104.13748 -1832.3507 4512.0137 13487566
-75.604935 -1791.8851 4412.3701 10724260
-47.748775 -1732.9666 4267.2881 1384218
0 0 0 0
2.6783712 -1551.4923 3820.4226 3297819
25.265491 -1543.7717 3801.4114 2969367
54.66111 -1762.9294 4341.0693 2705940
82.298874 -1802.9968 4439.7319 2836762
108.69432 -1802.9968 4439.7319 1914898
136.96964 -1828.0869 4501.5142 2111766
163.73239 -1828.0869 4501.5142 2308890
190.03273 -1823.6493 4490.5869 2572823
212.27698 -1786.1757 4398.311 1257985
236.21266 -1769.5931 4357.478 2706190
261.74719 -1767.0825 4351.2959 4219937
284.06519 -1745.2616 4297.5635 2311943
304.78085 -1718.0096 4230.458 3824673
341.31522 -1777.2836 4376.415 2968856
358.12585 -1732.7303 4266.7065 1980688
383.49261 -1732.7303 4266.7065 1519633
405.2637 -1717.4921 4229.1836 2045982
399.50012 -1594.1603 3925.4888 2505508
0 0 0 0
0 0 0 0
0 0 0 0
545.43488 -1764.2405 4344.2979 2968878
0 0 0 0
0 0 0 0
0 0 0 0
0 0 0 0
0 0 0 0
624.60571 -1573.3148 3874.1587 3561762
650.02289 -1579.1068 3888.4209 5074238
656.28278 -1539.5603 3791.041 11976640
677.68048 -1536.9723 3784.6682 2371620
701.36041 -1539.5603 3791.041 2243117
836.02869 -1778.0328 4378.2603 2112304
867.13434 -1788.5017 4404.0391 2112049
916.53839 -1834.9919 4518.5171 2507318
943.40222 -1834.9919 4518.5171 3034430
958.28735 -1812.3375 4462.7324 5534561
867.58594 -1596.5956 3931.4856 6325609
944.63635 -1692.7838 4168.3413 3891527
1036.2385 -1809.4642 4455.6572 4351569
1066.2549 -1815.4684 4470.4419 5272413
1092.8329 -1815.4684 4470.4419 3824200
0 0 0 0
0 0 0 0
1196.7461 -1852.9043 4562.625 3098683
0 0 0 0
0 0 0 0
0 0 0 0
0 0 0 0
0 0 0 0
0 0 0 0
0 0 0 0
0 0 0 0
0 0 0 0
0 0 0 0
1157.1948 -1434.1008 3531.3557 4811612
1219.8772 -1484.8431 3656.3044 6324599
1260.5686 -1507.5099 3712.1194 5337191
1319.6606 -1551.0229 3819.2668 5402219
1333.6749 -1540.9796 3794.5359 4744031
1339.2736 -1521.7081 3747.0815 4349531
1358.599 -1518.4089 3738.9575 5600368
1357.8314 -1493.121 3676.688 5600108
1355.4191 -1466.8541 3612.0081 5863534
1376.8934 -1466.8541 3612.0081 8495250
1428.5271 -1498.4905 3689.9099 8101003
1468.7772 -1517.4095 3736.4963 7508609
1740.4442 -1771.2817 4361.6362 7308923
1770.2875 -1775.2047 4371.2959 13161935
1796.2759 -1775.2047 4371.2959 7636356
1747.0654 -1701.9476 4190.9062 7642513
1757.1881 -1687.7388 4155.9185 7510929
1682.1388 -1593.2528 3923.2544 8693146
1655.7664 -1546.8252 3808.9302 9612720
0 0 0 0
0 0 0 0
0 0 0 0
0 0 0 0
0 0 0 0
0 0 0 0
0 0 0 0
5421.2354 -4565.0708 11241.112 13685457
5558.8198 -4623.9238 11386.033 13685457
5661.7354 -4652.8701 11457.312 13685457
5797.4536 -4707.7651 11592.485 13685457
5915.2671 -4747.002 11689.103 13685457
6025.9009 -4779.6323 11769.452 13685457
6125.7021 -4803.02 11827.043 13685457
5946.8613 -4609.8799 11351.451 13685457
6035.1304 -4625.8086 11390.674 13685457
6201.4155 -4700.5176 11574.64 13685457
6423.2852 -4815.2568 11857.175 13685457
6910.3589 -5124.1582 12617.819 13685457
7020.6846 -5150.0601 12681.6 13685201
7121.7173 -5168.6655 12727.415 13750737
7256.7139 -5211.2715 12832.328 13750737
7391.8359 -5253.0801 12935.278 13750737
7576.4741 -5328.8535 13121.865 13750737
7688.6382 -5352.6294 13180.41 13750737
7866.5425 -5421.229 13349.332 13750737
7953.75 -5426.5796 13362.507 13750737
8033.1938 -5426.5796 13362.507 13750737
8166.8823 -5462.8638 13451.854 13750737
8265.9355 -5475.5015 13482.974 13750737
8395.6377 -5508.0044 13563.009 13750737
8542.4912 -5551.0332 13668.964 13750737
8588.7695 -5528.5122 13613.508 13750737
8325.0098 -5308.7056 13072.252 13750737
8900.1309 -5622.9565 13846.069 13750737
9073.5459 -5679.9824 13986.491 13750737
9198.7158 -5706.0459 14050.67 13750737
9350.8467 -5748.2134 14154.504 13750737
9451.3721 -5758.188 14179.066 13750737
9530.3828 -5754.9951 14171.204 13750737
9614.6348 -5754.9951 14171.204 13750737
9728.0996 -5772.3296 14213.889 13750737
9817.6602 -5775.3027 14221.21 13750737
10061.78 -5868.3701 14450.381 13750737
10148.527 -5868.853 14451.57 13750737
10234.446 -5868.853 14451.57 13750737
10320.365 -5868.853 14451.57 13750737
10443.966 -5890.1055 14503.901 13750737
10570.541 -5912.6729 14559.473 13750737
10657.102 -5912.6729 14559.473 13750737
10749.561 -5915.9194 14567.467 13750737
10867.127 -5932.8208 14609.085 13750737
11110.4 -6017.5396 14817.697 13750737
11251.728 -6046.1436 14888.133 13750737
11341.348 -6046.7334 14889.585 13750737
11478.003 -6072.1968 14952.287 13750737
11566.898 -6072.1968 14952.287 13750737
11490.17 -5985.9136 14739.821 13750737
11510.354 -5951.042 14653.953 13750737
11606.535 -5955.6899 14665.398 13750737
11699.778 -5958.7729 14672.99 13750737
11818.492 -5974.6865 14712.176 13750737
11929.308 -5986.4028 14741.026 13750737
12232.983 -6094.0249 15006.036 13750737
12322.199 -6094.0249 15006.036 13750737
12429.989 -6103.1455 15028.495 13750737
12519.338 -6103.1455 15028.495 13750737
12615.142 -6106.27 15036.188 13750737
12737.631 -6122.1768 15075.358 13750737
12825.935 -6121.5449 15073.802 13750737
12910.845 -6119.314 15068.309 13750737
12973.431 -6106.6055 15037.015 13750737
13059.052 -6104.8389 15032.665 13750737
13162.355 -6111.3071 15048.592 13750737
13247.1 -6109.1284 15043.228 13750737
13202.161 -6047.5737 14891.655 13750737
13287.572 -6046.1528 14888.156 13750737
13379.23 -6047.5737 14891.655 13750737
13581.909 -6098.8296 15017.868 13750737
13663.438 -6095.3696 15009.348 13750737
13752.639 -6095.354 15009.31 13750737
13819.419 -6085.4663 14984.961 13750737
13893.371 -6078.8428 14968.651 13750737
13856.937 -6024.313 14834.377 13750737
13813.432 -5967.4194 14694.28 13750737
13831.783 -5937.7939 14621.331 13750737
14065.68 -6000.4912 14775.718 13750737
14095.277 -5975.7964 14714.908 13750736
13713.523 -5778.0869 14228.064 13619409
13762.26 -5763.0732 14191.095 13619410
0 0 0 0
0 0 0 0
0 0 0 0
0 0 0 0
0 0 0 0
-6437.0635 -2871.5159 7175.9263 4349539
-7108.3501 -3192.127 7977.1343 3889501
-7060.9238 -3192.127 7977.1343 3296857
-7047.3818 -3207.5493 8015.6748 3626333
-6797.8022 -3115.0198 7784.4429 3165269
-6617.7905 -3053.3184 7630.2515 2836557
-6558.4951 -3046.8469 7614.0786 4150618
-6513.228 -3046.8469 7614.0786 4874338
-6307.8428 -2971.4207 7425.5889 5729907
-6203.0312 -2942.6423 7353.6719 4019801
-6166.0762 -2945.8743 7361.748 3690838
-6699.124 -3223.4207 8055.3374 3625559
-6359.2866 -3081.9336 7701.7607 3559511
-6110.5854 -2982.8818 7454.2305 3362391
-6426.625 -3160.0752 7897.0371 2901843
-6515.8149 -3227.5103 8065.5571 3032404
-6530.3545 -3258.6941 8143.4854 3361368
-6624.9019 -3330.5662 8323.0938 3163478
-6520.0967 -3302.5444 8253.0684 3689307
-6360.3589 -3246.063 8111.9199 4280931
-6312.1318 -3246.063 8111.9199 5069173
-5821.7119 -3016.9114 7539.27 9933236
0 0 0 0
0 0 0 0
0 0 0 0
0 0 0 0
0 0 0 0
0 0 0 0
0 0 0 0
0 0 0 0
0 0 0 0
-3025.3591 -1698.571 4244.7339 13684945
-3110.2671 -1760.931 4400.5718 12896204
-3076.5879 -1756.6393 4389.8467 7042196
-3013.9766 -1735.6134 4337.3027 12696521
-3024.3901 -1756.6393 4389.8467 13684944
-3046.2368 -1784.7296 4460.0444 10855347
-3050.3474 -1802.8308 4505.2793 12829386
-2989.4629 -1782.4987 4454.4692 13619404
-2949.1177 -1774.1595 4433.6294 13553868
-2890.0684 -1754.316 4384.0405 13554125
-2776.4832 -1700.7059 4250.0688 13488591
-2837.9397 -1754.316 4384.0405 11711937
-2716.2563 -1694.6598 4234.9595 6381433
-2691.0784 -1694.6598 4234.9595 13751513
-2760.3909 -1754.7255 4385.064 4805725
-2738.8784 -1757.6505 4392.3735 5852523
-2727.6135 -1767.2715 4416.4165 12760268
-2775.6135 -1815.8514 4537.8179 9272477
-2748.6348 -1815.8514 4537.8179 13945298
-2746.127 -1832.178 4578.6177 13815249
-2730.6738 -1840.108 4598.4351 12895178
-2717.2302 -1849.5663 4622.0713 13618642
-2603.1855 -1790.0411 4473.3179 6250085
-2501.98 -1738.2067 4343.7837 5270116
-2472.8721 -1735.9022 4338.0244 7701398
-2393.6604 -1698.0068 4243.3237 4539490
-2322.5391 -1665.1041 4161.1001 11904966
-2420.1914 -1753.795 4382.7388 8682135
-2410.0601 -1765.4609 4411.8921 5534057
-2345.54 -1737.1035 4341.0264 3756867
-2188.7983 -1639.0554 4096.0044 5137232
-2274.188 -1722.1589 4303.6802 7238019
-2280.8035 -1746.8218 4365.3125 12894673
-2315.8962 -1794.1136 4483.4951 13749976
-2294.5657 -1798.2871 4493.9243 13618643
-2242.4963 -1778.1844 4443.688 9343918
-2179.2031 -1748.5964 4369.7476 4671062
-2302.157 -1869.5426 4671.9922 8350597
-2274.3806 -1869.5426 4671.9922 9861533
-2196.6826 -1827.9994 4568.1758 13554381
-2121.5823 -1787.6051 4467.23 13553871
-2161.283 -1844.142 4608.5156 13750482
-2049.3123 -1771.0532 4425.8672 13750482
-1968.9231 -1723.7119 4307.561 13749970
-1922.1516 -1704.9414 4260.6533 14011861
-1814.4542 -1630.9069 4075.6411 13021904
-1790.2234 -1630.9069 4075.6411 4270161
-1768.9102 -1633.6014 4082.3743 10914235
-1744.6393 -1633.6014 4082.3743 8675996
-1776.4048 -1686.8114 4215.3467 11113141
-1769.5198 -1704.3181 4259.0957 13815509
-1754.0206 -1713.9158 4283.0806 9203863
-1774.1697 -1759.1427 4396.1025 10198196
-1752.1764 -1763.312 4406.5215 8152710
-1725.9786 -1763.312 4406.5215 13684431
-1758.4723 -1824.1974 4558.6743 13816017
-1759.7283 -1854.0765 4633.3423 7039857
-1622.4193 -1736.59 4339.7432 5326156
-1541.3306 -1676.4552 4189.4663 3882041
-1516.4231 -1676.4552 4189.4663 8951688
-1493.7157 -1678.9282 4195.6465 3557180
-1493.5723 -1707.2777 4266.4917 5068385
-1431.3604 -1664.4315 4159.4189 14012886
-1399.7495 -1656.2882 4139.0688 13684438
-1282.4435 -1544.6381 3860.0547 13288656
0 0 0 0
0 0 0 0
0 0 0 0
0 0 0 0
0 0 0 0
0 0 0 0
0 0 0 0
-1301.0907 -1828.9238 4570.4858 13553107
-1348.5729 -1936.1036 4838.3286 12894918
-1346.9104 -1975.8623 4937.6855 13880788
-1317.5544 -1975.8623 4937.6855 11775155
-1288.1986 -1975.8623 4937.6855 11909307
-1327.9519 -2084.335 5208.7593 4936277
-1297.1318 -2084.572 5209.3516 8616840
-1259.7635 -2074.04 5183.0317 10853032
-1228.9491 -2074.04 5183.0317 12958918
-1124.9781 -1947.4021 4866.5635 13684435
-1126.7747 -2002.0011 5003.0063 6578791
-1136.6072 -2074.2258 5183.4961 6048347
-1114.4305 -2090.4341 5224.0005 13880277
-1086.226 -2095.9399 5237.7603 12695490
-1014.5214 -2015.3582 5036.3857 13813967
-984.5788 -2015.3582 5036.3857 3818052
-963.16809 -2033.3705 5081.3984 3822137
-926.56049 -2019.4275 5046.5552 3099695
-877.23151 -1975.8977 4937.7739 925461
-783.85791 -1826.7114 4564.957 991001
0 0 0 0
0 0 0 0
0 0 0 0
0 0 0 0
0 0 0 0
0 0 0 0
-492.23587 -1514.0692 3783.6631 3424566
-469.74094 -1514.0692 3783.6631 6516841
0 0 0 0
0 0 0 0
-469.22321 -1766.1293 4413.562 394505
-442.98334 -1766.1293 4413.562 1841183
0 0 0 0
0 0 0 0
0 0 0 0
0 0 0 0
-254.35173 -1440.7986 3600.5598 3820611
-281.77881 -1742.84 4355.3618 3161652
-262.92303 -1790.7761 4475.1548 13157059
-236.42737 -1791.6125 4477.2451 13619409
-221.24275 -1889.2493 4721.2393 13685203
-181.3799 -1773.9058 4432.9951 13816019
-157.67944 -1804.2853 4508.9141 13750482
-125.81455 -1734.5509 4334.6475 13684945
-100.23226 -1737.8171 4342.8101 13684175
0 0 0 0
0 0 0 0
0 0 0 0
2.6783712 -1528.7788 3820.4226 4416296
25.391848 -1528.7788 3820.4226 2968090
47.529747 -1510.4872 3774.7117 2309655
82.298874 -1776.6016 4439.7319 1650962
109.36588 -1787.578 4467.1626 1322253
147.75993 -1943.2302 4856.1377 3494694
163.73239 -1801.3242 4501.5142 3495451
189.5981 -1792.8416 4480.3164 2509064
214.8813 -1781.6195 4452.272 2574854
240.9418 -1778.5966 4444.7178 3364624
267.36688 -1778.5966 4444.7178 4549409
293.06104 -1774.1715 4433.6597 1785604
318.93634 -1771.483 4426.9409 7509832
341.31522 -1751.2646 4376.415 1784080
367.33426 -1751.2646 4376.415 1388299
393.35321 -1751.2646 4376.415 2308381
409.71243 -1710.926 4275.6089 1582870
418.89401 -1647.0782 4116.0532 2833960
412.66971 -1533.0466 3831.0876 1914141
435.44662 -1533.0466 3831.0876 2112287
536.05157 -1793.4305 4481.7881 2374951
562.69702 -1793.4305 4481.7881 2045731
0 0 0 0
0 0 0 0
0 0 0 0
0 0 0 0
0 0 0 0
699.05969 -1735.0779 4335.9644 2374436
739.31873 -1769.7405 4422.5864 4744268
746.76233 -1726.1683 4313.6992 4217413
696.25836 -1555.989 3888.4209 4546893
798.05457 -1726.1683 4313.6992 3361339
830.5672 -1740.5577 4349.6587 5598045
867.13434 -1762.3185 4404.0391 3035710
903.02209 -1781.4633 4451.8818 2969148
931.75519 -1785.8054 4462.7324 3889992
955.95746 -1781.4633 4451.8818 2705716
867.58594 -1573.2217 3931.4856 3232315
976.72369 -1724.6604 4309.9312 4219208
1036.2385 -1782.9741 4455.6572 2704945
1062.7286 -1782.9741 4455.6572 4082495
1083.542 -1773.6814 4432.4351 12370618
0 0 0 0
0 0 0 0
1196.7461 -1825.7782 4562.625 4548177
1223.8722 -1825.7782 4562.625 10330541
0 0 0 0
0 0 0 0
0 0 0 0
0 0 0 0
0 0 0 0
0 0 0 0
0 0 0 0
0 0 0 0
1136.2 -1413.106 3531.3557 4942430
1222.8417 -1493.2705 3731.687 6193009
1245.0276 -1493.2705 3731.687 5337446
1260.5686 -1485.4402 3712.1194 4876383
1322.6666 -1531.7976 3827.9666 5270631
1333.6749 -1518.42 3794.5359 7506313
1339.2736 -1499.4307 3747.0815 10596017
1301.562 -1433.3669 3581.988 8756133
1255.0375 -1359.8807 3398.3459 9936551
1328.2435 -1416.4006 3539.5891 13490392
1346.1584 -1413.116 3531.3809 6846067
1446.5627 -1495.1949 3736.4963 10204329
1579.234 -1607.6384 4017.4929 7705480
1740.4442 -1745.3507 4361.6362 12635847
1770.2875 -1749.2161 4371.2959 13357775
1830.7839 -1782.8201 4455.2725 13226446
1774.9922 -1703.8387 4257.8979 10003614
1746.517 -1652.9314 4130.6802 12503238
1633.1211 -1524.1801 3808.9302 11844027
0 0 0 0
0 0 0 0
0 0 0 0
0 0 0 0
0 0 0 0
0 0 0 0
0 0 0 0
0 0 0 0
5479.6631 -4546.7192 11362.264 13685457
5614.8169 -4602.1279 11500.731 13685457
5737.8022 -4646.3506 11611.243 13685457
5831.1831 -4665.833 11659.93 13685457
5942.5679 -4699.0952 11743.052 13685457
6091.8467 -4761.2007 11898.254 13685457
6225.1016 -4809.501 12018.956 13685457
5984.4629 -4571.1133 11423.226 13685457
6128.3877 -4628.521 11566.688 13685457
6217.7739 -4643.9214 11605.172 13685457
6712.4795 -4958.3848 12391.018 13685457
6948.9863 -5077.3652 12688.35 13685457
7038.6187 -5087.6265 12713.993 13684945
7121.7173 -5092.9976 12727.415 13750737
7256.7139 -5134.9795 12832.328 13750737
7391.8359 -5176.1758 12935.278 13750737
7583.8164 -5255.9292 13134.582 13750737
7709.7969 -5288.7822 13216.682 13750737
7874.5151 -5347.2773 13362.861 13750737
7972.4741 -5359.7231 13393.963 13750737
8077.2417 -5376.4551 13435.776 13750737
8190.5024 -5398.457 13490.759 13750737
8309.4766 -5423.7617 13553.995 13750737
8461.2256 -5469.7671 13668.964 13750737
8583.4756 -5496.0093 13734.543 13750737
8710.7695 -5524.957 13806.883 13750737
8769.8389 -5510.4941 13770.74 13750737
8937.3428 -5563.8037 13903.961 13750737
9085.4219 -5604.1548 14004.798 13750737
9236.8389 -5645.8125 14108.901 13750737
9377.2939 -5680.0801 14194.536 13750737
9469.8018 -5684.9541 14206.716 13750737
9554.2656 -5684.9541 14206.716 13750737
9645.5596 -5688.9829 14216.784 13750737
9737.4805 -5693.3086 14227.594 13750737
9819.915 -5692.061 14224.477 13750737
9959.6133 -5723.7437 14303.652 13750737
10159.585 -5789.2354 14467.316 13750737
10247.837 -5790.5015 14470.479 13750737
10336.484 -5791.9678 14474.144 13750737
10454.159 -5809.54 14518.058 13750737
10634.755 -5861.5054 14647.918 13750737
10721.841 -5861.5054 14647.918 13750737
10814.74 -5864.6577 14655.796 13750737
11022.306 -5929.4443 14817.697 13750737
11144.358 -5947.5669 14862.986 13750737
11251.728 -5957.6299 14888.133 13750737
11346.146 -5960.7314 14895.885 13750737
11478.003 -5983.3013 14952.287 13750737
11546.602 -5972.8022 14926.05 13750737
11490.17 -5898.2812 14739.821 13750737
11518.872 -5868.2593 14664.796 13750737
11606.535 -5868.5005 14665.398 13750737
11707.19 -5875.2578 14682.286 13750737
11818.469 -5887.207 14712.147 13750737
11923.154 -5895.7212 14733.424 13750737
12232.983 -6004.8096 15006.036 13750737
12322.81 -6005.1074 15006.78 13750737
12436.353 -6016.8755 15036.188 13750737
12525.747 -6016.8755 15036.188 13750737
12619.498 -6018.9531 15041.381 13750737
12737.631 -6032.5493 15075.358 13750737
12825.624 -6031.7812 15073.438 13750737
12910.938 -6029.7725 15068.418 13750737
12974.779 -6017.8306 15038.576 13750737
13062.838 -6017.209 15037.022 13750737
13162.467 -6021.8896 15048.719 13750737
13247.214 -6019.7441 15043.357 13750737
13195.613 -5956.084 14884.271 13750737
13274.198 -5951.6426 14873.171 13750737
13379.23 -5959.0391 14891.655 13750737
13581.909 -6009.5439 15017.868 13750737
13666.308 -6007.3955 15012.498 13750737
13752.652 -6006.125 15009.323 13750737
13804.359 -5989.8418 14968.632 13750737
13881.088 -5984.5542 14955.418 13750737
13856.964 -5936.1304 14834.406 13750737
13945.131 -5936.1187 14834.377 13750737
13727.181 -5806.6187 14510.757 13750737
13813.451 -5806.6187 14510.757 13750737
14095.277 -5888.312 14714.908 13619150
13677.891 -5678.7026 14191.095 13554128
12460.623 -5141.6099 12848.898 13619407
0 0 0 0
0 0 0 0
0 0 0 0
0 0 0 0
0 0 0 0
-6437.0635 -2828.853 7175.9263 3954523
-7203.2578 -3186.6875 8083.6411 3954782
-7177.2383 -3196.5034 8108.5415 2901838
-7118.397 -3191.7354 8096.4463 2177861
-6869.9053 -3101.2886 7867.0107 2506825
-6617.7905 -3007.9546 7630.2515 2507337
-6558.4951 -3001.5789 7614.0786 2967115
-6462.5532 -2978.2261 7554.8394 5730670
-6417.6372 -2978.2261 7554.8394 4019545
-6263.6953 -2927.2734 7425.5889 2637893
-6399.2197 -3011.8372 7640.1006 2967116
-6770.7905 -3209.5012 8141.5132 3098961
-6651.2324 -3175.5295 8055.3374 2769738
-6124.0942 -2945.0608 7470.7095 2967374
-6118.9106 -2964.0652 7518.9175 2901069
-6221.0581 -3035.7239 7700.6938 3362133
-6496.7402 -3193.7542 8101.5674 3821661
-6739.6152 -3337.8962 8467.2119 3163733
-6989.3853 -3487.6489 8847.0879 3755612
-7098.0308 -3568.7183 9052.7363 3821149
-6884.188 -3487.6489 8847.0879 5333110
-6138.96 -3134.0491 7950.1143 6972322
-4866.8481 -2503.8914 6351.5986 13355730
0 0 0 0
0 0 0 0
0 0 0 0
0 0 0 0
0 0 0 0
0 0 0 0
0 0 0 0
0 0 0 0
0 0 0 0
-2733.1306 -1524.4186 3866.979 13553874
-3084.1045 -1734.7684 4400.5718 12238031
-3057.9419 -1734.7684 4400.5718 7370901
-3072.7529 -1758.2135 4460.0444 10131122
-3059.7627 -1766.0203 4479.8477 10462902
-3121.7227 -1817.6035 4610.6987 8359322
-3030.3137 -1780.0115 4515.3394 7831697
-2995.7288 -1775.4243 4503.7031 8749722
-2962.8699 -1771.7867 4494.4756 13749970
-2804.0923 -1692.0986 4292.3315 13749202
-2763.8848 -1683.1537 4269.6406 11051958
-2738.5005 -1683.1537 4269.6406 10459570
-2691.0784 -1669.4817 4234.9595 13881043
-2739.5044 -1715.5751 4351.8843 12170173
-2713.6313 -1715.5751 4351.8843 9469352
-2712.7646 -1731.5366 4392.3735 13684693
-2759.9629 -1778.7863 4512.231 13684436
-2733.1365 -1778.7863 4512.231 13618385
-2746.127 -1804.9568 4578.6177 9867948
-2775.2395 -1842.3542 4673.4834 8946844
-2747.4543 -1842.3542 4673.4834 13487314
-2626.7485 -1779.4078 4513.8081 13816536
-2488.9209 -1703.4441 4321.1113 6580833
-2463.2307 -1703.4441 4321.1113 5787985
-2324.8691 -1624.7051 4121.375 4281420
-2300.3665 -1624.7051 4121.375 2244150
-2407.5774 -1718.7335 4359.896 3560515
-2381.6565 -1718.7335 4359.896 3230262
-2355.7358 -1718.7335 4359.896 4150596
-2314.491 -1707.4287 4331.2192 3492668
-2288.7407 -1707.4287 4331.2192 4940884
-2311.459 -1743.9985 4423.9854 6057316
-2335.5254 -1782.4387 4521.4961 7238778
-2314.0364 -1786.6022 4532.0581 12171971
-2267.8481 -1771.5693 4493.9243 12632021
-2194.6719 -1734.8446 4400.7651 9010581
-2211.6848 -1769.387 4488.3882 4082777
-2174.7002 -1761.046 4467.23 3622485
-2148.1411 -1761.046 4467.23 13814483
-2136.9871 -1773.833 4499.6665 13684943
-2161.283 -1816.7429 4608.5156 13685456
-2057.3271 -1751.5641 4443.1772 13750483
-2029.1798 -1750.0709 4439.3892 13684433
-2004.4954 -1751.5641 4443.1772 13750225
-1847.9471 -1636.3336 4150.873 13815507
-1790.2234 -1606.6761 4075.6411 13880020
-1746.4268 -1588.8755 4030.4861 9136286
-1722.4644 -1588.8755 4030.4861 13350621
-1753.644 -1640.4584 4161.3359 3943504
-1751.3434 -1661.7501 4215.3467 9335707
-1727.6833 -1663.0991 4218.7686 13414094
-1728.5564 -1688.4518 4283.0806 13221579
-1732.7939 -1717.8978 4357.7764 5456726
-1709.4268 -1720.4552 4364.2637 13685202
-1693.412 -1730.6055 4390.0117 13422798
-1720.0255 -1785.3199 4528.8052 13422542
-1574.9443 -1660.7283 4212.7544 13422286
-1541.3306 -1651.5476 4189.4663 13422287
-1496.7771 -1630.1511 4135.1899 10726058
-1424.8451 -1577.7238 4002.198 4214850
-1404.2487 -1581.3247 4011.3325 2701364
-1380.4 -1581.3247 4011.3325 14013910
-1328.8441 -1549.0262 3929.4011 13750226
0 0 0 0
0 0 0 0
0 0 0 0
0 0 0 0
0 0 0 0
0 0 0 0
0 0 0 0
0 0 0 0
0 0 0 0
-1316.7719 -1862.3611 4724.2349 12039621
-1346.9104 -1946.5065 4937.6855 5395814
-1291.0425 -1907.3385 4838.3286 5134930
0 0 0 0
-1292.8219 -1999.0475 5070.9658 6318197
-1297.1318 -2053.6011 5209.3516 10985658
-1253.3817 -2032.8746 5156.7749 12299468
-1222.7233 -2032.8746 5156.7749 6248581
-1098.8954 -1873.989 4753.7314 12431819
-1126.7747 -1972.257 5003.0063 4538721
-1145.4886 -2059.376 5224.0005 2825784
-1117.366 -2064.8003 5237.7603 14209749
-1086.226 -2064.8003 5237.7603 13618638
-1014.5214 -1985.4155 5036.3857 13553870
-993.37842 -2003.16 5081.3984 9008776
-965.72205 -2008.4717 5094.8721 14804446
-926.56049 -1989.4244 5046.5552 3292984
-850.51904 -1887.2675 4787.4146 265479
-796.50214 -1828.6 4638.5933 1648417
-756.71802 -1799.5714 4564.957 1386011
0 0 0 0
0 0 0 0
0 0 0 0
0 0 0 0
0 0 0 0
-492.23587 -1491.5743 3783.6631 2564385
-469.74094 -1491.5743 3783.6631 13089733
-447.246 -1491.5743 3783.6631 7495029
0 0 0 0
-448.10446 -1661.5807 4214.917 1051421
-423.04556 -1661.5807 4214.917 4736093
0 0 0 0
0 0 0 0
0 0 0 0
0 0 0 0
0 0 0 0
-281.77881 -1716.946 4355.3618 12830151
-276.65009 -1856.2764 4708.7998 13553360
-256.22824 -1912.813 4852.2158 13684944
-220.03801 -1851.0453 4695.5303 13619150
-180.92426 -1743.1603 4421.8589 13684944
-151.58524 -1708.7802 4334.6475 13619150
-125.60169 -1705.8892 4327.314 13553613
-99.874603 -1705.8892 4327.314 7762038
0 0 0 0
0 0 0 0
0 0 0 0
0 0 0 0
25.088036 -1488.0455 3774.7117 2573344
47.529747 -1488.0455 3774.7117 2441762
0 0 0 0
109.05483 -1756.011 4454.4575 2639904
144.65005 -1874.068 4753.9316 3035929
163.58318 -1772.9441 4497.4116 3431194
190.03273 -1770.2538 4490.5869 3694107
221.07211 -1805.7159 4580.5435 2047238
248.30472 -1805.7159 4580.5435 4482339
286.85818 -1879.9065 4768.7422 3955488
310.88962 -1854.1415 4703.3843 3428382
323.87207 -1772.1711 4495.4507 1717009
357.37564 -1806.4261 4582.3452 1255438
384.04047 -1803.7092 4575.4531 1319445
403.99136 -1771.9044 4494.7739 2635050
427.99051 -1760.7 4466.3521 5197378
394.86096 -1529.5139 3879.9043 2307355
417.92807 -1529.5139 3879.9043 3689523
467.83618 -1622.6071 4116.0532 1716759
536.05157 -1766.7852 4481.7881 2835239
562.69702 -1766.7852 4481.7881 1848348
571.26294 -1712.5845 4344.2979 2045982
536.23602 -1538.0394 3901.531 2506016
559.43176 -1538.0394 3901.531 4416065
660.2818 -1743.0341 4421.5391 10528422
0 0 0 0
699.05969 -1709.2993 4335.9644 14013138
744.71088 -1756.1627 4454.8423 5859685
769.94055 -1753.3032 4447.5889 4544590
772.40845 -1700.522 4313.6992 4281162
764.72784 -1629.5083 4133.5591 9671572
0 0 0 0
864.39655 -1730.6538 4390.1343 3430217
896.1347 -1741.6102 4417.9272 2772027
922.58282 -1741.9545 4418.8003 3232064
948.85376 -1741.9545 4418.8003 4347465
951.09991 -1699.0366 4309.9312 5790552
976.72369 -1699.0366 4309.9312 2706494
1025.8778 -1738.922 4411.1079 2638905
1052.103 -1738.922 4411.1079 3752780
0 0 0 0
0 0 0 0
0 0 0 0
0 0 0 0
1341.8929 -1972.1003 5002.6094 4086345
1300.3799 -1869.652 4742.7295 4481097
0 0 0 0
0 0 0 0
0 0 0 0
0 0 0 0
0 0 0 0
1311.9976 -1669.1917 4234.2236 5205601
1337.1713 -1669.1917 4234.2236 5008733
1391.3434 -1704.7216 4324.3521 5533280
1237.4319 -1488.6366 3776.2112 11842993
1245.0276 -1471.0845 3731.687 6250077
1267.2135 -1471.0845 3731.687 8885904
1326.4847 -1513.3955 3839.0168 5992041
0 0 0 0
0 0 0 0
0 0 0 0
1255.0375 -1339.6766 3398.3459 8096908
1275.2416 -1339.6766 3398.3459 6783357
0 0 0 0
1398.3678 -1423.9054 3612.0081 13030087
1579.234 -1583.7532 4017.4929 8167821
1715.5942 -1694.8698 4299.3608 8889497
1767.5337 -1720.547 4364.4961 12636110
1781.7864 -1709.3271 4336.0352 11122103
0 0 0 0
0 0 0 0
0 0 0 0
0 0 0 0
0 0 0 0
0 0 0 0
0 0 0 0
0 0 0 0
0 0 0 0
0 0 0 0
3517.0842 -2910.8066 7383.8174 13685457
5533.0884 -4522.8384 11473.043 13685457
5675.2827 -4582.5776 11624.583 13685457
5764.4761 -4598.5977 11665.222 13685457
5885.9551 -4639.6865 11769.452 13685457
5985.7866 -4662.9468 11828.456 13685457
6129.584 -4719.5186 11971.961 13685457
6302.5347 -4796.9805 12168.458 13685457
6326.1045 -4760.2783 12075.356 13685457
6169.9111 -4590.6489 11645.059 13685457
6239.1445 -4590.6489 11645.059 13685457
6812.2788 -4957.3413 12575.244 13685457
6985.3979 -5028.1387 12754.835 13685457
7061.2295 -5028.1387 12754.835 13685201
7180.4219 -5058.6875 12832.328 13750737
7294.9492 -5085.3423 12899.942 13750737
7413.4434 -5114.1777 12973.09 13750737
7594.5625 -5185.1772 13153.193 13750737
7709.7969 -5210.2051 13216.682 13750737
7892.8428 -5280.0923 13393.963 13750737
8008.2158 -5303.7637 13454.01 13750737
8106.4756 -5315.7451 13484.403 13750737
8228.8936 -5343.1792 13553.995 13750737
8318.9678 -5349.2822 13569.477 13750737
8472.9072 -5395.9414 13687.836 13750737
8683.335 -5477.3442 13894.33 13750737
8776.5332 -5483.9629 13911.12 13750737
8839.9258 -5472.0078 13880.794 13750737
8970.5967 -5501.5352 13955.695 13750737
9073.5459 -5513.6753 13986.491 13750737
9192.582 -5535.2817 14041.3 13750737
9377.2939 -5595.6895 14194.536 13750737
9476.5137 -5604.46 14216.784 13750737
9561.0361 -5604.46 14216.784 13750737
9654.8525 -5609.8604 14230.482 13750737
9742.0918 -5611.3779 14234.332 13750737
9824.0615 -5609.8604 14230.482 13750737
9970.042 -5644.6094 14318.63 13750737
10148.527 -5697.0161 14451.57 13750737
10281.531 -5723.2261 14518.058 13750737
10367.846 -5723.2261 14518.058 13750737
10409.648 -5698.8584 14456.243 13750737
10495.595 -5698.8584 14456.243 13750737
10680.147 -5751.9648 14590.958 13750737
10835.775 -5788.7622 14684.302 13750737
11022.876 -5841.6514 14818.465 13750737
11142.918 -5858.4448 14861.065 13750737
11230.062 -5857.814 14859.465 13750737
11318.405 -5857.814 14859.465 13750737
11478.003 -5894.4062 14952.287 13750737
11566.898 -5894.4062 14952.287 13750737
11601.143 -5866.7686 14882.179 13750737
11523.985 -5783.6387 14671.306 13750737
11611.853 -5783.959 14672.117 13750737
11712.586 -5790.6348 14689.052 13750737
11818.469 -5799.7393 14712.147 13750737
11923.307 -5808.2007 14733.611 13750737
12232.983 -5915.5947 15006.036 13750737
12347.212 -5927.6025 15036.497 13750737
12436.608 -5927.6025 15036.497 13750737
12526.004 -5927.6025 15036.497 13750737
12620.421 -5929.9619 15042.481 13750737
12737.631 -5942.9224 15075.358 13750737
12825.028 -5941.8887 15072.736 13750737
12914.64 -5941.8887 15072.736 13750737
13000.466 -5940.1597 15068.35 13750737
13064.188 -5928.4224 15038.576 13750737
13162.467 -5932.4204 15048.719 13750737
13247.264 -5930.3286 15043.412 13750737
13195.613 -5867.5928 14884.271 13750737
13210.641 -5835.1436 14801.957 13750737
13362.624 -5863.2173 14873.171 13750737
13345.386 -5817.1597 14756.337 13750737
13614.421 -5895.6733 14955.502 13750737
13703.336 -5895.6733 14955.502 13750737
13703.78 -5857.8555 14859.569 13750737
13647.324 -5796.3545 14703.562 13750737
13726.07 -5792.6963 14694.28 13750737
13813.432 -5792.6963 14694.28 13750737
13670.081 -5696.5537 14450.397 13750736
13755.992 -5696.5537 14450.397 13619150
14153.525 -5824.7998 14775.718 13684942
13284.983 -5433.6318 13783.445 11711676
10560.791 -4292.9419 10889.867 11909061
0 0 0 0
0 0 0 0
0 0 0 0
0 0 0 0
0 0 0 0
0 0 0 0
-7395.022 -3222.1841 8298.8428 2638917
-7469.2598 -3276.3909 8438.4551 2639428
-7118.397 -3143.5999 8096.4463 3099210
-7070.2612 -3143.5999 8096.4463 3296077
-6620.0791 -2963.6155 7632.8911 1914682
-6627.0449 -2987.2104 7693.6611 2243391
-6529.3203 -2963.6155 7632.8911 3427408
-6497.8237 -2969.9609 7649.2344 2769990
-6614.0996 -3044.4146 7840.9917 2967368
-6419.9443 -2976.0217 7664.8438 2769736
-6520.8662 -3044.4146 7840.9917 2901322
-6328.8052 -2976.0217 7664.8438 2374978
-6388.272 -3025.772 7792.9771 3954011
-6341.9404 -3025.772 7792.9771 4282976
-6221.0581 -2989.9412 7700.6938 3822683
-6175.2749 -2989.9412 7700.6938 3821660
-6448.5742 -3145.5881 8101.5674 2900560
-7151.8511 -3514.8972 9052.7363 3690332
-7307.9971 -3618.8716 9320.5254 3821405
-7342.3521 -3663.6638 9435.8887 4544873
-7194.4385 -3617.4976 9316.9863 6315652
-5874.7822 -2976.8696 7667.0278 13554128
-5325.2544 -2719.5139 7004.1992 13619661
0 0 0 0
-5014.3252 -2601.4124 6700.0249 13750481
0 0 0 0
0 0 0 0
0 0 0 0
0 0 0 0
0 0 0 0
0 0 0 0
0 0 0 0
-3084.1045 -1708.606 4400.5718 12894922
-3138.2961 -1753.5032 4516.2065 13092559
-3235.7856 -1823.5768 4696.6836 13224145
-3207.8625 -1823.5768 4696.6836 13684694
-3228.728 -1851.5553 4768.7427 12169919
-3200.3765 -1851.5553 4768.7427 13423314
-3161.3274 -1845.3109 4752.6602 6455415
-3133.0718 -1845.3109 4752.6602 9209995
-2958.0862 -1758.1039 4528.0557 9867684
-2884.4485 -1730.083 4455.8872 12894926
-2831.0942 -1713.8217 4414.0049 13618642
-2804.8518 -1713.8217 4414.0049 13684432
-2778.6091 -1713.8217 4414.0049 13553361
-2715.29 -1690.7347 4354.5444 13816019
-2712.0471 -1704.9717 4391.2119 13619155
-2703.3867 -1716.0463 4419.7349 13619154
-2684.1802 -1720.5782 4431.4072 13553360
-2688.7629 -1740.6002 4482.9746 3750464
-2691.5562 -1759.8533 4532.561 8885664
-2664.6086 -1759.8533 4532.561 6253437
-2619.7991 -1747.9357 4501.8667 8884386
0 0 0 0
0 0 0 0
-2465.7322 -1697.1581 4371.0879 6716270
-2439.7449 -1697.1581 4371.0879 994076
-2389.9463 -1680.416 4327.9678 2442288
-2364.2153 -1680.416 4327.9678 3955012
-2352.0332 -1690.1521 4353.0435 3165241
-2315.0562 -1682.0891 4332.2769 3883582
-2319.0315 -1703.9349 4388.542 9010318
-2335.2905 -1735.4062 4469.5972 6840179
-2361.2212 -1774.8722 4571.2427 5331811
-2355.8921 -1791.4861 4614.0327 6976107
-2328.7109 -1791.6787 4614.5288 9672351
-2277.5049 -1773.1715 4566.8628 12697803
-2143.9172 -1689.3046 4350.8608 4935783
-2141.9397 -1708.3583 4399.9341 4675412
-2128.9795 -1719.0154 4427.3818 6117236
-2136.9871 -1747.0813 4499.6665 13750225
-2119.2068 -1754.5089 4518.7964 13684944
-2083.4834 -1747.0813 4499.6665 13487310
-2038.1692 -1731.3136 4459.0562 13552338
-2011.6591 -1731.3136 4459.0562 13684431
-2018.1868 -1760.1272 4533.2666 13749460
-1902.2455 -1681.4659 4330.6719 13683922
-1735.8572 -1555.4421 4006.0933 13684948
-1843.7954 -1675.1461 4314.395 10132909
-1769.8943 -1630.6903 4199.8975 4873079
-1744.9247 -1630.6903 4199.8975 3093091
-1678.9753 -1591.8373 4099.8306 3945819
0 0 0 0
-1726.2192 -1685.5698 4341.2417 5390180
-1778.2799 -1762.7609 4540.0498 13023944
-1683.4799 -1694.5085 4364.2637 11709365
-1652.8126 -1689.6826 4351.8345 13685200
-1586.1342 -1647.3035 4242.6851 13554127
-1515.772 -1599.6671 4119.9961 13750481
-1491.2776 -1599.6671 4119.9961 2697002
-1436.2119 -1566.3263 4034.126 4281175
-1365.1055 -1514.062 3899.5176 4676701
-1336.0764 -1507.4668 3882.5312 7826304
-1432.0803 -1644.1918 4234.6714 13816019
-1390.9446 -1625.5408 4186.6348 13684947
-1366.0538 -1625.5408 4186.6348 13684690
0 0 0 0
0 0 0 0
0 0 0 0
0 0 0 0
0 0 0 0
0 0 0 0
-1177.0374 -1605.3799 4134.71 13749970
0 0 0 0
0 0 0 0
0 0 0 0
0 0 0 0
0 0 0 0
-1032.8802 -1610.58 4148.103 5192264
-1212.8049 -1937.3966 4989.8301 11971519
-1088.0043 -1781.6132 4588.6045 13683924
0 0 0 0
0 0 0 0
-1157.8242 -2050.1602 5280.2563 9803683
-1066.3418 -1940.7937 4998.5796 4144458
-1062.5541 -1989.3411 5123.6147 10460078
-1032.0927 -1989.3411 5123.6147 12565197
-1000.4604 -1987.0153 5117.6245 13224141
-938.96704 -1923.3765 4953.7207 5197141
-874.89954 -1850.1726 4765.1816 10534061
-850.51904 -1858.8051 4787.4146 397836
-822.05652 -1858.8051 4787.4146 1781796
-786.54797 -1842.3013 4744.9087 1320475
-757.78204 -1840.9501 4741.4287 4017474
-708.39636 -1787.4658 4603.6782 1384470
-625.80286 -1642.5231 4230.373 660492
-600.6521 -1642.5231 4230.373 5396818
0 0 0 0
0 0 0 0
-553.33679 -1730.5189 4457.0098 13684687
-506.84811 -1664.8557 4287.8921 13684943
-481.35541 -1664.8557 4287.8921 4406854
-463.1907 -1691.6184 4356.8198 2367030
-437.74405 -1693.382 4361.3618 9995416
0 0 0 0
0 0 0 0
0 0 0 0
0 0 0 0
0 0 0 0
0 0 0 0
0 0 0 0
0 0 0 0
-179.15457 -1484.3887 3823.0928 8938115
-164.23781 -1558.5259 4014.0356 13812942
-149.47229 -1659.5499 4274.2266 13749712
-124.06082 -1659.5499 4274.2266 7761775
0 0 0 0
0 0 0 0
0 0 0 0
0 0 0 0
0 0 0 0
0 0 0 0
0 0 0 0
0 0 0 0
0 0 0 0
0 0 0 0
161.77446 -1726.8982 4447.6846 2641677
190.24651 -1745.5173 4495.6387 3694619
241.77257 -1945.0145 5009.4502 4483111
253.86176 -1818.2855 4683.0557 5535800
304.43597 -1965.0126 5060.9561 3165466
316.81097 -1860.9609 4792.9673 1913879
362.06616 -1951.2838 5025.5972 1254672
391.94476 -1951.2838 5025.5972 331523
421.8233 -1951.2838 5025.5972 2307101
420.0509 -1814.5565 4673.4512 1518351
447.83591 -1814.5565 4673.4512 8229748
416.1488 -1587.6626 4089.0786 529411
486.77106 -1754.5955 4519.0195 3426597
546.71021 -1867.5709 4809.9917 3228961
540.95532 -1756.0583 4522.7871 1123595
568.72974 -1758.7958 4529.8374 3362602
597.26379 -1763.5286 4542.0273 3099429
615.78595 -1739.5687 4480.3179 2703648
642.42267 -1739.5687 4480.3179 2636834
660.11438 -1716.3115 4420.418 1978398
0 0 0 0
0 0 0 0
0 0 0 0
747.06476 -1675.5543 4315.4463 14011089
772.72131 -1675.5543 4315.4463 11831451
798.37787 -1675.5543 4315.4463 13816018
863.04993 -1754.887 4519.77 12697539
913.93829 -1802.2474 4641.7485 5131857
903.58832 -1729.6119 4454.6733 4278855
902.32574 -1678.0125 4321.7773 6776437
914.85681 -1654.2114 4260.4771 11051437
0 0 0 0
0 0 0 0
988.24945 -1649.8765 4249.312 3098681
925.82391 -1507.1295 3881.6628 3690559
0 0 0 0
0 0 0 0
0 0 0 0
1132.7463 -1676.7883 4318.6245 2836792
1296.2572 -1876.302 4832.4785 3495231
1300.3799 -1841.4551 4742.7295 3955265
1328.5768 -1841.4551 4742.7295 8033671
1381.0435 -1874.3949 4827.5669 5138522
1381.5549 -1836.9138 4731.0332 7967622
0 0 0 0
0 0 0 0
0 0 0 0
1328.927 -1633.882 4208.1177 5139294
1406.4067 -1697.1898 4371.1694 6980469
1432.3945 -1697.1898 4371.1694 13554896
0 0 0 0
0 0 0 0
1329.5078 -1493.9684 3847.7656 13029586
0 0 0 0
0 0 0 0
0 0 0 0
0 0 0 0
1391.5846 -1439.851 3708.3843 7502458
1433.823 -1460.4165 3761.3516 9608861
1444.1794 -1448.3757 3730.3403 11383731
1470.7527 -1452.7172 3741.5217 11580601
1480.9009 -1440.9473 3711.208 12371659
1502.965 -1440.9473 3711.208 9150383
1525.0292 -1440.9473 3711.208 9940154
1497.4141 -1394.6765 3592.0361 12437965
0 0 0 0
0 0 0 0
0 0 0 0
0 0 0 0
0 0 0 0
0 0 0 0
0 0 0 0
5256.2144 -4394.2319 11317.492 13685457
5387.6279 -4447.166 11453.825 13685457
5478.5063 -4465.7363 11501.654 13685457
5627.0024 -4530.2368 11667.776 13685457
5813.9912 -4623.7788 11908.697 13685457
5942.2412 -4668.918 12024.954 13685457
6046.8096 -4694.5977 12091.094 13685457
6143.3184 -4713.4902 12139.752 13685457
6298.9116 -4776.751 12302.683 13685457
6427.9561 -4818.6567 12410.612 13685457
6627.2944 -4911.709 12650.271 13685457
6735.4131 -4935.8252 12712.384 13685457
6852.6387 -4966.0059 12790.115 13685457
7023.5928 -5034.0337 12965.322 13685457
7148.2319 -5067.749 13052.157 13685457
7181.6167 -5036.7402 12972.294 13750481
7259.1865 -5037.0493 12973.09 13750737
7343.7651 -5042.165 12986.265 13750737
7477.3223 -5080.4517 13084.874 13750737
7648.4316 -5143.2026 13246.491 13750737
7781.2607 -5179.1948 13339.189 13750737
7946.0049 -5235.4893 13484.178 13750737
8055.1055 -5254.3623 13532.786 13750737
8156.1987 -5267.6904 13567.114 13750737
8277.1826 -5293.4785 13633.531 13750737
8379.7139 -5307.0796 13668.562 13750737
8523.4814 -5346.2856 13769.538 13750737
8762.0527 -5443.644 14020.288 13750737
8885.7246 -5468.4561 14084.191 13750737
8959.627 -5462.4609 14068.752 13750737
9029.0332 -5453.8623 14046.605 13750737
9109.1016 -5451.8022 14041.3 13750737
9192.582 -5451.8022 14041.3 13750737
9407.8438 -5529.2549 14240.781 13750737
9545.9463 -5560.3809 14320.947 13750737
9630.0186 -5559.7632 14319.356 13750737
9715.1504 -5559.7632 14319.356 13750737
9793.3652 -5555.8384 14309.248 13750737
9881.2959 -5557.4463 14313.39 13750737
9990.417 -5570.8423 14347.892 13750737
10082.247 -5574.4512 14357.187 13750737
10300.216 -5647.1562 14544.441 13750737
10386.687 -5647.1562 14544.441 13750737
10283.596 -5544.9443 14281.189 13750737
10529.397 -5630.9897 14502.803 13750737
10658.466 -5653.7168 14561.337 13750737
10745.037 -5653.7168 14561.337 13750737
10827.57 -5651.6089 14555.908 13750737
10943.824 -5666.9961 14595.539 13750737
11030.6 -5666.9961 14595.539 13750737
11239.725 -5729.3638 14756.169 13750737
11340.298 -5735.8594 14772.899 13750737
11546.411 -5795.2275 14925.804 13750737
11635.149 -5795.2275 14925.804 13750737
11518.935 -5693.9175 14664.876 13750737
11606.121 -5693.9175 14664.876 13750737
11707.308 -5700.7344 14682.433 13750737
11815.52 -5710.8462 14708.477 13750737
11916.064 -5717.1309 14724.662 13750737
12023.765 -5726.7319 14749.391 13750737
12334.941 -5832.4048 15021.554 13750737
12447.101 -5843.1323 15049.184 13750737
12559.586 -5853.8584 15076.81 13750737
12650.344 -5854.3779 15078.147 13750737
12736.02 -5852.5542 15073.45 13750737
12825.635 -5852.5542 15073.45 13750737
12940.477 -5863.9854 15102.892 13750737
13030.389 -5864.04 15103.032 13750737
13111.489 -5860.1558 15093.027 13750737
13142.766 -5834.2065 15026.194 13750737
13058.53 -5757.6768 14829.09 13750737
13146.693 -5757.6768 14829.09 13750737
13210.389 -5747.0322 14801.675 13750737
13364.436 -5775.5757 14875.188 13750737
13270.759 -5697.3901 14673.82 13750737
13371.218 -5703.0283 14688.341 13750737
13413.783 -5684.061 14639.49 13750737
13284.116 -5592.8257 14404.511 13750737
13295.926 -5561.9414 14324.967 13750737
13695.934 -5692.8081 14662.019 13619151
13602.021 -5618.0156 14469.388 13684944
12846.462 -5272.6025 13579.765 13750734
13435.057 -5479.7427 14113.261 13619149
14395.99 -5835.2344 15028.842 13619410
13773.502 -5548.479 14290.294 12172739
13858.462 -5548.479 14290.294 11053765
0 0 0 0
0 0 0 0
0 0 0 0
0 0 0 0
0 0 0 0
-6928.0566 -2952.7922 7723.2764 1520178
-7395.022 -3172.845 8298.8428 1980220
-7527.7451 -3251.4839 8504.5293 2374977
-7241.6401 -3149.0566 8236.623 2506818
-7192.6714 -3149.0566 8236.623 2967369
-7185.3354 -3167.4094 8284.626 1651509
-7186.6182 -3189.8406 8343.2969 2835781
-6543.3003 -2924.4844 7649.2344 3296331
-6675.3364 -3004.3772 7858.2017 2835267
-6841.437 -3100.8369 8110.4995 2967368
-6594.3721 -3010.0713 7873.0947 1980473
-6547.564 -3010.0713 7873.0947 2967367
-6500.7559 -3010.0713 7873.0947 3230539
-6621.5039 -3088.218 8077.4937 2901321
-6573.481 -3088.218 8077.4937 3032908
-6398.7354 -3028.2456 7920.6309 3164496
-6351.645 -3028.2456 7920.6309 3361108
-6540.5376 -3141.5942 8217.1045 3163988
-7047.9355 -3410.7871 8921.2012 3163988
-7305.2222 -3562.1052 9316.9863 3886684
-7439.0171 -3655.0598 9560.1162 4347235
-7194.4385 -3562.1052 9316.9863 5790336
-5874.7822 -2931.2871 7667.0278 13158353
-5753.1323 -2893.0359 7566.9785 13619663
-5571.7998 -2823.9326 7386.2329 13750481
-5444.4175 -2781.2922 7274.7036 13750737
-5175.6113 -2665.144 6970.9082 13750737
-4770.0425 -2476.1267 6476.5176 13553873
0 0 0 0
0 0 0 0
0 0 0 0
0 0 0 0
0 0 0 0
0 0 0 0
0 0 0 0
-3346.5317 -1857.1106 4857.4292 13619407
-3336.0879 -1867.4299 4884.4199 13423059
-3307.0483 -1867.4299 4884.4199 13226451
-3230.6714 -1840.462 4813.8833 11844546
-3179.0039 -1827.215 4779.2344 5200218
-3133.0718 -1817.0551 4752.6602 8487816
-3009.8574 -1761.4817 4607.3037 6250092
-2884.4485 -1703.5917 4455.8872 11641022
-2821.3521 -1681.7719 4398.8159 13684435
-2804.8518 -1687.579 4414.0049 13552337
-2790.4365 -1694.7623 4432.7935 13354958
-2763.8799 -1694.6382 4432.4688 11775933
-2712.0471 -1678.8646 4391.2119 13486549
-2685.9402 -1678.8646 4391.2119 13419729
-2677.7576 -1690.1786 4420.8042 12696260
-2646.0818 -1686.7408 4411.8125 13618382
-2678.8374 -1724.7173 4511.1431 6181447
-2663.0059 -1731.8635 4529.8345 6386005
-2619.7991 -1721.1707 4501.8667 9740421
-2504.6924 -1662.5322 4348.4927 3163695
-2478.8394 -1662.5322 4348.4927 3626811
-2511.7214 -1702.3403 4452.6143 4088134
-2439.7449 -1671.1709 4371.0879 3232310
-2389.9463 -1654.6851 4327.9678 5205844
-2366.5691 -1656.3324 4332.2769 4022085
-2392.2495 -1692.7286 4427.4741 4010038
-2416.0051 -1728.5575 4521.1875 11115439
-2389.1252 -1728.5575 4521.1875 12957897
-2292.9404 -1677.844 4388.542 13553876
-2383.324 -1764.0543 4614.0327 10791341
-2360.7856 -1767.7185 4623.6167 3889742
-2333.2969 -1767.7185 4623.6167 1912622
-2291.9282 -1757.0776 4595.7842 3292734
-2195.3745 -1703.3625 4455.2881 10532537
-2168.8865 -1703.3625 4455.2881 732191
-2174.5776 -1728.9473 4522.207 4942692
-2163.5051 -1741.6772 4555.5034 4672081
-2141.1104 -1745.4999 4565.502 7893875
-2092.0586 -1727.4099 4518.186 5132619
-2028.5452 -1696.7531 4438.0005 6187368
-1986.9893 -1683.8966 4404.373 10789799
-1960.8041 -1683.8966 4404.373 6581877
-1902.2455 -1655.7188 4330.6719 5001827
-1837.1237 -1620.9766 4239.8008 9271451
-1887.4882 -1688.5842 4416.6343 13481683
-1834.9688 -1664.7589 4354.3169 11507125
-1809.0812 -1664.7589 4354.3169 2234426
-1719.9553 -1605.7207 4199.8975 1973554
0 0 0 0
-1852.0631 -1780.7589 4657.7246 4540249
-1778.2799 -1735.7689 4540.0498 14272473
-1707.6554 -1692.5231 4426.9365 3943239
-1665.3729 -1676.4536 4384.9058 7296647
-1639.3035 -1676.4536 4384.9058 10585270
-1560.9102 -1622.0795 4242.6851 8943775
-1521.5442 -1607.142 4203.6147 8616854
-1495.9204 -1606.463 4201.8394 9997724
-1359.1591 -1484.384 3882.5312 12170172
-1336.0764 -1484.384 3882.5312 5328726
-1432.0803 -1619.0156 4234.6714 3683902
-1406.9041 -1619.0156 4234.6714 9337232
-1381.7278 -1619.0156 4234.6714 13619666
-1262.7131 -1507.0216 3941.7417 13619153
0 0 0 0
0 0 0 0
0 0 0 0
0 0 0 0
0 0 0 0
-1177.0374 -1580.7979 4134.71 13684692
0 0 0 0
0 0 0 0
0 0 0 0
0 0 0 0
0 0 0 0
-1032.8802 -1585.9185 4148.103 12691651
-1147.8215 -1805.5125 4722.4697 12562880
-1119.7451 -1805.5125 4722.4697 13881300
-1153.8816 -1908.4062 4991.5972 7890033
-1124.2051 -1908.4062 4991.5972 8944523
-1171.1772 -2042.05 5341.1533 1644318
-1096.6593 -1965.4104 5140.6963 2371124
-1096.2805 -2021.0565 5286.2432 3227202
-1050.4664 -1993.7526 5214.8276 5331817
-1036.8453 -2027.7472 5303.7432 13160661
-970.03467 -1956.5896 5117.6245 15527147
-890.18604 -1853.6741 4848.4404 6059630
-869.97284 -1872.2078 4896.9165 1057557
-818.48016 -1822.3794 4766.5864 1188887
