# .PCD v0.7 - Point Cloud Data file format
VERSION 0.7
FIELDS x y z rgb
SIZE 4 4 4 4
TYPE F F F U
COUNT 1 1 1 1
WIDTH 1462
HEIGHT 1
VIEWPOINT 0 0 0 1 0 0 0
POINTS 1462
DATA ascii
-6635.043 -1367.6671 7347.9297 2832665
-6544.8521 -1358.0177 7296.0869 1451522
-6536.2412 -1365.2797 7335.1025 1846794
-6492.6328 -1365.2797 7335.1025 1649418
-6244.9888 -1322.0848 7103.0342 1319943
-6230.9697 -1328.0978 7135.3394 1122817
-6235.9468 -1338.2698 7189.9893 1320195
-6206.9365 -1341.238 7205.9365 201728
-6164.0952 -1341.238 7205.9365 1254406
-6312.7656 -1383.2004 7431.3838 2306582
-6272.918 -1384.157 7436.5225 1648652
-6032.3643 -1340.5254 7202.1074 792832
-6185.4219 -1384.3645 7437.6382 924421
-6067.9126 -1367.8433 7348.876 1450511
-6081.0601 -1380.7489 7418.2124 1187596
-6229.4346 -1424.7716 7654.729 1647894
-6164.4028 -1420.2738 7630.564 768
-6119.0371 -1420.2738 7630.564 1280
-6066.7939 -1418.6655 7621.9238 1536
-6317.6729 -1488.449 7996.8418 133891
-6224.9717 -1477.7291 7939.2485 923920
-6291.2666 -1504.8774 8085.106 67841
-6688.9912 -1612.3325 8662.4189 133891
-6637.4907 -1612.3325 8662.4189 1024
-6016.8667 -1473.0042 7913.8628 1792
-5853.6875 -1444.3501 7759.9165 2306
-5798.2935 -1442.0474 7747.5444 1187347
-5685.7925 -1425.3914 7658.0586 1024
-5706.1709 -1442.0474 7747.5444 924430
-5758.6807 -1467.1606 7882.4683 1516822
-5711.8169 -1467.1606 7882.4683 3072
-5664.9536 -1467.1606 7882.4683 2304
-5459.4175 -1425.7234 7659.8428 69122
-5367.0151 -1413.3823 7593.5391 2816
-5267.9248 -1399.0558 7516.5684 69376
-5180.2549 -1387.543 7454.7144 2560
-5120.4058 -1383.3477 7432.1748 661254
-5121.7598 -1395.7582 7498.8511 594695
-5077.1772 -1395.7582 7498.8511 661253
-5055.769 -1402.1855 7533.3828 1056268
-5010.981 -1402.1855 7533.3828 858631
-5086.8037 -1436.2395 7716.3418 858120
-5079.2651 -1447.1622 7775.0249 398082
-4995.0527 -1436.2395 7716.3418 2304
-5126.2192 -1487.6168 7992.3716 1319184
-5078.7021 -1487.6168 7992.3716 792841
-5017.2588 -1483.499 7970.248 858378
-4768.6211 -1423.4257 7647.4976 529923
-4720.0806 -1422.4991 7642.52 595718
-4734.2153 -1440.6268 7739.9126 3072
-4851.0386 -1490.6653 8008.7495 2560
-4827.0264 -1497.9899 8048.1016 3328
-4650.1143 -1457.5361 7830.7593 3072
-4615.416 -1461.2903 7850.9297 924426
-4568.7402 -1461.2903 7850.9297 726024
-4477.9761 -1447.0435 7774.3862 1024
-4572.8564 -1493.1154 8021.9131 1280
-4525.1641 -1493.1154 8021.9131 2048
-4477.4717 -1493.1154 8021.9131 529668
-4399.5034 -1482.9106 7967.0864 463364
-4169.0415 -1420.5242 7631.9092 990218
-4118.8501 -1418.8646 7622.9932 727045
-4441.187 -1546.9247 8311.0088 134144
-4521.2837 -1592.5415 8556.0898 398083
-4285.853 -1526.7931 8202.8496 68608
-4237.0845 -1526.7931 8202.8496 265986
-4188.3169 -1526.7931 8202.8496 990982
-4241.8584 -1564.5281 8405.585 465152
-4255.8901 -1588.4167 8533.9287 2306837
-4209.1211 -1589.9153 8541.9805 3033114
-4014.9302 -1535.0847 8247.3975 4809523
-3891.1565 -1506.1548 8091.9683 861954
-3771.0889 -1477.9531 7940.4517 2373912
-3773.1868 -1497.5219 8045.5874 398081
-3635.7078 -1461.4862 7851.9814 1254671
-3719.0864 -1514.448 8136.5244 727560
-3693.0186 -1523.6509 8185.9683 529927
-3848.1333 -1608.8497 8643.707 3328
-3829.2229 -1622.6123 8717.6484 1536
-3889.3364 -1670.6981 8975.9941 1187855
-3753.2156 -1634.655 8782.3486 990475
-3560.0198 -1572.386 8447.8027 1187598
-3648.7886 -1634.655 8782.3486 134656
-3653.9517 -1660.7329 8922.4551 1024
-3478.0747 -1604.0836 8618.1006 266502
-3284.1865 -1537.3093 8259.3496 1024
-3370.1941 -1601.5144 8604.2969 1450516
-3234.377 -1560.6631 8384.8193 463878
-3321.8396 -1627.9568 8746.3613 1024
-3269.8398 -1627.9568 8746.3613 768
-3092.2341 -1564.4104 8404.9531 331778
-3042.2644 -1564.4104 8404.9531 1187852
-2992.2947 -1564.4104 8404.9531 1583376
-2793.7844 -1485.4327 7980.6367 1978132
-2939.6841 -1590.0096 8542.4873 2048
-2979.9553 -1640.1271 8811.748 1385486
-2927.5669 -1640.1271 8811.748 266240
-2861.8816 -1632.542 8770.9961 1024
-2919.1255 -1696.1008 9112.4727 331267
-2890.6245 -1711.301 9194.1367 200448
-2761.5642 -1666.4067 8952.9375 529668
-2689.6116 -1654.8855 8891.0391 3328
-2655.1086 -1666.4067 8952.9375 463106
-2438.9546 -1562.0585 8392.3164 661252
-2609.5139 -1706.1996 9166.7295 2304
-2646.9587 -1767.5981 9496.5986 331777
-2509.1042 -1712.0593 9198.2119 69120
-2551.0781 -1779.4836 9560.4551 529921
-2422.2939 -1728.1556 9284.6904 133632
-2344.4968 -1711.6583 9196.0566 398338
-2321.4231 -1735.2788 9322.9609 1582861
-2301.314 -1762.3256 9468.2715 135424
-2308.3074 -1812.0037 9735.1719 1254154
-2250.429 -1812.0037 9735.1719 1386255
-2197.9043 -1816.4282 9758.9434 2372635
-2143.9587 -1819.8864 9777.5225 1536
-2114.7349 -1845.1069 9913.0225 1536
-2052.6597 -1842.2891 9897.8838 133633
-1952.7623 -1804.3574 9694.0918 1536
-1895.5602 -1804.7688 9696.3018 1122061
-1843.6132 -1810.3661 9726.374 396547
-1781.7025 -1806.2252 9704.127 1582865
-1723.7883 -1805.9943 9702.8857 662274
-1666.1021 -1805.9943 9702.8857 2241046
-1607.5377 -1805.0084 9697.5898 991495
-1536.0962 -1788.9525 9611.3271 201984
-1465.2692 -1772.3989 9522.3916 2505243
-1477.9137 -1859.5404 9990.5684 1188617
-1436.6758 -1883.3448 10118.46 793604
-1399.5582 -1914.8676 10287.818 396548
-1328.0602 -1900.0822 10208.383 1024
-1296.8744 -1944.3186 10446.047 1024
-1178.089 -1855.0668 9966.5332 768
-1122.2081 -1860.6592 9996.5791 1024
-1059.9388 -1855.6926 9969.8955 768
-1006.0688 -1865.7136 10023.734 768
-951.30139 -1875.2278 10074.85 463364
-927.57245 -1951.3154 10483.639 331266
-863.99097 -1948.4888 10468.452 1251600
-778.62732 -1892.2866 10166.5 397570
-720.10071 -1897.3348 10193.623 463362
-666.28125 -1916.8534 10298.488 265730
-596.0968 -1888.4768 10146.032 133376
-543.82648 -1916.8534 10298.488 67840
-482.01724 -1914.5424 10286.071 661251
-420.86365 -1914.5424 10286.071 256
-359.71011 -1914.5424 10286.071 662017
-297.50247 -1907.7828 10249.755 1713427
-233.47839 -1882.8923 10116.028 1024
-177.06477 -1923.3989 10333.654 1536
-115.16846 -1915.7495 10292.557 1024
-53.976345 -1915.7495 10292.557 199936
7.2157693 -1915.7495 10292.557 1280
68.465569 -1917.3649 10301.236 1280
128.47261 -1899.0845 10203.022 1280
188.97081 -1897.4615 10194.304 1280
249.64047 -1897.9305 10196.823 2304
312.50162 -1911.6219 10270.382 3584
373.56189 -1911.6219 10270.382 3072
426.73331 -1876.924 10083.963 925184
493.16037 -1901.8955 10218.125 268544
553.90997 -1901.8955 10218.125 2768410
626.35199 -1938.0743 10412.5 133120
688.2572 -1938.0743 10412.5 267776
756.99957 -1955.7385 10507.402 530944
807.88037 -1928.0813 10358.811 1847310
958.60583 -2125.752 11420.816 1649423
993.78058 -2057.9827 11056.719 1792
1059.5159 -2057.9827 11056.719 1280
1089.3027 -1992.2363 10703.49 1280
1152.938 -1992.2363 10703.49 134656
1210.9956 -1983.1025 10654.418 595460
1244.7515 -1937.0586 10407.043 661251
1331.8347 -1974.4331 10607.841 793094
1425.3218 -2017.4923 10839.181 69120
1430.9845 -1937.8914 10411.517 1536
1481.9824 -1923.7402 10335.488 1024
1543.4297 -1923.7402 10335.488 266241
1639.4547 -1965.188 10558.17 464129
1697.3097 -1959.5123 10527.677 1583115
1751.4099 -1950.0594 10476.891 1518345
1813.6979 -1950.0594 10476.891 925954
1867.6163 -1941.3593 10430.148 1321220
1935.7327 -1947.5027 10463.154 1386502
1907.9279 -1859.7639 9991.7686 2438938
0 0 0 0
0 0 0 0
0 0 0 0
0 0 0 0
0 0 0 0
0 0 0 0
0 0 0 0
0 0 0 0
0 0 0 0
0 0 0 0
2664.8677 -1934.9115 10395.507 2572060
2857.6116 -2027.8295 10894.718 2244627
2922.3838 -2027.8295 10894.718 2903580
3056.5864 -2074.9622 11147.943 3693608
3088.1475 -2051.8953 11024.014 2310933
3300.8792 -2147.6624 11538.532 2113555
3396.5762 -2164.9338 11631.325 994313
3489.0181 -2179.4827 11709.49 1126663
3748.5771 -2295.813 12334.487 3298086
3821.9092 -2295.813 12334.487 1390858
3665.5652 -2160.4446 11607.206 2905121
3734.5735 -2160.4446 11607.206 4945213
3705.0972 -2104.5054 11306.667 2707222
3856.0232 -2151.2026 11557.553 4352811
3924.7361 -2151.2026 11557.553 4484390
3907.0876 -2104.6812 11307.611 3036178
4102.7798 -2172.7126 11673.118 73728
4006.9712 -2086.6785 11210.89 2377236
4055.042 -2077.1604 11159.754 3101726
3971.3123 -2001.5219 10753.378 3891245
3979.6035 -1973.9238 10605.104 2903331
3926.3 -1917.1113 10299.873 861962
3919.1025 -1884.2103 10123.109 3840
4162.9033 -1971.1531 10590.219 1124882
0 0 0 0
0 0 0 0
0 0 0 0
0 0 0 0
0 0 0 0
0 0 0 0
0 0 0 0
0 0 0 0
0 0 0 0
0 0 0 0
4443.6045 -1803.9453 9691.8779 858895
4571.3652 -1832.0548 9842.8994 529674
4368.542 -1728.6414 9287.2998 1187604
4279.8467 -1672.4062 8985.1709 595212
4478.9731 -1728.6414 9287.2998 660748
5028.5391 -1917.1106 10299.869 660749
4792.1401 -1805.0038 9697.5645 68612
5235.7749 -1948.6584 10469.363 1280
4642.7598 -1707.6483 9174.5127 1280
5217.6147 -1896.8009 10190.754 1024
5804.7979 -2086.041 11207.466 6320741
5871.4292 -2086.041 11207.466 5268822
5495.814 -1930.6797 10372.771 4348229
0 0 0 0
5993.7446 -2059.3857 11064.257 2897449
7410.7485 -2518.6116 13531.495 768
8113.7769 -2727.9287 14656.072 922379
8200.9111 -2727.9287 14656.072 329733
7896.1011 -2598.9241 13962.981 512
7979.1147 -2598.9241 13962.981 0
9316.8906 -3003.4119 16136.133 1027
9413.6377 -3003.6714 16137.526 770
9510.1084 -3003.8381 16138.423 198919
9605.5225 -3003.6714 16137.526 1026
9700.8926 -3003.4944 16136.576 1516827
7357.189 -2255.554 12118.19 1650464
7422.4531 -2253.4949 12107.128 5270871
6979.7739 -2098.7422 11275.704 4152388
9015.7861 -2685.1594 14426.289 2374949
8860.3652 -2614.0034 14043.997 4349248
6244.812 -1825.1581 9805.8457 5928275
5312.3398 -1538.2659 8264.4883 5665876
0 0 0 0
6519.2666 -1853.4631 9957.918 529672
6578.4692 -1853.4631 9957.918 3492150
6816.7422 -1903.4659 10226.562 1647896
8116.0449 -2246.2405 12068.154 1056271
6872.8872 -1885.509 10130.087 4085056
0 0 0 0
0 0 0 0
0 0 0 0
0 0 0 0
0 0 0 0
0 0 0 0
0 0 0 0
0 0 0 0
0 0 0 0
0 0 0 0
0 0 0 0
0 0 0 0
0 0 0 0
0 0 0 0
0 0 0 0
0 0 0 0
0 0 0 0
0 0 0 0
0 0 0 0
0 0 0 0
0 0 0 0
4755.9058 -1093.8585 5876.8652 1447438
4324.8584 -987.46326 5305.2456 3289645
4356.3999 -987.46326 5305.2456 657670
4369.8774 -983.39825 5283.4062 2631462
4680.748 -1045.839 5618.8755 1841691
4432.7002 -983.39825 5283.4062 789260
0 0 0 0
0 0 0 0
0 0 0 0
0 0 0 0
0 0 0 0
0 0 0 0
4664.8071 -985.98279 5297.292 1313807
4881.2354 -1024.8096 5505.8926 3090474
4913.9692 -1024.8096 5505.8926 722697
4827.2075 -1000.0535 5372.8882 2498595
0 0 0 0
0 0 0 0
0 0 0 0
0 0 0 0
0 0 0 0
0 0 0 0
0 0 0 0
0 0 0 0
0 0 0 0
0 0 0 0
0 0 0 0
0 0 0 0
0 0 0 0
0 0 0 0
0 0 0 0
-6470.4717 -1282.6973 7118.8062 2503452
-6653.0806 -1327.5812 7367.9062 464384
-6425.2012 -1290.6066 7162.7021 332288
-6501.4746 -1314.6405 7296.0869 1254148
-6306.6494 -1283.8109 7124.9868 858629
-6206.5757 -1271.9829 7059.3433 1451273
-6178.8652 -1274.9252 7075.6724 333312
-6249.7778 -1298.3967 7205.9365 793601
-6206.9365 -1298.3967 7205.9365 1846289
-6315.7754 -1330.3466 7383.2539 1977874
-6317.1304 -1339.9447 7436.5225 265984
-6272.918 -1339.9447 7436.5225 266496
-6224.4019 -1339.0188 7431.3838 266752
-6187.2979 -1340.5522 7439.894 858884
-6067.9126 -1324.1522 7348.876 1385228
-6106.1294 -1342.156 7448.7944 924422
-6229.4346 -1379.2621 7654.729 2240534
-6164.4028 -1374.908 7630.564 2174741
-6138.415 -1379.2621 7654.729 2437915
-6104.1733 -1381.8127 7668.8848 1845268
-6387.4033 -1456.8092 8085.106 1252625
-6451.2959 -1482.5385 8227.8994 1515799
-7078.0493 -1638.9971 9096.2256 331783
-7023.9702 -1638.9971 9096.2256 265478
-6969.8906 -1638.9971 9096.2256 1055509
-5932.0342 -1405.8492 7802.2842 1449756
-5776.8506 -1379.8621 7658.0586 770
-5731.3218 -1379.8621 7658.0586 1792
-5685.7925 -1379.8621 7658.0586 512
-5813.3394 -1422.2042 7893.0522 1450518
-5784.3975 -1426.6399 7917.6699 791820
-5737.3247 -1426.6399 7917.6699 133890
-5664.9536 -1420.2971 7882.4683 2048
-5566.0835 -1407.1494 7809.5005 1792
-5380.8433 -1371.762 7613.104 133377
-5267.9248 -1354.3678 7516.5684 1451026
-5218.9941 -1353.2676 7510.4629 1714455
-5120.4058 -1339.1613 7432.1748 594950
-5104.0562 -1346.505 7472.9312 2372637
-5125.8862 -1364.1383 7570.7935 858887
-5099.9844 -1369.2684 7599.2656 1121804
-5054.8042 -1369.2684 7599.2656 858631
-5041.2681 -1377.9176 7647.2671 595460
-4938.0811 -1361.9971 7558.9102 332290
-4819.5293 -1341.5073 7445.1943 595717
-5112.0293 -1436.1136 7970.248 793608
-5064.644 -1436.1136 7970.248 1319694
-4873.8179 -1395.0559 7742.3828 1977624
-4768.6211 -1377.9591 7647.4976 1056267
-4686.4575 -1367.2528 7588.0791 1792
-4693.2119 -1382.5322 7672.8774 660743
-4688.1992 -1394.6108 7739.9126 1056267
-4780.2222 -1436.0808 7970.0654 529412
-4650.1143 -1410.98 7830.7593 660998
-4615.416 -1414.6144 7850.9297 266497
-4568.7402 -1414.6144 7850.9297 1536
-4673.6816 -1462.0442 8114.1587 1516817
-4625.4409 -1462.0442 8114.1587 1582355
-4577.1997 -1462.0442 8114.1587 200704
-4477.4717 -1445.423 8021.9131 69120
-4452.5552 -1452.8547 8063.1587 768
-4404.6177 -1452.8547 8063.1587 1536
-4174.7085 -1392.1715 7726.374 1536
-4441.187 -1497.5134 8311.0088 990219
-4044.1575 -1378.9821 7653.1748 1451025
-4075.595 -1405.515 7800.4292 134912
-4237.0845 -1478.0249 8202.8496 397827
-4305.2046 -1519.2737 8431.7754 858885
-4301.1631 -1535.7294 8523.1025 860677
-4231.9072 -1529.0149 8485.8379 4151593
-4063.9629 -1486.0516 8247.3975 4547119
-3916.0508 -1449.4532 8044.2812 1717768
-3745.5625 -1403.4907 7789.1948 2769949
-3653.353 -1386.0762 7692.5459 663044
-3692.5681 -1418.7144 7873.6836 2044950
-3645.7568 -1418.7144 7873.6836 1452049
-3719.0864 -1466.0741 8136.5244 135424
-3693.0186 -1474.9832 8185.9683 1536
-3745.4819 -1515.9141 8413.1299 1536
-3695.4636 -1515.9141 8413.1299 397062
-3773.2485 -1569.0597 8708.0811 1280
-3646.3923 -1537.4025 8532.3877 398083
-3560.0198 -1522.1615 8447.8027 990731
-3476.4822 -1507.7141 8367.6211 858890
-3559.8264 -1566.2726 8692.6133 2048
-3508.1465 -1566.2726 8692.6133 134656
-3283.6296 -1487.953 8257.9492 793096
-3375.6006 -1552.8466 8618.1006 726279
-3319.0391 -1550.3594 8604.2969 727046
-3312.2231 -1571.3949 8721.041 69120
-3269.8398 -1575.9572 8746.3613 2048
-3150.303 -1542.8802 8562.7891 1024
-3185.2502 -1585.6189 8799.9834 133632
-3048.4868 -1542.8802 8562.7891 1280
-2862.1899 -1473.1946 8176.0425 924933
-2939.6841 -1539.2223 8542.4873 662784
-2917.8171 -1554.6313 8628.0059 2044690
-2914.0276 -1580.396 8770.9961 2242069
-2861.8816 -1580.396 8770.9961 1319946
-2899.167 -1630.6985 9050.1689 1536
-2890.6245 -1656.6392 9194.1367 200448
-2761.5642 -1613.179 8952.9375 1187594
-2657.239 -1582.7437 8784.0254 1582352
-2469.3271 -1500.3026 8326.4883 727301
-2438.9546 -1512.1638 8392.3164 924424
-2541.9038 -1608.9067 8929.2275 924424
-2598.0271 -1679.5062 9321.0449 397571
-2542.6108 -1679.5062 9321.0449 69376
-2559.3337 -1728.2189 9591.3945 925189
-2494.2385 -1722.644 9560.4551 1385995
-2315.7651 -1636.6786 9083.3584 1978129
-2261.762 -1636.6786 9083.3584 793092
-2245.2444 -1664.468 9237.585 1057029
-2259.7043 -1717.191 9530.1914 1518094
-2208.6489 -1721.5593 9554.4355 1584397
-2151.8455 -1721.5593 9554.4355 1913364
-2143.9587 -1761.7561 9777.5225 1452559
-2125.0427 -1794.8777 9961.3428 464898
-2022.0908 -1756.884 9750.4824 1319693
-1913.152 -1711.2922 9497.4541 331778
-1940.3013 -1788.3589 9925.1641 67840
-1881.2935 -1788.3589 9925.1641 397572
-1785.7871 -1752.54 9726.374 67840
-1723.7883 -1748.3077 9702.8857 661250
-1665.1926 -1747.3535 9697.5898 2043669
-1607.5377 -1747.3535 9697.5898 924677
-1571.7332 -1771.9878 9834.3066 1319946
-1508.4966 -1766.4037 9803.3154 990469
-1487.1276 -1811.3666 10052.854 727808
-1436.6758 -1823.1877 10118.46 68864
-1388.7518 -1839.3905 10208.383 1714711
-1361.7235 -1886.0149 10467.143 199427
-1233.3885 -1790.0739 9934.6816 1024
-1174.3241 -1790.0739 9934.6816 768
-1114.6433 -1789.0846 9929.1914 768
-1050.1439 -1779.8179 9877.7627 1024
-1000.6651 -1796.4188 9969.8955 1536
-949.75043 -1812.3701 10058.424 595206
-915.33728 -1864.0704 10345.354 67840
-836.1676 -1825.5076 10131.334 1253391
-778.62732 -1831.8439 10166.5 660998
-718.18463 -1831.8439 10166.5 265217
-657.742 -1831.8439 10166.5 768
-591.87207 -1815.1992 10074.124 463362
-543.82648 -1855.6261 10298.488 397824
-492.34546 -1893.1014 10506.472 1122057
-426.96765 -1880.2693 10435.255 793349
-364.92715 -1880.2693 10435.255 990471
-297.50247 -1846.8452 10249.755 2816
-236.19913 -1843.9901 10233.91 1280
-176.56429 -1856.6995 10304.445 1536
-115.16846 -1854.5573 10292.557 134400
-54.038689 -1856.6995 10304.445 463363
7.3076181 -1878.1638 10423.569 67584
68.552338 -1858.4735 10314.291 1536
128.36284 -1836.8535 10194.304 2304
187.6152 -1823.6768 10121.174 2048
249.5788 -1836.8535 10194.304 2560
308.49115 -1826.8127 10138.578 200704
369.45297 -1830.2069 10157.415 2816
429.84161 -1830.2069 10157.415 398848
503.42844 -1879.4802 10430.876 530689
559.4881 -1859.6871 10321.026 1320712
626.35199 -1876.1692 10412.5 991233
685.69067 -1869.173 10373.672 331776
761.66425 -1904.9355 10572.149 68608
816.21899 -1885.7605 10465.73 1583883
958.60583 -2057.8521 11420.816 1913106
1002.9467 -2010.6229 11158.701 1536
1069.2883 -2010.6229 11158.701 1280
1076.7555 -1906.3864 10580.201 1024
1151.7878 -1926.677 10692.812 266242
1210.9956 -1919.759 10654.418 463618
1223.6584 -1843.4099 10230.69 660996
1312.8394 -1884.1055 10456.546 529668
1396.9977 -1914.2391 10623.783 332544
1439.541 -1887.2094 10473.771 68864
1501.8104 -1887.2094 10473.771 2048
1577.9661 -1903.9642 10566.759 265984
1640.7883 -1903.9642 10566.759 925442
1697.3097 -1896.9222 10527.677 794624
1751.4099 -1887.7714 10476.891 1848070
1813.6979 -1887.7714 10476.891 1651208
1853.7239 -1865.3694 10352.562 2440718
1935.7327 -1885.2963 10463.154 2045193
0 0 0 0
0 0 0 0
0 0 0 0
0 0 0 0
0 0 0 0
0 0 0 0
0 0 0 0
0 0 0 0
0 0 0 0
0 0 0 0
0 0 0 0
0 0 0 0
2805.2327 -1927.0752 10695.021 1190148
2890.7458 -1941.8052 10776.771 3099678
2954.3792 -1941.5176 10775.175 400386
3018.4404 -1941.5176 10775.175 2837787
3153.6885 -1986.3545 11024.014 1588234
3369.4788 -2079.0625 11538.532 2640926
3438.0786 -2079.0625 11538.532 2575133
3748.5771 -2222.4812 12334.487 1259277
3829.0137 -2226.6125 12357.416 1391116
3665.5652 -2091.4365 11607.206 2772769
3637.876 -2037.2842 11306.667 1917714
3662.0632 -2013.6216 11175.343 864514
3730.998 -2014.9685 11182.818 2575635
3839.8606 -2037.4541 11307.611 3101721
3779.4927 -1970.9166 10938.336 5207863
3844.5242 -1970.9166 10938.336 5010228
3909.5557 -1970.9166 10938.336 2509589
3959.6062 -1963.4878 10897.107 1588491
4004.0605 -1953.5681 10842.054 1324294
4016.1318 -1928.4131 10702.447 2770976
4431.1636 -2094.5134 11624.282 1650965
3987.5356 -1855.8756 10299.873 729355
4210.709 -1930.1047 10711.835 266244
3992.2629 -1802.7081 10004.801 1792
0 0 0 0
0 0 0 0
0 0 0 0
0 0 0 0
0 0 0 0
0 0 0 0
0 0 0 0
0 0 0 0
0 0 0 0
3863.9434 -1518.519 8427.5869 69377
4518.646 -1753.0829 9729.3867 1846302
4272.3081 -1636.5621 9082.7119 1254166
4326.3076 -1636.5621 9082.7119 662286
4478.9731 -1673.4259 9287.2998 1649439
5028.5391 -1855.8749 10299.869 1846562
5059.7783 -1844.9375 10239.168 925459
5411.9844 -1949.9021 10821.708 68355
5731.2378 -2040.6674 11325.444 1024
5696.1035 -2004.6064 11125.311 5334615
6850.8042 -2383.3008 13227.016 5466969
6929.4424 -2383.3008 13227.016 3888449
5801.1318 -1972.8429 10949.026 5006673
5557.4829 -1869.0109 10372.771 3097649
5993.7446 -1993.6055 11064.257 5004614
7368.8237 -2424.3696 13454.943 1977370
7604.6411 -2475.0857 13736.41 1253903
8200.9111 -2640.7944 14656.072 2569000
7896.1011 -2515.9102 13962.981 329989
8311.1543 -2620.6064 14544.031 1054226
9316.7012 -2907.4185 16135.803 66562
9413.1553 -2907.5801 16136.699 132357
9509.375 -2907.6665 16137.179 67587
9604.5156 -2907.4246 16135.835 858899
6222.2202 -1864.9279 10350.112 3491900
7350.4731 -2181.5146 12107.128 927249
7429.2354 -2183.5078 12118.19 2309670
8139.4307 -2369.2634 13149.11 2902317
9015.7861 -2599.3911 14426.289 5205065
8860.3652 -2530.5081 14043.997 3757361
6275.6792 -1775.5929 9854.3145 2177308
6303.1104 -1766.8596 9805.8457 398341
6082.4814 -1689.3884 9375.8906 1321237
6575.1235 -1809.6339 10043.237 3886651
7072.3105 -1928.9547 10705.452 1189398
6955.7729 -1880.2479 10435.137 3558972
7017.8125 -1880.2479 10435.137 1913633
6872.8872 -1825.2827 10130.087 4282441
6625.9312 -1744.4108 9681.2578 3753015
0 0 0 0
0 0 0 0
0 0 0 0
0 0 0 0
0 0 0 0
0 0 0 0
0 0 0 0
0 0 0 0
0 0 0 0
0 0 0 0
0 0 0 0
0 0 0 0
0 0 0 0
0 0 0 0
0 0 0 0
0 0 0 0
0 0 0 0
0 0 0 0
0 0 0 0
0 0 0 0
0 0 0 0
4324.8584 -955.92206 5305.2456 723719
4356.3999 -955.92206 5305.2456 3882295
4647.3423 -1012.4332 5618.8755 2237217
4680.748 -1012.4332 5618.8755 2631720
0 0 0 0
0 0 0 0
0 0 0 0
0 0 0 0
0 0 0 0
0 0 0 0
4633.3135 -954.48895 5297.292 787719
4664.8071 -954.48895 5297.292 1576979
4704.6978 -956.19543 5306.7632 721669
4842.4136 -977.62915 5425.7173 2497570
4827.2075 -968.11017 5372.8882 3550004
0 0 0 0
0 0 0 0
0 0 0 0
0 0 0 0
0 0 0 0
0 0 0 0
0 0 0 0
0 0 0 0
0 0 0 0
0 0 0 0
0 0 0 0
0 0 0 0
0 0 0 0
0 0 0 0
0 0 0 0
0 0 0 0
-6490.5117 -1252.4076 7187.8701 134912
-6385.8247 -1240.3739 7118.8062 397825
-6392.9517 -1250.0432 7174.3003 792582
-6208.6567 -1222.1613 7014.2788 857862
-6220.9321 -1232.8584 7075.6724 397312
-6178.8652 -1232.8584 7075.6724 792580
-6207.4541 -1247.0527 7157.1377 2560
-6187.5835 -1251.6406 7183.4688 1845521
-6164.0952 -1255.5554 7205.9365 332032
-6312.7656 -1294.8372 7431.3838 990467
-6189.6211 -1278.5267 7337.7739 990468
-6145.9961 -1278.5267 7337.7739 595713
-6133.7842 -1285.1083 7375.5469 859140
-6143.0654 -1296.3199 7439.894 2372630
-6308.708 -1340.9293 7695.9175 4149294
-6240.8896 -1336.2052 7668.8052 2636566
-6183.9248 -1333.7526 7654.729 2439699
-6149.7671 -1336.2191 7668.8848 1650444
-6161.2876 -1348.7216 7740.6392 2044947
-6500.2129 -1433.6213 8227.8994 3096103
-6485.6353 -1441.2522 8271.6953 3950904
-7245.4839 -1622.4094 9311.4004 132610
-7225.1436 -1630.3113 9356.751 768
-7169.5151 -1630.3113 9356.751 199684
-6067.4917 -1390.5057 7980.4487 1910816
-6081.7153 -1404.7501 8062.2007 2634538
-5839.8154 -1359.5916 7803.0254 1187091
-5746.3633 -1348.5474 7739.6401 2240034
-5700.3491 -1348.5474 7739.6401 1451542
-5842.8979 -1393.5194 7997.7451 1912605
-5780.9365 -1390.0538 7977.8555 1254676
-5690.2524 -1379.5671 7917.6699 859660
-5677.2769 -1387.9028 7965.5103 333316
-5385.9355 -1327.7552 7620.3086 1517076
-5294.084 -1316.1831 7553.8931 595718
-5218.9941 -1308.6158 7510.4629 792330
-5120.4058 -1294.975 7432.1748 924683
-5089.3516 -1298.3251 7451.4014 1253389
-5059.6274 -1302.0763 7472.9312 660486
-5144.4956 -1335.645 7665.5898 1121802
-5086.1182 -1332.2914 7646.3423 133888
-5041.2681 -1332.4524 7647.2671 1648145
-4938.0811 -1317.0573 7558.9102 1451025
-4893.1416 -1317.0573 7558.9102 660741
-4965.8794 -1349.0254 7742.3828 397825
-5078.7021 -1392.5831 7992.3716 464385
-4873.8179 -1349.0254 7742.3828 1977875
-4768.6211 -1332.4927 7647.4976 1057287
-4686.4575 -1322.1396 7588.0791 2438935
-4655.7588 -1326.2457 7611.645 1056776
-4880.7964 -1403.9969 8057.8779 1846803
-4832.8901 -1403.9969 8057.8779 793865
-4732.8379 -1388.6965 7970.0654 793352
-4649.2666 -1377.9712 7908.5103 529924
-4602.2485 -1377.9712 7908.5103 135168
-4673.6816 -1413.8032 8114.1587 134656
-4657.7769 -1423.687 8170.8843 332290
-4592.4272 -1418.5066 8141.1528 1121547
-4544.0259 -1418.5066 8141.1528 1280
-4452.9268 -1405.0342 8063.8311 660997
-4404.6177 -1404.917 8063.1587 1252877
-4222.0425 -1361.4999 7813.9771 463616
-4175.5859 -1361.4999 7813.9771 529665
-4199.3105 -1384.6406 7946.7876 1911572
-4267.2456 -1423.0515 8167.2368 859141
-4218.6895 -1423.0515 8167.2368 661507
-4103.3325 -1400.256 8036.4082 68352
-4255.0752 -1469.1444 8431.7754 661764
-4055.7109 -1417.0039 8132.5288 3328
-3858.0442 -1364.2057 7829.5063 1280
-3811.4956 -1364.2057 7829.5063 1189388
-3745.5625 -1357.1818 7789.1948 992518
-3666.5706 -1345.191 7720.377 1255179
-3679.8909 -1367.1931 7846.6519 1057801
-3633.292 -1367.2125 7846.7637 1517587
-4071.5972 -1552.0759 8907.7393 68096
-4018.6384 -1552.0759 8907.7393 1536
-3698.0366 -1447.3268 8306.5586 1024
-3648.6519 -1447.3268 8306.5586 134402
-3773.2485 -1517.2877 8708.0811 134913
-3646.3923 -1486.675 8532.3877 68608
-3669.7046 -1517.2877 8708.0811 792585
-3564.0525 -1494.6914 8578.3955 990987
-3559.8264 -1514.5925 8692.6133 924933
-3508.1465 -1514.5925 8692.6133 398082
-3445.8425 -1509.9373 8665.8955 1911828
-3415.9209 -1519.5458 8721.041 726789
-3364.0723 -1519.5458 8721.041 595204
-3312.2231 -1519.5458 8721.041 200448
-3208.8228 -1495.5195 8583.1484 199936
-3150.303 -1491.9722 8562.7891 1280
-3106.7642 -1495.5195 8583.1484 1024
-2902.3867 -1420.4686 8152.4131 265728
-2862.1899 -1424.5858 8176.0425 1536
-3020.9165 -1529.5647 8778.542 134656
-2968.7256 -1529.5647 8778.542 332800
-2935.7751 -1539.6553 8836.4541 1320457
-2910.0654 -1553.9801 8918.668 1583116
-2898.5537 -1576.5592 9048.2549 1517325
-2799.8794 -1551.6868 8905.5059 68352
-2725.8323 -1539.7671 8837.0957 1280
-2673.2932 -1539.7671 8837.0957 659718
-2617.3784 -1537.7836 8825.7119 67072
-2594.9905 -1555.8199 8929.2275 1024
-2547.146 -1559.0287 8947.6426 1280
-2526.3833 -1579.3037 9064.0059 1024
-2542.6108 -1624.0898 9321.0449 1536
-2551.0781 -1665.8046 9560.4551 595712
-2491.0679 -1663.6871 9548.3027 333056
-2403.9329 -1642.9325 9429.1875 2307859
-2311.3586 -1617.3812 9282.542 925188
-2288.4678 -1640.5334 9415.418 2044691
-2259.7043 -1660.5315 9530.1914 1518093
-2235.5532 -1685.0344 9670.8203 134657
-2158.6787 -1670.0422 9584.7764 134912
-2101.6946 -1670.0422 9584.7764 530948
-2026.0819 -1654.8274 9497.4541 530946
-1969.6171 -1654.8274 9497.4541 530435
-1990.2128 -1721.4828 9880.0068 858887
-1921.1571 -1712.2883 9827.2363 1450768
-1862.7314 -1712.2883 9827.2363 1280
-1780.2659 -1689.4742 9696.3018 1280
-1699.9945 -1667.2855 9568.9551 1024
-1621.1697 -1645.0278 9441.2129 2048
-1607.5377 -1689.6989 9697.5898 530432
-1566.78 -1708.1202 9803.3154 1516812
-1508.4966 -1708.1202 9803.3154 1057291
-1450.2131 -1708.1202 9803.3154 859399
-1416.7751 -1738.6095 9978.3008 596996
-1365.9258 -1749.4634 10040.594 134145
-1340.8676 -1795.8522 10306.83 2240543
-1279.5907 -1795.8522 10306.83 1024
-1218.3137 -1795.8522 10306.83 1024
-1122.4211 -1742.125 9998.4766 1024
-1062.9775 -1742.125 9998.4766 1280
-1006.0688 -1746.5259 10023.734 1280
-956.63483 -1765.2739 10131.334 199425
-896.40131 -1765.2739 10131.334 68096
-836.1676 -1765.2739 10131.334 331777
-773.7243 -1760.2466 10102.481 924424
-717.66327 -1770.1152 10159.119 1582353
-666.28125 -1794.3987 10298.488 661251
-605.05383 -1794.3987 10298.488 727046
-543.82648 -1794.3987 10298.488 332289
-480.87204 -1787.9773 10261.634 463618
-419.86377 -1787.9773 10261.634 512
-364.92715 -1818.2289 10435.255 595201
-302.88666 -1818.2289 10435.255 858374
-236.19913 -1783.1467 10233.91 1280
-176.56429 -1795.4368 10304.445 1024
-115.30148 -1795.4368 10304.445 1280
-54.663403 -1816.1926 10423.569 68864
7.3210588 -1819.5331 10442.741 332033
69.278641 -1816.1926 10423.569 1187340
129.46443 -1791.4893 10281.79 398082
187.6152 -1763.5035 10121.174 134144
247.78841 -1763.5035 10121.174 2560
307.96158 -1763.5035 10121.174 792069
376.36423 -1802.9257 10347.427 1280
430.35306 -1771.9238 10169.5 398592
490.81357 -1771.9238 10169.5 333568
551.27405 -1771.9238 10169.5 1320967
622.4754 -1803.0355 10348.057 1452808
683.99756 -1803.0355 10348.057 1452553
754.95288 -1825.8497 10478.994 2439698
815.89441 -1822.8136 10461.568 2044942
879.55396 -1825.8497 10478.994 1846542
1002.9467 -1944.2814 11158.701 1536
1069.2883 -1944.2814 11158.701 1024
1088.2161 -1863.1053 10692.812 1024
1151.7878 -1863.1053 10692.812 1024
1178.0895 -1805.9716 10364.908 134145
1223.6584 -1782.5856 10230.69 331776
1304.844 -1810.8427 10392.864 134656
1377.2715 -1824.9398 10473.771 134912
1439.541 -1824.9398 10473.771 1536
1537.4537 -1868.2521 10722.351 1056263
1627.733 -1899.2091 10900.021 134912
1686.1219 -1892.0111 10858.709 858626
1692.4805 -1829.1132 10497.723 728064
1730.6261 -1803.8204 10352.562 597248
1755.5995 -1767.0074 10141.283 1321472
1828.486 -1779.2622 10211.616 2506253
1889.1969 -1779.2622 10211.616 2769681
0 0 0 0
0 0 0 0
0 0 0 0
0 0 0 0
0 0 0 0
0 0 0 0
0 0 0 0
0 0 0 0
0 0 0 0
0 0 0 0
0 0 0 0
0 0 0 0
2717.4434 -1805.1729 10360.323 268544
2779.0386 -1805.1729 10360.323 4087084
2932.4023 -1863.4902 10695.021 2969627
3186.5964 -1982.0482 11375.454 4088367
3153.6885 -1920.8135 11024.014 1521932
3333.842 -1989.1992 11416.496 1521422
3272.2417 -1913.4874 10981.968 1060873
3686.4333 -2113.5208 12130.007 1981718
3756.1233 -2112.156 12122.175 1257997
3523.3306 -1943.9524 11156.812 1324044
3510.0681 -1900.8495 10909.435 665859
3566.8716 -1896.5659 10884.851 1915667
3642.8408 -1902.4441 10918.587 3430433
3707.7549 -1902.4441 10918.587 3957539
3753.6304 -1892.8434 10863.486 2706965
3818.2163 -1892.8434 10863.486 1259780
3909.5557 -1905.8851 10938.336 1456903
3959.6062 -1898.7015 10897.107 2180630
4078.0779 -1924.0302 11042.475 2509596
4256.145 -1976.228 11342.051 1521421
4431.1636 -2025.4038 11624.282 2178330
4335.7437 -1951.3552 11199.3 3584
4402.3267 -1951.3552 11199.3 1792
4004.4717 -1748.5579 10035.396 768
4061.3025 -1747.3392 10028.402 859922
0 0 0 0
0 0 0 0
0 0 0 0
0 0 0 0
0 0 0 0
0 0 0 0
0 0 0 0
0 0 0 0
3835.5774 -1457.6348 8365.7188 199171
3914.0476 -1468.4147 8427.5869 1024
3964.1519 -1468.4147 8427.5869 1024
4423.7573 -1618.2102 9287.2998 1280
4742.3384 -1713.3616 9833.3965 1538
5107.3389 -1822.7621 10461.273 68101
5169.5342 -1822.7621 10461.273 661007
5563.8174 -1938.4634 11125.311 267531
6034.6816 -2077.8137 11925.076 462857
5798.5708 -1973.3345 11325.444 726797
6850.8042 -2304.6624 13227.016 1979684
7044.8828 -2343.0566 13447.369 3690301
7008.0806 -2304.6624 13227.016 2637614
6774.6553 -2203.1765 12644.563 4218183
6835.2256 -2198.479 12617.604 6652010
6910.2407 -2198.479 12617.604 4941134
7604.6411 -2393.4189 13736.41 2308130
7686.3076 -2393.4189 13736.41 3030571
6611.1421 -2036.9832 11690.739 923151
6680.647 -2036.9832 11690.739 462856
6484.7944 -1956.9067 11231.161 397063
9412.6318 -2811.4868 16135.803 331529
8041.3359 -2377.6577 13645.952 1582364
8122.4653 -2377.6577 13645.952 727825
7711.3848 -2235.0002 12827.206 1057558
7357.189 -2111.4619 12118.19 1189400
7752.7075 -2203.396 12645.822 332807
9566.0215 -2692.6453 15453.742 1190163
9015.7861 -2513.6228 14426.289 4877639
6983.5371 -1928.6791 11069.156 4350521
6659.8369 -1822.1107 10457.534 5665869
0 0 0 0
6082.4814 -1633.6462 9375.8906 2176546
6138.2236 -1633.6462 9375.8906 3031087
6634.8335 -1749.924 10043.237 3097137
8038.7891 -2101.304 12059.892 1320470
7087.7876 -1836.3378 10539.187 2767401
7079.8521 -1818.2083 10435.137 3885113
6744.3906 -1717.0109 9854.3408 1514775
0 0 0 0
0 0 0 0
0 0 0 0
0 0 0 0
0 0 0 0
0 0 0 0
0 0 0 0
0 0 0 0
0 0 0 0
0 0 0 0
0 0 0 0
0 0 0 0
0 0 0 0
0 0 0 0
0 0 0 0
0 0 0 0
0 0 0 0
0 0 0 0
0 0 0 0
0 0 0 0
0 0 0 0
4385.5981 -937.36316 5379.7539 2499106
4356.3999 -924.38086 5305.2456 2368035
5116.1421 -1077.7866 6185.6782 1118225
0 0 0 0
0 0 0 0
0 0 0 0
0 0 0 0
0 0 0 0
0 0 0 0
0 0 0 0
4633.3135 -922.99506 5297.292 1773587
3934.771 -778.54749 4468.2725 1116172
3961.3359 -778.54749 4468.2725 1708565
0 0 0 0
0 0 0 0
0 0 0 0
0 0 0 0
0 0 0 0
0 0 0 0
0 0 0 0
0 0 0 0
0 0 0 0
0 0 0 0
0 0 0 0
0 0 0 0
0 0 0 0
0 0 0 0
0 0 0 0
0 0 0 0
0 0 0 0
0 0 0 0
-6406.3198 -1193.9823 7094.6318 1280
-6364.1396 -1193.9823 7094.6318 1792
-6359.3447 -1201.0428 7136.5854 923913
-6289.7471 -1195.8771 7105.8911 1121290
-6247.5005 -1195.8771 7105.8911 858627
-6169.6226 -1189.0104 7065.0884 200192
-6179.022 -1198.9846 7124.356 1714450
-6284.3926 -1227.8475 7295.8594 1516811
-6315.7754 -1242.5555 7383.2539 594178
-6332.0215 -1254.4706 7454.0527 265728
-6228.3853 -1242.6355 7383.729 595712
-6231.5303 -1252.0878 7439.894 990469
-6140.5889 -1242.6355 7383.729 1384970
-6174.4238 -1258.4792 7477.8721 1319943
-6243.1255 -1281.7109 7615.9146 859650
-6175.1025 -1277.0073 7587.9658 991492
-6126.3853 -1276.2563 7583.5039 859393
-6151.8398 -1291.0604 7671.4697 1188613
-6161.2876 -1302.7013 7740.6392 399104
-6618.6348 -1409.9308 8377.7959 1254154
-6568.8257 -1409.9308 8377.7959 3819316
-6402.3789 -1384.7041 8227.8994 1913376
-6080.958 -1325.3135 7875.0005 462087
-6223.8516 -1366.9812 8122.5898 2372133
-6115.0181 -1353.58 8042.9595 1516825
-6081.7153 -1356.818 8062.2007 1187603
-6033.7832 -1356.818 8062.2007 3820094
-5985.8511 -1356.818 8062.2007 1583133
-5890.4468 -1345.9706 7997.7451 1280
-5842.8979 -1345.9706 7997.7451 661259
-5780.9365 -1342.6233 7977.8555 595722
-5733.5059 -1342.6233 7977.8555 332551
-5692.1367 -1344.0544 7986.3594 661772
-5644.6553 -1344.0544 7986.3594 332038
-5294.084 -1271.2731 7553.8931 2304
-5179.3721 -1254.3682 7453.4443 1536
-5135.0596 -1254.3682 7453.4443 1024
-5090.7466 -1254.3682 7453.4443 266499
-5129.9854 -1275.1361 7576.8477 1647381
-5144.4956 -1290.0709 7665.5898 1280
-5086.1182 -1286.8317 7646.3423 264705
-4994.7192 -1275.1038 7576.6553 266496
-4949.6738 -1275.1038 7576.6553 1516818
-4951.5371 -1287.299 7649.1191 463874
-4922.752 -1291.6785 7675.1421 727813
-4942.1719 -1308.907 7777.5137 595461
-4895.9326 -1308.907 7777.5137 1122570
-4771.335 -1287.7584 7651.8491 924934
-4680.4707 -1275.3949 7578.3853 596483
-4655.7588 -1280.9923 7611.645 530433
-4544.5527 -1262.6681 7502.7622 1385485
-4587.9111 -1287.3505 7649.4248 661254
-4542.4331 -1287.3505 7649.4248 1280
-4649.2666 -1330.9529 7908.5103 1280
-4617.333 -1335.3153 7934.4316 1280
-4579.5752 -1338.066 7950.7764 332037
-4532.3057 -1338.066 7950.7764 266241
-4609.1987 -1375.1089 8170.8843 464132
-4560.6206 -1375.1089 8170.8843 595458
-4501.811 -1371.9906 8152.3555 1121802
-4408.8618 -1358.2869 8070.9282 1056009
-4360.8779 -1358.2869 8070.9282 1582607
-4175.5859 -1315.0436 7813.9771 595715
-4199.3105 -1337.3948 7946.7876 1188360
-4387.6006 -1413.2617 8397.5879 1319945
-4337.6743 -1413.2617 8397.5879 1977879
-4287.7485 -1413.2617 8397.5879 661506
-4216.3809 -1406.1111 8355.0996 2816
-4044.5432 -1364.885 8110.1348 4096
-3947.9116 -1348.3499 8011.8823 1536
-3900.2783 -1348.3499 8011.8823 1536
-3822.7974 -1337.9036 7949.8105 1792
-3697.24 -1310.1593 7784.9546 1536
-3679.8909 -1320.5426 7846.6519 1536
-3645.7568 -1325.0918 7873.6836 859145
-4142.063 -1525.0616 9061.9023 66816
-4018.6384 -1499.1169 8907.7393 1536
-3673.7063 -1388.7445 8251.9072 133377
-3494.0803 -1338.7195 7954.6592 989453
-3690.8184 -1433.5001 8517.8447 1253391
-3640.1772 -1433.5001 8517.8447 1280
-3615.0532 -1443.6904 8578.3955 1792
-3564.0525 -1443.6904 8578.3955 2044184
-3513.0515 -1443.6904 8578.3955 1781267
-3497.3635 -1458.4161 8665.8955 266753
-3445.8425 -1458.4161 8665.8955 265728
-3419.302 -1469.1494 8729.6729 858633
-3399.616 -1483.2042 8813.1855 768
-3315.5015 -1469.1494 8729.6729 1024
-3130.2957 -1409.1404 8373.0996 2048
-3150.303 -1441.064 8562.7891 67840
-3099.395 -1441.064 8562.7891 768
-3048.4868 -1441.064 8562.7891 462852
-3087.8984 -1484.4845 8820.7939 1280
-3020.9165 -1477.3738 8778.542 266242
-2927.2876 -1456.7524 8656.0098 67072
-2935.7751 -1487.1201 8836.4541 397570
-2937.627 -1515.1719 9003.1377 398082
-2893.4668 -1520.0924 9032.375 1122311
-2823.6162 -1511.4471 8981.0049 464128
-2743.4023 -1496.8145 8894.0576 266752
-2690.5247 -1496.8145 8894.0576 331521
-2682.78 -1522.4265 9046.2441 1280
-2628.9973 -1522.4265 9046.2441 1024
-2552.7747 -1509.16 8967.415 529923
-2654.2046 -1602.5934 9522.5957 1024
-2551.4753 -1574.1427 9353.542 990468
-2495.866 -1574.1427 9353.542 266752
-2440.2566 -1574.1427 9353.542 727299
-2403.9329 -1586.8734 9429.1875 2241299
-2311.3586 -1562.194 9282.542 661763
-2256.1714 -1562.194 9282.542 198657
-2232.4905 -1584.556 9415.418 1187847
-2235.8643 -1627.7651 9672.166 1536
-2158.6787 -1613.0581 9584.7764 68096
-2059.6716 -1580.8053 9393.1309 198912
-2003.8267 -1580.8053 9393.1309 397825
-2035.2313 -1651.6089 9813.8457 265985
-2001.3551 -1672.0525 9935.3213 265984
-1942.287 -1672.0525 9935.3213 1792
-1862.7314 -1653.8625 9827.2363 595461
-1704.2196 -1562.1215 9282.1123 1024
-1607.4249 -1522.7047 9047.8975 1536
-1562.7784 -1531.6685 9101.1602 924934
-1582.1251 -1606.2439 9544.2861 859396
-1561.6248 -1644.4082 9771.0586 991494
-1503.5331 -1644.4082 9771.0586 2702366
-1450.2131 -1649.8368 9803.3154 2110230
-1406.3883 -1666.9742 9905.1465 332545
-1365.9258 -1689.7693 10040.594 463619
-1309.5481 -1694.0594 10066.086 1536
-1249.7024 -1694.0594 10066.086 1024
-1207.4381 -1719.0909 10214.823 133635
-1122.4211 -1682.6812 9998.4766 67840
-1087.194 -1721.0156 10226.259 768
-1009.5505 -1692.7699 10058.424 1024
-956.63483 -1705.0403 10131.334 68096
-883.43359 -1680.3746 9984.7705 1536
-836.1676 -1705.0403 10131.334 67584
-778.06207 -1709.7164 10159.119 265472
-709.86749 -1691.1443 10048.764 726278
-650.12482 -1691.1443 10048.764 199680
-606.61414 -1737.6406 10325.045 989705
-545.22882 -1737.6406 10325.045 1024
-473.99051 -1702.255 10114.784 595461
-426.96765 -1756.1882 10435.255 2816
-366.23221 -1762.4686 10472.573 2306583
-303.96985 -1762.4686 10472.573 1253899
-247.72987 -1806.3826 10733.509 2304
-180.98553 -1777.5985 10562.474 924681
-115.77915 -1741.358 10347.134 265217
-55.391846 -1777.5985 10562.474 924682
7.3210588 -1757.4482 10442.741 1280
69.278641 -1754.2217 10423.569 2048
129.46443 -1730.3612 10281.79 133888
185.7252 -1686.1714 10019.215 330754
245.29222 -1686.1714 10019.215 2304
310.76419 -1718.8314 10213.281 1536
376.36423 -1741.4073 10347.427 1280
439.37067 -1747.3253 10382.591 1024
501.09802 -1747.3253 10382.591 332800
551.27405 -1711.4634 10169.5 464896
622.4754 -1741.5134 10348.057 1253641
675.95129 -1721.0271 10226.327 69632
754.95288 -1763.5494 10478.994 991491
816.20801 -1761.2936 10465.59 1714446
878.42889 -1761.2936 10465.59 1056772
972.2951 -1820.5468 10817.673 133376
1081.7524 -1899.8301 11288.772 133888
1114.4824 -1842.9692 10950.906 726536
1154.0857 -1803.1238 10714.146 463619
1190.2712 -1762.3864 10472.084 331777
1250.6722 -1759.7714 10456.546 858884
1312.8394 -1759.7714 10456.546 924933
1370.4934 -1753.9955 10422.226 1188104
1439.541 -1762.6704 10473.771 133888
1555.8397 -1826.0842 10850.576 1582096
1627.733 -1834.4054 10900.021 68608
1692.5367 -1834.4054 10900.021 1280
1720.6227 -1796.0775 10672.276 134144
1698.8223 -1710.2537 10162.312 134912
1755.5995 -1706.7147 10141.283 1320450
1828.486 -1718.5513 10211.616 2242829
1889.1969 -1718.5513 10211.616 2835216
1852.4928 -1632.6946 9701.4561 1519619
0 0 0 0
0 0 0 0
0 0 0 0
0 0 0 0
0 0 0 0
0 0 0 0
0 0 0 0
0 0 0 0
0 0 0 0
932.38989 -626.65204 3723.5608 397312
0 0 0 0
2872.7212 -1843.2076 10952.323 1584645
2732.3306 -1714.2728 10186.194 2967578
3099.9834 -1902.7665 11306.221 1782285
3186.5964 -1914.4178 11375.454 1387533
3179.7698 -1870.6161 11115.184 3328
3304.1187 -1904.1952 11314.711 596489
3272.2417 -1848.1967 10981.968 1980185
3469.5906 -1921.325 11416.496 1717268
3645.2664 -1979.8761 11764.406 927753
3516.2573 -1873.8523 11134.414 1322765
3502.1584 -1831.8524 10884.851 861448
3574.9275 -1835.9899 10909.435 5888
3642.8408 -1837.53 10918.587 6144
3707.7549 -1837.53 10918.587 3890986
3851.5691 -1875.9596 11146.935 2049292
3818.2163 -1828.2568 10863.486 2904346
3882.803 -1828.2568 10863.486 399361
3939.6016 -1824.6499 10842.054 1061123
4188.7139 -1908.7965 11342.051 533762
4256.145 -1908.7965 11342.051 1389323
4360.0928 -1924.9176 11437.843 3164969
4335.7437 -1884.7723 11199.3 265474
4402.3267 -1884.7723 11199.3 1280
4294.7046 -1811.3009 10762.734 1280
4271.0503 -1774.8805 10546.324 133633
4333.751 -1774.8805 10546.324 2048
4240.1309 -1711.7726 10171.337 3587
0 0 0 0
0 0 0 0
0 0 0 0
0 0 0 0
0 0 0 0
0 0 0 0
3369.0676 -1236.6599 7348.2217 512
3383.6631 -1226.1179 7285.5815 768
3426.9778 -1226.1179 7285.5815 768
3470.2925 -1226.1179 7285.5815 768
4742.3384 -1654.8993 9833.3965 512
5109.6992 -1761.3805 10466.107 512
5347.6465 -1821.2258 10821.708 1280
5963.7837 -2006.9159 11925.076 396040
7391.7393 -2458.2241 14606.745 2834997
7478.5806 -2458.2241 14606.745 3098936
8178.2886 -2657.3621 15790.021 1519133
8272.1641 -2657.3621 15790.021 1058069
8366.04 -2657.3621 15790.021 1650720
7660.6226 -2406.2942 14298.179 2046245
7592.2505 -2358.6448 14015.046 3033908
6100.6001 -1874.6676 11139.258 3824197
5733.0005 -1742.788 10355.63 5534558
7686.3076 -2311.7522 13736.41 6060122
5856.1348 -1742.788 10355.63 2437158
5831.9355 -1717.5294 10205.544 1024
5468.3721 -1593.8759 9470.7959 1384471
5517.6226 -1591.8403 9458.7002 1056276
6099.1519 -1741.8594 10350.112 1319959
0 0 0 0
0 0 0 0
0 0 0 0
0 0 0 0
8139.4307 -2212.9133 13149.11 3297076
6917.7275 -1862.8699 11069.156 532488
6684.3677 -1783.0659 10594.962 1454613
6636.6406 -1753.8079 10421.11 4152128
0 0 0 0
0 0 0 0
0 0 0 0
0 0 0 0
6955.7729 -1756.1683 10435.137 3360055
6950.7324 -1739.3821 10335.393 1649693
7012.1792 -1739.3821 10335.393 3031347
7073.626 -1739.3821 10335.393 3294262
6802.9771 -1658.4241 9854.3408 3425078
0 0 0 0
0 0 0 0
0 0 0 0
0 0 0 0
0 0 0 0
0 0 0 0
0 0 0 0
0 0 0 0
0 0 0 0
0 0 0 0
0 0 0 0
0 0 0 0
0 0 0 0
0 0 0 0
0 0 0 0
0 0 0 0
0 0 0 0
0 0 0 0
0 0 0 0
0 0 0 0
4385.5981 -905.37903 5379.7539 2894116
0 0 0 0
0 0 0 0
0 0 0 0
0 0 0 0
0 0 0 0
0 0 0 0
0 0 0 0
0 0 0 0
0 0 0 0
4559.5737 -877.31287 5212.9849 1576720
0 0 0 0
0 0 0 0
0 0 0 0
0 0 0 0
0 0 0 0
0 0 0 0
0 0 0 0
0 0 0 0
0 0 0 0
0 0 0 0
0 0 0 0
0 0 0 0
0 0 0 0
0 0 0 0
4291.6504 -749.35767 4452.6763 5916237
4596.6377 -797.69043 4739.8696 7627112
0 0 0 0
0 0 0 0
0 0 0 0
0 0 0 0
0 0 0 0
-6401.7739 -1158.6138 7136.5854 1024
-6405.0439 -1166.9398 7187.8701 198657
-6349.2437 -1164.5433 7173.1084 1779731
-6247.5005 -1153.6306 7105.8911 1714449
-6169.6226 -1147.0063 7065.0884 2241047
-6149.7695 -1151.1527 7090.6279 1122565
-6236.7373 -1175.4896 7240.5337 1648910
-6094.3096 -1156.6283 7124.356 1056260
-6077.2158 -1161.4564 7154.0947 1122054
-6189.6211 -1191.2764 7337.7739 133376
-6184.4873 -1198.7372 7383.729 924421
-6140.5889 -1198.7372 7383.729 463872
-6207.7744 -1220.5786 7518.2632 68608
-6220.2148 -1231.8948 7587.9658 398336
-6143.292 -1225.5488 7548.8774 793348
-6098.4121 -1225.5488 7548.8774 1122312
-6149.7031 -1245.0188 7668.8052 333056
-6036.2129 -1231.1703 7583.5039 794371
-6235.3145 -1281.3506 7892.5933 1912340
-6386.7056 -1322.4131 8145.522 2965288
-6141.4668 -1281.3506 7892.5933 3360303
-6080.958 -1278.4944 7875.0005 332035
-6223.8516 -1318.6902 8122.5898 793866
-6115.0181 -1305.7622 8042.9595 1188624
-6035.1216 -1298.8584 8000.4341 3096878
-6019.3828 -1305.7622 8042.9595 1057551
-5939.9922 -1298.8584 8000.4341 1978653
-5890.4468 -1298.4218 7997.7451 1978141
-5696.918 -1265.9818 7797.9282 529928
-5650.5571 -1265.9818 7797.9282 1122321
-5836.0132 -1318.3489 8120.4883 67329
-5787.7344 -1318.3489 8120.4883 793358
-5644.6553 -1296.5734 7986.3594 1792
-5340.6304 -1237.1455 7620.3086 397828
-5179.3721 -1210.0554 7453.4443 594438
-4993.0664 -1176.5953 7247.3438 1780494
-4923.0967 -1170.2054 7207.9849 3819819
-4880.2432 -1170.2054 7207.9849 661505
-5196.8198 -1257.1547 7743.5566 464386
-5074.9844 -1238.6545 7629.6035 924681
-5029.624 -1238.6545 7629.6035 529410
-4995.1992 -1241.3721 7646.3423 2108442
-5004.582 -1255.1263 7731.0625 2175002
-4922.752 -1246.0476 7675.1421 464386
-5030.5776 -1285.254 7916.6377 793350
-4983.5112 -1285.254 7916.6377 859144
-4849.6934 -1262.6675 7777.5137 332544
-4701.0117 -1235.739 7611.645 924934
-4740.7085 -1258.2866 7750.5288 1582865
-4694.6294 -1258.2866 7750.5288 2438427
-4579.0298 -1239.4685 7634.6167 660740
-4542.4331 -1241.8724 7649.4248 2304
-4589.457 -1267.4177 7806.7729 67328
-4602.2485 -1283.9346 7908.5103 198915
-4579.5752 -1290.7965 7950.7764 768
-4551.4746 -1296.2559 7984.4038 768
-4609.1987 -1326.5306 8170.8843 200449
-4456.5356 -1296.2559 7984.4038 2832421
-4294.3364 -1262.5255 7776.6392 1121802
-4313.0073 -1281.8152 7895.4556 727299
-4294.4648 -1290.3479 7948.0132 661506
-4219.1265 -1281.8152 7895.4556 2306329
-4199.9585 -1290.3479 7948.0132 1056261
-4373.312 -1358.8959 8370.2402 1056518
-4218.6895 -1325.9385 8167.2368 727045
-4103.3325 -1304.6986 8036.4082 792836
-4055.5542 -1304.6986 8036.4082 3840
-4007.7754 -1304.6986 8036.4082 1024
-3961.3787 -1305.1541 8039.2129 1024
-3939.6101 -1313.8337 8092.6768 1024
-3905.6145 -1318.6001 8122.0352 1024
-3968.1943 -1356.4994 8355.4795 1280
-3728.2695 -1290.6396 7949.8105 1280
-3734.8867 -1309.5315 8066.1763 333314
-4049.4468 -1438.2905 8859.2793 859912
-3714.8879 -1336.8495 8234.4443 2109977
-3665.9319 -1336.8495 8234.4443 662790
-3554.9878 -1313.9385 8093.3213 2560
-3386.4102 -1268.8048 7815.3169 267009
-3392.1099 -1288.6212 7937.3779 397826
-3589.5364 -1382.8593 8517.8447 660995
-3776.7971 -1475.8217 9090.4551 1188361
-3420.2532 -1355.9012 8351.7949 1254153
-3410.6177 -1371.9996 8450.9541 1452045
-3421.0198 -1396.7603 8603.4697 463618
-3419.302 -1417.2491 8729.6729 661766
-3442.3782 -1448.8047 8924.042 134144
-3389.3223 -1448.8047 8924.042 397315
-3130.2957 -1359.36 8373.0996 67840
-3157.7935 -1393.4611 8583.1484 512
-3106.7642 -1393.4611 8583.1484 924169
-3099.3184 -1413.3358 8705.5684 266240
-3087.8833 -1432.0355 8820.751 2560
-2948.803 -1391.162 8568.9863 200192
-2897.8582 -1391.162 8568.9863 1319691
-2945.6289 -1439.4 8866.1133 924934
-2937.627 -1461.6458 9003.1377 1254152
-2893.4668 -1466.3925 9032.375 726790
-2799.8794 -1445.7954 8905.5059 464128
-2746.9336 -1445.7954 8905.5059 924676
-2736.5625 -1468.644 9046.2441 530176
-2696.3782 -1476.0881 9092.0967 462594
-2628.9973 -1468.644 9046.2441 2174994
-2547.146 -1452.6361 8947.6426 529409
-2654.2046 -1545.979 9522.5957 332544
-2551.4753 -1518.5333 9353.542 133632
-2480.4724 -1509.1676 9295.8525 595712
-2424.6392 -1508.8147 9293.6797 69376
-2403.9329 -1530.8142 9429.1875 926212
-2315.6926 -1509.8323 9299.9473 2965538
-2288.4678 -1528.5789 9415.418 465412
-2293.3679 -1570.2615 9672.166 925189
-2253.8008 -1582.8584 9749.7578 463108
-2178.0574 -1570.0431 9670.8203 1536
-2101.6946 -1556.0739 9584.7764 68096
-2003.8267 -1524.9606 9393.1309 198913
-2022.2032 -1583.064 9751.0244 1318928
-2001.3551 -1612.9843 9935.3213 68352
-1942.287 -1612.9843 9935.3213 529668
-1862.7314 -1595.4368 9827.2363 1280
-1702.8247 -1505.7034 9274.5146 529412
-1644.3273 -1502.6349 9255.6143 661253
-1592.5455 -1505.7034 9274.5146 727300
-1595.2246 -1562.3298 9623.3105 464128
-1539.9573 -1564.3064 9635.4854 1452047
-1503.5331 -1586.3165 9771.0586 1978645
-1441.5392 -1582.0339 9744.6797 332288
-1383.6044 -1582.0339 9744.6797 1385997
-1365.9258 -1630.0751 10040.594 1057292
-1309.5481 -1634.2137 10066.086 768
-1249.7024 -1634.2137 10066.086 67584
-1194.7238 -1640.8984 10107.261 1186833
-1122.4211 -1623.2374 9998.4766 133889
-1087.194 -1660.2177 10226.259 1792
-1026.3959 -1660.2177 10226.259 768
-965.59802 -1660.2177 10226.259 768
-883.43359 -1621.0123 9984.7705 463365
-824.07141 -1621.0123 9984.7705 332034
-759.88403 -1610.7842 9921.7695 1536
-709.86749 -1631.4015 10048.764 1280
-663.27936 -1664.4111 10252.089 66816
-606.61414 -1676.2555 10325.045 790791
-541.37628 -1664.4111 10252.089 1024
-470.32001 -1629.4034 10036.457 768
-419.19302 -1663.2992 10245.24 331776
-358.28223 -1663.2992 10245.24 463617
-303.96985 -1700.2063 10472.573 1845776
-230.94189 -1624.4797 10006.128 398336
-181.23631 -1717.1775 10577.108 3840
-115.77915 -1679.8416 10347.134 990473
-55.391846 -1714.8016 10562.474 595205
7.1770997 -1662.0261 10237.398 68096
68.485046 -1672.8658 10304.167 792581
129.75714 -1673.0068 10305.036 332035
190.59253 -1669.2329 10281.79 1451531
246.52092 -1634.7522 10069.402 1517322
310.76419 -1658.1106 10213.281 529921
378.85971 -1691.0275 10416.035 1536
439.37067 -1685.5979 10382.591 3328
496.96057 -1671.6803 10296.864 596738
549.5636 -1645.8802 10137.946 1715471
648.42572 -1750.0282 10779.455 2504989
670.10944 -1645.8802 10137.946 464896
753.69745 -1698.4198 10461.568 69120
815.89441 -1698.4198 10461.568 1122310
878.09131 -1698.4198 10461.568 1385482
944.7832 -1706.5388 10511.578 1536
1036.6091 -1756.2328 10817.673 530179
1114.4824 -1777.863 10950.906 1385227
1131.2871 -1705.0632 10502.49 332801
1193.7273 -1705.0632 10502.49 69376
1256.1675 -1705.0632 10502.49 1384973
1296.0419 -1675.8839 10322.757 793091
1362.177 -1681.765 10358.982 266752
1432.4564 -1692.0325 10422.226 332544
1537.4537 -1740.7574 10722.351 134144
1571.1829 -1708.1229 10521.336 134144
1661.6306 -1737.2886 10700.984 792835
1732.7097 -1744.7993 10747.247 1536
1796.605 -1744.7993 10747.247 267264
1755.5995 -1646.4219 10141.283 1781000
