# .PCD v0.7 - Point Cloud Data file format
VERSION 0.7
FIELDS x y z rgb
SIZE 4 4 4 4
TYPE F F F U
COUNT 1 1 1 1
WIDTH 1444
HEIGHT 1
VIEWPOINT 0 0 0 1 0 0 0
POINTS 1444
DATA ascii
0 0 0 0
0 0 0 0
0 0 0 0
1513.285 -1669.0795 4233.939 1254943
1540.5632 -1671.3645 4239.7354 2044714
1419.1071 -1514.811 3842.6077 2240553
0 0 0 0
0 0 0 0
0 0 0 0
1653.0538 -1657.7842 4205.2866 14607326
1518.8666 -1500.5186 3806.3521 3033141
1536.5127 -1495.6674 3794.0459 2441000
1559.0693 -1495.6674 3794.0459 1979938
1503.301 -1421.5991 3606.1577 334602
1476.8048 -1376.906 3492.7852 3295032
1389.4659 -1277.512 3240.6531 1515288
1408.7325 -1277.512 3240.6531 5269078
1436.9146 -1285.4877 3260.8853 1124875
1456.3014 -1285.4877 3260.8853 861445
1450.5135 -1263.5579 3205.2559 994316
1491.6489 -1282.5419 3253.4126 4810302
1524.9846 -1294.4194 3283.5422 1520909
1544.5062 -1294.4194 3283.5422 1519633
1536.0308 -1271.2485 3224.7649 861191
1555.6169 -1271.5869 3225.6233 1586706
1586.2756 -1280.8579 3249.1409 1981720
1598.6581 -1275.3258 3235.1077 4219185
1635.7085 -1289.3701 3270.7336 1653521
1643.8785 -1280.5865 3248.4526 600066
1663.1914 -1280.5865 3248.4526 1388817
1658.7587 -1262.5132 3202.606 1981463
1655.9767 -1246.0923 3160.9512 1520912
1674.7695 -1246.0923 3160.9512 1390091
1600.7751 -1177.8213 2987.7688 1719054
1507.8655 -1097.2839 2783.4705 2179605
1770.6726 -1274.5427 3233.1211 2508568
1798.4277 -1280.619 3248.5349 1587724
1809.1162 -1274.5427 3233.1211 403200
1819.8335 -1268.6141 3218.0823 2509338
1839.725 -1269.1377 3219.4104 2443547
1858.8652 -1269.1377 3219.4104 4023088
1866.4283 -1261.314 3199.564 3430951
1914.4067 -1280.6848 3248.7019 2246420
1914.5028 -1267.9567 3216.4143 1916428
1933.6252 -1267.9567 3216.4143 1982477
1991.4474 -1293.0851 3280.1575 1850892
2047.8979 -1316.8442 3340.427 2705689
2056.875 -1309.9136 3322.8459 3231779
2055.7395 -1296.7358 3289.4182 3362855
2064.0532 -1289.7109 3271.5984 3362348
2066.48 -1279.1731 3244.8669 927499
2046.2977 -1254.9642 3183.4568 2440740
2105.0632 -1279.1731 3244.8669 1978650
0 0 0 0
0 0 0 0
0 0 0 0
0 0 0 0
2103.2983 -1222.1014 3100.094 3101740
2206.1787 -1270.7438 3223.4844 4811331
2295.9651 -1311.0712 3325.7825 2705443
2520.7834 -1427.1592 3620.262 4022066
2512.6072 -1410.4869 3577.9695 4877119
2365.2871 -1316.6399 3339.9087 4612922
0 0 0 0
0 0 0 0
0 0 0 0
2405.8542 -1295.7113 3286.8196 5334863
2445.1609 -1306.2708 3313.6052 7177320
2471.363 -1309.7164 3322.3459 4941372
2484.5615 -1306.2708 3313.6052 5204283
2753.2053 -1436.1243 3643.0037 5731138
2774.864 -1436.1243 3643.0037 5006905
2895.9021 -1487.1597 3772.4646 3822890
2918.3306 -1487.1597 3772.4646 4152371
0 0 0 0
0 0 0 0
0 0 0 0
0 0 0 0
0 0 0 0
0 0 0 0
0 0 0 0
0 0 0 0
3502.2634 -1669.2677 4234.4165 4877611
3660.6951 -1732.328 4394.3809 3692310
3560.6602 -1673.0487 4244.0078 3955480
3550.343 -1656.4629 4201.9346 6127412
3575.3247 -1656.4629 4201.9346 5732907
3712.3796 -1708.0266 4332.7358 5601070
3738.1392 -1708.0266 4332.7358 7574603
3763.8984 -1708.0266 4332.7358 4679719
3724.1606 -1678.5065 4257.8525 4745258
3729.1108 -1669.3903 4234.7275 5008173
3774.7888 -1678.5065 4257.8525 7112530
3885.9834 -1716.4399 4354.0781 5070406
4126.0552 -1810.4198 4592.4756 988695
0 0 0 0
0 0 0 0
0 0 0 0
0 0 0 0
0 0 0 0
0 0 0 0
0 0 0 0
0 0 0 0
0 0 0 0
0 0 0 0
0 0 0 0
0 0 0 0
0 0 0 0
0 0 0 0
0 0 0 0
0 0 0 0
-6003.2432 -2581.3088 6648.2476 1385752
-6692.3389 -2896.6824 7460.5024 1385753
-6859.4219 -2988.8108 7697.7827 1319961
-6963.0127 -3054.3257 7866.5181 925203
-7095.29 -3133.3955 8070.165 1254168
-7131.3442 -3170.7588 8166.3955 1320218
-7388.0151 -3307.3982 8518.3145 1977121
-7053.4189 -3179.4028 8188.6592 2043170
-7004.7349 -3179.4028 8188.6592 6714472
-6870.3735 -3140.2422 8087.7993 7832950
-6582.6885 -3029.9561 7803.7539 4214849
-6763.3687 -3135.2192 8074.8618 2308136
-6844.7305 -3195.6184 8230.4219 795411
-6795.7988 -3195.6184 8230.4219 1518880
-6963.0254 -3298.0005 8494.1113 925973
-6817.0161 -3252.4326 8376.749 729361
-6323.7866 -3039.3145 7827.8564 1715746
-6277.248 -3039.3145 7827.8564 2242090
-6612.6953 -3225.6458 8307.7588 1255196
-6232.1523 -3062.896 7888.5913 596239
-6185.2524 -3062.896 7888.5913 1386015
-6330.3799 -3158.7134 8135.3721 1583393
-6309.1279 -3172.3469 8170.4858 1452320
-6233.6465 -3158.7134 8135.3721 2571056
-6389.5205 -3263.0159 8404.0068 2505519
-6271.3618 -3227.9158 8313.6055 2373677
-6412.7393 -3326.9038 8568.5527 1781540
-6317.1079 -3303.5337 8508.3623 1715748
-6266.5234 -3303.5337 8508.3623 1847333
-5948.1177 -3161.197 8141.7695 2439728
-6267.959 -3358.512 8649.96 1123867
-6594.3755 -3562.6433 9175.708 1058074
-6379.7637 -3475.4492 8951.1357 1518626
-6401.186 -3516.4517 9056.7393 1453090
-6517.9438 -3610.9663 9300.165 1255457
-6377.7051 -3563.5029 9177.9209 1058081
-6309.3457 -3555.7288 9157.8984 1124386
-6369.1514 -3620.6775 9325.1768 2571831
-6313.71 -3620.6775 9325.1768 2637881
-6227.7104 -3602.9978 9279.6416 5466470
-6172.5405 -3602.9978 9279.6416 6782073
-5953.9048 -3506.7202 9031.6758 1519145
-5721.8735 -3400.7285 8758.6904 2374452
-5735.856 -3440.3484 8860.7324 2441017
-5645.9297 -3417.8008 8802.6611 1453094
-5593.5957 -3417.8008 8802.6611 1782316
-5540.8623 -3417.5549 8802.0273 927007
-5488.5317 -3417.5549 8802.0273 2045235
-5507.731 -3462.5227 8917.8438 2637628
-5488.5908 -3484.0286 8973.2324 2571833
-5443.8975 -3489.5767 8987.5215 2308663
-5441.4321 -3522.5715 9072.501 3887438
-5297.5742 -3463.7783 8921.0771 3295301
-5351.1826 -3534.2134 9102.4854 2373947
-5622.0083 -3751.0159 9660.8672 1716016
-5608.2646 -3780.4683 9736.7236 2176568
-5370.4155 -3657.8936 9421.0273 3295050
-5463.8003 -3760.7219 9685.8652 3426635
-5346.167 -3718.9507 9578.2822 2571068
-5253.354 -3693.7312 9513.3291 3228744
-4950.8115 -3518.894 9063.0293 3162439
-4563.8335 -3279.5342 8446.5498 4410455
-4513.6162 -3279.5342 8446.5498 10791866
-5323.9028 -3911.7988 10074.969 11712704
-5466.603 -4062.3545 10462.73 13357268
-5404.3994 -4062.3545 10462.73 10726577
-5342.1958 -4062.3545 10462.73 11911872
-5136.3804 -3951.8621 10178.153 10926005
-5075.8687 -3951.8621 10178.153 10730423
-5032.0205 -3964.9924 10211.971 5337192
-4773.0591 -3806.8743 9804.7324 5469290
-4611.7202 -3723.6702 9590.4375 3954770
-4563.0137 -3730.4653 9607.9385 7961740
-4604.0234 -3811.7092 9817.1855 13423314
-4802.9995 -4027.5002 10372.962 13292240
-4676.9478 -3972.8118 10232.11 13161682
-4294.1357 -3695.7039 9518.4092 4409678
-4316.7085 -3764.7439 9696.2246 4217438
-4367.0576 -3860.2053 9942.0889 3296595
-4344.2788 -3892.759 10025.932 3887708
-4328.3184 -3932.4133 10128.062 3820892
-4268.104 -3932.4133 10128.062 4479080
-4124.6572 -3854.6294 9927.7275 4741224
-3741.4375 -3547.2588 9136.084 12698316
-3907.5554 -3759.3313 9682.2842 13488849
-3612.8726 -3527.7959 9085.957 13619406
-3512.5759 -3481.9216 8967.8066 13882325
-3389.9873 -3412.1951 8788.2236 4018525
-3337.7388 -3412.1951 8788.2236 3889252
-3392.0845 -3522.9004 9073.3477 2901590
-3628.97 -3829.8262 9863.8457 2638422
-3570.3267 -3829.8262 9863.8457 4085611
-3595.9465 -3921.7234 10100.53 3559267
-3448.624 -3824.9282 9851.2314 3625314
-3229.2131 -3643.4531 9383.8359 4414829
-3173.4238 -3643.4531 9383.8359 5005936
-3218.637 -3761.491 9687.8467 5927035
-3299.3025 -3926.0168 10111.589 5531762
-3249.675 -3938.7295 10144.33 6057594
0 0 0 0
0 0 0 0
0 0 0 0
0 0 0 0
-2729.3037 -3646.3872 9391.3926 13750481
-2673.4692 -3646.3872 9391.3926 13750481
-2519.1741 -3509.2302 9038.1406 13684942
-2465.4397 -3509.2302 9038.1406 13619662
-2617.1897 -3808.2273 9808.2168 11579834
-2558.8774 -3808.2273 9808.2168 8095122
-2494.9934 -3799.7427 9786.3643 13092298
-2487.8574 -3879.3398 9991.3701 13554383
-2428.4561 -3879.3398 9991.3701 13685454
-2303.1333 -3771.394 9713.3516 13685199
-2073.8782 -3483.3279 8971.4277 11647430
-2266.7913 -3907.8538 10064.809 5400689
-2226.7207 -3942.8562 10154.959 4150625
-2171.1758 -3951.6453 10177.595 3887196
-2105.9727 -3942.8562 10154.959 4873833
-2028.6882 -3910.262 10071.011 5794420
0 0 0 0
0 0 0 0
0 0 0 0
0 0 0 0
0 0 0 0
0 0 0 0
0 0 0 0
-764.20435 -1928.2838 4966.3594 13289934
-795.55237 -2088.0586 5377.8652 13553106
-780.39014 -2134.0286 5496.2622 13488081
-714.91187 -2040.4108 5255.1465 13553874
-694.54309 -2072.8657 5338.7354 9936805
-669.36066 -2093.375 5391.5576 13027790
-623.76361 -2048.8906 5276.9868 9079706
-592.39044 -2048.8906 5276.9868 13685201
-568.50598 -2076.2402 5347.4263 13553102
-507.23019 -1962.1841 5053.6709 10791603
-483.48068 -1988.073 5120.3486 10786478
-457.42938 -2007.3403 5169.9727 13486286
-428.65182 -2016.558 5193.7129 13552339
-399.58899 -2025.7607 5217.4146 13618897
-368.57004 -2025.7607 5217.4146 13619155
-327.65851 -1966.3921 5064.5088 13422547
-286.74152 -1894.972 4880.564 13224402
-262.76682 -1932.0414 4976.0376 12104645
-237.26979 -1965.9034 5063.2505 7826557
-206.75685 -1962.0082 5053.2178 13618646
-176.05493 -1954.6899 5034.3696 13552337
-143.575 -1920.5895 4946.5425 10854310
-116.19349 -1954.6899 5034.3696 5730931
-85.567963 -1938.946 4993.8208 4871263
-50.677837 -1758.4928 4529.0571 10919348
-26.286369 -1946.1809 5012.4541 9143198
3.5140648 -1946.1809 5012.4541 9275810
33.640945 -1965.2513 5061.5708 13684693
65.276863 -2012.845 5184.1499 13749460
96.403366 -2019.2395 5200.6191 13418190
127.40952 -2020.6198 5204.1738 13153481
156.90276 -2002.155 5156.6172 13941971
183.22035 -1955.8275 5037.2993 12627397
213.16852 -1955.8275 5037.2993 4473678
254.29031 -2045.7175 5268.814 7888248
287.2002 -2057.0723 5298.0586 13484747
320.49564 -2068.6711 5327.9321 13615819
356.12036 -2091.866 5387.6709 13089475
373.80557 -2014.551 5188.5439 12496317
393.29572 -1958.0098 5042.9199 9077149
423.27728 -1958.0098 5042.9199 13749711
451.0405 -1948.4265 5018.2383 13223120
473.03729 -1916.6683 4936.4438 5987139
507.24307 -1935.1995 4984.1709 5203270
554.59387 -1999.0668 5148.6636 6125136
590.58484 -2017.4475 5196.0039 6914655
621.4765 -2017.4475 5196.0039 6123614
679.73218 -2102.0706 5413.9531 8227453
736.49567 -2174.6357 5600.8472 13752014
716.16058 -2023.123 5210.6211 3817532
729.97778 -1976.6527 5090.9355 7500661
676.61786 -1759.2208 4530.9326 4999763
703.55554 -1759.2208 4530.9326 7437179
691.14996 -1664.472 4286.9038 13293520
752.77557 -1748.4087 4503.085 5140572
779.54767 -1748.4087 4503.085 1850160
799.29724 -1733.1812 4463.8662 4284247
825.83624 -1733.1812 4463.8662 3954260
870.32837 -1769.6864 4557.8867 3559758
906.87146 -1788.3119 4605.8574 4545375
934.87952 -1789.5082 4608.9385 5531746
980.09686 -1822.6395 4694.2695 5725043
1005.6943 -1818.4606 4683.5063 8225937
0 0 0 0
0 0 0 0
0 0 0 0
0 0 0 0
0 0 0 0
0 0 0 0
0 0 0 0
0 0 0 0
0 0 0 0
1200.4327 -1699.921 4378.2036 6782576
0 0 0 0
0 0 0 0
0 0 0 0
0 0 0 0
0 0 0 0
0 0 0 0
0 0 0 0
1402.7488 -1692.7755 4359.8003 1583913
1449.2902 -1717.2087 4422.729 2241844
1454.5891 -1692.7755 4359.8003 3030846
1414.6287 -1617.4492 4165.7949 7303539
0 0 0 0
0 0 0 0
1490.7142 -1619.3884 4170.7896 1913653
1539.3502 -1644.8622 4236.3975 1517096
0 0 0 0
0 0 0 0
0 0 0 0
0 0 0 0
0 0 0 0
1558.4156 -1516.3707 3905.4639 3230513
1622.0328 -1555.1019 4005.2173 1519132
1648.3923 -1557.5089 4011.4165 729105
1669.6571 -1555.1019 4005.2173 1124122
0 0 0 0
0 0 0 0
1531.6108 -1367.9972 3523.3228 3427131
1436.9146 -1266.1008 3260.8853 1519635
1456.3014 -1266.1008 3260.8853 1586191
1445.1802 -1239.9258 3193.4705 3429163
1498.7703 -1269.2301 3268.9448 5073989
1533.6125 -1282.1108 3302.1196 2375710
1569.6798 -1295.6771 3337.0601 861960
1593.329 -1298.7825 3345.0579 1257488
1609.3594 -1295.6771 3337.0601 2311196
1613.4491 -1283.1515 3304.7998 2838308
1639.5359 -1288.2106 3317.8296 2114586
1658.1404 -1287.3403 3315.5881 1325067
1677.8525 -1287.3403 3315.5881 1192709
1689.5815 -1281.2865 3299.9963 1785100
1705.2117 -1278.2959 3292.2939 2969119
1676.4144 -1242.4467 3199.9631 2574103
1666.9097 -1221.5398 3146.1167 3494693
0 0 0 0
0 0 0 0
1747.5529 -1238.9301 3190.906 2311193
1771.7334 -1242.5837 3200.3164 3034915
1727.9884 -1199.0273 3088.1353 2312220
1797.0878 -1233.8647 3177.8601 1325068
1769.837 -1202.5123 3097.1108 798979
1858.1375 -1249.5081 3218.1499 1588495
1842.524 -1226.381 3158.5854 2246166
1913.787 -1260.9619 3247.6499 2180373
1880.0813 -1226.381 3158.5854 1653259
1946.193 -1256.951 3237.3196 1916431
1981.4338 -1267.1797 3263.6638 1521417
2047.8979 -1296.9845 3340.427 2508315
2129.8091 -1335.9056 3440.6697 1586445
2202.5474 -1368.3875 3524.3279 1717264
2223.5005 -1368.3875 3524.3279 861959
2426.6428 -1479.4636 3810.4084 1585932
2492.0361 -1505.2798 3876.8987 3495197
2518.8276 -1507.5195 3882.6672 3824917
2568.7498 -1523.4366 3923.6624 4351765
2592.0771 -1523.4366 3923.6624 5930283
2445.5881 -1424.5211 3668.9019 9875558
2556.8511 -1476.1641 3801.9099 3362578
2515.1648 -1439.3724 3707.1521 3429420
2537.2048 -1439.3724 3707.1521 4481596
2656.167 -1493.8834 3847.5471 2179095
2671.3818 -1489.6122 3836.5461 4218675
2641.647 -1460.5607 3761.7229 3890471
2586.7849 -1418.2206 3652.6748 3035673
2650.4797 -1441.0442 3711.4575 2573850
2591.1157 -1397.137 3598.3733 5205826
2587.9189 -1383.9865 3564.5037 5862743
2428.6956 -1288.2865 3318.0249 5731411
2448.4221 -1288.2865 3318.0249 5534024
2687.1323 -1402.588 3612.4126 6718043
2831.4551 -1466.2008 3776.2495 4020272
2875.9106 -1477.5059 3805.3657 3691048
2898.5344 -1477.5059 3805.3657 5796167
2921.1584 -1477.5059 3805.3657 3294997
3116.5737 -1564.231 4028.7292 6389048
2946.8594 -1467.7698 3780.2903 8233020
0 0 0 0
0 0 0 0
0 0 0 0
0 0 0 0
0 0 0 0
0 0 0 0
0 0 0 0
0 0 0 0
3494.6328 -1628.8025 4195.0356 6523202
3608.5122 -1669.9622 4301.0435 3627795
3585.8921 -1647.8169 4244.0078 6522428
3613.1633 -1648.7476 4246.4048 5600049
3721.8359 -1686.5525 4343.7725 3692060
3844.2236 -1730.0082 4455.6943 6586684
3803.7578 -1700.0823 4378.6191 4678182
3807.9553 -1690.3898 4353.6558 6651978
3707.9346 -1634.8768 4210.6802 7179074
3834.9958 -1679.5607 4325.7646 7046494
3885.9834 -1690.5538 4354.0781 9020030
3911.8699 -1690.5538 4354.0781 8098426
3882.0918 -1666.656 4292.5288 5792094
0 0 0 0
0 0 0 0
0 0 0 0
0 0 0 0
0 0 0 0
0 0 0 0
0 0 0 0
0 0 0 0
0 0 0 0
0 0 0 0
0 0 0 0
0 0 0 0
0 0 0 0
0 0 0 0
0 0 0 0
-6003.2432 -2541.7832 6648.2476 1254421
-6731.5806 -2869.0527 7504.2485 1846303
-6962.3379 -2987.2017 7813.2769 1977889
-6915.8857 -2987.2017 7813.2769 1319961
-7019.6519 -3052.5244 7984.1343 1583133
-7444.8774 -3259.4766 8525.4346 1122325
-7394.1909 -3259.4766 8525.4346 1845535
-7207.6533 -3199.1772 8367.7178 2503210
-7286.728 -3256.7544 8518.3145 4740172
-6870.3735 -3092.158 8087.7993 5990495
-6423.6934 -2911.4973 7615.2661 5334360
-6499.0366 -2966.5544 7759.2729 4084294
-6551.1104 -3011.7017 7877.3589 794642
-6795.7988 -3146.686 8230.4219 2242344
-6963.3418 -3247.6484 8494.498 1913379
-6817.0161 -3202.6304 8376.749 2175782
-6429.5332 -3042.8208 7958.7534 1847843
-6277.248 -2992.7756 7827.8564 1452828
-6609.8057 -3174.866 8304.1289 1715747
-6232.1523 -3015.9961 7888.5913 3031864
-6185.2524 -3015.9961 7888.5913 1781283
-6177.5107 -3035.2358 7938.9146 1451805
-6282.0132 -3110.3462 8135.3721 1715235
-6233.6465 -3110.3462 8135.3721 2044458
-6389.5205 -3213.0518 8404.0068 2176300
-5950.5093 -3015.8726 7888.2681 1452833
-6221.9355 -3178.4893 8313.6055 1716260
-6317.1079 -3252.9495 8508.3623 2176811
-6267.3481 -3253.3774 8509.4824 1979432
-6296.2021 -3294.9531 8618.2266 2045225
-6244.9644 -3294.9531 8618.2266 2308653
-6193.7261 -3294.9531 8618.2266 1650467
-6343.6226 -3402.845 8900.4277 1124125
-6485.2715 -3508.0913 9175.708 1650213
-6463.2397 -3525.832 9222.1104 1979178
-6163.8906 -3391.2993 8870.2285 1979437
-6111.1548 -3391.2993 8870.2285 1518886
-6058.4189 -3391.2993 8870.2285 1650215
-5950.626 -3360.2097 8788.9111 2505524
-6094.6421 -3472.0205 9081.3623 4018249
-6040.6504 -3472.0205 9081.3623 6452332
-5857.7588 -3397.2637 8885.8281 4348754
-5684.3076 -3326.6709 8701.1875 1650472
-5735.856 -3387.6687 8860.7324 1453608
-5645.9297 -3365.4668 8802.6611 1584937
-5593.5957 -3365.4668 8802.6611 1716778
-5540.8623 -3365.2244 8802.0273 1585193
-5488.5317 -3365.2244 8802.0273 2176820
-5516.2578 -3414.7825 8931.6504 1848111
-5497.3306 -3436.1431 8987.5215 2177588
-5443.8975 -3436.1431 8987.5215 3756363
-5459.416 -3480.0964 9102.4854 3032383
-5297.5742 -3410.74 8921.0771 3426885
-5329.4448 -3465.9595 9065.5088 2504759
-5392.4688 -3542.7749 9266.4258 2044465
-5368.5728 -3563.4812 9320.585 1913137
-5313.1587 -3563.4812 9320.585 2571067
-5299.813 -3591.9929 9395.1602 3426373
-5283.3921 -3619.0059 9465.8135 3558472
-5237.0015 -3625.8506 9483.7168 3097920
-4950.8115 -3465.0115 9063.0293 3755082
-4552.9258 -3221.5989 8426.3623 4015687
-4502.8291 -3221.5989 8426.3623 13686489
-5364.1831 -3881.0435 10151.195 12501705
-5758.0591 -4213.4219 11020.559 12700107
-5650.2637 -4182.1309 10938.715 12437710
-5536.3608 -4145.5381 10843.004 8624532
-5115.6475 -3875.6426 10137.069 9677987
-4995.8101 -3829.9739 10017.619 10205614
-4916.1753 -3814.3965 9976.875 3823180
-4773.0591 -3748.5823 9804.7324 4284508
-4655.3921 -3701.375 9681.2578 3888726
-4681.6479 -3768.8472 9857.7363 4675164
-4994.3599 -4071.5574 10649.501 12175047
-4839.1963 -3995.7183 10451.137 11845568
-4566.5674 -3819.6528 9990.623 13291477
-4146.4824 -3513.9834 9191.1191 3100236
-4159.9731 -3572.4961 9344.1641 3823448
-4366.2051 -3800.355 9940.1475 4020059
-4325.5801 -3816.6536 9982.7783 4217442
-4278.4316 -3827.5691 10011.329 3953758
-4218.9111 -3827.5691 10011.329 4019040
-4156.7002 -3825.0928 10004.853 4873834
-4055.8425 -3786.4648 9903.8174 7499910
-3844.7205 -3642.2415 9526.5889 13488593
-3612.8726 -3473.7773 9085.957 13488335
-3512.5759 -3428.6057 8967.8066 13094610
-3389.9873 -3359.947 8788.2236 4545120
-3446.0278 -3468.9565 9073.3477 3954272
-3430.6567 -3508.4031 9176.5234 2967893
-3563.0684 -3702.6985 9684.7197 4875380
-3538.3855 -3737.4451 9775.6016 3493474
-3571.2566 -3835.1587 10031.18 3098717
-3448.624 -3766.3601 9851.2314 2770004
-3300.8403 -3667.2417 9591.9785 4019812
-3243.8132 -3667.2417 9591.9785 5269617
-3218.637 -3703.8943 9687.8467 5598578
-3209.1008 -3760.208 9835.1406 5730165
-3284.2036 -3919.6279 10252.116 5071467
-2417.2327 -2939.4702 7688.4316 8817568
0 0 0 0
0 0 0 0
0 0 0 0
-2745.8579 -3612.3306 9448.3545 13685457
-2677.022 -3595.3237 9403.8721 13685456
0 0 0 0
-2668.9329 -3740.7068 9784.1328 13685199
-2610.7632 -3740.7068 9784.1328 6448231
-2538.5234 -3720.0869 9730.2002 5992067
-2480.6746 -3720.0869 9730.2002 9407399
-2450.5576 -3762.667 9841.5723 13685200
-2428.4561 -3819.9382 9991.3701 13423057
-2333.5359 -3762.667 9841.5723 13554643
0 0 0 0
-2275.1919 -3862.2761 10102.108 3954528
-2282.696 -3980.0798 10410.233 4218471
-2208.2937 -3957.6589 10351.59 4547178
-2110.667 -3891.1365 10177.595 4547178
-2048.4143 -3887.8264 10168.937 4875375
-1725.007 -3373.5771 8823.875 9013142
0 0 0 0
0 0 0 0
0 0 0 0
0 0 0 0
0 0 0 0
0 0 0 0
0 0 0 0
-790.32599 -2042.5782 5342.5352 13619408
-821.32922 -2211.5881 5784.5947 13619921
-747.71338 -2101.3518 5496.2622 13685202
-694.54309 -2041.1255 5338.7354 10066332
-670.23853 -2064.0239 5398.6284 14013913
-631.06256 -2041.1255 5338.7354 13684435
-587.50934 -2000.894 5233.5063 12960968
-552.35437 -1986.3643 5195.5029 12171197
-507.23019 -1932.1385 5053.6709 10985399
-483.48068 -1957.631 5120.3486 5726838
-478.2392 -2066.5251 5405.1699 8225420
-422.59683 -1957.631 5120.3486 9731739
-400.02838 -1996.9351 5223.1514 13551824
-376.77744 -2039.161 5333.5972 13619412
-345.06772 -2039.161 5333.5972 13554133
-297.54858 -1936.2822 5064.5088 13027020
-267.43866 -1936.2822 5064.5088 13552853
-237.26979 -1935.801 5063.2505 13486038
-206.75685 -1931.9653 5053.2178 9404061
-182.13516 -1991.2325 5208.2363 13618647
-153.26207 -2018.7794 5280.2876 13353680
-119.40497 -1977.9579 5173.5151 7298412
-85.567963 -1909.2565 4993.8208 13355728
-50.677837 -1731.5662 4529.0571 13684691
-25.37232 -1849.7426 4838.1572 13552594
3.3918712 -1849.7426 4838.1572 9406624
33.314499 -1916.3804 5012.4541 11507896
66.925461 -2032.0807 5315.0781 12889548
99.78849 -2058.1384 5383.2344 11707848
131.79332 -2058.1384 5383.2344 12301258
160.87587 -2021.4199 5287.1938 5989474
184.54662 -1939.8201 5073.7622 6388075
213.15581 -1925.7644 5036.999 4416069
254.29031 -2014.3929 5268.814 4416322
288.58063 -2035.3097 5323.5239 4151870
327.66684 -2082.5735 5447.1465 6323803
360.05164 -2082.5735 5447.1465 8691074
379.45703 -2013.6949 5266.9883 9085845
0 0 0 0
442.08447 -2013.6949 5266.9883 12634310
481.18741 -2046.828 5353.6509 5006950
508.11566 -2027.2753 5302.5088 11976121
543.84229 -2043.0598 5343.7949 4481863
575.61261 -2043.0598 5343.7949 5336906
607.38293 -2043.0598 5343.7949 5994834
638.54529 -2041.1165 5338.7114 6521697
677.38403 -2062.7324 5395.2505 6520684
737.54425 -2144.3857 5608.8213 8882321
737.94257 -2052.7351 5369.1016 13815507
755.10052 -2013.3721 5266.144 13617362
735.1936 -1882.2495 4923.1816 13748692
703.55554 -1732.2833 4530.9326 13876944
740.32788 -1755.6052 4591.9331 5854075
767.62823 -1755.6052 4591.9331 5140322
786.43872 -1736.8552 4542.8911 6259310
807.25745 -1723.6384 4508.3213 1520944
834.06061 -1723.6384 4508.3213 4941411
870.32837 -1742.5884 4557.8867 6914434
897.42627 -1742.5884 4557.8867 1385261
934.12018 -1760.6754 4605.1948 5132902
975.70844 -1786.6947 4673.2505 13485521
1003.4922 -1786.6947 4673.2505 13684435
0 0 0 0
0 0 0 0
0 0 0 0
0 0 0 0
0 0 0 0
0 0 0 0
0 0 0 0
0 0 0 0
0 0 0 0
0 0 0 0
0 0 0 0
0 0 0 0
0 0 0 0
0 0 0 0
0 0 0 0
0 0 0 0
0 0 0 0
1402.7488 -1666.8553 4359.8003 2564393
1449.2902 -1690.9144 4422.729 2701115
1454.5891 -1666.8553 4359.8003 3030080
1414.6287 -1592.6825 4165.7949 5923430
0 0 0 0
0 0 0 0
1453.7994 -1555.1049 4067.5076 1319209
1477.9819 -1555.1049 4067.5076 1055781
0 0 0 0
0 0 0 0
0 0 0 0
0 0 0 0
0 0 0 0
1603.9803 -1536.8082 4019.6511 1254941
1627.8783 -1536.8082 4019.6511 794131
1648.3923 -1533.6599 4011.4165 334093
1669.6571 -1531.2898 4005.2173 3230502
1635.111 -1478.5203 3867.1941 5402689
1510.6637 -1347.05 3523.3228 398088
1538.1652 -1352.8146 3538.4001 3426865
1553.5334 -1347.8964 3525.5364 4019769
1563.0065 -1338.0623 3499.8145 1849358
1540.4966 -1301.4664 3404.0947 2770205
1541.1151 -1285.106 3361.3025 2441243
1561.0991 -1285.106 3361.3025 796422
1614.2545 -1312.0677 3431.8235 1915157
1616.2947 -1297.3286 3393.2722 1718545
1610.9127 -1277.069 3340.2812 1784850
1616.6921 -1266.0432 3311.4424 732165
1636.3795 -1266.0432 3311.4424 337152
1656.0671 -1266.0432 3311.4424 1521677
1677.8525 -1267.6282 3315.5881 1193736
1697.5646 -1267.6282 3315.5881 2245903
1705.6422 -1259.04 3293.1252 3693341
1724.7853 -1258.7223 3292.2939 3298328
1728.6339 -1247.3752 3262.6147 2640403
0 0 0 0
0 0 0 0
1674.2307 -1168.7733 3057.0249 3034665
1773.3831 -1224.6964 3203.2964 2837284
1778.1947 -1214.9716 3177.8601 2114328
1809.787 -1223.557 3200.3164 1587725
1784.3707 -1193.8226 3122.5437 1061381
1858.1375 -1230.3752 3218.1499 1061125
1894.4788 -1241.6538 3247.6499 864004
1922.2263 -1247.1292 3261.9712 666369
1880.0813 -1207.6023 3158.5854 1915668
1929.0914 -1226.8282 3208.8726 1258250
1964.61 -1237.1818 3235.9529 995075
2047.6278 -1276.9562 3339.9863 1323527
2262.926 -1397.668 3655.718 3562007
2620.543 -1603.1481 4193.1685 3101701
2614.8953 -1584.6184 4144.7026 4615704
2630.8643 -1579.4121 4131.085 4615701
2655.4248 -1579.4121 4131.085 2905348
2723.75 -1605.2043 4198.5469 5076249
2748.7117 -1605.2043 4198.5469 3694089
2760.2266 -1597.4224 4178.1924 4812572
2633.9431 -1510.7426 3951.4744 4285467
2624.0083 -1491.7391 3901.7693 2771739
2610.4175 -1471.0087 3847.5471 5469499
2633.2922 -1471.0087 3847.5471 3166748
2693.6216 -1491.7515 3901.8013 3298077
2728.2393 -1498.022 3918.2026 3363869
2707.2446 -1473.9095 3855.1345 2969108
2679.7932 -1446.7162 3784.0078 1982214
2753.0845 -1473.9095 3855.1345 3824924
2684.7615 -1425.4646 3728.4226 3759129
2706.9282 -1425.4646 3728.4226 4548642
2850.481 -1488.8674 3894.2578 4811046
2879.1655 -1491.7336 3901.7546 3362831
2941.1038 -1511.6455 3953.8359 5269810
2870.4475 -1463.6321 3828.2529 7177803
2893.2078 -1463.6321 3828.2529 6388028
2983.4749 -1497.5165 3916.8804 7770195
3092.6216 -1540.2791 4028.7292 6125363
3198.3486 -1580.694 4134.438 5467692
3222.929 -1580.694 4134.438 8824404
0 0 0 0
0 0 0 0
0 0 0 0
0 0 0 0
0 0 0 0
0 0 0 0
0 0 0 0
0 0 0 0
0 0 0 0
3608.5122 -1644.3911 4301.0435 4742969
3634.0833 -1644.3911 4301.0435 1716754
3696.0112 -1660.7275 4343.7725 2045471
3822.384 -1705.5931 4461.1226 4809274
3844.2236 -1703.5178 4455.6943 7178823
3793.8784 -1669.7023 4367.2466 6126392
3793.9648 -1658.3906 4337.6602 5205790
3802.0166 -1650.6899 4317.5186 8495959
3666.4683 -1581.1652 4135.6704 7968860
3900.7466 -1670.9918 4370.6196 7705936
3888.9392 -1654.9098 4328.5557 7901779
3914.6738 -1654.9098 4328.5557 6913119
3877.8699 -1628.6445 4259.8569 7438708
0 0 0 0
0 0 0 0
0 0 0 0
0 0 0 0
0 0 0 0
0 0 0 0
0 0 0 0
0 0 0 0
0 0 0 0
0 0 0 0
0 0 0 0
0 0 0 0
0 0 0 0
0 0 0 0
0 0 0 0
-6731.5806 -2824.438 7504.2485 1517592
-6962.3379 -2940.7495 7813.2769 1122834
-6883.8892 -2927.1436 7777.1279 1188374
-7158.5088 -3064.5002 8142.0703 1319959
-7444.8774 -3208.7905 8525.4346 1451802
-7394.1909 -3208.7905 8525.4346 1320472
-7355.5029 -3214.0327 8539.3633 2899503
-7177.1743 -3157.9075 8390.2441 5334096
-6810.2188 -3017.4211 8016.9863 5662548
-6399.9458 -2855.6262 7587.1133 4280899
-6357.5791 -2856.8577 7590.3848 2702380
-6458.0957 -2922.7727 7765.5142 794383
-6921.814 -3155.196 8383.04 1518619
-6903.7197 -3169.7715 8421.7656 2768429
-6777.728 -3134.658 8328.4727 1452313
-6597.7905 -3073.8945 8167.0298 1781021
-6376.0278 -2992.5996 7951.0371 1254679
-6328.7568 -2992.5996 7951.0371 1517851
-6206.96 -2957.0942 7856.7031 1781023
-6175.9639 -2964.6375 7876.7446 1583646
-6113.5396 -2957.0942 7856.7031 1847074
-6309.1279 -3075.1953 8170.4858 1123349
-6260.5518 -3075.1953 8170.4858 2570542
-6051.668 -2995.8359 7959.6362 2307623
-5843.5537 -2915.6094 7746.4824 1188890
-6181.9604 -3108.9585 8260.1914 1781283
-6206.958 -3146.5259 8360.0039 1978920
-6267.3481 -3202.7861 8509.4824 1518367
-6296.2021 -3243.7153 8618.2266 1584161
-6183.5024 -3211.791 8533.4072 1452318
-6132.7686 -3211.791 8533.4072 992284
-6094.9458 -3218.6086 8551.5215 2703157
-6301.1665 -3355.4995 8915.2266 1650213
-6415.0029 -3445.0986 9153.2822 1716006
-6168.8726 -3341.2617 8877.3975 2308145
-6116.0938 -3341.2617 8877.3975 1913644
-6016.2339 -3315.3169 8808.4648 1255201
-5950.626 -3307.9573 8788.9111 1847593
-5917.8174 -3318.8618 8817.8838 4874071
-5926.147 -3353.2388 8909.2197 4939606
-5857.7588 -3344.4346 8885.8281 1914668
-5788.5352 -3334.989 8860.7324 2440755
-5735.856 -3334.989 8860.7324 3427139
-5645.9297 -3313.1323 8802.6611 1716010
-5778.833 -3422.8501 9094.1699 597275
-5817.042 -3478.0225 9240.7568 860446
-5670.6982 -3422.8501 9094.1699 1452841
-5516.2578 -3361.6812 8931.6504 1584170
-5463.1562 -3361.6812 8931.6504 2110768
-5347.6641 -3322.9126 8828.6465 1321251
-5437.2388 -3412.0625 9065.5088 2111022
-5242.6865 -3322.9126 8828.6465 4019533
-5292.6265 -3388.4905 9002.8799 2571830
-5392.4688 -3487.6833 9266.4258 3032382
-5337.3774 -3487.6833 9266.4258 3032382
-5206.7817 -3437.8313 9133.9736 2439991
-5191.7476 -3464.0332 9203.5889 2768701
-5137.0298 -3464.0332 9203.5889 2900287
-5166.022 -3521.0884 9355.1797 3163715
-5030.9209 -3466.325 9209.6787 3162946
-4552.9258 -3171.5017 8426.3623 4345422
-4502.8291 -3171.5017 8426.3623 11450041
-5369.5127 -3824.488 10161.281 13291475
-5721.2202 -4121.3638 10950.051 13423062
-5650.2637 -4117.0972 10938.715 10793910
-5322.7642 -3923.6233 10424.674 6781560
-5115.6475 -3815.375 10137.069 10465966
-4995.8101 -3770.4163 10017.619 5008226
-4843.0015 -3699.1895 9828.376 3626571
-4773.0591 -3690.2903 9804.7324 2704193
-4702.75 -3680.8845 9779.7422 3625036
-4681.6479 -3710.2402 9857.7363 5072225
-4826.3354 -3873.3945 10291.222 9611944
-4839.1963 -3933.583 10451.137 11058626
-4759.0015 -3918.7117 10411.625 10993603
-4215.5269 -3516.9424 9344.1641 3033935
-4159.9731 -3516.9424 9344.1641 2836558
-4348.0752 -3725.7231 9898.873 3362131
-4293.1953 -3729.1726 9908.0381 3098193
-4250.2939 -3743.2683 9945.4893 3953245
-4191.165 -3743.2683 9945.4893 3953760
-4156.7002 -3765.6116 10004.853 3822172
-4058.4607 -3729.9902 9910.2109 6187383
-3990.8066 -3721.8442 9888.5674 13553879
-3672.7859 -3476.47 9236.6328 13422547
-3558.854 -3419.759 9085.957 2832449
-3625.0132 -3537.0193 9397.5059 3427152
-3569.1423 -3537.0193 9397.5059 4612197
-3620.6467 -3645.1204 9684.7197 3625820
-3595.8569 -3678.6641 9773.8418 3954530
-3539.3635 -3680.3428 9778.3027 3230552
-3524.7634 -3726.3679 9900.5859 3099225
-3437.1765 -3695.4836 9818.5303 3164761
-3339.7612 -3652.7832 9705.0791 2507089
-3369.4578 -3750.0508 9963.5098 4085348
-3310.2217 -3750.0508 9963.5098 3690587
-3347.7295 -3861.6455 10260.006 5401712
-3328.9534 -3911.2537 10391.81 5729650
-3072.4705 -3678.1699 9772.5293 6713215
0 0 0 0
0 0 0 0
0 0 0 0
-2797.5793 -3623.1418 9626.3252 13685456
-2689.6848 -3556.1575 9448.3545 13619664
-2367.0422 -3196.3313 8492.332 13619920
-2668.9329 -3682.5374 9784.1328 9868460
-2443.0234 -3445.9368 9155.5088 5531518
-2343.4077 -3380.7517 8982.3184 4676212
-2290.0054 -3380.7517 8982.3184 8352153
-2470.0061 -3733.5537 9919.6787 13619665
-2392.0466 -3704.1562 9841.5723 13488337
-2333.5359 -3704.1562 9841.5723 9408417
0 0 0 0
-2275.1919 -3802.2166 10102.108 3099991
-2282.4805 -3917.8184 10409.251 2704722
-2234.8447 -3942.96 10476.05 2769748
-2147.1338 -3896.8108 10353.437 2703696
-2085.5796 -3896.8108 10353.437 4479078
-1859.8494 -3580.7258 9513.6309 6779008
-1623.9581 -3224.637 8567.5371 13553873
0 0 0 0
0 0 0 0
0 0 0 0
0 0 0 0
-789.04742 -1858.2015 4937.0557 11515318
-759.69525 -1858.2015 4937.0557 10133409
-730.34302 -1858.2015 4937.0557 13027273
-903.41968 -2394.8042 6362.7549 13619153
-752.14343 -2080.9316 5528.8267 13619408
-703.37708 -2034.943 5406.6396 13553614
-670.23853 -2031.9276 5398.6284 13158605
-618.62402 -1969.7792 5233.5063 13619154
-583.24316 -1955.4756 5195.5029 9144728
-537.2757 -1902.0931 5053.6709 9865114
-527.92871 -1979.7115 5259.8955 13487060
-496.65714 -1979.7115 5259.8955 6256489
-465.38562 -1979.7115 5259.8955 6453100
-421.50864 -1922.2264 5107.1631 10525613
-400.02838 -1965.8818 5223.1514 13880535
-369.41632 -1968.2318 5229.3945 13684436
-340.05527 -1978.2911 5256.1216 13091275
-298.23663 -1910.5802 5076.2202 7892352
-268.0571 -1910.5802 5076.2202 8355471
-237.26979 -1905.6986 5063.2505 9341083
-213.60014 -1964.8727 5220.4702 13552341
-182.13516 -1960.2683 5208.2363 13749715
-153.40701 -1989.2664 5285.2817 13684179
-116.84093 -1905.3868 5062.4219 13419985
-86.174995 -1892.9006 5029.2476 6839403
-56.274712 -1892.9006 5029.2476 13946581
-27.380329 -1965.0936 5221.0571 13618642
3.6516578 -1960.4489 5208.7163 13946324
35.58786 -2015.3191 5354.501 4932688
67.775688 -2025.8954 5382.6011 9666963
99.776749 -2025.8954 5382.6011 12305345
131.77782 -2025.8954 5382.6011 5531734
160.87587 -1989.9861 5287.1938 8954765
189.29004 -1958.7393 5204.1738 7442292
225.28098 -2003.6599 5323.5239 4744261
263.86014 -2057.698 5467.0977 5139022
297.66449 -2066.7305 5491.0962 9745295
335.54114 -2099.4578 5578.0493 6653278
376.04526 -2141.259 5689.1108 3363117
379.45703 -1982.3811 5266.9883 7175028
0 0 0 0
0 0 0 0
476.59079 -1995.7502 5302.5088 4415804
508.11566 -1995.7502 5302.5088 8956055
546.74408 -2022.0214 5372.3081 7180657
578.68396 -2022.0214 5372.3081 5601109
607.38293 -2011.2896 5343.7949 4483144
638.54529 -2009.3762 5338.7114 3364409
676.88403 -2029.1573 5391.2681 4283716
718.35431 -2056.1133 5462.8872 5921635
726.96576 -1990.7551 5289.2368 13619153
755.10052 -1982.0635 5266.144 13619154
760.24481 -1916.1187 5090.9355 13684689
764.46332 -1852.9797 4923.1816 13684437
763.32001 -1781.9801 4734.543 13880789
791.46814 -1781.9801 4734.543 4735059
803.96942 -1747.9611 4644.1577 5007209
807.25745 -1696.8352 4508.3213 2638918
825.83624 -1680.1033 4463.8662 2243394
867.03021 -1708.9897 4540.6147 4479069
900.64545 -1721.6445 4574.2368 4674905
933.42383 -1732.0043 4601.7622 4278107
962.28094 -1734.7053 4608.9385 13684182
1003.4922 -1758.911 4673.2505 12630981
0 0 0 0
0 0 0 0
0 0 0 0
0 0 0 0
0 0 0 0
0 0 0 0
0 0 0 0
0 0 0 0
0 0 0 0
0 0 0 0
0 0 0 0
0 0 0 0
0 0 0 0
0 0 0 0
0 0 0 0
0 0 0 0
0 0 0 0
1430.4148 -1673.299 4445.7876 2370621
1456.8462 -1673.299 4445.7876 1581615
1483.2777 -1673.299 4445.7876 3357509
0 0 0 0
0 0 0 0
0 0 0 0
1426.6077 -1502.2881 3991.4292 1318694
1450.3378 -1502.2881 3991.4292 1187107
0 0 0 0
0 0 0 0
0 0 0 0
0 0 0 0
0 0 0 0
1672.6455 -1577.6768 4191.7295 464141
1622.0328 -1507.4777 4005.2173 201992
1636.1058 -1498.5573 3981.5166 398088
1643.5037 -1483.8646 3942.4797 3164204
0 0 0 0
1527.0496 -1340.4868 3561.5393 859402
1548.2239 -1340.4868 3561.5393 2637096
1559.2018 -1331.7777 3538.4001 1256212
1563.0065 -1317.2549 3499.8145 2440990
1611.2399 -1340.0653 3560.4192 1783058
1632.4077 -1340.0653 3560.4192 70912
1600.3135 -1296.9015 3445.7373 2441755
1628.3673 -1302.9572 3461.8267 1915408
1641.2852 -1296.9015 3445.7373 2244886
1629.3497 -1271.5989 3378.511 1653008
1630.7716 -1257.21 3340.2812 534272
1651.5981 -1257.947 3342.2393 403200
1663.2661 -1251.7738 3325.8376 1390088
1691.3394 -1257.947 3342.2393 1851918
1699.5405 -1249.3685 3319.4473 2772502
1719.2755 -1249.3685 3319.4473 3495458
1757.1382 -1262.3922 3354.0496 3757868
1777.0789 -1262.3922 3354.0496 3034402
1797.0197 -1262.3922 3354.0496 2968610
0 0 0 0
1807.3512 -1242.0842 3300.0935 4482622
1773.3831 -1205.6519 3203.2964 2508578
1751.3644 -1178.0312 3129.9111 1587219
1769.9725 -1178.0312 3129.9111 534278
1784.3707 -1175.2583 3122.5437 336386
1883.4395 -1227.7358 3261.9712 665349
1924.0889 -1241.4504 3298.4097 1058825
1935.0764 -1235.9432 3283.7776 1191178
1893.9189 -1197.5736 3181.833 2310683
1912.8359 -1197.5736 3181.833 1258505
1964.61 -1217.9431 3235.9529 1192200
2209.6768 -1356.5856 3604.3123 2245392
2429.1355 -1476.9945 3924.2266 6193464
2685.2485 -1617.1874 4296.7051 3759637
2732.4409 -1630.1014 4331.0166 3759381
2792.5347 -1650.3997 4384.9463 5207832
2818.9006 -1650.5728 4385.4067 4878620
2844.9731 -1650.5728 4385.4067 5667877
2803.4336 -1611.7025 4282.1323 4679960
2773.6731 -1580.2427 4198.5469 5141027
2633.9431 -1487.25 3951.4744 3364110
2636.6379 -1475.6105 3920.5493 2903821
2647.2053 -1468.5421 3901.7693 5271857
2670.4243 -1468.5541 3901.8013 1521666
2764.7476 -1507.3319 4004.8298 3364368
2759.479 -1491.6138 3963.0684 2707208
2729.7156 -1463.0333 3887.1331 4681496
2799.7229 -1487.9575 3953.3542 3562761
2823.2266 -1487.9575 3953.3542 3825687
2842.5984 -1485.7979 3947.6162 1720065
2832.7715 -1468.5366 3901.7546 3430673
2914.6416 -1498.7061 3981.9121 5140775
2972.9412 -1516.3674 4028.8364 6259768
3072.2351 -1554.4886 4130.1206 5470002
3091.0137 -1551.5891 4122.417 7773262
3149.3677 -1568.4447 4167.2007 5404182
3174.1428 -1568.4447 4167.2007 6587944
3198.9182 -1568.4447 4167.2007 8955976
3200.3384 -1557.0817 4137.0103 4941850
2994.5674 -1445.8547 3841.4912 4086296
0 0 0 0
0 0 0 0
0 0 0 0
0 0 0 0
0 0 0 0
0 0 0 0
0 0 0 0
0 0 0 0
0 0 0 0
0 0 0 0
3235.9871 -1441.4865 3829.885 2044703
0 0 0 0
3822.384 -1679.0707 4461.1226 1781537
3844.2236 -1677.0276 4455.6943 3755575
3870.7139 -1677.0276 4455.6943 7376457
3726.9326 -1603.7571 4261.022 7969869
3400.9336 -1453.5941 3862.0542 9086563
3423.8948 -1453.5941 3862.0542 1649930
3782.9468 -1595.3292 4238.6299 6193230
3808.1465 -1595.3292 4238.6299 9349505
3805.0581 -1583.5563 4207.3506 5992541
3830.0718 -1583.5563 4207.3506 7833473
0 0 0 0
0 0 0 0
0 0 0 0
0 0 0 0
0 0 0 0
0 0 0 0
0 0 0 0
0 0 0 0
0 0 0 0
0 0 0 0
0 0 0 0
0 0 0 0
0 0 0 0
0 0 0 0
0 0 0 0
-6616.4014 -2732.2593 7375.8486 1648924
-6930.1265 -2880.9065 7777.1279 1122580
-6883.8892 -2880.9065 7777.1279 1451547
-6997.2197 -2948.1372 7958.6196 793616
-7177.9419 -3044.8706 8219.7559 990994
-7191.7729 -3071.6499 8292.0479 333574
-7355.5029 -3163.2637 8539.3633 991502
-7236.6216 -3133.7686 8459.7393 2570788
-6505.3652 -2836.8191 7658.1118 4281916
-6399.9458 -2810.5188 7587.1133 4019770
-6378.4185 -2820.9475 7615.2661 2506278
-6540.2603 -2913.2026 7864.3125 2769450
-6764.6396 -3034.8425 8192.6846 1914143
-6902.8599 -3119.313 8420.7158 1715997
-6777.728 -3085.1431 8328.4727 1584411
-6597.7905 -3025.3391 8167.0298 1584670
-6549.2354 -3025.3391 8167.0298 794900
-6459.5347 -3006.1907 8115.3374 1912868
-6244.5928 -2928.0295 7904.3384 1057302
-6224.71 -2940.8376 7938.9146 1386267
-6115.144 -2911.1479 7858.7656 1518108
-6103.4277 -2927.9409 7904.0991 1979170
-6021.6992 -2911.1479 7858.7656 2703402
-5960.0781 -2903.8887 7839.1694 3032109
-5843.5537 -2869.5544 7746.4824 2769451
-5845.1504 -2893.1404 7810.1538 2045217
-6206.958 -3096.8232 8360.0039 2045222
-6267.3481 -3152.1951 8509.4824 1781795
-6385.6621 -3237.8379 8740.6797 2439469
-6333.6968 -3237.8379 8740.6797 1189403
-6396.5386 -3297.0144 8900.4277 1386782
-6343.6226 -3297.0144 8900.4277 1189405
-6395.7202 -3352.0522 9049.0059 860696
-6341.9214 -3352.0522 9049.0059 1255198
-6168.8726 -3288.4829 8877.3975 1123615
-6136.9668 -3299.7061 8907.6943 1650213
-6016.2339 -3262.9478 8808.4648 1847592
-5950.626 -3255.7046 8788.9111 1518880
-5917.8174 -3266.437 8817.8838 5335385
-5926.147 -3300.2708 8909.2197 3755846
-5873.1787 -3300.2708 8909.2197 3163965
-5746.8926 -3258.6965 8796.9883 2045486
-5585.7065 -3196.3875 8628.7822 1847850
-5583.1787 -3224.5566 8704.8252 1781801
-5778.833 -3368.7827 9094.1699 1255459
-5724.7656 -3368.7827 9094.1699 663579
-5670.6982 -3368.7827 9094.1699 1518632
-5605.0845 -3361.8572 9075.4746 2308147
-5453.4033 -3302.6733 8915.7051 2176561
-5341.8579 -3266.8728 8819.0605 1584935
-5328.8726 -3291.2363 8884.8301 2308659
-5276.0498 -3291.2363 8884.8301 2835260
-5329.4448 -3358.1655 9065.5088 2308660
-5392.4688 -3432.5918 9266.4258 2308404
-5337.3774 -3432.5918 9266.4258 1782316
-5041.7744 -3276.3003 8844.5098 2702905
-5003.8062 -3285.8975 8870.418 2768698
-5098.1738 -3383.5273 9133.9736 2374197
-5085.6753 -3411.5708 9209.6787 2900285
-4943.2554 -3352.123 9049.1963 3294528
-4815.7075 -3301.5627 8912.707 3951944
-4880.4858 -3383.2 9133.0898 8951699
-5160.021 -3617.2207 9764.8389 6055268
-5758.0591 -4082.3811 11020.559 11976643
-5692.5391 -4082.3811 11020.559 11254716
-5284.356 -3833.7805 10349.451 6715772
-5055.3677 -3710.8589 10017.619 9676455
-4892.0801 -3633.8091 9809.6201 3032894
-4843.0015 -3640.7568 9828.376 3560011
-4760.8936 -3622.7417 9779.7422 2901313
-4702.75 -3622.7417 9779.7422 2967364
-4644.6069 -3622.7417 9779.7422 3493453
-4649.6504 -3672.6511 9914.4756 4216662
-4612.1416 -3689.7998 9960.7695 6914176
-4552.9219 -3689.7998 9960.7695 4808543
-4323.832 -3550.3188 9584.2344 3493197
-4322.0874 -3596.2788 9708.3057 3164235
-4308.5703 -3633.5557 9808.9355 3492947
-4289.2236 -3666.8716 9898.873 3163984
-4234.2891 -3670.2664 9908.0381 2835276
-4191.165 -3684.1396 9945.4893 3756376
-4159.3911 -3708.5291 10011.329 4282204
-4223.9736 -3820.7864 10314.372 4544348
-4014.8784 -3685.1484 9948.2129 8229269
-3934.2964 -3665.178 9894.3008 5729390
-3873.2263 -3663.054 9888.5674 4150875
-3814.2148 -3662.8413 9887.9941 2704200
-3728.05 -3636.1384 9815.9082 3624792
-3655.6328 -3622.2085 9778.3027 3887709
-3597.498 -3622.2085 9778.3027 2638926
-3581.5833 -3665.416 9894.9443 3033428
-3524.7634 -3667.5059 9900.5859 3230553
-3437.1765 -3637.1099 9818.5303 3230552
-3339.7612 -3595.0837 9705.0791 3032918
-3433.4702 -3760.9329 10152.796 2966867
-3373.1094 -3760.9329 10152.796 3492695
-3345.155 -3797.7246 10252.116 5203566
-3328.9534 -3849.4714 10391.81 5729652
-3072.8545 -3620.5222 9773.751 5464682
-2824.5359 -3392.0908 9157.0908 13554384
0 0 0 0
0 0 0 0
-2852.3269 -3635.6941 9814.709 13619411
-2715.5972 -3533.7034 9539.3799 13422801
-2367.0422 -3145.8418 8492.332 13357012
-2668.9329 -3624.3679 9784.1328 4473933
-2315.8269 -3214.9253 8678.8252 4809075
-2315.5042 -3287.7297 8875.3643 4281965
-2290.0054 -3327.3489 8982.3184 5724789
-2450.5576 -3645.6455 9841.5723 13750739
-2392.0466 -3645.6455 9841.5723 13488084
-2405.2319 -3757.6553 10143.947 4865863
-2270.1868 -3637.8923 9820.6426 3166553
-2287.491 -3762.3857 10156.718 3296858
-2282.4805 -3855.9326 10409.251 2770001
-2234.8447 -3880.6768 10476.05 3032147
-2158.7087 -3855.9326 10409.251 3296088
-2128.9951 -3915.0955 10568.964 3888739
-1991.8158 -3774.2236 10188.675 5926268
-1698.3138 -3319.0137 8959.8164 13355983
-1434.0807 -2893.3755 7810.7881 13619664
-1258.1738 -2623.4185 7082.0278 13685198
0 0 0 0
-1176.7821 -2629.7148 7099.0249 10459811
-1163.7264 -2697.2783 7281.416 8560792
-1120.4364 -2697.2783 7281.416 6650738
0 0 0 0
0 0 0 0
-666.49713 -1814.8491 4899.2612 7369334
0 0 0 0
0 0 0 0
0 0 0 0
0 0 0 0
-509.14438 -1774.0287 4789.0649 5260888
-480.67203 -1774.0287 4789.0649 13353937
-456.47284 -1790.7927 4834.3198 11577015
-442.23343 -1851.5085 4998.2246 13945305
-421.50864 -1891.8628 5107.1631 13417678
-396.01523 -1915.4183 5170.752 13553363
-365.27368 -1915.4183 5170.752 13619413
-338.32611 -1937.1415 5229.3945 7236215
-305.7605 -1927.839 5204.2822 5990252
-277.55707 -1947.042 5256.1216 7041142
-252.33759 -1994.7057 5384.7915 13026254
-217.26318 -1966.9993 5309.9966 12235975
-185.69377 -1966.9993 5309.9966 13749459
-153.40701 -1957.8439 5285.2817 13683410
-116.84093 -1875.2892 5062.4219 12762055
-86.743431 -1875.2892 5062.4219 13878998
-58.420963 -1934.0531 5221.0571 10654627
-27.970375 -1975.7317 5333.5708 11576243
3.6516578 -1929.4816 5208.7163 13616080
35.44875 -1975.7317 5333.5708 14010835
67.789864 -1994.3113 5383.7271 14208211
99.78849 -1994.1288 5383.2344 9209224
131.77782 -1993.8942 5382.6011 7696235
160.98961 -1959.9368 5290.9316 13815505
192.30971 -1958.5522 5287.1938 4481618
233.75313 -2046.1716 5523.7261 9478297
266.93686 -2048.8093 5530.8467 13686228
302.37808 -2066.2949 5578.0493 3824458
342.3287 -2108.0933 5690.8862 5534292
376.04526 -2107.4355 5689.1108 5139533
0 0 0 0
0 0 0 0
435.76776 -1923.1898 5191.7314 4484429
476.59079 -1964.2253 5302.5088 3166500
511.21484 -1976.2059 5334.8506 4022332
546.74408 -1990.0814 5372.3081 4548163
578.68396 -1990.0814 5372.3081 7374707
613.23151 -1998.58 5395.2505 5333073
642.89221 -1991.0988 5375.0547 5401685
677.38403 -1998.58 5395.2505 4283204
692.48309 -1950.7546 5266.144 11120050
723.79187 -1950.7546 5266.144 13158602
754.45038 -1949.0752 5261.6099 13619150
771.51898 -1913.8181 5166.4321 13684688
778.25104 -1856.6021 5011.9751 13553360
827.22028 -1900.6516 5130.8887 11377590
856.96729 -1898.973 5126.3569 5395559
819.61633 -1753.832 4734.543 4544349
831.5802 -1720.3502 4644.1577 3491411
840.03503 -1681.9945 4540.6147 4543586
873.45038 -1694.4493 4574.2368 1384746
873.42078 -1643.2292 4435.9663 13161688
927.84064 -1694.4493 4574.2368 2831940
926.16681 -1643.2292 4435.9663 4413276
981.97021 -1693.9996 4573.0229 5795433
1009.158 -1693.9996 4573.0229 4938328
1073.1414 -1754.1451 4735.3882 13882071
1101.2947 -1754.1451 4735.3882 7959674
1114.309 -1730.6329 4671.916 13289164
0 0 0 0
0 0 0 0
0 0 0 0
0 0 0 0
0 0 0 0
996.31372 -1346.0591 3633.7429 5072746
0 0 0 0
0 0 0 0
0 0 0 0
1241.3989 -1543.3203 4166.2578 4018753
1376.2345 -1677.4786 4528.4238 3557444
0 0 0 0
1412.4615 -1656.8124 4472.6343 7367283
1446.3612 -1665.2268 4495.3496 1847348
1473.0873 -1665.2268 4495.3496 4216653
1497.9623 -1663.1715 4489.8013 2043425
0 0 0 0
0 0 0 0
0 0 0 0
1396.451 -1447.3031 3907.0554 1187622
1419.6796 -1447.3031 3907.0554 1253158
0 0 0 0
0 0 0 0
0 0 0 0
0 0 0 0
0 0 0 0
1600.093 -1485.4037 4009.9097 595222
1612.4346 -1474.8861 3981.5166 69894
1622.0054 -1462.175 3947.2029 4216897
1591.2662 -1414.0068 3817.1709 3493682
0 0 0 0
1527.0496 -1319.3125 3561.5393 1716759
1567.9418 -1336.1149 3606.8982 1848344
1589.3856 -1336.1149 3606.8982 1453333
1565.887 -1298.8368 3506.2644 1914138
1658.1063 -1357.2605 3663.9817 1190929
1666.0804 -1346.1034 3633.8625 3889190
1600.3135 -1276.4155 3445.7373 3626277
1620.7992 -1276.4155 3445.7373 1323274
1580.0308 -1228.7786 3317.1392 1257735
1610.9127 -1237.3511 3340.2812 1455112
1649.4359 -1251.5127 3378.511 863492
1705.0897 -1278.1748 3450.4866 1258757
1700.1511 -1259.3218 3399.592 1785101
1746.1178 -1278.1748 3450.4866 2114063
1740.5741 -1259.3218 3399.592 2048528
1739.5612 -1244.142 3358.6133 4219435
1783.2529 -1260.9169 3403.8979 4086833
1803.4901 -1260.9169 3403.8979 2179097
1823.7272 -1260.9169 3403.8979 3100201
1842.2499 -1259.7445 3400.7329 2836770
1807.3512 -1222.4642 3300.0935 1060104
1826.9712 -1222.4642 3300.0935 863241
1846.5912 -1222.4642 3300.0935 1191692
1781.733 -1167.1268 3150.7075 665860
1800.4647 -1167.1268 3150.7075 1455119
1919.4757 -1231.4618 3324.3828 1653265
1991.8967 -1264.9001 3414.6509 2904086
1974.6268 -1241.2825 3350.8938 1851149
1949.6946 -1213.3679 3275.5376 2179348
0 0 0 0
2188.248 -1335.157 3604.3123 3296295
2241.1917 -1354.1995 3655.718 3493153
2680.9426 -1604.3525 4331.0166 6454571
2706.6919 -1604.3525 4331.0166 4087071
2773.1599 -1628.2607 4395.5581 1783048
2833.2188 -1647.9944 4448.8296 5996353
2820.5398 -1625.4451 4387.957 5272879
2844.9731 -1624.5002 4385.4067 3232018
2779.7527 -1572.8447 4245.9604 5601070
2760.2266 -1547.7413 4178.1924 6654014
2665.5757 -1481.3365 3998.9302 2574856
2636.6379 -1452.3018 3920.5493 4875826
2717.1279 -1483.5221 4004.8298 1717006
2804.0962 -1517.7062 4097.1113 3165475
2917.8364 -1565.6671 4226.584 1324040
2834.4915 -1507.959 4070.7986 3562259
2773.1482 -1462.834 3948.9814 5799463
2820.1064 -1475.1158 3982.137 3956757
2871.8855 -1489.694 4021.4912 3101198
2897.5837 -1490.6144 4023.9761 3430416
2880.1938 -1469.5354 3967.0723 4877339
2914.8965 -1475.1617 3982.2607 5009172
3047.6802 -1529.9338 4130.1206 4680462
3205.012 -1596.0549 4308.6172 5338390
3190.5623 -1576.2612 4255.1831 5732888
3183.5149 -1560.4069 4212.3838 4877066
3208.5588 -1560.4069 4212.3838 4746259
3211.7664 -1549.8696 4183.938 3232520
3200.3384 -1532.4861 4137.0103 4877100
0 0 0 0
0 0 0 0
0 0 0 0
0 0 0 0
0 0 0 0
0 0 0 0
0 0 0 0
0 0 0 0
0 0 0 0
0 0 0 0
0 0 0 0
0 0 0 0
0 0 0 0
0 0 0 0
0 0 0 0
3701.5999 -1578.4241 4261.022 1846050
0 0 0 0
0 0 0 0
0 0 0 0
0 0 0 0
3801.2021 -1567.266 4230.9004 3556930
3826.356 -1567.266 4230.9004 4148299
3830.0718 -1558.5425 4207.3506 4476495
0 0 0 0
0 0 0 0
0 0 0 0
0 0 0 0
0 0 0 0
0 0 0 0
0 0 0 0
0 0 0 0
0 0 0 0
0 0 0 0
0 0 0 0
0 0 0 0
0 0 0 0
0 0 0 0
-6586.6875 -2658.7131 7294.3789 1517081
-6637.4531 -2696.9617 7399.3164 1714204
-6930.1265 -2834.6694 7777.1279 662028
-6883.8892 -2834.6694 7777.1279 595723
-7220.0752 -2993.2097 8212.0957 727054
-7173.4277 -2994.1179 8214.5869 1056272
-7191.7729 -3022.3516 8292.0479 859151
-7142.4736 -3022.3516 8292.0479 1057040
-7236.6216 -3083.4729 8459.7393 1649176
-6810.2188 -2922.0947 8016.9863 2767911
-6459.8354 -2791.2893 7658.1118 2834987
-6587.0161 -2866.447 7864.3125 1650458
-6920.165 -3032.9509 8321.1279 2373924
-6921.814 -3055.5171 8383.04 860687
-6902.8599 -3069.2493 8420.7158 531723
-6692.3389 -2997.3833 8223.5459 662541
-6556.0303 -2957.9426 8115.3374 1320472
-6559.5859 -2981.4885 8179.9375 1123095
-6459.5347 -2957.9426 8115.3374 925716
-6244.5928 -2881.0359 7904.3384 925716
-6435.6685 -2991.7056 8207.9688 1319704
-6150.606 -2881.0359 7904.3384 2044194
-6307.7368 -2977.3872 8168.6851 1978657
-6056.4355 -2880.949 7904.0991 1913375
-5959.8174 -2857.158 7838.8271 2045217
-5891.584 -2846.7068 7810.1538 1913375
-5622.0962 -2738.0752 7512.1143 2571307
-6206.958 -3047.1206 8360.0039 1452828
-6157.2554 -3047.1206 8360.0039 1847332
-6020.4443 -3003.6614 8240.7705 2110506
-6427.0942 -3232.8518 8869.5713 663059
-6374.3623 -3232.8518 8869.5713 1386782
-6256.8096 -3199.7026 8778.624 1057816
-6301.1665 -3249.4927 8915.2266 1781542
-6248.5479 -3249.6924 8915.7754 1320991
-5925.8887 -3108.2544 8527.7285 1057564
-6202.2202 -3281.2693 9002.4082 926233
-6098.436 -3254.4465 8928.8184 1452577
-6045.3521 -3254.4465 8928.8184 1189662
-5997.333 -3257.1978 8936.3662 3755588
-5944.2036 -3257.1978 8936.3662 992539
-5873.1787 -3247.3032 8909.2197 1913641
-5637.0073 -3145.0872 8628.7822 2308142
-5585.7065 -3145.0872 8628.7822 1979180
-5584.3003 -3173.4409 8706.5732 1979437
-5532.5376 -3173.4409 8706.5732 1452836
-5531.8599 -3203.0203 8787.7256 1781801
-5424.3525 -3170.7175 8699.1016 2242608
-5580.6074 -3293.4553 9035.8418 1453094
-5453.4033 -3249.6667 8915.7051 1387301
-5174.7124 -3113.8623 8543.1143 1583911
-5328.8726 -3238.4136 8884.8301 1912876
-5276.0498 -3238.4136 8884.8301 2176305
