# .PCD v0.7 - Point Cloud Data file format
VERSION 0.7
FIELDS x y z rgb
SIZE 4 4 4 4
TYPE F F F U
COUNT 1 1 1 1
WIDTH 1491
HEIGHT 1
VIEWPOINT 0 0 0 1 0 0 0
POINTS 1491
DATA ascii
245.33609 -197.03105 10021.007 134656
313.36972 -202.49516 10298.912 134401
379.00299 -204.87547 10419.975 132608
443.76727 -206.18321 10486.486 1536
496.68481 -202.34256 10291.15 768
552.70074 -200.46817 10195.818 1024
613.31775 -200.46817 10195.818 768
679.22992 -202.04327 10275.929 1280
722.21716 -197.10193 10024.611 1280
776.03674 -195.64485 9950.5049 68096
831.68109 -194.82166 9908.6367 398338
895.23956 -195.83861 9960.3594 68096
1003.835 -205.97025 10475.654 1123078
1066.1157 -205.97025 10475.654 662788
1113.7025 -203.28812 10339.241 2767647
1175.1721 -203.28812 10339.241 1280
1219.8706 -200.53114 10199.021 2048
1281.2833 -200.65277 10205.208 1024
1341.9562 -200.65277 10205.208 1024
1399.083 -200.14549 10179.408 768
1459.6024 -200.14549 10179.408 1280
1521.8047 -200.36708 10190.677 2048
1582.391 -200.36708 10190.677 397568
1640.7247 -200.09233 10176.704 529408
1703.082 -200.31041 10187.795 135168
1798.6732 -204.28807 10390.1 530176
1864.4253 -204.72513 10412.328 1385737
1966.0369 -208.94511 10626.956 1452553
2029.2169 -208.94511 10626.956 2570010
2119.2271 -211.62431 10763.221 464128
2138.97 -207.33531 10545.082 3328
2141.76 -201.69406 10258.168 398848
2202.7476 -201.69406 10258.168 1846033
2358.7378 -210.1586 10688.675 1253638
2376.6511 -206.19939 10487.309 398336
2515.8374 -212.69533 10817.692 69376
2580.1516 -212.69533 10817.692 529408
2628.106 -211.3795 10750.77 661505
2606.0667 -204.6302 10407.5 727298
2667.9421 -204.6302 10407.5 464384
2801.1511 -209.97745 10679.461 529921
2864.6436 -209.97745 10679.461 463618
2981.5415 -213.80716 10874.241 134656
2969.9468 -208.45564 10602.062 267264
2982.6379 -204.99573 10426.091 2636055
3077.2266 -207.19089 10537.736 1188609
3165.269 -208.86647 10622.957 926208
3228.4255 -208.86647 10622.957 2505234
3336.7388 -211.73187 10768.691 2702103
3301.9604 -205.58051 10455.832 1536
3404.5098 -208.04851 10581.355 2048
3467.4189 -208.04851 10581.355 768
3596.6289 -211.95575 10780.077 1024
3669.5398 -212.46646 10806.052 1024
3722.7007 -211.83572 10773.973 594950
3698.8999 -206.92101 10524.01 1024
3735.7239 -205.50479 10451.981 1536
3780.6658 -204.57419 10404.651 67584
3830.6323 -203.94107 10372.451 1792
3927.6562 -205.79362 10466.672 989958
3953.9668 -203.94107 10372.451 332032
4052.1108 -205.79362 10466.672 595200
4009.051 -200.5273 10198.826 464128
4069.6858 -200.5273 10198.826 1451017
3999.9668 -194.19861 9876.9492 2560
4004.7439 -191.61752 9745.6748 660992
3748.9211 -176.81879 8993.0107 859648
0 0 0 0
0 0 0 0
0 0 0 0
0 0 0 0
0 0 0 0
1977.9584 -85.937233 4370.771 1024
1959.363 -84.025429 4273.5366 856587
1960.9496 -83.01696 4222.2461 264451
1751.4812 -73.211914 3723.5608 593415
0 0 0 0
0 0 0 0
0 0 0 0
0 0 0 0
0 0 0 0
3958.8054 -153.81345 7822.9575 2241049
4968.2002 -190.79047 9703.6104 265218
5323.5151 -202.08875 10278.241 1188623
5563.4482 -208.80022 10619.587 2048
5488.5146 -203.67648 10358.994 1649687
5794.5957 -212.64888 10815.33 1056783
5802.8398 -210.61432 10711.853 1713432
6069.4238 -217.89861 11082.332 1024
6530.6289 -231.93849 11796.401 1280
6298.6611 -221.32327 11256.51 1024
6456.4258 -224.4817 11417.148 1280
6524.3037 -224.4817 11417.148 1280
6478.502 -220.61061 11220.264 794120
6315.791 -212.87788 10826.978 532227
6392.7466 -213.29782 10848.336 1321743
6323.9004 -208.8932 10624.316 1782804
6454.4185 -211.09605 10736.354 1585680
6859.1582 -222.13652 11297.872 1783314
6932.3916 -222.33102 11307.765 1651729
7063.062 -224.34618 11410.255 2112536
7272.7905 -228.81024 11637.298 1792
7871.2075 -245.30351 12476.146 795911
7523.3857 -232.27492 11813.512 3296043
7278.0781 -222.62306 11322.617 2837027
7345.3936 -222.62306 11322.617 2836008
7412.71 -222.62306 11322.617 3032365
7064.9883 -210.27054 10694.368 1024
6842.7725 -201.84044 10265.612 1536
7417.3135 -216.85347 11029.176 512
7878.54 -228.3195 11612.339 512
8049.6172 -231.25089 11761.429 512
8016.6172 -228.3195 11612.339 1795
7904.2661 -223.19749 11351.834 768
8070.4937 -225.96204 11492.438 512
8046.6333 -223.40259 11362.265 67075
8114.1851 -223.40259 11362.265 266758
8181.7368 -223.40259 11362.265 530698
8112.9365 -219.70999 11174.458 1388050
7809.0571 -209.76277 10668.543 1586196
7872.4844 -209.76277 10668.543 333317
8047.2275 -212.70511 10818.189 4942665
8147.3887 -213.64499 10865.993 4152636
8211.9902 -213.64499 10865.993 5796947
8356.4971 -215.70763 10970.898 5730387
8102.9663 -207.54326 10555.658 3227178
7883.7036 -200.37537 10191.099 1024
7883.1709 -198.83372 10112.69 768
8026.8994 -200.92651 10219.13 858640
8174.7705 -203.09076 10329.204 529932
8049.4136 -198.4854 10094.975 2307
8084.0337 -197.86378 10063.359 2564
8097.7974 -196.74454 10006.436 2564
8034.2158 -193.77617 9855.4639 2563
8438.7686 -202.05991 10276.774 1282
8723.8604 -207.3847 10547.595 1024
8787.9775 -207.41797 10549.286 135176
8674.5371 -203.28964 10339.319 1122839
0 0 0 0
0 0 0 0
0 0 0 0
0 0 0 0
0 0 0 0
0 0 0 0
0 0 0 0
0 0 0 0
0 0 0 0
0 0 0 0
0 0 0 0
0 0 0 0
0 0 0 0
0 0 0 0
0 0 0 0
0 0 0 0
0 0 0 0
0 0 0 0
0 0 0 0
0 0 0 0
0 0 0 0
0 0 0 0
0 0 0 0
0 0 0 0
0 0 0 0
0 0 0 0
-7767.9766 -117.99761 8602.5889 1024
-7736.9087 -118.30462 8624.9707 1024
-7650.8945 -117.76993 8585.9893 1024
-7470.7905 -115.76999 8440.1846 1280
-7416.4756 -115.70546 8435.4805 1280
-7399.5439 -116.22726 8473.5215 1024
-7316.1724 -115.70546 8435.4805 133888
-7276.3042 -115.8692 8447.418 1792
-7217.6489 -115.73398 8437.5596 265986
-7013.4414 -113.24661 8256.2188 134400
-6964.3555 -113.24661 8256.2188 768
-6902.9697 -113.04518 8241.5332 1280
-6843.3789 -112.87047 8228.7959 1024
-6827.0674 -113.41221 8268.291 1024
-6932.1411 -115.99291 8456.4365 768
-6880.0107 -115.96165 8454.1572 463365
-6609.9263 -112.22931 8182.0518 1792
-6561.2812 -112.22931 8182.0518 1280
-6568.3525 -113.18942 8252.0488 1024
-6452.293 -112.02617 8167.2427 1792
-6403.7368 -112.02617 8167.2427 1024
-6385.7842 -112.56566 8206.5732 1280
-6416.395 -113.97607 8309.3994 1280
-6348.8125 -113.65063 8285.6729 1280
-6299.5522 -113.65063 8285.6729 1280
-6282.2715 -114.23214 8328.0674 1024
-6284.7432 -115.18488 8397.5273 2560
-6274.6606 -115.92097 8451.1914 2304
-6241.1309 -116.23226 8473.8857 1536
-6309.9478 -118.47018 8637.041 595716
-5872.9717 -111.17059 8104.8662 397316
-5824.7856 -111.17059 8104.8662 3328
-6084.8462 -117.10279 8537.3516 133888
-6034.0898 -117.10279 8537.3516 1713688
-6067.9004 -118.7579 8658.0176 1024
-6005.272 -118.53773 8641.9658 1280
-5900.6445 -117.47758 8564.6768 332288
-5791.3052 -116.30437 8479.1436 2560
-5672.1816 -114.91232 8377.6562 727554
-5659.0142 -115.66119 8432.252 463872
-5617.4741 -115.83836 8445.1689 1280
-5567.2651 -115.83836 8445.1689 1536
-5584.438 -117.25313 8548.3125 266496
-5502.4116 -116.59193 8500.1084 858116
-5692.8687 -121.74571 8875.8438 3072
-5640.0991 -121.74571 8875.8438 463360
-5197.4033 -113.24937 8256.4199 134400
-5145.8755 -113.19567 8252.5049 727045
-5296.6685 -117.63431 8576.1025 398336
-5043.9155 -113.10972 8246.2383 1536
-4980.0127 -112.77283 8221.6777 1280
-4945.8633 -113.10972 8246.2383 2107931
-5013.5093 -115.80467 8442.7129 396548
-4963.3145 -115.80467 8442.7129 1536
-5686.125 -134.02477 9771.0449 2304
-5161.2026 -122.90776 8960.5625 1536
-5010.7363 -120.56908 8790.0615 1792
-4986.0317 -121.2391 8838.9092 727558
-5207.877 -127.98228 9330.5195 4096
-5110.0098 -126.92924 9253.7471 2307610
-5311.2964 -133.3649 9722.9375 1254923
-5047.5669 -128.13734 9341.8232 2048
-4992.0273 -128.13734 9341.8232 67584
-4825.8726 -125.26608 9132.4951 595718
-4817.957 -126.48367 9221.2627 529159
-4763.1343 -126.48367 9221.2627 1280
-4708.311 -126.48367 9221.2627 1280
-4747.1138 -129.02846 9406.79 768
-4691.188 -129.02846 9406.79 1024
-4556.7197 -126.84213 9247.3965 1024
-4331.4531 -122.04406 8897.5938 67328
-4278.5547 -122.04406 8897.5938 331777
-4305.3521 -124.34583 9065.4033 266240
-4252.9336 -124.38904 9068.5547 1057543
-4184.9116 -123.97114 9038.0879 925444
-4156.3354 -124.7261 9093.1279 530435
-4235.25 -128.7691 9387.8818 2560
-4217.2515 -129.93419 9472.8223 331777
-4216.3525 -131.66481 9598.9922 464131
-4203.2622 -133.05696 9700.4873 1188875
-4157.3369 -133.43398 9727.9736 1846805
-4099.5015 -133.43398 9727.9736 267776
-4138.2817 -136.62373 9960.5215 1536
-4079.064 -136.62373 9960.5215 768
-4116.8721 -139.92137 10200.936 134144
-3994.054 -137.77678 10044.584 2504739
-3827.4807 -134.03481 9771.7764 69120
-3747.0305 -133.23991 9713.8252 266752
-3773.3218 -136.27515 9935.1084 267777
-3586.2302 -131.57796 9592.6602 3072
-3501.6489 -130.5508 9517.7764 398592
-3445.063 -130.5508 9517.7764 398593
-3350.5515 -129.08961 9411.248 1536
-3280.2446 -128.52718 9370.2441 133888
-3224.5361 -128.52718 9370.2441 1187848
-3203.7373 -129.94313 9473.4736 793093
-3194.3018 -131.87889 9614.5996 1188103
-3203.061 -134.65004 9816.6309 267008
-3157.8621 -135.2137 9857.7236 266497
-3120.4338 -136.13768 9925.0859 1057287
-3112.9624 -138.42941 10092.164 859396
-2996.9927 -135.89162 9907.1475 1536
-2992.9609 -138.42941 10092.164 134400
-2970.0854 -140.18164 10219.91 1319436
-2730.157 -131.54868 9590.5264 1536
-2673.1387 -131.54868 9590.5264 859140
-2626.1462 -132.05281 9627.2803 1714960
-2642.7271 -135.84737 9903.9209 1057031
-2642.0864 -138.90941 10127.158 530946
-2630.7905 -141.541 10319.015 1978644
-2569.4412 -141.541 10319.015 333313
-2538.804 -143.27422 10445.374 1978898
-2470.0378 -142.88863 10417.263 794114
-2391.3621 -141.8952 10344.837 267008
-2272.3933 -138.39537 10089.683 2304
-2189.4963 -136.96217 9985.1963 398336
-2111.2651 -135.74911 9896.7588 596483
-2044.8805 -135.25006 9860.374 596736
-1969.2914 -134.09474 9776.1465 70400
-1902.4291 -133.48149 9731.4375 1254153
-1896.5691 -137.24416 10005.754 332801
-1830.7123 -136.76828 9971.0605 1792
-1792.8763 -138.424 10091.77 1024
-1699.6823 -135.77229 9898.4473 134144
-1637.5741 -135.50261 9878.7871 1536
-1565.2841 -134.339 9793.9551 1024
-1461.6383 -130.29047 9498.7959 1024
-1407.6707 -130.52275 9515.7314 1024
-1379.3969 -133.25667 9715.0469 331522
-1350.0399 -136.12033 9923.8213 661253
-1293.0485 -136.33208 9939.2588 1536
-1209.6882 -133.65079 9743.7803 265216
-1151.7587 -133.65079 9743.7803 858884
-1093.8292 -133.65079 9743.7803 793602
-1031.0037 -133.01912 9697.7275 1254151
-973.34796 -133.01912 9697.7275 463873
-916.5307 -133.14091 9706.6074 859138
-839.16907 -130.09413 9484.4824 1715215
-782.78119 -130.09413 9484.4824 397827
-788.20392 -141.16417 10291.541 1536
-709.83606 -137.82799 10048.318 1280
-674.46155 -142.99377 10424.929 1280
-579.5564 -135.30666 9864.501 265984
-522.38153 -135.6891 9892.3828 134656
-463.56854 -135.6891 9892.3828 529667
-404.65295 -135.65471 9889.875 3072
-347.69754 -136.37746 9942.5664 332032
-286.2142 -135.2565 9860.8438 1122823
-228.23155 -135.63852 9888.6953 1122820
-170.86737 -136.78075 9971.9688 1583372
-111.58124 -136.78075 9971.9688 201472
-51.458435 -134.59236 9812.4248 794370
6.9641895 -136.25589 9933.7041 1057797
65.796043 -135.78784 9899.582 2044942
123.52987 -134.56567 9810.4795 2242066
184.28731 -136.36482 9941.6455 464896
245.05812 -137.29764 10009.653 200960
311.84705 -140.57886 10248.869 1187597
377.97699 -142.53891 10391.767 768
443.76727 -143.83813 10486.486 68608
499.71814 -142.02087 10354 726790
572.79535 -144.93578 10566.509 332034
609.29016 -138.9328 10128.863 1912083
679.22992 -140.95003 10275.929 793859
722.21716 -137.50282 10024.611 1188871
781.16034 -137.38747 10016.201 728065
831.68109 -135.91205 9908.6367 1122824
902.64441 -137.75156 10042.745 859651
986.32391 -141.18301 10292.915 135680
1058.1678 -142.61836 10397.559 531457
1118.7439 -142.4604 10386.044 1123339
1178.1669 -142.17984 10365.589 727558
1239.7932 -142.17984 10365.589 2304
1293.5259 -141.31746 10302.717 1280
1348.429 -140.65515 10254.432 1024
1399.083 -139.6261 10179.408 768
1457.5616 -139.43088 10165.176 768
1517.9965 -139.43088 10165.176 133632
1582.391 -139.78065 10190.677 133632
1650.4622 -140.41743 10237.102 331520
1714.5629 -140.68315 10256.473 1536
1784.1362 -141.36423 10306.127 859138
1845.4091 -141.36423 10306.127 1846543
1966.0369 -145.76489 10626.956 596737
2029.2169 -145.76489 10626.956 1584138
2105.5947 -146.68428 10693.984 2307606
2169.1733 -146.68428 10693.984 3072
2153.8115 -141.49815 10315.891 133889
2202.7476 -140.70641 10258.168 924934
2358.7378 -146.61145 10688.675 1451019
2422.2852 -146.61145 10688.675 1187592
2427.4927 -143.17067 10437.824 2304
2580.1516 -148.38113 10817.692 133376
2590.2878 -145.34122 10596.067 67840
2587.6667 -141.74681 10334.019 726785
2667.9421 -142.75471 10407.5 134144
2764.114 -144.54823 10538.256 595200
2864.6436 -146.48508 10679.461 67584
3002.2097 -150.19075 10949.622 398592
2981.1438 -145.97171 10642.034 793345
3021.7065 -144.88295 10562.658 1912331
3125.7661 -146.82106 10703.956 1912330
3165.269 -145.71004 10622.957 1846537
3202.5264 -144.54111 10537.736 3162397
3336.7388 -147.70901 10768.691 2109712
3394.3623 -147.43106 10748.428 397826
3414.4873 -145.56477 10612.366 3072
3477.5811 -145.56477 10612.366 1280
3600.4097 -148.02061 10791.409 1024
3678.5532 -148.58553 10832.594 1024
3718.1785 -147.60193 10760.885 768
3691.6028 -144.06805 10503.248 2304
3718.8074 -142.71564 10404.651 1024
3761.7893 -142.00308 10352.702 265728
3830.6323 -142.27397 10372.451 792324
3912.908 -143.02725 10427.369 726787
3949.8594 -142.12617 10361.676 397824
4076.5852 -144.43347 10529.89 529408
4073.0652 -142.12617 10361.676 1582607
3998.6106 -137.44928 10020.709 529666
4058.1868 -137.44928 10020.709 266496
4058.688 -135.4774 9876.9492 858880
3740.9553 -123.09073 8973.9014 1452040
0 0 0 0
0 0 0 0
0 0 0 0
0 0 0 0
0 0 0 0
1977.9584 -59.951778 4370.771 768
1960.3246 -58.646832 4275.6338 256
1963.2682 -57.983021 4227.2388 1024
1986.1129 -57.916317 4222.376 593415
0 0 0 0
0 0 0 0
0 0 0 0
0 0 0 0
0 0 0 0
0 0 0 0
0 0 0 0
0 0 0 0
0 0 0 0
5220.3506 -135.14702 9852.8623 1122573
5574.1802 -142.70583 10403.936 396548
5703.8486 -144.4229 10529.118 768
6069.4238 -152.01108 11082.332 330757
6237.5659 -154.54456 11267.036 1280
6218.2671 -152.42946 11112.835 1280
6363.0337 -154.33832 11251.999 1280
6429.9302 -154.33832 11251.999 1280
6599.7842 -156.78418 11430.314 397317
6359.998 -149.54796 10902.76 400645
6424.8179 -149.54796 10902.76 1453585
6323.9004 -145.72868 10624.316 796166
6521.7393 -148.80145 10848.336 2244124
6859.1582 -154.96753 11297.872 71424
6932.3916 -155.10323 11307.765 2967590
6999.6191 -155.10323 11307.765 68352
6880.8198 -151.02029 11010.1 203520
6881.7598 -149.61758 10907.836 2311455
7842.292 -168.90897 12314.27 4219196
7386.0371 -157.61069 11490.571 664579
7176.416 -151.73416 11062.145 2177306
7187.9419 -150.59773 10979.293 2769189
6791.1221 -141.00331 10279.813 67585
6842.7725 -140.80852 10265.612 768
7551.9111 -154.02716 11229.314 512
7979.6914 -161.32591 11761.429 460807
8275.0635 -165.84419 12090.833 1250835
8345.4727 -165.81491 12088.697 2039837
0 0 0 0
0 0 0 0
7089.8359 -137.31911 10011.218 4344129
7249.6577 -139.24562 10151.67 5397582
7489.5303 -142.66519 10400.974 5069642
7625.5552 -144.0668 10503.157 5400143
8093.5356 -151.66623 11057.191 4281664
8245.8066 -153.27472 11174.458 4478785
8285.5127 -152.78183 11138.524 3425841
8351.7334 -152.78183 11138.524 2833961
8116.0435 -147.30228 10739.039 1255185
8004.2026 -144.13852 10508.386 3689781
8176.9233 -146.10841 10652.001 5072200
8124.2832 -144.05217 10502.09 6520163
7944.2192 -139.78514 10191.004 5664086
7801.6895 -136.23816 9932.4121 530444
0 0 0 0
0 0 0 0
0 0 0 0
0 0 0 0
0 0 0 0
0 0 0 0
8723.8604 -144.67633 10547.595 1024
8801.0537 -144.91483 10564.982 1024
8863.8652 -144.91483 10564.982 463883
0 0 0 0
0 0 0 0
0 0 0 0
0 0 0 0
0 0 0 0
0 0 0 0
0 0 0 0
0 0 0 0
0 0 0 0
0 0 0 0
0 0 0 0
0 0 0 0
0 0 0 0
0 0 0 0
0 0 0 0
0 0 0 0
0 0 0 0
0 0 0 0
0 0 0 0
0 0 0 0
0 0 0 0
0 0 0 0
0 0 0 0
0 0 0 0
0 0 0 0
0 0 0 0
0 0 0 0
-7701.9409 -66.723831 8585.9893 1024
-7632.585 -66.56414 8565.4414 1280
-7503.3418 -65.876534 8476.96 1024
-7416.4756 -65.554192 8435.4805 1280
-7366.3237 -65.554192 8435.4805 1280
-7317.9761 -65.570343 8437.5596 1024
-7276.3042 -65.646957 8447.418 68608
-7217.6489 -65.570343 8437.5596 1024
-7079.1084 -64.761848 8333.5225 1280
-7003.1396 -64.51841 8302.1973 1024
-6931.3623 -64.31041 8275.4316 768
-6863.7949 -64.138771 8253.3457 768
-6831.2319 -64.294113 8273.335 512
-6930.2729 -65.699326 8454.1572 512
-6781.5063 -64.758682 8333.1152 512
-6619.4082 -63.675945 8193.7891 768
-6569.0791 -63.660294 8191.7754 768
-6520.3765 -63.660294 8191.7754 512
-6483.3647 -63.775291 8206.5732 768
-6434.5747 -63.775291 8206.5732 1024
-6385.7842 -63.775291 8206.5732 1024
-6389.2954 -64.301659 8274.3057 1280
-6267.9502 -63.569881 8180.1411 68096
-6190.7212 -63.277596 8142.5298 331264
-6210.5361 -63.980442 8232.9717 2048
-6284.7432 -65.259239 8397.5273 1280
-6260.1538 -65.524437 8431.6523 1280
-6286.7075 -66.333542 8535.7676 1280
-6316.1929 -67.187004 8645.5908 768
-6230.5835 -66.820129 8598.3809 1536
-6173.5229 -66.755882 8590.1143 1024
-5837.3242 -63.647007 8190.0654 1024
-5892.9946 -64.794487 8337.7227 66816
-6067.9004 -67.283577 8658.0176 1280
-6005.272 -67.158836 8641.9658 67328
-5530.8521 -62.387009 8027.9297 924165
-5483.1235 -62.387009 8027.9297 68864
-5626.6484 -64.582191 8310.4053 67584
-5655.3359 -65.486511 8426.7715 793089
-5608.8818 -65.529099 8432.252 1056261
-5567.2651 -65.629478 8445.1689 464128
-5584.438 -66.43103 8548.3125 134144
-5553.3335 -66.667747 8578.7725 792579
-5635.9731 -68.287003 8787.1377 68608
-5191.5684 -63.490993 8169.9893 726787
-5142.9951 -63.490993 8169.9893 133888
-5056.3828 -63.016903 8108.9839 1056262
-5227.9609 -65.782463 8464.8545 398336
-5043.9155 -64.083542 8246.2383 463874
-4905.9487 -62.942448 8099.4028 529923
-5063.7031 -65.61039 8442.7129 199169
-5109.8457 -66.871124 8604.9434 1280
-5058.687 -66.871124 8604.9434 1280
-5366.9131 -71.670395 9222.5107 924170
-5125.4351 -69.152153 8898.4648 529413
-4959.8662 -67.616234 8700.8232 1536
-5019.6274 -69.152153 8898.4648 1024
-5269.2725 -73.364563 9440.5166 3072
-5297.0923 -74.545952 9592.5361 2816
-5073.6929 -72.179153 9287.9775 463875
-4967.3965 -71.444534 9193.4473 266498
-4912.7393 -71.444534 9193.4473 134657
-4825.8726 -70.970863 9132.4951 332801
-4771.5776 -70.970863 9132.4951 1451277
-4824.8291 -72.58889 9340.7031 858377
-4797.4004 -73.01664 9395.7451 265474
-4747.1138 -73.10247 9406.79 1280
-4685.6797 -73.01664 9395.7451 1280
-4384.3521 -69.145378 8897.5938 133890
-4197.2783 -67.003479 8621.9746 660999
-4278.5547 -69.145378 8897.5938 3072
-4305.3521 -70.449471 9065.4033 1056265
-4252.9336 -70.473961 9068.5547 2560
-4184.9116 -70.237198 9038.0879 2560
-4156.3354 -70.664925 9093.1279 68096
-4235.25 -72.955536 9387.8818 725258
-4179.4365 -72.955536 9387.8818 1280
-4123.6226 -72.955536 9387.8818 991497
-4100.4399 -73.540756 9463.1885 859654
-4075.0369 -74.101898 9535.3955 530693
-4129.229 -76.146675 9798.5166 662535
-4126.105 -77.177879 9931.2119 135424
-4013.3628 -76.15889 9800.0879 530691
-3979.4917 -76.628601 9860.5303 69376
-3893.9756 -76.10302 9792.8984 397573
-3770.6223 -74.810776 9626.6133 1792
-3713.3892 -74.810776 9626.6133 68608
-3618.5759 -74.041809 9527.6641 2570782
-3595.7302 -74.7444 9618.0723 2242327
-3538.5483 -74.7444 9618.0723 1583888
-3481.3662 -74.7444 9618.0723 1792
-3323.0393 -72.536575 9333.9707 1280
-3267.5466 -72.536575 9333.9707 265218
-3162.4058 -71.415405 9189.6992 134144
-3139.9014 -72.153755 9284.71 68608
-3147.415 -73.620682 9473.4736 132864
-3166.064 -75.406281 9703.2432 1319946
-3157.8621 -76.606789 9857.7236 991240
-3087.3057 -76.311424 9819.7158 1781519
-3005.0093 -75.708878 9742.1816 1716233
-2947.0891 -75.708878 9742.1816 2703638
-2938.0918 -76.990875 9907.1475 2571285
-2871.5493 -76.78653 9880.8525 464129
-2630.9348 -71.821671 9241.9775 2044434
-2616.9456 -72.9636 9388.9199 1978643
-2616.1206 -74.530334 9590.5264 1583889
-2702.3147 -78.70121 10127.232 1254156
-2642.1057 -78.70121 10127.232 1582866
-2663.0054 -81.173561 10445.374 199936
-2600.9048 -81.173561 10445.374 265984
-2538.804 -81.173561 10445.374 1536
-2489.303 -81.586517 10498.513 596481
-2391.3621 -80.392265 10344.837 1057539
-2251.1846 -77.677589 9995.5137 991746
-2178.0786 -77.192757 9933.126 859649
-2109.5686 -76.848328 9888.8057 3840
-2045.7777 -76.661003 9864.7002 1792
-1969.2914 -75.972832 9776.1465 793345
-1878.2739 -74.665176 9607.8779 859649
-1837.142 -75.320717 9692.2334 1714959
-1792.577 -75.873428 9763.3555 1280
-1758.5312 -76.923264 9898.4473 1536
-1695.9108 -76.752571 9876.4834 67840
-1623.5118 -76.111229 9793.9551 67840
-1520.818 -73.949081 9515.7314 768
-1461.6383 -73.817467 9498.7959 512
-1407.6707 -73.949081 9515.7314 768
-1382.5922 -75.672897 9737.5508 768
-1331.6238 -76.068428 9788.4482 768
-1293.0485 -77.240417 9939.2588 1536
-1209.6882 -75.721306 9743.7803 529154
-1151.7587 -75.721306 9743.7803 398080
-1090.9147 -75.519547 9717.8184 201216
-1040.3754 -76.048462 9785.8779 726788
-991.72156 -76.786034 9880.7891 793349
-942.90192 -77.602829 9985.8936 464130
-876.85535 -77.016319 9910.4219 858884
-816.45001 -76.876488 9892.4277 1648145
-774.88007 -78.626129 10117.572 265217
-714.72833 -78.626129 10117.572 1280
-635.90973 -76.383926 9829.0459 331521
-564.58429 -74.679062 9609.665 396803
-507.45218 -74.679062 9609.665 134144
-465.92017 -77.266121 9942.5664 462084
-405.27081 -76.973991 9904.9756 1536
-347.69754 -77.266121 9942.5664 397824
-287.02258 -76.847481 9888.6953 1845778
-228.84654 -77.054543 9915.3408 1280
-170.27647 -77.226624 9937.4834 68608
-110.05856 -76.437096 9835.8877 134912
-51.225006 -75.908852 9767.9141 793604
6.8791647 -76.254761 9812.4248 1781773
65.796043 -76.932083 9899.582 2373396
123.52987 -76.239639 9810.4795 67840
183.06197 -76.745262 9875.543 67840
245.8002 -78.023026 10039.964 1319181
311.84705 -79.646469 10248.869 200448
383.68274 -81.976036 10548.636 1122060
446.60049 -82.013344 10553.437 1536
499.71814 -80.46347 10354 1977617
572.79535 -82.114929 10566.509 1649163
609.29016 -78.713882 10128.863 266752
663.86774 -78.050629 10043.517 1254403
723.85205 -78.080063 10047.304 1451784
783.586 -78.080063 10047.304 661761
835.20569 -77.328781 9950.6289 398592
898.91595 -77.722267 10001.264 2816
986.32391 -79.98877 10292.915 266752
1039.0835 -79.344688 10210.036 265730
1098.3425 -79.240623 10196.645 660998
1160.4866 -79.344688 10210.036 529924
1234.9089 -80.236191 10324.753 132864
1293.5259 -80.064934 10302.717 1024
1341.9562 -79.307175 10205.208 1024
1381.3861 -78.106071 10050.65 768
1455.6567 -78.89283 10151.891 768
1517.9965 -78.996071 10165.176 1024
1584.4283 -79.296211 10203.798 1024
1653.5853 -79.705566 10256.473 660229
1727.9783 -80.329216 10336.724 529409
1789.4331 -80.329216 10336.724 859137
1852.9003 -80.416557 10347.963 728065
1914.4218 -80.416557 10347.963 859905
2028.8623 -82.570251 10625.099 728835
2092.0315 -82.570251 10625.099 2110736
2169.1733 -83.105576 10693.984 465664
2153.8115 -80.16732 10315.891 1781004
2202.7476 -79.718742 10258.168 1780495
2366.0959 -83.323433 10722.018 529410
2443.4736 -83.790901 10782.172 265472
2427.4927 -81.114891 10437.824 464129
2527.2913 -82.344635 10596.067 529665
2551.6042 -81.114891 10437.824 67328
2606.0667 -80.879234 10407.5 331520
2701.4612 -81.89537 10538.256 923910
2801.1511 -82.992706 10679.461 1024
2939.3384 -85.156715 10957.925 1319691
3002.2097 -85.092194 10949.622 1024
2958.9084 -82.085007 10562.658 1714954
3021.7065 -82.085007 10562.658 1122816
3125.7661 -83.183067 10703.956 1978890
3165.269 -82.553604 10622.957 2373648
3228.4255 -82.553604 10622.957 1846537
3355.4155 -84.154556 10828.967 199424
3394.3623 -83.528671 10748.428 1024
3422.2839 -82.659607 10636.598 1536
3477.5811 -82.471298 10612.366 1536
3540.6746 -82.471298 10612.366 133889
3678.5532 -84.182747 10832.594 768
3685.3655 -82.887482 10665.92 1024
3656.949 -80.857094 10404.651 1280
3718.2422 -80.84481 10403.07 1024
3780.6658 -80.857094 10404.651 1318925
3850.9143 -81.033646 10427.369 1792
3853.8164 -79.809898 10269.898 660992
3908.7244 -79.68454 10253.767 727040
4011.4622 -80.523125 10361.676 463616
3932.0176 -77.734657 10002.857 1714447
3998.6106 -77.873383 10020.709 332800
4069.3079 -78.086792 10048.17 727808
4106.1123 -77.653069 9992.3584 728065
4058.2637 -75.65361 9735.0693 1979150
0 0 0 0
0 0 0 0
0 0 0 0
0 0 0 0
0 0 0 0
1974.1321 -33.900627 4362.3159 1024
2003.9778 -33.966904 4370.8447 512
1985.7445 -33.227001 4275.6338 768
2010.178 -33.210701 4273.5366 987915
0 0 0 0
0 0 0 0
0 0 0 0
0 0 0 0
0 0 0 0
0 0 0 0
0 0 0 0
0 0 0 0
0 0 0 0
0 0 0 0
0 0 0 0
5439.2617 -78.028732 10040.699 462854
6069.4238 -86.12352 11082.332 1536
6202.2383 -87.062996 11203.223 1024
6201.1992 -86.12352 11082.332 1280
6284.3359 -86.360565 11112.835 1024
6350.4053 -86.360565 11112.835 1536
6478.502 -87.195419 11220.264 2304
6153.2183 -81.973297 10548.283 70656
6215.9307 -81.973297 10548.283 992010
6120.439 -79.907799 10282.496 2111514
6387.0645 -82.564171 10624.316 2901028
6770.7437 -86.666817 11152.243 465410
6932.3916 -87.875412 11307.765 2636833
6999.6191 -87.875412 11307.765 2048
6847.4912 -85.147743 10956.77 3072
6812.4033 -83.913155 10797.903 2816
7471.9351 -91.177856 11732.722 2111772
7386.0371 -89.296051 11490.571 663558
7176.416 -85.966637 11062.145 1650195
7001.4072 -83.108559 10694.368 3360048
6280.9717 -73.885834 9507.5928 725767
6665.3813 -77.708481 9999.4893 1316627
6886.2925 -79.574234 10239.573 1184272
7482.8857 -85.710434 11029.176 131842
7008.0464 -79.574234 10239.573 0
6856.064 -77.178085 9931.2383 0
0 0 0 0
0 0 0 0
0 0 0 0
7149.3555 -77.799629 10011.218 0
7397.8555 -79.839134 10273.661 0
7532.5073 -80.62664 10374.996 0
7594.1895 -80.62664 10374.996 0
7655.8711 -80.62664 10374.996 0
7637.271 -79.78791 10267.069 197635
7698.311 -79.78791 10267.069 592392
7941.7275 -81.663239 10508.386 1316370
7956.9434 -81.181076 10446.341 1909787
8102.9663 -82.030609 10555.658 2897704
8081.1558 -81.181076 10446.341 4739395
7608.8179 -75.853134 9760.7441 4541501
0 0 0 0
0 0 0 0
0 0 0 0
0 0 0 0
0 0 0 0
0 0 0 0
0 0 0 0
0 0 0 0
8787.9775 -81.981087 10549.286 1025
8850.6963 -81.981087 10549.286 1121558
0 0 0 0
0 0 0 0
0 0 0 0
0 0 0 0
0 0 0 0
0 0 0 0
0 0 0 0
0 0 0 0
0 0 0 0
0 0 0 0
0 0 0 0
0 0 0 0
0 0 0 0
0 0 0 0
0 0 0 0
0 0 0 0
0 0 0 0
0 0 0 0
0 0 0 0
0 0 0 0
0 0 0 0
0 0 0 0
0 0 0 0
0 0 0 0
0 0 0 0
0 0 0 0
0 0 0 0
-7668.8911 -15.610456 8549.1455 768
-7632.585 -15.640211 8565.4414 397316
-7503.3418 -15.478648 8476.96 2048
-7382.5859 -15.332524 8396.9346 2304
-7320.731 -15.307572 8383.2695 1536
-7236.4365 -15.235037 8343.5449 1280
-7221.0488 -15.307572 8383.2695 67584
-7153.4058 -15.26957 8362.458 1024
-7103.6885 -15.26957 8362.458 1024
-7029.5635 -15.216735 8333.5225 1024
-6913.481 -15.071681 8254.083 768
-6863.7949 -15.070335 8253.3457 768
-6821.4741 -15.085257 8261.5176 512
-6831.0488 -15.215992 8333.1152 512
-6781.5063 -15.215992 8333.1152 512
-6643.8599 -15.016854 8224.0566 512
-6594.9658 -15.016854 8224.0566 512
-6521.979 -14.961588 8193.7891 512
-6483.3647 -14.98493 8206.5732 768
-6375.5537 -14.847482 8131.2988 768
-6362.4653 -14.930211 8176.6055 1024
-6313.853 -14.930211 8176.6055 1024
-6265.2407 -14.930211 8176.6055 134145
-6137.0918 -14.73919 8071.9922 1280
-6210.5361 -15.033133 8232.9717 1280
-6310.2822 -15.395918 8431.6523 1280
-6327.7319 -15.562116 8522.6719 1024
-6382.4229 -15.823326 8665.7246 1280
-6359.6191 -15.895098 8705.0312 397058
-6258.5977 -15.770951 8637.041 463363
-6179.4639 -15.700358 8598.3809 1280
-5837.3242 -14.954787 8190.0654 1280
-6025.7319 -15.567328 8525.5264 1536
-6056.6509 -15.779943 8641.9658 1792
-5940.8735 -15.610726 8549.293 858887
-5699.042 -15.104498 8272.0547 1516815
-5649.8628 -15.104498 8272.0547 67840
-5586.0181 -15.064949 8250.3955 332288
-5655.3359 -15.387006 8426.7715 266496
-5617.4741 -15.420599 8445.1689 529408
-5635.2598 -15.608935 8548.3125 134144
-5667.3828 -15.840772 8675.2793 2816
-5615.8057 -15.840772 8675.2793 134144
-5240.1411 -14.918129 8169.9893 858882
-5191.5684 -14.918129 8169.9893 1121799
-5142.9951 -14.918129 8169.9893 1385226
-5148.6729 -15.076992 8256.9912 200704
-5296.6685 -15.659678 8576.1025 2175251
-5062.7153 -15.11348 8276.9736 1122563
-5013.5063 -15.11348 8276.9736 1451781
-5341.2383 -16.261051 8905.4473 1649419
-5288.293 -16.261051 8905.4473 1122057
-5058.687 -15.712341 8604.9434 858117
-5214.4756 -16.361691 8960.5625 398080
-5161.2026 -16.361691 8960.5625 1536
-5072.5312 -16.248302 8898.4648 198913
-5026.0903 -16.269222 8909.9219 1024
-5243.7559 -17.154594 9394.8008 1536
-5243.5298 -17.338539 9495.5391 1280
-5073.6929 -16.959539 9287.9775 2048
-4967.3965 -16.78693 9193.4473 2304
-4912.7393 -16.78693 9193.4473 200704
-4825.8726 -16.675632 9132.4951 2241816
-4771.5776 -16.675632 9132.4951 399617
-4767.0103 -16.851423 9228.7676 201216
-4769.2964 -17.055815 9340.7031 397825
-4741.54 -17.156319 9395.7451 1280
-4685.6797 -17.156319 9395.7451 1536
-4507.0723 -16.701464 9146.6416 1516563
-4452.6929 -16.701464 9146.6416 1911320
-4375.8018 -16.615984 9099.8271 68352
-4278.1606 -16.44858 9008.1484 1536
-4252.9336 -16.55888 9068.5547 1536
-4210.3965 -16.60375 9093.1279 331522
-4156.3354 -16.60375 9093.1279 1319693
-4077.6992 -16.504282 9038.6543 463876
-4023.9622 -16.504282 9038.6543 793350
-4123.6226 -17.14196 9387.8818 2304
-4100.4399 -17.279469 9463.1885 1792
-4201.0522 -17.949739 9830.2656 529924
-4142.6084 -17.949739 9830.2656 1188106
-4110.2676 -18.064459 9893.0928 661508
-4012.7192 -17.891766 9798.5166 69120
-3979.4917 -18.005001 9860.5303 594437
-3893.9756 -17.881508 9792.8984 135168
-3714.1912 -17.314808 9482.542 1536
-3657.8149 -17.314808 9482.542 133889
-3549.7502 -17.066303 9346.4473 3072
-3595.7302 -17.562281 9618.0723 200960
-3512.7856 -17.434418 9548.0469 1253387
-3427.4241 -17.290163 9469.0449 727554
-3323.0393 -17.04352 9333.9707 1846035
-3365.9854 -17.55698 9615.1689 67840
-3234.396 -17.162073 9398.8965 1536
-3178.5171 -17.162073 9398.8965 264961
-3122.6377 -17.162073 9398.8965 69120
-3142.8105 -17.587671 9631.9775 990981
-3161.8098 -18.022377 9870.0459 727043
-2980.6597 -17.311096 9480.5098 2176788
-2924.2954 -17.311096 9480.5098 1189890
-2846.5837 -17.18224 9409.9414 1650185
-2843.2793 -17.506353 9587.4424 466176
-2694.9485 -16.932516 9273.1787 1386758
-2630.9348 -16.875546 9241.9775 794625
-2616.9456 -17.143856 9388.9199 1714958
-2762.5242 -18.491989 10127.232 332288
-2702.3147 -18.491989 10127.232 727556
-2642.0864 -18.491856 10127.158 1057030
-2589.4868 -18.546354 10157.005 332800
-2529.1006 -18.546354 10157.005 266496
-2431.592 -18.267471 10004.273 134144
-2415.4333 -18.60107 10186.971 859140
-2364.6042 -18.677971 10229.085 793600
-2266.8337 -18.378351 10064.997 1122312
-2178.0786 -18.137558 9933.126 859141
-2085.5352 -17.85092 9776.1465 1792
-2027.4131 -17.85092 9776.1465 1536
-1969.2914 -17.85092 9776.1465 1056008
-1896.8613 -17.717278 9702.957 1792
-1837.142 -17.697697 9692.2334 201216
-1781.4878 -17.717278 9702.957 661506
-1738.2734 -17.866026 9784.4199 1536
-1681.1936 -17.877628 9790.7744 2048
-1622.9846 -17.877628 9790.7744 2816
-1518.1113 -17.344486 9498.7959 463366
-1461.6383 -17.344486 9498.7959 397064
-1440.6626 -17.78264 9738.7539 256
-1382.7629 -17.78264 9738.7539 1024
-1331.6238 -17.873383 9788.4482 1024
-1291.0402 -18.120567 9923.8213 1318671
-1209.6882 -17.791821 9743.7803 1536
-1151.7587 -17.791821 9743.7803 68352
-1075.7531 -17.497801 9582.7588 331777
-1050.4657 -18.041994 9880.7891 1792
-991.72156 -18.041994 9880.7891 1122059
-942.90192 -18.23391 9985.8936 594690
-883.53302 -18.23391 9985.8936 727555
-816.45001 -18.063244 9892.4277 725766
-788.20392 -18.792013 10291.541 134400
-727.01782 -18.792013 10291.541 1792
-628.89941 -17.749657 9720.6895 768
-564.58429 -17.54693 9609.665 1280
-507.45218 -17.54693 9609.665 528644
-458.7767 -17.876448 9790.127 1280
-398.70187 -17.793003 9744.4287 67840
-338.96631 -17.6989 9692.8926 1055751
-287.02258 -18.056431 9888.6953 858882
-228.23155 -18.056431 9888.6953 989960
-168.53566 -17.960005 9835.8877 134400
-109.29797 -17.835888 9767.9141 398080
-51.225006 -17.835888 9767.9141 2304
6.8791647 -17.917162 9812.4248 793857
65.796043 -18.076307 9899.582 4084014
123.6994 -17.938194 9823.9434 1792
184.45819 -18.169949 9950.8643 331777
248.51263 -18.534945 10150.756 133888
310.48236 -18.632198 10204.019 924424
374.6897 -18.809994 10301.389 398080
446.60049 -19.270226 10553.437 2372631
499.71814 -18.906061 10354 1452298
553.88452 -18.657099 10217.655 1189380
609.29016 -18.494968 10128.863 332800
663.86774 -18.339128 10043.517 529664
723.85205 -18.346043 10047.304 2304
804.3656 -18.832554 10313.743 660482
863.93542 -18.794521 10292.915 1714192
925.1297 -18.794521 10292.915 1451790
970.24323 -18.488102 10125.103 201472
1030.4397 -18.488102 10125.103 266241
1098.3425 -18.618734 10196.645 1188112
1166.9004 -18.746225 10266.466 1186575
1239.7932 -18.927221 10365.589 68864
1293.5259 -18.81242 10302.717 512
1340.2957 -18.611313 10192.58 1024
1392.5426 -18.50037 10131.821 1024
1457.5616 -18.561274 10165.176 1024
1517.9965 -18.561274 10165.176 1280
1585.5325 -18.644781 10210.908 2560
1695.597 -19.203793 10517.054 462848
1752.3611 -19.140846 10482.581 726784
1784.1362 -18.818645 10306.127 2816
1852.9003 -18.895037 10347.963 595968
1908.1129 -18.832771 10313.862 1583115
1985.8783 -18.99004 10399.992 1792
2047.709 -18.99004 10399.992 1781262
2224.6414 -20.026182 10967.44 1189129
2153.8115 -18.836473 10315.891 2304
2188.2529 -18.607821 10190.667 2048
2349.9858 -19.444746 10649.015 1516299
2423.5906 -19.527685 10694.436 133888
2415.0532 -18.961454 10384.337 1280
2476.791 -18.961454 10384.337 200192
2538.5288 -18.961454 10384.337 463617
2587.6667 -18.869576 10334.019 332288
2696.5085 -19.207228 10518.936 1055751
2759.0464 -19.207228 10518.936 2048
3000.3013 -20.423798 11185.196 1792
2917.874 -19.432001 10642.034 858627
2958.9084 -19.287064 10562.658 1254408
3021.7065 -19.287064 10562.658 1385732
3164.4751 -19.787113 10836.513 793856
3176.2532 -19.464478 10659.82 1714953
3291.0342 -19.773335 10828.967 990723
3355.4155 -19.773335 10828.967 1583116
3390.0862 -19.601549 10734.888 1280
3422.2839 -19.422075 10636.598 1280
3485.5212 -19.422075 10636.598 1024
3540.6746 -19.377829 10612.366 768
3621.9539 -19.475616 10665.92 1280
3600.387 -19.026541 10419.981 1280
3638.6897 -18.90369 10352.702 66560
3677.6606 -18.78834 10289.529 792070
3761.7893 -18.90369 10352.702 857607
3850.9143 -19.04003 10427.369 1280
3831.8892 -18.645796 10211.465 1280
3881.2192 -18.591286 10181.612 1280
3941.752 -18.591286 10181.612 1024
4004.8989 -18.603432 10188.264 2048
3998.6106 -18.297482 10020.709 727043
4046.7053 -18.245716 9992.3584 529664
4101.6494 -18.225882 9981.4971 1583370
4058.2637 -17.775913 9735.0693 925185
0 0 0 0
0 0 0 0
0 0 0 0
0 0 0 0
0 0 0 0
1974.1321 -7.9654441 4362.3159 768
2005.0908 -7.9854507 4373.2725 197890
2029.9636 -7.9810171 4370.8447 1119760
2055.9495 -7.9810171 4370.8447 2501412
1968.569 -7.546432 4132.8418 1975067
1964.0063 -7.4361267 4072.4326 922122
0 0 0 0
0 0 0 0
0 0 0 0
0 0 0 0
0 0 0 0
0 0 0 0
0 0 0 0
0 0 0 0
0 0 0 0
0 0 0 0
6134.7061 -20.453627 11201.532 199170
6212.6533 -20.491066 11222.036 1280
6075.9414 -19.827225 10858.48 1280
6140.498 -19.827225 10858.48 1280
6205.0547 -19.827225 10858.48 2048
6303.5171 -19.934452 10917.203 1188624
5922.1553 -18.537542 10152.179 334339
5982.5127 -18.537542 10152.179 334850
6094.8071 -18.696865 10239.434 2045720
6181.5713 -18.775497 10282.496 1453328
6481.8716 -19.494818 10676.436 5120
6717.209 -20.006697 10956.77 2966054
6728.1021 -19.846676 10869.133 663047
6671.6997 -19.493078 10675.483 3072
6650.4092 -19.247766 10541.137 135936
6500.0078 -18.636847 10206.563 3030824
0 0 0 0
0 0 0 0
0 0 0 0
0 0 0 0
7063.8511 -19.350279 10597.278 65536
6886.2925 -18.697121 10239.573 0
6947.1694 -18.697121 10239.573 0
6930.0571 -18.489048 10125.621 0
6856.064 -18.134111 9931.2383 0
0 0 0 0
0 0 0 0
7288.7817 -18.793106 10292.14 0
7349.9717 -18.793106 10292.14 1118479
7397.8555 -18.759365 10273.661 0
7516.3916 -18.90387 10352.8 0
7577.9419 -18.90387 10352.8 0
7639.4922 -18.90387 10352.8 0
7705.3311 -18.914396 10358.565 256
7735.0889 -18.836889 10316.118 256
7788.2476 -18.817142 10305.304 256
7907.1914 -18.955404 10381.023 256
7893.9727 -18.777155 10283.404 2
7682.0273 -18.132574 9930.3955 2
0 0 0 0
0 0 0 0
0 0 0 0
0 0 0 0
0 0 0 0
0 0 0 0
0 0 0 0
0 0 0 0
0 0 0 0
0 0 0 0
0 0 0 0
0 0 0 0
0 0 0 0
0 0 0 0
0 0 0 0
0 0 0 0
0 0 0 0
0 0 0 0
0 0 0 0
0 0 0 0
0 0 0 0
0 0 0 0
0 0 0 0
0 0 0 0
0 0 0 0
0 0 0 0
0 0 0 0
0 0 0 0
0 0 0 0
0 0 0 0
0 0 0 0
0 0 0 0
0 0 0 0
0 0 0 0
0 0 0 0
0 0 0 0
0 0 0 0
0 0 0 0
-7668.8911 35.216591 8549.1455 1280
-7618.064 35.216591 8549.1455 1024
-7479.0918 34.806381 8449.5625 1024
-7385.3911 34.60273 8400.125 1024
-7332.6641 34.589588 8396.9346 1280
-7142.7783 33.924831 8235.5586 1280
-7215.1089 34.50489 8376.373 1280
-7165.3091 34.50489 8376.373 1280
-7115.5483 34.505085 8376.4199 1280
-7065.1533 34.502174 8375.7139 1024
-6938.4238 34.12381 8283.8623 768
-6880.4185 34.080444 8273.335 768
-6831.2319 34.080444 8273.335 512
-6763.0273 33.984882 8250.1367 512
-6758.4458 34.209969 8304.7783 512
-6643.8599 33.877449 8224.0566 512
-6594.9658 33.877449 8224.0566 512
-6521.979 33.752769 8193.7891 512
-6702.3774 34.947403 8483.7969 768
-6437.3647 33.820091 8210.1318 768
-6362.4653 33.681984 8176.6055 768
-6339.7417 33.820091 8210.1318 1024
-6265.2407 33.681984 8176.6055 768
-6100.042 33.050312 8023.2617 1024
-6198.4253 33.848042 8216.917 1280
-6362.9424 35.022449 8502.0156 1280
-6337.4551 35.161484 8535.7676 768
-6387.6846 35.726246 8672.8682 768
-6359.6191 35.858734 8705.0312 1024
-6290.0928 35.757702 8680.5049 67584
-5956.6914 34.142525 8288.4053 132353
-5516.1489 31.881163 7739.4395 768
-5542.4971 32.302902 7841.8203 528643
-5966.938 35.071651 8513.959 134144
-5916.3203 35.071651 8513.959 199168
-5762.2944 34.453362 8363.8643 1024
-5676.0562 34.233147 8310.4053 200192
-5626.6484 34.233147 8310.4053 1280
-5655.3359 34.712498 8426.7715 398080
-5640.6577 34.931854 8480.0225 1280
-5662.9854 35.38641 8590.3701 133888
-5668.6064 35.743893 8677.1523 1280
-5688.2153 36.196957 8787.1377 1536
-5240.1411 33.654732 8169.9893 2304
-5137.9277 33.307003 8085.5747 2816
-5347.3091 34.991718 8494.5547 1385482
-5148.6729 34.013119 8256.9912 1188616
-5246.3037 34.991718 8494.5547 135680
-5100.3735 34.349049 8338.541 727555
-5175.4819 35.196983 8544.3848 134656
-5161.0044 35.446442 8604.9434 794628
-5109.8457 35.446442 8604.9434 3031330
-4959.7056 34.752872 8436.5732 1846803
-5116.7285 36.219433 8792.5938 264961
-5193.2207 37.140331 9016.1504 1536
-5085.8125 36.751526 8921.7637 1280
-5032.77 36.751526 8921.7637 3072
-4979.728 36.751526 8921.7637 1024
-5231.749 39.027203 9474.2051 1280
-5110.9834 38.541279 9356.2422 1536
-4967.3965 37.870674 9193.4473 1536
-4912.7393 37.870674 9193.4473 990730
-4658.5864 36.315529 8815.9219 727557
-4742.9336 37.393764 9077.6729 2816
-4736.7266 37.774658 9170.1387 134400
-4671.7563 37.690342 9149.6699 1280
-4657.2754 38.016167 9228.7676 332289
-4685.6797 38.703999 9395.7451 330242
-4518.8252 37.776119 9170.4932 264449
-4452.6929 37.677864 9146.6416 924169
-4398.313 37.677864 9146.6416 1536
-4278.1606 37.107372 9008.1484 1780242
-4334.5244 38.072865 9242.5312 859907
-4235.9629 37.684872 9148.3428 465408
-4014.2856 36.177254 8782.3545 1320970
-3969.2566 36.242851 8798.2793 860421
-4001.3462 37.023773 8987.8545 1386765
-4139.7471 38.822823 9424.5908 662788
-4100.4399 38.981819 9463.1885 135680
-4250.2495 40.96814 9945.3848 67584
-4191.1216 40.96814 9945.3848 333056
-4126.105 40.909756 9931.2119 1536
-4003.7715 40.273136 9776.667 200448
-3874.2231 39.544121 9599.6924 134656
-3822.0681 39.59507 9612.0596 1792
-3714.1912 39.061543 9482.542 332035
-3657.8149 39.061543 9482.542 265984
-3601.4385 39.061543 9482.542 1536
-3582.0637 39.46925 9581.5156 1581075
-3525.0989 39.46925 9581.5156 134912
-3456.0195 39.331379 9548.0469 1056774
-3399.2542 39.331379 9548.0469 727811
-3365.9854 39.607876 9615.1689 596225
-3189.5061 38.179634 9268.4502 662020
-3139.9014 38.246613 9284.71 464640
-3084.7012 38.246613 9284.71 201216
-3110.1167 39.264362 9531.7783 465409
-3085.5459 39.677116 9631.9775 2044947
-2879.4014 37.726467 9158.4395 1584650
-2902.5286 38.762482 9409.9414 1123843
-2736.5989 37.264793 9046.3643 200960
-2790.6389 38.762482 9409.9414 1189636
-2760.2878 39.125248 9498.0068 1386504
-2803.8909 40.573318 9849.5391 464897
-2832.5745 41.862667 10162.54 793862
-2772.1553 41.862667 10162.54 332800
-2704.6416 41.753143 10135.952 662018
-2628.6045 41.504051 10075.482 1057286
-2550.5486 41.21072 10004.273 531205
-2491.0703 41.21072 10004.273 464387
-2431.592 41.21072 10004.273 596224
-2398.4336 41.667973 10115.275 1792
-2310.8799 41.179432 9996.6777 1188361
-2243.4097 41.032429 9960.9922 1319690
-2163.1594 40.637363 9865.0869 397826
-2062.2891 39.822121 9667.1787 1024
-2004.8151 39.822121 9667.1787 1024
-1947.3409 39.822121 9667.1787 1280
-1871.2979 39.430843 9572.1934 1280
-1835.6176 39.8922 9684.1914 1280
-1781.4878 39.969501 9702.957 2048
-1732.5961 40.173431 9752.4629 266497
-1676.4852 40.2183 9763.3555 2304
-1607.324 39.942085 9696.3008 1280
-1549.5359 39.93845 9695.4189 1280
-1464.1533 39.195824 9515.1396 68610
-1480.0227 41.21299 10004.825 265476
-1399.6364 40.606495 9857.5928 1280
-1332.2828 40.341625 9793.293 595462
-1293.837 40.967873 9945.3203 265984
-1189.7437 39.475906 9583.1318 2816
-1132.7252 39.474369 9582.7588 1280
-1034.1611 37.94817 9212.2598 1536
-1050.4657 40.702049 9880.7891 67584
-1011.7879 41.525604 10080.715 134656
-951.85522 41.525604 10080.715 463363
-883.53302 41.135006 9985.8936 924678
-816.45001 40.749992 9892.4277 661507
-791.71216 42.582756 10337.348 463108
-714.72833 41.677433 10117.572 1280
-632.12347 40.247829 9770.5234 133376
-577.39868 40.483669 9827.7754 265473
-524.70251 40.930862 9936.3359 1024
-459.13443 40.360027 9797.7607 67072
-400.88403 40.360027 9797.7607 133632
-342.63361 40.360027 9797.7607 1024
-290.20496 41.18626 9998.3359 265472
-229.6049 40.979733 9948.1992 4346156
-168.53566 40.517086 9835.8877 1055237
-110.05856 40.517086 9835.8877 2304
-51.225006 40.23708 9767.9141 134656
6.9701524 40.955055 9942.209 662273
65.73217 40.739876 9889.9727 2899229
123.6994 40.467884 9823.9434 594180
188.16356 41.814125 10150.756 68096
249.01396 41.898479 10171.233 134145
310.48236 42.033531 10204.019 266242
371.14807 42.033531 10204.019 1024
431.30222 41.983734 10191.93 727552
493.1377 42.089706 10217.655 1978383
553.88452 42.089706 10217.655 1452806
614.63129 42.089706 10217.655 1189637
675.48468 42.096348 10219.268 529668
723.5874 41.372841 10043.63 2636058
783.586 41.387974 10047.304 69120
864.02637 42.404182 10293.998 463617
925.22705 42.404182 10293.998 397313
970.24323 41.708454 10125.103 1536
1014.9517 41.081551 9972.917 1024
1074.8983 41.10659 9978.9961 726280
1158.9645 42.003155 10196.645 792842
1227.9374 42.290771 10266.466 200193
1279.698 41.986412 10192.58 595205
1332.306 41.736126 10131.821 2304
1392.5426 41.736126 10131.821 1024
1464.119 42.061913 10210.908 265731
1539.2108 42.458717 10307.236 1024
1600.4901 42.458717 10307.236 1024
1695.597 43.323021 10517.054 463620
1758.1239 43.323021 10517.054 1024
1792.941 42.663658 10356.987 768
1863.3417 42.866692 10406.275 1536
1908.1129 42.486012 10313.862 398336
1969.4318 42.486012 10313.862 332800
1999.1409 41.824696 10153.322 1714959
2224.6414 45.178303 10967.44 1252619
2088.0957 41.1978 10001.138 1536
2151.7104 41.277515 10020.489 1024
2248.8394 41.978531 10190.667 397313
2375.0139 43.170734 10480.085 661506
2437.321 43.170734 10480.085 660995
2499.6282 43.170734 10480.085 1280
2534.9373 42.715797 10369.645 1024
2595.9138 42.704712 10366.954 133632
2713.8491 43.609425 10586.581 265728
2759.0464 43.330772 10518.936 594180
2821.5845 43.330772 10518.936 332034
2761.6123 41.490192 10072.118 397824
2837.5991 41.72702 10129.61 1648910
2923.6177 42.098454 10219.779 3584
3228.24 45.538456 11054.871 596480
3304.3586 45.682156 11089.755 1846797
3376.7734 45.770035 11111.088 1386500
3266.3208 43.423435 10541.431 1978129
3359.0461 43.81546 10636.598 67328
3422.2839 43.81546 10636.598 1280
3485.5212 43.81546 10636.598 1024
3516.5999 43.4184 10540.208 1024
3550.6736 43.071583 10456.015 1024
3600.387 42.923149 10419.981 2175001
3656.3931 42.853489 10403.07 1517837
3724.6106 42.926888 10420.889 1319690
3807.6965 43.166439 10479.042 199936
3771.179 42.064205 10211.465 595712
3743.6462 41.095528 9976.3096 265984
3810.2158 41.173958 9995.3496 990212
3897.8315 41.473915 10068.166 660484
4004.8989 41.968632 10188.264 924678
4011.8276 41.41486 10053.831 200448
4044.5491 41.139706 9987.0342 529664
4033.707 40.43581 9816.1572 200704
4038.7832 39.909286 9688.3389 727299
0 0 0 0
0 0 0 0
0 0 0 0
0 0 0 0
0 0 0 0
1978.2301 18.007038 4371.3711 768
2006.2598 18.025375 4375.8223 198146
2031.0911 18.014872 4373.2725 1712153
2012.3268 17.622847 4278.105 2501412
1987.1875 17.185478 4171.9297 2501667
1993.1399 17.024464 4132.8418 1514770
0 0 0 0
0 0 0 0
0 0 0 0
0 0 0 0
0 0 0 0
0 0 0 0
0 0 0 0
0 0 0 0
0 0 0 0
0 0 0 0
5668.957 42.639439 10351.108 200194
6201.3022 46.142601 11201.532 1024
6059.9502 44.61174 10829.902 1280
6160.0474 44.871868 10893.051 1024
6224.8096 44.871868 10893.051 1536
5817.2144 41.501915 10074.964 1280
5729.2817 40.457989 9821.542 399876
5769.0908 40.328087 9790.0068 334337
5814.0103 40.236153 9767.6885 2110488
5872.082 40.236153 9767.6885 1188617
6322.3457 42.897179 10413.677 464642
6544.7622 43.975643 10675.483 662533
6446.1704 42.897179 10413.677 1024
6439.5332 42.445347 10303.99 1280
0 0 0 0
0 0 0 0
0 0 0 0
0 0 0 0
0 0 0 0
0 0 0 0
7155.5884 44.220409 10734.903 65536
6886.2925 42.179989 10239.573 0
6927.6665 42.061577 10210.827 0
6797.0195 40.909863 9931.2383 0
0 0 0 0
0 0 0 0
0 0 0 0
7896.4443 45.931107 11150.19 1512982
7962.7349 45.931107 11150.19 0
7640.6274 43.709217 10610.807 0
7516.3916 42.646408 10352.8 0
7577.9419 42.646408 10352.8 131329
7639.4922 42.646408 10352.8 65536
7705.3311 42.670158 10358.565 197379
7735.0889 42.495304 10316.118 256
7771.6978 42.360546 10283.404 256
7832.835 42.360546 10283.404 0
7622.9883 40.906391 9930.3955 1
0 0 0 0
0 0 0 0
0 0 0 0
0 0 0 0
0 0 0 0
0 0 0 0
0 0 0 0
0 0 0 0
0 0 0 0
0 0 0 0
0 0 0 0
0 0 0 0
0 0 0 0
0 0 0 0
0 0 0 0
0 0 0 0
0 0 0 0
0 0 0 0
0 0 0 0
0 0 0 0
0 0 0 0
0 0 0 0
0 0 0 0
0 0 0 0
0 0 0 0
0 0 0 0
0 0 0 0
0 0 0 0
0 0 0 0
0 0 0 0
0 0 0 0
0 0 0 0
0 0 0 0
0 0 0 0
0 0 0 0
0 0 0 0
0 0 0 0
0 0 0 0
0 0 0 0
-7575.7759 84.998909 8445.3428 768
-7525.5659 84.998909 8445.3428 2816
-7380.1333 83.916168 8337.7637 2048
-7361.96 84.275589 8373.4746 1280
-7270.3696 83.793732 8325.5986 1536
-7142.7783 82.88752 8235.5586 199682
-7131.6758 83.329895 8279.5117 1280
-7128.5454 83.872215 8333.3965 1280
-7143.7798 84.639709 8409.6533 1536
-7093.7822 84.639709 8409.6533 1024
-6940.957 83.404114 8286.8867 768
-6880.5786 83.269653 8273.5264 768
-6831.3892 83.269653 8273.5264 512
-6772.3574 83.148788 8261.5176 512
-6789.9189 83.973419 8343.4521 512
-6709.0713 83.584183 8304.7783 512
-6659.6973 83.584183 8304.7783 512
-6588.085 83.303001 8276.8398 256
-6617.9717 84.310638 8376.957 256
-6375.5537 81.838188 8131.2988 0
-6199.4355 80.185501 7967.0908 989454
-6313.853 82.294182 8176.6055 768
-6265.2407 82.294182 8176.6055 1024
-6247.2769 82.699898 8216.917 133889
-6294.1523 83.977097 8343.8174 199937
-6490.8091 87.288864 8672.8682 67328
-6439.2471 87.288864 8672.8682 1024
-6387.6846 87.288864 8672.8682 1024
-6341.7007 87.365723 8680.5049 265730
-6290.0928 87.365723 8680.5049 2766368
-5956.6914 83.419403 8288.4053 1846033
-5672.8726 80.107399 7959.3311 134656
-5496.5322 78.270172 7776.7871 2304
-5991.7017 86.045128 8549.293 134144
-5940.8735 86.045128 8549.293 265984
-5770.8521 84.303871 8376.2852 67840
-5681.625 83.722878 8318.5586 1280
-5586.0181 83.03685 8250.3955 1280
-5657.731 84.847916 8430.3398 1536
-5714.0576 86.458557 8590.3701 768
-5667.5264 86.527885 8597.2588 1024
-5668.6064 87.331978 8677.1523 1024
-5517.0747 85.778084 8522.7598 1280
-5237.0449 82.179001 8165.1616 66816
-5226.4404 82.779915 8224.8672 793089
-5480.0894 87.617142 8705.4854 464128
