# .PCD v0.7 - Point Cloud Data file format
VERSION 0.7
FIELDS x y z rgb
SIZE 4 4 4 4
TYPE F F F U
COUNT 1 1 1 1
WIDTH 1459
HEIGHT 1
VIEWPOINT 0 0 0 1 0 0 0
POINTS 1459
DATA ascii
3776.3879 276.39859 9906.6084 1319444
4039.781 291.13602 10434.823 1452053
4101.8188 291.13602 10434.823 1124115
4271.9751 298.69565 10705.773 795406
4335.624 298.69565 10705.773 663819
4274.7163 290.23868 10402.661 466184
4268.8726 285.70825 10240.283 662539
4421.9785 291.79388 10458.403 726538
4702.7656 306.01926 10968.266 396037
4953.6514 317.9364 11395.396 0
5188.7993 328.53549 11775.286 262144
5501.7334 343.71194 12319.236 2299414
5357.6665 330.3143 11839.042 2889753
5793.6548 352.56238 12636.451 589824
6353.6426 381.68997 13680.436 524288
5910.4097 350.57532 12565.232 458752
5939.5996 347.90936 12469.68 983554
5756.8833 333.04984 11937.089 2035214
6518.2583 372.5051 13351.234 3022109
6851.3794 386.83163 13864.722 262144
6677.0122 372.5051 13351.234 327680
5632.8442 310.55991 11131.01 0
5393.8872 293.93207 10535.039 0
5841.396 314.66455 11278.127 256
5964.1733 317.63226 11384.496 256
6183.1182 325.59756 11669.985 512
6377.98 332.1319 11904.188 256
6316.8477 325.33835 11660.694 512
6264.2588 319.1275 11438.087 256
6266.9399 315.83548 11320.096 256
6334.2417 315.83548 11320.096 256
6356.4902 313.6127 11240.428 256
6351.6626 310.11423 11115.036 256
6479.6401 313.1051 11222.234 256
6519.1201 311.80228 11175.539 256
6541.6909 309.72516 11101.091 256
6607.6899 309.72516 11101.091 256
6874.5938 319.0491 11435.277 256
6665.7529 306.32742 10979.311 66561
6712.2305 305.47195 10948.648 527623
6746.4609 304.08093 10898.792 256
7133.9912 318.48901 11415.203 256
6876.0542 304.08093 10898.792 66049
7025.7656 307.80109 11032.129 256
6647.0938 288.51791 10340.986 0
6901.1675 296.80087 10637.861 0
6967.9106 296.94992 10643.204 0
7405.2812 312.74911 11209.475 256
7224.4453 302.39047 10838.203 256
7286.5552 302.29398 10834.744 0
7317.0942 300.90085 10784.812 0
7267.3379 296.25867 10618.429 0
7481.9746 302.38174 10837.891 0
7939.4658 318.13141 11402.386 0
7980.4756 317.06741 11364.25 256
8048.0391 317.06741 11364.25 0
7991.8467 312.23242 11190.955 263427
9462.7783 366.64764 13141.292 855308
9360.4736 359.71375 12892.77 4737352
8682.6738 330.95642 11862.058 7433322
10017.045 378.74225 13574.784 8682618
10850.987 406.99435 14587.389 4141617
11092.904 412.76901 14794.362 2693657
10934.923 403.68961 14468.941 3153952
11823.023 433.06921 15521.957 2957086
12277.029 446.21628 15993.171 2628891
12007.588 433.06921 15521.957 3484200
11169.457 399.76855 14328.403 3023649
0 0 0 0
0 0 0 0
0 0 0 0
0 0 0 0
0 0 0 0
0 0 0 0
8550.8809 290.53564 10413.306 3024934
8527.4082 287.65543 10310.073 3156776
8571.6982 287.08585 10289.659 2959397
8402.8447 279.43628 10015.484 3025958
8366.4814 276.26932 9901.9756 3289130
0 0 0 0
6677.1167 217.42508 7792.8945 3422253
6723.4478 217.42508 7792.8945 3225385
7209.5308 231.5486 8299.1064 3159593
6307.6245 201.20506 7211.5405 2831396
7437.5015 235.64491 8445.9258 3028518
6973.1807 219.45207 7865.5459 2962725
6713.3003 209.86604 7521.9658 2961955
0 0 0 0
0 0 0 0
0 0 0 0
0 0 0 0
0 0 0 0
0 0 0 0
5822.8052 173.91824 6233.5342 2242591
6766.7114 200.83305 7198.208 2375458
10015.551 295.38904 10587.26 2441507
9854.668 288.82895 10352.134 2179362
5500.8306 160.22234 5742.6484 2574375
9977.7607 288.82895 10352.134 2179873
10404.95 299.34842 10729.171 2180386
0 0 0 0
0 0 0 0
0 0 0 0
0 0 0 0
0 0 0 0
-6429.5898 242.59227 7167.5942 1024
-6447.4932 244.89082 7235.5068 1024
-6388.5396 244.28145 7217.5029 1024
-6319.7798 243.28636 7188.1016 1024
-6313.6372 244.70464 7230.0059 1024
-6270.6528 244.70464 7230.0059 768
-6328.1392 248.65244 7346.647 1024
-6284.4614 248.65244 7346.647 1536
-6182.4937 246.32997 7278.0278 1024
-6070.9644 243.59116 7197.1069 1280
-6095.9536 246.32997 7278.0278 1280
-6006.7964 244.46246 7222.8506 200448
-6030.4766 247.19334 7303.5366 2048
-5999.1338 247.69205 7318.2715 1280
-5969.6968 248.27731 7335.5635 1536
-5969.4517 250.09419 7389.2451 768
-5970.9062 252.00977 7445.8418 1911821
-6151.8374 261.58554 7728.7666 3072
-6105.8872 261.58554 7728.7666 793857
-6143.4629 265.19101 7835.2935 595712
-5973.9629 259.8446 7677.3286 199680
-5928.3188 259.8446 7677.3286 397313
-5910.6035 261.07822 7713.7773 67328
-5765.7349 256.67072 7583.5537 1536
-5605.1641 251.48923 7430.4624 1280
-5729.3643 259.10388 7655.4434 68608
-5683.8506 259.10388 7655.4434 1024
-5679.6416 261.00198 7711.5249 331776
-5681.7773 263.22491 7777.2036 726785
-5720.0259 267.17111 7893.7969 1187848
-5516.8413 259.81244 7676.3784 858629
-5559.124 263.98755 7799.7358 595202
-5488.3042 262.8168 7765.1455 1024
-5442.1382 262.8168 7765.1455 1280
-5363.3667 261.2287 7718.2236 768
-5317.4795 261.2287 7718.2236 2560
-5367.4458 265.97861 7858.5635 264960
-5320.7241 265.97861 7858.5635 67328
-5219.3984 263.22479 7777.1997 463618
-5173.166 263.22507 7777.2075 67840
-5152.6792 264.54715 7816.2695 768
-5513.6426 285.65579 8439.9434 2304
-5289.4995 276.56009 8171.2026 1792
-5028.9673 265.37549 7840.7441 1280
-5046.2119 268.77689 7941.2412 1280
-5041.2988 271.05121 8008.4375 1536
-5095.6206 276.58405 8171.9106 1024
-4964.9644 272.0864 8039.0239 1280
-5067.7227 280.41705 8285.1602 1280
-4975.0635 277.99191 8213.5068 1280
-4951.2666 279.40466 8255.2471 2048
-4902.1865 279.40466 8255.2471 1536
-4809.8496 276.91425 8181.666 1280
-4615.374 268.43246 7931.0649 1792
-4529.4126 266.15204 7863.6875 1024
-4482.6606 266.15204 7863.6875 1280
-4342.2251 260.53104 7697.6104 1280
-4305.1836 261.06 7713.2393 1280
-4275.0605 262.02438 7741.7319 858116
-4290.2827 265.81927 7853.8555 1536
-4266.9692 267.28378 7897.126 397057
-4369.3628 276.7428 8176.6011 1536
-4325.6108 277.05411 8185.7983 2560
-4223.1211 273.56754 8082.7847 1280
-4218.5396 276.41605 8166.9468 1536
-4161.4463 275.85007 8150.2241 1536
-4112.9912 275.85007 8150.2241 1536
-3992.2837 270.9465 8005.3447 1536
-3948.502 271.20834 8013.0806 1792
-3900.8618 271.20834 8013.0806 1536
-3853.2219 271.20834 8013.0806 1517066
-4017.1621 286.2868 8458.5869 199680
-3966.8735 286.2868 8458.5869 2560
-3736.7341 273.14044 8070.166 463360
-3617.7161 267.88025 7914.7495 265472
-3570.6606 267.88025 7914.7495 1057026
-3546.7441 269.6394 7966.7241 69632
-3551.8567 273.68292 8086.1938 464640
-3505.3362 273.80429 8089.7798 1583112
-3422.2905 271.03638 8007.9995 198912
-3332.783 267.67139 7908.5781 67584
-3285.7644 267.67139 7908.5781 768
-3238.7458 267.67139 7908.5781 528640
-3318.2913 278.28558 8222.1836 4148529
-3154.9675 268.54462 7934.3789 1280
-3141.5825 271.46414 8020.6387 792834
-3045.3801 267.20715 7894.8623 134912
-3096.7231 275.96542 8153.6323 1536
-3124.9644 282.9108 8358.8389 1792
-3210.9397 295.39191 8727.6045 594433
-3167.1125 296.14566 8749.875 727552
-3204.5857 304.65366 9001.25 201216
-3038.0305 293.72461 8678.3428 200448
-2951.7554 290.31372 8577.5654 134400
-2861.2368 286.35825 8460.6973 267264
-2830.4497 288.34619 8519.4326 200192
-2779.7993 288.34619 8519.4326 2560
-2780.2715 293.74753 8679.0195 199680
-2708.98 291.62759 8616.3848 135424
-2717.2546 298.15652 8809.2871 267264
-2688.135 300.75827 8886.1582 1385733
-2669.2361 304.6308 9000.5752 859392
-2562.8066 298.4678 8818.4844 990722
-2449.5432 291.23489 8604.7822 398336
-2515.5566 305.46298 9025.1631 1792
-2461.8997 305.46298 9025.1631 463617
-2412.2488 305.97116 9040.1768 529920
-2249.4075 291.81812 8622.0137 1057028
-2307.9358 306.39325 9052.6484 69632
-2254.1152 306.39325 9052.6484 1792
-2141.6055 298.22073 8811.1846 133888
-2103.8311 300.30627 8872.8037 1280
-2034.2017 297.83508 8799.79 1280
-1981.8844 297.83508 8799.79 1280
-1948.7623 300.79788 8887.3291 1280
-1914.4583 303.73834 8974.207 1536
-1861.104 303.73834 8974.207 1280
-1790.2493 300.79788 8887.3291 2048
-1703.3445 294.89984 8713.0664 924928
-1666.8485 297.63281 8793.8145 727553
-1583.7261 291.94757 8625.8389 530944
-1562.2852 297.63281 8793.8145 728064
-1481.1602 291.94757 8625.8389 2505490
-1519.0491 310.15442 9163.7754 861696
-1464.5679 310.15442 9163.7754 3231251
-1486.66 326.99707 9661.4053 3428374
-1356.667 310.39728 9170.9512 3362073
-1302.1432 310.39728 9170.9512 727552
-1245.5403 309.88007 9155.6689 1451268
-1194.6373 310.79846 9182.8037 67072
-1140.0431 310.79846 9182.8037 68096
-1119.9879 320.68814 9475.0029 1024
-1063.6565 320.68814 9475.0029 1280
-1005.1856 320.00708 9454.8799 1536
-948.97369 320.00708 9454.8799 3072
-900.35181 322.72766 9535.2627 135424
-861.98749 329.73776 9742.3818 661761
-814.96832 334.20853 9874.4746 990978
-759.81287 335.7778 9920.8398 793600
-695.3233 333.13913 9842.8779 267520
-641.84851 335.7778 9920.8398 135936
-582.14154 335.36023 9908.5029 1254656
-523.23273 335.36023 9908.5029 135424
-445.32233 321.63623 9503.0156 925696
-391.41354 323.77808 9566.2979 2240785
-332.3262 321.63623 9503.0156 463105
-277.66492 323.77808 9566.2979 1024
-223.99124 328.47165 9704.9736 264449
-164.59856 325.12573 9606.1152 768
-112.07137 338.99081 10015.771 1280
-50.700916 327.21945 9667.9766 1024
7.0891385 342.24539 10111.931 791554
64.464256 328.2764 9699.2041 265728
121.33153 326.13358 9635.8926 660480
178.6196 326.13358 9635.8926 1280
242.67332 335.48682 9912.2432 1536
295.77652 329.00427 9720.71 859136
359.47739 334.50232 9883.1543 333312
427.49792 341.91037 10102.031 68352
493.711 346.22577 10229.534 2304
550.06635 343.43982 10147.221 1280
610.39441 343.43982 10147.221 1024
670.72241 343.43982 10147.221 768
759.44904 356.78116 10541.402 768
814.86346 353.63174 10448.35 512
853.79529 344.28204 10172.105 768
905.76447 341.0787 10077.459 66816
962.591 339.98846 10045.247 857858
1017.5418 338.40176 9998.3672 200192
1076.9849 338.40176 9998.3672 727040
1127.2843 335.67902 9917.9209 529664
1186.2491 335.67902 9917.9209 2304
1249.0984 336.72614 9948.8594 2816
1297.9731 334.08176 9870.7295 266496
1364.7731 336.08029 9929.7773 2048
1465.5245 345.92712 10220.71 68864
1530.0175 346.77203 10245.674 1536
1575.3784 343.38208 10145.515 2048
1661.8936 348.88168 10308.005 333056
1723.1774 348.88168 10308.005 925190
1784.4613 348.88168 10308.005 1582860
1850.6466 349.80811 10335.377 1280
1918.8192 351.03857 10371.732 1280
1962.4471 347.84192 10277.284 1280
2007.9564 345.16168 10198.095 1536
2084.6499 347.84192 10277.284 397824
2114.595 342.79126 10128.059 1536
2241.5818 353.31592 10439.019 1792
2232.3032 342.37411 10115.733 1536
2286.3418 341.46271 10088.806 267008
2350.6611 342.09412 10107.461 1122562
2350.3179 333.51819 9854.0781 1649158
2408.9031 333.51819 9854.0781 3163421
2505.6562 338.67719 10006.505 597760
2523.2686 333.14786 9843.1357 1650693
2403.135 310.09479 9162.0137 1124353
0 0 0 0
0 0 0 0
0 0 0 0
0 0 0 0
0 0 0 0
0 0 0 0
0 0 0 0
1312.9047 143.40936 4237.1509 264451
1345.459 144.19852 4260.4673 330244
1327.3662 139.63072 4125.5083 1053967
1311.9785 135.50809 4003.7017 4475980
1335.7816 135.50809 4003.7017 9805216
1298.2572 129.39565 3823.1042 10397101
1320.9865 129.39565 3823.1042 8686226
1350.803 130.07811 3843.2681 9344926
1373.6523 130.07811 3843.2681 10462632
1348.6035 125.61662 3711.4492 9014927
1403.6403 128.63829 3800.7273 7830138
1423.8242 128.4207 3794.2986 2962222
2854.6174 253.45442 7488.5254 2634275
3855.1848 337.0358 9958.0088 1384977
3914.3879 337.0358 9958.0088 924941
4150.2344 352.01852 10400.686 529416
4212.0693 352.01852 10400.686 768
4177.1792 344.05179 10165.302 512
4216.0542 342.30127 10113.581 512
4296.541 343.93097 10161.732 512
4541.5259 358.50064 10592.205 0
4831.3433 376.16241 11114.038 0
4897.4194 376.16241 11114.038 196608
5287.2798 400.70071 11839.042 459265
5357.6665 400.70071 11839.042 2956829
5580.1167 411.92609 12170.706 2166800
5784.7871 421.56839 12455.596 786432
5724.833 411.92609 12170.706 655360
5685.9141 404.01913 11937.089 655360
5612.2461 393.8685 11637.179 786432
6768.9497 469.26123 13864.722 1179905
6851.3794 469.26123 13864.722 786432
5775.4253 390.86502 11548.438 458752
5632.8442 376.73685 11131.01 327680
5393.8872 356.56583 10535.039 0
5867.8472 383.44461 11329.196 0
5935.2021 383.44461 11329.196 0
6326.8257 404.15891 11941.218 66305
6397.8193 404.15891 11941.218 256
6316.8477 394.6644 11660.694 66048
6265.5981 387.21286 11440.532 256
6266.9399 383.1366 11320.096 256
6334.2417 383.1366 11320.096 256
6356.4902 380.44019 11240.428 256
6423.3174 380.44019 11240.428 256
6532.4937 382.92258 11313.772 256
6546.3594 379.82443 11222.234 256
6556.6196 376.58163 11126.424 256
6622.769 376.58163 11126.424 256
6843.6807 385.29462 11383.856 256
6665.7529 371.60248 10979.311 256
6731.0278 371.60248 10979.311 256
6765.3359 369.90927 10929.283 256
6887.4268 373.00235 11020.671 256
6876.0542 368.87729 10898.792 256
6712.4214 356.73721 10540.104 256
6561.0005 345.46475 10207.049 256
6585.0542 343.55368 10150.585 0
6964.4126 360.0459 10637.861 0
7031.188 360.22675 10643.204 0
7103.9395 360.70782 10657.419 0
7167.3013 360.70782 10657.419 0
7124.5205 355.41287 10500.975 0
7186.9521 355.41287 10500.975 0
7256.7241 355.77277 10511.608 0
7647.5342 371.73154 10983.124 0
7712.832 371.73154 10983.124 0
7653.3477 365.76801 10806.926 526342
7642.376 362.20288 10701.592 1184015
7705.999 362.20288 10701.592 1381394
7762.9834 361.89337 10692.446 3157548
8256.7793 381.78665 11280.211 4932673
8323.8438 381.78665 11280.211 8551291
10467.689 476.2804 14072.107 5786179
10551.353 476.2804 14072.107 5522238
10069.997 450.9765 13324.483 5324088
11020.944 489.71152 14468.941 4667186
11260.51 496.48126 14668.96 4601651
11347.72 496.48126 14668.96 4076077
9682.8037 420.40744 12421.295 3748139
8127.9771 350.22897 10347.812 3550760
0 0 0 0
0 0 0 0
0 0 0 0
0 0 0 0
0 0 0 0
0 0 0 0
0 0 0 0
0 0 0 0
0 0 0 0
0 0 0 0
0 0 0 0
0 0 0 0
0 0 0 0
6264.7495 244.07964 7211.54 3362089
0 0 0 0
0 0 0 0
0 0 0 0
0 0 0 0
0 0 0 0
0 0 0 0
0 0 0 0
0 0 0 0
0 0 0 0
0 0 0 0
0 0 0 0
0 0 0 0
0 0 0 0
0 0 0 0
0 0 0 0
0 0 0 0
0 0 0 0
0 0 0 0
0 0 0 0
0 0 0 0
0 0 0 0
0 0 0 0
-6429.5898 285.20563 7167.5942 1024
-6447.4932 287.90793 7235.5068 1024
-6362.5151 286.02164 7188.1016 1024
-6319.7798 286.02164 7188.1016 264962
-6385.4146 290.95966 7312.2007 1792
-6308.0059 289.40274 7273.0732 1024
-6264.7656 289.40274 7273.0732 1280
-6106.9775 284.07437 7139.165 1280
-6182.4937 289.59988 7278.0278 1280
-6090.3374 287.29382 7220.0737 1280
-6047.4121 287.29382 7220.0737 1024
-6004.4868 287.29382 7220.0737 1024
-6030.4766 290.6149 7303.5366 1280
-6055.3018 293.92761 7386.79 1280
-6139.4888 300.19128 7544.2036 1280
-6144.8872 302.66638 7606.4067 2048
-6019.8154 298.70422 7506.8325 924162
-6151.8374 307.53519 7728.7666 1792
-6119.8584 308.23889 7746.4507 1024
-5857.2793 297.25049 7470.2983 2048
-5812.8662 297.25049 7470.2983 1280
-5894.0723 303.72372 7632.9785 398080
-5860.7612 304.35043 7648.729 2304
-5830.8013 305.16238 7669.1343 1536
-5621.2485 296.51382 7451.7852 1024
-5739.6108 305.16238 7669.1343 726273
-5650.3184 302.8205 7610.2798 1121029
-5679.6416 306.84915 7711.5249 68352
-5633.7949 306.84915 7711.5249 1024
-5597.3677 307.36642 7724.5249 265984
-5551.4429 307.36642 7724.5249 68608
-5559.124 310.35913 7799.7358 1792
-5512.7524 310.35913 7799.7358 398080
-5440.0674 308.8652 7762.1909 1792
-5391.2544 308.71259 7758.356 660740
-5276.5332 304.75082 7658.791 199936
-5271.5923 307.11569 7718.2236 332288
-5182.3535 304.56787 7654.1938 1122053
-5076.8491 301.01053 7564.793 1451530
-5149.0918 308.02258 7741.0151 991493
-5103.0693 308.02258 7741.0151 1845523
-5512.4106 335.75861 8438.0576 1280
-5212.9287 320.43344 8052.9165 1280
-5136.5234 318.6636 8008.4375 1024
-5159.2925 323.0708 8119.1968 1024
-5111.0215 323.0708 8119.1968 1024
-5095.6206 325.16833 8171.9106 1280
-4964.9644 319.88068 8039.0239 1024
-5023.895 326.82349 8213.5068 768
-4975.0635 326.82349 8213.5068 1536
-4951.2666 328.48438 8255.2471 1536
-4902.1865 328.48438 8255.2471 1280
-4809.8496 325.55652 8181.666 2304
-4559.7593 311.78214 7835.4971 1280
-4386.4941 303.03067 7615.5615 1280
-4313.5649 301.10043 7567.0522 1536
-4295.9409 303.03067 7615.5615 1792
-4305.1836 306.91736 7713.2393 1792
-4318.6011 311.18854 7820.5801 2048
-4313.9199 314.23438 7897.126 68864
-4279.7822 315.17798 7920.8398 2560
-4330.0571 322.42813 8103.0459 1280
-4271.1753 321.62192 8082.7847 134144
-4223.1211 321.62192 8082.7847 1536
-4214.7822 324.6814 8159.6733 1280
-4173.5215 325.24646 8173.8735 1536
-4172.2974 328.98169 8267.7451 1536
-4216.5405 336.43375 8455.0254 1792
-4121.6206 332.82797 8364.4072 462849
-4071.8918 332.82797 8364.4072 333056
-4016.6631 332.37286 8352.9697 465408
-4090.9824 342.76044 8614.0234 134656
-3970.6321 336.89438 8466.6016 1056771
-3832.8511 329.37973 8277.748 133632
-3776.3352 328.74402 8261.7725 1057024
-3681.3643 324.69983 8160.1357 267520
-3599.9314 321.75757 8086.1938 1122817
-3584.3359 324.69983 8160.1357 1189124
-3616.7546 332.13202 8346.917 2044934
-3422.2905 318.64615 8007.9995 1583874
-3332.783 314.69009 7908.5781 1781511
-3261.1475 312.33243 7849.3271 859905
-3238.7458 314.69009 7908.5781 1319430
-3318.2913 327.16876 8222.1836 1024
-3265.1042 326.73804 8211.3594 1536
-3217.6511 326.8768 8214.8467 1280
-3168.8115 326.8768 8214.8467 1280
-3149.8357 330.00555 8293.4766 1280
-3124.9644 332.60641 8358.8389 1792
-3148.4954 340.52625 8557.875 1911823
-3167.1125 348.16611 8749.875 200192
-3204.5857 358.16858 9001.25 68352
-3151.0708 358.16858 9001.25 266752
-3022.9675 349.54395 8784.502 2048
-2951.0293 347.22461 8726.2139 2816
-2918.5149 349.54395 8784.502 200960
-2847.2698 347.22461 8726.2139 133888
-2858.125 355.01715 8922.0508 134144
-2708.98 342.8544 8616.3848 2560
-2662.5317 343.47086 8631.877 134656
-2715.9854 357.25229 8978.2227 2816
-2662.6072 357.25229 8978.2227 332800
-2609.2292 357.25229 8978.2227 398592
-2449.5432 342.39273 8604.7822 464384
-2515.5566 359.12009 9025.1631 1713418
-2499.634 364.62442 9163.4941 2569746
-2412.2488 359.7175 9040.1768 3072
-2362.7515 360.3656 9056.4639 1254147
-2365.165 369.1459 9277.125 925441
-2324.5403 371.4679 9335.4795 1792
-2280.4221 373.33157 9382.3164 1536
-2154.7605 361.60434 9087.5957 1280
-2051.0798 353.05756 8872.8037 1024
-1983.6331 350.46121 8807.5537 1280
-1951.5781 354.14651 8900.1709 768
-1952.8085 364.24576 9153.9775 1280
-1875.9709 359.94504 9045.8945 1280
-1790.2493 353.63553 8887.3291 1319173
-1728.3884 351.79895 8841.1729 2304
-1720.958 361.27347 9079.2803 1536
-1666.9791 361.27347 9079.2803 530688
-1686.9918 377.84583 9495.7656 1320194
-1618.2899 375.00781 9424.4424 728320
-1503.0106 360.78574 9067.0225 398848
-1449.1046 360.78574 9067.0225 860416
-1473.1814 380.95135 9573.8115 2045195
-1375.9542 370.1091 9301.3311 332544
-1359.3435 380.95135 9573.8115 267776
-1245.5403 364.31305 9155.6689 531968
-1175.5245 359.54691 9035.8896 333824
-1121.8037 359.54691 9035.8896 2242320
-1153.0396 388.14575 9754.6162 1123841
-1097.8853 389.15231 9779.9121 3162396
-1042.5802 390.2149 9806.6172 793345
-973.24371 385.84079 9696.6895 661760
-915.12372 385.64249 9691.7061 2560
-857.9447 385.84079 9696.6895 69632
-805.23926 388.22446 9756.5938 859649
-756.26184 392.91504 9874.4746 859392
-690.70123 389.05429 9777.4492 69632
-636.80463 391.65775 9842.8779 135936
-582.14154 394.26907 9908.5029 1912835
-535.4375 403.46564 10139.625 2505233
-457.75424 388.69055 9768.3076 1452038
-399.67889 388.69055 9768.3076 530432
-334.53922 380.6524 9566.2979 1280
-277.66492 380.6524 9566.2979 464897
-216.45456 373.17685 9378.4277 1319946
-160.69717 373.17685 9378.4277 530432
-108.94505 387.4198 9736.3721 264960
-51.496166 390.73233 9819.6201 792576
7.0873132 402.26004 10109.327 200704
65.646599 393.01941 9877.0977 1779725
123.81232 391.26123 9832.9121 727296
182.27173 391.26123 9832.9121 2304
240.73112 391.26123 9832.9121 2816
295.77652 386.79657 9720.71 463872
353.56882 386.79657 9720.71 1280
425.79367 400.36731 10061.76 1977357
489.19403 403.31918 10135.944 266752
547.93134 402.20071 10107.836 1536
609.71606 403.31918 10135.944 2560
680.55542 409.68723 10295.981 1024
752.74518 415.75012 10448.35 1024
811.94061 414.25882 10410.872 768
863.67804 409.44315 10289.848 593668
905.76447 400.99197 10077.459 1280
965.67773 400.99197 10077.459 265984
1020.0079 398.80905 10022.599 858624
1078.0406 398.2348 10008.168 727040
1131.7567 396.2095 9957.2695 595200
1186.2491 394.6438 9917.9209 1056000
1262.1667 400.01663 10052.947 134912
1305.7378 395.11557 9929.7773 1516299
1364.7731 395.11557 9929.7773 1280
1461.8295 405.66669 10194.94 1536
1525.3025 406.42908 10214.101 1024
1579.8162 404.83722 10174.095 1792
1661.8936 410.16565 10308.005 266752
1682.8602 400.56903 10066.829 595457
1732.7074 398.26978 10009.046 1451788
1792.214 398.26978 10009.046 1536
1912.0933 411.25479 10335.377 1280
1964.4794 409.3667 10287.927 398081
1995.037 403.18127 10132.479 68096
2055.2773 403.18127 10132.479 595200
2111.0354 402.32706 10111.011 200448
2238.8774 414.87762 10426.424 331520
2230.4778 402.18576 10107.461 397824
2242.3826 393.72495 9894.8291 1253635
2260.6045 386.77756 9720.2314 1122052
2350.3179 392.10345 9854.0781 332033
2408.9031 392.10345 9854.0781 1320196
2505.1655 398.09067 10004.545 2304
2564.6453 398.09067 10004.545 398592
2510.0166 380.77991 9569.5029 729088
0 0 0 0
0 0 0 0
0 0 0 0
0 0 0 0
0 0 0 0
0 0 0 0
0 0 0 0
1307.6398 167.9243 4220.1597 132609
1332.7299 167.9243 4220.1597 132353
1332.4728 164.78958 4141.3799 198918
1306.5566 158.65285 3987.156 1579546
1305.577 155.70888 3913.1702 12107199
1309.4083 153.43173 3855.9424 2500908
1327.9537 152.92741 3843.2681 11647934
1377.2366 155.92001 3918.4761 9015699
1373.6523 152.92741 3843.2681 12699081
1387.4602 151.93732 3818.3855 12896717
1401.2661 150.97887 3794.2986 7238776
0 0 0 0
0 0 0 0
0 0 0 0
3606.9558 365.11871 9175.916 256
3924.7666 391.37024 9835.6523 256
3983.2424 391.37024 9835.6523 256
4118.1328 398.76965 10021.609 256
4141.2378 395.28799 9934.1104 256
4276.1821 402.42929 10113.581 256
4497.707 417.40768 10490.007 256
4649.7217 425.61371 10696.235 0
4713.314 425.61371 10696.235 131072
4717.2891 420.30197 10562.744 458752
4976.8149 437.5997 10997.46 2693400
5506.3101 477.87881 12009.728 5521729
5379.6069 460.90598 11583.177 5192251
5393.9019 456.28967 11467.163 5520959
5532.6338 462.18384 11615.291 1970448
5756.8833 474.98849 11937.089 2034443
6494.0029 529.28186 13301.554 6899270
6573.085 529.28186 13301.554 5978934
5694.3818 453.07541 11386.385 5319722
5762.0767 453.07541 11386.385 5319468
5740.7329 446.15552 11212.479 5188911
5754.1523 442.06522 11109.684 4138278
5916.7876 449.40118 11294.046 1378569
6144.9912 461.4968 11598.025 262144
6292.5273 467.33298 11744.695 131072
6316.8477 463.99048 11660.694 0
6327.1992 459.70569 11553.012 0
6356.3369 456.86316 11481.575 0
6464.5708 459.70569 11553.012 197378
6449.3384 453.80081 11404.615 131842
6517.1421 453.80081 11404.615 256
6532.4937 450.1861 11313.772 0
6387.1724 435.68518 10949.345 0
6484.6675 437.8728 11004.323 0
6622.769 442.73132 11126.424 0
6688.9189 442.73132 11126.424 0
6542.0879 428.7724 10775.618 256
6700.3584 434.8869 10929.283 256
6776.123 435.58035 10946.71 256
6841.2041 435.58035 10946.71 256
6798.8477 428.80426 10776.418 256
6712.4214 419.40106 10540.104 256
6611.3457 409.26508 10285.372 256
6585.0542 403.90173 10150.585 256
6806.8218 413.71268 10397.147 256
6893.6172 415.21735 10434.962 0
6924.5654 413.36142 10388.319 0
6981.917 413.10052 10381.763 0
7043.6396 413.10052 10381.763 65536
6829.833 397.08148 9979.1826 0
6889.1621 397.08148 9979.1826 0
7285.9385 416.36536 10463.812 0
7348.1484 416.36536 10463.812 131585
7523.3105 422.71176 10623.306 262914
7575.1392 422.08047 10607.441 591619
7649.627 422.71176 10623.306 1314829
7508.5913 411.52057 10342.056 1972759
7720.9712 419.72333 10548.202 2695968
8020.749 432.50674 10869.467 3090723
8783.9092 469.87332 11808.538 4274993
8982.7783 476.70132 11980.135 4670005
8617.1436 453.70023 11402.087 5131833
8684.9316 453.70023 11402.087 5264186
10228.433 530.19427 13324.483 4673844
10735.025 552.17712 13876.942 4280880
9181.4551 468.66434 11778.154 3625772
8127.9771 411.74963 10347.812 3890225
0 0 0 0
0 0 0 0
0 0 0 0
0 0 0 0
0 0 0 0
0 0 0 0
0 0 0 0
0 0 0 0
0 0 0 0
0 0 0 0
0 0 0 0
0 0 0 0
0 0 0 0
0 0 0 0
0 0 0 0
0 0 0 0
0 0 0 0
0 0 0 0
0 0 0 0
6210.1958 273.23566 6866.7734 856325
6251.021 273.23566 6866.7734 67328
0 0 0 0
0 0 0 0
0 0 0 0
0 0 0 0
0 0 0 0
0 0 0 0
0 0 0 0
0 0 0 0
0 0 0 0
0 0 0 0
0 0 0 0
0 0 0 0
0 0 0 0
0 0 0 0
0 0 0 0
-6539.9443 333.4455 7290.6157 1187079
-6550.7676 336.22571 7351.4038 661505
-6507.061 336.22571 7351.4038 1056516
-6428.8882 334.43271 7312.2007 1122310
-6385.4146 334.43271 7312.2007 199936
-6308.0059 332.64319 7273.0732 792325
-6264.7656 332.64319 7273.0732 1280
-6106.9775 326.51871 7139.165 1280
-6151.8564 331.22025 7241.9619 1280
-6108.3345 331.19495 7241.4087 134400
-6065.2822 331.19495 7241.4087 67072
-6016.6064 330.88568 7234.647 1280
-6030.4766 334.03644 7303.5366 1024
-6058.7676 338.03751 7391.0181 1024
-6030.479 338.91727 7410.2529 1024
-6064.4453 343.33444 7506.8325 1024
-5935.5698 338.52957 7401.7769 1280
-5975.1855 343.33444 7506.8325 1056006
-6105.8872 353.48489 7728.7666 595715
-5930.6709 345.94452 7563.9009 1056259
-5885.7012 345.94452 7563.9009 924418
-5874.123 347.92227 7607.1436 397056
-5828.7266 347.91217 7606.9219 199936
-5730.521 344.72507 7537.2378 595456
-5678.8394 344.30853 7528.1304 332288
-5634.083 344.30853 7528.1304 2304
-5589.3262 344.30853 7528.1304 792832
-5557.6074 345.11819 7545.833 792832
-5563.3789 348.28802 7615.1401 595456
-5467.3228 345.08279 7545.0591 266752
-5472.8311 348.28802 7615.1401 266240
-5386.7607 345.67014 7557.9014 2560
-5486.2158 355.01358 7762.1909 1536
-5437.3799 354.83817 7758.356 133120
-5391.2544 354.83817 7758.356 1536
-5430.8232 360.52707 7882.7402 68096
-5383.9585 360.52707 7882.7402 1792
-5690.3311 384.3887 8404.4629 1846797
-5219.3984 355.70004 7777.1997 1056259
-5090.0845 349.98782 7652.3052 1123072
-4980.2197 345.52191 7554.6602 859136
-5260.8057 368.31027 8052.9165 135424
-5244.9189 370.5705 8102.335 1280
-5207.5635 371.34167 8119.1968 1024
-5159.2925 371.34167 8119.1968 768
-5111.0215 371.34167 8119.1968 1024
-5039.9487 369.66922 8082.6289 1280
-4990.1733 369.54172 8079.8408 858377
-4942.1362 369.54172 8079.8408 660998
-4975.0635 375.65509 8213.5068 2560
-4951.2666 377.56412 8255.2471 200960
-4902.1865 377.56412 8255.2471 2304
-4809.8496 374.19882 8181.666 1280
-4416.8579 347.13522 7589.9351 1536
-4371.7339 347.13522 7589.9351 1536
-4431.0806 355.51724 7773.2031 1024
-4464.9795 362.01263 7915.2217 1280
-4321.0869 354.07785 7741.7319 67584
-4328.272 358.48505 7838.0928 793347
-4326.874 362.26959 7920.8398 67840
-4314.604 365.21713 7985.2861 1536
-4330.0571 370.60303 8103.0459 2048
-4271.1753 369.67633 8082.7847 1536
-4223.1211 369.67633 8082.7847 1536
-4222.1177 373.84241 8173.8735 1536
-4279.105 383.30005 8380.6602 1792
-4309.415 390.56271 8539.4541 1536
-4258.6455 390.56271 8539.4541 2560
-4116.6143 382.09204 8354.248 134400
-4066.324 382.0336 8352.9697 793346
-4016.6631 382.0336 8352.9697 1385992
-4020.9685 387.23068 8466.6016 2048
-3970.6321 387.23068 8466.6016 2241804
-3832.8511 378.59323 8277.748 1320708
-3782.5039 378.4798 8275.2676 1386240
-3727.2168 377.86258 8261.7725 1189120
-3678.0981 377.86258 8261.7725 133632
-3634.2776 378.41422 8273.834 2241801
-3560.9399 375.86539 8218.1055 1386752
-3426.2163 366.67609 8017.1855 1781254
-3332.783 361.70877 7908.5781 1584390
-3294.9167 362.71631 7930.6074 1188867
-3247.7673 362.71631 7930.6074 990979
-3318.2913 376.05194 8222.1836 69120
-3266.491 375.71637 8214.8467 1536
-3217.6511 375.71637 8214.8467 1536
-3294.6633 390.63821 8541.1055 1280
-3243.884 390.63821 8541.1055 1536
-3100.5283 379.31259 8293.4766 1792
-3148.4954 391.40521 8557.875 69632
-3119.2002 394.13248 8617.5059 332800
-3089.6257 396.91495 8678.3428 2304
-3121.4902 407.81882 8916.751 2560
-3008.5381 399.85254 8742.5713 133120
-2951.0293 399.1044 8726.2139 134912
-2973.3245 409.31552 8949.4746 530176
-2911.1692 408.06125 8922.0508 530176
-2862.6602 408.70871 8936.208 1792
-2713.8506 394.78976 8631.877 1792
-2662.5317 394.78976 8631.877 660997
-2732.0278 413.05579 9031.2539 464640
-2680.0962 413.32745 9037.1943 2048
-2634.0972 414.54395 9063.792 1536
-2449.5432 393.55054 8604.7822 529408
-2554.1133 419.10394 9163.4941 1319428
-2551.3735 427.77899 9353.1689 1253635
-2412.2488 413.46387 9040.1768 67584
-2347.845 411.59552 8999.3262 134656
-2389.8308 428.72595 9373.874 1253636
-2336.2026 429.11206 9382.3164 1792
-2299.0564 432.61853 9458.9834 1280
-2189.5635 422.34583 9234.376 134912
-2106.8115 416.83545 9113.8945 1536
-2050.9634 416.49759 9106.5078 1280
-2007.2313 418.66867 9153.9775 1280
-1957.5446 419.68408 9176.1787 1536
-1902.6947 419.61905 9174.7568 1280
-1848.1483 419.61905 9174.7568 1253639
-1812.3772 424.01163 9270.7979 530176
-1757.2596 424.01163 9270.7979 68608
-1702.1423 424.01163 9270.7979 1792
-1670.2831 429.99924 9401.7139 1254148
-1614.3872 429.99924 9401.7139 2109963
-1498.1586 413.35297 9037.752 466432
-1444.4266 413.35297 9037.752 1189633
-1464.0848 435.1666 9514.6953 597760
-1377.3567 425.84171 9310.8115 1979912
-1322.0013 425.84171 9310.8115 2045706
-1208.1052 406.16055 8880.4932 333824
-1194.6373 419.98709 9182.8037 663296
-1211.6135 446.35339 9759.2891 1387013
-1156.0297 447.2966 9779.9121 1255685
-1100.8832 448.51797 9806.6172 530688
-1057.3984 454.89279 9945.999 661504
-973.24371 443.49033 9696.6895 68864
-915.12372 443.26239 9691.7061 398336
-837.96234 433.16095 9470.8438 925185
-804.06641 445.58014 9742.3818 595712
-782.51501 467.29929 10217.261 135680
-714.21783 462.40945 10110.347 1188864
-636.80463 450.17642 9842.8779 859648
-579.03455 450.75916 9855.6191 596224
-535.4375 463.74854 10139.625 266752
-457.75424 446.76584 9768.3076 1319684
-399.67889 446.76584 9768.3076 464128
-340.18167 444.90616 9727.6465 1536
-283.31958 446.43698 9761.1172 768
-225.28703 446.43698 9761.1172 199424
-168.24252 449.07428 9818.7803 595713
-109.86714 449.07428 9818.7803 727300
-53.015453 462.36282 10109.327 661249
7.0873132 462.36282 10109.327 1024
66.161995 455.28815 9954.6436 1280
123.69504 449.29459 9823.5967 68096
180.9669 446.50122 9762.5215 332544
237.3315 443.36963 9694.0508 332800
295.77652 444.58893 9720.71 661760
353.56882 444.58893 9720.71 267008
418.75238 452.57715 9895.3691 2816
477.5831 452.57715 9895.3691 66560
540.06451 455.65732 9962.7148 199680
602.38226 458.00418 10014.027 1536
680.55542 470.89966 10295.981 66816
745.30811 473.14713 10345.121 1536
794.68335 466.03403 10189.596 512
840.1347 457.79037 10009.354 726019
899.64313 457.79037 10009.354 133120
965.67773 460.90527 10077.459 1792
1027.2107 461.63318 10093.374 2560
1078.0406 457.73618 10008.168 463872
1131.7567 455.40826 9957.2695 1280
1182.2444 452.07721 9884.4375 1792
1241.01 452.07721 9884.4375 1536
1311.3376 456.09857 9972.3623 989955
1387.6504 461.76367 10096.228 1536
1461.8295 466.27841 10194.94 1536
1530.0175 468.59882 10245.674 1024
1586.0282 467.15475 10214.101 1536
1661.8936 471.44962 10308.005 68608
1708.2124 467.35526 10218.484 134144
1754.2325 463.4632 10133.387 1024
1817.9585 464.35214 10152.823 1536
1889.6119 467.14374 10213.859 1280
1964.4794 470.53131 10287.927 2816
2015.7821 468.24051 10237.84 68352
2071.0757 466.98386 10210.364 67840
2111.0354 462.43982 10111.011 924163
2218.1047 472.44122 10329.687 2042386
2269.9988 470.46835 10286.551 68864
2226.73 449.39352 9825.7598 793856
2280.2861 448.43762 9804.8604 1188869
2338.5789 448.43762 9804.8604 991234
2408.9031 450.68869 9854.0781 3072
2503.5093 457.26794 9997.9307 399104
2544.229 453.92786 9924.9014 135680
2510.0166 437.67328 9569.5029 266752
0 0 0 0
0 0 0 0
0 0 0 0
0 0 0 0
0 0 0 0
0 0 0 0
0 0 0 0
1305.5583 192.70708 4213.4419 132096
1332.7299 193.01431 4220.1597 0
1332.4728 189.41122 4141.3799 132355
1301.4409 181.6436 3971.5447 66563
1286.4838 176.35638 3855.9424 10002337
1309.4083 176.35638 3855.9424 5462878
1326.8682 175.63303 3840.1265 7568768
1350.803 175.7767 3843.2681 11186869
1373.6523 175.7767 3843.2681 13094096
1398.0287 175.96892 3847.4707 13159889
1401.2661 173.53703 3794.2986 12041151
1393.7622 169.87303 3714.1873 9869981
1378.939 165.44516 3617.374 7501430
0 0 0 0
0 0 0 0
3410.0908 390.85522 8545.8506 395527
3706.9631 418.64444 9153.4473 256
4082.177 454.34903 9934.1104 513
4170.4067 457.54922 10004.08 66304
4278.5806 462.81677 10119.253 0
4433.8589 472.96295 10341.094 65792
4560.0732 479.77368 10490.007 131072
4713.314 489.20578 10696.235 458752
4757.8511 487.25443 10653.569 720896
4906.9736 495.92413 10843.129 1442049
5339.6348 532.65338 11646.194 2033415
5408.8745 532.65338 11646.194 2689804
5448.4722 529.77118 11583.177 2097409
5532.6338 531.23999 11615.291 1900544
5601.6904 531.23999 11615.291 2097152
5957.5923 558.11194 12202.833 1966080
5626.6865 520.77069 11386.385 3280654
5694.3818 520.77069 11386.385 2293760
5762.0767 520.77069 11386.385 2819333
5902.5718 527.2738 11528.573 5120806
5849.6416 516.54742 11294.046 6370873
5851.8779 510.88071 11170.146 6173751
6144.9912 530.45032 11598.025 5452854
6213.9453 530.45032 11598.025 2956060
6282.8989 530.45032 11598.025 525315
6288.0762 525.12433 11481.575 1184786
6112.2412 504.9585 11040.66 2238243
6184.0503 505.46277 11051.686 989203
6265.8921 506.76785 11080.221 988690
6536.6821 523.16833 11438.809 659468
6471.3394 512.60553 11207.858 857874
6387.1724 500.78207 10949.345 1316885
6484.6675 503.2966 11004.323 329478
6550.0913 503.2966 11004.323 256
6569.3252 499.78253 10927.49 0
6542.0879 492.83649 10775.618 0
6606.1519 492.83649 10775.618 0
6703.2017 495.27374 10828.907 0
6691.8291 489.7298 10707.692 0
6519.1792 472.59885 10333.133 65792
6587.7593 473.11209 10344.354 263427
6653.1313 473.38757 10350.378 132096
6706.522 472.81335 10337.823 789769
6773.5591 473.20291 10346.34 1184783
6835.0708 473.20291 10346.34 658439
6865.5078 471.07068 10299.721 1052940
6735.6509 458.07504 10015.577 1118988
6770.5044 456.41046 9979.1826 1052940
6829.833 456.41046 9979.1826 1710865
6842.6392 453.32837 9911.793 1908754
6847.5405 449.77954 9834.2002 2633245
7000.8267 455.95502 9969.2236 3291687
7074.1001 456.85944 9988.998 3818799
7354.2456 470.99768 10298.124 3754033
7453.0923 473.38727 10350.371 4083765
7658.2588 482.43533 10548.202 3690290
7754.4111 484.52481 10593.888 4347962
8161.1006 505.82782 11059.667 4414779
8362.292 514.15521 11241.742 4283705
8429.127 514.15521 11241.742 4152886
8023.3955 485.55658 10616.447 4152885
7807.3828 468.79617 10249.989 4087092
8149.6309 485.55658 10616.447 3890482
8100.5293 478.922 10471.385 3627309
8500.9629 498.76334 10905.206 3825200
7813.3672 454.95135 9947.2793 3628334
0 0 0 0
0 0 0 0
0 0 0 0
0 0 0 0
0 0 0 0
0 0 0 0
0 0 0 0
0 0 0 0
0 0 0 0
0 0 0 0
0 0 0 0
0 0 0 0
0 0 0 0
0 0 0 0
0 0 0 0
0 0 0 0
0 0 0 0
0 0 0 0
0 0 0 0
0 0 0 0
6643.1396 333.76117 7297.5176 67584
6491.2437 324.01361 7084.3921 133376
0 0 0 0
0 0 0 0
0 0 0 0
0 0 0 0
0 0 0 0
0 0 0 0
0 0 0 0
0 0 0 0
0 0 0 0
0 0 0 0
0 0 0 0
0 0 0 0
0 0 0 0
0 0 0 0
-6594.4736 379.93185 7351.4038 595969
-6592.1729 382.33331 7397.8701 793344
-6548.1904 382.33331 7397.8701 1056513
-6558.9902 385.5535 7460.1787 858880
-6387.5601 378.03271 7314.6572 858884
-6470.2842 385.5535 7460.1787 134400
-6321.6514 379.29678 7339.1152 1792
-6278.0186 379.29678 7339.1152 1280
-6151.8564 374.27573 7241.9619 1280
-6108.8008 374.27573 7241.9619 594948
-6065.2822 374.24713 7241.4087 768
-6022.23 374.24713 7241.4087 1280
-6086.6509 380.97409 7371.5703 1280
-6100.603 384.61673 7442.0527 1024
-6139.4888 389.89606 7544.2036 1024
-6071.6543 388.42578 7515.7554 1024
-5896.1104 379.99213 7352.5698 1280
-5975.1855 387.96463 7506.8325 68352
-6085.6904 398.11331 7703.2017 266240
-5932.6987 391.0477 7566.4873 134912
-5887.7139 391.0477 7566.4873 332288
-5874.123 393.1489 7607.1436 2306832
-5769.5298 389.14474 7529.666 2175246
-5668.0049 385.2865 7455.0122 1846025
-5685.71 389.53604 7537.2378 1792
-5634.083 389.06537 7528.1304 726788
-5589.3262 389.06537 7528.1304 68352
-5506.3413 386.3829 7476.2266 1536
-5504.2949 389.38245 7534.2661 1280
-5459.5015 389.38245 7534.2661 2816
-5551.4429 399.2153 7724.5249 134400
-5469.0513 396.57101 7673.3589 792069
-5486.2158 401.16199 7762.1909 265984
-5437.3799 400.96378 7758.356 1536
-5391.2544 400.96378 7758.356 1792
-5273.3662 395.58051 7654.1938 265984
-5248.8872 397.17163 7684.9805 133888
-5583.6221 426.21024 8246.8564 529920
-5356.0322 412.45959 7980.792 135680
-5303.6309 412.07477 7973.3452 135168
-5044.5894 395.48288 7652.3052 397571
-5260.8057 416.18713 8052.9165 68096
-5212.9287 416.18713 8052.9165 1024
-5207.5635 419.61258 8119.1968 1024
-5159.2925 419.61258 8119.1968 768
-4981.4868 408.97784 7913.4219 1024
-4934.439 408.97784 7913.4219 768
-4990.1733 417.57861 8079.8408 2502938
-4942.1362 417.57861 8079.8408 1536
-5053.4756 431.177 8342.96 3072
-4752.7798 409.54056 7924.3101 3293727
-4531.9658 394.42303 7631.7979 1978380
-4486.5928 394.42303 7631.7979 1255168
-4470.5684 397.02951 7682.231 2816
-4436.8945 398.10614 7703.0635 2636820
-4487.0312 406.80371 7871.3545 267776
-4440.2339 406.80371 7871.3545 530944
-4393.4365 406.80371 7871.3545 201728
-4343.6377 406.5228 7865.9194 2560
-4326.874 409.36118 7920.8398 858627
-4326.3857 413.81879 8007.0913 200960
-4292.1226 415.10913 8032.0581 2816
-4281.8818 418.77789 8103.0459 3072
-4331.6611 428.46701 8290.5234 1536
-4390.2998 439.26562 8499.4688 1280
-4422.7285 447.66275 8661.9473 1536
-4371.231 447.66275 8661.9473 1536
-4369.335 452.80307 8761.4092 2048
-4287.3467 449.66718 8700.7314 397059
-4235.6187 449.66718 8700.7314 2241300
-4178.7988 449.12003 8690.1445 135168
-4020.9685 437.56702 8466.6016 134912
-3970.6321 437.56702 8466.6016 68864
-3831.7026 427.67856 8275.2676 463872
-3776.3352 426.98111 8261.7725 2048
-3727.2168 426.98111 8261.7725 3072
-3683.4678 427.60449 8273.834 925696
-3642.6311 428.58731 8292.8516 861184
-3560.9399 424.72433 8218.1055 1254656
-3385.9084 409.46594 7922.8672 69120
-3338.8047 409.46594 7922.8672 1792
-3294.9167 409.866 7930.6074 1280
-3223.387 406.78918 7871.0737 529664
-3453.9153 442.30292 8558.2383 1280
-3403.0342 442.30292 8558.2383 1024
-3297.8511 435.13794 8419.6016 1024
-3280.4663 439.51535 8504.3008 1024
-3229.9058 439.51535 8504.3008 1280
-3111.7026 430.1644 8323.3662 134144
-3077.7715 432.34924 8365.6416 1280
-3023.9314 431.76324 8354.3037 68608
-3067.9668 445.36597 8617.5059 1792
-3065.7012 452.59518 8757.3857 2048
-2902.5833 435.91696 8434.6748 68608
-2951.0293 450.98416 8726.2139 595713
-2949.7932 458.86215 8878.6475 200960
-2897.0073 458.86215 8878.6475 134144
-2844.2212 458.86215 8878.6475 1280
-2815.7192 462.85403 8955.8877 1280
-2750.1807 460.79428 8916.0322 1280
-2715.9854 464.00836 8978.2227 133632
-2662.6072 464.00836 8978.2227 67840
-2634.0972 468.43069 9063.792 200192
-2610.1909 473.87357 9169.1074 68352
-2594.5012 481.07217 9308.3955 726786
-2551.3735 483.38614 9353.1689 2241040
-2401.3484 465.09903 8999.3262 1792
-2347.845 465.09903 8999.3262 990720
-2319.9543 470.2912 9099.791 1582852
-2331.5557 483.92804 9363.6543 1056768
-2251.0884 478.65524 9261.6289 67840
-2189.5635 477.24677 9234.376 2304
-2115.449 472.95117 9151.2598 596224
-2037.5612 467.56293 9047.001 1792
-1983.7742 467.56293 9047.001 1024
-1929.7511 467.50577 9045.8945 2048
-1869.2605 465.83347 9013.5371 1536
-1775.8062 455.60526 8815.6289 2304
-1870.6049 494.52249 9568.6484 67584
-1792.2321 488.66452 9455.3018 2048
-1694.7815 477.05713 9230.707 1792
-1639.9023 477.05713 9230.707 1792
-1581.9276 476.12549 9212.6797 1319938
-1498.1586 467.08493 9037.752 1321219
-1444.4266 467.08493 9037.752 860672
-1464.0848 491.7341 9514.6953 1321217
-1413.8759 493.95551 9557.6777 1321472
-1359.3435 494.78928 9573.8115 663040
-1208.1052 458.95755 8880.4932 2304
-1188.4565 472.12604 9135.2939 662528
-1211.6135 504.37506 9759.2891 1583111
-1153.5919 504.37506 9759.2891 1781257
-1100.8832 506.82104 9806.6172 727296
-1049.3414 510.10791 9870.2148 661760
-973.24371 501.13983 9696.6895 67840
-915.12372 500.88226 9691.7061 1280
-837.96234 489.46774 9470.8438 1536
-799.88397 500.88226 9691.7061 727297
-783.46936 528.68774 10229.722 1583112
-714.21783 522.51825 10110.347 464896
-654.10907 522.51825 10110.347 858882
-573.36548 504.3667 9759.127 1792
-538.68079 527.20563 10201.044 464128
-458.44516 505.60315 9783.0518 2045197
-399.67889 504.84119 9768.3076 2768666
-333.6813 493.13312 9541.7656 198912
-283.46078 504.72092 9765.9814 1536
-220.2244 493.13312 9541.7656 1536
-168.24252 507.44968 9818.7803 858116
-110.33734 509.6214 9860.8018 2048
-51.496166 507.4931 9819.6201 990467
6.9731421 514.04907 9946.4736 133632
65.646599 510.46359 9877.0977 1024
123.81232 508.17999 9832.9121 1024
185.10031 516.06616 9985.5039 396544
245.75409 518.78339 10038.08 67584
304.3187 516.89032 10001.45 792832
363.78012 516.89032 10001.45 793089
415.56595 507.51642 9820.0713 793088
472.15839 505.59897 9782.9707 924676
536.72595 511.70547 9901.127 1024
602.38226 517.54034 10014.027 1280
672.19916 525.57855 10169.562 199424
734.10339 526.61401 10189.596 330496
780.62628 517.29883 10009.354 768
840.1347 517.29883 10009.354 594436
899.64313 517.29883 10009.354 1024
963.44116 519.61237 10054.119 1536
1028.2126 522.1499 10103.219 1280
1088.2791 522.1499 10103.219 1792
1131.7567 514.60699 9957.2695 1280
1178.6138 509.27417 9854.083 1280
1237.199 509.27417 9854.083 1280
1327.6255 521.78857 10096.228 1713936
1394.6267 524.4118 10146.985 1024
1463.3949 527.45441 10205.857 1280
1524.0715 527.45441 10205.857 1536
1591.6482 529.75098 10250.294 1536
1652.5891 529.75098 10250.294 68096
1693.9867 523.70905 10133.387 266496
1751.7542 522.96912 10119.07 660228
1828.8877 527.86798 10213.859 1536
1895.3466 529.46997 10244.856 1280
1954.9153 529.1073 10237.84 2048
1952.5442 512.50848 9916.665 2048
2052.8892 523.05359 10120.705 1792
2122.8689 525.48181 10167.688 1536
2192.4827 527.68732 10210.364 2048
2242.1462 525.10187 10160.338 134656
2249.9851 513.11377 9928.377 530176
2280.2861 506.73029 9804.8604 1056513
2330.5371 504.98776 9771.1445 1253891
2396.8716 506.73029 9804.8604 1536
2491.7566 514.28271 9950.9951 595968
2538.1523 511.70905 9901.1963 200448
2510.0166 494.56662 9569.5029 399360
0 0 0 0
0 0 0 0
0 0 0 0
0 0 0 0
0 0 0 0
0 0 0 0
0 0 0 0
1316.5273 219.5867 4248.8423 198147
1332.7299 218.10434 4220.1597 66560
1343.4207 215.79143 4175.4062 132356
1301.4409 205.25554 3971.5447 592651
1315.1346 203.71916 3941.8169 7764863
1343.6389 204.49066 3956.7446 9541787
1326.8682 198.46364 3840.1265 8752528
1349.6987 198.46364 3840.1265 9673631
1366.7828 197.63271 3824.0486 12963023
1387.4602 197.34004 3818.3855 12896458
1383.7485 193.64375 3746.8652 13487824
1393.7622 191.95491 3714.1873 9474707
1415.8441 191.95491 3714.1873 12041146
1368.2498 182.65355 3534.2126 8618884
0 0 0 0
1449.4442 187.72679 3632.3762 3487029
3207.6401 409.34311 7920.4897 920845
3761.3828 473.06421 9153.4473 328709
4141.2378 513.4101 9934.1104 328193
4229.8833 517.02625 10004.08 656131
4340.1797 523.15186 10122.605 590081
4453.5361 529.47369 10244.93 655360
4560.6968 534.89825 10349.891 786432
4717.2891 545.89886 10562.744 1114112
4821.1899 550.59283 10653.569 2163200
5339.6348 601.89325 11646.194 6753556
5408.8745 601.89325 11646.194 6165780
5482.6479 602.39142 11655.833 4654601
5551.9453 602.39142 11655.833 2490368
5776.376 619.01599 11977.508 2163201
5847.5854 619.01599 11977.508 1179648
5513.938 576.67413 11158.223 3151638
5607.4102 579.47815 11212.479 3216918
5674.0718 579.47815 11212.479 2032643
5740.7329 579.47815 11212.479 2426117
5785.4683 577.29028 11170.146 2360067
5851.8779 577.29028 11170.146 4002837
5983.9336 583.69366 11294.046 6305592
6213.9453 599.40381 11598.025 5714739
6265.46 597.74011 11565.834 6045758
6150.1895 580.37354 11229.804 3746088
5983.8638 558.61383 10808.77 1053196
6177.8809 570.59833 11040.66 1845025
6243.521 570.59833 11040.66 2438188
6536.6821 591.17523 11438.809 1912101
6374.5972 570.58008 11040.308 1056023
6345.1606 562.15692 10877.325 2173734
6484.6675 568.72034 11004.323 2304036
6403.752 556.01428 10758.47 461062
6453.6846 554.80811 10735.132 921355
6482.8125 551.85474 10677.985 855561
6533.8921 550.80902 10657.752 1118732
6492.1758 542.03583 10487.997 921353
6457.7456 534.03223 10333.133 526597
6499.0757 532.38538 10301.268 197889
6583.5996 534.2746 10337.823 725254
6653.1313 534.92346 10350.378 397057
6745.0083 537.34058 10397.147 1714195
6776.2031 534.92346 10350.378 2373406
6740.3896 527.30768 10203.019 3624750
6676.1055 517.62042 10015.577 3823923
6711.1753 515.7395 9979.1826 3429421
6770.5044 515.7395 9979.1826 3430189
6809.5396 514.20709 9949.5312 2970150
6774.9946 507.19266 9813.8076 3167785
6833.3408 507.19266 9813.8076 3102248
6906.0068 508.24661 9834.2002 3036453
6985.2837 509.7652 9863.584 3102246
7088.4238 512.98553 9925.8955 3168550
7370.5586 528.99945 10235.753 3102756
7639.2637 543.79517 10522.039 3431722
7739.7446 546.47284 10573.851 3497259
7906.7505 553.76666 10714.979 3562793
8085.3711 561.75079 10869.467 3694378
8142.4727 561.23242 10859.438 3694378
7678.8154 525.11047 10160.504 3760170
7612.3037 516.49896 9993.8779 3825963
7632.9668 513.88995 9943.3945 3958063
7692.0835 513.88995 9943.3945 4089648
7754.228 514.0907 9947.2793 4089649
5964.3481 392.43207 7593.2739 4023854
0 0 0 0
0 0 0 0
0 0 0 0
0 0 0 0
0 0 0 0
0 0 0 0
0 0 0 0
0 0 0 0
0 0 0 0
0 0 0 0
0 0 0 0
0 0 0 0
0 0 0 0
0 0 0 0
0 0 0 0
0 0 0 0
0 0 0 0
0 0 0 0
0 0 0 0
0 0 0 0
6449.125 366.13229 7084.3921 3234584
0 0 0 0
0 0 0 0
0 0 0 0
0 0 0 0
0 0 0 0
0 0 0 0
0 0 0 0
0 0 0 0
0 0 0 0
0 0 0 0
0 0 0 0
0 0 0 0
0 0 0 0
0 0 0 0
0 0 0 0
-6673.146 428.69205 7439.1069 594944
-6655.4888 430.41034 7468.9243 464128
-6572.4775 427.89688 7425.3081 726529
-6528.4468 427.90445 7425.4395 1253639
-6484.3013 427.90445 7425.4395 1056520
-6455.9932 428.95679 7443.7012 1280
-6411.7383 428.95679 7443.7012 1024
-6360.8755 428.51166 7435.9761 1024
-6374.1987 432.41455 7503.7031 1024
-6329.5869 432.41455 7503.7031 595203
-6240.1372 429.32959 7450.1704 134656
-6191.0928 429.00037 7444.457 1280
-6138.7441 428.43585 7434.6606 1280
-6100.603 428.86182 7442.0527 1280
-6067.2964 429.63638 7455.4937 1280
-6071.6543 433.10907 7515.7554 2560
-5894.6719 423.60184 7350.7759 1055751
-5925.437 428.99316 7444.332 332032
-6001.3804 437.76111 7596.4829 2816
-5956.2173 437.76111 7596.4829 1536
-5943.4614 440.16113 7638.1304 1024
-5916.0181 441.50198 7661.3984 1280
-5791.209 435.54111 7557.9585 1280
-5663.4307 429.2619 7448.9956 463360
-5627.1416 429.87283 7459.5972 923907
-5574.8579 429.2619 7448.9956 594945
-5665.8379 439.76077 7631.1826 1024
-5620.4683 439.76077 7631.1826 1536
-5461.8931 430.83115 7476.2266 1280
-5478.9619 435.72336 7561.1216 199936
-5632.6011 451.64743 7837.4521 463360
-5671.0171 458.52087 7956.7275 1450249
-5495.5854 448.07425 7775.4473 1318921
-5339.603 439.04962 7618.8423 1536
-5872.6528 487.01111 8451.1191 1536
-5317.186 444.75211 7717.7979 529664
-5271.3018 444.75211 7717.7979 1280
-5225.4175 444.75211 7717.7979 2048
-5409.5132 464.49991 8060.4819 265984
-5308.5845 459.90765 7980.792 2560
-5244.02 458.41144 7954.8281 267008
-5067.8804 447.04572 7757.5986 726276
-5138.9263 457.47607 7938.5972 1024
-5091.729 457.47607 7938.5972 1024
-4964.4023 450.20932 7812.4971 1024
-4866.5088 445.49976 7730.772 1280
-4800.2485 443.62384 7698.2188 1792
-4722.3188 440.62296 7646.1445 1319434
-4778.6265 450.21066 7812.52 267008
-4817.1357 458.2933 7952.7788 3584
-4685.731 450.21066 7812.52 1056768
-4681.1602 454.27451 7883.04 2304
-4516.2417 442.70251 7682.231 69888
-4684.4834 463.88565 8049.8228 991232
-4658.4409 466.06833 8087.6987 69632
-4560.1367 460.99146 7999.5991 530944
-4390.7817 448.54919 7783.6885 332800
-4344.5054 448.54919 7783.6885 133632
-4571.9243 477.11108 8279.3242 1792
-4463.4653 470.86215 8170.8862 266752
-4414.8872 470.86215 8170.8862 2048
-4336.4131 467.63818 8114.9404 1792
-4326.5093 471.81943 8187.498 1280
-4447.041 490.48221 8511.3535 1280
-4371.6133 487.71259 8463.292 1280
-4321.2964 487.71259 8463.292 1792
-4338.9829 495.478 8598.0459 1536
-4400.4087 508.48285 8823.7188 1792
-4432.4038 518.35956 8995.1104 199937
-4113.3882 486.92633 8449.6484 2570266
-4063.1526 486.92633 8449.6484 1792
-3833.9231 465.20724 8072.7563 1792
-3789.1797 465.60675 8079.689 859392
-3739.9624 465.45975 8077.1382 2304
