# .PCD v0.7 - Point Cloud Data file format
VERSION 0.7
FIELDS x y z rgb
SIZE 4 4 4 4
TYPE F F F U
COUNT 1 1 1 1
WIDTH 1338
HEIGHT 1
VIEWPOINT 0 0 0 1 0 0 0
POINTS 1338
DATA ascii
7495.2568 -221.08672 11244.479 2107167
7674.8413 -224.38258 11412.106 1054478
7742.6899 -224.38258 11412.106 512
7815.9243 -224.53732 11419.977 768
7542.9048 -214.8278 10926.15 512
7520.4116 -212.35837 10800.555 512
7584.6235 -212.35837 10800.555 512
7652.9971 -212.47389 10806.431 768
7792.1465 -214.53612 10911.315 66817
7869.8057 -214.8853 10929.075 725002
7904.7241 -214.07129 10887.674 512
8360.8203 -224.58398 11422.35 768
8463.7695 -225.51762 11469.835 396293
8791.623 -232.38103 11818.908 66561
8600.1523 -225.51762 11469.835 1024
9053.377 -235.53474 11979.306 1580823
8789.5449 -226.88597 11539.429 791052
8552.1582 -219.04854 11140.816 66562
9059.6826 -230.26451 11711.262 264197
9550.5078 -240.88818 12251.583 1185556
9864.3916 -246.92195 12558.46 724748
11601.64 -288.22656 14659.214 512
10318.399 -254.43488 12940.567 197890
10169.597 -248.90976 12659.56 329479
10096.152 -245.29671 12475.8 256
9325.8984 -224.93011 11439.954 256
9231.7754 -221.04787 11242.503 256
9497.5029 -225.77585 11482.968 256
9299.6582 -219.49492 11163.52 264710
9366.0283 -219.49492 11163.52 528653
9376.5801 -218.19598 11097.456 1647387
9335.2832 -215.7171 10971.381 1976095
9368.5938 -214.9847 10934.13 2371110
9525.043 -217.06862 11040.118 3621434
10338.188 -233.98718 11900.598 3029039
12425.231 -279.31229 14205.834 2633769
14209.559 -317.26645 16136.183 1645592
14305.493 -317.26645 16136.183 461062
14402.351 -317.28677 16137.218 394757
14498.291 -317.28677 16137.218 328964
14593.058 -317.26126 16135.92 394756
14616.285 -315.69095 16056.054 394499
14785.616 -317.27612 16136.676 262913
14881.552 -317.27612 16136.676 65792
14979.568 -317.32016 16138.916 65536
15075.924 -317.3287 16139.35 65536
15171.304 -317.31668 16138.739 65536
15267.252 -317.31668 16138.739 65536
15363.041 -317.31335 16138.57 131328
15459.417 -317.32211 16139.016 131328
0 0 0 0
0 0 0 0
0 0 0 0
0 0 0 0
0 0 0 0
0 0 0 0
0 0 0 0
-6257.8306 -95.68811 6976.1196 1280
-6493.5542 -99.955017 7287.1978 1280
-6450.2295 -99.955017 7287.1978 1024
-6344.3477 -98.979057 7216.0454 1280
-6241.2886 -98.034134 7147.1562 1024
-6125.3027 -96.871819 7062.418 1024
-5942.229 -94.625153 6898.625 768
-5934.8354 -95.164246 6937.9277 768
-6051.9922 -97.722015 7124.4014 768
-6009.6353 -97.722015 7124.4014 1024
-5967.2788 -97.722015 7124.4014 768
-5943.311 -98.025322 7146.5132 512
-5852.8184 -97.227859 7088.3745 1024
-5868.5288 -98.195885 7158.9482 1024
-5854.1802 -98.671417 7193.6167 768
-5811.4121 -98.671417 7193.6167 768
-5840.1147 -99.893906 7282.7422 1280
-5841.2285 -100.65923 7338.5381 463617
-5788.6626 -100.50407 7327.2266 200448
-5715.7764 -99.991096 7289.8276 2048
-5715.6401 -100.75267 7345.3501 1792
-5687.5718 -101.0298 7365.5547 1792
-5643.7812 -101.0298 7365.5547 66816
-5637.9697 -101.71497 7415.5068 1648396
-5608.627 -101.98309 7435.0532 332800
-5598.2495 -102.60303 7480.2505 727552
-5623.4702 -103.89058 7574.1187 133888
-5315.4023 -98.991859 7216.979 768
-5322.0283 -99.92186 7284.7803 1450763
-5476.0005 -103.65624 7557.0347 1792
-5431.0718 -103.65624 7557.0347 1280
-5386.1431 -103.65624 7557.0347 1536
-5582.0469 -108.33004 7897.7773 923910
-5537.2671 -108.37261 7900.8804 66816
-5362.9448 -105.85887 7717.6172 1055747
-5403.7788 -107.58537 7843.4858 1714189
-5280.375 -106.04357 7731.082 990213
-5234.4116 -106.04357 7731.082 1713936
-5236.6543 -107.02883 7802.9121 67328
-5242.2583 -108.10101 7881.0796 1792
-5136.0161 -106.86534 7790.9932 1792
-5148.5483 -108.10101 7881.0796 264960
-5188.7798 -109.94632 8015.6113 1252107
-5263.8086 -112.56999 8206.8896 67328
-5218.1431 -112.63748 8211.8096 594947
-5096.8125 -111.05754 8096.6245 660740
-5048.6758 -111.05754 8096.6245 2048
-5086.5845 -112.96854 8235.9453 133377
-5067.2534 -113.63307 8284.3926 68096
-4751.8672 -107.60648 7845.0249 1792
-4669.1724 -106.78192 7784.9116 1024
-4672.6094 -107.9304 7868.6406 1792
-4625.8281 -107.9304 7868.6406 1280
-4601.8887 -108.46878 7907.8916 1024
-4554.874 -108.46878 7907.8916 1024
-4507.8594 -108.46878 7907.8916 1024
-4403.187 -107.06679 7805.6797 1280
-4356.7798 -107.06679 7805.6797 1024
-4220.5146 -104.83476 7642.9546 67328
-4177.0718 -104.8849 7646.6099 199936
-4112.4414 -104.39828 7611.1328 1280
-4128.022 -105.95971 7724.9683 1024
-4082.095 -105.95971 7724.9683 1280
-3974.7358 -104.34696 7607.3911 1024
-3995.959 -106.11156 7736.0386 331520
-3929.7461 -105.56837 7696.4375 1280
-4091.2339 -111.20138 8107.1108 199424
-3916.9468 -107.73339 7854.2778 67840
-3930.8843 -109.4212 7977.3276 134144
-3883.457 -109.4212 7977.3276 1024
-3836.0295 -109.4212 7977.3276 1792
-3789.1653 -109.43747 7978.5137 200960
-3868.4038 -113.14237 8248.6191 463363
-3756.7441 -111.28738 8113.3809 1280
-3708.5078 -111.28738 8113.3809 1536
-3543.8381 -107.74732 7855.2939 1280
-3478.0332 -107.15877 7812.3848 2108945
-3507.6506 -109.53403 7985.5532 529154
-3734.4121 -118.2152 8618.4521 529153
-3469.2571 -111.34937 8117.8999 333312
-3460.032 -112.62 8210.5352 1792
-3372.7312 -111.34937 8117.8999 859392
-3467.2117 -116.13041 8466.4609 1517829
-3337.3096 -113.42616 8269.3076 1386247
-3322.8916 -114.62471 8356.6885 792070
-3238.9829 -113.42616 8269.3076 1536
-3131.271 -111.34425 8117.5269 1024
-3083.0103 -111.34425 8117.5269 1024
-3173.7683 -116.44482 8489.3828 1186816
-3197.9224 -119.22707 8692.2227 3423522
-3078.4695 -116.65873 8504.9775 1319426
-2929.8069 -112.87921 8229.4336 793345
-2740.6973 -107.38653 7828.9902 464384
-2722.0571 -108.49881 7910.0811 1536
-2852.929 -115.71439 8436.1309 134144
-2780.1533 -114.78049 8368.0449 2048
-2748.2588 -115.5311 8422.7686 529665
-2648.3711 -113.39825 8267.2734 1583364
-2599.22 -113.39825 8267.2734 2304
-2690.1448 -119.62726 8721.3975 1451776
-2520.1855 -114.27192 8330.9678 794112
-2446.1699 -113.13941 8248.4033 1123072
-2402.1143 -113.37463 8265.5508 924928
-2429.1074 -117.04305 8532.9961 1122560
-2389.5264 -117.59174 8572.999 399104
-2388.5837 -120.10725 8756.3916 793856
-2363.5803 -121.49803 8857.7861 2175243
-2284.4653 -120.10725 8756.3916 1122048
-2207.3416 -118.75874 8658.0781 1123328
-2187.2593 -120.48802 8784.1514 1517831
-2135.0349 -120.48802 8784.1514 1978385
-2164.0493 -125.18758 9126.7715 135680
-2043.7766 -121.27068 8841.2109 398081
-1979.9291 -120.58345 8791.1084 1122308
-1991.7494 -124.59229 9083.3721 135168
-1875.3979 -120.58345 8791.1084 2048
-1883.743 -124.59229 9083.3721 1536
-1711.0637 -116.51128 8494.2285 2048
-1671.2094 -117.25826 8548.6865 265984
-1620.385 -117.25826 8548.6865 2304
-1566.6566 -117.04131 8532.8691 1536
-1533.1484 -118.37099 8629.8096 530176
-1493.0919 -119.26965 8695.3262 727552
-1458.4191 -120.67826 8798.0205 1978123
-1523.1996 -130.72714 9530.6328 4150056
-1402.1195 -124.98495 9111.999 1320196
-1347.9462 -124.98495 9111.999 333824
-1293.7727 -124.98495 9111.999 1452039
-1225.1785 -123.53094 9005.9941 1254406
-1143.7169 -120.58737 8791.3945 398336
-1118.0922 -123.53094 9005.9941 659718
-1077.1709 -124.99559 9112.7744 1280
-1032.9966 -126.21789 9201.8857 768
-977.65607 -126.13625 9195.9346 858632
-948.28571 -129.59406 9448.0254 133377
-879.57056 -127.77184 9315.1768 1280
-824.18921 -127.77184 9315.1768 1280
-740.89172 -123.13232 8976.9336 1280
-693.43964 -124.19225 9054.208 397059
-644.30487 -125.10388 9120.6699 1536
-587.47809 -124.55225 9080.4541 1024
-536.57904 -125.27291 9132.9932 595201
-482.28085 -125.27291 9132.9932 1977105
-460.67514 -134.84219 9830.6387 1187845
-409.26419 -137.20056 10002.575 1320196
-339.77386 -133.26955 9715.9854 859648
-280.16422 -132.39746 9652.4062 2571281
-222.91736 -132.48027 9658.4443 1518850
-162.45787 -130.04886 9481.1826 1452295
-103.75871 -127.19157 9272.8721 2701845
-48.628902 -127.19157 9272.8721 1450507
6.7206531 -131.49104 9586.3242 461829
64.039856 -132.1635 9635.3496 768
123.30318 -134.31874 9792.4766 512
181.52217 -134.31874 9792.4766 512
238.44899 -133.59477 9739.6963 1024
301.8898 -136.09018 9921.624 199680
360.87662 -136.09018 9921.624 1055238
417.38467 -135.28676 9863.0498 792326
468.44489 -133.13297 9706.0283 134400
526.14996 -133.13297 9706.0283 1253128
592.01465 -134.99356 9841.6748 924422
654.84802 -135.89041 9907.0596 267264
731.25073 -139.22272 10150 1188360
783.41864 -137.78462 10045.156 858374
843.13989 -137.78462 10045.156 792836
898.46716 -137.11409 9996.2705 1280
952.09705 -136.28374 9935.7354 1280
1008.3235 -135.90042 9907.7891 1024
1067.2281 -135.90042 9907.7891 768
1161.8235 -140.20755 10221.799 1186826
1194.3784 -136.97166 9985.8877 264960
1253.7473 -136.97166 9985.8877 396544
1282.0963 -133.73598 9749.9902 1024
1338.8658 -133.61653 9741.2822 528386
1393.6449 -133.31657 9719.4141 133632
1465.3818 -134.59813 9812.8457 199680
1529.1091 -135.07401 9847.5391 1280
1587.6555 -135.07401 9847.5391 1280
1659.777 -136.18787 9928.7451 528640
1699.3704 -134.64789 9816.4736 768
1756.0901 -134.52211 9807.3037 463105
1776.8317 -131.73695 9604.252 2816
1875.824 -134.74619 9823.6406 1978127
1934.2281 -134.74619 9823.6406 1320197
1985.7864 -134.28325 9789.8896 69632
2042.9639 -134.21584 9784.9746 1536
2090.8003 -133.55547 9736.8301 134656
2239.9351 -139.22707 10150.317 792835
2300.4851 -139.2394 10151.216 1536
2330.2522 -137.43553 10019.706 266496
2386.1685 -137.22542 10004.388 1280
2415.4758 -135.5325 9880.9658 2048
2462.885 -134.91153 9835.6943 1280
2559.0227 -136.92673 9982.6113 462848
2592.9753 -135.5986 9885.7852 266240
2677.7217 -136.92673 9982.6113 69120
2682.2561 -134.18451 9782.6914 1253381
2825.4087 -138.34613 10086.093 1911310
2885.3733 -138.34613 10086.093 727552
2969.5776 -139.4847 10169.1 1056003
3030.0356 -139.4847 10169.1 1121542
3090.4937 -139.4847 10169.1 200705
3108.1968 -137.59203 10031.115 332032
3157.2009 -137.13017 9997.4443 1911059
3336.4268 -142.23692 10369.75 2635291
3328.7134 -139.33347 10158.074 2438930
3376.0459 -138.79654 10118.93 3097114
0 0 0 0
0 0 0 0
0 0 0 0
0 0 0 0
0 0 0 0
0 0 0 0
0 0 0 0
1374.6328 -49.462845 3606.0776 527109
1494.2029 -52.939632 3859.5518 329477
1513.9386 -52.827614 3851.3848 987662
1479.7784 -50.866287 3708.395 1382164
1440.2263 -48.779934 3556.29 4935243
1455.9285 -48.598316 3543.0491 7829626
1473.8927 -48.496307 3535.6123 10395554
1498.0573 -48.598316 3543.0491 9670802
1541.02 -49.29887 3594.1228 4276799
0 0 0 0
0 0 0 0
0 0 0 0
0 0 0 0
4786.335 -143.19229 10439.401 2048
4871.5537 -143.87611 10489.255 1255191
4933.915 -143.87611 10489.255 1452825
4697.0933 -135.26062 9861.1445 1387033
4755.7207 -135.26062 9861.1445 134405
5114.7524 -143.70059 10476.459 331270
5247.1172 -145.6458 10618.273 526340
5434.6538 -149.05798 10867.038 525313
5573.502 -151.07027 11013.743 4071714
6033.1523 -161.63025 11783.616 4202017
6306.7021 -167.0193 12176.504 1967622
6632.7368 -173.66023 12660.659 1904654
6451.4878 -167.0193 12176.504 1644307
6429.1733 -164.5947 11999.738 1579027
6441.7329 -163.10632 11891.229 1579541
6363.418 -159.37425 11619.144 1842713
6550.1475 -162.28922 11831.658 986892
6902.958 -169.21339 12336.464 855562
6949.3237 -168.55905 12288.759 263172
6590.1714 -158.1846 11532.412 0
6489.8872 -154.17346 11239.981 0
6556.7124 -154.17346 11239.981 256
6831.0142 -159.00284 11592.065 256
7018.124 -161.72646 11790.63 256
6967.8174 -158.97926 11590.347 256
7006.3564 -158.29315 11540.326 512
7101.4683 -158.88609 11583.554 768
6982.7109 -154.72855 11280.449 768
6885.0522 -151.11319 11016.872 768
6807.2241 -147.99709 10789.694 512
6752.6685 -145.44043 10603.302 256
6921.27 -147.69301 10767.525 512
6924.436 -146.40645 10673.729 256
6987.8945 -146.40645 10673.729 256
7051.3525 -146.40645 10673.729 256
7303.4844 -150.28893 10956.779 264196
7415.0747 -151.23627 11025.846 512
7588.1787 -153.41068 11184.37 1975069
8049.1011 -161.31558 11760.676 1515287
7542.9048 -149.86879 10926.15 512
7634.979 -150.40295 10965.093 922638
7700.1699 -150.40295 10965.093 396038
7765.3599 -150.40295 10965.093 1280
7774.752 -149.33121 10886.958 198915
7857.0176 -149.66531 10911.315 133122
7934.7817 -149.90892 10929.075 768
8330.6201 -156.10898 11381.09 512
8463.7695 -157.32626 11469.835 1909532
8723.4492 -160.85724 11727.26 256
8600.1523 -157.32626 11469.835 659209
8570.0566 -155.5424 11339.783 66817
8422.8359 -151.6772 11057.992 512
8704.8936 -155.5424 11339.783 0
8983.2705 -159.28293 11612.485 256
9587.2588 -168.69579 12298.728 0
9848.0547 -171.97311 12537.661 855564
11387.075 -197.35472 14388.102 3750712
10318.399 -177.49959 12940.567 1842202
10218.835 -174.48589 12720.854 5526353
10472.27 -177.49959 12940.567 987150
11122.494 -187.14569 13643.813 987149
9644.1924 -161.09708 11744.746 132098
9729.8564 -161.35976 11763.896 461577
9349.085 -153.93852 11222.853 791054
9366.0283 -153.12468 11163.52 462089
9390.4873 -152.44427 11113.915 725259
9335.2832 -150.48921 10971.381 1054480
9459.4072 -151.43205 11040.118 1054994
9826.2031 -156.21997 11389.181 3621177
10338.188 -163.23483 11900.598 1449753
12202.913 -191.36821 13951.655 1844766
13304.962 -207.24205 15108.935 4673863
12594.147 -194.85466 14205.834 2698790
13484.615 -207.24205 15108.935 4277823
12904.546 -197.01471 14363.312 592135
14520.828 -220.23325 16056.054 921353
14616.285 -220.23325 16056.054 1118476
14612.947 -218.75426 15948.229 1052685
14707.066 -218.74391 15947.475 921099
14801.879 -218.74391 15947.475 658184
14896.164 -218.73618 15946.91 1117452
15169.196 -221.33665 16136.498 591878
15267.091 -221.36508 16138.569 394756
15363.201 -221.3674 16138.739 131329
15459.417 -221.37119 16139.016 262914
15363.195 -218.63635 15939.634 394498
15457.962 -218.63635 15939.634 328707
0 0 0 0
0 0 0 0
0 0 0 0
0 0 0 0
0 0 0 0
-6257.8306 -54.213135 6976.1196 1280
-6530.0498 -56.948887 7328.1543 1280
-6521.8892 -57.259747 7368.1562 265984
-6344.3477 -56.07766 7216.0454 66816
-6285.5874 -55.936527 7197.8848 768
-6195.9292 -55.516609 7143.8501 1280
-6200.5366 -55.94136 7198.5068 1024
-6132.3955 -55.711121 7168.8794 330499
-6089.7744 -55.711121 7168.8794 660995
-6009.6353 -55.365467 7124.4014 595204
-5992.5161 -55.599628 7154.5327 2437658
-5907.0957 -55.198891 7102.9658 133632
-5864.8667 -55.198891 7102.9658 132864
-5896.9482 -55.903358 7193.6167 1280
-5854.1802 -55.903358 7193.6167 1024
-5831.6772 -56.098301 7218.7017 1280
-5864.9551 -56.836697 7313.7183 1536
-5841.2285 -57.029579 7338.5381 1024
-5789.4097 -56.94902 7328.1719 1280
-5745.8413 -56.94902 7328.1719 1280
-5722.854 -57.15456 7354.6206 1280
-5775.7124 -58.126575 7479.6992 1536
-5685.6567 -57.664234 7420.2056 134400
-5641.542 -57.664234 7420.2056 331776
-5608.627 -57.779621 7435.0532 660486
-5598.2495 -58.130859 7480.2505 1024
-5515.0488 -57.725494 7428.0879 1024
-5428.4507 -57.277733 7370.4707 133120
-5322.0283 -56.611813 7284.7803 331776
-5402.8604 -57.943176 7456.0996 133888
-5351.1816 -57.863697 7445.8721 2560
-5386.1431 -58.72757 7557.0347 331264
-5341.2646 -58.728123 7557.106 1187333
-5408.8286 -59.975498 7717.6172 1779728
-5362.9448 -59.975498 7717.6172 133888
-5350.6021 -60.353828 7766.3008 67328
-5280.375 -60.080132 7731.082 989959
-5234.4116 -60.080132 7731.082 768
-5257.3105 -60.877529 7833.6909 134400
-5257.9375 -61.428986 7904.6514 660997
-5164.1636 -60.877529 7833.6909 134400
-5163.9473 -61.428986 7904.6514 68608
-5188.7798 -62.291283 8015.6113 265729
-5401.5835 -65.447067 8421.6963 661762
-5218.1431 -63.815987 8211.8096 2044178
-5166.2241 -63.777752 8206.8896 662531
-5120.5 -63.815987 8211.8096 1583118
-5108.1377 -64.27475 8270.8428 67585
-4887.8096 -62.100197 7991.0225 1280
-4751.8672 -60.965614 7845.0249 768
-4705.2266 -60.965614 7845.0249 1024
-4689.5444 -61.370762 7897.1592 768
-4642.5938 -61.370762 7897.1592 1024
-4601.8887 -61.454166 7907.8916 1024
-4591.8188 -61.952621 7972.0332 1024
-4597.2803 -62.673206 8064.7578 1024
-4531.8164 -62.4319 8033.7061 1280
-4448.897 -61.94241 7970.7188 1280
-4337.3071 -61.038895 7854.4551 1536
-4224.8267 -60.103046 7734.0308 1536
-4173.4766 -60.025822 7724.0938 1280
-4127.5547 -60.025822 7724.0938 768
-4021.9409 -59.147976 7611.1328 1280
-3949.2017 -58.739117 7558.5205 1280
-3995.959 -60.118656 7736.0386 1024
-3929.7461 -59.810905 7696.4375 199425
-3962.3369 -61.017414 7851.6909 199680
-3916.9468 -61.037518 7854.2778 1792
-3921.7429 -61.849602 7958.7764 68352
-3874.426 -61.849602 7958.7764 1792
-3829.7473 -61.892246 7964.2637 1536
-3784.7693 -61.931057 7969.2578 1280
-3868.4038 -64.102043 8248.6191 1024
-3737.2231 -62.723442 8071.2217 1536
-3662.1016 -62.262089 8011.855 67328
-3563.0552 -61.376446 7897.8911 1450762
-3516.1001 -61.376446 7897.8911 1582857
-3529.1179 -62.4375 8034.4263 990977
-3644.6201 -65.365707 8411.2266 1846025
-3529.8611 -64.188232 8259.71 1792
-3480.7549 -64.188232 8259.71 990208
-3441.3923 -64.370483 8283.1621 266752
-3392.1465 -64.370483 8283.1621 69888
-3383.5508 -65.153229 8383.8857 1780746
-3333.7061 -65.153229 8383.8857 990213
-3130.5012 -62.110493 7992.3477 2306835
-3076.1211 -61.972221 7974.5552 1516811
-3008.9338 -61.567566 7922.4844 463616
-3160.5935 -65.699219 8454.1426 1187584
-3110.3315 -65.699219 8454.1426 3951147
-3060.0691 -65.699219 8454.1426 1536
-2921.8245 -63.778698 8207.0117 2304
-2872.7766 -63.773037 8206.2832 1536
-2694.1519 -60.841 7828.9902 1280
-2765.1948 -63.54314 8176.7002 1536
-2743.9297 -64.182831 8259.0146 1253387
-2748.2588 -65.455399 8422.7686 924674
-2645.7253 -64.182831 8259.0146 333056
-2538.4724 -62.745464 8074.0552 199680
-2556.9458 -64.42028 8289.5693 662018
-2520.1855 -64.741989 8330.9678 463360
-2415.3181 -63.291904 8144.3716 397824
-2425.3142 -64.853996 8345.3809 1792
-2375.6987 -64.853996 8345.3809 200960
-2389.5264 -66.622879 8572.999 332544
-2344.8481 -66.802086 8596.0596 332800
-2344.0396 -68.266922 8784.5547 1254147
-2212.1096 -65.892776 8479.0508 1122305
-2136.4514 -65.123177 8380.0186 792834
-2155.8667 -67.28405 8658.0781 793089
-2135.0349 -68.263794 8784.1514 1280
-2096.3401 -68.707222 8841.2109 594436
-2038.4735 -68.528938 8818.2705 859392
-2000.8657 -69.040283 8884.0693 662018
-1991.7494 -70.589111 9083.3721 728064
-1895.2291 -69.040283 8884.0693 266240
-1819.1891 -68.17009 8772.0938 1536
-1711.0637 -66.010735 8494.2285 2048
-1702.7097 -67.686142 8709.8193 2048
-1650.9275 -67.686142 8709.8193 1280
-1584.4551 -67.064362 8629.8096 1280
-1579.163 -69.077171 8888.8164 1280
-1540.9585 -69.73983 8974.0869 1280
-1458.4191 -68.371574 8798.0205 1280
-1406.1124 -68.371574 8798.0205 529664
-1342.052 -67.777977 8721.6367 1055492
-1343.1705 -70.560707 9079.7168 1536
-1269.8811 -69.503922 8943.7305 200704
-1212.7751 -69.279251 8914.8203 1452291
-1106.1027 -66.073196 8502.2656 2440458
-1086.3202 -67.999008 8750.0781 1914881
-1042.8252 -68.559578 8822.2129 4480291
-990.37476 -68.559578 8822.2129 991745
-874.5874 -63.92984 8226.46 2504978
-882.76831 -68.350105 8795.2578 792322
-844.99249 -69.544678 8948.9746 660995
-794.26208 -69.761955 8976.9336 1024
-740.89172 -69.761955 8976.9336 768
-679.43402 -68.941345 8871.3379 1024
-639.60986 -70.362465 9054.208 1280
-578.41168 -69.477402 8940.3174 1024
-553.32245 -73.18943 9417.9795 924423
-490.27789 -72.151611 9284.4336 529666
-449.03638 -74.466179 9582.2715 1253639
-392.06708 -74.466179 9582.2715 727296
-335.09781 -74.466179 9582.2715 200448
-277.28799 -74.241135 9553.3125 68864
-221.76994 -74.671799 9608.7305 266752
-162.45787 -73.680595 9481.1826 2438166
-103.75871 -72.06176 9272.8721 332800
-48.628902 -72.06176 9272.8721 1451528
6.5423846 -72.521584 9332.042 1319434
62.727993 -73.344765 9437.9678 1582351
123.33894 -76.121811 9795.3174 1024
180.54379 -75.689568 9739.6963 198400
238.06081 -75.566353 9723.8408 1024
298.06592 -76.126747 9795.9521 1792
358.74609 -76.648178 9863.0498 2048
410.73987 -75.427925 9706.0283 67840
464.06757 -74.723106 9615.332 923909
516.86597 -74.096992 9534.7646 330496
586.46936 -75.765671 9749.4893 332032
636.25702 -74.804459 9625.8008 3840
700.94098 -75.608704 9729.291 1255684
758.78436 -75.608704 9729.291 2769689
816.62762 -75.608704 9729.291 1584651
886.11121 -76.615143 9858.7988 199937
954.08917 -77.374596 9956.5244 1280
1002.8193 -76.575546 9853.7031 1024
1014.0799 -73.161438 9414.3779 1536
1161.2128 -79.394341 10216.425 1712914
1184.9307 -76.98893 9906.8975 1024
1255.3407 -77.701408 9998.5791 768
1310.5255 -77.449684 9966.1865 768
1369.7772 -77.449684 9966.1865 67072
1393.6449 -75.531952 9719.4141 1582090
1465.3818 -76.258026 9812.8457 463360
1523.6442 -76.254135 9812.3447 265984
1581.9813 -76.254135 9812.3447 200192
1684.521 -78.308998 10076.764 1280
1744.4303 -78.308998 10076.764 463872
1801.3025 -78.177193 10059.803 200448
1814.3973 -76.214958 9807.3037 1792
1923.5898 -78.285889 10073.789 594690
1983.4812 -78.285889 10073.789 2560
2020.9434 -77.426567 9963.2129 1792
2084.0889 -77.572159 9981.9473 2560
2124.7546 -76.896133 9894.9561 859139
2236.6472 -78.764824 10135.419 991236
2300.2817 -78.880608 10150.317 1536
2357.1631 -78.764824 10135.419 1792
2376.4065 -77.428482 9963.459 1280
2415.4758 -76.787407 9880.9658 1280
2438.6946 -75.684837 9739.0879 1280
2521.3608 -76.435593 9835.6943 1024
2554.4978 -75.684837 9739.0879 2816
2653.9465 -76.888519 9893.9766 69120
2668.2874 -75.627769 9731.7441 1056259
2771.8669 -76.896164 9894.9609 1056260
2830.6953 -76.896164 9894.9609 595712
2954.2068 -78.617523 10116.464 1056771
2938.6438 -76.642967 9862.3799 1319940
3048.5588 -77.954254 10031.115 991746
3152.2498 -79.059113 10173.288 1649927
3207.928 -78.94088 10158.074 2307601
3319.5605 -80.178497 10317.33 3688999
3315.886 -78.636681 10118.93 1122310
3109.3308 -72.42421 9319.5117 662016
0 0 0 0
0 0 0 0
0 0 0 0
0 0 0 0
0 0 0 0
0 0 0 0
0 0 0 0
1374.6328 -28.023714 3606.0776 527366
1440.2241 -28.909992 3720.1235 790028
1513.9386 -29.930056 3851.3848 1382164
1479.7784 -28.818846 3708.395 2172710
1426.9041 -27.381159 3523.394 6448746
1449.9847 -27.421499 3528.585 10922670
1437.2036 -26.792156 3447.6016 12435910
1457.7004 -26.792156 3447.6016 11646137
1496.7692 -27.128767 3490.9163 12370884
1487.4814 -26.591703 3421.8071 0
0 0 0 0
0 0 0 0
0 0 0 0
0 0 0 0
0 0 0 0
3682.554 -60.840488 7828.9238 1323289
4674.9038 -76.271347 9814.5596 1256470
4733.2544 -76.271347 9814.5596 927505
5001.084 -79.605789 10243.634 1057809
5177.0386 -81.415131 10476.459 1252877
5310.2456 -82.517204 10618.273 723715
5573.502 -85.5905 11013.743 2101006
5676.7485 -86.163742 11087.508 3939871
6304.2617 -94.589989 12171.793 4663851
6379.0947 -94.626595 12176.504 3283482
6357.8315 -93.252907 11999.738 2365209
6213.5142 -90.124847 11597.221 1838608
6212.2192 -89.117172 11467.554 1115141
6265.5503 -88.906502 11440.445 524545
6396.5049 -89.789986 11554.131 327680
6465.1973 -89.789986 11554.131 393216
6360.4824 -87.406982 11247.487 327680
6427.3521 -87.406982 11247.487 131072
6491.5684 -87.371284 11242.894 0
6556.7124 -87.348648 11239.981 0
6887.293 -90.826958 11687.568 0
7120.1143 -92.959457 11961.977 0
6968.8501 -90.084785 11592.065 256
6878.2388 -88.04277 11329.301 256
7092.8989 -89.910011 11569.576 256
7147.9771 -89.737938 11547.434 256
7049.7764 -87.663132 11280.449 256
6890.8867 -84.87989 10922.303 256
6872.6523 -83.864983 10791.705 256
6921.27 -83.677078 10767.525 256
6924.436 -82.948166 10673.729 256
6987.8945 -82.948166 10673.729 256
7121.9478 -83.778595 10780.589 256
7194.3384 -83.875328 10793.036 256
7368.6265 -85.14782 10956.779 512
7629.2383 -87.386787 11244.889 66305
7438.2754 -84.459351 10868.188 768
7466.0747 -84.044922 10814.859 198658
7704.5845 -85.989281 11065.058 857100
7770.3696 -85.989281 11065.058 791307
7765.3599 -85.212425 10965.093 988686
7755.2739 -84.393257 10859.683 1185808
7839.478 -84.605217 10886.958 1251600
7934.7817 -84.932526 10929.075 1974556
8076.2148 -85.744255 11033.528 725001
8393.1816 -88.391518 11374.177 987404
8242.9434 -86.115479 11081.298 263682
8373.9844 -86.790817 11168.199 0
8230.792 -84.635635 10890.872 66305
8299.3359 -84.674347 10895.854 256
8664.5225 -87.715538 11287.192 526857
8833.7842 -88.741776 11419.248 256
9043.6826 -90.157463 11601.418 256
9599.5479 -94.974594 12221.284 256
11387.075 -111.81346 14388.102 2302755
11472.617 -111.81346 14388.102 6908265
11991.547 -116.00606 14927.603 7434352
10472.27 -100.56432 12940.567 3026219
9102.709 -86.77504 11166.17 10395548
9709.0059 -91.884689 11823.677 4404534
11997.267 -112.72433 14505.311 460804
9849.5957 -91.884689 11823.677 1777178
10844.131 -100.44562 12925.293 1776922
10678.002 -98.210876 12637.728 658441
9479.916 -86.582253 11141.361 1381906
9522.6377 -86.368958 11113.915 1381906
9623.4834 -86.682144 11154.216 2696995
11302.5 -101.10892 13010.646 1841943
11640.655 -103.42613 13308.823 1643794
11396.453 -100.5728 12941.658 1380621
10574.051 -92.689377 11927.224 1643540
10542.396 -91.796303 11812.303 1643283
11137.394 -96.335426 12396.396 2102808
14221.776 -122.20583 15725.385 1840148
13673.562 -116.72774 15020.468 1576977
13735.714 -116.49747 14990.838 1839635
13824.838 -116.49747 14990.838 2168857
14578.283 -122.05963 15706.573 2037271
14893.524 -123.90538 15944.083 1707793
14990.974 -123.92735 15946.91 2037271
15265.811 -125.40625 16137.215 2103064
15361.752 -125.40627 16137.216 1247755
15457.692 -125.40627 16137.216 1971992
15363.195 -123.8708 15939.634 1577233
15457.962 -123.8708 15939.634 1446674
0 0 0 0
0 0 0 0
0 0 0 0
0 0 0 0
0 0 0 0
-6413.9155 -13.055883 7150.1206 1280
-6558.7959 -13.439872 7360.4141 1280
-6515.0366 -13.439872 7360.4141 1187847
-6471.4189 -13.440166 7360.5757 266496
-6343.1284 -13.263415 7263.7769 924930
-6243.3335 -13.144236 7198.5068 1451528
-6250.832 -13.250854 7256.8975 1122306
-6195.4971 -13.224832 7242.646 924930
-6119.0962 -13.153163 7203.3965 990720
-6059.6665 -13.117222 7183.7134 1188097
-6043.2788 -13.174603 7215.1387 1319684
-5974.248 -13.117222 7183.7134 924418
-5988.3911 -13.242948 7252.5674 595458
-5978.6396 -13.317271 7293.271 1280
-5920.0371 -13.283072 7274.542 1024
-5876.7881 -13.283072 7274.542 68608
-5864.9551 -13.354608 7313.7183 331776
-5841.2285 -13.399927 7338.5381 594947
-5852.1265 -13.525957 7407.5586 1024
-5812.1143 -13.535336 7412.6953 1280
-5831.1748 -13.68348 7493.8271 1280
-5837.5049 -13.803802 7559.7222 1280
-5742.0688 -13.68348 7493.8271 1280
-5641.542 -13.549049 7420.2056 2048
-5593.8823 -13.54047 7415.5068 1714188
-5630.2803 -13.736838 7523.0493 727552
-5472.27 -13.458235 7370.4707 925440
-5470.8867 -13.563443 7428.0879 1188355
-5447.189 -13.61459 7456.0996 2372626
-5395.4492 -13.595916 7445.8721 595713
-5302.4517 -13.472105 7378.0669 1385480
-5448.3701 -13.958316 7644.3428 661504
-5402.9224 -13.958316 7644.3428 68608
-5408.8286 -14.092113 7717.6172 1384457
-5325.9043 -13.994781 7664.313 529664
-5317.062 -14.092113 7717.6172 397824
-5271.7866 -14.09374 7718.5078 331008
-5283.0449 -14.247858 7802.9121 661252
-5236.6543 -14.247858 7802.9121 1024
-5210.7368 -14.30406 7833.6909 1280
-5125.3628 -14.196586 7774.8325 1024
-5236.4351 -14.63624 8015.6113 134656
-5216.8071 -14.715299 8058.9077 1792
-5401.5835 -15.377738 8421.6963 726791
-5366.519 -15.420855 8445.3096 2043919
-5169.3213 -14.994492 8211.8096 1123073
-5120.5 -14.994492 8211.8096 793601
-5108.1377 -15.102284 8270.8428 793348
-4912.9312 -14.666335 8032.0933 1792
-4805.9692 -14.487846 7934.3428 1024
-4705.2266 -14.324755 7845.0249 768
-4689.5444 -14.41995 7897.1592 512
-4572.8672 -14.203381 7778.5532 1024
-4601.8887 -14.439548 7907.8916 199169
-4718.6514 -14.958744 8192.2324 1450256
-4669.9468 -14.958744 8192.2324 595460
-4621.2412 -14.958744 8192.2324 2048
-4410.0347 -14.427131 7901.0918 265472
-4336.4512 -14.339144 7852.9048 1024
-4289.7637 -14.339144 7852.9048 1024
-4219.5737 -14.259721 7809.4087 67840
-4127.5547 -14.103939 7724.0938 133376
-4081.6328 -14.103939 7724.0938 67584
-3974.7358 -13.890843 7607.3911 1536
-4026.2361 -14.23278 7794.6543 726788
-3979.895 -14.23278 7794.6543 67072
-3933.6265 -14.233045 7794.7988 2048
-3916.9468 -14.341652 7854.2778 133888
-3931.5542 -14.568817 7978.687 1280
-3880.0017 -14.553375 7970.2295 1280
-3829.7473 -14.542481 7964.2637 1536
-3856.5706 -14.82766 8120.4429 200704
-3868.4038 -15.061706 8248.6191 1536
-3737.2231 -14.737783 8071.2217 2304
-3662.1016 -14.629382 8011.855 1253639
-3563.0552 -14.421288 7897.8911 727809
-3576.885 -14.670595 8034.4263 1583368
-3529.1179 -14.670595 8034.4263 1583367
-3644.6201 -15.358621 8411.2266 528640
-3559.4958 -15.208576 8329.0537 859395
-3509.9771 -15.208576 8329.0537 1649156
-3564.3154 -15.665022 8579.0283 530688
-3513.3105 -15.665022 8579.0283 2176012
-3483.5994 -15.761362 8631.79 1055494
-3288.1462 -15.099482 8269.3076 2374414
-3123.5322 -14.561273 7974.5552 1979401
-3056.0352 -14.466193 7922.4844 2571791
-3035.4675 -14.593761 7992.3477 1453063
-3073.9011 -15.013559 8222.252 1846028
-3041.8157 -15.096931 8267.9111 200704
-2992.6606 -15.096931 8267.9111 1024
-2921.8245 -14.985731 8207.0117 1024
-2872.7766 -14.984401 8206.2832 1024
-2654.4448 -14.084786 7713.605 1280
-2608.5854 -14.084786 7713.605 1536
-2743.9297 -15.080687 8259.0146 1319432
-2730.4031 -15.279773 8368.0449 1254147
-2645.7253 -15.080687 8259.0146 68096
-2582.0525 -14.996061 8212.6689 662016
-2533.2256 -14.996061 8212.6689 1536
-2514.4358 -15.177365 8311.9609 266752
-2428.3479 -14.95158 8188.3081 793600
-2415.6018 -15.177365 8311.9609 332288
-2370.8945 -15.207574 8328.5049 200448
-2362.5017 -15.476972 8476.042 1536
-2312.9302 -15.482466 8479.0508 266496
-2293.7422 -15.696119 8596.0596 793346
-2291.8127 -16.040306 8784.5547 595712
-2090.4766 -14.972356 8199.6865 924928
-2109.448 -15.468966 8471.6572 595712
-2143.8164 -16.105541 8820.2812 331009
-2091.3774 -16.105541 8820.2812 2438937
-2038.4735 -16.10187 8818.2705 68608
-2050.2053 -16.622036 9103.1426 1057537
-1996.0846 -16.622036 9103.1426 2044431
-1907.5171 -16.327192 8941.6699 1536
-1812.05 -15.954696 8737.6699 1536
-1760.1023 -15.954696 8737.6699 1280
-1702.7097 -15.903842 8709.8193 1280
-1650.9275 -15.903842 8709.8193 1280
-1601.6106 -15.928362 8723.248 1024
-1587.9058 -16.320543 8938.0283 1024
-1544.5341 -16.424408 8994.9102 1024
-1548.9664 -17.062298 9344.2539 331010
-1443.4976 -16.492022 9031.9395 332032
-1342.4141 -15.929714 8723.9893 68352
-1305.0662 -16.108923 8822.1338 792576
-1265.7762 -16.278166 8914.8203 1386242
-1185.6752 -15.914423 8715.6143 465408
-1106.1027 -15.524855 8502.2656 1847814
-1055.5543 -15.524855 8502.2656 795392
-1042.8252 -16.109068 8822.2129 1518594
-990.37476 -16.109068 8822.2129 3426330
-874.5874 -15.021243 8226.46 2833936
-865.54773 -15.746562 8623.6846 1122304
-822.8017 -15.911404 8713.9609 1648903
-778.18781 -16.059849 8795.2578 1846029
-742.70526 -16.431705 8998.9072 1582860
-689.20422 -16.431705 8998.9072 660739
-630.10468 -16.286995 8919.6553 133120
-573.47418 -16.185369 8864 199680
-553.32245 -17.196918 9417.9795 529152
-497.32996 -17.196918 9417.9795 464384
-436.4819 -17.007719 9314.3643 530176
-381.10541 -17.007719 9314.3643 2174991
-328.11197 -17.132149 9382.5078 530432
-264.78125 -16.65724 9122.4219 201216
-215.64452 -17.060612 9343.3311 464640
-160.09581 -17.060612 9343.3311 2175247
-104.231 -17.009029 9315.0811 2242580
-49.494698 -17.233416 9437.9678 860928
6.5543079 -17.071054 9349.0498 1714699
62.727993 -17.233416 9437.9678 1714190
125.00156 -18.127028 9927.3584 1280
184.02248 -18.127028 9927.3584 988937
238.24796 -17.769367 9731.4844 528644
298.06592 -17.887083 9795.9521 1792
356.3056 -17.887083 9795.9521 68352
409.70557 -17.678259 9681.5879 67328
460.17914 -17.410164 9534.7646 68096
516.86597 -17.410164 9534.7646 396800
579.02893 -17.576393 9625.8008 397312
634.5556 -17.529392 9600.0605 68096
691.63068 -17.529392 9600.0605 332800
705.13269 -16.50922 9041.3584 70144
797.25104 -17.343832 9498.4375 1780747
853.72192 -17.343832 9498.4375 529920
944.23627 -17.992537 9853.7031 1280
1004.5099 -18.022871 9870.3164 1024
1063.1918 -18.022871 9870.3164 1024
1140.4148 -18.320736 10033.443 1024
1191.0389 -18.182919 9957.9678 1024
1253.7473 -18.2339 9985.8877 768
1303.2452 -18.096832 9910.8223 512
1362.1678 -18.096832 9910.8223 265217
1393.2926 -17.742842 9716.957 1318406
1465.3818 -17.917931 9812.8457 594688
1523.722 -17.917931 9812.8457 857603
1587.6555 -17.981279 9847.5391 792832
1684.521 -18.399837 10076.764 134144
1733.9543 -18.289337 10016.249 134144
1765.4164 -18.002916 9859.3887 529408
1824.0331 -18.002916 9859.3887 2048
1933.5551 -18.489698 10125.977 332288
1985.2729 -18.41102 10082.889 67840
1997.1274 -17.978106 9845.8008 1792
2084.0889 -18.226706 9981.9473 333056
2124.7546 -18.067862 9894.9561 2109714
2236.6472 -18.506939 10135.419 1517322
2296.9053 -18.506939 10135.419 69120
2360.6282 -18.534142 10150.317 2048
2405.3616 -18.414616 10084.857 1024
2414.5415 -18.035334 9877.1426 1280
2420.9182 -17.653625 9668.0977 1536
2520.4937 -17.953474 9832.3115 68864
2554.4978 -17.783253 9739.0879 1792
2662.303 -18.122961 9925.1309 133888
2718.6553 -18.105274 9915.4453 1536
2785.0908 -18.154068 9942.167 792321
2875.2097 -18.351999 10050.565 2306836
3025.8823 -18.920506 10361.911 859393
2964.5725 -18.167273 9949.3994 2636823
3031.3901 -18.213331 9974.623 1124099
3108.1968 -18.316484 10031.115 1650439
3193.073 -18.462414 10111.035 2110735
3196.3477 -18.139847 9934.3789 2373906
3053.9236 -17.01712 9319.5117 3227938
0 0 0 0
0 0 0 0
0 0 0 0
0 0 0 0
0 0 0 0
0 0 0 0
0 0 0 0
0 0 0 0
1418.1069 -6.7928224 3720.1235 856330
1486.2932 -7.0101075 3839.1208 658441
1513.9386 -7.0325007 3851.3848 724235
1488.3082 -6.8104391 3729.7715 1777180
1429.0063 -6.4430795 3528.585 4474956
1449.9847 -6.4430795 3528.585 11448499
1458.6586 -6.3891835 3499.0686 12369861
1473.392 -6.3629713 3484.7134 12106694
1494.1096 -6.3629713 3484.7134 9277597
1505.197 -6.3225203 3462.5603 11712445
0 0 0 0
0 0 0 0
0 0 0 0
0 0 0 0
0 0 0 0
3305.6357 -12.832191 7027.6147 400392
3626.1702 -13.900783 7612.8335 794381
4692.417 -17.766443 9729.8828 529415
4955.5762 -18.53433 10150.42 199684
5061.9858 -18.704535 10243.634 256
5122.8867 -18.704535 10243.634 196608
5561.7817 -20.068439 10990.583 589824
5676.7485 -20.245422 11087.508 3941413
6306.7021 -22.233892 12176.504 3480350
6398.9053 -22.30294 12214.318 720896
6451.4878 -22.233892 12176.504 524288
5974.7769 -20.362505 11151.63 458752
6041.0767 -20.362505 11151.63 1442821
6203.8569 -20.684181 11327.797 2626324
6283.4077 -20.724434 11349.842 3547684
6401.5835 -20.889874 11440.445 524803
6345.8794 -20.490385 11221.664 393216
6424.7266 -20.52915 11242.894 131072
6537.8125 -20.675392 11322.983 65536
6758.2632 -21.154728 11585.494 0
6949.3765 -21.533485 11792.923 0
7259.2153 -22.268888 12195.67 0
7191.2319 -21.842173 11961.977 512
6837.5078 -20.564426 11262.212 256
6904.4648 -20.564426 11262.212 256
7006.4614 -20.667786 11318.817 256
7022.7397 -20.518732 11237.188 256
6935.0859 -20.071686 10992.36 256
6913.686 -19.822947 10856.138 256
6952.5269 -19.749935 10816.152 256
6809.2036 -19.165535 10496.103 256
6771.1851 -18.885452 10342.714 256
7121.9478 -19.684998 10780.589 256
7303.4844 -20.006716 10956.779 256
7385.0068 -20.051191 10981.137 256
7450.293 -20.051191 10981.137 256
7444.104 -19.8605 10876.703 659209
7466.0747 -19.747574 10814.859 395781
7423.042 -19.466114 10660.716 256
7450.1338 -19.371756 10609.04 329476
7513.207 -19.371756 10609.04 791307
7576.2812 -19.371756 10609.04 659464
7838.354 -19.876373 10885.396 1712407
7903.0703 -19.876373 10885.396 2304030
7847.3604 -19.575956 10720.872 329731
8025.2676 -19.858467 10875.59 461061
8089.9253 -19.858467 10875.59 65792
8128.4106 -19.794727 10840.683 0
8003.1411 -19.336346 10589.647 0
8255.1436 -19.789526 10837.835 0
8319.5771 -19.789526 10837.835 0
8731.6279 -20.610039 11287.192 0
8621.3369 -20.194506 11059.624 0
8920.8252 -20.737864 11357.196 263171
9347.957 -21.567553 11811.579 131585
11472.617 -26.272196 14388.102 3486772
12604.915 -28.651522 15691.15 6513763
10330.576 -23.30934 12765.478 7630960
9102.709 -20.389057 11166.17 9012101
10297.783 -22.898888 12540.692 9667721
12472.831 -27.536114 15080.293 852486
13314.424 -29.184309 15982.935 1315346
13212.87 -28.756477 15748.631 1446674
11764.339 -25.423737 13923.438 2170909
9940.7998 -21.332808 11683.02 2433567
9758.4902 -20.796267 11389.181 2564896
9826.2031 -20.796267 11389.181 2498845
10796.381 -22.693184 12428.037 2696225
10628.847 -22.18918 12152.018 2959654
10503.14 -21.778715 11927.224 2630432
10574.051 -21.778715 11927.224 2104088
11063.694 -22.635408 12396.396 2235160
11433.905 -23.238029 12726.425 2300443
12947.444 -26.14113 14316.323 2892323
13392.221 -26.862553 14711.414 2957859
13479.685 -26.862553 14711.414 3023139
13675.26 -27.076609 14828.643 3023396
13860.681 -27.267952 14933.432 3483177
14893.004 -29.112352 15943.527 3088419
15168.203 -29.462782 16135.442 3088162
15265.49 -29.465401 16136.876 3680300
15361.751 -29.466019 16137.215 3548714
15457.691 -29.466019 16137.215 3483175
15358.745 -29.096811 15935.017 3351333
15453.483 -29.096811 15935.017 3285796
0 0 0 0
0 0 0 0
0 0 0 0
0 0 0 0
0 0 0 0
-6413.9155 29.453573 7150.1206 1024
-6558.7959 30.319839 7360.4141 199936
-6515.0366 30.319839 7360.4141 266496
-6527.6133 30.58379 7424.4907 463872
-6427.6582 30.320505 7360.5757 1648139
-6299.9434 29.921759 7263.7769 727298
-6250.832 29.893419 7256.8975 1714187
-6182.2246 29.770798 7227.1299 1121792
-6088.6353 29.525324 7167.5381 727552
-6059.6665 29.591951 7183.7134 265216
-6043.2788 29.721405 7215.1387 529920
-5970.4927 29.573351 7179.1973 1582605
-5988.3911 29.875584 7252.5674 397056
-6008.8765 30.195198 7330.1567 1792
-5935.2793 30.043257 7293.271 1280
-6014.4312 30.667955 7444.9224 198912
-5970.1689 30.667955 7444.9224 1384462
-5845.1011 30.249765 7343.4033 768
-5856.1846 30.535202 7412.6953 1280
-5838.7446 30.67511 7446.6597 1280
-5831.1748 30.86941 7493.8271 1280
-5837.5049 31.140852 7559.7222 1280
-5800.0791 31.181273 7569.5347 1280
-5725.8779 31.023075 7531.1309 1792
-5507.4976 30.075058 7300.9917 68352
-5609.688 30.87644 7495.5342 332289
-5472.27 30.361265 7370.4707 464128
-5540.8271 30.989784 7523.0493 858886
-5448.2886 30.720196 7457.6045 2043663
-5395.4492 30.671865 7445.8721 2964766
-5292.7168 30.336758 7364.5215 398848
-5288.2129 30.563782 7419.6338 661509
-5341.2646 31.130072 7557.106 1253381
-5296.3354 31.130072 7557.106 68352
-5303.6279 31.43964 7632.2559 200448
-5280.3379 31.571692 7664.313 1792
-5271.7866 31.794939 7718.5078 68608
-5285.2812 32.156231 7806.2148 1121545
-5171.6128 31.743401 7705.9966 858117
-5210.7368 32.269413 7833.6909 2048
-5091.2939 31.81407 7723.1523 1536
-5304.9463 33.450802 8120.4844 463620
-5034.2266 32.035297 7776.8574 200448
-5168.895 33.197151 8058.9077 1122055
-5279.1206 34.222294 8307.7705 595712
-5206.4829 34.070179 8270.8428 67840
-5180.3364 34.222294 8307.7705 200448
-5108.1377 34.070179 8270.8428 199680
-5038.77 33.93417 8237.8262 331265
-4840.3008 32.917511 7991.0225 1024
-4697.269 32.261448 7831.7573 512
-4650.707 32.261448 7831.7573 768
-4572.8672 32.042282 7778.5532 1024
-4639.2148 32.839287 7972.0332 2898212
-4718.6514 33.746357 8192.2324 330755
-4669.9468 33.746357 8192.2324 3328
-4810.1743 35.12603 8527.1602 1319435
-4442.6553 32.787807 7959.5356 2504212
-4328.7871 32.291389 7839.0264 1188609
-4289.7637 32.34856 7852.9048 859393
-4219.5737 32.169388 7809.4087 2636050
-4127.5547 31.817947 7724.0938 1583365
-4081.6328 31.817947 7724.0938 1385730
-4067.9036 32.071758 7785.7085 859137
-4026.2361 32.108608 7794.6543 530432
-3979.895 32.108608 7794.6543 1055749
-3933.6265 32.109207 7794.7988 1056007
-4059.7686 33.533936 8140.665 133888
-3970.572 33.192875 8057.8696 2048
-3922.6658 33.192875 8057.8696 1280
-3882.5305 33.259449 8074.0308 1536
-3867.1272 33.542198 8142.6709 1536
-3928.02 34.502277 8375.7393 1280
-3766.0415 33.504257 8133.4604 3072
-3717.6858 33.504257 8133.4604 1280
-3563.0552 32.533871 7897.8911 2108947
-3707.8186 34.307808 8328.5303 397824
-3650.2214 34.232021 8310.1318 1536
-3609.0144 34.309967 8329.0537 1188868
-3539.1455 34.113811 8281.4346 662272
-3489.9099 34.113811 8281.4346 464384
-3441.3474 34.120483 8283.0547 332544
-3392.1465 34.120926 8283.1621 530944
-3457.6929 35.292603 8567.5977 2504978
-3098.1731 32.09581 7791.5469 1057282
-3085.4353 32.44902 7877.2925 1912587
-3038.6028 32.44902 7877.2925 858882
-3061.8823 33.209465 8061.8975 727297
-3073.9011 33.870018 8222.252 1451272
-3102.4236 34.736706 8432.6484 68608
-2923.6147 33.272324 8077.1562 1536
-2921.8245 33.80724 8207.0117 1280
-2873.0315 33.80724 8207.0117 1280
-2774.7463 33.214798 8063.1914 1536
-2649.0989 32.268227 7833.4033 1536
-2707.2495 33.566666 8148.6104 134656
-2726.6292 34.422939 8356.4785 661762
-2688.0122 34.56522 8391.0186 266240
-2606.2297 34.14732 8289.5693 1792
-2533.2256 33.83054 8212.6689 2304
-2498.4817 34.022308 8259.2217 464128
-2428.3479 33.73019 8188.3081 595968
-2425.3142 34.377224 8345.3809 924160
-2375.6987 34.377224 8345.3809 1792
-2360.5503 34.886616 8469.04 1792
-2312.1094 34.915459 8476.042 726275
-2293.7422 35.409847 8596.0596 661760
-2291.8127 36.186317 8784.5547 1536
-2107.8193 34.057281 8267.7119 1792
-2058.6653 34.057281 8267.7119 595459
-2125.5237 36.023453 8745.0186 1517321
-2008.7152 34.897396 8471.6572 1252107
-2039.9523 36.351551 8824.667 265984
-2061.9001 37.712582 9155.0693 595713
-1972.2472 37.050869 8994.4326 266496
-1907.5171 36.833527 8941.6699 1280
-1792.9094 35.612988 8645.374 2304
-1760.1023 35.993187 8737.6699 332800
-1688.9045 35.587566 8639.2021 397568
-1650.9275 35.87846 8709.8193 1280
-1612.4475 36.17691 8782.2715 1280
-1584.1554 36.731564 8916.918 1024
-1544.5341 37.052837 8994.9102 1280
-1527.9082 37.968594 9217.2188 859139
-1393.9045 35.927139 8721.6367 135168
-1310.8724 35.092449 8519.0088 1188098
-1261.6123 35.131092 8528.3896 3584
-1252.6161 36.341118 8822.1338 859648
-1124.0366 34.035912 8262.5244 1255169
-1133.8583 35.902332 8715.6143 1650434
-1062.8375 35.265137 8560.9297 1124097
-1042.8252 36.341442 8822.2129 70400
-990.37476 36.341442 8822.2129 2636818
-916.81793 35.523643 8623.6846 3557408
-865.54773 35.523643 8623.6846 134400
-819.87543 35.767857 8682.9697 200192
-784.29858 36.514912 8864.3242 1518341
-768.1012 38.336845 9306.6143 1782276
-689.20422 37.069302 8998.9072 2769169
-590.4657 34.431396 8358.5322 2109960
-573.47418 36.513577 8864 1583110
-529.48309 37.124119 9012.2148 68352
-490.56186 38.267628 9289.8115 265728
-435.07932 38.245472 9284.4336 331521
-381.10541 38.368767 9314.3643 1253892
-328.11197 38.649475 9382.5078 858880
-272.79971 38.716084 9398.6787 661504
-216.49995 38.64077 9380.3955 661504
-160.09581 38.488091 9343.3311 1254403
-104.42838 38.444386 9332.7207 2044168
-49.028393 38.51165 9349.0498 2438672
6.6166453 38.87793 9437.9678 595968
63.084396 39.098824 9491.5918 265472
125.00156 40.893883 9927.3584 858630
180.39157 40.087013 9731.4844 1187847
238.06081 40.055531 9723.8408 1122307
295.87177 40.055531 9723.8408 529152
352.43976 39.914764 9689.6689 792836
409.70557 39.881477 9681.5879 858883
470.54245 40.161182 9749.4893 2372119
528.50586 40.161182 9749.4893 397824
572.62103 39.212856 9519.2744 266496
634.5556 39.545639 9600.0605 463104
691.63068 39.545639 9600.0605 3328
705.13269 37.244171 9041.3584 528897
816.62762 40.07798 9729.291 134912
894.89484 41.014027 9956.5244 2504472
954.08917 41.014027 9956.5244 201216
1007.4456 40.777733 9899.1621 134144
1066.2988 40.777733 9899.1621 199424
1138.3821 41.25721 10015.56 768
1182.5219 40.726639 9886.7588 768
1247.6622 40.935333 9937.4209 66560
1314.785 41.187263 9998.5791 198400
1365.6544 40.93026 9936.1895 68096
1393.2926 40.027172 9716.957 726016
1451.0626 40.027172 9716.957 1384710
1508.8326 40.027172 9716.957 1121794
1583.026 40.446796 9818.8242 990210
1663.5851 40.993435 9951.5254 858880
1733.9543 41.260048 10016.249 200704
1765.4164 40.613895 9859.3887 1516555
1871.1259 41.662457 10113.938 528898
1944.1564 41.940754 10181.496 1280
1983.4812 41.497078 10073.789 1280
2025.5011 41.13414 9985.6826 1536
2090.6985 41.249157 10013.604 925187
2194.3066 42.094662 10218.858 1517320
2206.4045 41.186413 9998.373 1122565
2260.0205 41.08049 9972.6592 331779
2343.0881 41.501648 10074.899 1536
2378.6008 41.08049 9972.6592 725763
2396.5874 40.384487 9803.6982 1024
2438.6946 40.118336 9739.0879 594688
2520.4937 40.502354 9832.3115 330752
2595.1238 40.756371 9893.9766 1792
2671.468 41.025452 9959.2979 1280
2725.9819 40.954884 9942.167 331265
2815.4563 41.401409 10050.565 67584
2875.2097 41.401409 10050.565 1583111
2908.0815 41.022209 9958.5107 1320450
2891.9238 39.98032 9705.583 3097628
2986.5903 40.481342 9827.2109 135936
3078.2224 40.922802 9934.3789 1321474
3058.2815 39.892277 9684.21 1123842
2998.5166 38.389973 9319.5117 1385988
0 0 0 0
0 0 0 0
0 0 0 0
0 0 0 0
0 0 0 0
0 0 0 0
0 0 0 0
0 0 0 0
0 0 0 0
1463.4685 15.814535 3839.1208 790025
1490.8607 15.863133 3850.9187 461063
1513.7555 15.863133 3850.9187 658954
1462.7416 15.100161 3665.7002 988181
1415.1294 14.39419 3494.3191 3225145
1430.6813 14.341833 3481.6094 12172487
1451.3804 14.341833 3481.6094 8224909
1473.392 14.354621 3484.7134 10923192
1494.1096 14.354621 3484.7134 6579828
1499.7046 14.211318 3449.9255 11448766
1503.6396 14.056364 3412.3091 11580093
1523.9268 14.056364 3412.3091 9474970
1493.3716 13.593567 3299.9609 10330790
0 0 0 0
0 0 0 0
3305.6357 28.948933 7027.6147 2
3621.2341 31.316942 7602.4702 2
3671.4304 31.359632 7612.8335 2
4750.2642 40.080418 9729.8828 3
4983.3745 41.541412 10084.553 2
4933.8853 40.639931 9865.71 196608
5086.5049 41.404819 10051.394 589824
5495.7642 44.21677 10734.02 2823448
6217.3999 49.44857 12004.086 3875107
5827.9189 45.824921 11124.412 983041
5805.3828 45.135502 10957.05 655360
5820.1753 44.748383 10863.073 524288
5725.1318 43.534557 10568.406 589824
6203.8569 46.662724 11327.797 589824
6259.2476 46.573765 11306.201 1246213
6271.3286 46.167854 11207.663 589824
6337.9619 46.167854 11207.663 327680
6412.5952 46.225529 11221.664 262144
6495.4292 46.340523 11249.579 65536
6589.3208 46.531254 11295.881 131072
6656.478 46.531254 11295.881 0
6723.6348 46.531254 11295.881 0
6663.4321 45.658569 11084.029 395011
6824.3652 46.303387 11240.564 197376
6891.1938 46.303387 11240.564 132353
6955.9316 46.289474 11237.188 256
7009.6372 46.203114 11216.222 256
6935.0859 45.280956 10992.36 256
6913.686 44.71981 10856.138 256
6952.5269 44.555099 10816.152 256
7042.7715 44.71981 10856.138 256
7153.7485 45.011978 10927.063 0
7275.2876 45.36475 11012.702 592647
7268.5024 44.918205 10904.299 263683
7333.332 44.918205 10904.299 0
7379.4385 44.804527 10876.703 0
7287.8335 43.863972 10648.375 0
7305.417 43.591137 10582.142 0
7296.4448 43.165859 10478.901 0
7381.4619 43.299118 10511.251 0
7471.8228 43.46122 10550.603 0
7534.5483 43.46122 10550.603 0
7597.2749 43.46122 10550.603 65536
7546.3022 42.816116 10393.998 131072
7645.1079 43.024395 10444.56 196608
7893.6851 44.065403 10697.273 196608
8006.979 44.340607 10764.082 196608
8068.6812 44.328007 10761.023 196608
7887.1699 42.989941 10436.195 131072
7949.2153 42.989941 10436.195 131072
8123.7026 43.593319 10582.671 131072
8308.2686 44.241096 10739.925 65536
8464.8623 44.731178 10858.896 0
8687.0889 45.558037 11059.624 131072
9129.4814 47.518425 11535.526 0
9418.1797 48.655575 11811.579 1249553
9246.3135 47.414169 11510.217 525830
9036.3232 45.996933 11166.17 4276031
9102.709 45.996933 11166.17 7038054
12282.043 61.613091 14957.134 9142659
13219.4 65.838684 15982.935 4139054
13441.971 66.469391 16136.044 3876907
13537.904 66.469391 16136.044 4140591
12383.896 60.375515 14656.701 4074798
11805.809 57.154991 13874.89 3482661
10329.498 49.660801 12055.606 3812140
10401.172 49.660801 12055.606 4009775
11897.602 56.41679 13695.685 3615017
11979.026 56.41679 13695.685 3549225
10916.294 51.064617 12396.396 3483688
11473.396 53.310719 12941.658 3681324
11550.337 53.310719 12941.658 3879216
11916.919 54.63871 13264.04 4142391
13184.587 60.053535 14578.537 3549995
13392.221 60.600895 14711.414 3024165
13479.685 60.600895 14711.414 4010803
14880.935 66.469238 16136.007 3682351
14601.311 64.802467 15731.383 3682352
15003.535 66.16378 16061.854 3814193
15168.203 66.466911 16135.442 3946547
15264.963 66.47052 16136.318 4078135
15361.751 66.474213 16137.215 3815220
15456.832 66.47052 16136.318 3684659
14190.862 60.649914 14723.313 3684399
14532.768 61.7304 14985.611 3684400
0 0 0 0
0 0 0 0
0 0 0 0
0 0 0 0
0 0 0 0
-6413.9155 71.963028 7150.1206 858372
