# .PCD v0.7 - Point Cloud Data file format
VERSION 0.7
FIELDS x y z rgb
SIZE 4 4 4 4
TYPE F F F U
COUNT 1 1 1 1
WIDTH 1399
HEIGHT 1
VIEWPOINT 0 0 0 1 0 0 0
POINTS 1399
DATA ascii
1821.5898 646.7254 10173.103 331264
1842.564 633.1496 9959.5527 462592
1757.9209 585.25647 9206.1855 1280
1910.5371 616.86023 9703.3174 1054727
1968.226 616.86023 9703.3174 67584
1968.104 599.25763 9426.4258 1280
1996.4629 591.06171 9297.5029 660993
2026.0403 583.65845 9181.0479 1792
2085.7498 585.09637 9203.666 726786
2146.031 586.61688 9227.585 1536
2200.8916 586.61688 9227.585 1536
2111.7661 549.17273 8638.582 1024
2163.1248 549.17273 8638.582 989186
2537.0239 629.15997 9896.7949 198144
2604.2424 631.19086 9928.7412 1280
2674.4536 633.841 9970.4287 68096
2687.927 623.22101 9803.374 1024
2701.8723 613.15887 9645.0947 1280
2759.2151 613.15887 9645.0947 266496
2816.5579 613.15887 9645.0947 529921
2829.8081 603.75159 9497.1162 1024
2986.6982 624.75897 9827.5664 1280
3027.7649 621.19708 9771.5371 1024
3076.4221 619.2973 9741.6533 1024
3134.3389 619.2973 9741.6533 2048
3183.8318 617.66302 9715.9463 266240
2991.9492 570.09467 8967.6875 1779983
3286.9812 615.34576 9679.4941 2304
3444.7322 633.78174 9969.4961 1056512
3528.7104 638.25055 10039.791 69120
3563.2751 633.78174 9969.4961 2175502
3535.2947 618.5166 9729.373 1122817
3743.646 644.42474 10136.912 595457
3670.3931 621.80499 9781.0996 596224
3785.8298 631.3584 9931.377 1582601
3844.8748 631.3584 9931.377 1792
3903.9194 631.3584 9931.377 1583366
3914.7468 623.6767 9810.542 662528
3973.073 623.6767 9810.542 1715207
3988.3059 617.00989 9705.6719 1384713
4076.946 621.72778 9779.8848 1536
4169.0215 626.82953 9860.1357 768
0 0 0 0
0 0 0 0
0 0 0 0
0 0 0 0
0 0 0 0
0 0 0 0
0 0 0 0
0 0 0 0
0 0 0 0
0 0 0 0
1634.7932 212.87234 3348.5186 724996
1666.6766 214.41296 3372.7527 724743
1680.5643 213.62936 3360.4265 526853
1700.5428 213.62936 3360.4265 526853
1703.8085 211.55415 3327.7834 921612
1690.6415 207.50967 3264.1631 1645594
1666.1996 202.1888 3180.4646 3422264
1674.1426 200.87309 3159.7683 5988964
1692.9285 200.87309 3159.7683 10461608
1684.5259 197.68248 3109.5796 13027795
1701.4847 197.5051 3106.7891 11383228
1746.2491 200.52441 3154.2837 7963536
1771.9882 201.31812 3166.7686 13159114
1803.6886 202.76524 3189.5325 1511959
1814.1575 201.82034 3174.6689 854798
1696.8188 186.82303 2938.7585 65544
0 0 0 0
0 0 0 0
0 0 0 0
0 0 0 0
0 0 0 0
6177.5513 640.58472 10076.508 3481377
6644.9668 682.43555 10734.829 786432
7234.1509 735.87677 11575.469 851968
7302.9697 735.87677 11575.469 524288
6796.6558 678.46503 10672.372 458752
6696.1997 662.2547 10417.381 1180678
6685.4668 655.13379 10305.367 1509642
7143.0625 693.61865 10910.741 2956832
7531.8169 724.78632 11401.014 327680
7047.8042 672.16071 10573.204 327680
6997.0063 661.41675 10404.199 131072
6905.3457 647.03229 10177.929 65536
7021.7607 652.22498 10259.611 0
7179.4785 661.13171 10399.716 0
7279.0308 664.57587 10453.893 256
7561.7622 684.54431 10768 256
7625.7812 684.54431 10768 256
7586.5825 675.35596 10623.465 256
7607.4141 671.61902 10564.683 256
7690.7607 673.41724 10592.97 256
7782.2139 675.89032 10631.871 512
7729.5356 665.90649 10474.824 512
7658.999 654.55603 10296.279 512
7676.5093 650.85059 10237.992 512
7594.8999 638.86572 10049.468 512
7713.8521 643.80707 10127.196 512
7777.8784 644.12323 10132.169 256
7981.9961 655.94696 10318.159 256
8067.9858 657.95685 10349.774 512
8682.8311 702.73877 11054.202 66048
8815.3262 708.1026 11138.576 329218
8870.5869 707.2287 11124.829 256
9029.6006 714.57849 11240.442 132609
9220.2637 724.30646 11393.466 133122
8764.334 683.4693 10751.09 330756
8828.252 683.4693 10751.09 791565
8849.9473 680.22394 10700.04 528134
9029.8203 689.09601 10839.6 988430
8977.1768 680.22394 10700.04 1120016
9060.4365 681.70203 10723.291 1251345
9124.1895 681.70203 10723.291 527366
9187.9424 681.70203 10723.291 329990
9842.332 725.22253 11407.875 329476
9910.1543 725.22253 11407.875 256
9822.3027 713.90771 11229.892 658955
9729.2266 702.36853 11048.378 256
9794.9121 702.36853 11048.378 330246
9860.5977 702.36853 11048.378 66305
10031.923 709.84338 11165.959 256
10850.185 762.69525 11997.328 256
10845.9 757.41498 11914.269 256
10992.839 762.69525 11997.328 4343103
10741.463 740.45007 11647.407 2697254
10634.706 728.39514 11457.781 3223597
11050.659 752.06744 11830.15 3551793
11131.684 752.79047 11841.523 2499875
11202.085 752.79047 11841.523 1184272
11272.486 752.79047 11841.523 395013
11746.966 779.60785 12263.366 330245
11030.651 727.55267 11444.529 856847
10982.229 719.91821 11324.438 1120019
0 0 0 0
0 0 0 0
0 0 0 0
0 0 0 0
0 0 0 0
-6452.7354 500.06604 7193.3965 989960
-6447.375 502.98425 7235.3745 67584
-6392.8872 502.08331 7222.4146 1536
-6264.2441 495.30676 7124.9351 1536
-6199.1196 493.49451 7098.8662 1536
-6179.5244 495.30676 7124.9351 1280
-6235.9673 503.28076 7239.6401 1055748
-6277.9702 510.19208 7339.0581 1024
-6176.3135 505.4436 7270.7524 529408
-6133.0869 505.4436 7270.7524 661248
-6383.7388 529.83484 7621.6177 792576
-6338.4263 529.83484 7621.6177 858371
-6152.8018 518.02161 7451.6855 660736
-6042.5112 512.42554 7371.187 1280
-5998.6875 512.42554 7371.187 1280
-5954.8638 512.42554 7371.187 1536
-5809.7422 503.64413 7244.8672 463616
-5993.3101 523.43823 7529.603 661504
-5865.8569 516.16223 7424.9385 332288
-5821.7134 516.16223 7424.9385 1714447
-5627.6572 502.7691 7232.2803 1536
-5772.416 519.6723 7475.4302 201472
-5566.6895 505.03983 7264.9438 1280
-5818.8501 532.04535 7653.4155 595456
-5773.3486 532.04535 7653.4155 3840
-5664.7588 526.1853 7569.1191 464640
-5619.7583 526.1853 7569.1191 530432
-5553.3594 524.16553 7540.0649 2833682
-5414.9839 515.26392 7412.0171 3360025
-5289.6826 507.47067 7299.9111 201216
-5246.2827 507.47067 7299.9111 793344
-5277.8667 514.7843 7405.1172 1584641
-5071.0518 498.77286 7174.7944 2176520
-5002.7476 496.22882 7138.1987 992512
-4957.7725 495.97504 7134.5479 465664
-5049.7344 509.53427 7329.5962 1256192
-5056.8169 514.69043 7403.7666 1321984
-5012.7988 514.69043 7403.7666 2703884
-4943.8477 512.1076 7366.6133 926720
-4915.605 513.73315 7389.9971 794880
-4834.3345 509.79611 7333.3628 200960
-4790.7363 509.79611 7333.3628 662528
-4720.1831 506.90155 7291.7246 333056
-4868.3672 527.66125 7590.3506 530944
-4906.7168 536.79352 7721.7173 202496
-4841.562 534.66797 7691.1421 1189632
-4793.4492 534.40192 7687.3149 464897
-4731.1694 532.53607 7660.4741 729345
-4696.708 533.79565 7678.5933 926976
-4594.7725 527.33594 7585.6709 267520
-4748.7202 550.40668 7917.5415 1453830
-4660.4917 545.58868 7848.2349 1190660
-4613.832 545.58868 7848.2349 1058561
-4593.7808 548.76733 7893.9595 401152
-4638.6875 559.8515 8053.4038 2966297
-4590.8081 559.8515 8053.4038 794882
-4493.0244 553.70154 7964.938 135424
-4372.9272 544.64148 7834.6094 134400
-4410.6172 555.25 7987.2124 1453063
-4341.4453 552.4903 7947.5142 2110994
-4322.7485 556.164 8000.3604 1649419
-4123.1724 536.38861 7715.8931 1792
-4212.04 554.11432 7970.876 1536
-4075.2896 542.22467 7799.8442 1911822
-3993.2302 537.42181 7730.7554 793859
-3959.146 539.03888 7754.0171 134912
-3928.7258 541.19885 7785.0874 464128
-3882.4409 541.19885 7785.0874 1280
-3955.1975 557.99292 8026.6689 529920
-3795.1243 541.94885 7795.8765 266752
-3748.7756 541.94885 7795.8765 2816
-3702.427 541.94885 7795.8765 68352
-3802.5566 563.66162 8108.2124 398336
-3715.3118 557.80048 8023.9004 595456
-3666.3518 557.6095 8021.1533 1536
-3618.6638 557.6095 8021.1533 530432
-3455.1367 539.52118 7760.9551 1253637
-3498.5361 553.6922 7964.8032 1583624
-3370.4739 540.74353 7778.5381 858371
-3349.7534 544.89569 7838.2661 1318664
-3404.374 561.59338 8078.4614 1536
-3356.3455 561.59338 8078.4614 1536
-3400.4473 577.23273 8303.4316 264449
-3405.844 586.66583 8439.125 2570005
-3269.1143 571.5332 8221.4443 464896
-3089.3191 548.29797 7887.208 990977
-3196.865 576.13025 8287.5723 727552
-3190.5066 583.98505 8400.5625 2304
-3021.5708 561.85864 8082.2764 1280
-2932.72 554.14941 7971.3799 1280
-2912.0483 559.28119 8045.2007 1536
-2855.8506 557.64752 8021.6997 1536
-2912.3823 578.34424 8319.4199 3072
-2862.9211 578.34424 8319.4199 1056004
-2794.1252 574.36969 8262.2471 133632
-2764.3806 578.42419 8320.5703 1280
-2714.9126 578.42419 8320.5703 266240
-2683.3484 582.30951 8376.46 67072
-2709.9243 599.19727 8619.3887 1024
-2631.9421 593.17126 8532.7061 1024
-2562.343 588.83496 8470.3281 1024
-2511.9846 588.83496 8470.3281 3328
-2362.1541 565.04065 8128.0493 530432
-2373.0481 579.50165 8336.0693 463872
-2323.4878 579.50165 8336.0693 596226
-2240.1975 570.9057 8212.418 1536
-2190.7852 570.75269 8210.2168 2816
-2124.7798 566.17139 8144.3145 2048
-2054.553 560.22522 8058.7803 1536
-1999.2938 558.17395 8029.2725 1536
-1965.019 562.02411 8084.6572 1280
-1881.7766 551.71075 7936.3003 1536
-1862.5974 560.13232 8057.4438 1536
-1814.6935 560.13232 8057.4438 463872
-1790.3513 567.60211 8164.896 266240
-1747.7234 569.52954 8192.6221 529920
-1726.0559 578.59363 8323.0078 1792
-1676.5734 578.59363 8323.0078 1280
-1561.5957 555.30365 7987.9834 2304
-1503.5789 551.44312 7932.4502 2304
-1452.8906 550.10748 7913.2373 2048
-1431.808 560.26709 8059.3823 397825
-1390.843 563.08087 8099.8584 1024
-1342.687 563.08087 8099.8584 1536
-1287.4651 560.00739 8055.6465 1280
-1239.572 560.00739 8055.6465 1280
-1182.5947 555.7384 7994.2378 1253384
-1217.642 596.16797 8575.8125 134400
-1161.9989 593.7879 8541.5762 1536
-1111.2168 593.7879 8541.5762 2304
-1086.0988 608.15839 8748.2939 265984
-1051.4846 618.38977 8895.4707 1280
-980.51172 607.18933 8734.3535 1024
-897.47235 586.84613 8441.7188 1280
-855.05664 592.22955 8519.1592 1280
-802.45593 590.79254 8498.4873 332033
-776.13855 609.81311 8772.0967 1024
-727.07062 612.41132 8809.4717 1024
-705.86249 640.70074 9216.4121 1280
-645.18878 634.91486 9133.1826 1280
-583.78101 627.27679 9023.3096 1536
-518.0191 612.94086 8817.0889 1792
-476.48883 627.27679 9023.3096 135424
-431.12454 639.56262 9200.04 661506
-351.10095 596.53156 8581.043 1536
-309.84299 615.93079 8860.0986 1280
-256.33487 613.93726 8831.4219 200960
-202.4142 609.67395 8770.0947 464640
-146.87827 595.89899 8571.9434 2043918
-100.43923 624.00269 8976.2119 924931
-47.100273 624.36212 8981.3828 266752
6.3234386 627.0285 9019.7383 793603
58.489368 611.76892 8800.2305 530177
110.35204 609.24506 8763.9248 1649162
169.34241 635.07043 9135.4209 1912338
212.17001 602.45862 8666.3037 398592
263.6936 602.45862 8666.3037 200704
308.17676 589.00262 8472.7402 66560
355.30634 583.67493 8396.1016 133632
406.90253 586.09332 8430.8896 1536
471.2803 604.3725 8693.834 398080
538.29132 622.08148 8948.5762 529408
582.92175 613.06696 8818.9023 1188610
652.23828 629.36035 9053.2812 2043912
709.31384 632.25842 9094.9697 3359774
763.38593 632.25842 9094.9697 133120
849.62915 657.14093 9452.9023 200448
912.18396 661.75098 9519.2178 792580
1001.0914 683.8233 9836.7256 660994
1049.027 677.01685 9738.8154 660994
1069 653.82007 9405.1318 331008
1118.3346 649.99475 9350.1045 1024
1157.8773 641.11005 9222.2998 768
1212.7065 641.11005 9222.2998 1280
1289.7024 652.32184 9383.5801 1024
1345.4905 652.32184 9383.5801 264705
1455.9165 677.7569 9749.4609 132608
1539.958 689.43201 9917.4062 1451017
1571.0306 677.40668 9744.4229 134400
1628.9641 677.40668 9744.4229 529920
1695.5645 680.88708 9794.4883 1280
1783.3517 692.36194 9959.5527 198400
1842.564 692.36194 9959.5527 1054729
1869.8174 680.72693 9792.1846 1280
1910.5371 674.54913 9703.3174 768
1919.4601 657.83612 9462.9023 1024
1966.5487 654.78247 9418.9766 1280
1990.033 644.25635 9267.5586 1280
2053.4812 646.88672 9305.3965 1280
2113.0356 648.18469 9324.0674 1024
2169.4871 648.48883 9328.4424 1280
2200.8916 641.47748 9227.585 1280
2111.7661 600.53156 8638.582 2816
2348.2234 651.91901 9377.7852 2042643
2537.0239 687.99915 9896.7949 264449
2637.9192 699.14557 10057.135 1280
2674.4536 693.11804 9970.4287 1280
2722.3008 690.22003 9928.7412 1280
2733.4722 678.34351 9757.8994 1280
2802.6892 681.06604 9797.0625 398338
2860.9353 681.06604 9797.0625 990982
2836.8101 661.84821 9520.6162 199680
2944.7827 673.59869 9689.6455 1536
3025.2322 678.72339 9763.3633 199936
3076.8779 677.31451 9743.0967 200193
3126.707 675.56512 9717.9326 265984
3190.6138 676.86578 9736.6426 1792
3229.4338 672.89301 9679.4941 133376
3324.1641 680.50488 9788.9902 134656
3444.7322 693.05316 9969.4961 1253640
3528.7104 697.93994 10039.791 135680
3563.2751 693.05316 9969.4961 1057026
3565.3311 682.10687 9812.0352 1057026
3676.1008 691.97705 9954.0156 2175502
3735.28 691.97705 9954.0156 68096
3801.3347 693.23083 9972.0518 267008
3860.6216 693.23083 9972.0518 727552
3854.3848 681.64313 9805.3633 1056513
3912.6802 681.64313 9805.3633 1536
3806.6572 653.43677 9399.6182 332289
3862.5408 653.43677 9399.6182 3162142
4046.0085 674.71283 9705.6719 1536
4152.6602 682.76068 9821.4395 1280
0 0 0 0
0 0 0 0
0 0 0 0
0 0 0 0
0 0 0 0
0 0 0 0
0 0 0 0
0 0 0 0
0 0 0 0
0 0 0 0
1590.5857 226.48543 3257.9688 1448976
1677.6178 236.00409 3394.8938 461060
1688.3344 234.6881 3375.9634 526853
1700.5428 233.60803 3360.4265 461062
1698.0728 230.55998 3316.5808 526855
1681.3431 225.668 3246.2102 790285
1641.0869 217.76521 3132.5293 592652
1659.7107 217.76521 3132.5293 11186874
1662.2603 215.67958 3102.5278 12303562
1680.7057 215.67958 3102.5278 8422032
1703.0131 216.16982 3109.5796 11646407
1740.1646 218.51347 3143.293 5460061
1761.2649 218.8132 3147.6047 11910089
1779.9784 218.8132 3147.6047 11251132
1798.6918 218.8132 3147.6047 10658224
1702.3425 204.95985 2948.3254 10000805
1716.7627 204.58939 2942.9966 3355189
0 0 0 0
0 0 0 0
0 0 0 0
0 0 0 0
0 0 0 0
0 0 0 0
0 0 0 0
6738.4106 742.48883 10680.622 589824
6536.1177 713.47522 10263.266 655360
6624.1987 716.40204 10305.367 720896
6917.7266 741.29059 10663.386 786432
7155.873 759.84631 10930.309 1048835
7402.7783 778.98981 11205.686 458752
6966.5181 726.54401 10451.258 393216
7028.6538 726.54401 10451.258 196608
7041.79 721.52332 10379.036 131072
7103.4956 721.52332 10379.036 0
7165.2026 721.52332 10379.036 0
7258.4805 724.67535 10424.378 256
7561.7622 748.56305 10768 329476
7625.7812 748.56305 10768 263683
7689.7998 748.56305 10768 512
7544.9419 728.39783 10477.925 256
7668.1782 734.23315 10561.865 512
7782.2139 739.09979 10631.871 512
7576.563 713.77106 10267.521 256
7637.6064 713.77106 10267.521 256
7535.1528 698.61261 10049.468 256
7576.0347 696.87732 10024.506 256
7635.6333 696.87732 10024.506 256
7774.061 704.01605 10127.196 512
7889.7988 709.0061 10198.978 66049
8067.9858 719.48914 10349.774 256
8682.8311 768.45911 11054.202 256
8748.5508 768.45911 11054.202 256
8499.6514 741.02948 10659.63 724234
8687.8047 751.82758 10814.96 1052940
8688.5371 746.36707 10736.411 0
8752.3672 746.36707 10736.411 768
8681.9102 734.99841 10572.874 1185550
8693.2021 730.66425 10510.527 462855
8755.6904 730.66425 10510.527 1252111
8858.9912 734.04602 10559.174 1779222
8921.7695 734.04602 10559.174 3358255
8914.625 728.33337 10476.998 1383186
9117.6064 739.74835 10641.201 724745
9205.8193 741.75854 10670.117 0
9910.1543 793.04553 11407.875 0
9308.6396 739.8468 10642.617 256
9232.4902 728.84033 10484.291 256
9294.8223 728.84033 10484.291 0
9646.4834 751.37653 10808.472 198404
9882.834 764.69226 11000.017 0
10148.163 780.06036 11221.085 256
10582.724 808.15118 11625.168 256
10651.839 808.15118 11625.168 131586
10741.463 809.69714 11647.407 7237228
10810.71 809.69714 11647.407 8355453
11099.989 826.0722 11882.96 7697007
11201.111 828.32581 11915.379 6052697
11202.085 823.19159 11841.523 10195860
11342.792 828.32581 11915.379 2561305
12205.842 885.81915 12742.414 724234
11030.651 795.59363 11444.529 1381908
10462.751 750.00702 10788.771 1514777
0 0 0 0
0 0 0 0
0 0 0 0
0 0 0 0
0 0 0 0
-6382.3345 536.91034 7114.9146 1024
-6447.375 546.00055 7235.3745 1280
-6404.8921 546.04602 7235.9775 1536
-6274.71 538.56482 7136.8389 2048
-6209.3472 536.58313 7110.5786 661248
-6310.6025 549.07129 7276.0669 68608
-6235.9673 546.32245 7239.6401 1121800
-6245.8047 550.98724 7301.4565 1536
-6202.3955 550.98724 7301.4565 2816
-6133.0869 548.67029 7270.7524 1536
-6153.8496 554.43549 7347.1509 1792
-6251.9717 567.30261 7517.6606 396544
-6063.0986 554.12567 7343.0454 1253896
-6042.5112 556.24927 7371.187 529408
-5981.2661 554.63391 7349.7803 200960
-5852.8149 546.71686 7244.8672 265984
-5893.873 554.63391 7349.7803 1792
-5973.3799 566.31433 7504.5645 594437
-5928.7632 566.31433 7504.5645 398593
-5772.5093 555.56989 7362.1841 727042
-5618.6255 544.89117 7220.6733 1280
-5609.8813 548.23193 7264.9438 1280
-5566.6895 548.23193 7264.9438 1280
-5726.2832 568.35931 7531.6641 200960
-5791.4282 579.35565 7677.3828 1056258
-5680.4624 572.76923 7590.1021 135168
-5643.1655 573.56482 7600.645 1385731
-5597.9771 573.56482 7600.645 2109194
-5426.0112 560.46954 7427.1118 727296
-5365.9175 558.80975 7405.1172 660225
-5337.6992 560.46954 7427.1118 925696
-5338.729 565.25378 7490.5107 662784
-5257.5312 561.33917 7438.6353 2702350
-5028.3955 541.42902 7174.7944 201984
-4957.7725 538.39191 7134.5479 532224
-5049.7344 553.11078 7329.5962 136960
-5056.8169 558.70789 7403.7666 1979914
-5025.4761 560.12079 7422.4902 466432
-4943.8477 555.90417 7366.6133 598016
-4900.0508 555.90417 7366.6133 531456
-4834.3345 553.39502 7333.3628 1190144
-4790.7363 553.39502 7333.3628 859648
-4741.9292 552.7879 7325.3174 662273
-4868.3672 572.78796 7590.3506 1188104
-4943.3052 587.04633 7779.2964 1715206
-4839.1528 580.10516 7687.3149 1255681
-4776.7129 578.07971 7660.4741 466176
-4731.1694 578.07971 7660.4741 1058306
-4696.708 579.44696 7678.5933 332544
-4443.415 553.57812 7335.7896 333312
-4506.6079 567.01636 7513.8677 69632
-4592.2881 583.58136 7733.3799 794624
-4583.6084 588.36896 7796.8232 1914122
-4537.2534 588.36896 7796.8232 1124352
-4491.438 588.43951 7797.7588 1124608
-4465.4258 591.13312 7833.4531 1453062
-4418.8535 591.13312 7833.4531 1124097
-4445.6709 601.05536 7964.938 1782026
-4410.6172 602.73621 7987.2124 992769
-4341.4453 599.74048 7947.5142 2373910
-4480.2988 625.7323 8291.9473 1189125
-4076.8159 575.71539 7629.1436 727808
-4244.7036 606.16797 8032.689 1792
-4196.9468 606.16797 8032.689 2048
-4037.4531 589.84399 7816.3696 925442
-3990.9824 589.84399 7816.3696 793347
-3928.7258 587.48334 7785.0874 1056515
-3882.4409 587.48334 7785.0874 267264
-3851.0461 589.76361 7815.3047 2304
-3907.4771 605.71375 8026.6689 398080
-3748.7756 588.29749 7795.8765 3328
-3672.084 583.47614 7731.9858 68608
-3802.5566 611.86719 8108.2124 397824
-3715.3118 605.50482 8023.9004 1792
-3580.1853 591.07184 7832.6401 1780237
-3533.6177 591.07184 7832.6401 398080
-3415.9636 579.02216 7672.9639 1319939
-3370.3457 579.02216 7672.9639 399360
-3409.7605 593.83118 7869.2061 1385735
-3362.9756 593.83118 7869.2061 2372374
-3404.374 609.62213 8078.4614 1536
-3376.011 613.19403 8125.7944 3072
-3327.7009 613.19403 8125.7944 464384
-3172.7021 593.24493 7861.4375 2636056
-3263.8464 619.41223 8208.1963 596481
-3215.0464 619.41223 8208.1963 333312
-3196.865 625.40216 8287.5723 2560
-3192.9883 634.42188 8407.0977 858880
-3098.3301 625.40405 8287.5967 661760
-2973.5195 609.90997 8082.2764 2048
-2925.4683 609.90997 8082.2764 1792
-2864.2173 607.11218 8045.2007 333312
-2915.0583 628.38239 8327.0645 1780746
-2865.5518 628.38239 8327.0645 2044430
-2769.207 617.93079 8188.564 1583368
-2763.719 627.742 8318.5791 662016
-2733.1487 632.10986 8376.46 1056005
-2736.7942 644.70001 8543.2988 1024
-2780.5576 667.39545 8844.0498 768
-2631.9421 643.90063 8532.7061 512
-2562.343 639.19342 8470.3281 1024
-2511.9846 639.19342 8470.3281 1280
-2461.6262 639.19342 8470.3281 66816
-2320.5168 615.13666 8151.5376 2109202
-2289.0227 619.73083 8212.418 1280
-2246.9814 621.60748 8237.2871 1536
-2191.3726 619.73083 8212.418 135168
-2111.0032 610.60663 8091.5083 200960
-2062.8928 610.60547 8091.4922 660992
-1999.2938 605.91022 8029.2725 1536
-1951.5576 605.91022 8029.2725 134400
-1864.7958 593.48993 7864.6841 265984
-1826.328 596.19611 7900.5459 2304
-1838.8939 616.14465 8164.896 199936
-1790.3513 616.14465 8164.896 463616
-1733.3643 613.15759 8125.312 68864
-1685.057 613.15759 8125.312 1536
-1676.5734 628.07623 8323.0078 67840
-1569.6633 605.90851 8029.2505 133376
-1510.9412 601.53479 7971.292 529920
-1463.5497 601.53479 7971.292 267008
-1438.9989 611.23682 8099.8584 990467
-1423.7363 625.6925 8291.4199 1254146
-1342.687 611.23682 8099.8584 1385477
-1287.4651 607.90045 8055.6465 68352
-1239.572 607.90045 8055.6465 1536
-1265.0411 645.32404 8551.5684 1536
-1217.5879 647.12482 8575.4316 67840
-1161.9989 644.57001 8541.5762 1024
-1111.2168 644.57001 8541.5762 1280
-1086.0988 660.16949 8748.2939 68352
-1068.4945 682.13501 9039.373 593413
-1008.2441 677.75964 8981.3916 529154
-897.47235 637.03448 8441.7188 1024
-860.1521 646.70941 8569.9268 1024
-794.95044 635.31995 8418.999 768
-758.78503 647.16498 8575.9639 768
-723.98596 661.9657 8772.0967 768
-700.30054 690.01465 9143.79 1024
-645.18878 689.21417 9133.1826 1024
-582.8551 679.8429 9008.998 1536
-517.8277 665.11505 8813.8311 2304
-476.48883 680.92285 9023.3096 2048
-431.12454 694.2594 9200.04 1280
-362.83298 669.1861 8867.7783 1280
-310.11154 669.1861 8867.7783 924425
-256.36478 666.5202 8832.4512 134144
-204.4915 668.60651 8860.0986 3328
-149.36769 657.8252 8717.2285 595968
-98.168655 662.05591 8773.292 2503706
-46.008999 662.05591 8773.292 1536
6.2965488 677.75897 8981.3828 2048
58.319855 662.16406 8774.7256 726020
110.0173 659.34283 8737.3398 1536
164.25331 668.66571 8860.8828 463616
212.17001 653.98224 8666.3037 2048
258.62854 641.42053 8499.8408 134656
308.54236 640.13397 8482.792 1713933
357.61554 637.7099 8450.6689 1280
416.01263 650.46155 8619.6484 1536
467.25885 650.46155 8619.6484 1648651
530.49091 665.49774 8818.9023 859649
582.92175 665.49774 8818.9023 397568
655.2417 686.33057 9094.9697 595970
709.31384 686.33057 9094.9697 397824
762.08636 685.16211 9079.4863 1253643
823.42554 691.34076 9161.3633 1280
913.71759 719.5531 9535.2217 1280
1001.0914 742.30542 9836.7256 67328
1049.027 734.91687 9738.8154 594691
1069 709.73621 9405.1318 331520
1087.9036 686.38403 9095.6787 1024
1141.9799 686.38403 9095.6787 768
1260.2421 723.21851 9583.7939 1280
1308.3029 718.32239 9518.9131 1536
1374.1986 723.21851 9583.7939 68352
1455.9165 735.72015 9749.4609 660483
1524.3726 740.81946 9817.0352 512
1571.0306 735.33997 9744.4229 1024
1628.9641 735.33997 9744.4229 67584
1694.6455 738.71747 9789.1797 462592
1738.6327 732.72791 9709.8086 725508
1765.1768 720.0083 9541.2539 768
1860.7523 735.36169 9744.7109 512
1918.6874 735.36169 9744.7109 768
1916.3254 712.9295 9447.4482 768
1934.9347 699.35455 9267.5586 67072
1977.1514 694.82758 9207.5693 512
2053.4812 702.2099 9305.3965 512
2113.0356 703.61884 9324.0674 768
2171.6956 704.66559 9337.9385 1024
2227.2122 704.66559 9337.9385 1024
2266.1758 699.55573 9270.2246 1024
2399.031 722.98419 9580.6895 1280
2539.6289 747.60522 9906.957 1792
2637.9192 758.93805 10057.135 133376
2674.4536 752.39502 9970.4287 990215
2733.7307 752.39502 9970.4287 2560
2722.856 733.49713 9720.002 1792
2823.6155 744.83246 9870.2129 1280
2838.4321 733.49713 9720.002 1845779
2836.8101 718.45093 9520.6162 198656
2886.271 716.67755 9497.1162 397824
3017.6106 734.91309 9738.7656 1024
3076.4221 735.13098 9741.6533 1280
3106.3325 728.56238 9654.6084 1024
3177.8088 731.80408 9697.5664 1280
3235.4636 731.80408 9697.5664 1024
3344.0686 743.12634 9847.6045 1024
3444.7322 752.32465 9969.4961 1280
3504.0037 752.32465 9969.4961 661760
3535.1445 746.38538 9890.792 1385730
3593.9482 746.38538 9890.792 925440
3694.7415 754.96533 10004.49 925186
3750.0479 754.12616 9993.3691 67840
3801.3347 752.51746 9972.0518 595968
3786.6956 738.10773 9781.0996 398592
3854.3848 739.93872 9805.3633 529665
3980.6448 752.79169 9975.6855 266496
4008.7617 746.97961 9898.666 924675
3988.3059 732.41577 9705.6719 2963999
4034.7959 730.38599 9678.7744 1536
3925.741 700.65216 9284.7539 1280
0 0 0 0
0 0 0 0
0 0 0 0
0 0 0 0
0 0 0 0
0 0 0 0
0 0 0 0
0 0 0 0
0 0 0 0
0 0 0 0
1522.8828 235.39021 3119.2944 1251344
1705.1248 260.38824 3450.5579 0
1697.8015 256.18768 3394.8938 512
1678.3549 250.27798 3316.5808 256
1689.6737 249.04004 3300.1763 66049
1659.3873 241.76874 3203.8198 921615
1638.4315 236.00648 3127.4609 396303
1659.7107 236.38896 3132.5293 3093564
1649.1073 232.27242 3077.9783 12632005
1684.5259 234.65712 3109.5796 1842724
1713.6836 236.12741 3129.0632 10463672
1732.2869 236.12741 3129.0632 12172486
1765.0023 238.03062 3154.2837 12106176
1763.374 235.31087 3118.2427 13553108
1781.9128 235.31087 3118.2427 13684436
1782.2412 232.93085 3086.7036 8618890
1800.5925 232.93085 3086.7036 9539740
1729.1768 221.43539 2934.3708 11709625
0 0 0 0
0 0 0 0
0 0 0 0
0 0 0 0
0 0 0 0
0 0 0 0
0 0 0 0
6511.0156 771.51874 10223.849 4928309
6658.96 781.75122 10359.446 1179648
6938.4224 807.09479 10695.287 5321527
7087.0171 816.89331 10825.134 6636106
7065.5947 807.09479 10695.287 6175297
6966.5181 788.67963 10451.258 5385781
7054.397 791.56818 10489.536 1836038
7090.7891 788.67963 10451.258 4072745
7158.187 789.25983 10458.946 1772559
7165.2026 783.22955 10379.036 327680
7331.6274 794.57867 10529.43 196608
7545.1177 810.79321 10744.298 65536
7378.4961 786.23187 10418.82 0
7440.4385 786.23187 10418.82 256
7502.3818 786.23187 10418.82 256
7607.2354 790.69202 10477.925 256
7501.27 773.34515 10248.052 256
7562.1973 773.34515 10248.052 256
7637.6064 774.81433 10267.521 256
7603.7031 765.25861 10140.893 256
7576.0347 756.47577 10024.506 256
7635.6333 756.47577 10024.506 256
8011.5366 787.57001 10436.554 256
8073.5845 787.57001 10436.554 197634
8297.9648 803.28448 10644.796 0
8255.5352 793.12817 10510.208 0
8224.5312 784.21381 10392.078 0
8259.9531 781.71893 10359.018 0
8333.1465 782.8092 10373.466 256
8485.4131 791.2569 10485.411 65536
8534.4912 790.02942 10469.145 65536
8596.7324 790.02942 10469.145 65536
8658.9746 790.02942 10469.145 65536
8639.3477 782.6131 10370.867 256
8668.8711 779.7229 10332.566 0
8783.9629 784.5155 10396.076 0
8845.7705 784.5155 10396.076 0
9035.6797 795.79779 10545.585 0
9180.8711 803.01324 10641.201 0
9244.1357 803.01324 10641.201 0
9034.3555 779.45569 10329.026 0
8979.1387 769.46161 10196.589 0
9039.7607 769.46161 10196.589 0
9263.6787 783.2688 10379.556 0
9536.7256 801.01971 10614.783 0
9918.8984 827.64282 10967.582 0
10582.724 877.26605 11625.168 460294
10651.839 877.26605 11625.168 328709
10720.953 877.26605 11625.168 1446417
10500.495 853.72284 11313.184 4670274
11050.659 892.73456 11830.15 5986391
11201.111 899.16614 11915.379 7301224
11202.085 893.59277 11841.523 9274758
11272.486 893.59277 11841.523 8417139
12205.842 961.57629 12742.414 788744
11995.243 939.15637 12445.313 1184015
11708.164 911.06 12072.992 921100
0 0 0 0
0 0 0 0
0 0 0 0
0 0 0 0
0 0 0 0
-6382.3345 579.21045 7114.9146 1280
-6447.375 589.01685 7235.3745 1024
-6552.9038 602.67871 7403.1943 331009
-6253.3379 579.01642 7112.5308 1253128
-6211.0518 579.01642 7112.5308 792834
-6145.3672 576.82013 7085.5522 989956
-6235.9673 589.36414 7239.6401 792577
-6245.8047 594.39648 7301.4565 463872
-6230.2173 597.06274 7334.2085 1450504
-6133.0869 591.89691 7270.7524 2304
-6062.6577 589.25305 7238.2754 660992
-6106.7549 597.7821 7343.0454 595456
-6063.0986 597.7821 7343.0454 398336
-6074.6841 603.26813 7410.4346 595456
-5998.6875 600.07306 7371.187 726528
-5937.5698 598.33038 7349.7803 1280
-5893.873 598.33038 7349.7803 68608
-5973.3799 610.93103 7504.5645 725764
-5865.8569 604.44885 7424.9385 133376
-5706.355 592.47156 7277.8115 1024
-5663.0864 592.47156 7277.8115 529154
-5741.3955 605.28894 7435.2578 594945
-5697.1909 605.28894 7435.2578 200192
-5677.6245 607.92706 7467.6641 990212
-5738.8413 619.32477 7607.6709 68864
-5647.8696 614.34918 7546.5522 68608
-5648.3813 619.32477 7607.6709 267264
-5637.9727 623.17346 7654.9482 1714951
-5382.3037 599.75543 7367.2847 1517827
-5295.519 594.92633 7307.9653 728320
-5337.6992 604.62579 7427.1118 465664
-5422.3765 619.34113 7607.8721 1518080
-5294.1958 609.78699 7490.5107 991489
-5135.4673 596.52234 7327.5703 1978374
-5091.9033 596.52234 7327.5703 4096
-5048.3384 596.52234 7327.5703 68096
-4893.5005 583.25952 7164.6528 2175757
-5012.7988 602.72528 7403.7666 596224
-4943.8477 599.70074 7366.6133 331520
-4844.3613 592.88507 7282.8911 728064
-4773.123 589.43481 7240.5088 4096
-4729.8374 589.40503 7240.1431 1583624
-4692.9678 590.18164 7249.6826 1649162
-4867.0713 617.75024 7588.3301 69888
-4943.3052 633.29645 7779.2964 662272
-4610.646 596.25745 7324.3164 398848
-4776.7129 623.62335 7660.4741 924931
-4538.8193 598.26941 7349.0312 3328
-4501.5142 599.11938 7359.4722 2816
-4443.415 597.19147 7335.7896 331264
-4506.6079 611.68842 7513.8677 399360
-4491.2549 615.70782 7563.2412 1979661
-4492.6445 622.12695 7642.0923 1124352
-4447.21 622.12695 7642.0923 1453318
-4451.9775 629.22223 7729.2495 729600
-4445.0786 634.79938 7797.7588 664064
-4418.8535 637.7052 7833.4531 2505748
-4372.2817 637.7052 7833.4531 597760
-4388.6953 646.99066 7947.5142 794624
-4185.2305 623.71063 7661.5459 4608
-4114.5615 619.9259 7615.0557 4352
-4070.748 620.14838 7617.7886 2048
-4193.9087 646.0993 7936.5649 68352
-4196.9468 653.92462 8032.689 2304
-4037.4531 636.31445 7816.3696 68352
-3990.9824 636.31445 7816.3696 200960
-3929.2334 633.84979 7786.0938 67328
-3897.5105 636.22778 7815.3047 1280
-3851.0461 636.22778 7815.3047 1536
-3780.2375 632.15668 7765.2964 594946
-3734.0706 632.15668 7765.2964 1517065
-3621.9714 620.85504 7626.4683 1780237
-3776.6619 655.57788 8052.9976 135168
-3728.7847 655.57788 8052.9976 332544
-3622.5481 645.18396 7925.3208 266496
-3533.6177 637.63898 7832.6401 1188612
-3415.9636 624.64014 7672.9639 1057027
-3394.8313 629.1781 7728.708 2175508
-3442.6692 646.79858 7945.1543 464128
-3392.0942 646.1626 7937.3418 1792
-3364.0825 649.86731 7982.8506 1792
-3356.3455 657.65082 8078.4614 201216
-3308.3169 657.65082 8078.4614 200704
-3237.1011 652.97357 8021.0073 1792
-3347.1746 685.27222 8417.7578 1122054
-3215.0464 668.21228 8208.1963 1792
-3166.2463 668.21228 8208.1963 1780235
-3147.593 674.67407 8287.5723 133888
-3098.3301 674.67609 8287.5967 134912
-2975.033 658.29626 8086.3896 200448
-2926.3679 658.1637 8084.7617 1280
-2878.8811 658.29626 8086.3896 1792
-2915.0583 677.8891 8327.0645 69632
-2865.5518 677.8891 8327.0645 1536
-2747.5959 661.41174 8124.6602 594689
-2763.719 677.1983 8318.5791 1536
-2733.1487 681.91028 8376.46 1280
-2764.7334 702.59235 8630.5146 989188
-2757.4504 713.99261 8770.5537 133377
-2631.9421 694.62994 8532.7061 1024
-2576.4597 693.35077 8516.9932 1024
-2511.9846 689.55188 8470.3281 1024
-2364.9993 662.48468 8137.8398 1516809
-2320.5168 663.59979 8151.5376 199936
-2295.9543 670.58051 8237.2871 68096
-2273.9275 678.62219 8336.0693 1792
-2194.6768 669.56403 8224.8008 1450761
-2110.9988 658.71161 8091.4922 1536
-2047.0302 653.64642 8029.2725 331778
-1999.2938 653.64642 8029.2725 858369
-1951.5576 653.64642 8029.2725 1024
-1873.2991 643.16711 7900.5459 1280
-1863.6276 656.30267 8061.9009 2560
-1838.8939 664.68726 8164.896 2048
-1789.0061 664.18787 8158.7612 660992
-1771.0809 675.85773 8302.1123 1536
-1704.688 669.1709 8219.9717 1280
-1666.2345 673.38055 8271.6826 924676
-1585.955 660.42896 8112.5879 661760
-1513.901 650.19757 7986.9072 661251
-1466.4166 650.19757 7986.9072 1792
-1466.1141 671.81775 8252.4854 332033
-1448.179 686.57544 8433.7666 990722
-1398.0378 686.57544 8433.7666 1187845
-1366.7241 696.16547 8551.5684 1253389
-1315.8826 696.16547 8551.5684 1280
-1288.0062 708.80341 8706.8105 1024
-1217.642 698.1391 8575.8125 512
-1159.5786 693.90375 8523.7852 768
-1098.6124 687.46472 8444.6895 768
-1024.9631 672.09247 8255.8594 1024
-1066.6683 734.6189 9023.9229 768
-1013.0186 734.6189 9023.9229 989963
-911.10266 697.66003 8569.9268 1280
-866.96893 703.18903 8637.8447 1024
-795.47723 685.82745 8424.5781 1024
-761.91797 701.03406 8611.373 1024
-718.05597 708.2691 8700.2471 1024
-689.97711 733.40387 9008.998 1024
-636.41608 733.40387 9008.998 1280
-574.03351 722.30371 8872.6455 1280
-510.01697 706.69293 8680.8857 134144
-468.53281 722.30371 8872.6455 1792
-434.40134 754.64874 9269.9658 1280
-372.7128 741.56476 9109.2451 463619
-316.56458 736.92938 9052.3047 1280
-256.36478 719.03156 8832.4512 1024
-208.92763 736.92938 9052.3047 1280
-150.27354 713.95526 8770.0947 792580
-98.168655 714.21552 8773.292 1280
-46.008999 714.21552 8773.292 199424
6.1516685 714.33228 8774.7256 529664
57.782379 707.74902 8693.8584 528385
110.0173 711.28876 8737.3398 1280
162.51591 713.716 8767.1562 1280
208.37933 692.90112 8511.4697 134400
258.62854 691.95447 8499.8408 1280
309.16248 691.95447 8499.8408 1187592
370.57721 712.88605 8756.9609 331008
422.63977 712.88605 8756.9609 331264
471.2803 707.74701 8693.834 1280
530.49091 717.92859 8818.9023 661250
590.17273 726.85889 8928.6006 464384
667.79449 754.58691 9269.2061 793602
731.81128 763.88617 9383.4365 1253895
762.08636 739.14215 9079.4863 1978127
843.38556 763.88617 9383.4365 1977872
915.23138 777.52875 9551.0195 464384
997.03156 797.53986 9796.833 67072
1016.8923 768.53052 9440.4873 1024
1026.2085 735.00354 9028.6484 768
1087.8955 740.45496 9095.6123 768
1141.9714 740.45496 9095.6123 512
1231.5264 762.41943 9365.4199 1024
1308.3029 774.91504 9518.9131 1024
1374.1986 780.19684 9583.7939 67328
1422.9038 775.68677 9528.3936 1055751
1479.5527 775.68677 9528.3936 990215
1541.2219 778.22168 9559.5312 659974
1623.1776 790.45538 9709.8086 68864
1680.9052 790.45538 9709.8086 264704
1690.7883 768.70337 9442.6104 2304
1731.5244 761.9256 9359.3535 725762
1841.6226 785.14117 9644.5293 1024
1864.3204 770.8183 9468.5898 1024
1910.5502 766.77936 9418.9766 66560
1922.4098 749.56915 9207.5693 66816
1968.4103 746.25531 9166.8623 1024
2025.5096 747.21436 9178.6436 768
2110.3792 758.09882 9312.3457 768
2171.6956 760.18225 9337.9385 1024
2251.7783 768.56702 9440.9355 1024
2282.7288 760.18225 9337.9385 1280
2461.8064 800.35278 9831.3867 134400
2539.6289 806.50488 9906.957 1024
2621.9485 813.77374 9996.2461 1280
2641.1304 801.55859 9846.1982 133888
2699.6687 801.55859 9846.1982 1280
2689.0918 781.47314 9599.4717 1280
2778.4421 790.65869 9712.3057 1280
2721.6721 758.73541 9320.166 1024
2773.1638 757.66467 9307.0127 1280
2764.4109 740.49805 9096.1416 768
2991.5339 785.96173 9654.6084 1280
3048.9333 785.96173 9654.6084 67584
3024.9314 765.36566 9401.6104 2048
3080.8267 765.36566 9401.6104 397056
3235.4636 789.45886 9697.5664 66816
3324.1641 796.90137 9788.9902 1280
3345.085 788.11865 9681.1045 1280
3386.7678 784.44196 9635.9404 1280
3444.0562 784.44196 9635.9404 1536
3593.9482 805.1889 9890.792 1056516
3742.8723 825.0545 10134.817 1253383
3754.2209 814.44476 10004.49 1536
3809.4612 813.53955 9993.3691 134400
3779.9478 794.84015 9763.6699 134656
3818.7949 790.86371 9714.8242 3328
4013.311 818.76422 10057.549 661762
4039.9529 812.09991 9975.6855 464128
3977.2529 787.92896 9678.7744 3227428
3870.5405 755.8526 9284.7539 1024
0 0 0 0
0 0 0 0
0 0 0 0
0 0 0 0
0 0 0 0
0 0 0 0
0 0 0 0
0 0 0 0
0 0 0 0
0 0 0 0
0 0 0 0
1570.722 261.91232 3217.2827 1514774
1616.9377 266.37482 3272.0989 256
1650.4329 268.66052 3300.1763 512
1670.0532 268.66052 3300.1763 256
1664.7432 264.6965 3251.4832 512
1622.4631 255.01273 3132.5293 132356
1616.8889 251.25255 3086.3398 330509
1659.7107 255.01273 3132.5293 1316375
1649.1073 250.57184 3077.9783 11910593
1645.4894 247.2782 3037.5198 6249316
1727.4896 256.78275 3154.272 8357265
1732.2869 254.73056 3129.0632 10988472
1750.89 254.73056 3129.0632 12962510
1760.119 253.3811 3112.4866 13487827
1778.6237 253.3811 3112.4866 13553363
1768.2651 249.31163 3062.498 13158607
1786.4725 249.31163 3062.498 12565701
1770.361 244.57054 3004.2595 11315120
1769.4725 242.00623 2972.7598 2495519
0 0 0 0
0 0 0 0
0 0 0 0
0 0 0 0
0 0 0 0
0 0 0 0
0 0 0 0
6620.0488 838.41302 10298.911 2424833
6917.7266 868.08411 10663.386 3541260
7002.0083 870.68115 10695.287 3936018
6864.0869 845.84973 10390.262 6961468
6966.5181 850.81525 10451.258 3869454
7054.397 853.9314 10489.536 6500920
7116.7598 853.9314 10489.536 6764607
7265.6689 864.22571 10615.989 6633021
7328.7842 864.22571 10615.989 6239804
7331.6274 857.17908 10529.43 4269096
7394.228 857.17908 10529.43 1312007
7474.5347 859.21442 10554.432 458752
7532.6968 858.69159 10548.009 196608
7386.5244 835.07648 10257.926 0
7447.5103 835.07648 10257.926 0
7501.27 834.27264 10248.052 197379
7562.1973 834.27264 10248.052 0
7651.5464 837.38318 10286.261 65793
7657.3867 831.37762 10212.489 0
7706.7202 830.15149 10197.428 0
7767.3472 830.15149 10197.428 0
7921.2817 840.04675 10318.979 2
8073.5845 849.61829 10436.554 65536
8192.2617 855.53198 10509.197 65536
8162.7466 845.99762 10392.078 65536
8198.3652 843.30615 10359.018 65536
8196.042 836.78113 10278.865 65536
8252.3105 836.29047 10272.838 196608
8266.0283 831.52649 10214.318 196608
8310.7568 829.92889 10194.693 196608
8553.0381 847.93945 10415.933 131072
8614.9629 847.93945 10415.933 131072
8582.2988 838.69574 10302.384 131072
8648.7871 839.2041 10308.628 65536
8754.3408 843.46899 10361.018 65536
8815.9395 843.46899 10361.018 0
9035.6797 858.4942 10545.585 0
9098.377 858.4942 10545.585 0
9064.5947 849.45319 10434.526 0
9080.0947 845.12177 10381.32 0
8979.1387 830.08319 10196.589 0
9039.7607 830.08319 10196.589 0
9215.1191 840.54883 10325.146 0
9276.5049 840.54883 10325.146 0
10148.163 913.48535 11221.085 0
10582.724 946.38086 11625.168 460038
10192.302 905.55249 11123.64 196609
10258.435 905.55249 11123.64 1117708
10087.606 884.76898 10868.339 919817
10152.221 884.76898 10868.339 2499361
11201.111 970.00635 11915.379 4406846
11271.952 970.00635 11915.379 7367787
12519.378 1070.625 13151.359 9602953
12914.56 1097.5649 13482.286 4270639
12564.005 1061.1862 13035.416 3941929
12215.579 1025.4321 12596.219 4139311
0 0 0 0
0 0 0 0
0 0 0 0
0 0 0 0
0 0 0 0
-6382.3345 621.51062 7114.9146 1536
-6677.7397 654.61572 7493.8945 1319688
-6552.9038 646.69275 7403.1943 1582607
-6390.6978 634.94977 7268.7632 1385480
-6347.4824 634.94977 7268.7632 858880
-6099.7563 614.35193 7032.9634 595712
-6057.9434 614.35193 7032.9634 2304
-6016.1304 614.35193 7032.9634 1792
-6089.189 626.16437 7168.1899 768
-5964.5327 617.66864 7070.9326 1280
-6003.9551 626.16437 7168.1899 67328
-6019.624 632.28656 7238.2754 1280
-6016.0073 636.4566 7286.0132 1280
-6074.6841 647.32526 7410.4346 66816
-6001.5928 644.20874 7374.7573 265984
-5913.4419 639.41791 7319.9136 68608
-5894.1558 642.05762 7350.1323 2304
-5920.6045 649.75598 7438.2612 1536
-5852.2837 647.09143 7407.7578 1792
-5772.5093 643.11041 7362.1841 1792
-5728.7393 643.11041 7362.1841 67328
-5783.812 654.29199 7490.1885 266240
-5768.6387 657.63879 7528.5024 989701
-5726.2832 657.91498 7531.6641 1280
-5747.6162 665.57056 7619.3032 1280
-5647.8696 659.21552 7546.5522 1280
-5643.1655 663.94073 7600.645 1280
-5680.9644 673.78326 7713.3203 67840
-5338.9668 638.37421 7307.9653 68864
-5295.519 638.37421 7307.9653 595968
-5383.2622 654.32013 7490.5107 2560
-5376.4146 658.9389 7543.3857 991491
-5132.5547 634.34259 7261.812 134400
-5089.3813 634.34259 7261.812 595968
-4921.7188 618.69348 7082.6646 67840
-5011.5181 635.41827 7274.126 859649
-4893.5005 625.85541 7164.6528 1518595
-5024.5444 648.25812 7421.1143 728066
-4887.6602 636.1839 7282.8911 398337
-4815.9268 632.44977 7240.1431 333056
-4772.8818 632.44977 7240.1431 70144
-4743.999 634.34332 7261.8203 1385989
-4739.0845 639.50616 7320.9233 859650
-4695.5596 639.50616 7320.9233 69888
-4890.0195 672.22144 7695.4404 68608
-4604.2725 638.91815 7314.1924 794112
-4572.9458 640.6214 7333.6904 200960
-4529.3447 640.6214 7333.6904 70144
-4495.1274 641.96143 7349.0312 794880
-4435.2568 639.62823 7322.3213 1650438
-4536.2207 660.6734 7563.2412 729088
-4491.2549 660.6734 7563.2412 794624
-4492.6445 667.56128 7642.0923 992256
-4447.21 667.56128 7642.0923 1387522
-4384.1611 664.88989 7611.5107 1255682
-4338.9087 664.88989 7611.5107 2374674
-4228.8052 654.84747 7496.5474 1057797
-4450.8174 696.56836 7974.1587 2703126
-4249.186 672.17206 7694.8755 266752
-4185.2305 669.26062 7661.5459 69376
-4129.2153 667.56866 7642.1772 69120
-4076.8159 666.43018 7629.1436 464640
-4150.8472 686.16602 7855.0752 69376
-4172.6294 697.61554 7986.147 398336
-4021.5713 680.09918 7785.623 135936
-3975.5239 680.14026 7786.0938 595712
-3929.2334 680.14026 7786.0938 332032
-3897.5105 682.69196 7815.3047 1536
-3851.0461 682.69196 7815.3047 1536
-3914.3274 702.38458 8040.7417 1536
-3866.5232 702.38458 8040.7417 1024
-3587.4924 659.85468 7553.8691 1253383
-3776.6619 703.4552 8052.9976 332800
-3728.7847 703.4552 8052.9976 67840
-3626.417 693.04163 7933.7852 595971
-3726.6602 721.58459 8260.5391 924676
-3440.7808 675.12744 7728.708 397314
-3394.8313 675.12744 7728.708 528388
-3423.9983 690.27075 7902.0654 768
-3391.7546 693.28284 7936.5469 1024
-3344.9045 693.35229 7937.3418 1024
-3297.7148 693.35229 7937.3418 1024
-3269.1621 697.32758 7982.8506 528643
-3194.1829 691.37128 7914.6636 1280
-3263.8464 717.01227 8208.1963 1280
-3215.0464 717.01227 8208.1963 1536
-3166.2463 717.01227 8208.1963 1024
-2981.6045 685.76868 7850.5264 1054728
-3066.9121 716.60706 8203.5576 1536
-2974.4338 706.22986 8084.7617 2816
-2925.9751 706.13513 8083.6768 2816
-2878.3015 706.22986 8084.7617 2048
-2915.0583 727.39581 8327.0645 1536
-2857.4587 725.34149 8303.5469 1024
-2782.1904 718.651 8226.9561 1714188
-2763.719 726.6546 8318.5791 68864
-2753.825 737.24603 8439.8281 201728
-2736.7942 746.28455 8543.2988 1715977
-2745.3733 762.7804 8732.1396 1320967
-2680.7378 759.17804 8690.9004 662528
-2629.0681 759.17804 8690.9004 2304
-2596.5063 764.80634 8755.332 332800
-2474.4299 743.75891 8514.3857 858881
-2333.074 715.9162 8195.6484 2048
-2284.3486 715.9162 8195.6484 3328
-2246.9814 719.55347 8237.2871 331520
-2170.6365 710.59277 8134.707 1536
-2087.3105 698.88629 8000.6938 1536
-2059.8938 705.79028 8079.7295 265985
-2011.8577 705.79028 8079.7295 1024
-1941.0375 697.60181 7985.9897 1280
-1913.3362 704.88806 8069.4009 1024
-1865.3613 704.88806 8069.4009 1536
-1828.333 709.13373 8118.0044 1280
-1789.0061 712.69397 8158.7612 2048
-1778.8003 728.37708 8338.2979 1536
-1704.688 718.04089 8219.9717 1792
-1665.2988 722.15228 8267.0381 463616
-1616.149 722.15228 8267.0381 134400
-1537.7235 708.66058 8112.5879 727297
-1543.0087 734.12244 8404.0693 529920
-1466.1141 720.88104 8252.4854 200192
-1417.0508 720.88104 8252.4854 3584
-1432.8086 755.03949 8643.5234 201472
-1377.5967 752.94958 8619.5986 1911567
-1336.505 758.71399 8685.5879 1056264
-1275.105 752.94958 8619.5986 1280
-1217.5879 749.09143 8575.4316 768
-1153.7914 740.86401 8481.2451 512
-1098.6124 737.67072 8444.6895 512
-1048.4064 737.67072 8444.6895 512
-1030.0654 761.21906 8714.2656 768
-1005.7612 782.6214 8959.2744 768
-926.7384 761.45764 8716.9971 1024
-874.00293 760.66522 8707.9258 1024
-819.26355 757.91919 8676.4893 1024
-762.79382 753.09576 8621.2715 768
-718.05597 759.99451 8700.2471 512
-676.01239 771.03717 8826.6611 1024
-622.35193 769.57373 8809.9082 768
-571.05841 771.03717 8826.6611 768
-508.33594 755.80389 8652.2734 768
-458.40665 758.30322 8680.8857 1024
-427.1796 796.29926 9115.8555 594948
-372.98325 796.29926 9115.8555 792328
-319.84106 798.93225 9145.998 1024
-265.46558 798.93225 9145.998 1280
-214.43469 811.59094 9290.9121 331011
-160.17033 816.54987 9347.6807 1121548
-101.0797 789.10089 9033.4512 1280
-46.008999 766.37524 8773.292 67072
6.1506634 766.37524 8773.292 1280
57.636276 757.51611 8671.875 133376
112.06275 777.4248 8899.7852 66816
164.97444 777.4248 8899.7852 1024
213.90912 763.23468 8737.3398 1024
258.98239 743.50421 8511.4697 199424
309.58545 743.50421 8511.4697 200448
369.01532 761.72455 8720.0527 1845776
416.01263 752.95392 8619.6484 1188356
467.25885 752.95392 8619.6484 67840
537.08972 779.94196 8928.6006 529664
596.32446 788.07172 9021.6689 463361
654.55524 793.64246 9085.4414 595712
709.13104 794.27002 9092.626 1536
750.97888 781.5625 8947.1523 1319689
858.44794 834.31226 9551.0195 1384974
935.65814 852.93292 9764.1855 1024
997.03156 855.78485 9796.833 1024
1016.8923 824.65686 9440.4873 768
988.17828 759.45374 8694.0566 768
1087.8955 794.53088 9095.6123 768
1141.5424 794.23236 9092.1943 512
1202.4966 798.815 9144.6562 768
1280.4558 813.80914 9316.3047 768
1342.8865 818.09949 9365.4199 1024
1391.2319 813.80914 9316.3047 1280
1424.8293 801.5506 9175.9717 1024
1556.9917 843.60004 9657.3447 2173722
1635.1675 854.44818 9781.5312 1280
1680.9052 848.18292 9709.8086 1024
1669.7164 814.56238 9324.9287 1024
1723.755 813.90118 9317.3584 768
1801.0184 823.90552 9431.8857 1024
1857.0935 823.90552 9431.8857 790789
1859.4113 800.75488 9166.8623 133888
1921.0005 803.72107 9200.8193 768
1968.4103 800.75488 9166.8623 512
2025.5096 801.78394 9178.6436 512
2099.4202 809.23907 9263.9883 768
2171.6956 815.69885 9337.9385 1280
2245.6833 822.46375 9415.3818 1536
2284.6797 816.39594 9345.9189 397314
2426.2915 846.41376 9689.5557 200192
2483.8987 846.41376 9689.5557 1024
2582.2974 859.9989 9845.0752 1792
2535.5603 825.71759 9452.6309 857096
2596.5525 827.24481 9470.1133 1024
2610.8501 814.14642 9320.166 512
2666.2612 814.14642 9320.166 512
2717.8311 812.99738 9307.0127 256
2725.6609 799.07117 9147.5879 512
2758.926 793.00073 9078.0947 768
2875.8364 810.74402 9281.2168 1024
2954.2622 817.17426 9354.8281 1024
3009.8794 817.17426 9354.8281 1280
3065.4963 817.17426 9354.8281 1536
3125.4502 818.30969 9367.8262 462336
3287.5283 845.67554 9681.1045 1280
3329.4795 841.73029 9635.9404 1024
3349.3604 832.43317 9529.5088 2048
3295.2742 805.36786 9219.6709 199936
3459.9365 831.77576 9521.9824 1536
3694.7415 873.92432 10004.49 134400
3754.2209 873.92432 10004.49 463872
3798.9963 870.55487 9965.917 1792
3779.9478 852.88788 9763.6699 2048
3806.4983 845.88855 9683.543 68096
4013.311 878.55914 10057.549 67328
4039.9529 871.4082 9975.6855 200448
3977.2529 845.47198 9678.7744 1384714
0 0 0 0
0 0 0 0
0 0 0 0
0 0 0 0
0 0 0 0
0 0 0 0
0 0 0 0
0 0 0 0
0 0 0 0
0 0 0 0
0 0 0 0
0 0 0 0
1596.9351 285.73007 3270.9741 1448468
1616.9377 285.82834 3272.0989 66304
1636.3912 285.82834 3272.0989 263683
1670.0532 288.28101 3300.1763 66048
1684.8785 287.46286 3290.8103 66305
1638.1135 276.276 3162.7458 395529
1616.8889 269.60168 3086.3398 264200
1659.4749 273.5976 3132.0842 5726307
1678.0958 273.5976 3132.0842 10265258
1696.717 273.5976 3132.0842 10133161
1727.4896 275.5358 3154.272 10659247
1738.2203 274.26996 3139.781 9672351
1732.0598 270.39413 3095.4116 11580605
1750.4631 270.39413 3095.4116 13422547
1778.6729 271.89322 3112.573 13487827
1768.2651 267.51904 3062.498 13684693
1762.4437 263.92078 3021.3062 12894664
1770.361 262.4317 3004.2595 13618387
1787.5774 262.3371 3003.1765 12366781
1787.1464 259.68008 2972.7598 1117198
0 0 0 0
0 0 0 0
0 0 0 0
0 0 0 0
0 0 0 0
0 0 0 0
6620.0488 899.64294 10298.911 2490369
6720.5503 904.93091 10359.446 2490370
7060.4336 942.06323 10784.529 2621444
6864.0869 907.62274 10390.262 3082765
6902.9668 904.62262 10355.917 2819335
7098.3169 921.99933 10554.843 2228224
7301.0396 940.02094 10761.149 1769729
7365.0176 940.02094 10761.149 5185574
7582.7803 959.47998 10983.912 7751501
7516.124 942.92523 10794.397 7159364
7545.1177 938.54883 10744.298 6305341
7608.9951 938.54883 10744.298 5452345
7537.2832 921.9635 10554.432 1575435
7386.5244 896.06268 10257.926 1512979
7607.9482 915.36609 10478.906 2369318
7761.8301 926.29535 10604.022 1974817
7732.5479 915.36609 10478.906 1119764
7663.1279 899.89795 10301.83 1119765
7683.7378 895.16357 10247.633 132099
7694.8848 889.41003 10181.767 526601
7767.3472 890.77802 10197.428 1053201
7921.2817 901.396 10318.979 0
8129.7808 918.01208 10509.197 65536
8153.4707 913.66534 10459.437 65536
8053.0161 895.57812 10252.379 65536
8113.9692 895.57812 10252.379 65536
8029.6704 879.66559 10070.215 0
8023.9507 872.5332 9988.5654 196608
8068.8403 870.96863 9970.6533 196608
8310.7568 890.53912 10194.693 65536
8444.4863 898.3175 10283.738 0
8589.6611 907.19281 10385.341 131584
8572.0342 898.87 10290.062 0
8648.7871 900.49176 10308.628 0
8754.3408 905.06812 10361.018 0
8815.9395 905.06812 10361.018 0
9035.6797 921.19067 10545.585 65792
9098.377 921.19067 10545.585 65536
9067.416 911.77301 10437.773 65536
9184.1152 917.23041 10500.248 65536
9246.542 917.23041 10500.248 65536
