# .PCD v0.7 - Point Cloud Data file format
VERSION 0.7
FIELDS x y z rgb
SIZE 4 4 4 4
TYPE F F F U
COUNT 1 1 1 1
WIDTH 1381
HEIGHT 1
VIEWPOINT 0 0 0 1 0 0 0
POINTS 1381
DATA ascii
9235.3262 -3710.6746 10704.318 1252628
9233.2197 -3684.4387 10628.635 1252624
9273.332 -3675.2922 10602.25 330242
0 0 0 0
0 0 0 0
0 0 0 0
9299.2041 -3587.9922 10350.412 2568997
9937.2578 -3808.9722 10987.882 2502695
10057.379 -3829.8386 11048.075 1778200
9902.6592 -3746.4536 10807.531 987661
9780.2002 -3676.27 10605.07 725264
9775.8564 -3651.1001 10532.462 1054745
10044.197 -3727.4443 10752.694 1646366
10071.987 -3714.1184 10714.253 988688
9868.9766 -3616.3853 10432.318 792080
9931 -3616.3853 10432.318 1055510
10763.264 -3895.1282 11236.419 2041892
11799.717 -4243.8716 12242.451 4017478
11280.705 -4032.3315 11632.214 3819330
0 0 0 0
0 0 0 0
0 0 0 0
0 0 0 0
0 0 0 0
-6522.6519 -2477.3948 7271.3384 1056276
-6534.6294 -2498.5032 7333.2935 595212
-6531.7622 -2514.1812 7379.3096 398090
-6520.854 -2526.9553 7416.8027 661006
-6544.2271 -2553.2786 7494.0635 793104
-6357.9639 -2497.6106 7330.6738 923921
-6240.8501 -2468.5261 7245.3086 332297
-6175.6382 -2459.7092 7219.4307 2561
-6195.3726 -2484.8396 7293.1895 594954
-6219.27 -2512.0051 7372.9229 1779996
-6068.9087 -2468.6726 7245.7383 1385238
-6097.6318 -2498.0884 7332.0757 1253650
-6058.8506 -2500.073 7337.9009 1253651
-6051.8545 -2515.2971 7382.585 1319444
-5892.8364 -2467.0981 7241.1177 1845788
-5964.0713 -2515.2971 7382.585 1055762
-5863.9409 -2491.4031 7312.4541 1187348
-5900.6016 -2525.7041 7413.1304 67843
-6115.8315 -2637.532 7741.3535 660749
-5828.8262 -2532.8176 7434.0093 133893
-5743.1631 -2514.6619 7380.7207 198660
-5627.3418 -2482.9202 7287.5557 133893
-5607.373 -2493.3059 7318.0391 265990
-5681.4248 -2545.9873 7472.6631 529163
-5483.1245 -2476.4893 7268.6812 595212
-5439.9102 -2476.4893 7268.6812 1451548
-5604.8184 -2571.9946 7548.9966 1780512
-5683.3418 -2629.0806 7716.5483 1518110
-5704.9355 -2660.5464 7808.9023 2110245
-5619.3877 -2642.1519 7754.9131 662800
-5446.2563 -2581.9321 7578.1631 1254934
-5408.7183 -2585.5249 7588.709 399622
-5356.1475 -2581.9321 7578.1631 3952441
-5347.1709 -2599.4707 7629.6406 4479555
-5301.8105 -2599.4707 7629.6406 1452571
-5333.3682 -2637.509 7741.2861 134916
-5389.604 -2688.5195 7891.0059 68612
-5398.2886 -2716.4978 7973.124 726547
-5420.6836 -2751.9321 8077.1265 200458
-5372.6631 -2751.9321 8077.1265 200969
-5291.9888 -2735.0559 8027.5933 463115
-5075.5493 -2647.0662 7769.3374 2371882
-5090.8672 -2679.4397 7864.356 924436
-5310.0508 -2820.7073 8278.9863 595215
-5018.02 -2690.5195 7896.876 529421
-4926.1714 -2666.2183 7825.5498 2042914
-5031.5156 -2749.199 8069.104 1779743
-4856.3521 -2679.0337 7863.1636 1122069
-4946.7505 -2755.427 8087.3843 2043942
-4898.6689 -2755.427 8087.3843 1517088
-4764.4531 -2706.4978 7943.7734 793618
-4741.8125 -2720.6047 7985.1782 1517341
-4838.6582 -2804.2451 8230.6689 2504236
-4853.3032 -2841.4688 8339.9229 1648926
-4763.0469 -2817.4099 8269.3086 2241320
-4713.8833 -2817.4099 8269.3086 2241576
-4648.1064 -2807.3752 8239.8564 595471
-4569.4155 -2789.2446 8186.6411 1583389
-4371.8838 -2697.3999 7917.0703 1320474
-4239.645 -2644.2793 7761.1572 4018244
-4309.0991 -2717.1704 7975.0981 4084294
-4261.6851 -2717.1704 7975.0981 1452318
-4297.6289 -2770.9158 8132.8452 3097143
-4613.8691 -3008.6633 8830.6514 6189671
-4819.8809 -3179.1775 9331.123 4413515
-4755.2715 -3173.0828 9313.2354 2966327
-4699.9019 -3173.0828 9313.2354 2045481
-4607.5537 -3147.8201 9239.0869 794901
-4134.9292 -2859.0129 8391.416 1255195
-3909.8269 -2736.3855 8031.4961 2241577
-4035.1506 -2859.0129 8391.416 1451290
-3927.9822 -2817.9209 8270.8086 2505005
-3745.3413 -2720.9573 7986.2129 3031092
-3697.8613 -2720.9573 7986.2129 1517853
-3710.9756 -2766.124 8118.7803 2570541
-3608.6572 -2725.3047 7998.9727 2110761
-3555.6143 -2721.1055 7986.6479 3426365
-3513.5452 -2725.3047 7998.9727 399115
-3521.2568 -2768.7617 8126.5229 1913638
-3472.9426 -2768.7617 8126.5229 3032630
-3417.6357 -2763.1089 8109.9307 2176806
-3557.7036 -2917.5115 8563.1143 3229492
-3547.7463 -2951.5828 8663.1162 4808782
-3542.2153 -2990.3945 8777.0312 1847332
-3518.2441 -3014.5664 8847.9775 859667
-3465.6406 -3014.5664 8847.9775 595727
-3280.1438 -2897.1885 8503.4648 2044457
-3353.2793 -3008.1489 8829.1416 2438960
-3298.0325 -3005.6382 8821.7725 1452577
-2993.4822 -2772.1736 8136.5366 2241069
-2879.3545 -2710.2808 7954.8765 3160891
-2826.041 -2704.52 7937.9688 132618
-2717.3535 -2644.6711 7762.3071 11517369
-2970.113 -2940.6104 8630.9111 661012
-3028.0903 -3050.7175 8954.084 2109995
-3020.9331 -3097.97 9092.7734 2899507
-2874.6475 -3001.6682 8810.1201 1782050
-2822.2688 -3001.6682 8810.1201 3097651
-2868.23 -3108.2368 9122.9072 3492407
-2791.5637 -3083.4636 9050.1963 1057555
-2737.7581 -3083.4636 9050.1963 2373674
-2683.9521 -3083.4636 9050.1963 3294521
-2640.4365 -3095.5278 9085.6055 3821378
-2532.0845 -3030.4968 8894.7344 2702899
-2511.7537 -3070.2859 9011.5186 596754
-2373.7795 -2964.8718 8702.1201 1649446
-2424.8323 -3096.1169 9087.335 793367
-2271.2256 -2966.0723 8705.6436 1715497
-2219.468 -2966.0723 8705.6436 531479
-2192.6182 -3000.1531 8805.6738 1518120
-2009.5684 -2816.9456 8267.9453 2768698
-1960.413 -2816.9456 8267.9453 1584168
-2104.7893 -3102.1855 9105.1465 2110768
-2056.4617 -3110.9673 9130.9209 992287
-1982.2894 -3080.0679 9040.2295 1781033
-1922.7825 -3070.8687 9013.2285 333071
-1794.3541 -2947.9114 8652.3398 794904
-1742.9136 -2947.9114 8652.3398 4019014
-1721.4058 -3000.0784 8805.4541 1650718
-1660.0002 -2983.8032 8757.6855 2308647
-1616.704 -3000.0784 8805.4541 2571818
-1537.1562 -2947.9209 8652.3682 2835246
-1479.2168 -2935.0264 8614.5215 2834990
-1391.0208 -2859.0195 8391.4355 2242597
-1366.3254 -2912.728 8549.0742 2374440
-1323.5886 -2930.6401 8601.6475 2308904
-1337.1191 -3079.5842 9038.8096 2506285
-1280.1095 -3071.7339 9015.7686 1980714
-1213.3501 -3038.7803 8919.0469 2638387
-1157.9397 -3032.5364 8900.7207 1519393
-1107.2977 -3038.7803 8919.0469 2966840
-1056.5527 -3045.356 8938.3467 2242863
-1014.9668 -3080.425 9041.2773 2177327
-1031.4788 -3305.6045 9702.1963 1453604
-959.25775 -3256.252 9557.3428 1848614
-902.43671 -3256.252 9557.3428 2177578
-843.4165 -3247.7839 9532.4883 2177572
-786.74323 -3247.7839 9532.4883 2243619
-755.26373 -3359.8606 9861.4424 3230256
-696.96631 -3361.46 9866.1357 4875593
-638.30933 -3361.46 9866.1357 2375972
-579.6524 -3361.46 9866.1357 3888443
-503.76117 -3250.2644 9539.7686 3295798
-443.91095 -3227.481 9472.8975 1452318
-390.21347 -3249.3105 9536.9688 2110505
-333.51355 -3249.3105 9536.9688 1714979
-276.81363 -3249.3105 9536.9688 1451805
-211.02403 -3115.1292 9143.1367 1188888
-155.08444 -3083.6909 9050.8633 1715741
-101.4726 -3089.7217 9068.5635 1650202
-47.008129 -3054.032 8963.8125 2966830
6.1825185 -3004.6013 8818.7295 2176801
0 0 0 0
0 0 0 0
0 0 0 0
0 0 0 0
0 0 0 0
0 0 0 0
0 0 0 0
0 0 0 0
0 0 0 0
0 0 0 0
0 0 0 0
374.57285 -1771.4009 5199.1938 1521430
405.48349 -1771.4009 5199.1938 4351277
441.52618 -1792.2328 5260.3369 3495969
455.79486 -1727.7704 5071.1353 2110231
507.62036 -1804.84 5297.3398 1387793
690.5368 -2311.7693 6785.2153 1715742
748.20526 -2366.5793 6946.0874 1715745
755.99597 -2266.1438 6651.3018 1190422
0 0 0 0
0 0 0 0
709.33551 -1837.8754 5394.3018 5403469
741.40619 -1837.8754 5394.3018 3430700
765.44159 -1818.7828 5338.2637 5207119
714.55701 -1630.2787 4784.9897 4352313
743.00507 -1630.2787 4784.9897 4483900
835.72919 -1766.1104 5183.6655 4418362
852.62305 -1737.731 5100.3701 4023602
811.66455 -1597.4413 4688.6094 3497513
913.26923 -1737.731 5100.3701 4023600
950.80469 -1751.0132 5139.3545 3496997
973.70892 -1737.3623 5099.2881 3694376
1026.412 -1776.0995 5212.9849 3562023
1081.4863 -1816.5492 5331.7075 2047520
1116.9124 -1822.632 5349.5605 2244642
1128.2294 -1790.1248 5254.1499 2639655
1169.6627 -1805.8666 5300.3535 4416318
1175.02 -1766.5449 5184.9414 3626802
1088.493 -1594.6249 4680.3433 4547651
0 0 0 0
0 0 0 0
0 0 0 0
0 0 0 0
0 0 0 0
0 0 0 0
0 0 0 0
0 0 0 0
0 0 0 0
0 0 0 0
0 0 0 0
0 0 0 0
2115.761 -2326.4202 6828.2168 1124386
0 0 0 0
0 0 0 0
0 0 0 0
0 0 0 0
1606.7982 -1612.121 4731.6953 1455380
1650.2721 -1627.2496 4776.0991 4549174
1748.6077 -1695.0474 4975.0908 5667900
1719.6921 -1639.2886 4811.4346 3890714
1702.7164 -1596.5496 4685.9922 4482855
1739.333 -1604.6284 4709.7041 1257998
1832.5283 -1663.8214 4883.4399 4087098
1772.4999 -1584.2197 4649.8032 3889461
1780.2042 -1566.6715 4598.2979 1586957
1776.9038 -1540.1158 4520.355 3166240
1680.3345 -1434.7158 4210.998 2903064
1692.8691 -1424.199 4180.1304 3231773
1703.7039 -1412.5769 4146.0186 1784337
1604.3961 -1311.2673 3848.6677 3559719
1559.3562 -1256.536 3688.0269 2572059
1501.854 -1193.4196 3502.7756 925706
1503.5007 -1178.3884 3458.6582 398342
1539.641 -1190.4329 3494.0093 726542
1519.4524 -1159.1835 3402.29 989457
1530.7413 -1152.4539 3382.5381 1121043
1550.9977 -1152.5625 3382.8572 1318422
1571.1099 -1152.5625 3382.8572 1120790
1553.5812 -1125.2985 3302.8352 198661
1573.2174 -1125.2985 3302.8352 67331
1592.8538 -1125.2985 3302.8352 1025
1632.0576 -1138.9541 3342.9153 527625
1608.6283 -1109.0974 3255.2837 724751
1626.437 -1108.0449 3252.1946 1185554
1633.7008 -1099.9176 3228.3403 1317141
1634.8956 -1087.9406 3193.1868 1646106
1632.9178 -1074.1514 3152.7146 1514520
1664.2189 -1082.318 3176.6841 1792
1683.1051 -1082.318 3176.6841 2304
1669.6709 -1061.7649 3116.3591 1123334
1688.1984 -1061.7649 3116.3591 5074211
1850.2871 -1151.075 3378.4912 5405218
2214.7571 -1363.0176 4000.5583 3626779
2493.2053 -1518.079 4455.6753 5335883
2477.5452 -1492.684 4381.1392 4414527
2503.5923 -1492.684 4381.1392 4743492
2747.9326 -1621.494 4759.2061 4612670
2776.2275 -1621.494 4759.2061 5007923
2743.4402 -1586.1781 4655.5513 5073967
2764.9585 -1582.6521 4645.2021 2902795
2808.9873 -1591.9532 4672.5015 3692566
2831.2546 -1588.86 4663.4229 2837007
2976.7703 -1654.321 4855.5562 1782794
2855.405 -1571.6321 4612.8574 1124102
3002.2341 -1636.7279 4803.9185 1387019
2979.5659 -1609.0625 4722.7188 1585168
2853.5256 -1526.6106 4480.7163 2374690
2845.074 -1508.011 4426.125 4613161
2879.9575 -1512.5115 4439.334 3560974
2965.6121 -1543.3521 4529.8535 2574083
2992.5435 -1543.3521 4529.8535 2771464
3060.6094 -1564.3773 4591.5645 4284955
3102.1189 -1571.5769 4612.6958 4285208
3090.999 -1552.2214 4555.8857 4943646
3088.385 -1537.4364 4512.4907 6259238
3142.7422 -1551.0228 4552.3677 5469720
3088.4414 -1511.2095 4435.5127 5403671
3105.52 -1506.7014 4422.2812 3164164
3131.8118 -1506.7014 4422.2812 3690002
3157.0447 -1506.1962 4420.7983 529409
3127.2458 -1479.6611 4342.916 2503707
3082.0706 -1446.3447 4245.1299 5860418
3181.4429 -1480.8516 4346.4097 5665057
3154.3035 -1456.3898 4274.6128 4283150
3064.8716 -1403.7877 4120.2217 5336850
3139.5325 -1426.5823 4187.1255 6520366
3154.9727 -1422.3206 4174.6172 3889179
3037.8579 -1358.8334 3988.2776 6256965
0 0 0 0
0 0 0 0
7738.8276 -3382.375 9927.5234 1185814
8409.4277 -3647.6516 10706.13 330253
8473.0781 -3647.6516 10706.13 1185815
8432.583 -3603.1511 10575.518 1514525
8449.1494 -3583.5105 10517.871 790289
8511.6807 -3583.5105 10517.871 790289
8695.4932 -3634.1985 10666.645 987925
8768.3477 -3638.115 10678.139 527886
8830.5508 -3637.5867 10676.589 68872
8950.543 -3660.7019 10744.434 462090
9014.4219 -3660.7019 10744.434 4543820
8997.5703 -3628.1484 10648.887 3888198
9025.4092 -3613.9448 10607.198 5070928
9124.1914 -3628.1484 10648.887 6716007
9358.3174 -3695.6035 10846.873 6781799
9309.1729 -3651.0374 10716.067 5269077
9296.4092 -3621.2485 10628.635 6782318
9569.3271 -3702.3928 10866.799 7637628
9629.4043 -3700.6519 10861.689 6583399
9099.4785 -3473.7024 10195.576 1583132
9352.2959 -3546.5894 10409.505 7241843
9748.0039 -3672.3491 10778.619 7241847
9814.6084 -3673.2932 10781.39 6583660
9876.168 -3672.3491 10778.619 7043441
9780.2002 -3613.22 10605.07 6977391
9778.373 -3589.4053 10535.173 6055521
10008.288 -3650.4192 10714.253 4345162
9998.4775 -3623.7769 10636.056 1516319
9952.7705 -3584.541 10520.896 923668
10015.32 -3584.541 10520.896 3358012
10763.264 -3828.325 11236.419 4081991
11202.28 -3959.8987 11622.599 3424061
11280.705 -3963.1746 11632.214 2107688
0 0 0 0
0 0 0 0
0 0 0 0
0 0 0 0
0 0 0 0
-6522.6519 -2434.1646 7271.3384 661261
-6534.6294 -2454.9045 7333.2935 1319192
-6564.9487 -2482.8604 7416.8027 200455
-6520.854 -2482.8604 7416.8027 68358
-6449.5249 -2472.4204 7385.6162 726288
-6283.9258 -2425.4507 7245.3086 529165
-6215.4312 -2415.5718 7215.7983 200454
-6141.0273 -2403.2432 7178.9697 2561
-6195.3726 -2441.4795 7293.1895 2240293
-6424.0225 -2549.4287 7615.6558 2306340
-6116.1831 -2444.4893 7302.1802 727306
-6072.7695 -2444.4893 7302.1802 464135
-6037.8218 -2447.9214 7312.4326 1648410
-6038.3374 -2465.8855 7366.0957 1582874
-5955.271 -2449.7305 7317.8369 1319443
-5911.7642 -2449.7305 7317.8369 1451029
-5777.896 -2412.0088 7205.1543 1977373
-5820.4663 -2447.9285 7312.4541 332547
-5984.6396 -2535.9167 7575.2925 1319442
-5828.8262 -2488.6206 7434.0093 2569763
-5722.417 -2461.8562 7354.0591 2373408
-5539.541 -2401.5295 7173.8511 2570531
-5607.373 -2449.7981 7318.0391 2438948
-5723.0225 -2519.8757 7527.375 2043680
-5694.5801 -2527.1138 7548.9966 1385755
-5662.0176 -2532.6238 7565.4561 727826
-5691.7651 -2566.3167 7666.1035 2635823
-5757.1807 -2616.7651 7816.8027 1977893
-5796.8491 -2656.2373 7934.7139 201482
-5567.2266 -2571.9495 7682.9297 1122583
-5426.6938 -2527.7656 7550.9434 1188374
-5408.7183 -2540.408 7588.709 1583899
-5363.6011 -2540.408 7588.709 3754810
-5260.8711 -2512.8887 7506.5034 2570789
-5268.6265 -2538.1243 7581.8867 794378
-5482.1421 -2663.7742 7957.2285 3030832
-5558.2192 -2724.2488 8137.8784 134917
-5493.5518 -2716.1965 8113.8247 135175
-5420.6836 -2703.9114 8077.1265 267017
-5372.6631 -2703.9114 8077.1265 1253143
-5261.686 -2671.9414 7981.626 3490360
-5137.623 -2632.6841 7864.356 792847
-5090.8672 -2632.6841 7864.356 858641
-5289.7061 -2760.8677 8247.2666 661264
-5045.8999 -2658.2581 7940.7505 792850
-4926.1714 -2619.6934 7825.5498 1253144
-4951.48 -2658.2581 7940.7505 1320218
-4809.4155 -2606.844 7787.1665 2175271
-4946.7505 -2707.3452 8087.3843 2241063
-4898.6689 -2707.3452 8087.3843 1912099
-4838.0859 -2700.3677 8066.541 1978661
-4790.1279 -2700.3677 8066.541 1452062
-4854.9082 -2764.5652 8258.3115 2373164
-4940.481 -2842.0349 8489.7295 2044199
-4892.3921 -2843.4211 8493.8701 1517854
-4697.0942 -2758.3872 8239.8564 1583905
-4618.0874 -2740.5728 8186.6411 1386782
-4484.915 -2689.8923 8035.2485 1912869
-4506.5713 -2731.981 8160.9761 2570543
-4380.1455 -2684.2385 8018.3599 2043942
-4309.0991 -2669.7561 7975.0981 1188122
-4187.5815 -2623.3337 7836.4243 529936
-4297.6289 -2722.564 8132.8452 991002
-4563.8691 -2924.1272 8734.9551 3491906
-4809.646 -3117.0681 9311.3086 7177592
-4717.4121 -3092.8911 9239.0869 3756612
-4669.605 -3097.6155 9253.1992 2703924
-4390.9961 -2947.5232 8804.8438 2308909
-4115.7988 -2796.127 8352.5928 1189915
-3892.3987 -2676.6514 7995.6953 267531
-3844.8616 -2676.6514 7995.6953 926487
-3993.5977 -2814.9993 8408.9688 3097656
-3822.4104 -2728.4897 8150.5474 2505261
-3698.0754 -2673.6318 7986.6753 2044710
-3650.5923 -2673.6318 7986.6753 2110504
-3603.1096 -2673.6318 7986.6753 2242090
-3527.655 -2652.5989 7923.8457 3821123
-3513.5452 -2677.7485 7998.9727 1124122
-3521.2568 -2720.4475 8126.5229 860437
-3472.9426 -2720.4475 8126.5229 1716003
-3340.4363 -2653.5676 7926.7393 2571569
-3557.7036 -2866.6013 8563.1143 2044711
-3594.3975 -2938.2126 8777.0312 1979176
-3570.8479 -2961.9626 8847.9775 597520
-3565.2373 -3001.5259 8966.1602 2176297
-3465.6406 -2961.9626 8847.9775 4414528
-3458.6248 -3001.5259 8966.1602 2769196
-3353.2793 -2955.6572 8829.1416 1057557
-3300.7876 -2955.6572 8829.1416 2438701
-3259.2366 -2965.6121 8858.8789 1780261
-3229.6394 -2986.9497 8922.6191 5267548
-3385.1147 -3183.0239 9508.332 2504500
-3185.457 -3046.155 9099.4766 4149069
-3016.3694 -2934.2952 8765.3291 3491396
-3078.8069 -3047.6873 9104.0537 1517345
-2912.1448 -2934.2952 8765.3291 662033
-2874.6475 -2949.2896 8810.1201 2175783
-2794.6111 -2920.387 8723.7822 2242087
-2868.23 -3053.9985 9122.9072 4018751
-2791.5637 -3029.6577 9050.1963 4019009
-2692.9009 -2980.0181 8901.9131 3887425
-2658.3533 -3000.7617 8963.8779 2505519
-2640.4365 -3041.5112 9085.6055 1781541
-2565.3296 -3016.71 9011.5186 1123609
-2511.7537 -3016.71 9011.5186 2636846
-2442.4712 -2997.4346 8953.9395 2900528
-2377.7402 -2983.011 8910.8525 4150338
-2271.2256 -2914.3147 8705.6436 2636848
-2219.468 -2914.3147 8705.6436 1123613
-2192.6182 -2947.801 8805.6738 1386018
-2140.2661 -2947.801 8805.6738 1845800
-2123.2102 -2997.6338 8954.5342 793625
-2104.7893 -3048.053 9105.1465 1649702
-2056.4617 -3056.6812 9130.9209 530704
-1986.4246 -3032.6343 9059.0879 2703411
-1887.6471 -2962.1467 8848.5273 2308396
-1811.1653 -2923.6077 8733.4033 1452830
-1759.2428 -2923.6077 8733.4033 1058073
-1712.0671 -2931.7363 8757.6855 2373930
-1625.7549 -2871.2554 8577.0166 1584668
-1574.7623 -2871.2554 8577.0166 1519385
-1581.163 -2979.4026 8900.0742 2966828
-1485.7155 -2896.4802 8652.3682 3888697
-1397.5437 -2822.3027 8430.7852 1650457
-1366.3254 -2861.9014 8549.0742 2704171
-1291.2419 -2809.1301 8391.4355 4085568
-1305.2883 -2953.814 8823.6357 2638382
-1274.5421 -3005.0068 8976.5586 1650977
-1221.174 -3005.0068 8976.5586 1387552
-1136.6602 -2924.8621 8737.1504 1650725
-1103.333 -2975.0635 8887.1123 926491
-1056.5527 -2992.2148 8938.3467 2110507
-1014.9668 -3026.6721 9041.2773 992027
-991.58954 -3122.3191 9326.9941 597526
-936.13794 -3122.3191 9326.9941 729365
-880.68634 -3122.3191 9326.9941 1914149
-811.00293 -3068.4719 9166.1426 2112037
-765.86395 -3106.4221 9279.5068 3164721
-750.39886 -3279.9678 9797.9219 2967594
-697.90125 -3307.2334 9879.3711 3362351
-637.82214 -3300.282 9858.6055 2573092
-585.27795 -3334.8567 9961.8867 3691572
-519.04761 -3290.4543 9829.248 3428151
-426.08551 -3043.8223 9092.5088 1190422
-385.38962 -3153.1431 9419.0713 1453341
-329.7243 -3156.3372 9428.6133 2505515
-273.3916 -3153.1431 9419.0713 2045731
-211.02403 -3060.7708 9143.1367 2308646
-160.16768 -3129.1921 9347.5254 1782302
-101.4726 -3035.8064 9068.5635 1519386
-47.008129 -3000.7397 8963.8125 2967087
6.1825185 -2952.1716 8818.7295 2966831
0 0 0 0
0 0 0 0
0 0 0 0
0 0 0 0
0 0 0 0
0 0 0 0
0 0 0 0
0 0 0 0
0 0 0 0
0 0 0 0
0 0 0 0
374.57285 -1740.4902 5199.1938 928776
402.06555 -1725.8192 5155.3687 3759641
432.71567 -1725.8192 5155.3687 4286241
456.60712 -1700.6464 5080.1724 4614705
507.62036 -1773.3457 5297.3398 3099690
677.8374 -2229.6562 6660.4312 3032875
725.45056 -2254.5657 6734.8403 1914138
730.43536 -2151.3176 6426.418 3164460
0 0 0 0
0 0 0 0
720.57446 -1834.4165 5479.771 6128961
741.40619 -1805.8049 5394.3018 5339450
760.29211 -1775.0231 5302.3506 5339965
790.2135 -1771.4307 5291.6191 3234589
743.00507 -1601.8306 4784.9897 4023846
0 0 0 0
0 0 0 0
0 0 0 0
913.26923 -1707.4077 5100.3701 3957797
950.80469 -1720.4583 5139.3545 3496994
973.70892 -1707.0457 5099.2881 3693605
1026.412 -1745.1069 5212.9849 3034654
1085.1077 -1790.8273 5349.5605 1256976
1116.9124 -1790.8273 5349.5605 1388820
1128.2294 -1758.8873 5254.1499 1652250
1181.3173 -1792.0342 5353.166 2902315
1201.1748 -1774.3546 5300.3535 1652506
1088.493 -1566.799 4680.3433 3494713
0 0 0 0
0 0 0 0
0 0 0 0
0 0 0 0
0 0 0 0
0 0 0 0
0 0 0 0
0 0 0 0
0 0 0 0
0 0 0 0
0 0 0 0
0 0 0 0
0 0 0 0
0 0 0 0
0 0 0 0
0 0 0 0
0 0 0 0
1660.1593 -1636.5934 4888.833 6654028
1736.7505 -1682.6383 5026.3784 3364631
1766.7842 -1682.7816 5026.8066 4154402
1778.1859 -1665.4692 4975.0908 4680493
1702.7164 -1568.6901 4685.9922 3298335
1739.333 -1576.6278 4709.7041 2179349
1832.5283 -1634.7878 4883.4399 3231268
1861.5618 -1634.7878 4883.4399 3231267
1793.8441 -1551.1278 4633.5303 597762
1802.8029 -1535.2972 4586.2412 3429665
1771.7625 -1486.3818 4440.1211 2837273
1696.9565 -1402.7256 4190.2231 797440
1717.7212 -1399.3469 4180.1304 2640151
1728.353 -1387.9276 4146.0186 4218410
0 0 0 0
0 0 0 0
1449.1974 -1116.0074 3333.7383 924681
1524.0635 -1157.8258 3458.6582 463879
1505.4667 -1128.4724 3370.9739 726285
1548.1843 -1145.2468 3421.0825 1515801
1558.625 -1138.0195 3399.4929 1252373
1571.1099 -1132.4504 3382.8572 989201
1583.5968 -1127.0239 3366.6467 593420
1573.2174 -1105.6622 3302.8352 395528
1590.8512 -1104.2722 3298.6829 0
1603.1945 -1099.2883 3283.7952 330248
1608.6283 -1089.7438 3255.2837 922384
1626.437 -1088.7097 3252.1946 1053713
1633.7008 -1080.7242 3228.3403 1580313
1649.8951 -1078.7634 3222.4829 2040864
1632.4568 -1055.1096 3151.8242 395781
1667.8657 -1065.762 3183.645 1536
1683.1051 -1063.4316 3176.6841 133122
1642.7103 -1026.392 3066.0388 4019490
0 0 0 0
0 0 0 0
0 0 0 0
2262.9858 -1353.8573 4044.2437 3954225
2369.1216 -1402.4532 4189.4097 3296801
2398.592 -1405.1265 4197.395 3955239
2696.2021 -1563.2069 4669.6128 5073728
2723.9641 -1563.2069 4669.6128 6126924
2743.4402 -1558.4995 4655.5513 7245388
2747.6943 -1545.3256 4616.1978 3626504
2775.1389 -1545.3256 4616.1978 3758347
2727.9695 -1504.1838 4493.2993 2442496
2927.3022 -1598.4418 4774.8667 4548121
2706.3345 -1463.5897 4372.0366 3429386
2984.0784 -1598.4418 4774.8667 3495180
2816.4082 -1494.4116 4464.1079 3165705
2916.1301 -1532.88 4579.0205 5334851
3133.9553 -1632.1443 4875.5425 6192174
3162.9419 -1632.1443 4875.5425 4548624
3049.7629 -1559.4501 4658.3906 3759110
3034.1902 -1537.5247 4592.895 1126913
3328.6252 -1671.6805 4993.6455 3298059
3418.1772 -1701.4789 5082.6592 4614411
3094.6606 -1526.9421 4561.2827 5207054
3175.0918 -1553.019 4639.1797 6062610
3221.2629 -1562.0334 4666.1074 5601288
3088.4414 -1484.8391 4435.5127 5995537
3105.52 -1480.4097 4422.2812 4547092
3161.2915 -1494.3448 4463.9082 5994029
3187.8308 -1494.3448 4463.9082 4020249
3214.3696 -1494.3448 4463.9082 4415012
3053.8152 -1408.078 4206.2119 4415779
3078.8223 -1408.078 4206.2119 4942103
3102.9111 -1407.6615 4204.9678 4810512
3127.9109 -1407.6615 4204.9678 4810764
3180.1919 -1419.8417 4241.3521 6520867
3164.426 -1401.6886 4187.1255 3232019
2981.2207 -1310.2302 3913.9209 7703146
0 0 0 0
0 0 0 0
7741.3096 -3324.4189 9930.708 856591
8108.5171 -3455.7559 10323.037 1251355
8369.709 -3540.2769 10575.518 1120026
8432.583 -3540.2769 10575.518 856597
8495.457 -3540.2769 10575.518 856340
8511.6807 -3520.9788 10517.871 593168
8704.8633 -3574.6301 10678.139 1514269
8990.2197 -3665.0815 10948.335 67591
8879.7012 -3594.0051 10736.015 593934
8950.543 -3596.8232 10744.434 4280651
9007.3584 -3594.0051 10736.015 4083526
8997.5703 -3564.8379 10648.887 1778717
9198.2803 -3618.8953 10810.367 726541
9181.7529 -3587.3274 10716.067 1252374
9290.4219 -3604.772 10768.178 1516830
9318.4141 -3590.8882 10726.704 1385501
9504.7217 -3637.7866 10866.799 463115
9653.7354 -3669.8743 10962.651 2635309
9629.4043 -3636.0762 10861.689 4412747
9505.5859 -3565.4124 10650.603 3557695
9564.1152 -3563.6265 10645.269 1451807
9692.9883 -3587.9031 10717.787 2636078
9756.709 -3587.9031 10717.787 793617
9876.168 -3608.2673 10778.619 2306347
9966.9131 -3617.946 10807.531 5596509
10063.423 -3629.5793 10842.283 4411720
10044.197 -3599.5889 10752.694 6188387
9890.2207 -3521.9915 10520.896 3555898
10061.712 -3560.5425 10636.056 4542541
10379.298 -3649.9878 10903.246 1779234
10830.643 -3785.0688 11306.761 2042150
10897.864 -3785.0688 11306.761 3028274
11872.502 -4098.3018 12242.451 2633518
0 0 0 0
0 0 0 0
0 0 0 0
0 0 0 0
0 0 0 0
-6401.1357 -2346.3914 7135.8735 1122068
-6516.022 -2404.4399 7312.4116 1648155
-6564.9487 -2438.7654 7416.8027 924433
-6520.854 -2438.7654 7416.8027 1450777
-6449.5249 -2428.5107 7385.6162 1319703
-6261.481 -2373.8662 7219.4307 135171
-6215.4312 -2372.6719 7215.7983 331778
-5971.8379 -2295.5269 6981.1841 2108705
-5930.3325 -2295.5269 6981.1841 1385237
-6219.27 -2424.3369 7372.9229 990479
-6116.1831 -2401.0757 7302.1802 398341
-6097.6318 -2410.9058 7332.0757 1451029
-6054.041 -2410.9058 7332.0757 266244
-6038.3374 -2422.092 7366.0957 1384725
-5972.7715 -2413.2952 7339.3418 1121551
-5911.7642 -2406.2239 7317.8369 1121552
-5863.9409 -2404.4539 7312.4541 726536
-5820.4663 -2404.4539 7312.4541 1648406
-5978.375 -2488.272 7567.3623 2043417
-5776.4473 -2422.4573 7367.2065 2175002
-5732.6475 -2422.4573 7367.2065 2240793
-5688.8472 -2422.4573 7367.2065 1517071
-5767.7744 -2475.1233 7527.375 1715473
-5857.8091 -2533.4167 7704.6577 2044442
-5745.5884 -2504.467 7616.6152 3162668
-5720.5908 -2513.3799 7643.7207 727823
-5691.7651 -2520.7397 7666.1035 2241320
-5720.0835 -2553.73 7766.4346 3227959
-5568.3994 -2506.2417 7622.0122 463628
-5523.0845 -2506.2417 7622.0122 662033
-5446.2563 -2491.8232 7578.1631 331784
-5429.6768 -2504.9602 7618.1147 727311
-5433.6904 -2527.8984 7687.875 530446
-5633.27 -2642.9802 8037.8628 1451546
-5339.6553 -2526.6577 7684.1021 925458
-5537.6953 -2642.9802 8037.8628 793872
-5434.834 -2616.4663 7957.2285 3425847
-5480.3633 -2661.5527 8094.3462 727822
-5469.3125 -2679.7163 8149.5854 793102
-5977.8408 -2955.0505 8986.9355 792847
-5261.686 -2624.4885 7981.626 2831661
-5652.7393 -2845.2026 8652.8643 2700332
-5119.5654 -2600.5056 7908.689 1450265
-5310.0508 -2722.2654 8278.9863 726542
-5240.6738 -2711.8354 8247.2666 1055509
-4902.0093 -2560.5471 7787.1665 199430
-4956.9331 -2613.9236 7949.4956 792337
-4856.3521 -2585.5361 7863.1636 1648159
-4854.2261 -2609.5244 7936.1172 463886
-4886.0439 -2652.4099 8066.541 331530
-4844.7529 -2656.0652 8077.6572 990229
-4904.0063 -2715.4673 8258.3115 793364
-4930.3101 -2757.6411 8386.5713 200712
-4812.21 -2719.0833 8269.3086 2570029
-4881.4443 -2786.6729 8474.8633 1517341
-4713.8833 -2719.0833 8269.3086 399117
-4618.0874 -2691.9009 8186.6411 2372907
-4508.9976 -2656.3081 8078.3955 1978149
-4529.0654 -2696.8562 8201.7109 2043942
-4380.1455 -2636.5671 8018.3599 2242603
-4332.4746 -2636.5671 8018.3599 1978917
-4187.5815 -2576.7439 7836.4243 3557951
-4284.856 -2666.2642 8108.6743 529421
-4563.8691 -2872.1953 8734.9551 4873560
-4561.3682 -2903.6619 8830.6514 2571571
-4483.4409 -2887.2876 8780.8535 1783080
-4443.3433 -2895.176 8804.8438 3428409
-4379.0317 -2887.2876 8780.8535 2703913
-3957.5764 -2640.8867 8031.4961 3954238
-3892.3987 -2629.1147 7995.6953 3163190
-3844.8616 -2629.1147 7995.6953 860437
-3995.0149 -2765.9871 8411.9531 859668
-3945.0037 -2765.9871 8411.9531 1846564
-3773.9531 -2680.0327 8150.5474 1320218
-3710.9756 -2669.5872 8118.7803 1781026
-3608.6572 -2630.1924 7998.9727 1123863
-3561.1011 -2630.1924 7998.9727 2044706
-3515.6531 -2631.7705 8003.772 2703406
-3522.5725 -2673.1313 8129.5596 1914145
-3485.9028 -2682.1047 8156.8491 1979937
-3340.4363 -2606.4409 7926.7393 2835248
-3508.0989 -2776.4326 8443.7197 3295287
-3594.3975 -2886.0308 8777.0312 1650464
-3570.8479 -2909.3589 8847.9775 1123350
-3518.2441 -2909.3589 8847.9775 3097140
-3511.9314 -2948.2192 8966.1602 2636334
-3458.6248 -2948.2192 8966.1602 1847583
-3381.3411 -2927.4607 8903.0283 1781276
-3304.4841 -2906.4167 8839.0293 4018237
-3251.9336 -2906.4167 8839.0293 2570792
-3229.6394 -2933.9023 8922.6191 2241575
-3385.1147 -3126.4944 9508.332 1780257
-3185.457 -2992.0562 9099.4766 3293500
-3016.3694 -2882.1829 8765.3291 1714210
-2999.9307 -2916.8687 8870.8154 1714466
-2912.1448 -2882.1829 8765.3291 2175271
-2874.6475 -2896.9109 8810.1201 2241321
-2739.2822 -2811.7295 8551.0654 2043940
-2732.0515 -2857.3369 8689.7676 3492153
-2690.7244 -2868.3552 8723.2764 2636591
-2642.0273 -2871.7959 8733.7402 2176040
-2639.9768 -2927.094 8901.9131 2439214
-2605.0605 -2947.469 8963.8779 1649699
-2586.4966 -2987.5833 9085.874 662032
-2592.9971 -3058.9775 9302.999 1847589
-2479.0681 -2988.3157 9088.1016 4150852
-2424.3247 -2987.438 9085.4326 4085056
-2320.532 -2924.7009 8894.6357 1913892
-2211.782 -2852.644 8675.4951 1584165
-2163.7825 -2857.3701 8689.8682 1057309
-2112.1189 -2857.3701 8689.8682 1649702
-2100.4399 -2912.8196 8858.502 1386530
-2069.9729 -2944.3965 8954.5342 1320991
-2019.9446 -2949.0813 8968.7812 1058076
-1986.4246 -2978.7756 9059.0879 2373678
-1942.9015 -2994.7068 9107.5381 1057817
-1888.7548 -2994.7068 9107.5381 794389
-1783.6924 -2911.5952 8854.7783 1122327
-1735.5635 -2919.1897 8877.875 1385498
-1695.8243 -2941.8149 8946.6826 727824
-1642.6338 -2941.8149 8946.6826 1320471
-1589.4434 -2941.8149 8946.6826 2374182
-1485.7155 -2845.0396 8652.3682 2243107
-1397.5437 -2772.1794 8430.7852 2901292
-1366.3254 -2811.0747 8549.0742 1322517
-1280.6697 -2736.6487 8322.7285 3296308
-1305.2883 -2901.355 8823.6357 4151619
-1265.6874 -2931.1323 8914.1943 1914403
-1188.6049 -2872.9172 8737.1504 2506286
-1136.6602 -2872.9172 8737.1504 2243373
-1100.8751 -2915.7173 8867.3145 2769461
-1048.1565 -2915.7173 8867.3145 531986
-1003.4119 -2939.0737 8938.3467 1716006
-987.64661 -3054.6726 9289.9072 1518628
-936.13794 -3066.8677 9326.9941 1387295
-864.7572 -3011.3965 9158.2949 992790
-807.97644 -3002.729 9131.9355 1584924
-756.50769 -3013.9768 9166.1426 2111776
-734.4679 -3153.3191 9589.9121 3427632
-692.14752 -3221.7163 9797.9219 2770209
-633.89612 -3221.7163 9797.9219 4480828
-571.1424 -3196.5178 9721.2891 2375456
-513.34662 -3196.5178 9721.2891 3953976
-426.08551 -2989.7649 9092.5088 3558967
-366.57166 -2945.9155 8959.1533 1782558
-317.97052 -2989.7649 9092.5088 2176546
-265.38254 -3006.4124 9143.1367 1782046
-217.61284 -3100.2815 9428.6133 2044704
-160.82315 -3086.197 9385.7793 1649945
-104.59404 -3073.6184 9347.5254 1979165
-47.008129 -2947.4473 8963.8125 3361327
6.2842312 -2947.4473 8963.8125 4019509
0 0 0 0
0 0 0 0
0 0 0 0
0 0 0 0
0 0 0 0
0 0 0 0
0 0 0 0
0 0 0 0
0 0 0 0
0 0 0 0
0 0 0 0
374.57285 -1709.5795 5199.1938 335873
405.48349 -1709.5795 5199.1938 4615974
441.06232 -1727.8672 5254.8105 3497243
463.36578 -1695.1691 5155.3687 1718541
507.62036 -1741.8516 5297.3398 3757105
677.8374 -2190.0581 6660.4312 1519377
730.87677 -2231.0894 6785.2153 2901030
0 0 0 0
0 0 0 0
0 0 0 0
720.57446 -1801.8379 5479.771 5734204
742.4024 -1776.1177 5401.5503 3037206
773.16418 -1773.0172 5392.1216 2576660
791.81604 -1743.4991 5302.3506 3431714
823.34003 -1743.4991 5302.3506 3760677
0 0 0 0
0 0 0 0
0 0 0 0
895.46082 -1644.3821 5000.9146 3496987
925.19269 -1644.3821 5000.9146 1851149
978.54309 -1685.0533 5124.6045 3166752
1026.412 -1714.1143 5212.9849 3561253
944.72375 -1531.452 4657.4702 1455124
1159.9645 -1826.8253 5555.7632 2310174
1163.6862 -1781.9448 5419.272 2836777
1260.5088 -1878.2065 5712.0244 2112542
1213.1432 -1760.2081 5353.166 4087612
0 0 0 0
0 0 0 0
0 0 0 0
0 0 0 0
0 0 0 0
0 0 0 0
0 0 0 0
0 0 0 0
2236.3994 -2625.0911 7983.458 13488846
0 0 0 0
0 0 0 0
0 0 0 0
0 0 0 0
0 0 0 0
0 0 0 0
0 0 0 0
0 0 0 0
0 0 0 0
1660.1593 -1607.5278 4888.833 3299348
1736.7505 -1652.755 5026.3784 5734189
1766.7842 -1652.8959 5026.8066 4549410
1778.1859 -1635.8909 4975.0908 3166237
1807.764 -1635.8909 4975.0908 2243860
1822.0797 -1622.3016 4933.7632 2046740
1833.012 -1606.1782 4884.7285 2046739
1772.4999 -1528.931 4649.8032 2507289
1793.8441 -1523.5801 4633.5303 1192453
1776.9038 -1486.3663 4520.355 2442516
1638.5719 -1350.2311 4106.3389 1587463
1662.985 -1350.2311 4106.3389 2508308
0 0 0 0
0 0 0 0
0 0 0 0
0 0 0 0
0 0 0 0
0 0 0 0
1488.8373 -1096.1875 3333.7383 594699
1525.5079 -1108.4312 3370.9739 857101
1558.625 -1117.8086 3399.4929 988688
1563.5811 -1107.0082 3366.6467 725261
1539.4473 -1076.1456 3272.7871 790797
1558.9049 -1076.1456 3272.7871 593418
1590.8512 -1084.6605 3298.6829 329989
1589.2747 -1070.3903 3255.2837 67074
1608.6283 -1070.3903 3255.2837 856592
1631.567 -1072.7476 3262.4526 922641
1647.2125 -1070.3104 3255.041 1843999
1649.8951 -1059.6049 3222.4829 1711899
1632.4568 -1036.3711 3151.8242 67842
1667.8657 -1046.8344 3183.645 1536
1684.0713 -1045.145 3178.5076 3098144
1625.2249 -997.43219 3033.4028 4416283
0 0 0 0
0 0 0 0
0 0 0 0
2262.9858 -1329.8131 4044.2437 4152870
2477.5452 -1440.5898 4381.1392 3824657
2543.5894 -1463.6045 4451.1313 4548886
2747.9326 -1564.9044 4759.2061 4680722
2970.9202 -1674.6487 5092.9619 5996329
2737.3416 -1527.4181 4645.2021 7180102
2732.1174 -1509.276 4590.0283 8233041
2751.7002 -1505.0609 4577.2095 4483083
2743.7117 -1485.996 4519.229 4548625
2851.9846 -1529.6573 4652.0122 4745751
2799.9548 -1487.3276 4523.2788 1718276
2629.5586 -1383.5256 4207.5947 5995061
2654.5737 -1383.5256 4207.5947 6717772
2877.0737 -1485.4907 4517.6924 1123086
3171.5786 -1622.4037 4934.0732 6456620
3302.8533 -1674.0728 5091.21 4153865
3333.1218 -1674.0728 5091.21 4549389
3077.4585 -1531.7546 4658.3906 2509572
3387.9595 -1671.261 5082.6592 4878098
3426.6016 -1675.38 5095.1855 3825670
3147.511 -1525.4377 4639.1797 2706690
3175.0918 -1525.4377 4639.1797 6457629
3246.6013 -1546.3607 4702.811 6719771
3249.0044 -1534.292 4666.1074 5996045
3173.8738 -1486.1239 4519.6177 6324506
3217.0354 -1493.6879 4542.6216 4415758
3244.0427 -1493.6879 4542.6216 2047232
3357.1917 -1533.0237 4662.25 3429643
3053.8152 -1383.0709 4206.2119 2836995
3015.8799 -1354.7959 4120.2217 3429389
3079.2969 -1372.1392 4172.9663 3626767
3104.1064 -1372.1392 4172.9663 4612623
3175.0461 -1392.3689 4234.4893 5732123
3164.426 -1376.795 4187.1255 1519107
0 0 0 0
0 0 0 0
7636.834 -3246.0662 9871.9756 1186582
7741.3096 -3265.3784 9930.708 1185814
7879.2749 -3298.4177 10031.188 1777699
8066.4355 -3351.3999 10192.317 1185562
8326.8359 -3433.7947 10442.897 791061
8469.0527 -3466.594 10542.647 396046
8511.6807 -3458.4473 10517.871 264460
8704.8633 -3511.1458 10678.139 199438
8990.2197 -3599.991 10948.335 67078
9207.0654 -3660.3218 11131.814 6322289
8950.543 -3532.9446 10744.434 5267284
8923.8535 -3497.449 10636.483 7570811
8987.0898 -3497.449 10636.483 8229509
9361.1748 -3617.5745 11001.811 461576
9809.4424 -3764.5012 11448.646 1450780
9877.5078 -3764.5012 11448.646 1449755
9531.1621 -3607.6428 10971.606 528655
9596.3916 -3607.6428 10971.606 594705
9653.7354 -3604.698 10962.651 989208
9537.4541 -3537.3965 10757.973 660755
9505.5859 -3502.0916 10650.603 792082
9564.1152 -3500.3376 10645.269 1449755
9692.9883 -3524.1831 10717.787 1252376
9812.0859 -3544.1855 10778.619 661011
9935.9971 -3565.6558 10843.915 660755
9998.9619 -3565.1191 10842.283 1055512
10063.423 -3565.1191 10842.283 3358268
9728.8584 -3424.6582 10415.112 2897716
9890.2207 -3459.4414 10520.896 2437165
10048.535 -3492.7285 10622.127 2305836
10379.298 -3585.1648 10903.246 3160887
10830.643 -3717.8472 11306.761 4608333
10307.909 -3516.5813 10694.669 2766385
12434.721 -4216.1445 12822.188 4608590
0 0 0 0
0 0 0 0
0 0 0 0
0 0 0 0
0 0 0 0
-6398.7842 -2303.1206 7133.2529 512
-6317.1636 -2288.9128 7089.249 769
-6274.5581 -2288.7458 7088.7314 463371
-6396.1245 -2348.8657 7274.936 1318680
-6408.4941 -2369.4309 7338.6304 1122068
-6271.1675 -2334.5505 7230.5986 859401
-6228.1797 -2334.5505 7230.5986 1583892
-5963.4639 -2250.8611 6971.395 3556903
-6018.6719 -2287.5979 7085.1768 2832931
-6139.9321 -2350.1353 7278.8677 135424
-6113.0176 -2356.4419 7298.4009 266756
-6069.627 -2356.4419 7298.4009 1187859
-6026.2358 -2356.4419 7298.4009 134146
-6038.3374 -2378.2986 7366.0957 529672
-6126.1826 -2430.5256 7527.8535 1121296
-5929.1367 -2369.6606 7339.3418 1318931
-5921.7437 -2384.2522 7384.5352 1451027
-5877.8408 -2384.2522 7384.5352 1582868
-5871.5894 -2399.6399 7432.1943 661763
-5812.8247 -2393.637 7413.6016 1978647
-5768.7485 -2393.637 7413.6016 1847060
-5740.4155 -2400.2195 7433.9888 2637090
-5707.5547 -2404.9963 7448.7837 2768672
-5868.2158 -2492.0298 7718.3447 2373914
-5812.0029 -2487.6106 7704.6577 3821867
-5737.3428 -2475.1624 7666.1035 2570790
-5691.7651 -2475.1624 7666.1035 1188888
-5720.0835 -2507.5564 7766.4346 2241321
-5768.8047 -2549.4949 7896.3262 1714212
-6231.8418 -2776.7285 8600.1172 1539
-5474.9688 -2459.6682 7618.1147 2312
-5479.397 -2482.1919 7687.875 463377
-5503.519 -2514.0906 7786.6724 134155
-5633.27 -2595.1929 8037.8628 2052
-5585.4829 -2595.1929 8037.8628 67845
-5482.1421 -2569.1584 7957.2285 528909
-5434.834 -2569.1584 7957.2285 529164
-5466.3062 -2606.7261 8073.584 331784
-5846.6562 -2812.8035 8711.8496 792079
-6001.98 -2913.3379 9023.2256 4016704
-5924.4111 -2901.6208 8986.9355 2634539
-5700.7153 -2817.47 8726.3027 1845278
-5466.4644 -2726.509 8444.5771 1385240
-5374.1533 -2705.3135 8378.9297 1648411
-5324.3384 -2705.3135 8378.9297 1122322
-4998.6899 -2563.8381 7940.7505 4149562
-4956.9331 -2566.6616 7949.4956 2043937
-4809.4155 -2514.2502 7787.1665 200454
-4940.0806 -2607.6609 8076.4795 660752
-4892.0635 -2607.6609 8076.4795 1450525
-4844.7529 -2608.0413 8077.6572 661264
-4904.0063 -2666.3694 8258.3115 2043174
-4854.9082 -2666.3694 8258.3115 332297
-4835.9272 -2683.0789 8310.0645 1450778
-4881.4443 -2736.2876 8474.8633 3621947
-4868.2412 -2757.3472 8540.0898 792850
-4557.0259 -2608.2795 8078.3955 67846
-4681.4834 -2708.0559 8387.4238 1714210
-4529.0654 -2648.0945 8201.7109 2569775
-4266.8433 -2521.9282 7810.9468 332042
-4234.1709 -2530.1543 7836.4243 1846306
-4187.5815 -2530.1543 7836.4243 1846820
-4185.5815 -2557.3989 7920.8066 1978407
-4215.1558 -2604.7744 8067.5391 4084297
-4367.1221 -2729.7444 8454.5977 2176300
-4383.7144 -2772.0212 8585.5381 992024
-4410.4673 -2821.7949 8739.6973 3163963
-4353.6523 -2818.6514 8729.9619 1254683
-4126.7646 -2703.9951 8374.8467 1847845
-4064.6667 -2695.8325 8349.5654 1058073
-4015.0264 -2695.8325 8349.5654 1452832
-3995.0149 -2715.9758 8411.9531 1319962
-3960.2397 -2726.4653 8444.4414 991000
-3836.166 -2674.9563 8284.9072 464910
-3734.8813 -2638.2051 8171.0806 1320219
-3603.1096 -2578.6658 7986.6753 2044196
-3637.7227 -2638.2051 8171.0806 1979429
-3515.6531 -2584.1858 8003.772 2768686
-3534.3975 -2633.6101 8156.8491 2768429
-3620.0698 -2734.9736 8470.7939 2307879
-3437.408 -2633.6101 8156.8491 3295543
-3508.0989 -2726.2322 8443.7197 1321497
-3457.8987 -2726.2322 8443.7197 3361336
-3577.0161 -2861.6899 8863.2617 2439723
-3481.9272 -2827.2666 8756.6445 4019266
-3477.6902 -2866.688 8878.7412 1913376
-3325.7 -2783.6531 8621.5645 1386263
-3274.4424 -2783.6531 8621.5645 4149571
-3304.4841 -2853.8662 8839.0293 1583643
-3251.9336 -2853.8662 8839.0293 2570537
-3199.3831 -2853.8662 8839.0293 2176038
-3080.509 -2793.7173 8652.7354 1648926
-3142.6611 -2898.4866 8977.2275 1386011
-3017.333 -2830.9746 8768.1289 1845795
-2964.2573 -2830.0706 8765.3291 1780260
-2894.7588 -2813.1743 8712.998 1254169
-2790.1206 -2760.8911 8551.0654 1977891
-2738.8242 -2760.4294 8549.6357 3754815
-2687.9944 -2760.4294 8549.6357 1913125
-2685.0752 -2810.5798 8704.9619 3426621
-2633.3218 -2810.5798 8704.9619 1847590
-2592.196 -2822.1504 8740.7988 1123354
-2587.0525 -2874.1697 8901.9131 2110762
-2586.4966 -2933.5652 9085.874 2636849
-2554.2407 -2958.7739 9163.9512 1057817
-2499.7585 -2958.7739 9163.9512 1123610
-2424.3247 -2933.4226 9085.4326 1978919
-2320.532 -2871.8198 8894.6357 1517343
-2211.782 -2801.0657 8675.4951 531219
-2163.7825 -2805.7063 8689.8682 1583909
-2135.0962 -2836.229 8784.4033 991772
-2082.8704 -2836.229 8784.4033 1715495
-1980.5529 -2766.2649 8567.71 1847081
-1978.196 -2835.9092 8783.4131 1122845
-1986.4246 -2924.9167 9059.0879 728341
-1873.7562 -2835.9092 8783.4131 727571
-1888.7548 -2940.5598 9107.5381 1122071
-1754.9194 -2812.8333 8711.9414 332811
-1634.9216 -2700.1909 8363.0645 1386011
-1695.8243 -2888.6245 8946.6826 1385754
-1605.4282 -2823.197 8744.04 991509
-1572.6418 -2858.0896 8852.1104 1649695
-1474.9611 -2773.377 8589.7373 1584411
-1380.3733 -2688.6125 8327.2041 2242851
-1387.7256 -2803.4805 8682.9746 3492917
-1336.1028 -2803.4805 8682.9746 2374692
-1318.6847 -2878.1348 8914.1943 2638122
-1252.8293 -2848.896 8823.6357 3427384
-1179.7964 -2800.0669 8672.4014 992534
-1133.7705 -2813.8013 8714.9395 1255452
-1088.1176 -2829.8206 8764.5547 2242606
-1050.4967 -2869.3909 8887.1123 1123869
-1015.733 -2921.3704 9048.1035 466194
-991.58954 -3011.416 9326.9941 1913126
-950.34625 -3057.1218 9468.5547 1321758
-880.68634 -3011.416 9326.9941 2572079
-810.30865 -2956.9478 9158.2949 663823
-756.36707 -2958.9314 9164.4385 1453593
-698.19952 -2943.4077 9116.3584 1453588
-606.30396 -2771.1165 8582.7354 2112283
-614.81152 -3068.2231 9502.9385 5138247
-571.02649 -3138.0852 9719.3154 927244
-513.24243 -3138.0852 9719.3154 3098415
-434.19528 -2991.5833 9265.5684 267782
-372.02802 -2935.7075 9092.5088 1781790
-317.97052 -2935.7075 9092.5088 1912607
-273.66858 -3044.2256 9428.6133 728589
-219.12912 -3065.4373 9494.3096 1188885
-165.02438 -3109.5598 9630.9668 1386517
-103.94534 -2999.3267 9289.5518 1518872
-48.716377 -2999.3267 9289.5518 2308897
6.655499 -3065.1394 9493.3877 3098922
63.096333 -3065.1394 9493.3877 2638877
0 0 0 0
0 0 0 0
0 0 0 0
0 0 0 0
0 0 0 0
329.68643 -2515.387 7790.6875 1389582
376.00424 -2515.387 7790.6875 2902828
397.26099 -2366.1213 7328.3799 1322517
0 0 0 0
0 0 0 0
382.07568 -1712.2933 5303.3359 598535
413.6055 -1712.2933 5303.3359 2705431
445.13528 -1712.2933 5303.3359 5732665
479.17792 -1721.3199 5331.293 4153381
518.52124 -1747.0864 5411.0972 70400
714.44958 -2266.6133 7020.1826 1453075
756.18652 -2266.6133 7020.1826 2177053
806.00232 -2289.5623 7091.2607 1585426
848.16187 -2289.5623 7091.2607 1914643
704.95837 -1812.8805 5614.8755 2244885
730.19153 -1792.8723 5552.9058 2114320
763.20508 -1792.8723 5552.9058 4154408
799.72632 -1800.7705 5577.3687 1587464
832.74658 -1800.4705 5576.4395 4944958
0 0 0 0
0 0 0 0
0 0 0 0
0 0 0 0
0 0 0 0
0 0 0 0
978.54309 -1654.5862 5124.6045 3628320
1031.1975 -1690.9691 5237.29 1324555
1361.0328 -2166.4211 6709.8662 2179095
1400.9248 -2166.4211 6709.8662 2244891
1424.7679 -2142.2898 6635.1265 2179612
1443.2892 -2111.6726 6540.2979 3562036
1322.5319 -1884.2296 5835.8589 3496497
0 0 0 0
0 0 0 0
0 0 0 0
0 0 0 0
0 0 0 0
0 0 0 0
0 0 0 0
2188.9353 -2577.627 7983.458 13554382
2839.1057 -3272.2939 10134.988 13554383
2895.3704 -3267.7896 10121.038 11974837
0 0 0 0
0 0 0 0
0 0 0 0
0 0 0 0
0 0 0 0
0 0 0 0
0 0 0 0
0 0 0 0
1618.501 -1538.8541 4766.1577 3167501
1689.2249 -1578.4623 4888.833 5009442
1742.1804 -1600.4083 4956.8042 5272872
1796.67 -1623.0101 5026.8066 3100445
1907.9655 -1695.3478 5250.8516 1981714
1851.6674 -1618.8363 5013.8794 2507289
1851.4125 -1592.969 4933.7632 2375702
0 0 0 0
0 0 0 0
0 0 0 0
0 0 0 0
0 0 0 0
0 0 0 0
0 0 0 0
0 0 0 0
0 0 0 0
0 0 0 0
0 0 0 0
0 0 0 0
1493.4883 -1065.5449 3300.2188 726282
1537.2422 -1082.5397 3352.8552 726028
1536.4658 -1068.1422 3308.2632 659724
1538.9514 -1056.3478 3271.7332 593418
1558.4028 -1056.3478 3271.7332 396039
1592.6744 -1066.2697 3302.4636 461832
1612.3086 -1066.2697 3302.4636 1024
1612.1709 -1053.3513 3262.4526 395784
1631.567 -1053.3513 3262.4526 1119762
1635.689 -1043.606 3232.2693 1251346
1636.9457 -1032.2802 3197.1907 988943
1646.2771 -1026.2479 3178.5076 68609
1683.5475 -1037.5714 3213.5789 1792
1708.355 -1041.046 3224.3403 3623722
1727.5245 -1041.046 3224.3403 3624738
0 0 0 0
0 0 0 0
2238.9417 -1305.769 4044.2437 1322515
2420.1001 -1396.4258 4325.0269 3824406
2517.126 -1437.1411 4451.1313 4220675
2547.7412 -1439.4872 4458.3975 6326543
2790.6636 -1560.5042 4833.2129 3496960
2970.9202 -1644.3696 5092.9619 6194447
2959.4473 -1621.4939 5022.1104 5470222
2724.4873 -1477.8483 4577.2095 4812042
2738.907 -1470.9774 4555.9292 4350732
2782.6177 -1479.8184 4583.3115 3033094
2851.9846 -1501.9998 4652.0122 3494925
2869.2341 -1496.571 4635.1982 4942109
2896.7917 -1496.571 4635.1982 4810520
2850.2148 -1458.6318 4517.6924 4416017
3052.8369 -1547.7411 4793.6826 4021773
3329.1384 -1672.2108 5179.1919 4745497
3451.8608 -1717.964 5320.8989 4547605
3505.8347 -1728.9813 5355.022 5600798
3515.1294 -1717.964 5320.8989 2047232
3328.6252 -1612.3033 4993.6455 3166221
3418.1772 -1641.0432 5082.6592 3362576
0 0 0 0
0 0 0 0
3221.2629 -1506.5507 4666.1074 7639842
3540.1289 -1641.5443 5084.2109 3362051
3262.5518 -1500.0249 4645.8955 5401368
3479.6504 -1586.4097 4913.4473 3034626
3369.6912 -1523.4884 4718.5669 4942873
3511.3423 -1574.4236 4876.3242 1981187
3053.8152 -1358.0638 4206.2119 3033619
0 0 0 0
0 0 0 0
3103.0269 -1346.8613 4171.5151 4746274
3128.9155 -1347.3297 4172.9663 5400363
0 0 0 0
0 0 0 0
0 0 0 0
7636.834 -3187.3745 9871.9756 791571
7741.3096 -3206.3376 9930.708 593678
7961.1528 -3272.4353 10135.427 658961
8066.4355 -3290.8037 10192.317 725011
8273.1016 -3349.9507 10375.508 1119769
8469.0527 -3403.9153 10542.647 922390
8531.7314 -3403.9153 10542.647 396816
8753.21 -3466.8093 10737.444 133642
8990.2197 -3534.8997 10948.335 3557699
8880.8838 -3466.8093 10737.444 7439743
8958.834 -3472.2793 10754.386 6913140
8979.8662 -3455.7678 10703.246 4807763
8987.0898 -3434.2119 10636.483 5135700
9361.1748 -3552.1655 11001.811 1449497
9809.4424 -3696.436 11448.646 857618
9877.5078 -3696.436 11448.646 660242
9818.1514 -3649.0776 11301.968 265741
9654.123 -3563.7244 11037.61 857621
9658.4639 -3541.2561 10968.021 1119510
9619.292 -3503.2422 10850.284 1055000
9601.4131 -3473.4375 10757.973 1121050
9568.9072 -3438.7705 10650.603 1383965
9692.9883 -3460.4626 10717.787 1186843
9861.0059 -3497.4546 10832.358 726035
9935.9971 -3501.1855 10843.915 3357755
10000.467 -3501.1855 10843.915 1450014
10178.384 -3540.6492 10966.143 2042409
10086.139 -3486.2302 10797.595 1910565
10150.334 -3486.2302 10797.595 1384733
10142.162 -3461.5317 10721.099 1976870
10379.298 -3520.342 10903.246 3292473
10444.12 -3520.342 10903.246 3424059
10477.711 -3509.8799 10870.843 4148293
11174.134 -3720.2234 11522.321 5793376
0 0 0 0
0 0 0 0
0 0 0 0
0 0 0 0
0 0 0 0
-6401.1357 -2261.542 7135.8735 1024
-6356.375 -2260.7112 7133.2529 1024
-6308.5273 -2258.7642 7127.1089 768
-6271.3999 -2260.6548 7133.0742 199171
-6352.873 -2305.6143 7274.936 529671
-6271.1675 -2291.5627 7230.5986 1582615
-6228.1797 -2291.5627 7230.5986 1385235
-6014.9658 -2228.4956 7031.6021 2306591
-6018.6719 -2245.4749 7085.1768 530180
-6139.9321 -2306.8604 7278.8677 727558
-6096.6572 -2306.8604 7278.8677 1122061
-6053.3818 -2306.8604 7278.8677 924941
-5948.5396 -2283.2285 7204.3022 990479
-6057.0933 -2341.7566 7388.9761 529671
-6126.1826 -2385.7703 7527.8535 332294
-5993.1592 -2351.1423 7418.5908 1055504
-5924.6606 -2341.5017 7388.1724 595206
-5905.417 -2351.3291 7419.1807 1384976
-5906.0166 -2369.2646 7475.7725 990730
-5812.8247 -2349.561 7413.6016 1254155
-5768.7485 -2349.561 7413.6016 1780757
-5695.7505 -2337.6904 7376.1465 1978136
-5663.3882 -2342.4434 7391.1431 1912599
-5857.8091 -2441.8042 7704.6577 1978907
-5741.4253 -2412.1526 7611.0972 2110239
-5593.8887 -2368.8372 7474.4238 2372900
-5549.4512 -2368.8372 7474.4238 1451803
-5720.0835 -2461.3831 7766.4346 925462
-5768.8047 -2502.5488 7896.3262 331791
-6234.875 -2726.9248 8604.3027 330765
-5568.1455 -2455.4663 7747.7656 2057
-5522.083 -2455.4663 7747.7656 2312
-5503.519 -2467.7969 7786.6724 1541
-5703.0273 -2578.9502 8137.3965 2311
-5585.4829 -2547.4053 8037.8628 67845
-5438.5933 -2501.8171 7894.0176 265995
-5391.6611 -2501.8171 7894.0176 1319193
-5480.3633 -2565.3064 8094.3462 1779746
-5998.1465 -2832.5483 8937.5781 1911329
-6001.98 -2859.6921 9023.2256 1319191
-5924.4111 -2848.1909 8986.9355 1845535
-5708.1479 -2769.1956 8737.6807 2964268
-5648.835 -2765.5898 8726.3027 2503971
-5442.4907 -2689.2654 8485.4756 1977625
-5457.6089 -2721.9668 8588.6582 2635807
-5406.5469 -2721.9668 8588.6582 3491881
-5364.002 -2726.2957 8602.3174 1847309
-5248.9233 -2693.4871 8498.7959 3755304
-4940.0806 -2559.644 8076.4795 3886637
-4807.0435 -2515.1597 7936.1172 1649424
-4844.7529 -2560.0173 8077.6572 1781271
-4872.0708 -2600.2273 8204.5322 3096879
-4823.2925 -2600.2273 8204.5322 727820
-4627.6694 -2520.2549 7952.1938 2833199
-4786.5215 -2633.6731 8310.0645 2042658
-4868.2412 -2706.574 8540.0898 267277
-4817.4678 -2706.574 8540.0898 595730
-4766.6943 -2706.574 8540.0898 68616
-4559.2573 -2616.6609 8256.3857 2566
-4314.4229 -2503.094 7898.0464 793363
-4373.5835 -2565.3372 8094.4429 728083
-4232.6729 -2510.3074 7920.8066 1319963
-4185.5815 -2510.3074 7920.8066 1978149
-4285.2832 -2599.3484 8201.7588 1913126
-4331.7646 -2657.7856 8386.1465 2374189
-4344.9399 -2696.9104 8509.5977 2834739
-4410.4673 -2769.8347 8739.6973 1979938
-4310.3735 -2739.2458 8643.1797 2835503
-4126.7646 -2654.2043 8374.8467 4216641
-4076.9739 -2654.2043 8374.8467 1847838
-4015.0264 -2646.1921 8349.5654 1321241
-4019.4287 -2682.2561 8463.3594 1518365
-3960.2397 -2676.2607 8444.4414 2175527
-3910.0354 -2676.2607 8444.4414 2175525
-3787.4927 -2626.1042 8286.1826 662032
-3567.9529 -2506.4856 7908.7476 1977635
-3637.7227 -2589.6255 8171.0806 661775
