# .PCD v0.7 - Point Cloud Data file format
VERSION 0.7
FIELDS x y z rgb
SIZE 4 4 4 4
TYPE F F F U
COUNT 1 1 1 1
WIDTH 1337
HEIGHT 1
VIEWPOINT 0 0 0 1 0 0 0
POINTS 1337
DATA ascii
-2366.04 -2274.8901 9734.5732 2901280
-2319.1216 -2285.6885 9780.7803 1518864
-2260.9722 -2285.6885 9780.7803 794119
-2189.1287 -2271.4792 9719.9775 2043675
-2181.8865 -2325.3486 9950.4922 1536
-2122.728 -2325.3486 9950.4922 1280
-2061.1257 -2322.5947 9938.708 1280
-1978.6729 -2295.489 9822.7188 768
-1842.7739 -2202.8459 9426.2852 134404
-1761.8589 -2172.1799 9295.0615 68609
-1706.5972 -2172.1799 9295.0615 200704
-1694.7847 -2229.3335 9539.6299 595716
-1638.2339 -2229.5579 9540.5908 1714194
-1623.0978 -2288.1833 9791.457 1385226
-1562.668 -2284.9419 9777.5859 2569757
-1503.6278 -2283.5603 9771.6748 990983
-1445.5326 -2283.5603 9771.6748 2241051
-1409.4507 -2319.792 9926.7148 397826
-1330.6819 -2285.8623 9781.5244 662019
-1272.528 -2285.8623 9781.5244 1122312
-1235.2308 -2325.1218 9949.5215 1056267
-1190.9506 -2354.5247 10075.34 67328
-1131.0498 -2354.5247 10075.34 1280
-1033.9835 -2272.8298 9725.7568 2305
-980.08081 -2281.9558 9764.8086 528391
-952.79132 -2358.0974 10090.629 792331
-892.79974 -2358.0974 10090.629 594184
-807.6275 -2286.7983 9785.5303 1280
-742.47327 -2265.5107 9694.4375 2048
-696.24084 -2303.2356 9855.8672 133377
-627.20099 -2265.5107 9694.4375 2560
-580.02417 -2307.114 9872.4639 398339
-523.36816 -2316.1353 9911.0674 793348
-478.55273 -2386.4934 10212.14 793346
-415.52029 -2373.2517 10155.477 860160
-355.14316 -2373.2517 10155.477 1321473
-286.55219 -2307.1201 9872.4893 3558689
-234.14294 -2370.762 10144.821 925704
-177.15007 -2416.054 10338.633 466176
-119.86501 -2503.3735 10712.285 1650441
-54.217976 -2416.054 10338.633 1716234
7.561563 -2520.5522 10785.796 3558184
72.565758 -2551.481 10918.145 1280
133.86621 -2484.4641 10631.37 134144
193.16805 -2435.2393 10420.729 1536
252.99904 -2414.9731 10334.008 332290
310.47415 -2384.5327 10203.749 1792
368.96838 -2370.5913 10144.092 1056265
416.97781 -2302.667 9853.4346 1911830
491.1879 -2378.3416 10177.256 768
550.23566 -2372.0522 10150.344 398081
621.53357 -2414.5969 10332.398 991240
677.46759 -2395.1699 10249.267 990726
769.37561 -2495.6384 10679.187 793601
832.86639 -2495.6384 10679.187 1517323
897.35522 -2498.4175 10691.078 2439192
920.83954 -2394.2156 10245.184 332033
981.75006 -2394.2156 10245.184 1387016
1072.9619 -2463.7957 10542.926 2440471
1194.7571 -2592.0454 11091.725 3163171
1236.1851 -2541.6409 10876.037 2304
1258.5751 -2459.05 10522.619 2816
1348.2726 -2509.5615 10738.766 859143
1354.1128 -2406.478 10297.656 201216
1345.5574 -2287.8354 9789.9678 596482
0 0 0 0
0 0 0 0
0 0 0 0
0 0 0 0
0 0 0 0
0 0 0 0
0 0 0 0
698.47913 -882.29578 3775.467 1975328
715.68073 -875.87726 3748.0012 2304036
724.34845 -859.71753 3678.8516 1580827
746.22021 -859.71753 3678.8516 2239778
0 0 0 0
0 0 0 0
2263.853 -2397.3748 10258.702 1650963
2442.8667 -2519.0796 10779.494 2770978
2572.8125 -2585.2568 11062.676 5141824
2669.2485 -2615.3025 11191.245 5404482
2710.0867 -2590.7371 11086.127 5929544
2775.9966 -2590.7371 11086.127 1848852
2810.269 -2561.8955 10962.709 2440988
2923.5791 -2604.7808 11146.221 4348986
2989.8464 -2604.7808 11146.221 6651739
3064.4377 -2611.8752 11176.579 7309416
3157.9348 -2634.4404 11273.139 2308642
3320.3364 -2712.3552 11606.548 729103
3231.8926 -2586.356 11067.379 530957
3397.925 -2664.9685 11403.773 3493433
3457.1047 -2658.3411 11375.413 4480327
3485.2578 -2628.5676 11248.009 3558966
3649.116 -2700.3369 11555.119 4480071
3697.9189 -2685.8862 11493.283 1845021
3766.2498 -2685.8862 11493.283 397833
4044.5735 -2832.9734 12122.689 134406
3757.4404 -2585.7769 11064.9 265737
3823.2241 -2585.7769 11064.9 133894
3908.0042 -2598.4072 11118.947 397579
3970.6277 -2596.1306 11109.206 989716
4036.6748 -2596.1306 11109.206 332043
4271.2017 -2702.7415 11565.408 1536
4417.0112 -2750.7249 11770.737 2307
4417.0361 -2707.8389 11587.222 198916
4735.7954 -2858.668 12232.641 725772
4554.8145 -2707.8389 11587.222 1450520
4482.5547 -2625.176 11233.495 1254168
4655.6846 -2686.5413 11496.086 397321
4898.9839 -2786.0359 11921.837 198916
4969.8623 -2786.0359 11921.837 264966
5040.7412 -2786.0359 11921.837 1648157
4946.7119 -2696.1543 11537.222 462858
5015.3037 -2696.1543 11537.222 6914673
5083.896 -2696.1543 11537.222 7244407
5096.3228 -2666.7646 11411.459 4482388
5164.167 -2666.7646 11411.459 5599586
5643.9819 -2876.7468 12310.002 6123620
5813.6235 -2925.2808 12517.686 2635309
5888.0444 -2925.2808 12517.686 2566
5861.6313 -2875.8098 12305.992 68103
5824.6343 -2822.4299 12077.573 330505
5617.187 -2688.7615 11505.586 134153
5663.9673 -2678.5356 11461.828 199176
5718.3008 -2672.082 11434.213 397581
6365.7803 -2939.6931 12579.357 1517603
6552.5723 -2990.8154 12798.117 4017735
6208.9868 -2801.4609 11987.843 2570034
6033.1836 -2691.2473 11516.224 1451807
6020.8081 -2655.5901 11363.642 1912358
5942.5034 -2591.9678 11091.393 3425595
6008.4448 -2591.9678 11091.393 2833972
6084.5708 -2596.3137 11109.989 3819839
6115.2002 -2581.3606 11046.004 5070420
6173.0708 -2578.103 11032.063 1712669
6238.6592 -2578.103 11032.063 6056799
6375.1987 -2607.1177 11156.222 4083266
6624.3203 -2681.1018 11472.81 3359545
6870.6987 -2752.4783 11778.239 4544075
7030.334 -2788.0151 11930.307 5201493
7699.165 -3022.7566 12934.798 5004622
7776.0664 -3022.7566 12934.798 1252883
7264.9604 -2796.4214 11966.278 3819574
7131.8325 -2718.5562 11633.082 2766380
6323.644 -2387.3342 10215.737 1975326
6212.0938 -2322.9111 9940.0615 1185552
0 0 0 0
0 0 0 0
0 0 0 0
0 0 0 0
10372.49 -3702.511 15843.562 659984
10660.109 -3770.9336 16136.353 3292730
10756.045 -3770.9336 16136.353 4543567
10852.803 -3771.2197 16137.576 1581591
10948.803 -3771.239 16137.66 2436900
11044.745 -3771.239 16137.66 3291447
11140.447 -3771.158 16137.312 2961715
0 0 0 0
0 0 0 0
0 0 0 0
0 0 0 0
0 0 0 0
7812.4487 -2514.6592 10760.578 1381914
7881.7402 -2516.3564 10767.842 1185052
8525.4883 -2699.9524 11553.474 2238254
9153.7744 -2875.7559 12305.762 2041645
9226.9355 -2875.7559 12305.762 461838
7867.0239 -2432.6243 10409.539 2503218
7863.1885 -2412.46 10323.254 2437679
7702.2168 -2344.7715 10033.605 3622977
7234.647 -2185.5037 9352.0762 4082244
5780.521 -1732.911 7415.3687 2961710
5531.0093 -1645.5609 7041.5854 2367520
5549.5811 -1638.6833 7012.1548 1115915
5404.9873 -1584.0876 6778.5327 3351850
5430.666 -1579.834 6760.3306 5656663
5264.5718 -1520.2643 6505.4233 13880786
4789.3184 -1372.9377 5874.9927 13553617
4682.8354 -1332.6932 5702.7808 8678266
0 0 0 0
5622.1484 -1577.1753 6748.9536 3749693
7067.481 -1968.5835 8423.8438 1645857
7596.6108 -2101.0789 8990.8105 2633267
9441.5635 -2593.1118 11096.288 527117
9507.5342 -2593.1118 11096.288 6452859
10731.335 -2906.7256 12438.285 12301760
10805.284 -2906.7256 12438.285 4736851
9457.7725 -2526.9382 10813.122 7105147
0 0 0 0
0 0 0 0
0 0 0 0
0 0 0 0
12440.896 -3214.7161 13756.22 789774
12667.047 -3251.7766 13914.807 791054
12940.403 -3300.3958 14122.855 1778208
14880.618 -3770.7725 16135.663 9477775
14977.948 -3771.125 16137.171 5990483
15073.267 -3770.969 16136.504 4279609
15169.544 -3771.054 16136.868 7240293
15265.483 -3771.054 16136.868 8687482
15362.678 -3771.3628 16138.189 6910560
15456.013 -3770.7258 16135.463 1118476
15552.279 -3770.8074 16135.812 2434078
15650.918 -3771.4597 16138.604 2565666
0 0 0 0
0 0 0 0
0 0 0 0
0 0 0 0
0 0 0 0
0 0 0 0
-5631.126 -1439.2133 6319.3638 1713434
-5690.3774 -1464.1254 6428.749 1515543
-5790.3833 -1499.9313 6585.9673 529158
-5641.4985 -1471.3137 6460.312 858888
-5616.832 -1474.9221 6476.1558 858633
-5578.3296 -1474.9221 6476.1558 332546
-5659.4297 -1506.7651 6615.9736 1582353
-5634.4482 -1510.613 6632.8691 1056518
-5595.0137 -1510.613 6632.8691 1516813
-5853.3359 -1591.5757 6988.3638 1319434
-5821.5498 -1594.2489 7000.1016 1319179
-5848.2778 -1613.1002 7082.875 990725
-5816.4399 -1615.9541 7095.4058 1583374
-5774.2559 -1615.9541 7095.4058 2043927
-5687.1235 -1603.2825 7039.7671 1254150
-5662.938 -1608.3003 7061.7988 1780496
-5520.1465 -1579.4568 6935.1519 1254154
-5621.1851 -1620.4703 7115.2358 1714449
-5667.9194 -1646.3322 7228.791 200960
-5630.7603 -1648.035 7236.2681 2560
-5589.4785 -1648.5482 7238.5215 2042904
-5546.4434 -1648.5482 7238.5215 2503456
-5646.8096 -1691.5042 7427.1343 1280
-5629.9424 -1699.743 7463.3096 858375
-5528.8481 -1682.4816 7387.5181 67072
-5481.2236 -1681.3457 7382.5298 1647896
-5363.5522 -1658.5311 7282.3545 264708
-5320.2563 -1658.5311 7282.3545 398339
-5321.7451 -1672.6067 7344.1582 1450770
-5246.0171 -1662.4453 7299.5415 1845528
-5139.877 -1642.3967 7211.5107 1187854
-5089.2847 -1639.9097 7200.5913 200193
-4912.394 -1596.3386 7009.2769 1536
-4950.4907 -1622.4821 7124.0688 133632
-4909.7158 -1623.0043 7126.3623 528900
-4899.6055 -1633.7609 7173.5918 1187085
-4898.8774 -1647.8617 7235.5073 661509
-4899.4062 -1662.6393 7300.3931 1385486
-4922.7822 -1685.5037 7400.7871 3490864
-4841.312 -1672.5586 7343.9468 990476
-4690.2817 -1635.1277 7179.5938 792842
-4676.4316 -1645.2722 7224.1367 1792
-4817.9736 -1710.7821 7511.7808 1024
-4773.314 -1710.7821 7511.7808 1024
-4766.4829 -1724.4681 7571.8735 1536
-4724.3384 -1725.5172 7576.481 463369
-4446.3896 -1639.6323 7199.373 332036
-4403.5874 -1639.6323 7199.373 990471
-4311.2764 -1621.0173 7117.6377 4478263
-4352.2788 -1652.6553 7256.5552 1188365
-4309.1367 -1652.6553 7256.5552 595719
-4348.6631 -1684.6814 7397.1763 1536
-4268.3276 -1670.4526 7334.7002 398084
-4350.4639 -1720.1714 7553.0078 1121805
-4370.2319 -1746.0098 7666.46 1318927
-4300.4629 -1736.2435 7623.5776 464132
-4437.8477 -1810.7948 7950.9214 1122317
-4361.8784 -1798.9589 7898.9512 2048
-4237.7227 -1766.7753 7757.6382 2560
-4191.6016 -1766.7753 7757.6382 69120
-4117.897 -1755.0197 7706.021 134401
-3975.4297 -1713.3633 7523.1143 661251
-3891.1956 -1696.1426 7447.5005 266498
-3876.7974 -1709.3165 7505.3457 1187596
-3832.176 -1709.3165 7505.3457 463875
-3787.5547 -1709.3165 7505.3457 660996
-3809.7236 -1739.8182 7639.2739 1253645
-3799.5381 -1756.1022 7710.7739 1910807
-3753.6953 -1756.1022 7710.7739 133376
-3657.8687 -1732.4287 7606.8276 134400
-3580.9697 -1717.2396 7540.1343 266752
-3536.1416 -1717.2396 7540.1343 1780495
-3542.7664 -1742.5474 7651.2568 1847310
-3497.2776 -1742.5474 7651.2568 1913358
-3461.2754 -1747.3363 7672.2847 2570777
-3432.7034 -1756.0544 7710.5645 333568
-3477.9993 -1803.3082 7918.0488 1518089
-3383.6013 -1778.4351 7808.8345 1649930
-3503.3823 -1867.0095 8197.751 465153
-3454.6445 -1867.0095 8197.751 1978892
-3420.041 -1874.7574 8231.7715 1452552
-3428.3782 -1906.6108 8371.6348 1847308
-3378.6064 -1906.6108 8371.6348 332801
-3321.6311 -1902.485 8353.5186 1846796
-3271.9673 -1902.485 8353.5186 1451017
-3194.9094 -1886.3114 8282.5029 1649163
-3250.0154 -1948.884 8557.249 661509
-3136.874 -1910.952 8390.6963 2304
-3276.3972 -2028.2021 8905.5234 1386247
-3116.5449 -1960.9364 8610.1699 3294755
-3084.0723 -1972.9099 8662.7441 1452298
-3032.5701 -1972.9099 8662.7441 924423
-3147.6682 -2083.1685 9146.8721 1847055
-3048.5168 -2053.0178 9014.4854 2768161
-2994.9231 -2053.0178 9014.4854 2504476
-2957.4719 -2064.2852 9063.958 1536
-2940.4414 -2090.4885 9179.0127 1648660
-2653.5317 -1922.1858 8440.0215 1024
-2603.3535 -1922.1858 8440.0215 2371868
-2716.9172 -2045.4609 8981.3037 200448
-2638.8359 -2026.5039 8898.0664 924425
-2499.1589 -1958.501 8599.4766 264706
-2562.5659 -2050.1309 9001.8096 266242
-2509.0476 -2050.1309 9001.8096 990473
-2354.3677 -1965.6709 8630.958 1254154
-2288.6892 -1953.4104 8577.124 1254666
-2244.3027 -1959.1776 8602.4473 2504986
-2252.2336 -2011.9502 8834.1631 2044692
-2303.6602 -2107.0254 9251.624 3360295
-2248.6565 -2107.0254 9251.624 859656
-2212.4268 -2125.0574 9330.7998 989963
-2274.5642 -2240.9302 9839.5791 67328
-2234.3777 -2259.448 9920.8887 1536
-2182.7625 -2267.1001 9954.4873 1536
-2122.728 -2266.1902 9950.4922 989712
-2045.8557 -2246.7371 9865.0762 332038
-1978.6729 -2237.0903 9822.7188 1792
-1915.7268 -2231.7927 9799.459 1280
-1852.2715 -2225.5513 9772.0527 660234
-1751.5005 -2172.6179 9539.6299 68352
-1694.7847 -2172.6179 9539.6299 2048
-1638.2339 -2172.8367 9540.5908 989704
-1623.0978 -2229.9705 9791.457 1121545
-1562.668 -2226.8115 9777.5859 2174490
-1503.6278 -2225.4651 9771.6748 1319691
-1445.5326 -2225.4651 9771.6748 1188107
-1347.3013 -2161.0867 9488.998 990729
-1329.7484 -2226.1458 9774.6631 464129
-1272.528 -2227.7085 9781.5244 1792
-1224.1011 -2245.552 9859.873 1122059
-1190.9506 -2294.6238 10075.34 924425
-1169.0372 -2371.6909 10413.729 67584
-1052.8785 -2255.4844 9903.4844 1024
-998.95587 -2266.7307 9952.8662 768
-948.13312 -2286.8704 10041.295 133890
-895.08081 -2303.9775 10116.41 199681
-807.6275 -2228.6206 9785.5303 2174492
-750.20557 -2230.8682 9795.3984 1714453
-696.24084 -2244.6396 9855.8672 595461
-633.73285 -2230.8682 9795.3984 200704
-580.02417 -2248.4194 9872.4639 68864
-516.06763 -2225.7251 9772.8164 133888
-472.35001 -2295.6343 10079.776 1536
-412.32944 -2295.1138 10077.491 134400
-352.41595 -2295.1138 10077.491 794883
-287.68341 -2257.3013 9911.4619 397569
-237.12163 -2339.8406 10273.88 2176529
-179.79277 -2389.7134 10492.863 1320967
-120.75784 -2457.8584 10792.078 2560
-56.177494 -2439.6858 10712.285 1979150
7.5100265 -2439.6858 10712.285 2899997
71.686119 -2456.4277 10785.796 1055242
131.38745 -2376.4241 10434.513 1280
191.56049 -2353.5344 10334.008 1280
244.99127 -2279.0417 10006.922 134401
310.4136 -2323.4155 10201.76 1649172
368.96838 -2310.2817 10144.092 1781012
416.97781 -2244.0857 9853.4346 794118
498.21991 -2351.0178 10322.957 267008
565.53931 -2376.001 10432.654 2816
627.56433 -2376.001 10432.654 595459
678.64893 -2338.3052 10267.139 67584
745.99158 -2358.2263 10354.608 1188361
807.55261 -2358.2263 10354.608 1911823
892.53833 -2421.7861 10633.689 2373909
921.76776 -2335.6572 10255.511 1847563
1010.2813 -2401.115 10542.926 1715466
1077.6768 -2411.6658 10589.253 3097630
1187.2994 -2510.3342 11022.49 3294498
1203.5889 -2411.6658 10589.253 529667
1272.2803 -2422.5867 10637.205 2816
1335.5214 -2422.5867 10637.205 924935
1354.1128 -2345.2556 10297.656 662275
1382.2435 -2290.4214 10056.888 662786
0 0 0 0
0 0 0 0
0 0 0 0
0 0 0 0
0 0 0 0
0 0 0 0
0 0 0 0
692.9455 -853.03754 3745.5564 1909278
707.28656 -843.58258 3704.0413 1843741
724.34845 -837.8457 3678.8516 1712156
0 0 0 0
0 0 0 0
0 0 0 0
2378.7795 -2454.9924 10779.494 2902564
2442.8667 -2454.9924 10779.494 1587471
2602.7134 -2548.7673 11191.245 4219186
2678.9561 -2558.0366 11231.945 3890729
2710.0867 -2524.8271 11086.127 2835994
2775.9966 -2524.8271 11086.127 4877874
2857.3118 -2538.5132 11146.221 6785616
2923.5791 -2538.5132 11146.221 6061380
2989.8464 -2538.5132 11146.221 3888935
3064.4377 -2545.4272 11176.579 5863494
3153.3127 -2563.6606 11256.64 5731399
3153.3779 -2510.4338 11022.928 5533777
3218.9124 -2510.4338 11022.928 6257763
3284.4463 -2510.4338 11022.928 3954242
3465.7239 -2597.1699 11403.773 3295799
3507.094 -2577.7449 11318.48 2045731
3649.116 -2631.6384 11555.119 2966836
3717.8145 -2631.6384 11555.119 4480846
3766.2498 -2617.5557 11493.283 6914418
4185.4263 -2857.0493 12544.863 2635052
3957.3098 -2654.0388 11653.476 265480
3823.2241 -2519.9929 11064.9 330761
3908.0042 -2532.3018 11118.947 264969
3925.3342 -2501.2224 10982.482 67332
4202.4419 -2633.9817 11565.408 199686
4271.2017 -2633.9817 11565.408 1187349
4129.5435 -2506.2764 11004.674 1781025
4201.7129 -2510.3054 11022.364 4018752
4514.5952 -2655.8157 11661.277 6059613
4554.8145 -2638.9497 11587.222 4019504
4482.5547 -2558.3896 11233.495 4545338
4959.938 -2789.2952 12247.365 5071428
5032.752 -2789.2952 12247.365 199428
4824.2378 -2635.5986 11572.508 1845539
5376.3403 -2895.925 12715.561 6190439
4946.7119 -2627.5625 11537.222 7901313
5042.9888 -2642.0669 11600.908 4742735
5083.896 -2627.5625 11537.222 1781793
5096.3228 -2598.9202 11411.459 1057046
4995.1289 -2513.8501 11037.929 595212
5568.564 -2766.0977 12145.509 1055252
5813.6235 -2850.8596 12517.686 1450525
5907.2109 -2860.1394 12558.432 133638
5899.8071 -2820.9001 12386.139 726546
5934.7939 -2802.6472 12305.992 133639
5935.0527 -2768.6384 12156.665 265995
6006.8765 -2768.4307 12155.753 200460
6079.146 -2768.4307 12155.753 1319197
5845.0308 -2630.543 11550.31 1714211
6193.5376 -2755.0205 12096.871 793366
5964.7158 -2622.7803 11516.224 1713698
5953.2476 -2588.03 11363.642 925207
6020.8081 -2588.03 11363.642 1319708
5942.5034 -2526.0264 11091.393 3030839
6466.3691 -2718.5435 11936.706 2768692
6379.0791 -2652.7327 11647.74 5203033
6150.6226 -2530.2615 11109.989 4151115
6382.7007 -2597.8362 11406.698 5335389
6450.5161 -2597.8362 11406.698 5400156
6498.3057 -2589.8545 11371.652 6583146
6819.5596 -2689.9028 11810.948 2964018
6889.7788 -2689.9028 11810.948 1538
6538.9424 -2527.1729 11096.427 3226422
6417.3198 -2455.3958 10781.265 1280
6822.7568 -2584.7073 11349.052 1026
7101.9473 -2664.1279 11697.775 5332563
7131.8325 -2649.3943 11633.082 4871497
6323.644 -2326.5989 10215.737 134144
6212.0938 -2263.8147 9940.0615 67585
4561.5947 -1646.6738 7230.291 5925457
0 0 0 0
0 0 0 0
7765.7773 -2726.2676 11970.621 924175
10068.479 -3502.5593 15379.199 4938058
10159.914 -3502.5593 15379.199 4741447
10755.855 -3674.9341 16136.069 6517856
10851.898 -3674.9709 16136.231 1910304
10948.193 -3675.092 16136.764 1451038
11044.508 -3675.2173 16137.313 1712929
11140.448 -3675.2173 16137.313 2304565
0 0 0 0
0 0 0 0
0 0 0 0
0 0 0 0
0 0 0 0
7884.7188 -2473.355 10860.12 986382
7949.2852 -2473.355 10860.12 264202
8324.3066 -2569.1721 11280.839 593683
8391.375 -2569.1721 11280.839 857115
8273.0654 -2512.8655 11033.605 594196
7626.8462 -2298.3589 10091.739 1975849
7822.0986 -2338.7996 10269.309 1120026
7179.0464 -2129.9031 9352.0762 1646370
6809.4741 -2004.731 8802.4648 2960944
5293.3311 -1546.4882 6790.3916 2104606
5488.5225 -1591.3778 6987.4951 2168347
5364.6875 -1543.7874 6778.5327 1312780
5404.9873 -1543.7874 6778.5327 2430494
5346.0264 -1515.6461 6654.9683 2298137
5264.5718 -1481.5876 6505.4233 13749969
5024.3574 -1403.6729 6163.3115 13815764
5039.2065 -1397.6284 6136.771 14929114
0 0 0 0
0 0 0 0
0 0 0 0
6449.7061 -1738.4839 7633.415 2765364
6909.9624 -1849.5297 8120.9995 3358271
0 0 0 0
0 0 0 0
10805.284 -2832.7766 12438.285 13620439
10280.903 -2676.9812 11754.212 5527386
0 0 0 0
0 0 0 0
0 0 0 0
0 0 0 0
12440.896 -3132.9316 13756.22 2237475
14414.014 -3606.1064 15833.857 1448727
14784.687 -3674.8416 16135.663 1646363
14881.286 -3675.0061 16136.387 1318162
14978.509 -3675.3223 16137.774 3753012
15074.445 -3675.3201 16137.766 6647902
15170.585 -3675.3682 16137.975 6582107
15266.74 -3675.4189 16138.198 8226419
15362.687 -3675.4189 16138.198 6384473
15457.477 -3675.144 16136.992 5527890
15552.279 -3674.8755 16135.812 3685170
15651.253 -3675.5898 16138.949 3487535
0 0 0 0
0 0 0 0
0 0 0 0
0 0 0 0
0 0 0 0
0 0 0 0
-5105.835 -1270.8927 5729.8711 132358
-5998.7354 -1503.1735 6777.1187 5332573
-5908.1621 -1490.4888 6719.9287 4673862
-5641.4985 -1432.9054 6460.312 2043679
-5762.1694 -1473.5874 6643.7285 398598
-5722.6704 -1473.5874 6643.7285 67840
-5867.9141 -1521.489 6859.6953 2240285
-5824.1284 -1520.7051 6856.1606 3227429
-5783.3667 -1520.7051 6856.1606 528386
-5853.3359 -1550.0278 6988.3638 661249
-5821.5498 -1552.6313 7000.1016 1122056
-5865.561 -1575.6334 7103.8071 1319434
-5892.0864 -1594.2379 7187.686 1451018
-5774.2559 -1573.77 7095.4058 1582860
-5687.1235 -1561.4292 7039.7671 1451787
-5815.29 -1608.4551 7251.7852 1780493
-5638.0322 -1571.0751 7083.2559 3228710
-5621.1851 -1578.1683 7115.2358 2504730
-5667.9194 -1603.355 7228.791 859906
-5681.5337 -1619.486 7301.5186 2306840
-5669.3057 -1628.4426 7341.8994 1713937
-5546.4434 -1605.5133 7238.5215 2043162
-5533.231 -1614.2133 7277.7461 791560
-5517.7812 -1622.3929 7314.624 2560
-5528.8481 -1638.5609 7387.5181 1714192
-5481.2236 -1637.4545 7382.5298 1451531
-5363.5522 -1615.2355 7282.3545 2833435
-5278.9419 -1602.6923 7225.8032 2965023
-5321.7451 -1628.9436 7344.1582 1714450
-5278.082 -1628.9436 7344.1582 792840
-5139.877 -1599.5221 7211.5107 266497
-5089.2847 -1597.1002 7200.5913 528646
-5072.7915 -1605.4288 7238.1411 529158
-5004.9741 -1597.5178 7202.4741 463367
-4962.1533 -1597.5178 7202.4741 923917
-4919.3325 -1597.5178 7202.4741 68352
-4856.9478 -1591.1089 7173.5786 1024
-4814.2993 -1591.1089 7173.5786 396804
-4847.6128 -1616.4385 7287.7788 463109
-4841.312 -1628.8966 7343.9468 1846044
-4766.8496 -1618.4393 7296.7988 199682
-4753.9883 -1628.8966 7343.9468 1280
-4840.3345 -1673.8552 7546.6445 1280
-4805.2598 -1677.2732 7562.0542 68871
-4762.2524 -1677.9606 7565.1538 1024
-4724.3384 -1680.473 7576.481 68356
-4446.3896 -1596.8301 7199.373 134404
-4353.5928 -1578.701 7117.6377 1280
-4311.2764 -1578.701 7117.6377 265218
-4352.2788 -1609.5132 7256.5552 727816
-4355.8047 -1626.944 7335.1431 990986
-4348.6631 -1640.703 7397.1763 924935
-4419.4526 -1684.4462 7594.394 529668
-4350.4639 -1675.2666 7553.0078 1649174
-4357.7407 -1695.5702 7644.5469 728326
-4260.6543 -1675.2666 7553.0078 2241821
-4391.6807 -1745.1787 7868.209 1452052
-4193.2212 -1684.2543 7593.5288 464389
-4148.0757 -1684.2543 7593.5288 1280
-4111.6592 -1687.8378 7609.6851 1280
-4066.4177 -1687.8378 7609.6851 727046
-3975.4297 -1668.6362 7523.1143 1187594
-3891.1956 -1651.8651 7447.5005 1582606
-3846.918 -1651.8651 7447.5005 2240535
-3820.5098 -1659.6274 7482.4976 1517068
-3780.011 -1661.3796 7490.397 661507
-3842.9026 -1709.1571 7705.8047 1384973
-3911.2722 -1760.5536 7937.5273 1055754
-3651.3093 -1663.6102 7500.4541 264962
-3657.8687 -1687.204 7606.8276 331010
-3580.9697 -1672.4113 7540.1343 1319693
-3545.0718 -1676.635 7559.1768 991240
-3595.0054 -1722.082 7764.0767 1649420
-3467.6267 -1682.6704 7586.3877 1518601
-3478.5449 -1710.213 7710.5645 1122822
-3506.7239 -1747.0911 7876.8306 1386503
-3477.9993 -1756.2332 7918.0488 596227
-3442.2676 -1762.0397 7944.2271 1649670
-3455.1802 -1793.2544 8084.9604 2110223
-3407.113 -1793.2544 8084.9604 2044944
-3405.9065 -1818.2716 8197.751 728320
-3428.3782 -1856.8392 8371.6348 990978
-3378.6064 -1856.8392 8371.6348 1451781
-3372.8594 -1881.3964 8482.3516 925444
-3351.7659 -1898.0088 8557.249 2570261
-3300.8906 -1898.0088 8557.249 2767641
-3265.3252 -1906.9495 8597.5596 1254404
-3041.1355 -1804.2666 8134.6089 1385991
-3157.6572 -1903.671 8582.7783 201984
-3141.5583 -1925.0742 8679.2754 2242064
-3089.9578 -1925.0742 8679.2754 2966042
-3038.3569 -1925.0742 8679.2754 4216614
-3102.1104 -1999.4242 9014.4854 1452553
-2953.7324 -1937.2582 8734.207 1452300
-2901.8052 -1937.2582 8734.207 2701855
-2968.9751 -2018.2167 9099.2119 135168
-2958.6465 -2048.5217 9235.8428 134656
-2839.0342 -2002.8755 9030.0449 66816
-2785.3481 -2002.8755 9030.0449 1582610
-2731.6619 -2002.8755 9030.0449 1122060
-2649.0735 -1981.259 8932.5869 768
-2538.3459 -1937.2825 8734.3164 924683
-2559.9905 -1994.6061 8992.7627 793352
-2509.0476 -1996.6127 9001.8096 1121293
-2351.6438 -1912.1427 8620.9727 1319692
-2295.4465 -1908.0336 8602.4473 859140
-2244.3027 -1908.0336 8602.4473 1582862
-2252.2336 -1959.4285 8834.1631 135424
-2201.7209 -1961.2178 8842.2305 2241561
-2248.6565 -2052.022 9251.624 1584143
-2212.4268 -2069.5833 9330.7998 1517839
-2274.5642 -2182.4312 9839.5791 1780245
-2236.3845 -2202.4419 9929.7988 1024
-2182.7625 -2207.918 9954.4873 1280
-2097.9485 -2181.2681 9834.335 1581845
-2019.5955 -2160.0005 9738.4492 792330
-1961.6975 -2160.0005 9738.4492 67072
-1941.7639 -2203.0735 9932.6465 67329
-1857.4662 -2173.5325 9799.459 768
-1760.4893 -2126.761 9588.5879 198914
-1694.7847 -2115.9019 9539.6299 660487
-1638.069 -2115.9019 9539.6299 68096
-1620.7985 -2168.6809 9777.5859 397571
-1562.668 -2168.6809 9777.5859 726533
-1503.6278 -2167.3699 9771.6748 67584
-1445.5326 -2167.3699 9771.6748 2371872
-1371.8444 -2143.0117 9661.8545 1536
-1320.6608 -2153.2161 9707.8623 396803
-1272.528 -2169.5544 9781.5244 267008
-1224.1011 -2186.9324 9859.873 1714705
-1168.5195 -2192.6333 9885.5762 3754790
-1158.2783 -2288.521 10317.89 67328
-1091.5161 -2277.2146 10266.914 2109208
-1007.8313 -2227.1719 10041.295 858375
-935.43573 -2197.3459 9906.8232 1253390
-869.91339 -2180.7417 9831.9619 768
-807.6275 -2170.4429 9785.5303 199425
-754.83673 -2186.0437 9855.8672 661252
-696.24084 -2186.0437 9855.8672 1779731
-633.73285 -2172.6318 9795.3984 398081
-582.0025 -2197.1938 9906.1367 200704
-523.36816 -2198.2874 9911.0674 463364
-472.35001 -2235.7073 10079.776 332288
-406.14175 -2201.6572 9926.2617 1056518
-347.12735 -2201.6572 9926.2617 925701
-287.68341 -2198.3748 9911.4619 2176532
-235.31709 -2261.418 10195.694 2373909
-174.70085 -2261.418 10195.694 2308368
-119.86501 -2375.9983 10712.285 2768915
-56.177494 -2375.9983 10712.285 3229467
7.5100265 -2375.9983 10712.285 2702359
71.394341 -2382.5659 10741.895 768
131.38745 -2314.3882 10434.513 1024
187.04399 -2238.0544 10090.359 1024
247.034 -2238.0544 10090.359 265731
310.4136 -2262.7632 10201.76 1536
371.06592 -2262.7632 10201.76 661509
422.68091 -2215.3962 9988.2031 1122569
497.26447 -2285.2542 10303.161 727812
559.59277 -2289.6448 10322.957 530179
612.21344 -2257.3738 10177.461 332802
673.94293 -2261.4729 10195.942 1792
748.17822 -2303.397 10384.959 3072
807.55261 -2296.6653 10354.608 1649419
871.66113 -2303.397 10384.959 2505747
926.33698 -2285.9609 10306.347 2637584
1010.2813 -2338.4343 10542.926 2966804
1077.6768 -2348.7097 10589.253 3163927
1140.6328 -2348.7097 10589.253 1847052
1203.5889 -2348.7097 10589.253 1386247
1272.2803 -2359.3457 10637.205 662530
1312.1432 -2318.0452 10451.001 1280
1345.4707 -2269.4561 10231.936 1056776
1377.5487 -2223.054 10022.729 397312
0 0 0 0
0 0 0 0
0 0 0 0
0 0 0 0
0 0 0 0
0 0 0 0
0 0 0 0
707.16754 -847.81982 3822.4302 1580313
715.68073 -831.31146 3748.0012 1777691
737.96368 -831.31146 3748.0012 1909278
746.22021 -815.97394 3678.8516 594954
0 0 0 0
0 0 0 0
2458.5422 -2471.0747 11140.94 2903333
2545.4021 -2491.2595 11231.945 1653009
2612.179 -2491.2595 11231.945 3759149
2798.9199 -2602.8186 11734.913 2242069
2723.6646 -2471.2366 11141.67 2048274
2715.4146 -2405.2544 10844.188 6853197
2857.3118 -2472.2458 11146.221 5537083
2923.5791 -2472.2458 11146.221 5009460
2965.178 -2451.8479 11054.256 4549169
3064.4377 -2478.9792 11176.579 3891498
3026.6565 -2396.4526 10804.504 4089134
3055.0771 -2368.6841 10679.309 5799500
3199.8171 -2430.396 10957.539 4679488
3264.9629 -2430.396 10957.539 4415554
3369.6077 -2459.2234 11087.509 2703918
3559.1824 -2547.7395 11486.587 1913889
3680.1013 -2584.7024 11653.235 2966578
3749.3831 -2584.7024 11653.235 3952448
4102.9336 -2777.1125 12520.725 3030064
4185.4263 -2782.4666 12544.863 2635047
3957.3098 -2584.7556 11653.476 5331789
3823.2241 -2454.2087 11064.9 2634281
3818.5195 -2409.7263 10864.349 594956
3971.7686 -2464.7441 11112.398 3557182
4202.4419 -2565.2222 11565.408 2835513
4271.2017 -2565.2222 11565.408 2639928
4136.1816 -2444.7742 11022.364 5995112
4445.2661 -2586.4861 11661.277 596237
4543.2915 -2602.9265 11735.399 1319192
4613.0615 -2602.9265 11735.399 859409
4478.624 -2489.4189 11223.646 69124
4959.938 -2716.4812 12247.365 528907
5032.752 -2716.4812 12247.365 5729120
4824.2378 -2566.7969 11572.508 4479309
4849.4917 -2543.9526 11469.514 924947
4895.5703 -2532.5144 11417.944 1647132
4963.4531 -2532.5144 11417.944 726029
5011.7847 -2522.6731 11373.574 793107
5079.4033 -2522.6731 11373.574 792850
5070.3042 -2485.0718 11204.047 727316
5568.564 -2693.8892 12145.509 1780261
5640.7725 -2693.8892 12145.509 1977897
5907.2109 -2785.4761 12558.432 3687489
5899.8071 -2747.2612 12386.139 1027
6124.7373 -2816.842 12699.847 2056
6165.1538 -2800.9014 12627.978 67077
6051.2539 -2716.0801 12245.557 68105
6124.3555 -2716.2122 12246.153 199434
5826.5952 -2553.7927 11513.879 265740
6192.1387 -2682.4954 12094.139 265483
5941.7393 -2544.4734 11471.861 594960
5901.0127 -2498.355 11263.935 266249
5991.356 -2508.1409 11308.055 4215367
6058.5854 -2508.1409 11308.055 3820864
6727.8789 -2754.6487 12419.445 2373933
6283.0498 -2544.5923 11472.397 2373935
6107.4824 -2446.9258 11032.063 1978150
6173.0708 -2446.9258 11032.063 3228732
6318.8193 -2478.366 11173.813 1912871
6385.2515 -2478.366 11173.813 3623488
6819.5596 -2619.6831 11810.948 2173476
7011.7334 -2666.0537 12020.011 199428
6599.5991 -2484.032 11199.359 66306
7154.6577 -2666.0537 12020.011 5463900
6822.7568 -2517.2339 11349.052 5465696
7062.6704 -2580.2324 11633.082 6518379
7131.8325 -2580.2324 11633.082 263681
6323.644 -2265.8635 10215.737 331009
6025.6865 -2138.5608 9641.7881 527104
4561.5947 -1603.6877 7230.291 1448463
0 0 0 0
0 0 0 0
7386.688 -2525.4893 11386.271 1317393
9074.8555 -3074.4932 13861.477 528650
9370.7754 -3146.1777 14184.67 1844766
10367.505 -3449.7771 15553.46 2107937
10851.791 -3579.001 16136.071 1252372
10948.066 -3579.113 16136.576 1055254
11045.72 -3579.6694 16139.085 594706
11140.448 -3579.2764 16137.313 1778210
0 0 0 0
0 0 0 0
0 0 0 0
0 0 0 0
0 0 0 0
7045.9165 -2152.5334 9704.7852 2303782
7949.2852 -2408.7883 10860.12 396044
8324.3066 -2502.1045 11280.839 66567
8391.375 -2502.1045 11280.839 329744
8230.6865 -2434.7314 10977.086 461329
7333.168 -2152.1707 9703.1484 724243
6596.6562 -1920.9045 8660.4766 789777
6648.1455 -1920.9045 8660.4766 8093057
6489.6431 -1860.6964 8389.0254 525829
5806.6851 -1652.1826 7448.9321 2433057
5795.3594 -1636.4791 7378.1328 1444623
5600.3228 -1569.5256 7076.2695 1246985
5556.0063 -1545.4955 6967.9292 1773329
5430.666 -1499.45 6760.3306 2759199
5030.2681 -1378.6932 6215.8945 6775657
5024.3574 -1367.0303 6163.3115 13816274
4810.3511 -1299.3273 5858.0698 13554387
0 0 0 0
0 0 0 0
0 0 0 0
6261.7812 -1643.7693 7411.0005 2369582
8215.0713 -2141.4561 9654.8408 2171688
8272.4717 -2141.4561 9654.8408 2434859
8844.499 -2273.7568 10251.325 1710878
12795.042 -3266.8564 14728.755 790031
10280.903 -2607.0991 11754.212 1644828
0 0 0 0
0 0 0 0
0 0 0 0
0 0 0 0
13371.257 -3279.3193 14784.943 3027759
14414.014 -3511.9695 15833.857 3422515
14784.529 -3578.8721 16135.49 1317652
14880.871 -3578.9714 16135.938 3225903
14978.396 -3579.3518 16137.653 4410944
15076.197 -3579.793 16139.642 6713953
15172.151 -3579.793 16139.642 6056277
15268.012 -3579.7705 16139.541 6252889
15363.32 -3579.6206 16138.864 6712672
15457.477 -3579.2056 16136.992 1513746
15552.279 -3578.9434 16135.812 921608
15648.21 -3578.9434 16135.812 1381905
0 0 0 0
0 0 0 0
0 0 0 0
0 0 0 0
0 0 0 0
0 0 0 0
-5105.835 -1236.827 5729.8711 397319
-5998.7354 -1462.8816 6777.1187 726284
-5860.6104 -1438.8622 6665.8438 265220
-5801.6685 -1434.0885 6643.7285 924172
-5781.3501 -1438.8622 6665.8438 2437411
-5742.9443 -1439.1692 6667.2656 595463
-5922.3867 -1494.452 6923.375 2304
-5881.2256 -1494.452 6923.375 529156
-5783.3667 -1479.9434 6856.1606 1845525
-5924.4834 -1526.8158 7073.3076 1319436
-5831.9653 -1513.7173 7012.626 1714449
-5848.2778 -1528.881 7082.875 1385228
-5848.793 -1540.105 7134.873 528900
-5806.3745 -1540.105 7134.873 792835
-5732.0718 -1531.5858 7095.4058 595201
-5802.0396 -1561.7747 7235.2617 1121803
-5759.0239 -1561.7747 7235.2617 1713941
-5595.9204 -1528.9633 7083.2559 266752
-5587.8223 -1538.3271 7126.6362 529665
-5646.6235 -1566.3925 7256.6548 727557
-5671.1138 -1585.2985 7344.2412 660994
-5594.7144 -1576.0765 7301.5186 2109209
-5493.7671 -1559.741 7225.8403 1714449
-5440.7793 -1556.8712 7212.5464 530433
-5452.5376 -1572.6304 7285.5537 793859
-5317.2065 -1545.8784 7161.6191 1780496
-5146.1021 -1508.21 6987.1123 2569753
-5104.5615 -1508.21 6987.1123 1320711
-5312.4321 -1582.5063 7331.3062 1714958
-5201.606 -1562.3108 7237.7461 1319692
-5139.877 -1556.6478 7211.5107 989962
-5097.0024 -1556.6478 7211.5107 68608
-5083.0542 -1565.557 7252.7842 68608
-5039.9341 -1565.557 7252.7842 397319
-4962.1533 -1554.6971 7202.4741 1187345
-4919.3325 -1554.6971 7202.4741 133889
-4856.9478 -1548.46 7173.5786 528905
-4814.2993 -1548.46 7173.5786 397575
-4922.7822 -1597.5043 7400.7871 68354
-4878.7827 -1597.5043 7400.7871 397063
-4861.0708 -1606.1903 7441.0273 1536
-4816.832 -1606.1903 7441.0273 768
-4840.3345 -1628.9884 7546.6445 1537
-4795.4678 -1628.9884 7546.6445 2307
-4762.2524 -1632.9836 7565.1538 1281
-4717.2754 -1632.9836 7565.1538 331272
-4533.7827 -1584.572 7340.8755 1792
-4436.7876 -1565.7443 7253.6523 1792
-4363.3843 -1554.9541 7203.6646 1792
-4399.0713 -1583.2113 7334.5718 661254
-4355.8047 -1583.3346 7335.1431 1122316
-4312.1948 -1583.3346 7335.1431 1714195
-4268.3276 -1583.239 7334.7002 990475
-4350.4639 -1630.3619 7553.0078 134912
-4345.7876 -1645.5948 7623.5776 3360297
-4260.6543 -1630.3619 7553.0078 1649678
-4255.1387 -1645.5948 7623.5776 662277
-4164.646 -1627.9387 7541.7817 463876
-4148.0757 -1639.1086 7593.5288 1253394
-4060.3813 -1622.1107 7514.7817 1024
-4282.2285 -1729.7711 8013.5425 1280
-3971.0264 -1622.1107 7514.7817 990218
-3891.1956 -1607.5876 7447.5005 727299
-3863.2949 -1614.4313 7479.2056 1582864
-3820.5098 -1615.1418 7482.4976 1385226
-3837.0266 -1641.2347 7603.3784 464130
-3791.8223 -1641.2347 7603.3784 265729
-3911.2722 -1713.3629 7937.5273 2634786
-3792.3408 -1681.5522 7790.1582 331012
-3657.8687 -1641.9792 7606.8276 1792
-3561.9326 -1618.9307 7500.0498 134912
-3517.3425 -1618.9307 7500.0498 1056778
-3500.1306 -1631.6935 7559.1768 135936
-3428.124 -1618.9124 7499.9648 2768157
-3514.2202 -1681.441 7789.6426 1978641
-3481.687 -1688.1217 7820.5918 1452808
-3459.894 -1700.261 7876.8306 68096
-3442.2676 -1714.8088 7944.2271 2307345
-3455.1802 -1745.187 8084.9604 2373395
-3612.7356 -1850.5107 8572.8955 2110475
-3397.2502 -1765.0361 8176.9155 2438925
-3348.636 -1765.0361 8176.9155 2636307
-3378.6064 -1807.0675 8371.6348 530688
-3372.8594 -1830.9664 8482.3516 1846795
-3322.4292 -1830.9664 8482.3516 1912841
-3194.9094 -1787.8279 8282.5029 2176013
-3208.0007 -1823.2545 8446.625 3820584
-3118.0559 -1800.3167 8340.3604 2833434
-3068.4702 -1800.3167 8340.3604 267264
-3141.5583 -1873.4735 8679.2754 1122819
-3089.9578 -1873.4735 8679.2754 2373397
-3061.3745 -1887.6664 8745.0264 6387517
-2999.1143 -1881.2252 8715.1865 2176782
-2947.3 -1881.2252 8715.1865 2307857
-2881.1926 -1871.9387 8672.165 1846795
-2844.4553 -1881.7438 8717.5889 1122821
-2847.4832 -1918.7073 8888.8301 529921
-2839.0342 -1949.1892 9030.0449 3294756
-2858.3972 -2000.3092 9266.8691 1584391
-2731.6619 -1949.1892 9030.0449 2439443
-2649.0735 -1928.1525 8932.5869 4084012
-2552.8933 -1896.1595 8784.373 332288
-2559.9905 -1941.1417 8992.7627 1516302
-2516.4146 -1948.7997 9028.2402 1280
-2354.3677 -1863.0439 8630.958 67584
-2285.9724 -1849.2258 8566.9424 989195
-2235.0398 -1849.2258 8566.9424 1280
-2252.2336 -1906.907 8834.1631 200192
-2201.7209 -1908.6483 8842.2305 1188105
-2267.9006 -2014.109 9330.7998 266496
-2312.2314 -2104.9678 9751.7227 3491628
-2254.2549 -2104.9678 9751.7227 464385
-2236.3845 -2143.4065 9929.7988 2636066
-2177.3489 -2143.4065 9929.7988 792841
-2097.9485 -2122.8 9834.335 199936
-2011.7657 -2093.9531 9700.6943 1583123
-1883.7477 -2018.5734 9351.4824 1122061
-1911.5564 -2110.667 9778.126 529669
-1857.4662 -2115.272 9799.459 1024
-1799.2058 -2115.272 9799.459 67584
-1703.4824 -2069.7542 9588.5879 397315
-1634.8391 -2055.126 9520.8203 463108
-1567.9692 -2041.7579 9458.8896 134912
-1538.3781 -2077.7444 9625.6045 528386
-1481.1512 -2077.7444 9625.6045 1582351
-1429.2867 -2085.5691 9661.8545 2635808
-1371.8444 -2085.5691 9661.8545 1280
-1329.7484 -2109.9194 9774.6631 924423
-1271.6353 -2109.9194 9774.6631 990472
-1213.5222 -2109.9194 9774.6631 1122310
-1148.1334 -2096.6331 9713.1104 2372884
-1106.8617 -2128.3127 9859.873 2043920
-1068.7473 -2169.9458 10052.748 332800
-1008.9809 -2169.9458 10052.748 1517327
-949.21448 -2169.9458 10052.748 2306588
-895.08081 -2183.6877 10116.41 200449
-828.49982 -2166.8547 10038.428 67072
-768.8186 -2166.8547 10038.428 529155
-697.97235 -2132.7388 9880.3779 1714450
-634.88165 -2118.2283 9813.1553 1385485
-580.4892 -2132.7388 9880.3779 132353
-518.19781 -2118.2283 9813.1553 1536
-466.28 -2147.8201 9950.2451 768
-406.14175 -2142.6431 9926.2617 1792
-346.6098 -2139.4482 9911.4619 727296
-288.99039 -2149.1682 9956.4912 1122055
-235.31709 -2200.8015 10195.694 989703
-174.70085 -2200.8015 10195.694 201728
-116.78386 -2252.8726 10436.924 1715720
-55.830395 -2298.0244 10646.1 3491618
7.4636264 -2298.0244 10646.1 1978128
70.757652 -2298.0244 10646.1 1536
131.666 -2257.1272 10456.635 1024
190.3562 -2216.634 10269.041 768
249.76132 -2202.1108 10201.76 67073
310.4136 -2202.1108 10201.76 529666
371.06592 -2202.1108 10201.76 464386
428.44193 -2185.3992 10124.339 1056520
488.63391 -2185.3992 10124.339 595969
551.70563 -2196.8657 10177.461 3584
595.15009 -2135.6357 9893.7988 1319694
662.48962 -2163.4529 10022.668 859397
737.04993 -2208.3137 10230.495 464386
797.87305 -2208.3137 10230.495 529920
869.11365 -2235.1042 10354.608 1320708
926.33698 -2224.6865 10306.347 1979145
1006.1214 -2266.3828 10499.514 2572045
1077.6768 -2285.7537 10589.253 3230228
1102.5365 -2209.4111 10235.579 2703886
1187.875 -2255.9111 10451.001 2440462
1272.2803 -2296.1045 10637.205 1255937
1312.1432 -2255.9111 10451.001 2702363
1345.4707 -2208.6245 10231.936 992006
1373.3204 -2156.8257 9991.9658 530178
0 0 0 0
0 0 0 0
0 0 0 0
0 0 0 0
0 0 0 0
0 0 0 0
0 0 0 0
719.22491 -839.16254 3887.6038 922381
721.17102 -815.23486 3776.7537 2830380
739.61963 -810.84399 3756.4119 1251091
757.04358 -805.61993 3732.2104 528902
0 0 0 0
0 0 0 0
2515.0122 -2460.0754 11396.836 4219963
2582.7698 -2460.0754 11396.836 2114841
2650.5269 -2460.0754 11396.836 3628333
2796.2053 -2530.5945 11723.532 5734476
2723.6646 -2404.9961 11141.67 3694375
2983.0894 -2571.5281 11913.165 3825700
2985.1423 -2513.6172 11644.881 6391361
2948.5232 -2426.5063 11241.32 3495708
2881.0823 -2318.4541 10740.745 1193479
3082.1887 -2426.5063 11241.32 2641434
3016.6643 -2324.5173 10768.834 4286771
3044.4661 -2297.1863 10642.217 3957804
3107.7371 -2297.1863 10642.217 3365669
3148.4236 -2280.8252 10566.421 3430702
3330.1086 -2365.2505 10957.539 4087612
3559.1824 -2479.4485 11486.587 1257494
3680.1013 -2515.4207 11653.235 2638384
3761.4807 -2523.5366 11690.835 1716511
3818.6646 -2515.4207 11653.235 3690557
4185.4263 -2707.8838 12544.863 5861467
4166.335 -2648.3396 12269.012 6190945
4026.5928 -2515.4724 11653.476 4019008
3905.7024 -2398.6777 11112.398 1321241
4363.3823 -2635.1855 12208.072 1782051
4435.9624 -2635.1855 12208.072 3689536
4533.9341 -2650.0264 12276.826 794900
4350.3037 -2502.4119 11592.97 1187861
4445.2661 -2517.1565 11661.277 332554
4506.7021 -2512.7556 11640.89 858641
4583.9248 -2517.1565 11661.277 727312
4887.124 -2643.667 12247.365 332809
4959.938 -2643.667 12247.365 3294521
5032.752 -2643.667 12247.365 3492411
4752.0791 -2460.6313 11399.412 926230
4819.8521 -2460.6313 11399.412 1056791
4864.9092 -2449.1958 11346.434 1911845
4944.165 -2455.054 11373.574 924692
4937.0815 -2418.4607 11204.047 594701
5079.4033 -2455.054 11373.574 133894
5070.3042 -2418.4607 11204.047 133896
5466.8125 -2573.7761 11923.58 68873
5682.4072 -2641.0315 12235.155 792596
5755.1489 -2641.0315 12235.155 1516062
5827.8901 -2641.0315 12235.155 396811
6077.0981 -2720.0154 12601.065 770
6152.0151 -2720.0154 12601.065 514
6006.8765 -2623.8921 12155.753 1028
5989.835 -2585.3435 11977.168 67078
5698.1953 -2430.5706 11260.149 396557
5765.1401 -2430.5706 11260.149 68104
5834.0454 -2431.3877 11263.935 66563
5839.5854 -2406.0779 11146.682 2635052
5967.98 -2431.3877 11263.935 2635823
5940.2368 -2393.2305 11087.162 3491387
6727.8789 -2680.8118 12419.445 1056276
6283.0498 -2476.3857 11472.397 1846562
6095.2822 -2376.5801 11010.026 1583392
6160.7397 -2376.5801 11010.026 3096889
6318.8193 -2411.9346 11173.813 4609870
6385.2515 -2411.9346 11173.813 4806993
7409.1509 -2769.8801 12832.074 2043430
7485.4404 -2769.8801 12832.074 4873298
6976.5264 -2555.5183 11838.996 5268571
7046.9126 -2555.5183 11838.996 2900280
7192.0649 -2582.3635 11963.363 3821125
7112.3276 -2528.7256 11714.873 5399385
7108.7847 -2502.9556 11595.488 923407
6238.0225 -2175.271 10077.418 659205
6025.6865 -2081.2378 9641.7881 921863
0 0 0 0
0 0 0 0
0 0 0 0
0 0 0 0
7836.9463 -2583.9302 11970.621 198915
9370.7754 -3061.8459 14184.67 461832
10367.505 -3357.3076 15553.46 593164
10851.791 -3483.0676 16136.071 987665
10948.066 -3483.1765 16136.576 1054227
11045.72 -3483.718 16139.085 725265
11141.373 -3483.6248 16138.652 1646367
0 0 0 0
0 0 0 0
0 0 0 0
0 0 0 0
0 0 0 0
5528.2437 -1643.6134 7614.3979 1119512
7357.7998 -2169.7944 10052.047 4017492
7786.1001 -2277.5996 10551.478 2569794
7848.8311 -2277.5996 10551.478 7768220
7604.5854 -2189.2261 10142.068 5393775
0 0 0 0
0 0 0 0
0 0 0 0
0 0 0 0
5293.3311 -1465.7467 6790.3916 2300706
5615.104 -1543.0784 7148.6475 1050123
5657.6045 -1543.0784 7148.6475 1246730
5682.1396 -1538.2148 7126.1162 1773329
5597.4326 -1504.0692 6967.9292 2102294
5030.2681 -1341.738 6215.8945 1446164
5002.7212 -1324.6587 6136.771 13880786
4991.2163 -1312.0435 6078.3281 13750484
0 0 0 0
0 0 0 0
5452.6699 -1402.8749 6499.1245 2238255
7914.5107 -2021.9346 9367.0537 1448992
8363.1963 -2121.6328 9828.9268 3094581
8421.6328 -2121.6328 9828.9268 4475978
8844.499 -2212.8098 10251.325 7699062
10910.688 -2711.0691 12559.619 3027503
8759.7803 -2161.8201 10015.104 3225138
8533.1982 -2091.6841 9690.1836 2238241
7586.04 -1847.0438 8556.834 3159348
0 0 0 0
6653.8721 -1598.6389 7406.0439 3291696
11372.247 -2714.2998 12574.587 2304547
14688.6 -3482.9421 16135.49 4016189
14784.938 -3483.0388 16135.938 5398098
14881.286 -3483.1357 16136.387 6780005
14978.396 -3483.4092 16137.653 7240555
15076.615 -3483.9351 16140.089 6911075
15172.571 -3483.9351 16140.089 5003079
15268.36 -3483.8962 16139.911 4608321
15362.475 -3483.4783 16137.975 4804933
15457.477 -3483.2666 16136.992 4014651
15553.416 -3483.2666 16136.992 3620149
15652.185 -3483.896 16139.909 3027243
0 0 0 0
0 0 0 0
0 0 0 0
0 0 0 0
0 0 0 0
0 0 0 0
-5894.2246 -1388.4791 6614.6182 595465
-5855.9639 -1388.7317 6615.8213 661003
-5782.6885 -1380.6279 6577.2153 989965
-5759.4375 -1384.4385 6595.3687 726793
-5671.0186 -1372.5289 6538.6323 595207
-5435.2417 -1324.5447 6310.0386 1450770
-5397.7271 -1324.5447 6310.0386 134912
-5848.1724 -1445.1229 6884.4648 265473
-5675.8789 -1412.4335 6728.7344 2306078
-5818.5508 -1458.2147 6946.833 1713682
-5762.0273 -1454.3726 6928.5293 661250
-5790.2734 -1472.0253 7012.626 1252875
-5757.104 -1474.2076 7023.0225 2568734
-5744.5215 -1481.7321 7058.8682 1253130
-5741.3994 -1491.8253 7106.9521 134144
-5708.1582 -1494.1842 7118.1899 594692
-5715.9043 -1507.3875 7181.0889 134144
-5733.7012 -1523.46 7257.6572 1536
-5689.1733 -1523.0907 7255.8984 463621
-5646.0352 -1523.0907 7255.8984 1516309
-5603.481 -1523.2495 7256.6548 727048
-5581.4785 -1529.041 7284.2446 331522
-5539.167 -1529.3158 7285.5537 1024
-5495.8521 -1529.3158 7285.5537 990470
-5463.6328 -1532.4277 7300.3789 1714960
-5359.2285 -1515.1812 7218.2173 2043669
-5366.5996 -1529.5128 7286.4922 1780495
-5323.2793 -1529.5128 7286.4922 1254663
-5275.7139 -1528.2831 7280.6338 1649677
-5138.1436 -1500.7443 7149.4414 1978900
-5021.7598 -1478.986 7045.7861 1648914
-4877.4976 -1448.5819 6900.9434 660230
-5098.4834 -1527.0583 7274.7993 726792
-5060.1533 -1528.5447 7281.8804 594695
-5048.6719 -1538.2371 7328.0542 660999
-5047.6328 -1551.3074 7390.3203 1647891
-5027.6973 -1558.7487 7425.7705 1385234
-4968.1904 -1553.9449 7402.8857 990476
-4924.1782 -1553.9449 7402.8857 595719
-4759.0654 -1515.384 7219.1841 1977116
-5031.0146 -1616.5574 7701.1665 256
-4909.2974 -1591.9351 7583.8677 1024
-4797.7891 -1570.1974 7480.311 133892
-4607.437 -1522.0079 7250.7397 1792
-4629.8467 -1543.8552 7354.8188 265991
-4586.1206 -1543.8552 7354.8188 133894
-4542.394 -1543.8552 7354.8188 66817
-4486.2832 -1539.6051 7334.5718 1792
-4442.6772 -1539.6051 7334.5718 1792
-4399.0713 -1539.6051 7334.5718 660486
-4307.4971 -1522.6489 7253.7935 68352
-4219.4922 -1506.6244 7177.4536 990213
-4260.1895 -1536.6965 7320.7153 594690
-4290.6714 -1563.6667 7449.1997 3097374
-4185.7163 -1541.3269 7342.7739 1124355
-4403.4512 -1638.5944 7806.1489 1979153
-4348.5264 -1635.3918 7790.8926 728072
-4119.3179 -1565.8702 7459.6968 595460
-4154.8828 -1596.5789 7605.9907 464391
-4007.3757 -1556.8409 7416.6816 1536
-4108.0039 -1613.6903 7687.5078 198914
-3964.2175 -1574.7285 7501.8965 1516561
-3967.1448 -1593.8232 7592.8628 1319436
-3861.6548 -1569.2987 7476.0303 1910802
-3858.113 -1586.1154 7556.1431 726787
-3835.47 -1595.3831 7600.2939 265728
-3791.8223 -1596.0306 7603.3784 923145
-3764.2764 -1603.5529 7639.2139 989706
-3718.8594 -1603.5529 7639.2139 768
-3672.4077 -1603.1014 7637.063 768
-3627.0032 -1603.1014 7637.063 1024
-3517.3425 -1574.3407 7500.0498 793348
-3559.9365 -1613.8646 7688.3384 1451530
-3534.7769 -1623.3018 7733.2969 1847311
-3512.4597 -1634.3104 7785.7407 793096
-3466.1711 -1634.3104 7785.7407 3492135
-3326.0183 -1589.454 7572.0479 2372630
-3374.1609 -1634.5848 7787.0479 768
-3365.4568 -1653.0492 7875.0112 464384
-3456.3569 -1721.6488 8201.8145 530432
-3407.595 -1721.6488 8201.8145 2373396
-3518.0029 -1803.2351 8590.4863 2571029
-3303.0938 -1718.0197 8184.5264 3097370
-3254.4343 -1718.0197 8184.5264 1979404
-3230.9031 -1731.4861 8248.6797 1585158
-3248.9702 -1768.0044 8422.6504 2966799
-3107.5107 -1717.4971 8182.0361 3558171
-3112.9202 -1747.8474 8326.623 463872
-3063.416 -1747.8474 8326.623 530688
-3127.792 -1813.8892 8641.2422 1188363
-3076.4172 -1813.8892 8641.2422 990979
-3061.3745 -1835.6747 8745.0264 1517066
-2913.1279 -1776.9608 8465.3174 1057538
-2838.241 -1761.7173 8392.6982 4743208
-2788.344 -1761.7173 8392.6982 925956
-2854.6233 -1836.4565 8748.751 2241557
-2806.8667 -1839.246 8762.04 463618
-2740.7798 -1829.9028 8717.5293 1122567
-2688.9517 -1829.9028 8717.5293 1254151
-2637.1235 -1829.9028 8717.5293 3031074
-2550.7798 -1805.4722 8601.1436 2307605
-2541.6536 -1835.8158 8745.6982 660740
-2489.658 -1835.8158 8745.6982 1517326
-2384.2202 -1795.5682 8553.9619 858888
-2412.6379 -1856.5707 8844.5732 1792
-2360.0547 -1856.5707 8844.5732 1121804
-2370.8506 -1907.5652 9087.5078 1714194
-2416.5747 -1989.6963 9478.7744 464896
-2360.2207 -1989.6963 9478.7744 2504731
-2395.4062 -2068.7527 9855.3936 1847311
-2336.813 -2068.7527 9855.3936 398336
-2254.2549 -2046.9911 9751.7227 2241048
-2101.1204 -1958.3015 9329.2119 989957
-2074.0376 -1985.4714 9458.6475 1977622
-2101.603 -2067.9282 9851.4668 1056520
-2043.0334 -2067.9282 9851.4668 68608
-2004.8295 -2089.1506 9952.5684 1780504
-1871.2974 -2009.3053 9572.1904 1582868
-1853.4227 -2052.5334 9778.126 200960
-1844.4362 -2108.7229 10045.809 1910808
-1784.7111 -2108.7229 10045.809 68864
-1677.9762 -2051.2554 9772.0381 595461
-1500.2406 -1899.7576 9050.3125 726788
-1489.608 -1956.4625 9320.4512 1319436
-1440.1578 -1964.5964 9359.2002 1253892
-1380.342 -1958.675 9330.9922 1977874
-1328.8718 -1964.5964 9359.2002 1253899
-1329.8864 -2052.0193 9775.6768 859140
-1264.0914 -2039.634 9716.6748 2109206
-1213.6481 -2052.0193 9775.6768 331778
-1180.6562 -2096.6411 9988.252 396801
-1103.2563 -2062.9514 9827.7568 1253643
-1063.8651 -2100.54 10006.826 3072
-1016.306 -2125.4993 10125.73 199936
-956.10571 -2125.4993 10125.73 661255
-899.57635 -2134.2083 10167.22 3096870
-827.77869 -2105.3391 10029.689 2175512
-744.26801 -2039.8854 9717.8721 793861
-698.88721 -2076.7153 9893.3281 1320717
-639.72363 -2075.5962 9887.9961 1451786
-576.53967 -2059.8865 9813.1553 1781007
-508.59851 -2021.7283 9631.373 2241301
-462.31027 -2070.8809 9865.5322 1280
-403.65695 -2070.8809 9865.5322 596225
-345.00363 -2070.8809 9865.5322 1781772
-288.99039 -2089.9741 9956.4912 2572310
-235.85556 -2145.0825 10219.024 3162400
-174.0722 -2132.4841 10159.006 663296
-116.78386 -2190.822 10436.924 267776
-54.733433 -2190.822 10436.924 1386250
7.3484955 -2200.2581 10481.877 1912083
69.426529 -2192.6897 10445.82 67328
133.47191 -2225.0652 10600.056 1846547
195.48158 -2213.6211 10545.537 1320973
259.51248 -2225.0652 10600.056 1649680
307.90668 -2124.1641 10119.369 1254921
383.41031 -2212.6995 10541.146 1189387
428.44193 -2125.2073 10124.339 1057546
475.48505 -2068.019 9851.8984 859653
531.5824 -2058.4353 9806.2422 465155
589.88324 -2058.4353 9806.2422 1845782
650.49567 -2065.7761 9841.2139 463362
736.495 -2145.8735 10222.792 2048
797.87305 -2147.4905 10230.495 2560
851.68658 -2129.9602 10146.982 727552
912.01324 -2129.9602 10146.982 859904
