# .PCD v0.7 - Point Cloud Data file format
VERSION 0.7
FIELDS x y z rgb
SIZE 4 4 4 4
TYPE F F F U
COUNT 1 1 1 1
WIDTH 1436
HEIGHT 1
VIEWPOINT 0 0 0 1 0 0 0
POINTS 1436
DATA ascii
0 0 0 0
0 0 0 0
0 0 0 0
0 0 0 0
2740.1284 -1548.1869 4795.0635 9411989
0 0 0 0
0 0 0 0
0 0 0 0
0 0 0 0
0 0 0 0
2550.5381 -1356.3965 4201.0479 10007981
0 0 0 0
2600.4907 -1356.3965 4201.0479 11716282
2908.7119 -1502.7294 4654.272 6192750
2937.3923 -1503.2461 4655.8721 6062189
0 0 0 0
0 0 0 0
0 0 0 0
0 0 0 0
0 0 0 0
0 0 0 0
0 0 0 0
0 0 0 0
7645.4482 -3606.7566 11170.891 13685455
7711.8618 -3606.7566 11170.891 13685455
7220.8379 -3348.2749 10370.317 13685455
7282.4927 -3348.2749 10370.317 13685455
7462.3062 -3402.145 10537.165 13685455
7849.1533 -3548.7209 10991.143 13685455
8258.9961 -3703.1875 11469.558 13685456
8525.583 -3791.417 11742.823 13685457
8773.2119 -3869.8503 11985.748 13685457
8916.9121 -3901.5469 12083.919 13685457
8988.7539 -3901.5469 12083.919 13685457
9060.5967 -3901.5469 12083.919 13685457
9069.0967 -3874.4858 12000.105 13685457
9194.5176 -3897.4087 12071.102 13685457
9299.4434 -3911.3552 12114.297 13685457
9371.4658 -3911.3552 12114.297 13685457
9535.1182 -3949.3069 12231.842 13619662
11473.512 -4716.1919 14607.048 13619662
12772.964 -5210.8911 16139.235 13488076
12867.571 -5210.3462 16137.549 11250625
12962.931 -5210.1123 16136.823 7960460
13058.868 -5210.1123 16136.823 11910604
13154.806 -5210.1118 16136.822 9937071
13249.962 -5209.8052 16135.872 7242127
13345.986 -5209.8408 16135.982 7242639
13441.68 -5209.748 16135.695 6847880
13537.939 -5209.874 16136.086 6518660
12995.147 -4965.7998 15380.136 6058624
13038.274 -4947.4678 15323.357 6781836
13825.96 -5209.957 16136.343 6715785
13921.895 -5209.957 16136.343 5597306
14017.829 -5209.957 16136.343 9544885
12947.111 -4779.2983 14802.502 9343648
13389.188 -4909.1182 15204.581 4808050
13479.584 -4909.1182 15204.581 5794430
14401.799 -5210.04 16136.6 3952736
14309.283 -5142.3159 15926.844 6913165
13239.68 -4726.6553 14639.455 5860221
12645.485 -4485.04 13891.12 4807789
14784.589 -5209.7026 16135.556 4149602
14880.652 -5209.7495 16135.7 5465717
14571.293 -5068.7651 15699.042 5794172
14664.628 -5068.7651 15699.042 5465205
15169.709 -5210.1831 16137.043 4544102
15265.648 -5210.1831 16137.043 5267824
15361.587 -5210.1831 16137.043 5991293
15458.82 -5210.6196 16138.395 4939114
15555.864 -5210.9868 16139.531 3491668
15653.132 -5211.4238 16140.887 11847375
0 0 0 0
0 0 0 0
0 0 0 0
0 0 0 0
0 0 0 0
-6426.0825 -2270.356 7163.6846 2373419
-6474.2617 -2302.6389 7265.5474 2307883
-6787.0059 -2430.083 7667.6733 3031859
-6777.2451 -2442.9971 7708.4214 3295032
-6731.4165 -2442.9971 7708.4214 3360823
-6685.5874 -2442.9971 7708.4214 3163701
-6648.6367 -2446.2634 7718.728 2965295
-6546.7563 -2425.5195 7653.2744 3820602
-6350.478 -2369.2668 7475.7793 4149566
-6392.4019 -2401.7168 7578.1694 5136203
-6658.8828 -2519.5959 7950.1152 9610898
-6723.3325 -2562.1694 8084.4473 7506550
-6675.2686 -2562.1694 8084.4473 3954246
-6783.3335 -2622.5312 8274.9082 2571825
-6866.0884 -2673.9182 8437.0498 3756359
-7071.4253 -2774.1509 8753.3154 2637363
-7030.4761 -2778.5342 8767.1465 3821894
-6978.3521 -2778.5342 8767.1465 3887688
-6573.4712 -2637.0212 8320.6289 3296575
-6448.7979 -2606.6233 8224.7139 2375217
-6296.3174 -2564.4351 8091.5967 4152140
-6385.6138 -2620.8293 8269.5381 2375730
-6200.1035 -2564.4351 8091.5967 4349521
-6042.7432 -2518.8931 7947.8975 2836026
-5752.458 -2416.7874 7625.7222 3560006
-6013.6597 -2546.5969 8035.3115 2572857
-6010.2017 -2565.5129 8094.998 3362885
-5976.5488 -2571.7415 8114.6504 3757387
-5813.3301 -2521.8643 7957.2725 3494216
-5821.2705 -2546.0283 8033.5176 3164993
-5773.5093 -2546.0283 8033.5176 2573369
-5915.1001 -2630.2263 8299.1885 3823178
-5731.7163 -2570.1211 8109.5381 4809819
-5834.4248 -2638.3691 8324.8818 2573372
-6210.5195 -2832.4697 8937.3301 3099462
-6138.3433 -2823.7107 8909.6924 2835779
-5811.5767 -2696.665 8508.8232 2572605
-5895.6328 -2759.6902 8707.6875 3164999
-5843.8628 -2759.6902 8707.6875 4809822
-5919.0664 -2820.1873 8898.5752 2769985
-5875.2988 -2824.5801 8912.4355 2638398
-5935.8423 -2879.657 9086.2207 3558991
-5786.9731 -2833.2205 8939.6982 2966857
-5733.8242 -2833.2205 8939.6982 2572356
-5767.8364 -2876.6917 9076.8643 2440515
-5482.4434 -2760.1772 8709.2246 2835529
-5620.5845 -2856.7056 9013.8018 3296079
-5566.9951 -2856.7056 9013.8018 3230029
-5527.9927 -2864.2639 9037.6504 3690579
-5503.1304 -2879.3689 9085.3115 4085081
-5449.1157 -2879.3689 9085.3115 4018776
-5448.8745 -2908.0676 9175.8652 3426637
-5321.9946 -2869.0764 9052.8359 3755348
-5292.9614 -2882.5767 9095.4326 5400173
-5499.0107 -3025.7039 9547.0439 4742499
-5453.6958 -3032.0667 9567.1211 4216154
-5566.748 -3127.5386 9868.3643 9408167
-5508.0776 -3127.5386 9868.3643 13489101
0 0 0 0
-5029.3208 -2917.856 9206.75 13488590
-4645.6211 -2724.9016 8597.9189 8817801
-5219.2534 -3095.4272 9767.043 4941154
-5351.5396 -3209.592 10127.269 4284251
-5098.0942 -3092.3799 9757.4277 2902604
-4959.8213 -3043.1343 9602.043 2968139
-4895.5596 -3038.6807 9587.9902 3362383
-4723.543 -2966.4507 9360.082 3231054
-4601.8418 -2924.4741 9227.6328 4283226
-4876.1021 -3136.1543 9895.5508 4283482
-4817.2705 -3136.1543 9895.5508 3756882
-4511.5176 -2973.4155 9382.0586 3888470
-4455.7388 -2973.4155 9382.0586 3361871
-4587.9355 -3100.4465 9782.8809 2769735
-4604.7017 -3151.7317 9944.7021 4019803
-4240.7954 -2940.4075 9277.9072 2769736
-4112.9307 -2889.3318 9116.748 4349023
-4238.793 -3017.5164 9521.21 4216669
-4270.9551 -3081.5637 9723.2998 4611170
-4408.4819 -3224.4348 10174.103 4939109
-4263.4351 -3161.7266 9976.2383 8554390
-3893.0361 -2927.7722 9238.0391 13357261
-3598.8926 -2745.2908 8662.2529 13422801
-3547.3931 -2745.2908 8662.2529 10264224
-3986.571 -3130.6152 9878.0723 5336420
-3942.2844 -3142.125 9914.3896 4415577
-3961.4189 -3205.3003 10113.728 3757392
-3887.5139 -3193.9819 10078.015 5270369
-3868.7097 -3228.2891 10186.264 5335390
0 0 0 0
0 0 0 0
0 0 0 0
0 0 0 0
-2731.9624 -2473.3005 7804.0381 6917748
-2297.5986 -2115.9983 6676.6382 6982773
-2229.6155 -2089.4878 6592.9888 7639936
-1831.1299 -1746.7548 5511.5586 8030845
-1775.3641 -1724.4165 5441.0747 7569265
-1718.4442 -1700.1075 5364.3721 9868938
-1559.9001 -1572.4382 4961.5356 6385502
-1530.4026 -1572.4382 4961.5356 4213572
-1527.996 -1600.8207 5051.0908 12304582
-1497.9659 -1600.8207 5051.0908 9411732
-1413.7639 -1541.7449 4864.6885 9149834
-1341.5088 -1493.502 4712.4668 3951162
-1346.2599 -1530.7609 4830.0303 14540508
-1339.2422 -1555.9703 4909.5742 14276827
-1450.0192 -1722.2098 5434.1118 3685955
-1385.9045 -1683.5709 5312.1938 7237755
-1376.5684 -1711.2253 5399.4526 6516836
-1353.3824 -1722.5729 5435.2573 6120805
-1336.1705 -1742.2649 5497.3921 11248566
-1288.2745 -1721.9318 5433.2344 13487311
-1250.1726 -1713.9802 5408.145 13684437
-1226.3412 -1725.6901 5445.0933 13552077
-1212.8707 -1753.0099 5531.2959 13353931
-1169.3824 -1737.2577 5481.5928 13815251
-1119.7804 -1711.2592 5399.5591 13946580
-1034.2491 -1627.198 5134.3198 6117232
-1084.3643 -1757.9285 5546.8154 13421265
-1082.3264 -1809.6597 5710.0435 9805727
-1077.019 -1859.0973 5866.0347 6846573
-1042.1438 -1859.0973 5866.0347 4215615
-1007.2686 -1859.0973 5866.0347 4941641
-933.71191 -1785.1431 5632.686 4745019
-913.78308 -1812.0305 5717.5244 4875843
-865.47351 -1782.5425 5624.4805 7831940
-862.70996 -1848.2615 5831.8442 9412227
-798.59534 -1782.5425 5624.4805 7898743
-772.91101 -1800.6084 5681.4839 10267300
-755.27136 -1839.9232 5805.5347 7502457
-706.61993 -1803.8375 5691.6729 6385513
-664.7702 -1782.3582 5623.8989 7706237
-628.65442 -1774.7919 5600.0249 6589521
-588.00165 -1752.8542 5530.8047 7181651
-558.5957 -1763.8307 5565.439 7378517
-525.50763 -1763.8307 5565.439 4285238
-523.44067 -1874.9475 5916.0474 9216144
-453.53162 -1741.5594 5495.166 8491384
-386.28488 -1598.4792 5043.7031 5135431
-356.29865 -1598.4792 5043.7031 4870988
-326.42749 -1599.0428 5045.4814 6582641
-296.43069 -1599.0428 5045.4814 7832947
-243.35751 -1460.5464 4608.4819 7441510
-219.80159 -1486.5355 4690.4854 3952445
-206.91972 -1602.7562 5057.1982 6387053
-178.32327 -1616.0782 5099.2334 3754057
-147.2533 -1607.8496 5073.2695 4345173
-117.09129 -1607.8496 5073.2695 4803155
-86.357353 -1597.2709 5039.8906 12829640
0 0 0 0
0 0 0 0
0 0 0 0
25.774105 -1229.0178 3877.9368 5070419
53.68972 -1351.347 4263.9233 3686467
79.039925 -1351.347 4263.9233 3947327
0 0 0 0
0 0 0 0
0 0 0 0
225.34962 -1687.6759 5325.1465 5797224
244.98497 -1608.7181 5076.0103 1718831
298.59094 -1745.686 5508.187 5403491
305.34155 -1608.7181 5076.0103 9349518
0 0 0 0
0 0 0 0
376.53085 -1530.1038 4827.957 11911607
405.23441 -1530.1038 4827.957 3886915
388.12558 -1368.5653 4318.2524 4152393
417.63083 -1381.239 4358.2422 1258270
440.54053 -1371.8928 4328.752 3890999
0 0 0 0
0 0 0 0
0 0 0 0
532.70056 -1344.675 4242.8711 2375972
561.46356 -1353.2019 4269.7764 1849882
586.84863 -1353.2019 4269.7764 3495715
632.80835 -1398.6777 4413.2666 5010721
653.67371 -1387.2751 4377.2881 5538088
679.69788 -1387.2751 4377.2881 4155166
712.03558 -1399.686 4416.4482 4415795
738.62152 -1400.3096 4418.4155 5269066
764.8902 -1400.3096 4418.4155 991246
791.84204 -1401.5187 4422.231 1057297
818.13348 -1401.5187 4422.231 663818
863.51062 -1433.196 4522.1826 1848597
888.79358 -1430.6161 4514.0425 2969122
892.69934 -1394.7872 4400.9907 2443801
850.67358 -1291.2771 4074.384 1983251
0 0 0 0
836.62671 -1201.5266 3791.1931 1851918
864.2572 -1208.646 3813.657 1786125
886.93048 -1208.646 3813.657 1786381
912.59448 -1212.62 3826.196 1457415
934.71509 -1211.8069 3823.6306 2575641
915.67932 -1158.9421 3656.8259 1851917
939.2702 -1161.2295 3664.043 2114833
954.41418 -1153.2067 3638.7285 1522446
966.12286 -1141.4807 3601.7295 400899
999.79114 -1155.6461 3646.426 1256975
1018.0766 -1151.8069 3634.3115 2112542
936.78394 -1037.8101 3274.6162 2378012
1014.807 -1101.3586 3475.1318 2312214
1001.9572 -1065.7158 3362.6675 2904090
1021.9492 -1065.7158 3362.6675 3299103
1038.9446 -1062.6509 3352.9966 3430177
1036.0059 -1039.6963 3280.5676 2903067
1048.752 -1033.0396 3259.5637 2705690
1063.5797 -1028.6379 3245.675 1653003
1110.2667 -1054.6565 3327.772 2114325
1247.635 -1164.3953 3674.0322 3890479
0 0 0 0
0 0 0 0
0 0 0 0
0 0 0 0
0 0 0 0
0 0 0 0
1382.6884 -1149.5562 3627.21 3626804
1304.4584 -1067.8616 3369.4382 3956022
0 0 0 0
0 0 0 0
0 0 0 0
0 0 0 0
0 0 0 0
0 0 0 0
0 0 0 0
1416.2223 -1032.5067 3257.8826 4219202
0 0 0 0
0 0 0 0
0 0 0 0
0 0 0 0
1543.2887 -1053.1295 3322.9539 4219972
1715.8319 -1156.0728 3647.772 4745803
1772.6395 -1179.4406 3721.5049 3298868
1804.1456 -1185.6052 3740.9561 3890750
1850.6202 -1201.3364 3790.5933 4417352
1907.1704 -1223.1511 3859.4253 4746317
1910.5254 -1210.7365 3820.2529 5207125
1976.1501 -1237.6112 3905.0513 5536090
1955.9504 -1210.7365 3820.2529 5602391
0 0 0 0
0 0 0 0
0 0 0 0
0 0 0 0
0 0 0 0
0 0 0 0
0 0 0 0
0 0 0 0
0 0 0 0
0 0 0 0
0 0 0 0
0 0 0 0
0 0 0 0
0 0 0 0
0 0 0 0
0 0 0 0
0 0 0 0
0 0 0 0
0 0 0 0
0 0 0 0
0 0 0 0
0 0 0 0
0 0 0 0
0 0 0 0
0 0 0 0
0 0 0 0
0 0 0 0
7579.0332 -3540.3425 11170.891 13685455
7882.2896 -3650.0156 11516.943 13685455
8009.4097 -3676.9402 11601.899 13685455
7230.4736 -3291.0061 10384.156 13685455
7399.6597 -3339.4985 10537.165 13685455
7923.8091 -3546.0281 11188.831 13685455
9139.4404 -4055.9919 12797.926 13685455
9241.1523 -4067.27 12833.512 13685457
9186.7549 -4010.2185 12653.496 13685457
9134.8076 -3955.1541 12479.751 13685457
9200.3945 -3951.4573 12468.086 13685457
9274.5215 -3951.4573 12468.086 13685457
9347.5996 -3951.0142 12466.688 13685457
9464.0527 -3968.7676 12522.706 13685457
9538.5039 -3968.7676 12522.706 13685457
9582.7002 -3956.2766 12483.293 13685457
9538.998 -3907.9678 12330.863 13685457
9612.3086 -3907.9678 12330.863 13685457
11926.033 -4811.9331 15183.157 13619663
12773.075 -5114.9834 16139.376 13422798
12867.937 -5114.5498 16138.008 13423565
12963.812 -5114.522 16137.92 8424100
13058.868 -5114.1743 16136.823 6780816
13154.762 -5114.1572 16136.769 6386822
13189.423 -5090.5073 16062.146 5926268
13284.916 -5090.5073 16062.146 7703705
13312.391 -5064.6289 15980.493 6519175
12903.708 -4874.3604 15380.136 6519174
12538.016 -4702.8945 14839.107 6913930
12275.578 -4572.2842 14426.99 6913931
13129.377 -4856.3662 15323.357 7967133
13220.479 -4856.3662 15323.357 5532534
14017.829 -5114.022 16136.343 8558755
14063.251 -5095.7183 16078.59 12369613
14209.035 -5113.7832 16135.589 4340571
14306.157 -5114.209 16136.933 5859967
14403.006 -5114.5317 16137.951 4740971
14498.692 -5114.4409 16137.664 5465206
14403.972 -5047.6265 15926.844 6057342
13534.705 -4712.0303 14867.933 4149346
14076.724 -4868.9321 15363.007 4478310
13811.999 -4746.5698 14976.916 4741481
13901.042 -4746.5698 14976.916 4675690
14140.452 -4797.5869 15137.891 4412518
15168.316 -5113.7744 16135.562 3820380
15264.246 -5113.7744 16135.562 4873068
15361.162 -5114.1021 16136.596 4741225
15457.098 -5114.1021 16136.596 4478310
15555.864 -5115.0327 16139.531 4411748
15654.432 -5115.8872 16142.228 7176850
0 0 0 0
0 0 0 0
0 0 0 0
0 0 0 0
0 0 0 0
-6417.5913 -2224.8223 7154.2188 1386523
-6474.2617 -2259.4431 7265.5474 2307371
-6731.0552 -2364.8394 7604.4629 2308139
-6741.4194 -2384.4963 7667.6733 2176297
-6731.4165 -2397.1685 7708.4214 3163189
-6685.5874 -2397.1685 7708.4214 3623995
-6660.8936 -2404.7986 7732.9575 3623736
-6546.7563 -2380.0186 7653.2744 3361077
-6437.4561 -2356.6624 7578.1694 3886649
-6467.4053 -2384.3137 7667.0859 5729103
-7006.4956 -2601.3931 8365.1338 8756095
-6956.7627 -2601.3931 8365.1338 7571825
-6676.0591 -2514.4028 8085.4053 5137744
-6783.3335 -2573.3345 8274.9082 2571564
-6892.3193 -2633.7812 8469.2822 3230009
-7047.959 -2713.0764 8724.2676 4677715
-6996.0908 -2713.0764 8724.2676 4283213
-6978.3521 -2726.4109 8767.1465 3954249
-6573.4712 -2587.553 8320.6289 3296319
-6448.7979 -2557.7251 8224.7139 1848873
-6619.9194 -2645.656 8507.4678 4217165
-6569.3398 -2645.656 8507.4678 3229500
-6362.2402 -2582.1316 8303.1963 1913384
-6061.4639 -2479.2979 7972.5205 1518884
-5752.458 -2371.4504 7625.7222 3426881
-6073.0366 -2523.4976 8114.6504 3098687
-6010.2017 -2517.386 8094.998 2441012
-6018.9092 -2541.3833 8172.1646 4283216
-5813.3301 -2474.5559 7957.2725 4415057
-5821.2705 -2498.2668 8033.5176 3099453
-5906.0928 -2555.6375 8218 3296576
-5964.2383 -2602.3252 8368.1318 3165502
-5865.7593 -2580.8853 8299.1885 4612693
-5834.4248 -2588.8752 8324.8818 3625032
-5989.6147 -2680.4756 8619.4346 2572605
-5938.3701 -2680.4756 8619.4346 1519921
-5289.6577 -2408.4417 7744.6729 2111801
-5760.9897 -2646.0776 8508.8232 2506302
-5981.2725 -2771.593 8912.4355 2703938
-6050.7373 -2828.8418 9096.5264 1914165
-5996.6558 -2828.8418 9096.5264 2308155
-6044.1299 -2877.1848 9251.9805 2637890
-5700.9102 -2738.7266 8806.748 2901064
-5733.8242 -2780.0713 8939.6982 3361871
-5948.6475 -2911.2146 9361.4072 2045500
-5968.0117 -2948.2756 9480.582 2242880
-5880.6021 -2932.7927 9430.7949 2637380
-5824.5332 -2932.7927 9430.7949 3558482
-5557.1455 -2825.3542 9085.3115 3558991
-5690.8618 -2921.7368 9395.2432 4216920
-5656.9868 -2933.1348 9431.8945 4742749
-5805.3721 -3040.2085 9776.2051 5137248
-5445.0098 -2880.3281 9262.0879 4413527
-5247.8101 -2804.373 9017.8438 6716538
-5499.0107 -2968.9441 9547.0439 6255988
-5140.5825 -2804.373 9017.8438 4084818
-5478.231 -3020.0703 9711.4473 6647689
-5508.0776 -3068.8684 9868.3643 13554382
-4276.3916 -2408.2769 7744.1426 13488334
-4713.1226 -2683.1118 8627.9121 12895429
-4690.1074 -2699.3887 8680.252 4744284
-5115.3833 -2976.9116 9572.665 5402729
-5058.4712 -2976.9116 9572.665 4349529
-5082.0625 -3024.8271 9726.7441 3692115
-4940.2959 -2974.2922 9564.2422 3231565
-4902.7349 -2986.0476 9602.043 3231053
-4824.2944 -2972.8889 9559.7295 2836038
-4666.2158 -2909.7556 9356.7158 3625555
-4541.6748 -2866.2646 9216.8652 3296331
-4486.8784 -2866.2646 9216.8652 3230540
-4320.5718 -2794.1509 8984.9727 3493456
-4330.1133 -2835.3767 9117.54 3164237
-4525.7358 -3001.0396 9650.252 2835528
-4338.1919 -2913.6147 9369.125 3361872
-4240.7954 -2885.2476 9277.9072 3625044
-4164.0947 -2870.3989 9230.1592 4414561
-4235.292 -2958.4641 9513.3447 4020057
-4182.187 -2960.9102 9521.21 4743522
-4412.6685 -3166.9517 10183.765 4610910
-4352.123 -3166.9517 10183.765 10724271
-4090.1628 -3018.3181 9705.8135 13619408
-3771.3962 -2822.9111 9077.4561 10723233
-3970.1714 -3014.8372 9694.6201 4284762
-3981.5239 -3067.9978 9865.5654 3823697
-3930.3064 -3073.8135 9884.2666 3758160
-3911.7097 -3105.7048 9986.8174 3757902
-3885.1196 -3132.1355 10071.809 4086353
-3868.7097 -3167.7288 10186.264 5665123
-3628.009 -3017.8828 9704.4131 3361086
0 0 0 0
0 0 0 0
-3001.719 -2622.0083 8431.4248 4284750
-2951.592 -2622.0083 8431.4248 5996897
-2297.5986 -2076.304 6676.6382 4681296
0 0 0 0
0 0 0 0
0 0 0 0
0 0 0 0
0 0 0 0
-1439.2841 -1451.0756 4666.1313 6192991
-1527.996 -1570.7905 5051.0908 5731920
-1497.9659 -1570.7905 5051.0908 5732173
-1467.9358 -1570.7905 5051.0908 9088898
-1386.2219 -1514.3303 4869.5356 7180651
-1357.2711 -1514.3303 4869.5356 7309427
-1370.4916 -1562.4069 5024.1323 8887428
-1383.7551 -1612.676 5185.7798 6654808
-1310.7518 -1562.4069 5024.1323 4418615
-1286.9562 -1569.8162 5047.958 8037487
-1334.1265 -1666.2096 5357.9243 7575144
0 0 0 0
-1259.0109 -1651.249 5309.8164 13488333
-1205.6134 -1621.8829 5215.3853 13750483
-1195.3311 -1650.499 5307.4048 8813446
-1214.2428 -1722.0709 5537.5537 6514275
-1181.3206 -1722.0709 5537.5537 10919851
-1147.1005 -1720.1249 5531.2959 12892357
-1104.2032 -1704.6681 5481.5928 13945813
-1084.3643 -1724.9512 5546.8154 9670804
-1051.3868 -1724.9512 5546.8154 5662786
-1092.8611 -1851.0549 5952.3193 5207361
-1049.3696 -1836.8705 5906.7075 6327381
-1014.2526 -1836.8705 5906.7075 6787667
-916.51501 -1719.3937 5528.9443 5932354
-883.64392 -1719.3937 5528.9443 6456666
-865.37714 -1748.9086 5623.854 6455637
-831.94177 -1748.9086 5623.854 8824700
-798.50635 -1748.9086 5623.854 3166761
-766.91553 -1753.1251 5637.4126 5469007
-755.27136 -1805.4077 5805.5347 8164480
-697.71356 -1747.6896 5619.9341 3427634
-664.7702 -1748.9225 5623.8989 6784351
-631.33447 -1748.9225 5623.8989 5402183
-604.71936 -1768.8732 5688.0532 5204553
-572.6734 -1774.3608 5705.6992 6980969
-542.33496 -1786.163 5743.6509 6059609
-535.63641 -1882.6401 6053.8862 7833472
-488.26816 -1839.7749 5916.0474 13488845
-415.52011 -1687.2014 5425.4263 13814731
-356.29865 -1568.493 5043.7031 13422544
-329.73743 -1584.9561 5096.6421 11974586
-301.41714 -1595.4399 5130.355 5855843
-247.68782 -1458.6493 4690.4854 7903357
-226.82762 -1505.2755 4840.4185 6850673
-208.63963 -1585.7618 5099.2334 3164735
-178.32327 -1585.7618 5099.2334 5928292
-146.18675 -1566.2605 5036.5244 3424321
-116.24322 -1566.2605 5036.5244 4476763
-92.064751 -1670.8914 5372.979 11843773
-60.696892 -1686.8995 5424.4556 13490129
0 0 0 0
0 0 0 0
0 0 0 0
53.68972 -1325.9968 4263.9233 3294527
78.337341 -1314.21 4226.021 3096892
101.16882 -1285.0785 4132.3452 4149581
0 0 0 0
148.13322 -1266.5128 4072.6445 3689542
225.34962 -1656.0164 5325.1465 4413521
264.77667 -1706.066 5486.0879 3229504
297.63721 -1707.467 5490.5928 4742745
327.20087 -1691.5471 5439.4004 2108200
355.24243 -1671.33 5374.3892 13094090
374.7359 -1617.5514 5201.457 4343105
0 0 0 0
0 0 0 0
0 0 0 0
427.64526 -1387.8276 4462.749 2177580
451.12247 -1378.4923 4432.73 3167283
453.23477 -1308.5061 4207.6797 3365419
0 0 0 0
0 0 0 0
526.73425 -1304.6719 4195.3501 2509855
551.67676 -1304.6719 4195.3501 2181403
572.70465 -1295.8145 4166.8682 3760425
555.55463 -1204.8911 3874.4917 5932097
578.58954 -1204.8911 3874.4917 6655558
653.40411 -1308.5917 4207.9551 4877867
701.93268 -1353.9418 4353.7842 7508077
738.2926 -1373.4291 4416.4482 1977885
764.8902 -1374.0408 4418.4155 2704423
796.61786 -1383.5216 4448.9023 1387795
812.95215 -1366.5178 4394.2246 1520915
835.13715 -1360.1013 4373.5913 1521425
861.1394 -1360.1013 4373.5913 2706466
871.06232 -1335.4498 4294.3208 2180890
853.51227 -1271.2819 4087.98 1325323
874.89691 -1267.0537 4074.384 1390857
848.72107 -1196.0305 3845.999 1851919
871.58661 -1196.0305 3845.999 1917454
889.84662 -1189.8721 3826.196 2180880
916.31018 -1194.7169 3841.7749 1720074
934.71509 -1189.0743 3823.6306 2773017
911.14764 -1131.5734 3638.7285 3035679
932.78088 -1131.5734 3638.7285 1586957
954.41418 -1131.5734 3638.7285 731655
969.59113 -1124.0883 3614.6592 1783830
991.08124 -1124.0883 3614.6592 797446
1021.4703 -1133.9672 3646.426 2242844
994.1463 -1080.698 3475.1318 1653263
1031.3229 -1098.2863 3531.6895 1652496
1052.3197 -1098.2863 3531.6895 1850641
1071.9136 -1096.8506 3527.0728 2179096
1009.9939 -1013.6606 3259.5637 3033635
1029.3729 -1013.6606 3259.5637 6321234
1021.1245 -986.95752 3173.6965 6453337
1053.0073 -999.30823 3213.4119 5796690
1082.8761 -1009.3414 3245.675 3626030
1190.4458 -1090.1798 3505.6218 7178340
0 0 0 0
0 0 0 0
0 0 0 0
0 0 0 0
0 0 0 0
0 0 0 0
1284.4261 -1047.8293 3369.4382 4349745
1404.2532 -1127.9913 3627.21 5994321
1324.4906 -1047.8293 3369.4382 5204812
1521.5372 -1185.7825 3813.0449 4283712
1544.2069 -1185.7825 3813.0449 5928537
0 0 0 0
1645.9625 -1227.8684 3948.3782 4739659
0 0 0 0
1497.1992 -1085.9187 3491.9194 4283463
1500.2034 -1073.2161 3451.0728 4350534
1435.5914 -1013.1378 3257.8826 3627578
0 0 0 0
0 0 0 0
1482.5264 -1005.5599 3233.5151 4088129
1692.2804 -1133.1373 3643.7576 4877388
1724.5918 -1140.1772 3666.3953 5074763
1761.7887 -1150.231 3698.7244 4812105
1786.3633 -1151.8976 3704.0837 4023104
1824.8547 -1162.3882 3737.8179 4023104
1898.7588 -1194.9122 3842.4031 4022591
1910.5254 -1188.0239 3820.2529 4022850
1944.4469 -1194.9122 3842.4031 5009998
1938.5763 -1177.4711 3786.3188 4944204
0 0 0 0
0 0 0 0
0 0 0 0
0 0 0 0
0 0 0 0
0 0 0 0
0 0 0 0
0 0 0 0
0 0 0 0
0 0 0 0
0 0 0 0
0 0 0 0
0 0 0 0
0 0 0 0
0 0 0 0
0 0 0 0
0 0 0 0
0 0 0 0
0 0 0 0
0 0 0 0
0 0 0 0
0 0 0 0
0 0 0 0
0 0 0 0
0 0 0 0
0 0 0 0
0 0 0 0
7871.457 -3607.9639 11601.899 13685454
8037.5786 -3652.1045 11743.84 13685455
9097.7158 -4098.208 13178.347 13685455
9155.6602 -4089.0952 13149.043 13685455
8215.957 -3638.3398 11699.577 13685455
9103.5762 -3997.5679 12854.725 13685455
9247.1328 -4026.801 12948.728 13685455
9324.1172 -4026.801 12948.728 13685457
9318.9775 -3991.6252 12835.615 13685457
9369.3174 -3980.5908 12800.133 13685457
9445.418 -3980.5908 12800.133 13685457
9399.21 -3929.4585 12635.71 13685457
9474.333 -3929.4585 12635.71 13685457
9625.0303 -3960.5564 12735.709 13685457
9700.6582 -3960.52 12735.592 13685457
9698.0508 -3928.79 12633.561 13685457
9758.0254 -3922.7058 12613.995 13685457
9848.2715 -3928.79 12633.561 13685457
12205.74 -4832.4048 15539.256 13619921
12773.075 -5019.0303 16139.376 13619408
12868.653 -5018.8838 16138.905 13553618
12963.812 -5018.5776 16137.92 12829392
13059.755 -5018.5776 16137.92 6512502
13154.364 -5018.0674 16136.28 6976903
12578.264 -4763.5586 15317.873 6584968
13284.916 -4995.0127 16062.146 6716811
13380.411 -4995.0127 16062.146 6584968
11837.398 -4387.6807 14109.185 5993342
11649.163 -4287.5264 13787.125 6520201
10573.945 -3864.5947 12427.131 6059904
10647.828 -3864.5947 12427.131 6454149
11637.986 -4194.8618 13489.15 6123387
13641.746 -4883.457 15703.421 9215149
14063.251 -5000.127 16078.59 13554394
14209.035 -5017.8525 16135.589 3618892
14308.088 -5018.9473 16139.11 6583946
14403.549 -5018.7764 16138.56 5597049
14497.98 -5018.251 16136.871 5662582
14592.979 -5017.9282 16135.832 6122878
14657.447 -5007.1802 16101.271 6122876
14076.724 -4777.5942 15363.007 5004395
13711.493 -4623.6362 14867.933 5135981
13780.785 -4617.2358 14847.352 4214880
14146.938 -4709.7476 15144.836 5004397
15168.746 -5017.9868 16136.02 5728120
15264.246 -5017.8438 16135.562 4807018
15361.399 -5018.2432 16136.846 3951966
15457.337 -5018.2432 16136.846 3754330
15553.704 -5018.3818 16137.291 3622743
15649.823 -5018.439 16137.474 5926010
0 0 0 0
0 0 0 0
0 0 0 0
0 0 0 0
0 0 0 0
-6398.3145 -2175.7332 7132.729 2439726
-6772.4956 -2318.3379 7600.2314 1452831
-6731.0552 -2319.6287 7604.4629 2834484
-6853.6782 -2377.8577 7795.3564 1386781
-7104.3774 -2481.6179 8135.5142 2307627
-6706.8677 -2358.824 7732.9575 2373420
-6695.9238 -2371.2292 7773.626 2899503
-6512.3667 -2322.2546 7613.0723 3031342
-6467.105 -2322.2546 7613.0723 3425842
-6689.3062 -2418.9744 7930.1489 5991508
-6660.0537 -2425.4912 7951.5137 6913380
-6727.1812 -2467.4524 8089.0752 7637618
-6675.2686 -2466.0408 8084.4473 5795675
-6617.6782 -2462.4961 8072.8267 3427901
-6892.3193 -2583.429 8469.2822 2901814
-7047.959 -2661.2085 8724.2676 5138009
-7030.4761 -2674.2881 8767.1465 2769460
-6978.3521 -2674.2881 8767.1465 2045482
-6573.4712 -2538.0845 8320.6289 2571828
-6604.4282 -2569.373 8423.2031 2834999
-6637.5679 -2601.9954 8530.1484 3295807
-6711.4956 -2651.2322 8691.5625 3164476
-6536.1396 -2601.9954 8530.1484 3033403
-6439.4014 -2583.5303 8469.6143 3691077
-5855.2305 -2367.6711 7761.9619 3230525
-6073.0366 -2475.2537 8114.6504 3032380
-6024.793 -2475.2537 8114.6504 2901049
-6242.208 -2585.2791 8475.3477 2703927
-6063.7334 -2531.7993 8300.0244 2967355
-5665.644 -2384.9932 7818.7485 2507059
-5633.8374 -2391.2234 7839.1724 2967354
-5964.2383 -2552.5745 8368.1318 3165245
-6018.5708 -2597.4946 8515.3945 2967864
-5998.5493 -2610.8152 8559.0635 5599330
-5989.6147 -2629.2307 8619.4346 2243636
-5938.3701 -2629.2307 8619.4346 1914418
-5314.749 -2373.6038 7781.4102 1782833
-5755.6343 -2593.0776 8500.9141 3822674
-5970.1821 -2713.5652 8895.9102 2111800
-6154.1406 -2822.1794 9251.9805 2046008
-6099.1353 -2822.1794 9251.9805 1979191
-5753.2686 -2686.3679 8806.748 2571841
-5569.4697 -2624.4312 8603.7002 2045754
-5902.146 -2806.9739 9202.1318 3822677
-5995.3877 -2877.9954 9434.9629 3954008
-5982.5156 -2898.9392 9503.623 3230285
-5911.647 -2891.9109 9480.582 3691091
-5855.2822 -2891.9109 9480.582 3756628
-5735.3848 -2860.2271 9376.7129 4545885
-5690.8618 -2865.8794 9395.2432 4348759
-5656.9868 -2877.0596 9431.8945 4480088
-5579.147 -2865.8794 9395.2432 4282454
-5445.0098 -2825.2625 9262.0879 4676702
-5555.7705 -2912.1841 9547.0439 4610911
-5598.0845 -2964.6519 9719.0498 4611938
-5319.3643 -2846.4268 9331.4707 4216923
-5263.8862 -2846.4268 9331.4707 5134699
-5208.4077 -2846.4268 9331.4707 13686226
-4764.418 -2631.8167 8627.9121 13619664
-4713.1226 -2631.8167 8627.9121 3162947
-4690.1074 -2647.782 8680.252 4809822
-5015.6655 -2863.0779 9386.0586 1849396
-4976.499 -2872.6812 9417.541 3230793
-4997.1582 -2917.4302 9564.2422 3165514
-4940.2959 -2917.4302 9564.2422 3099723
-4902.7349 -2928.9607 9602.043 2968393
-4824.2944 -2916.0537 9559.7295 3231054
-4850.3979 -2966.7837 9726.0391 2112059
-4507.1631 -2790.1035 9146.8262 2901319
-4375.3345 -2741.575 8987.7344 3493199
-4303.8882 -2730.1489 8950.2764 2901063
-4250.6758 -2730.1489 8950.2764 3098442
-4345.4873 -2826.4275 9265.9072 2572100
-4338.1919 -2857.9126 9369.125 2967368
-4218.9707 -2815.5232 9230.1592 3954519
-4153.6807 -2808.4817 9207.0752 3888467
-4098.9419 -2808.4817 9207.0752 3954517
-4166.5557 -2893.4487 9485.624 3691600
-4419.2441 -3111.0354 10198.94 4743774
-4358.6089 -3111.0354 10198.94 5465958
-4090.1628 -2960.6145 9705.8135 11120303
-3771.3962 -2768.9434 9077.4561 4482397
-3973.2563 -2959.4978 9702.1533 2508094
-4001.228 -3024.2375 9914.3896 2902340
-3942.2844 -3024.2375 9914.3896 2836033
-3911.7097 -3046.3306 9986.8174 4416087
-3885.1196 -3072.2559 10071.809 4349263
-3845.9534 -3088.8918 10126.347 4415568
-3682.698 -3004.8093 9850.6982 5468509
-3624.1328 -3004.8093 9850.6982 4875857
-3527.6096 -2972.8213 9745.8311 5665373
-3216.6497 -2756.0344 9035.1367 4021578
-3162.9333 -2756.0344 9035.1367 3758917
-2297.5986 -2036.6094 6676.6382 5138513
0 0 0 0
0 0 0 0
0 0 0 0
0 0 0 0
0 0 0 0
0 0 0 0
-1437.7976 -1449.8085 4752.9224 9614476
-1596.5254 -1642.1355 5383.4302 5404218
-1564.5193 -1642.1355 5383.4302 7048788
-1466.3229 -1571.2102 5150.915 7048534
-1435.6992 -1571.2102 5150.915 5798725
-1414.5859 -1581.8452 5185.7798 3825706
-1383.7551 -1581.8452 5185.7798 7181919
-1316.9677 -1539.8047 5047.958 4484922
-1352.5336 -1618.2661 5305.1787 5141831
-1334.1265 -1634.3553 5357.9243 9154692
0 0 0 0
0 0 0 0
0 0 0 0
-1195.3311 -1618.9449 5307.4048 5404499
-1209.7067 -1682.8384 5516.8667 5865305
-1180.0604 -1687.3467 5531.6465 3562037
-1147.1731 -1687.3467 5531.6465 5138504
-1113.6101 -1686.3232 5528.291 8158075
-1115.8929 -1741.1689 5708.0928 13552074
-1080.8645 -1739.4116 5702.3311 6386265
-1058.516 -1758.6061 5765.2568 9219201
-1032.0212 -1771.9666 5809.0566 7708525
-1014.2526 -1801.7535 5906.7075 6458714
-1010.407 -1859.2976 6095.355 4879169
-974.16852 -1859.2976 6095.355 5930573
-868.78949 -1722.2377 5646.0303 3627051
-827.1546 -1705.6021 5591.4932 6720093
-772.97186 -1660.6162 5444.0156 3295276
-749.71271 -1681.0361 5510.959 9413001
-734.41406 -1721.9878 5645.2109 4482618
-700.85168 -1721.9878 5645.2109 6194256
-664.7702 -1715.4868 5623.8989 5075775
-633.526 -1721.4417 5643.4204 6852189
-610.63013 -1752.0155 5743.6509 8488809
-572.6734 -1740.4388 5705.6992 5468748
-537.414 -1736.1183 5691.5352 6258012
-503.57626 -1736.1183 5691.5352 7830385
-469.73849 -1736.1183 5691.5352 13554379
-420.15231 -1673.395 5485.9087 13488589
-381.19019 -1645.9891 5396.0635 13488590
-335.71457 -1582.8362 5189.0288 13619407
-306.54202 -1591.5465 5217.584 13487058
-275.52203 -1591.5465 5217.584 6116453
-232.14523 -1511.1121 4953.8945 5602145
-205.97142 -1535.5536 5034.0215 6851180
-179.46211 -1565.3792 5131.7993 1783082
-146.11411 -1535.5536 5034.0215 13096400
-116.32092 -1537.3439 5039.8906 2635058
-87.343552 -1554.9003 5097.4458 4676695
-60.696892 -1654.6498 5424.4556 8160395
-28.521877 -1659.0056 5438.7354 12171454
0 0 0 0
0 0 0 0
0 0 0 0
76.600876 -1260.5106 4132.3452 5993832
101.16882 -1260.5106 4132.3452 2963770
126.97245 -1272.8983 4172.9561 4216919
148.13322 -1242.2998 4072.6445 4415570
206.00877 -1484.9448 4868.1104 4415569
249.21004 -1575.0649 5163.5522 6388335
296.71625 -1669.6417 5473.604 5859939
326.61838 -1656.2546 5429.7168 10857641
358.89954 -1656.2546 5429.7168 8093565
0 0 0 0
0 0 0 0
0 0 0 0
421.99689 -1432.1711 4695.1016 2899005
449.91055 -1432.1711 4695.1016 2505784
440.54053 -1320.4215 4328.752 4941645
0 0 0 0
0 0 0 0
503.26642 -1283.4902 4207.6797 1913878
545.9519 -1326.4197 4348.4155 2313252
547.93146 -1271.0414 4166.8682 1062412
572.70465 -1271.0414 4166.8682 3759660
555.55463 -1181.8562 3874.4917 2640671
664.90082 -1358.1598 4452.4697 7245665
691.37195 -1358.1598 4452.4697 4678971
711.10382 -1345.4092 4410.6689 2641432
737.32648 -1345.4092 4410.6689 3168290
763.54919 -1345.4092 4410.6689 2378265
786.82733 -1340.3929 4394.2246 4548413
787.53198 -1298.4802 4256.8218 796168
812.84003 -1298.4802 4256.8218 533764
804.90381 -1246.9777 4087.98 2114586
839.91736 -1263.0825 4140.7769 2049046
853.51227 -1246.9777 4087.98 3759407
882.1958 -1253.1989 4108.375 1917199
861.17828 -1190.3843 3902.4492 2312212
884.37946 -1190.3843 3902.4492 2049292
916.90936 -1202.6199 3942.5613 2773272
992.55994 -1269.3928 4161.4639 3365156
916.98615 -1144.2195 3751.1069 2575128
915.67932 -1115.4604 3656.8259 2245652
947.5799 -1127.5499 3696.4587 1192201
985.94696 -1146.6113 3758.948 3298341
1008.295 -1146.6113 3758.948 2114320
1021.1384 -1136.0372 3724.283 1457158
1060.7356 -1155.0444 3786.5947 2970137
1061.998 -1132.3864 3712.314 2576144
1069.0587 -1116.7072 3660.9131 2971155
1071.9023 -1097.3368 3597.4106 3892255
1079.1384 -1083.1328 3550.8457 4286245
0 0 0 0
0 0 0 0
0 0 0 0
1039.9929 -968.08899 3173.6965 3888445
1086.6937 -993.53528 3257.1172 4481097
0 0 0 0
0 0 0 0
0 0 0 0
0 0 0 0
0 0 0 0
0 0 0 0
0 0 0 0
0 0 0 0
1404.2532 -1106.4266 3627.21 4284722
1474.2806 -1144.0333 3750.4966 3298081
1521.5372 -1163.1128 3813.0449 3232801
1544.2069 -1163.1128 3813.0449 3233059
1580.0778 -1172.9122 3845.1707 3429686
1532.3677 -1121.2737 3675.8835 2378024
1529.8937 -1103.7227 3618.3455 1850656
1497.1992 -1065.1582 3491.9194 5272408
1516.854 -1064.3823 3489.376 4351306
0 0 0 0
0 0 0 0
0 0 0 0
1482.5264 -986.33582 3233.5151 6127452
1694.1448 -1112.6987 3647.772 5140807
1718.748 -1114.5898 3653.9717 4878662
1737.5189 -1112.6987 3647.772 6063196
1667.5724 -1054.7405 3457.7668 3035951
1808.3851 -1129.8759 3704.0837 3562297
1857.8362 -1146.8073 3759.5906 4088901
1876.2959 -1144.4333 3751.8081 4351816
1938.3097 -1168.3687 3830.2754 6128482
1923.9573 -1146.2507 3757.7659 2970159
0 0 0 0
0 0 0 0
0 0 0 0
0 0 0 0
0 0 0 0
0 0 0 0
0 0 0 0
0 0 0 0
0 0 0 0
0 0 0 0
0 0 0 0
0 0 0 0
0 0 0 0
0 0 0 0
0 0 0 0
0 0 0 0
0 0 0 0
0 0 0 0
0 0 0 0
0 0 0 0
0 0 0 0
0 0 0 0
9752.7295 -4585.7231 15033.425 6057585
10565.832 -4922.9272 16138.885 7175041
10661.782 -4922.9272 16138.885 9213083
10757.223 -4922.6943 16138.12 12566978
7947.4927 -3604.7607 11817.525 13092807
8422.8818 -3786.9062 12414.655 13619663
9019.3672 -4019.8591 13178.347 13488845
9266.6455 -4094.5012 13423.047 13685455
9307.4785 -4077.429 13367.079 13619662
9363.1396 -4067.0864 13333.173 13619662
9423.5615 -4058.9683 13306.559 13685455
9521.6787 -4067.0864 13333.173 13685455
9601.5811 -4067.3547 13334.053 13685457
9744.7051 -4094.1807 13421.996 13685457
9824.5029 -4094.1807 13421.996 13685457
9874.6221 -4081.9126 13381.777 13685457
9950.1377 -4080.2549 13376.343 13685457
10029.664 -4080.2549 13376.343 13685457
9930.6777 -4008.2041 13140.138 13685457
10008.8 -4008.2041 13140.138 13685457
10086.921 -4008.2041 13140.138 13685457
10214.183 -4027.5806 13203.66 13685457
10292.683 -4027.5806 13203.66 13685457
11926.033 -4631.3965 15183.157 13619664
12770.495 -4922.083 16136.116 13423058
12867.51 -4922.4961 16137.472 13488593
12963.812 -4922.6328 16137.92 13423060
13060.304 -4922.8398 16138.598 13160660
10963.426 -4102.3223 13448.687 8751771
11043.382 -4102.3223 13448.687 5794936
12669.333 -4672.4897 15317.873 5597045
12760.401 -4672.4897 15317.873 6190207
11294.593 -4106.4463 13462.206 6124415
10530.586 -3801.7312 12463.256 4281697
10573.945 -3790.7117 12427.131 4282467
10468.61 -3726.9089 12217.965 4019297
10721.711 -3790.7117 12427.131 8295329
12317.669 -4325.166 14179.237 11252423
14009.275 -4885.7114 16016.88 8554913
14210.512 -4922.4331 16137.265 4606565
14309.237 -4923.3911 16140.405 6186619
14403.549 -4922.8281 16138.56 3555157
14497.98 -4922.313 16136.871 4280160
14592.979 -4921.9961 16135.832 4149343
14657.447 -4911.4536 16101.271 6386045
14076.724 -4686.2573 15363.007 6518145
13811.999 -4568.4858 14976.916 4544355
13780.785 -4528.9644 14847.352 4346720
15072.812 -4922.0532 16136.02 4806758
15169.02 -4922.1416 16136.31 5333360
15264.246 -4921.9136 16135.562 7833237
15360.889 -4922.1416 16136.31 6451842
15457.994 -4922.5142 16137.531 3557205
15553.881 -4922.4971 16137.474 3820374
15649.823 -4922.4971 16137.474 5465453
0 0 0 0
0 0 0 0
0 0 0 0
0 0 0 0
0 0 0 0
-6571.7578 -2191.1567 7326.0806 2307626
-6789.562 -2278.8806 7619.3838 1452574
-6817.3423 -2303.5742 7701.9463 1583903
-6771.5522 -2303.5742 7701.9463 2242088
-7288.853 -2496.4331 8346.7656 1913123
-6549.7075 -2258.6528 7551.7529 4018749
-6695.9238 -2325.0129 7773.626 3886909
-6512.3667 -2276.9929 7613.0723 1781021
-6742.1216 -2373.8232 7936.8223 1847324
-6694.9355 -2373.8232 7936.8223 3688758
-7028.1211 -2509.6492 8390.9531 6847586
-6978.2349 -2509.6492 8390.9531 7900788
-6705.9263 -2429.0815 8121.5767 4676173
-6617.6782 -2414.5007 8072.8267 3361594
-6662.9951 -2448.7952 8187.4893 1388321
-6614.3188 -2448.7952 8187.4893 4546385
-6859.5337 -2558.4084 8553.9785 3032633
-6955.3862 -2613.5352 8738.293 3361597
-6654.5068 -2519.2947 8423.2031 3493184
-6396.707 -2440.0581 8158.2773 3229500
-6637.5679 -2551.281 8530.1484 1716263
-6586.8535 -2551.281 8530.1484 2044971
-6536.5029 -2551.4226 8530.6221 2637622
-6485.7856 -2551.4226 8530.6221 2506035
-6099.4131 -2418.3396 8085.6616 2637621
-5938.3477 -2373.1831 7934.6816 2637620
-5891.1738 -2373.1831 7934.6816 2966587
-6242.208 -2534.8906 8475.3477 2835001
-6063.7334 -2482.4534 8300.0244 2506291
-6001.9292 -2477.3108 8282.8311 2901304
-5543.3613 -2306.9641 7713.2798 2769975
-5815.4106 -2440.3696 8159.3188 3427906
-5990.9219 -2535.1682 8476.2754 3098940
-5940.5278 -2535.1682 8476.2754 3691079
-6145.2451 -2644.9705 8843.3965 1519660
-6092.6689 -2644.9705 8843.3965 1914419
-5684.689 -2489.3386 8323.0449 2440509
-5614.1196 -2480.0234 8291.9004 2702654
-5970.1821 -2660.6768 8895.9102 2637119
-5917.2935 -2660.6768 8895.9102 1979190
-6000.9849 -2722.6431 9103.0928 1386796
-5716.269 -2617.0698 8750.1113 2571327
-5769.2065 -2665.5647 8912.2529 3097671
-6163.7383 -2874.249 9609.9844 3755601
-6014.9482 -2831.1086 9465.7451 2966341
-5958.6719 -2831.1086 9465.7451 2637377
-5883.2012 -2821.9021 9434.9629 4545371
-5697.084 -2758.9353 9224.4355 3361609
-5602.4663 -2739.4858 9159.4062 3624524
-5492.1069 -2711.8816 9067.1123 3624780
-5389.8564 -2687.7739 8986.5088 3887438
-5016.7148 -2526.7449 8448.1123 3361352
-5283.002 -2687.7739 8986.5088 4545624
-5543.1812 -2848.9539 9525.4102 4085334
-5612.334 -2914.2688 9743.7891 3427151
-5511.1479 -2891.573 9667.9062 3361616
-5273.7217 -2796.1633 9348.9062 3821395
-5218.1396 -2796.1633 9348.9062 11385020
-5356.4619 -2901.1863 9700.0479 11055028
-5032.8516 -2755.5786 9213.2129 4018510
-4808.0664 -2661.4709 8898.5654 2309175
-4648.041 -2601.5149 8698.1045 2638398
-4702.2573 -2661.4709 8898.5654 3230279
-4598.2114 -2632.1958 8800.6846 2638913
-4545.8896 -2632.1958 8800.6846 2902598
-4592.7188 -2690.2759 8994.874 2704451
-4634.3198 -2746.626 9183.2793 2638403
-4872.5991 -2922.2744 9770.5557 2111804
-4507.1631 -2735.7231 9146.8262 2440769
-4452.7822 -2735.7231 9146.8262 3098441
-4465.5366 -2777.4795 9286.4375 2769734
-4410.3262 -2777.4795 9286.4375 3230027
-4505.3037 -2873.2622 9606.6846 3032650
-4527.748 -2924.6523 9778.5059 2901318
-4465.4497 -2921.929 9769.4004 2901575
-4375.6021 -2900.8691 9698.9873 3098952
-4221.2324 -2835.8999 9481.7646 3033160
-4260.2759 -2900.8691 9698.9873 4151638
-4398.2983 -3035.9419 10150.601 4283732
-4321.6279 -3024.5188 10112.407 4086348
-4154.6328 -2948.6667 9858.7979 6191721
-4116.749 -2963.5896 9908.6924 3231043
-4203.1533 -3069.718 10263.53 3098944
-4160.1245 -3083.0513 10308.109 2375480
-4098.8403 -3083.0513 10308.109 4481112
-3966.3616 -3028.688 10126.347 3363399
-3902.9778 -3026.2224 10118.104 3495237
-3843.5845 -3026.8225 10120.109 3494725
-3791.6021 -3033.3699 10142.001 3100223
-3708.3811 -3014.7339 10079.692 3560256
-3580.9536 -2958.9578 9893.2061 4482125
-3522.136 -2958.9578 9893.2061 3100474
-3530.3457 -3016.2241 10084.675 3429439
0 0 0 0
0 0 0 0
0 0 0 0
0 0 0 0
0 0 0 0
0 0 0 0
0 0 0 0
-1572.7455 -1554.974 5199.019 5799754
-1632.275 -1646.1837 5503.9766 5404991
-1607.4926 -1654.3555 5531.2983 7576923
-1574.6073 -1654.3555 5531.2983 5800259
-1518.1675 -1629.0798 5446.79 6195543
-1441.5443 -1580.5725 5284.6069 4419395
-1317.2838 -1476.5083 4936.6709 4616772
-1208.824 -1385.8154 4633.4414 7117418
-1175.9932 -1379.6168 4612.7163 6590817
0 0 0 0
0 0 0 0
0 0 0 0
0 0 0 0
-1098.2797 -1458.5074 4876.4854 2970657
-1209.7067 -1650.0389 5516.8667 6457165
-1236.3118 -1733.3246 5795.3301 5470519
-1216.2439 -1754.0737 5864.7041 5010221
-1181.4705 -1754.2131 5865.1704 6589246
-1167.3082 -1785.8945 5971.0962 6655062
-1197.304 -1889.2407 6316.6323 6786900
-1149.104 -1871.8988 6258.6494 4682050
-1111.0458 -1870.4696 6253.8711 3761457
-1063.4318 -1852.2971 6193.1123 5998932
-1082.0739 -1952.3662 6527.6909 4944703
-1038.9998 -1944.3845 6501.0039 6984284
-941.43195 -1829.866 6118.1138 12964290
-857.84088 -1734.4012 5798.9297 10464925
-785.69342 -1655.0477 5533.6128 13163967
-777.8584 -1710.1514 5717.8511 5666380
-743.8642 -1710.1514 5717.8511 7839824
-711.13947 -1713.2098 5728.0767 7313737
-673.33429 -1703.7207 5696.3506 5536069
-625.85785 -1667.46 5575.1133 6586195
-575.44012 -1618.8688 5412.6499 12040886
0 0 0 0
0 0 0 0
-489.24863 -1653.8477 5529.6006 5663069
-470.42609 -1704.7723 5699.8662 5989745
-399.39786 -1559.7295 5214.9189 9142672
-368.39374 -1559.7295 5214.9189 13619922
-349.1091 -1613.9081 5396.0635 13488335
-320.47305 -1631.4459 5454.7012 13488593
-290.07175 -1642.9346 5493.1133 13488332
-232.14523 -1481.6597 4953.8945 3033427
-190.71536 -1394.105 4661.1572 4283997
-173.24069 -1481.6597 4953.8945 5793903
-146.1667 -1506.1669 5035.8335 5981302
-117.64929 -1524.5945 5097.4458 11052453
-82.98526 -1448.5199 4843.0923 3757136
-57.303589 -1531.6984 5121.1978 6844531
-29.18609 -1664.5524 5565.3916 13423055
3.9240611 -1674.0874 5597.272 10070686
36.540207 -1644.3331 5497.7896 6390124
0 0 0 0
0 0 0 0
0 0 0 0
0 0 0 0
149.72905 -1231.2091 4116.5186 7308180
0 0 0 0
0 0 0 0
287.73373 -1587.5394 5307.9009 13554129
317.42682 -1578.2722 5276.916 13488334
340.8024 -1542.0861 5155.9287 8225149
0 0 0 0
0 0 0 0
366.33081 -1305.3658 4364.46 4085075
421.99689 -1404.2573 4695.1016 3427134
449.91055 -1404.2573 4695.1016 3558719
0 0 0 0
0 0 0 0
0 0 0 0
0 0 0 0
558.97559 -1331.5922 4452.147 1387549
555.26923 -1262.9579 4222.6699 994579
528.28088 -1149.5972 3843.6511 6326602
0 0 0 0
646.22876 -1294.2916 4327.4336 5602621
707.44031 -1362.6388 4555.9507 3627813
724.09473 -1343.2861 4491.2456 2706716
746.92651 -1336.3624 4468.0962 3299114
747.13098 -1290.8207 4315.8286 2574368
745.89709 -1245.9008 4165.6401 3165994
698.55652 -1129.3291 3775.8853 6144
769.85913 -1205.8503 4031.7322 1586706
835.87823 -1269.7245 4245.2939 1851157
848.85681 -1251.6458 4184.8481 2180889
0 0 0 0
0 0 0 0
858.97577 -1164.198 3892.4685 1983507
884.37946 -1167.1831 3902.4492 1391114
907.58063 -1167.1831 3902.4492 2376985
936.71558 -1174.624 3927.3279 2770463
960.06464 -1174.624 3927.3279 1122827
818.43475 -977.56726 3268.4731 2243610
837.8667 -977.56726 3268.4731 1586701
945.29303 -1077.9061 3603.9541 2575125
966.71954 -1077.9061 3603.9541 2970902
1059.9611 -1156.2446 3865.8767 2708237
1127.2208 -1203.5177 4023.9329 3037202
1137.5242 -1189.2778 3976.3223 4155685
1121.5742 -1148.729 3840.7485 4221733
1119.379 -1123.605 3756.7468 3628829
1141.7139 -1123.605 3756.7468 4680751
1149.4104 -1109.4751 3709.5042 4877371
0 0 0 0
0 0 0 0
0 0 0 0
0 0 0 0
0 0 0 0
0 0 0 0
0 0 0 0
0 0 0 0
0 0 0 0
0 0 0 0
0 0 0 0
0 0 0 0
0 0 0 0
1551.2994 -1180.3369 3946.4287 3494694
1506.8345 -1129.4229 3776.1987 5336647
1516.4941 -1119.9764 3744.615 4811077
1510.5134 -1099.4196 3675.8835 1982753
1524.3721 -1093.6831 3656.7036 3035445
1554.2217 -1099.4196 3675.8835 2377002
1574.0588 -1098.0127 3671.1794 3166775
1539.2836 -1059.0692 3540.9729 2509614
1444.4886 -980.43872 3278.0737 2246184
0 0 0 0
0 0 0 0
0 0 0 0
0 0 0 0
1710.4611 -1087.5966 3636.3538 4812606
1732.0801 -1087.5966 3636.3538 4154424
1724.0955 -1069.2372 3574.9692 3430454
1781.1561 -1091.1729 3648.311 3430199
1835.8119 -1111.1252 3715.0212 4351562
1876.2959 -1122.1278 3751.8081 3562817
1938.3097 -1145.5966 3830.2754 5734242
0 0 0 0
0 0 0 0
0 0 0 0
0 0 0 0
0 0 0 0
0 0 0 0
0 0 0 0
0 0 0 0
0 0 0 0
0 0 0 0
0 0 0 0
0 0 0 0
0 0 0 0
0 0 0 0
0 0 0 0
0 0 0 0
0 0 0 0
0 0 0 0
0 0 0 0
0 0 0 0
0 0 0 0
10276.923 -4826.48 16137.222 7049074
10373.991 -4827.0044 16138.977 8429700
10470.231 -4827.1382 16139.424 5202795
10567.674 -4827.8184 16141.697 9477799
10663.054 -4827.5532 16140.81 12566984
10758.717 -4827.4189 16140.361 7435641
10854.676 -4827.4189 16140.361 13817047
10949.722 -4827.0166 16139.016 13685457
11044.361 -4826.4429 16137.1 13619660
10416.76 -4512.9751 15089.025 13554125
9346.4492 -4014.6975 13423.047 13619662
9387.4902 -3998.1882 13367.849 13356490
9442.4092 -3987.8169 13333.173 13553869
9691.5264 -4058.9519 13571.011 13619662
9873.0615 -4100.8413 13711.066 13685457
10071.29 -4148.9219 13871.822 13685457
10153.762 -4148.9219 13871.822 13685457
10205.366 -4136.4102 13829.991 13685457
10162.535 -4086.1292 13661.877 13685457
10243.759 -4086.1292 13661.877 13685457
10377.034 -4106.7285 13730.75 13685457
10458.667 -4106.7285 13730.75 13685457
10510.749 -4095.2148 13692.254 13685457
10377.644 -4012.2793 13414.962 13685457
10457.399 -4012.2793 13414.962 13685198
10846.274 -4129.9844 13808.505 13488333
12521.84 -4732.1787 15821.929 13488590
12866.816 -4826.2944 16136.602 9277353
12962.754 -4826.2949 16136.604 9212089
13058.988 -4826.4048 16136.972 9606589
12997.992 -4768.8276 15944.462 9671863
13049.459 -4753.0459 15891.697 8488355
13187.582 -4768.8276 15944.462 5004659
12875.647 -4622.7983 15456.218 5136500
12847.36 -4579.9561 15312.975 5466231
11444.581 -4051.1714 13544.996 4611433
11420.43 -4014.375 13421.969 4479592
11608.685 -4052.2341 13548.55 4940399
11714.32 -4060.9304 13577.626 6255488
12362.03 -4256.1392 14230.302 6453377
13019.096 -4451.8936 14884.802 10729662
13800.453 -4687.2192 15671.607 11843775
14305.261 -4826.0908 16135.921 5791353
14402.393 -4826.4927 16137.265 4674665
14498.293 -4826.479 16137.219 4806761
14540.226 -4808.6182 16077.502 4215390
14688.69 -4825.9917 16135.59 5005415
14724.716 -4806.4375 16070.211 5926259
14048.529 -4556.1543 15233.396 8426391
12313.7 -3967.9424 13266.722 6781821
15073.353 -4826.293 16136.597 7637130
15169.208 -4826.2671 16136.511 7307651
15264.53 -4826.0728 16135.862 7175812
14002.658 -4399.4668 14709.515 7307912
14090.11 -4399.4668 14709.515 5860465
15552.732 -4826.1987 16136.282 3952210
15648.667 -4826.1987 16136.282 6254711
0 0 0 0
0 0 0 0
0 0 0 0
0 0 0 0
0 0 0 0
-6855.7397 -2240.4043 7642.6587 2110503
-6841.46 -2250.6543 7677.625 2242090
-6795.8145 -2250.6543 7677.625 1979175
-6627.022 -2209.5942 7537.5576 2307883
-6840.0552 -2296.1514 7832.8286 2373419
-6626.5747 -2239.7361 7640.3799 2636588
-6781.4995 -2307.9202 7872.9751 2044708
-6576.2739 -2253.6316 7687.7808 1715229
-6514.4072 -2248.0544 7668.7563 2504999
-6704.0796 -2329.8142 7947.6621 3096878
-7152.3311 -2503.2346 8539.249 4874050
-7101.563 -2503.2346 8539.249 6913637
-6768.1675 -2402.8936 8196.957 4611660
-6711.6724 -2400.1184 8187.4893 2638383
-6889.9346 -2481.8655 8466.3516 2770483
-6746.2812 -2448.0032 8350.8379 4019779
-6789.2646 -2481.8655 8466.3516 3361846
-6921.731 -2549.1885 8696.0107 4085569
-6677.8267 -2477.8694 8452.7207 3296310
-6287.6558 -2350.7839 8019.1953 4282951
-6239.98 -2350.7839 8019.1953 1782822
-6306.9736 -2394.3159 8167.6958 2966072
-6536.5029 -2500.7058 8530.6221 1321505
-6547.0674 -2524.334 8611.2246 2044972
-6202.5728 -2410.3567 8222.415 1650213
-6051.3413 -2370.2681 8085.6616 1847848
-5754.8667 -2272.1912 7751.0933 4480078
-5844 -2326.009 7934.6816 3756353
-6051.1729 -2428.0674 8282.8311 2112300
-5728.3662 -2317.3982 7905.3071 3033400
-5560.3774 -2268.0471 7736.957 3625539
-5634.3682 -2317.3982 7905.3071 2638643
-5757.9292 -2388.1392 8146.625 2309425
-5709.4951 -2388.1392 8146.625 3493703
-6145.2451 -2592.394 8843.3965 1650472
-6092.6689 -2592.394 8843.3965 1913648
-5684.689 -2439.8557 8323.0449 1782318
-5614.1196 -2430.7258 8291.9004 2901055
-5860.7388 -2559.9829 8732.833 3163714
-5820.3125 -2565.0481 8750.1113 3229764
-6000.9849 -2668.5225 9103.0928 2637627
-5822.1924 -2612.5789 8912.2529 2638400
-5892.7441 -2668.5225 9103.0928 5138537
-6163.7383 -2817.1152 9609.9844 2901318
-6014.9482 -2774.832 9465.7451 3032647
-5888.2715 -2742.0483 9353.9102 3230027
-5832.6602 -2742.0483 9353.9102 3361095
-5697.084 -2704.0935 9224.4355 3295302
-5642.2422 -2704.0935 9224.4355 3888208
-5572.8389 -2697.0464 9200.3955 3756878
-5507.7549 -2691.9705 9183.0801 4743004
-5336.4292 -2634.3464 8986.5088 4019025
-5309.6685 -2647.6438 9031.8691 3362122
-5455.5708 -2748.1897 9374.8604 3954258
-5572.9194 -2836.2793 9675.3594 4611162
-5515.3965 -2836.2793 9675.3594 2900291
-5475.522 -2845.4504 9706.6445 4084565
-5414.1313 -2843.5166 9700.0479 5795182
-5356.4619 -2843.5166 9700.0479 4677722
-5032.8516 -2700.8035 9213.2129 3230789
-4936.7241 -2678.3684 9136.6797 2638398
-4767.917 -2615.5635 8922.4346 1782319
-4702.2573 -2608.5664 8898.5654 1848882
-4539.1484 -2546.7351 8687.6406 2507068
-4513.0874 -2561.2573 8737.1807 3428170
-4605.7222 -2644.2646 9020.3418 2177848
-4634.3198 -2692.0288 9183.2793 1519408
-4730.7437 -2780.8013 9486.1074 1716790
-4590.5049 -2730.9236 9315.96 2374464
-4535.1187 -2730.9236 9315.96 3032394
-4667.6558 -2845.4846 9706.7607 1913913
-4618.458 -2850.7383 9724.6826 2242877
-4585.8838 -2866.5164 9778.5059 2835527
-4523.5317 -2863.8472 9769.4004 2704197
-4465.4497 -2863.8472 9769.4004 1849141
-4299.8804 -2794.0027 9531.1416 2967622
-4221.2324 -2779.5281 9481.7646 2901827
-4164.8608 -2779.5281 9481.7646 3560007
-4268.8057 -2887.9878 9851.751 4809813
