# .PCD v0.7 - Point Cloud Data file format
VERSION 0.7
FIELDS x y z rgb
SIZE 4 4 4 4
TYPE F F F U
COUNT 1 1 1 1
WIDTH 1473
HEIGHT 1
VIEWPOINT 0 0 0 1 0 0 0
POINTS 1473
DATA ascii
-2894.5283 -284.10471 11094.772 133376
-2830.991 -284.34821 11104.281 1385226
-2731.3604 -280.89154 10969.292 1451272
-2666.145 -280.89154 10969.292 1451529
-2600.9297 -280.89154 10969.292 1517323
-2562.6299 -283.87311 11085.728 2241047
-2428.8076 -276.15134 10784.18 529664
-2364.6926 -276.15134 10784.18 594946
-2280.1477 -273.69901 10688.411 67840
-2254.7935 -278.41476 10872.569 1319180
-2190.1528 -278.41476 10872.569 265218
-2097.6228 -274.76157 10729.906 989957
-2048.8276 -276.7876 10809.026 595201
-2062.637 -287.67633 11234.25 1318922
-1995.8463 -287.67633 11234.25 1280
-1895.4266 -282.66135 11038.405 69120
-1760.2181 -271.91254 10618.646 924162
-1782.5762 -285.6098 11153.548 858626
-1633.9567 -271.91254 10618.646 67072
-1605.5454 -277.92258 10853.349 2560
-1541.0194 -277.92258 10853.349 793346
-1572.0713 -295.91336 11555.92 858629
-1511.3367 -297.48184 11617.172 1280
-1347.4429 -277.923 10853.365 1024
-1309.402 -283.66064 11077.43 1024
-1256.1493 -286.53607 11189.72 529412
-1223.3154 -294.65125 11506.632 1792
-1158.2135 -295.49527 11539.593 1792
-1086.4951 -294.65125 11506.632 1024
-1000.5533 -289.5773 11308.485 768
-925.49274 -287.14838 11213.632 330498
-840.25146 -280.93845 10971.124 67584
-789.33936 -286.1272 11173.754 134400
-746.56427 -295.49023 11539.396 396801
-676.25592 -294.74777 11510.402 332544
-598.1604 -290.06201 11327.414 661253
-529.81885 -289.51724 11306.141 2307344
-451.78329 -282.74719 11041.759 1847562
-377.11325 -276.13962 10783.722 398337
-304.35986 -268.51611 10486.011 1536
-227.32559 -252.21545 9849.4424 1056266
0 0 0 0
-71.198601 -162.93756 6362.9888 1581329
-33.368858 -162.93756 6362.9888 462594
4.5402708 -165.83739 6476.2319 330754
39.674599 -152.85854 5969.3857 1448978
74.281982 -151.0643 5899.3174 198145
119.35062 -164.87225 6438.5415 530181
250.70175 -262.22095 10240.173 3097130
324.26233 -272.89206 10656.898 1321233
387.62054 -272.89206 10656.898 200705
482.7016 -292.08786 11406.527 2560
550.51654 -292.08786 11406.527 2241570
623.79852 -294.67035 11507.378 597000
685.73627 -291.91321 11399.707 2045725
760.62769 -294.67035 11507.378 663304
967.63324 -343.93039 13431.066 3840
1014.7355 -333.17755 13011.149 730118
1092.0903 -333.17755 13011.149 1718293
1169.4453 -333.17755 13011.149 2113561
1327.7469 -354.80862 13855.88 2310684
1371.9709 -345.20874 13480.988 929288
1443.062 -343.0556 13396.904 928779
1479.3132 -333.27856 13015.095 1980442
1700.8964 -364.15198 14220.753 1979677
1597.4506 -325.80978 12723.427 398343
1754.9478 -341.74939 13345.895 530186
1890.2921 -352.18274 13753.334 332553
1877.2758 -335.25565 13092.303 2818
1782.8879 -305.72308 11939.006 1187602
1873.1613 -308.90463 12063.251 135171
2067.9353 -328.44937 12826.506 1516567
2144.1924 -328.44937 12826.506 133378
2220.4495 -328.44937 12826.506 1024
2256.6335 -322.71857 12602.708 1024
2221.916 -307.54239 12010.053 1024
2176.8606 -291.92484 11400.161 768
2198.2646 -285.89383 11164.64 1536
2250.7207 -284.13644 11096.011 134661
2153.9766 -264.18005 10316.681 267273
0 0 0 0
0 0 0 0
0 0 0 0
0 0 0 0
0 0 0 0
0 0 0 0
0 0 0 0
0 0 0 0
0 0 0 0
0 0 0 0
0 0 0 0
0 0 0 0
565.42157 -50.611984 1976.4841 258
577.1723 -50.611984 1976.4841 512
580.25 -49.866627 1947.3766 857103
0 0 0 0
0 0 0 0
0 0 0 0
0 0 0 0
0 0 0 0
0 0 0 0
0 0 0 0
0 0 0 0
0 0 0 0
0 0 0 0
0 0 0 0
0 0 0 0
615.00159 -41.967339 1638.8959 395790
624.74524 -41.967339 1638.8959 198668
631.82391 -41.791061 1632.012 198417
638.42737 -41.589165 1624.1276 660509
629.69531 -40.409164 1578.0465 3160644
657.51514 -41.574997 1623.5743 4214616
667.69855 -41.608078 1624.8661 329742
678.19928 -41.659702 1626.8822 3224637
694.11646 -42.037914 1641.652 2631984
707.93054 -42.280033 1651.1072 1776672
717.74683 -42.280033 1651.1072 5
727.56317 -42.280033 1651.1072 4
0 0 0 0
0 0 0 0
0 0 0 0
0 0 0 0
0 0 0 0
0 0 0 0
0 0 0 0
0 0 0 0
0 0 0 0
0 0 0 0
0 0 0 0
0 0 0 0
1005.0979 -49.692257 1940.5671 329478
0 0 0 0
0 0 0 0
0 0 0 0
0 0 0 0
0 0 0 0
0 0 0 0
0 0 0 0
0 0 0 0
1005.5863 -45.061211 1759.7169 1842466
978.86182 -43.41201 1695.3127 2238253
988.94092 -43.41201 1695.3127 3620170
995.59082 -43.262993 1689.4934 3422794
1028.9863 -44.267567 1728.7238 3423822
1038.0752 -44.216927 1726.7461 3423816
0 0 0 0
0 0 0 0
0 0 0 0
0 0 0 0
0 0 0 0
10277.966 -413.26907 16138.86 1187089
10373.942 -413.27014 16138.9 2173727
10468.438 -413.21268 16136.658 3883828
9751.8379 -381.4313 14895.541 2239004
8648.5625 -335.2337 13091.446 4673344
8738.3096 -335.69144 13109.321 1778456
8816.248 -335.69144 13109.321 2764840
9458.3789 -356.98563 13940.896 593416
11062.958 -413.91974 16164.271 198917
11178.096 -414.62589 16191.846 724234
8331.3496 -306.39374 11965.196 855563
8402.4863 -306.39374 11965.196 1118992
8473.6221 -306.39374 11965.196 461062
7755.2144 -278.08264 10859.6 461830
8109.8428 -288.39777 11262.423 1514774
9708.2676 -342.41293 13371.808 3356722
9219.3955 -322.52924 12595.314 264451
8915.4795 -309.38422 12081.979 658185
8987.3105 -309.38422 12081.979 723721
8404.749 -287.03561 11209.229 986634
7884.4663 -267.1489 10432.618 1379338
8031.0454 -269.99152 10543.627 2167570
8093.7305 -269.99152 10543.627 2626578
8313.5303 -275.19226 10746.726 2954517
8025.4575 -263.63049 10295.219 1114112
7996.0312 -260.67575 10179.831 1114626
7894.3076 -255.42618 9974.8262 589825
7685.769 -246.82457 9638.9189 1181449
7187.5054 -229.11478 8947.3213 1445134
7560.1519 -239.22308 9342.0684 655618
8111.9248 -254.81065 9950.7891 1641486
8171.085 -254.81065 9950.7891 918017
8230.2461 -254.81065 9950.7891 983554
8298.5352 -255.09128 9961.748 1377542
8347.7852 -254.78683 9949.8584 2100495
8104.4102 -245.61815 9591.8057 1705224
7974.6909 -239.99806 9372.332 1771273
7932.7231 -237.07849 9258.3184 1705480
7802.2119 -231.5712 9043.249 1771530
7855.9766 -231.5712 9043.249 1508101
7570.1636 -221.6295 8655.0088 1705737
7621.6201 -221.6295 8655.0088 1508358
7694.6675 -222.25313 8679.3623 1903114
7746.269 -222.25313 8679.3623 1508100
8231.7891 -234.62059 9162.333 1771016
7972.9722 -225.75 8815.9209 1704192
7804.0659 -219.52438 8572.8008 2623241
8194.7031 -229.01712 8943.5078 3740949
7906.0015 -219.52438 8572.8008 4728101
8007.2021 -220.91026 8626.9209 3280397
7975.3286 -218.63051 8537.8926 1966080
8194.3105 -223.21284 8716.8408 2953234
8246.1348 -223.21284 8716.8408 1441792
7982.3887 -214.72409 8385.3408 2230027
8032.2412 -214.72409 8385.3408 2230283
8737.6465 -232.1407 9065.4893 1442306
15648.099 -413.18808 16135.696 2428689
0 0 0 0
0 0 0 0
0 0 0 0
0 0 0 0
-6579.9009 -143.27287 7286.8638 200962
-6765.9424 -148.3002 7542.5537 1056267
-6721.0991 -148.3002 7542.5537 595459
-6705.0767 -148.94038 7575.1133 1450767
-6700.6021 -149.84747 7621.248 1121801
-6551.4307 -147.50899 7502.3125 595458
-6506.8276 -147.50899 7502.3125 858631
-6398.0215 -146.04346 7427.7764 2816
-6353.8608 -146.04346 7427.7764 1024
-6320.502 -146.29347 7440.4917 200192
-6586.6646 -153.52855 7808.4678 529665
-6540.2407 -153.52855 7808.4678 1516048
-6493.8179 -153.52855 7808.4678 2437662
-6519.6123 -155.24825 7895.9316 200960
-6552.6309 -157.16615 7993.4766 135424
-6249.6782 -150.99487 7679.605 1122315
-6440.0376 -156.73911 7971.7568 1280
-6416.2534 -157.31799 8001.1987 662019
-6368.6841 -157.31799 8001.1987 1122574
-6308.8359 -157.01239 7985.6562 530180
-6412.6997 -160.80748 8178.6748 134144
-6390.7788 -161.48222 8212.9922 134144
-6537.3589 -166.45782 8466.0518 2560
-6293.1216 -161.48222 8212.9922 1024
-5936.8354 -153.53113 7808.5996 2437920
-6441.3101 -167.89008 8538.8955 594182
-6511.2598 -171.06149 8700.1943 2816
-6459.5352 -171.06149 8700.1943 792585
-6407.8101 -171.06149 8700.1943 529410
-6354.7305 -171.02504 8698.3398 595713
-6280.9375 -170.42596 8667.8711 529921
-6229.4053 -170.42596 8667.8711 2240793
-6385.4067 -176.15112 8959.0527 1912085
-5885.0728 -163.71428 8326.5146 1188105
-5855.0708 -164.2614 8354.3408 397313
-6065.5103 -171.62103 8728.6523 1253644
-6206.4849 -177.12529 9008.5986 2503457
-5961.7217 -171.62103 8728.6523 768
-5808.8911 -168.68985 8579.5723 198912
-5557.9897 -162.83353 8281.7197 1280
-5698.3662 -168.43834 8566.7803 200192
-5742.0195 -171.2594 8710.2598 1280
-5549.0273 -167.00948 8494.1084 1280
-5253.4175 -159.56462 8115.4629 1024
-5570.0449 -170.74992 8684.3477 2304
-5545.98 -171.60286 8727.7285 331520
-5452.3159 -170.29805 8661.3652 398080
-5199.9858 -163.96532 8339.2822 1280
-5150.4067 -163.96532 8339.2822 1187849
-5175.397 -166.36235 8461.1953 1450764
-5290.3647 -171.72714 8734.0488 1792
-5249.5635 -172.09184 8752.5977 1280
-5008.5249 -165.83391 8434.3193 331265
-4992.6445 -166.97989 8492.6035 529155
-5224.5659 -176.52171 8977.9014 331265
-5199.3774 -177.48392 9026.8389 463616
-5013.2271 -172.91435 8794.4307 661248
-5078.7236 -177.01965 9003.2266 727296
-4976.4854 -175.30373 8915.9541 858880
-4742.5728 -168.86249 8588.3525 1792
-4993.042 -179.71548 9140.3369 1911570
-5268.897 -191.73111 9751.4512 1280
-5103.0664 -187.76266 9549.6162 67840
-4877.4111 -181.47897 9230.0273 132864
-4805.0908 -180.82246 9196.6377 68096
-4807.6475 -183.00104 9307.4395 67584
-4656.166 -179.29866 9119.1367 397824
-4601.9507 -179.29866 9119.1367 200704
-4652.6973 -183.4369 9329.6084 529664
-4757.5757 -189.83495 9655.0127 595456
-4668.5327 -188.55701 9590.0166 1536
-4453.0742 -182.07854 9260.5215 68352
-4398.0181 -182.07854 9260.5215 332032
-4702.9043 -197.16911 10028.029 199936
-4755.3906 -201.9295 10270.143 530176
-4492.5078 -193.24791 9828.5967 661760
-4434.2119 -193.25394 9828.9023 1780747
-4375.7764 -193.25394 9828.9023 794880
-4343.4941 -194.42462 9888.4443 926464
-4484.7578 -203.50232 10350.136 1847561
-4423.2236 -203.50232 10350.136 795139
-4325.1724 -201.79858 10263.483 1912589
-4203.0615 -198.90744 10116.44 398336
-4137.666 -198.65536 10103.619 332288
-4125.0732 -200.96834 10221.258 67840
-4310.8618 -213.15987 10841.319 68608
-4007.197 -201.15208 10230.603 199169
-4075.9163 -207.75505 10566.431 1536
-3889.9189 -201.37828 10242.107 1280
-3829.0269 -201.37828 10242.107 768
-3799.6731 -203.06377 10327.831 1055241
-3738.271 -203.06377 10327.831 1792
-3669.8149 -202.67416 10308.016 2304
-3607.8052 -202.63341 10305.943 69120
-3542.7275 -202.41594 10294.883 661762
-3545.8074 -206.15355 10484.978 1648907
-3556.9512 -210.50211 10706.146 595457
-3417.1174 -205.91144 10472.664 1253894
-3354.8547 -205.91144 10472.664 726788
-3343.2905 -209.08202 10633.92 1024
-3219.5918 -205.22704 10437.855 1280
-3157.5361 -205.22704 10437.855 1024
-3066.2007 -203.28586 10339.126 463105
-3094.3083 -209.34616 10647.354 1280
-3010.8672 -207.95517 10576.608 133120
-2976.5125 -209.96744 10678.952 332288
-2947.6904 -212.46623 10806.04 463616
-2927.7297 -215.72929 10972.001 397824
-2890.9299 -217.87204 11080.98 463872
-2820.6582 -217.53329 11063.752 463360
-2708.2095 -213.84796 10876.316 332544
-2610.304 -211.15883 10739.546 990471
-2584.9946 -214.35466 10902.087 398592
-2520.1787 -214.35466 10902.087 859141
-2407.2388 -210.15343 10688.411 1122565
-2323.7275 -208.36317 10597.358 1056262
-2260.7234 -208.36317 10597.358 66816
-2197.7192 -208.36317 10597.358 1280
-2190.1528 -213.77431 10872.569 1121544
-2172.9751 -218.54787 11115.354 989956
-2043.2333 -211.94464 10779.513 2048
-1984.5649 -212.52493 10809.026 68352
-1961.053 -217.03494 11038.405 1536
-1911.3514 -218.8584 11131.146 332032
-1860.6901 -220.69881 11224.75 727041
-1813.1106 -223.05528 11344.601 727296
-1633.9567 -208.78174 10618.646 990978
-1589.1134 -211.21237 10742.27 266240
-1637.6605 -226.77902 11533.989 1517323
-1572.0713 -227.21022 11555.92 727300
-1441.1189 -217.80223 11077.43 463875
-1320.6333 -209.15085 10637.42 1280
-1297.3695 -215.80078 10975.636 2048
-1256.1493 -220.01004 11189.72 67584
-1218.702 -225.38789 11463.237 265473
-1154.2662 -226.11594 11500.265 768
-1067.7854 -222.34518 11308.485 768
-974.28546 -216.5079 11011.6 768
-907.29321 -216.14452 10993.119 66816
-835.27826 -214.43532 10906.188 134400
-815.16919 -226.88533 11539.396 200448
-747.91925 -227.29712 11560.34 1450763
-679.18982 -227.29712 11560.34 858880
-598.1604 -222.71738 11327.414 859649
-521.34589 -218.74405 11125.33 2176015
-441.22549 -212.02739 10783.722 2637079
-367.14032 -206.42023 10498.541 1385740
-289.27399 -195.95465 9966.2617 2560
-224.24565 -191.03401 9715.9971 134656
-116.63867 -133.84053 6807.1343 132352
-64.481163 -113.30416 5762.6538 264450
-31.403059 -117.73756 5988.1372 396802
4.0848937 -114.56307 5826.6826 396034
38.726143 -114.56307 5826.6826 527622
74.281982 -115.99121 5899.3174 768
122.13285 -129.5444 6588.6338 660998
245.29254 -196.99608 10019.229 2570531
324.26233 -209.53383 10656.898 398340
387.62054 -209.53383 10656.898 2373411
524.82184 -243.8428 12401.854 1024
597.25745 -243.31447 12374.983 1280
636.90399 -231.00922 11749.138 333317
700.45264 -228.94896 11644.353 1780762
769.68152 -228.94896 11644.353 728075
967.63324 -264.07898 13431.066 2304
1014.7355 -255.82263 13011.149 267523
1092.0903 -255.82263 13011.149 728840
1295.8716 -283.47913 14417.759 2770471
1373.4833 -281.81589 14333.167 1125899
1371.9709 -265.06052 13480.988 1323279
1452.1191 -265.06052 13480.988 335107
1406.7074 -243.34041 12376.303 3822387
1700.8964 -279.60562 14220.753 664073
1721.1342 -269.53473 13708.546 465158
1808.5247 -270.41531 13753.334 2176289
1906.2222 -272.69418 13869.236 3294771
1972.0596 -270.41531 13753.334 135939
2107.1787 -277.43982 14110.601 1280
2063.1599 -261.24347 13286.854 1280
2047.1035 -249.65172 12697.296 265734
2122.5925 -249.65172 12697.296 133123
2220.4495 -252.19223 12826.506 768
2256.6335 -247.79196 12602.708 256
2221.916 -236.13928 12010.053 768
2199.5334 -226.48232 11518.899 512
2198.2646 -219.51694 11164.64 512
2250.7207 -218.16756 11096.011 768
2153.9766 -202.84454 10316.681 1056275
0 0 0 0
0 0 0 0
0 0 0 0
0 0 0 0
0 0 0 0
0 0 0 0
0 0 0 0
0 0 0 0
0 0 0 0
0 0 0 0
0 0 0 0
0 0 0 0
565.42157 -38.86124 1976.4841 258
580.90527 -39.112579 1989.2673 1024
580.25 -38.288933 1947.3766 4676424
0 0 0 0
0 0 0 0
0 0 0 0
0 0 0 0
0 0 0 0
0 0 0 0
0 0 0 0
0 0 0 0
0 0 0 0
0 0 0 0
0 0 0 0
0 0 0 0
0 0 0 0
620.29755 -31.994236 1627.2281 264461
629.97186 -31.994236 1627.2281 198417
638.10223 -31.917009 1623.3003 594460
628.82678 -30.984442 1575.8699 2963265
658.03827 -31.947796 1624.8661 4344918
667.69855 -31.947796 1624.8661 328966
677.35883 -31.947796 1624.8661 3158844
694.11646 -32.277836 1641.652 2763314
708.34442 -32.482723 1652.0725 2039845
739.43988 -33.444923 1701.01 4
727.56317 -32.463741 1651.1072 4
0 0 0 0
0 0 0 0
0 0 0 0
0 0 0 0
0 0 0 0
0 0 0 0
0 0 0 0
894.06464 -36.006596 1831.2969 855566
0 0 0 0
0 0 0 0
0 0 0 0
0 0 0 0
1005.0979 -38.155045 1940.5671 658443
0 0 0 0
0 0 0 0
0 0 0 0
0 0 0 0
0 0 0 0
0 0 0 0
0 0 0 0
0 0 0 0
1050.4598 -36.143169 1838.243 789778
971.88068 -33.095177 1683.2219 2895671
981.88788 -33.095177 1683.2219 2633785
991.89508 -33.095177 1683.2219 3423306
1041.7313 -34.41082 1750.1356 3423565
1048.3625 -34.287392 1743.8582 3358023
0 0 0 0
0 0 0 0
0 0 0 0
0 0 0 0
0 0 0 0
10277.421 -317.30225 16138.005 859402
10372.5 -317.27576 16136.658 4149306
10468.438 -317.27576 16136.657 4938562
8889.7256 -266.98169 13578.699 1646860
8648.5625 -257.40143 13091.446 4015158
8726.3945 -257.40143 13091.446 395265
8816.248 -257.75287 13109.321 395523
9493.8525 -275.13116 13993.181 658441
11082.525 -318.38086 16192.862 526855
11219.158 -319.53036 16251.327 790027
8882.5684 -250.8224 12756.837 330246
8958.4111 -250.8224 12756.837 396039
9046.2734 -251.15613 12773.81 2304547
7926.3872 -218.23207 11099.292 1975582
8109.8428 -221.43953 11262.423 2436133
8479.1465 -229.62749 11678.862 790539
9787.7656 -262.91385 13371.808 659210
8915.4795 -237.55347 12081.979 1184785
8987.3105 -237.55347 12081.979 460806
7744.3618 -203.07663 10328.485 460290
7884.4663 -205.12407 10432.618 985862
8031.0454 -207.3067 10543.627 2560529
8093.7305 -207.3067 10543.627 2822671
8160.5029 -207.4106 10548.911 2954514
7750.7622 -195.49402 9942.833 1310976
7489.3394 -187.47047 9534.7559 1245698
7458.7285 -185.3017 9424.4512 786432
7685.769 -189.51852 9638.9189 1181190
7570.79 -185.3017 9424.4512 1181446
7560.1519 -183.6819 9342.0684 852481
7722.521 -186.25845 9473.1123 1575176
7778.8418 -186.25845 9473.1123 1114883
7835.1611 -186.25845 9473.1123 1179907
7222.5752 -170.4706 8670.1416 1771528
8347.7852 -195.63214 9949.8584 2100750
7950.0381 -184.99989 9409.1016 1836808
7926.8887 -183.17232 9316.1514 1902345
7977.7705 -183.06895 9310.8936 1836551
7802.2119 -177.80656 9043.249 1902601
7467.0981 -169.00497 8595.5996 1442307
7562.23 -169.99472 8645.9375 1639942
7643.0664 -170.6519 8679.3623 1507843
7694.6675 -170.6519 8679.3623 1704966
7643.4551 -168.3869 8564.1641 1442050
7920.5591 -173.33688 8815.9209 1836296
7972.9722 -173.33688 8815.9209 1704193
7740.4878 -167.18352 8502.96 2689543
8175.5996 -175.43556 8922.6592 3740692
7809.9121 -166.50809 8468.6074 4858146
8072.7188 -171.0087 8697.5088 3476494
7975.3286 -167.87036 8537.8926 1900544
8026.0894 -167.87036 8537.8926 2887182
8076.8496 -167.87036 8537.8926 1769472
7982.3887 -164.87091 8385.3408 2229510
8032.2412 -164.87091 8385.3408 2427405
8737.6465 -178.24385 9065.4893 1638659
8425.7588 -170.82779 8688.3076 2625297
0 0 0 0
0 0 0 0
0 0 0 0
0 0 0 0
-6927.2021 -105.22603 7671.4795 3072
-6881.5928 -105.22603 7671.4795 69120
-6803.7002 -104.72909 7635.25 68864
-6700.0078 -103.82566 7569.3862 463363
-6660.0405 -103.90422 7575.1133 397571
-6548.7954 -102.86425 7499.2944 265730
-6506.8276 -102.90565 7502.3125 924425
-6462.2241 -102.90565 7502.3125 199682
-6490.2573 -104.07037 7587.2261 2304
-6320.502 -102.05768 7440.4917 463876
-6528.4907 -106.15907 7739.5029 529413
-6519.9258 -106.77235 7784.2134 858885
-6436.4639 -106.15907 7739.5029 1714193
-6381.1001 -106.00375 7728.1787 1253645
-6322.5293 -105.7925 7712.7778 332544
-6282.1978 -105.88559 7719.5649 200704
-6436.8896 -109.29133 7967.8599 1187852
-6402.1538 -109.50746 7983.6162 332033
-6368.6841 -109.74863 8001.1987 464387
-6308.8359 -109.53544 7985.6562 134400
-6412.6997 -112.18299 8178.6748 924424
-6391.6377 -112.66885 8214.0967 200448
-6537.3589 -116.1248 8466.0518 3072
-6293.1216 -112.6537 8212.9922 1280
-5936.8354 -107.10683 7808.5996 67328
-6295.5264 -114.47315 8345.6387 1187597
-6408.8018 -117.4586 8563.292 1187596
-6293.3662 -116.26655 8476.3857 1056009
-6407.8101 -119.33643 8700.1943 529154
-6354.7305 -119.31098 8698.3398 595715
-6143.043 -116.28281 8477.5723 464128
-6308.9048 -120.41039 8778.4912 924934
-6385.4067 -122.88705 8959.0527 2175511
-5971.0737 -115.87984 8448.1934 1254153
-6009.7163 -117.61915 8574.9971 793603
-6065.5103 -119.72677 8728.6523 1385739
-5914.1777 -117.74702 8584.3203 330497
-5863.1416 -117.74702 8584.3203 1254409
-5757.2153 -116.63502 8503.249 990724
-5622.4067 -114.91299 8377.7051 990979
-5650.0269 -116.50964 8494.1084 1319944
-5705.6582 -118.71791 8655.1016 727553
-5426.874 -113.94486 8307.124 727555
-5318.7593 -112.70049 8216.4033 1384717
-5468.7388 -116.95255 8526.3994 2048
-5503.8101 -118.80383 8661.3652 793089
-5452.3159 -118.80383 8661.3652 595457
-5311.9141 -116.84809 8518.7832 793091
-5353.542 -118.89743 8668.1895 529921
-5420.915 -121.56393 8862.5908 68608
-5108.8135 -115.68954 8434.3193 67840
-5249.5635 -120.05521 8752.5977 132864
-5008.5249 -115.68954 8434.3193 858119
-4992.6445 -116.489 8492.6035 265984
-5300.3262 -124.9313 9108.0879 67584
-5344.5103 -127.27301 9278.8096 199936
-5192.0259 -124.9313 9108.0879 67840
-5092.043 -123.81684 9026.8389 990210
-5025.1968 -123.49297 9003.2266 396545
-5047.3838 -125.37365 9140.3369 265984
-4993.042 -125.37365 9140.3369 1648653
-5132.8628 -130.30264 9499.6846 266496
-5076.3843 -130.30264 9499.6846 2504474
-4801.3452 -124.62942 9086.0791 2306584
-4747.3257 -124.62942 9086.0791 2048
-4922.6743 -130.7202 9530.127 69120
-4789.8081 -128.673 9380.875 2048
-4734.0361 -128.673 9380.875 2304
-4678.2642 -128.673 9380.875 792324
-4687.791 -130.49068 9513.3926 1024
-4508.1309 -127.02216 9260.5215 3328
-4451.2949 -126.97141 9256.8213 2560
-4398.0181 -127.02216 9260.5215 660993
-4480.436 -131.043 9553.6592 397568
-4550.9414 -134.81418 9828.5967 1280
-4444.2544 -133.36615 9723.0293 134912
-4385.4849 -133.33687 9720.8936 530177
-4332.6577 -133.48988 9732.0488 265984
-4279.1138 -133.62465 9741.874 1518853
-4431.2646 -140.27452 10226.682 1584388
-4423.2236 -141.96788 10350.136 1978893
-4325.1724 -140.77931 10263.483 1385989
-4207.8779 -138.9214 10128.033 398592
-4137.666 -138.58653 10103.619 792835
-4023.9631 -136.76366 9970.7236 265217
-4090.6045 -141.10733 10287.397 1280
-4029.4429 -141.10733 10287.397 462594
-4181.9526 -148.7052 10841.319 768
-4013.0959 -144.93469 10566.431 768
-3815.6172 -139.99411 10206.238 768
-3699.9536 -137.94412 10056.785 768
-3701.687 -140.27557 10226.759 1280
-3640.8857 -140.27557 10226.759 1792
-3580.085 -140.27557 10226.759 134400
-3530.8127 -140.73509 10260.26 68864
-3469.8127 -140.73509 10260.26 2560
-3479.3806 -143.64854 10472.664 1319942
-3417.1174 -143.64854 10472.664 1977619
-3354.8547 -143.64854 10472.664 1792
-3343.2905 -145.86041 10633.92 1024
-3278.6145 -145.79573 10629.205 1024
-3239.4026 -146.88315 10708.481 1024
-3123.4375 -144.46417 10532.127 1713428
-3125.4607 -147.51501 10754.548 2304
-3047.606 -146.8445 10705.664 199168
-2947.9866 -145.0743 10576.608 1280
-2885.1055 -145.0743 10576.608 595200
-2883.4456 -148.2213 10806.04 397568
-2859.8333 -150.3576 10961.786 200704
-2772.8723 -149.18526 10876.316 265984
-2642.3994 -145.56001 10612.02 332544
-2563.3628 -144.66017 10546.416 924674
-2516.2166 -145.56001 10612.02 990469
-2469.3621 -146.52345 10682.259 68096
-2405.853 -146.52345 10682.259 1280
-2273.8574 -142.23932 10369.925 1122055
-2359.282 -151.696 11059.361 1516812
-2221.0193 -146.89999 10709.711 1280
-2166.9888 -147.55653 10757.575 134400
-2172.9751 -152.464 11115.354 792577
-2048.8276 -148.26225 10809.026 792577
-1984.5649 -148.26225 10809.026 989701
-1924.2491 -148.567 10831.243 332032
-1895.4266 -151.40854 11038.405 2304
-1846.0868 -152.75618 11136.654 134912
-1746.7761 -149.91539 10929.547 1122563
-1645.8649 -146.71242 10696.035 925440
-1605.5454 -148.87021 10853.349 1978636
-1589.1647 -153.52129 11192.435 1255174
-1580.5571 -159.36266 11618.298 1320196
-1408.6732 -148.52293 10828.03 727557
-1320.6333 -145.90842 10637.42 69120
-1296.2477 -150.41737 10966.145 1536
-1258.4285 -153.76254 11210.023 1024
-1202.205 -155.10733 11308.064 768
-1152.7548 -157.53711 11485.206 396800
-1067.7854 -155.1131 11308.485 857607
-973.50476 -150.91982 11002.775 528642
-907.42688 -150.80959 10994.738 1186571
-858.82465 -153.81204 11213.632 1024
-810.43909 -157.36195 11472.438 2560
-740.95319 -157.09079 11452.668 990213
-687.02185 -160.39619 11693.647 661248
-597.0105 -155.07407 11305.639 530176
-510.28778 -149.36409 10889.354 3096862
-445.54752 -149.36409 10889.354 1123334
-382.62549 -150.07724 10941.347 1057541
-321.51746 -151.9398 11077.136 266240
-234.50133 -139.36467 10160.35 266240
0 0 0 0
0 0 0 0
-31.403059 -82.136421 5988.1372 528645
4.0848937 -79.921829 5826.6826 66304
39.799225 -82.136421 5988.1372 856587
78.023102 -84.993462 6196.4287 1120271
131.57637 -97.360954 7098.0781 265220
245.29254 -137.42899 10019.229 2043420
313.81296 -141.46509 10313.479 596231
387.62054 -146.1756 10656.898 1320466
501.86087 -162.668 11859.272 925197
572.36755 -162.668 11859.272 333573
636.90399 -161.15732 11749.138 68097
703.16217 -160.33789 11689.396 1649433
785.93396 -163.09264 11890.231 1912861
878.5517 -167.26733 12194.586 2816
947.51434 -166.64516 12149.227 729096
1037.0178 -169.46786 12355.016 795403
1370.5983 -209.16548 15249.161 1783574
1435.7455 -205.5135 14982.914 1322766
1331.8162 -179.50029 13086.428 137216
1409.6187 -179.50029 13086.428 730887
1384.2977 -167.05548 12179.142 532996
1639.6331 -188.0336 13708.546 2571300
1721.1342 -188.0336 13708.546 1280
1732.1886 -180.68527 13172.818 1280
1810.5046 -180.68527 13172.818 1024
1905.1721 -182.24944 13286.854 67841
2122.2048 -194.92856 14211.222 397063
2063.1599 -182.24944 13286.854 67073
2040.7422 -173.62155 12657.84 2049
2122.5925 -174.16277 12697.296 989969
2268.3281 -179.72868 13103.079 726541
2346.2297 -179.72868 13103.079 1254166
2331.5601 -172.86534 12602.708 2769196
2432.594 -174.74072 12739.432 3558709
2263.1091 -157.65739 11493.976 3098926
2310.9744 -156.27318 11393.061 3163696
0 0 0 0
0 0 0 0
0 0 0 0
0 0 0 0
0 0 0 0
0 0 0 0
0 0 0 0
0 0 0 0
0 0 0 0
0 0 0 0
0 0 0 0
0 0 0 0
554.60016 -27.155994 1979.8015 264715
566.37061 -27.155994 1979.8015 514
577.61743 -27.131399 1978.0084 768
580.25 -26.711235 1947.3766 4808520
0 0 0 0
0 0 0 0
0 0 0 0
0 0 0 0
0 0 0 0
0 0 0 0
0 0 0 0
0 0 0 0
0 0 0 0
0 0 0 0
0 0 0 0
0 0 0 0
0 0 0 0
612.37854 -22.034967 1606.4542 198668
628.77155 -22.277384 1624.1276 198417
631.25073 -22.02696 1605.8705 528154
628.8161 -21.615089 1575.8431 2897472
658.03827 -22.287514 1624.8661 4476248
667.69855 -22.287514 1624.8661 263430
677.35883 -22.287514 1624.8661 3355969
694.11646 -22.517757 1641.652 2631729
725.92993 -23.223272 1693.0873 2039846
739.43988 -23.331944 1701.01 4
0 0 0 0
0 0 0 0
0 0 0 0
0 0 0 0
0 0 0 0
0 0 0 0
0 0 0 0
0 0 0 0
924.14838 -25.964241 1892.917 987408
904.95221 -25.119028 1831.2969 461064
0 0 0 0
0 0 0 0
0 0 0 0
1005.0979 -26.617836 1940.5671 987664
1008.3432 -26.400734 1924.7394 921615
0 0 0 0
0 0 0 0
0 0 0 0
0 0 0 0
0 0 0 0
0 0 0 0
1039.5311 -25.214302 1838.243 987154
1050.5875 -25.217365 1838.4663 724240
969.91998 -23.041374 1679.8262 1514014
976.99066 -22.972801 1674.8268 2699577
991.89508 -23.087954 1683.2219 3489611
1050.6086 -24.210348 1765.0498 3227211
1060.8075 -24.203621 1764.5593 3291975
0 0 0 0
0 0 0 0
0 0 0 0
0 0 0 0
0 0 0 0
0 0 0 0
7820.4771 -166.8812 12166.436 2437663
8633.3643 -182.53908 13307.97 2634786
7182.814 -150.49028 10971.46 2832162
7248.042 -150.49028 10971.46 4344376
8036.7241 -165.3773 12056.794 1515025
8383.5537 -170.98917 12465.926 1712150
9493.8525 -191.93779 13993.181 2040605
11082.977 -222.11882 16193.521 1317141
11217.169 -222.87221 16248.446 922127
9150.9551 -180.26646 13142.285 2106655
8970.3301 -175.21227 12773.81 856844
9057.8096 -175.4357 12790.1 2633768
9133.8506 -175.4357 12790.1 2699817
8432.9639 -160.63631 11711.153 1712410
10146.027 -191.68515 13974.762 2041375
10317.412 -193.33984 14095.397 330245
10056.312 -186.92877 13627.999 66048
8318.084 -153.38246 11182.312 131585
7744.3618 -141.67091 10328.485 328192
7915.1846 -143.65678 10473.265 1050886
8031.0454 -144.6219 10543.627 2363407
8015.3662 -143.22168 10441.543 2625293
7923.0435 -140.48398 10241.952 2757136
7478.752 -131.59486 9593.8936 1376512
6833.667 -119.33393 8700.0127 1376770
6884.0156 -119.31009 8698.2744 786432
7685.769 -132.21246 9638.9189 1312007
7743.0747 -132.21246 9638.9189 1114882
7506.228 -127.22672 9275.4346 918018
0 0 0 0
0 0 0 0
7171.0288 -118.9242 8670.1416 1180164
7222.5752 -118.9242 8670.1416 1837578
8136.7681 -133.02757 9698.3438 2297103
7950.0381 -129.06017 9409.1016 1836808
7926.8887 -127.78521 9316.1514 1902345
7982.2754 -127.78521 9316.1514 1968138
7734.5537 -122.96629 8964.8291 1902858
7467.0981 -117.90174 8595.5996 1442306
7640.394 -119.81798 8735.3027 1573893
7692.3271 -119.81798 8735.3027 1508100
7595.7383 -117.52006 8567.7734 1639686
7623.3496 -117.16156 8541.6367 1376770
7970.625 -121.68814 8871.6465 1836809
7930.0693 -120.27309 8768.4824 1967364
7740.4878 -116.63104 8502.96 2689544
7792.1748 -116.64802 8504.1973 3674641
7809.9121 -116.15986 8468.6074 4595230
8072.7188 -119.29958 8697.5088 3607822
8038.2021 -118.03345 8605.2012 2031616
8089.3628 -118.03345 8605.2012 3149585
8076.8496 -117.11021 8537.8926 1638400
8000.0273 -115.27189 8403.8701 2163974
8049.9907 -115.27189 8403.8701 2493198
8799.8359 -125.23203 9130.0127 1638659
7925.5293 -112.09815 8172.4902 2559504
0 0 0 0
0 0 0 0
0 0 0 0
0 0 0 0
-6927.2021 -59.616947 7671.4795 463875
-7055.8022 -61.126163 7865.6846 200449
-7009.0381 -61.126163 7865.6846 397314
-6705.0767 -58.868061 7575.1133 1280
-6660.0405 -58.868061 7575.1133 331266
-6470.9189 -57.585819 7410.1152 331521
-6429.9575 -57.613544 7413.6821 857610
-6385.8813 -57.613544 7413.6821 1187084
-6341.8047 -57.613544 7413.6821 397825
-6445.1489 -58.962193 7587.2261 1187594
-6536.7725 -60.221874 7749.3208 332032
-6482.4775 -60.145576 7739.5029 990215
-6436.4639 -60.145576 7739.5029 332289
-6381.1001 -60.057571 7728.1787 464130
-6322.5293 -59.937885 7712.7778 595971
-6282.1978 -59.990635 7719.5649 1253644
-6352.8965 -61.112213 7863.8892 793354
-6389.5186 -61.920189 7967.8599 1582101
-6354.689 -62.042637 7983.6162 595718
-6308.8359 -62.058495 7985.6562 462596
-6261.3589 -62.058495 7985.6562 199936
-6375.854 -63.676121 8193.8115 792841
-6537.3589 -65.791763 8466.0518 68096
-6298.0356 -63.875015 8219.4053 1648148
-6231.6201 -63.695641 8196.3232 68352
-6374.502 -65.669601 8450.332 661253
-6408.8018 -66.54744 8563.292 463619
-6177.0703 -64.654808 8319.749 1187595
-6407.8101 -67.611343 8700.1943 68608
-6371.5928 -67.776299 8721.4209 398336
-6217.4385 -66.679153 8580.2402 1319180
-6308.9048 -68.219803 8778.4912 398336
-6385.4067 -69.622993 8959.0527 398592
-6331.3418 -69.614189 8957.9199 135424
-6009.7163 -66.638405 8574.9971 925189
-6073.9028 -67.926361 8740.7305 1385739
-5907.7549 -66.638405 8574.9971 1846545
-5730.2139 -65.198402 8389.6982 1319691
-5680.335 -65.198402 8389.6982 662016
-5808.5718 -67.26091 8655.1016 398336
-5698.3662 -66.574547 8566.7803 924679
-5705.6582 -67.26091 8655.1016 463873
-5426.874 -64.556702 8307.124 68864
-5377.4858 -64.556702 8307.124 265472
-5468.7388 -66.260742 8526.3994 463360
-5385.2515 -65.859665 8474.7891 332032
-5456.6118 -67.362625 8668.1895 1536
-5405.0771 -67.362625 8668.1895 134144
-5381.1226 -67.709663 8712.8457 199168
-5353.4053 -68.015648 8752.2197 1024
-5108.8135 -65.545158 8434.3193 1024
-5297.0825 -68.634285 8831.8262 1187084
-5008.5249 -65.545158 8434.3193 923911
-5192.0669 -68.634285 8831.8262 265984
-5351.4683 -71.464142 9195.9707 1280
-5344.5103 -72.107903 9278.8096 1280
-5193.897 -70.806694 9111.3701 1536
-5078.7236 -69.966286 9003.2266 265472
-5025.1968 -69.966286 9003.2266 727298
-5044.6387 -70.993164 9135.3652 1451529
-4993.042 -71.031799 9140.3369 727297
-4936.0137 -70.993164 9135.3652 1253893
-4812.5376 -69.987335 9005.9355 859139
-4562.2114 -67.093369 8633.542 924677
-5060.1479 -75.262962 9684.8008 1280
-4993.7568 -75.130386 9667.7412 1536
-4809.3257 -73.198135 9419.1006 1187594
-4692.8521 -72.266876 9299.2656 989702
-4697.3271 -73.198135 9419.1006 133632
-4733.6089 -74.653496 9606.375 266241
-4508.1309 -71.965782 9260.5215 68864
-4451.2949 -71.937027 9256.8213 68864
-4398.0181 -71.965782 9260.5215 332800
-4460.5239 -73.913864 9511.2002 398336
-4449.8403 -74.683617 9610.251 1516811
-4444.2544 -75.560043 9723.0293 464385
-4434.2119 -76.382812 9828.9023 3072
-4375.7764 -76.382812 9828.9023 136448
-4279.1138 -75.70649 9741.874 1518598
-4263.8506 -76.471504 9840.3154 1255681
-4371.2769 -79.488823 10228.583 2176781
-4310.4648 -79.488823 10228.583 2833945
-4196.417 -78.493057 10100.448 69120
-4109.8164 -77.98922 10035.614 68608
-4023.9631 -77.48494 9970.7236 67840
-4050.1187 -79.15464 10185.58 529411
-4033.2087 -80.020599 10297.012 463363
-4075.9163 -82.114319 10566.431 1024
-3982.7332 -81.49305 10486.485 512
-3815.6172 -79.315178 10206.238 768
-3752.1777 -79.256874 10198.735 512
-3694.2593 -79.315178 10206.238 768
-3638.332 -79.4189 10219.585 1280
-3580.085 -79.474655 10226.759 265472
-3500.1355 -79.042221 10171.114 727296
-3439.6653 -79.042221 10171.114 67840
-3379.1951 -79.042221 10171.114 727297
-3453.7366 -82.257797 10584.893 1122056
-3390.8062 -82.257797 10584.893 1648657
-3343.2905 -82.638802 10633.92 1024
-3280.0688 -82.638802 10633.92 1536
-3206.3889 -82.370132 10599.349 1280
-3087.8062 -80.91404 10411.979 1280
-3112.0728 -83.218231 10708.481 768
-3006.5725 -82.076172 10561.521 1280
-2939.8147 -81.965576 10547.29 2048
-2875.9883 -81.933678 10543.185 397056
-2815.2075 -81.989052 10550.311 265984
-2807.6182 -83.631378 10761.645 266752
-2688.7654 -81.958786 10546.416 398592
-2642.3994 -82.468605 10612.02 990980
-2563.3628 -81.958786 10546.416 925189
-2576.2056 -84.434731 10865.02 1253130
-2469.3621 -83.01445 10682.259 3072
-2405.853 -83.01445 10682.259 200960
-2340.4106 -82.94593 10673.441 398081
-2403.7739 -87.565781 11267.922 1056260
-2230.9456 -83.599754 10757.575 661504
-2192.5215 -84.584778 10884.327 3072
-2172.9751 -86.380142 11115.354 331776
-2088.4482 -85.624001 11018.054 463616
-1979.1462 -83.770241 10779.513 660993
-1945.202 -85.088783 10949.183 727040
-1912.2972 -86.54567 11136.654 264704
-1852.3049 -86.837181 11174.166 924163
-1771.4396 -86.135445 11083.866 266240
-1644.2308 -83.038986 10685.416 2175249
-1625.3323 -85.383492 10987.105 1123329
-1610.8401 -88.165504 11345.094 3031833
-1580.5571 -90.288643 11618.298 2701848
-1383.4419 -82.640083 10634.085 2560
-1318.7714 -82.549446 10622.422 67584
-1255.618 -82.549446 10622.422 1024
-1245.2462 -86.203278 11092.596 1024
-1204.2858 -88.029846 11327.638 133889
-1154.2662 -89.371376 11500.265 768
-1077.1459 -88.651398 11407.618 66816
-972.79364 -85.442802 10994.738 1536
-897.21869 -84.481613 10871.052 462593
-877.13184 -89.001488 11452.668 529408
-809.66461 -89.069931 11461.475 529664
-741.52301 -89.069931 11461.475 989958
-687.02185 -90.874199 11693.647 791557
-607.38062 -89.38501 11502.019 595970
-521.34589 -86.457664 11125.33 859650
-450.28891 -85.524384 11005.235 1189379
-384.85971 -85.524384 11005.235 1518344
-321.51746 -86.083138 11077.136 1122820
-234.50133 -78.958565 10160.35 530176
0 0 0 0
0 0 0 0
-32.338779 -47.921898 6166.5664 396803
4.3231745 -47.921898 6166.5664 461830
40.98513 -47.921898 6166.5664 790794
88.300781 -54.497105 7012.6606 593416
136.1821 -57.09177 7346.541 989196
184.14728 -58.452869 7521.686 1845272
223.53656 -57.09177 7346.541 1792
363.54797 -77.674126 9995.0684 1054735
501.86087 -92.161316 11859.272 465414
567.05212 -91.305428 11749.138 68097
633.66553 -90.841164 11689.396 2304
703.16217 -90.841164 11689.396 398854
772.65894 -90.841164 11689.396 3072
818.85712 -88.328011 11366.005 267778
905.94891 -90.27285 11616.266 992780
1019.7449 -94.414619 12149.227 531717
1346.668 -116.4359 14982.914 1585939
1316.0996 -106.73288 13734.334 1191437
1377.9698 -105.22215 13539.934 2560
1472.4712 -106.23237 13669.93 1849110
1553.7428 -106.23237 13669.93 1585680
1456.7062 -94.647095 12179.142 1782550
1721.1342 -106.53247 13708.546 1280
1732.1886 -102.3692 13172.818 2048
1810.5046 -102.3692 13172.818 1024
1888.8207 -102.3692 13172.818 67586
2052.2925 -106.80067 13743.059 768
2024.8286 -101.33701 13039.997 1024
2071.8987 -99.868973 12851.09 1024
2206.8345 -102.58998 13201.229 662024
2300.2859 -103.26184 13287.684 3032618
2379.2847 -103.26184 13287.684 3692334
2458.2837 -103.26184 13287.684 2245655
2432.594 -99.001251 12739.432 5335363
2263.1091 -89.322502 11493.976 1024
2145.5808 -82.201691 10577.673 1536
0 0 0 0
0 0 0 0
0 0 0 0
0 0 0 0
0 0 0 0
0 0 0 0
0 0 0 0
0 0 0 0
0 0 0 0
0 0 0 0
0 0 0 0
0 0 0 0
554.60016 -15.385523 1979.8015 395789
561.1889 -15.244761 1961.6885 514
577.61743 -15.371589 1978.0084 512
582.78577 -15.199675 1955.8867 924689
563.7489 -14.415541 1854.9847 1188626
0 0 0 0
0 0 0 0
0 0 0 0
0 0 0 0
0 0 0 0
0 0 0 0
0 0 0 0
0 0 0 0
0 0 0 0
0 0 0 0
0 0 0 0
0 0 0 0
612.37854 -12.48415 1606.4542 198412
624.28723 -12.53148 1612.5446 132880
619.94989 -12.2562 1577.1217 528153
627.89832 -12.22839 1573.5431 2700093
657.66998 -12.620167 1623.9568 4409941
666.9704 -12.613462 1623.0941 328967
676.62012 -12.613462 1623.0941 3355968
692.95343 -12.736304 1638.9014 2697778
708.34442 -12.83866 1652.0725 2236968
735.99585 -13.157396 1693.0873 5
0 0 0 0
0 0 0 0
0 0 0 0
0 0 0 0
0 0 0 0
0 0 0 0
0 0 0 0
921.93207 -14.855954 1911.6569 1316374
924.14838 -14.710322 1892.917 856078
904.95221 -14.231457 1831.2969 987408
0 0 0 0
0 0 0 0
0 0 0 0
1013.6458 -15.208877 1957.0708 526600
1008.3432 -14.957623 1924.7394 658443
0 0 0 0
0 0 0 0
0 0 0 0
0 0 0 0
0 0 0 0
0 0 0 0
0 0 0 0
1047.752 -14.24861 1833.5042 855568
967.03333 -13.015491 1674.8268 658448
976.99066 -13.015491 1674.8268 2961980
1039.8259 -13.712824 1764.5593 3554377
1054.0795 -13.76195 1770.8809 3357258
1060.8075 -13.712824 1764.5593 3357514
0 0 0 0
0 0 0 0
0 0 0 0
0 0 0 0
0 0 0 0
0 0 0 0
0 0 0 0
0 0 0 0
6785.4248 -80.544792 10364.464 791048
6847.0439 -80.544792 10364.464 3093806
7424.0742 -86.553711 11137.688 1316625
8108.4053 -93.696304 12056.794 1053453
10986.702 -125.84383 16193.521 1184528
11092.442 -125.9513 16207.352 1646106
11179.252 -125.84383 16193.521 856590
9315.3799 -103.96703 13378.427 1580313
8970.3301 -99.268402 12773.81 856590
9046.2734 -99.268402 12773.81 724747
9176.2393 -99.85627 12849.456 527625
9209.8916 -99.394997 12790.1 1580313
10146.027 -108.6013 13974.762 593162
10317.412 -109.5388 14095.397 856590
9606.9014 -101.1736 13018.97 592648
8318.084 -86.90049 11182.312 263170
8192.707 -84.911995 10926.434 460289
7947.0024 -81.717476 10515.365 1379335
8009.519 -81.717476 10515.365 2166285
7960.9326 -80.592728 10370.633 2625294
7923.0435 -79.59272 10241.952 2822671
7569.3306 -75.459488 9710.0898 1573120
6784.4839 -67.123337 8637.3975 1442562
6835.8354 -67.123337 8637.3975 983040
7399.208 -72.113541 9279.5352 1246213
7582.0112 -73.348274 9438.4199 983554
7638.126 -73.348274 9438.4199 1049090
0 0 0 0
7435.8701 -70.372047 9055.4404 1245699
6862.5693 -64.479561 8297.1982 1311491
6911.8979 -64.479561 8297.1982 1442820
7789.9004 -72.155289 9284.9072 2231565
7950.0381 -73.12043 9409.1016 1771013
7755.0049 -70.828239 9114.1436 1836550
7970.8032 -72.294052 9302.7627 1836550
7415.9937 -66.798508 8595.5986 2099981
7467.0972 -66.798508 8595.5986 1639173
7518.2012 -66.798508 8595.5996 1968395
7414.2993 -65.430603 8419.5781 1508100
7464.3564 -65.430603 8419.5781 1771015
7514.4126 -65.430603 8419.5781 1376770
7773.3027 -67.236961 8652.0186 2034188
7770.2441 -66.768661 8591.7588 1835522
7709.2158 -65.811623 8468.6074 2360579
7791.0405 -66.07859 8502.96 3412497
7809.9121 -65.811623 8468.6074 4333084
8665.8359 -72.556465 9336.5303 4134935
8146.9019 -67.777443 8721.5684 2228481
8089.3628 -66.873131 8605.2012 2952973
8250.6064 -67.777443 8721.5684 1900801
8065.1782 -65.840393 8472.3096 2295302
8553.3096 -69.391899 8929.3154 2689806
8799.8359 -70.951569 9130.0127 1769730
7641.9688 -61.238136 7880.0938 2690833
0 0 0 0
0 0 0 0
0 0 0 0
0 0 0 0
0 0 0 0
-6881.5928 -14.007867 7671.4795 134401
-7009.0381 -14.362479 7865.6846 1280
-6700.0078 -13.821448 7569.3862 332289
-6655.0054 -13.821448 7569.3862 265472
-6527.729 -13.649414 7475.1709 1187085
-6483.2876 -13.649414 7475.1709 133376
-6494.834 -13.768102 7540.1709 397569
-6463.752 -13.797445 7556.2407 1451024
-6418.8281 -13.797445 7556.2407 332033
-6528.4907 -14.132076 7739.5029 793094
-6478.8135 -14.124088 7735.1284 1384974
-6427.0464 -14.111399 7728.1787 463617
-6368.3838 -14.083277 7712.7778 858883
-6328.0928 -14.09567 7719.5649 924678
-6340.145 -14.225688 7790.7705 1385484
-6436.8896 -14.549048 7967.8599 924678
-6402.1538 -14.577818 7983.6162 1582863
-6420.1807 -14.728058 8065.8955 595204
-6372.2266 -14.728058 8065.8955 133633
-6482.2861 -15.096043 8267.4248 198913
-6375.854 -14.961628 8193.8115 595206
-6383.9824 -15.096043 8267.4248 1056266
-6298.0356 -15.008362 8219.4053 1319440
-6300.2212 -15.13097 8286.5527 332802
-6275.9961 -15.191586 8319.749 924167
-6408.8018 -15.636287 8563.292 331521
-6177.0703 -15.191586 8319.749 1845523
-6309.8384 -15.643373 8567.1729 265472
-6268.4502 -15.667233 8580.2402 1451021
-6217.4385 -15.667233 8580.2402 398081
-6166.4268 -15.667233 8580.2402 793346
-6256.7144 -16.029234 8778.4912 1385225
-6204.5239 -16.029234 8778.4912 1385224
-6009.7163 -15.65766 8574.9971 332544
-6101.0273 -16.031557 8779.7637 661505
-6048.8286 -16.031557 8779.7637 2304
-5788.4902 -15.475108 8475.0215 68352
-5738.1035 -15.475108 8475.0215 398080
-5861.8071 -15.948772 8734.4258 69120
-5757.1147 -15.803928 8655.1016 1319944
-5705.6582 -15.803928 8655.1016 1714447
-5561.3799 -15.544486 8513.0166 67584
-5519.4307 -15.568922 8526.3994 1280
-5468.7388 -15.568922 8526.3994 1024
-5385.2515 -15.474685 8474.7891 397314
-5596.8965 -16.234747 8891.041 1536
-5544.0366 -16.234747 8891.041 1024
-5491.1768 -16.234747 8891.041 768
-5436.8677 -16.230419 8888.6709 768
-5301.3711 -15.981262 8752.2197 768
-5331.1763 -16.230419 8888.6709 768
-5244.5747 -16.126621 8831.8262 265472
-5253.0728 -16.316107 8935.5986 2048
-5351.4683 -16.791536 9195.9707 2304
-5142.2295 -16.301542 8927.6221 595202
-4911.394 -15.732148 8615.791 266240
-4985.4028 -16.13752 8837.7939 199936
-4934.5601 -16.143082 8840.8408 792576
-5044.6387 -16.680874 9135.3652 660738
-4998.5107 -16.708231 9150.3477 265216
-4936.0137 -16.680874 9135.3652 134400
-4889.7075 -16.708231 9150.3477 331008
-4568.874 -15.787583 8646.1504 727299
-5185.4805 -18.122135 9924.6797 2048
-5047.8975 -17.84436 9772.5547 1280
-4936.2798 -17.652975 9667.7412 1280
-4753.3267 -17.198965 9419.1006 132864
-4697.3271 -17.198965 9419.1006 463616
-4733.6089 -17.540922 9606.375 68096
-4566.2378 -17.127357 9379.8838 726786
-4434.2944 -16.838093 9221.4668 133632
-4428.7319 -17.027493 9325.1934 200448
-4480.436 -17.444664 9553.6592 134912
-4447.6548 -17.539377 9605.5293 859139
-4444.2544 -17.753929 9723.0293 661506
-4495.5566 -18.195539 9964.8799 68352
-4332.6577 -17.770397 9732.0488 2816
-4233.1187 -17.597139 9637.1621 464640
-4263.8506 -17.96809 9840.3154 597760
-4235.8643 -18.09848 9911.7246 2505492
-4248.8218 -18.409956 10082.306 1189124
-4169.481 -18.324699 10035.614 1385737
-4113.8184 -18.342543 10045.387 332032
-4121.0747 -18.645588 10211.351 134400
-4050.1187 -18.598532 10185.58 792580
-4029.4429 -18.784447 10287.397 332289
-3983.5291 -18.856621 10326.925 133632
-3918.2966 -18.838181 10316.825 463360
-3744.4285 -18.288551 10015.818 462849
-3752.1777 -18.622553 10198.735 1450762
-3694.2593 -18.636253 10206.238 661249
-3707.7502 -19.016663 10414.571 990978
-3635.3137 -18.961794 10384.522 990723
-3530.8127 -18.734894 10260.26 924675
-3469.8127 -18.734894 10260.26 266496
-3467.0005 -19.054697 10435.401 134912
-3453.7366 -19.327663 10584.893 464384
-3398.5625 -19.371872 10609.104 1121803
-3446.1682 -20.014679 10961.141 199680
-3366.158 -19.926809 10913.019 1280
-3195.8584 -19.290495 10564.537 1024
-3094.6326 -19.053959 10434.997 1024
-3060.8213 -19.231316 10532.127 768
-3003.3931 -19.264593 10550.353 1024
-2892.877 -18.951508 10378.89 1280
-2841.7898 -19.022585 10417.815 331008
-2813.3062 -19.251505 10543.185 199680
-2757.4043 -19.298962 10569.174 1280
-2666.1096 -19.09514 10457.551 792833
-2608.0544 -19.125338 10474.088 1846540
-2587.9475 -19.442099 10647.564 201472
-2576.2056 -19.839167 10865.02 2372885
-2524.9609 -19.944624 10922.774 332032
-2488.4604 -20.17519 11049.045 397568
-2422.5911 -20.173695 11048.226 529665
-2359.282 -20.194027 11059.361 1714445
-2257.2317 -19.87442 10884.327 858625
-2265.833 -20.538963 11248.268 1536
-2160.1406 -20.17639 11049.702 199680
-2094.4473 -20.17639 11049.702 199936
-2008.5391 -19.975351 10939.603 200448
-1945.202 -19.992846 10949.183 67328
-1912.2972 -20.335161 11136.654 67584
-1852.3049 -20.403656 11174.166 2304
-1771.4396 -20.238773 11083.866 529664
-1690.6538 -20.06209 10987.105 1319683
-1625.3323 -20.06209 10987.105 1780487
-1589.1647 -20.437016 11192.435 1846536
-1543.3904 -20.715765 11345.094 1780236
-1383.4419 -19.417486 10634.085 265473
-1320.2192 -19.417486 10634.085 2560
-1256.9967 -19.417486 10634.085 1280
-1247.5576 -20.292311 11113.187 1280
-1212.7888 -20.829933 11407.618 1024
-1152.7548 -20.971605 11485.206 1536
-1067.7457 -20.648151 11308.064 768
-972.79364 -20.076027 10994.738 199680
-904.84882 -20.01899 10963.501 594434
-854.18127 -20.365015 11153.004 134144
-809.04248 -20.912191 11452.668 529408
-741.52301 -20.928272 11461.475 1648399
-705.36951 -21.922445 12005.938 1024
-598.49719 -20.695127 11333.792 990980
-515.71808 -20.095194 11005.235 727809
-450.28891 -20.095194 11005.235 1978894
-384.85971 -20.095194 11005.235 202496
-321.51746 -20.226482 11077.136 1977871
-231.77603 -18.336849 10042.269 1280
0 0 0 0
0 0 0 0
-32.338779 -11.259946 6166.5664 857353
4.4275813 -11.531878 6315.4917 256
40.98513 -11.259946 6166.5664 132864
89.376328 -12.960855 7098.0781 461829
136.79945 -13.475352 7379.8447 1186063
180.67468 -13.475352 7379.8447 989966
0 0 0 0
0 0 0 0
493.33725 -21.286856 11657.854 2048
548.41608 -20.748472 11363.006 332036
605.89124 -20.408899 11177.037 1792
683.52856 -20.748472 11363.006 2560
755.44141 -20.868824 11428.917 1792
795.61359 -20.164841 11043.378 1122576
861.26953 -20.164841 11043.378 992780
934.01697 -20.319113 11127.865 1322256
1159.1301 -23.548368 12896.384 466438
1269.6281 -24.192915 13249.373 1388559
1397.7542 -25.078438 13734.334 1125642
1503.6959 -25.490149 13959.81 1322768
1553.7428 -24.960838 13669.93 3559215
1562.6945 -23.856773 13065.283 1058830
1640.3712 -23.856773 13065.283 1779994
1742.1414 -24.191334 13248.507 1536
1815.8386 -24.123995 13211.628 1024
1888.8207 -24.053129 13172.818 768
2052.2925 -25.09437 13743.059 1280
2024.8286 -23.810602 13039.997 2048
2102.355 -23.810602 13039.997 1779738
2234.9893 -24.41254 13369.651 2373921
2417.1973 -25.496025 13963.026 595717
2448.5994 -24.969704 13674.786 1979931
2458.2837 -24.262869 13287.684 3626037
2238.3464 -21.404278 11722.161 4087358
2195.2815 -20.358595 11149.488 3822652
0 0 0 0
0 0 0 0
0 0 0 0
0 0 0 0
0 0 0 0
0 0 0 0
0 0 0 0
0 0 0 0
0 0 0 0
0 0 0 0
0 0 0 0
0 0 0 0
0 0 0 0
554.60016 -3.6150517 1979.8015 198152
566.37061 -3.6150517 1979.8015 514
577.61743 -3.6117775 1978.0084 768
582.78577 -3.5713842 1955.8867 68100
558.26184 -3.3541729 1836.9299 1912608
560.3504 -3.3021231 1808.4246 2111010
0 0 0 0
0 0 0 0
0 0 0 0
0 0 0 0
0 0 0 0
0 0 0 0
0 0 0 0
0 0 0 0
0 0 0 0
0 0 0 0
0 0 0 0
614.70013 -2.9444528 1612.5446 132875
624.28723 -2.9444528 1612.5446 66832
619.94989 -2.8797719 1577.1217 528152
627.89832 -2.8732376 1573.5431 2568766
659.51099 -2.9735918 1628.5026 4344661
664.84912 -2.9542899 1617.9319 329223
675.4566 -2.9586196 1620.3031 3422017
685.08978 -2.9586196 1620.3031 3092792
706.15106 -3.0072885 1646.9568 2500396
734.50653 -3.0852652 1689.6613 65541
0 0 0 0
0 0 0 0
0 0 0 0
0 0 0 0
0 0 0 0
0 0 0 0
0 0 0 0
0 0 0 0
924.14838 -3.4564035 1892.917 790029
929.0274 -3.4328477 1880.0165 790029
0 0 0 0
0 0 0 0
0 0 0 0
1043.6676 -3.6793864 2015.0345 724236
1039.755 -3.6239941 1984.6987 658443
0 0 0 0
0 0 0 0
0 0 0 0
0 0 0 0
0 0 0 0
0 0 0 0
0 0 0 0
0 0 0 0
0 0 0 0
0 0 0 0
1027.8458 -3.1849048 1744.2294 3817549
1050.6823 -3.2231483 1765.1736 3423052
1046.6198 -3.1789339 1740.9592 3291976
0 0 0 0
0 0 0 0
0 0 0 0
0 0 0 0
0 0 0 0
0 0 0 0
0 0 0 0
0 0 0 0
0 0 0 0
5954.6172 -16.458508 9013.585 4409910
7031.0903 -19.260534 10548.13 2106646
7490.2905 -20.337049 11137.688 2172187
8783.8926 -23.640347 12946.756 1579285
11082.977 -29.568832 16193.521 1382934
10308.827 -27.266582 14932.683 856590
9884.5518 -25.921152 14195.851 461832
9175.4922 -23.858013 13065.962 461832
8779.8145 -22.637526 12397.556 790797
9176.2393 -23.462681 12849.456 790797
9252.6328 -23.462681 12849.456 725004
9470.4746 -23.818424 13044.281 593418
9529.499 -23.772207 13018.97 659211
9466.0605 -23.423698 12828.107 1052943
9014.7412 -22.128626 12118.854 658182
8384.5664 -20.418531 11182.312 722948
7915.1846 -19.123835 10473.265 1182212
7930.834 -19.012083 10412.063 2232078
7960.9326 -18.936432 10370.633 2559500
7994.4424 -18.869993 10334.248 2822415
7569.3306 -17.730303 9710.0898 1638913
7300.5898 -16.971371 9294.457 1376512
7344.0381 -16.944122 9279.5352 1048576
7766.8774 -17.786083 9740.6387 1245956
7684.9863 -17.468307 9566.6074 1048834
7741.8628 -17.468307 9566.6074 1114370
7986.9873 -17.889963 9797.5293 1443335
8045.2363 -17.889963 9797.5293 1180161
7489.707 -16.534933 9055.4404 1574402
7543.5444 -16.534933 9055.4404 4337452
7789.9004 -16.953932 9284.9072 1771783
7978.7285 -17.24271 9443.0576 1836804
7601.7808 -16.313307 8934.0654 1836806
7530.0615 -16.047274 8788.3701 1836805
7412.7314 -15.688374 8591.8174 1573380
7410.2729 -15.575838 8530.1865 1639173
7152.126 -14.931046 8177.0635 1967881
7203.688 -14.93716 8180.4106 1638917
