# .PCD v0.7 - Point Cloud Data file format
VERSION 0.7
FIELDS x y z rgb
SIZE 4 4 4 4
TYPE F F F U
COUNT 1 1 1 1
WIDTH 1500
HEIGHT 1
VIEWPOINT 0 0 0 1 0 0 0
POINTS 1500
DATA ascii
-1985.5833 1537.8467 10475.367 660224
-1931.8969 1544.7172 10522.167 462848
-1897.7676 1568.2084 10682.183 1792
-1870.886 1599.5228 10895.487 1792
-1815.1687 1607.546 10950.14 2304
-1709.762 1570.5231 10697.95 1024
-1708.2369 1629.7483 11101.374 768
-1642.2362 1629.7483 11101.374 1024
-1591.4351 1645.4639 11208.425 2816
-1474.8799 1591.5958 10841.49 1451026
-1410.4243 1591.5958 10841.49 66816
-1318.7527 1559.4131 10622.271 1280
-1267.4551 1574.1364 10722.562 1280
-1177.1119 1539.3575 10485.659 1024
-1135.3623 1567.7905 10679.336 1024
-1079.0232 1578.2522 10750.598 1280
-1021.8141 1588.6788 10821.621 1280
-957.47656 1588.6788 10821.621 529408
-894.98993 1591.9713 10844.048 660994
-834.88123 1600.3328 10901.004 67840
-749.40375 1557.3813 10608.432 595202
-679.27905 1541.3734 10499.391 529922
-623.12897 1557.045 10606.141 990468
-560.07251 1557.045 10606.141 1583118
-480.60803 1505.6423 10256 661763
-403.31146 1447.0797 9857.0889 332544
0 0 0 0
0 0 0 0
0 0 0 0
-105.95125 907.76117 6183.4067 592903
-68.079659 893.20441 6084.2505 66305
-30.014734 840.22986 5723.4028 198405
4.0124874 840.22986 5723.4028 4672586
38.779621 856.57324 5834.729 5001551
73.889709 861.48163 5868.1641 10134688
105.97269 839.26782 5716.8501 8818572
131.75827 790.08093 5381.8032 8686986
155.15816 748.60498 5099.2808 7173232
182.4826 736.52802 5017.0161 1382932
0 0 0 0
0 0 0 0
484.72281 1312.7115 8941.8115 512
537.8844 1312.7115 8941.8115 768
591.04596 1312.7115 8941.8115 330502
725.34869 1478.0541 10068.077 132611
793.91675 1494.4508 10179.767 131072
854.60004 1494.7335 10181.693 393216
1029.4003 1681.3721 11453.021 2430743
1218.1379 1866.2037 12712.041 2233364
1174.7417 1694.5836 11543.014 196608
1243.3682 1694.5836 11543.014 512
1154.99 1491.795 10161.677 1024
0 0 0 0
0 0 0 0
0 0 0 0
0 0 0 0
0 0 0 0
0 0 0 0
0 0 0 0
0 0 0 0
0 0 0 0
0 0 0 0
0 0 0 0
0 0 0 0
0 0 0 0
0 0 0 0
0 0 0 0
423.85983 298.03351 2030.1182 328963
451.66141 308.78903 2103.3816 328706
462.4722 307.6618 2095.7034 460292
470.94681 305.08038 2078.1194 460292
482.0531 304.29211 2072.75 394755
494.37619 304.29211 2072.75 65536
506.69925 304.29211 2072.75 327937
518.8277 304.17804 2071.9729 854280
527.14709 301.88782 2056.3726 788745
513.20551 287.24197 1956.6093 393986
0 0 0 0
0 0 0 0
0 0 0 0
0 0 0 0
0 0 0 0
526.42804 259.36868 1766.7445 460036
550.47522 265.91092 1811.3085 1381648
568.21722 269.21478 1833.8134 65536
575.15302 267.37079 1821.2524 65793
584.43231 266.66422 1816.4396 328705
590.75256 264.65759 1802.7711 1250065
595.17828 261.88892 1783.9115 1381652
0 0 0 0
0 0 0 0
585.40479 244.5168 1665.5779 4
594.25256 244.08366 1662.6273 5
593.00488 239.58592 1631.99 526609
601.61664 239.15228 1629.0363 1448222
612.99561 239.81494 1633.5502 1710880
617.61401 237.85335 1620.1884 1118742
633.2027 240.11198 1635.5735 2105123
653.08887 243.90726 1661.4257 2631210
668.78662 246.04848 1676.0111 1578005
695.28912 252.04359 1716.8481 2696485
721.21161 257.65799 1755.0918 3222315
729.39337 256.86465 1749.6879 3484717
739.79572 256.86465 1749.6879 3221543
743.26971 254.49242 1733.5288 4801088
765.63751 258.56577 1761.2751 5788240
765.98541 255.19305 1738.3014 4800320
776.32007 255.19305 1738.3014 2300957
792.44141 257.07025 1751.0884 3221288
807.46729 258.54803 1761.1544 2037271
814.43066 257.43942 1753.6029 1445134
821.82788 256.49423 1747.1647 524289
832.21533 256.49423 1747.1647 524801
846.34967 257.63483 1754.9341 853254
864.36163 259.91367 1770.4569 852997
871.14758 258.80261 1762.8887 787458
881.62848 258.80261 1762.8887 853251
0 0 0 0
0 0 0 0
0 0 0 0
0 0 0 0
0 0 0 0
0 0 0 0
0 0 0 0
0 0 0 0
0 0 0 0
0 0 0 0
0 0 0 0
0 0 0 0
0 0 0 0
976.56085 245.76643 1674.09 1447448
986.51379 245.76643 1674.09 1645086
996.46674 245.76643 1674.09 3684670
1048.0818 255.94028 1743.3912 2172200
1063.4657 257.1539 1751.6581 2042412
1048.7952 251.14706 1710.7413 1516580
0 0 0 0
0 0 0 0
0 0 0 0
7045.0864 1624.0366 11062.468 1900544
7186.9087 1641.4061 11180.784 9589248
7442.3716 1684.1736 11472.104 12217344
7078.1372 1587.2034 10811.57 13136384
7085.4473 1574.5438 10725.338 12740096
7084.5356 1560.2994 10628.309 12212992
6946.8779 1516.4561 10329.661 11884288
6927.5059 1498.9758 10210.591 11422720
6910.2305 1482.249 10096.652 9255424
7432.1597 1580.474 10765.732 5781507
7876.9697 1660.7622 11312.632 2369551
7546.666 1577.651 10746.502 264193
7087.5796 1469.239 10008.031 727314
7074.3022 1454.278 9906.1211 8757922
0 0 0 0
0 0 0 0
7711.1777 1546.5752 10534.823 855054
9158.3691 1822.0288 12411.134 65537
9153.4375 1806.493 12305.309 458752
8920.8867 1746.6377 11897.592 1509383
8317.5078 1615.6902 11005.614 2034182
8294.6514 1598.6738 10889.704 2296326
8345.5586 1596.028 10871.682 1901827
9204.7256 1746.8085 11898.755 2426627
8601.1318 1619.814 11033.705 2426884
8328.1299 1556.5294 10602.629 2426884
7971.3623 1478.6576 10072.188 2492677
7857.5591 1446.6799 9854.3652 2492420
7916.1465 1446.6799 9854.3652 2492677
7875.5269 1428.6831 9731.7764 2426371
7912.8242 1424.9803 9706.5547 2689543
7970.5322 1424.9803 9706.5547 2755592
8083.5376 1434.7955 9773.4121 2624263
8156.2017 1437.361 9790.8877 2755336
8199.749 1434.7955 9773.4121 2821130
8016.7759 1392.9081 9488.0879 2886925
7855.9897 1355.4343 9232.8271 2887695
7845.6367 1344.2555 9156.6797 2887696
7852.0537 1336.0841 9101.0195 2887954
7954.5146 1344.2555 9156.6797 2888213
7518.8589 1261.9958 8596.3516 3019540
7342.2881 1224.0393 8337.8027 3019538
7124.0117 1179.6858 8035.6787 3808284
7171.7856 1179.6858 8035.6787 2821901
7219.5596 1179.6858 8035.6787 2887436
8115.3438 1317.3407 8973.3447 1048576
8141.4893 1312.9537 8943.4619 852224
7791.9043 1248.4238 8503.9023 1180676
7842.4619 1248.4238 8503.9023 2299414
8831.6084 1396.8785 9515.1328 2167828
9350.0283 1469.4634 10009.561 2430232
9482.7432 1480.8959 10087.435 3021086
9624.5479 1493.595 10173.938 3481380
9685.0352 1493.595 10173.938 3547172
9745.5215 1493.595 10173.938 3481891
9365.5684 1426.5095 9716.9707 2561816
9581.541 1450.4584 9880.1035 919046
0 0 0 0
0 0 0 0
0 0 0 0
0 0 0 0
0 0 0 0
0 0 0 0
-6353.7695 1089.1669 7130.3291 989962
-6420.2695 1107.9585 7253.3501 199680
-6458.1226 1122.0271 7345.4521 1055499
-6718.6699 1175.2416 7693.8247 397314
-6694.1211 1178.974 7718.2603 66816
-6649.8472 1179.2603 7720.1338 133121
-6608.1533 1180.0109 7725.0479 1536
-6600.6123 1186.9135 7770.2368 1536
-6442.3081 1166.6123 7637.333 768
-6396.9019 1166.6123 7637.333 1024
-6317.0425 1160.2842 7595.9053 768
-6137.9429 1135.5056 7433.6899 1024
-6487.9917 1208.9689 7914.6235 397058
-6348.5688 1191.6312 7801.1216 133888
-6302.189 1191.6312 7801.1216 397058
-6255.8091 1191.6312 7801.1216 1253131
-6150.481 1180.3187 7727.063 199680
-6114.9526 1182.3315 7740.2407 2816
-5973.1294 1163.6672 7618.0522 727046
-5857.5898 1149.8771 7527.7744 1779731
-5833.0562 1153.8771 7553.9604 2560
-5938.2642 1183.8036 7749.877 331521
-6037.6343 1213.025 7941.1782 330497
-5791.3223 1172.7086 7677.2427 1280
-5745.6792 1172.7086 7677.2427 1024
-5659.9214 1164.4554 7623.2134 67840
-5718.2461 1185.9515 7763.9395 1024
-5760.2793 1204.3915 7884.6572 660485
-5748.1606 1211.7184 7932.624 133377
-5717.2988 1215.1827 7955.3037 1024
-5670.0024 1215.1827 7955.3037 1280
-5596.4766 1209.5142 7918.1934 1280
-5565.9087 1213.1121 7941.7476 1024
-5518.6929 1213.1121 7941.7476 331264
-5471.4766 1213.1121 7941.7476 133632
-5573.1299 1246.406 8159.7095 593921
-5655.9243 1276.0298 8353.6445 1121032
-5503.751 1252.6981 8200.9014 1024
-5419.6528 1244.5823 8147.77 1280
-5325.4517 1233.9789 8078.354 1280
-5237.0068 1224.5286 8016.4868 1280
-5184.0605 1223.2811 8008.3208 1536
-5190.5762 1236.1719 8092.7114 1280
-5230.6479 1257.3705 8231.4893 1024
-5202.6558 1262.4531 8264.7637 1024
-5203.3657 1274.6639 8344.7031 1024
-5153.7544 1274.6639 8344.7031 1024
-5034.5288 1257.2792 8230.8916 768
-5114.2397 1289.7214 8443.2783 768
-5064.0425 1289.7214 8443.2783 1280
-5043.061 1297.2369 8492.4785 330753
-5072.5161 1318.0093 8628.4668 527876
-5021.2173 1318.0093 8628.4668 398080
-5190.1504 1376.4141 9010.8193 2048
-5130.4038 1374.7595 8999.9873 134400
-5076.896 1374.7595 8999.9873 134144
-5023.3887 1374.7595 8999.9873 331520
-4980.8872 1377.804 9019.918 463616
-4848.0767 1355.6617 8874.9619 2304
-4795.313 1355.6617 8874.9619 1792
-4860.4546 1389.3651 9095.6045 2048
-4806.3784 1389.3651 9095.6045 200448
-4674.0112 1366.4762 8945.7598 1792
-4671.2397 1381.3845 9043.3584 1280
-4671.085 1397.4229 9148.3555 1280
-4622.4888 1399.1764 9159.835 1280
-4615.666 1413.7668 9255.3525 1280
-4524.749 1402.6409 9182.5156 1024
-4448.793 1395.9375 9138.6309 1024
-4511.144 1433.0026 9381.2812 1024
-4416.8354 1420.6088 9300.1436 1024
-4361.5435 1420.6088 9300.1436 1536
-4353.4072 1436.165 9401.9844 2304
-4313.5151 1441.514 9437.002 529920
-4257.4097 1441.514 9437.002 1517319
-4211.3491 1444.9606 9459.5645 728832
-4196.3955 1459.3181 9553.5576 2044427
-4211.1924 1484.5571 9718.7881 1583367
-4193.8848 1499.0237 9813.4941 2048
-4229.4712 1533.0709 10036.388 134912
-4028.9426 1481.2826 9697.3506 332288
-3971.2896 1481.2826 9697.3506 69120
-3965.8184 1501.0333 9826.6504 463105
-3927.5996 1508.7944 9877.459 660736
-3874.8455 1511.1227 9892.7012 265984
-3954.8218 1566.0831 10252.505 1280
-3839.6501 1544.2771 10109.75 1280
-3753.6562 1533.6995 10040.502 1280
-3703.5042 1537.6608 10066.436 463360
-3770.0422 1590.9969 10415.605 924674
-3695.9607 1585.7805 10381.456 463616
-3643.7236 1589.9188 10408.547 397569
-3580.0273 1589.1133 10403.273 1792
-3496.7925 1579.454 10340.039 464385
-3435.3179 1579.454 10340.039 1582603
-3332.1785 1559.9487 10212.345 1253132
-3241.3337 1545.5819 10118.292 1280
-3251.5195 1579.7576 10342.026 1024
-3238.1973 1603.6091 10498.173 66560
-3175.1025 1603.2659 10495.925 462593
-3090.4819 1591.8212 10421.001 791810
-3050.3 1603.2659 10495.925 1536
-3021.2732 1621.174 10613.162 1024
-2902.6838 1590.7631 10414.074 1024
-2844.2852 1592.7319 10426.964 199424
-2806.0457 1606.3286 10515.976 199424
-2743.5251 1606.3286 10515.976 462848
-2748.6804 1646.8767 10781.427 396544
-2665.2373 1635.0095 10703.737 66816
-2603.0107 1635.8958 10709.539 132608
-2500.8391 1611.0929 10547.166 1536
-2443.0151 1614.3188 10568.284 512
-2364.8914 1603.9469 10500.384 768
-2312.7214 1611.0928 10547.165 512
-2245.6577 1607.9724 10526.737 1280
-2232.9714 1644.7256 10767.345 768
-2139.2644 1622.2098 10619.943 67328
-2022.4026 1580.2323 10345.134 265216
-1966.8566 1585.0343 10376.57 133888
-1905.1648 1585.0343 10376.57 528640
-1860.9165 1600.0321 10474.755 331008
-1846.1968 1642.3365 10751.704 68096
-1790.8322 1650.2218 10803.326 594436
-1706.5011 1631.009 10677.548 768
-1662.3745 1650.2218 10803.326 768
-1642.2362 1695.7489 11101.374 1280
-1591.4351 1712.1012 11208.425 265984
-1460.579 1639.9937 10736.367 989962
-1383.7419 1624.7223 10636.392 1253390
-1306.0021 1606.8773 10519.568 1280
-1243.4603 1606.8773 10519.568 1536
-1172.504 1595.4277 10444.612 1024
-1118.9031 1607.6335 10524.519 396291
-1059.6407 1612.6694 10557.485 768
-1021.767 1652.9403 10821.123 1024
-957.43243 1652.9403 10821.123 1024
-893.36194 1653.429 10824.322 924166
-812.47382 1620.4514 10608.432 1056004
-741.70081 1603.7953 10499.391 1451019
-660.09338 1558.4974 10202.845 529920
-616.85724 1603.7953 10499.391 727299
-551.53088 1595.3933 10444.387 1648909
-478.31412 1559.1395 10207.049 1845778
-403.31146 1505.6827 9857.0889 68352
0 0 0 0
0 0 0 0
0 0 0 0
-104.356 930.30212 6090.3066 264195
-66.006729 901.07874 5898.9937 256
-30.014734 874.25708 5723.4028 768
4.0124874 874.25708 5723.4028 526858
38.779621 891.26227 5834.729 7436406
73.646065 893.41382 5848.814 7897470
103.5391 853.20233 5585.5664 11647926
131.75827 822.07721 5381.8032 11647928
160.78453 807.16705 5284.1919 9279637
195.75092 822.07721 5381.8032 1514266
0 0 0 0
0 0 0 0
0 0 0 0
429.67395 1091.0896 7142.9165 3073
515.09467 1190.354 7792.7598 794126
694.23291 1471.9388 9636.1807 793101
786.89905 1541.2272 10089.783 265219
846.88556 1541.2272 10089.783 263424
928.37323 1577.7682 10329.002 2365720
1021.4138 1628.191 10659.1 2758681
1245.4744 1869.3751 12238.033 262401
1324.9714 1878.9309 12300.591 262914
1154.99 1552.2091 10161.677 723720
0 0 0 0
0 0 0 0
0 0 0 0
0 0 0 0
0 0 0 0
0 0 0 0
0 0 0 0
0 0 0 0
0 0 0 0
0 0 0 0
0 0 0 0
0 0 0 0
0 0 0 0
0 0 0 0
429.73541 323.61691 2118.5874 394756
439.15622 321.29419 2103.3816 591878
451.06161 320.86752 2100.5884 394499
460.26767 318.59537 2085.7134 460549
472.66779 318.59537 2085.7134 460293
482.0531 316.6152 2072.75 65536
494.37619 316.6152 2072.75 65536
506.44751 316.45789 2071.7202 262144
517.60052 315.74789 2067.072 525315
519.50702 309.561 2026.5691 65536
513.20551 298.87454 1956.6093 525315
524.83813 298.87454 1956.6093 985865
0 0 0 0
0 0 0 0
0 0 0 0
0 0 0 0
526.42804 269.87247 1766.7445 1446415
537.45453 270.13525 1768.4647 394243
561.92706 277.01642 1813.5131 1775897
572.70892 277.01642 1813.5131 328450
576.01227 273.46594 1790.2695 65538
584.57239 272.49475 1783.9115 65537
584.30688 267.51743 1751.327 789003
570.88776 256.79764 1681.1489 1184274
570.86029 252.36691 1652.1428 2
585.40479 254.41913 1665.5779 4
586.2937 250.56703 1640.3597 5
590.36987 248.18086 1624.7384 461330
598.349 247.48582 1620.1884 1711394
614.83899 250.27724 1638.4626 1513758
617.61401 247.48582 1620.1884 921363
634.69318 250.424 1639.4233 1973537
652.36987 253.50548 1659.5966 2302244
663.90387 254.14372 1663.7748 2038813
680.34137 256.6127 1679.9382 4736069
705.49628 262.25073 1716.8481 1117455
729.65192 267.36182 1750.3082 2037528
740.05804 267.36182 1750.3082 2037271
743.26971 264.79874 1733.5288 2103064
760.23822 267.13974 1748.8545 4011060
765.98541 265.52774 1738.3014 4734783
776.32007 265.52774 1738.3014 4273975
792.44141 267.48099 1751.0884 3418667
804.005 267.86508 1753.6029 1839892
811.03864 266.74942 1746.2993 787204
809.20599 262.78275 1720.3311 1708306
825.46954 264.71835 1733.0026 589825
835.77277 264.71835 1733.0026 721411
860.66675 269.28348 1762.8887 655618
0 0 0 0
0 0 0 0
0 0 0 0
0 0 0 0
0 0 0 0
0 0 0 0
0 0 0 0
0 0 0 0
0 0 0 0
0 0 0 0
0 0 0 0
0 0 0 0
0 0 0 0
0 0 0 0
0 0 0 0
0 0 0 0
969.69708 251.36021 1645.5524 1644827
996.11566 255.62929 1673.5002 3092019
1048.0818 266.30524 1743.3912 2894640
1063.4657 267.56799 1751.6581 2566442
1048.7952 261.3179 1710.7413 2369322
0 0 0 0
0 0 0 0
0 0 0 0
6850.4404 1643.1189 10756.826 2424832
7186.9087 1707.8789 11180.784 11165952
7253.3813 1707.8789 11180.784 12740864
7001.98 1633.7122 10695.244 12805888
7085.4473 1638.309 10725.338 12212992
7160.6797 1640.9368 10742.541 11621632
6998.5483 1589.6049 10406.492 10766336
7360.0742 1657.0704 10848.161 8596992
8649.3311 1930.4219 12637.682 4269824
8781.0479 1942.9417 12719.644 4013844
11126.495 2440.8867 15979.486 2105372
8589.5518 1868.3892 12231.579 1316364
8662.2725 1868.3892 12231.579 9212039
8357.8623 1787.7222 11703.484 7894391
7133.1968 1513.1726 9906.1211 262146
8029.9722 1689.4575 11060.187 5789532
8185.8086 1708.2559 11183.252 6445919
9080.2783 1879.6516 12305.309 196609
7939.6724 1630.4058 10673.599 327680
8145.9624 1659.5039 10864.092 524546
8317.5078 1681.1217 11005.614 196608
8294.6514 1663.416 10889.704 2106144
0 0 0 0
0 0 0 0
7886.625 1545.4031 10117.121 1048576
7946.7739 1545.4031 10117.121 1575432
0 0 0 0
0 0 0 0
7817.6685 1486.5413 9731.7764 1114368
7639.2666 1441.946 9439.8301 1639168
7667.5269 1436.7252 9405.6514 2755592
7970.5322 1482.6886 9706.5547 2690056
8068.2051 1490.0693 9754.874 2689799
8204.8047 1504.4825 9849.2314 2492421
8275.5254 1506.6974 9863.7305 2492165
7801.0986 1410.326 9232.8271 2492421
7586.8887 1362.0164 8916.5635 2360579
7472.4346 1332.1611 8721.1133 2295042
7524.2842 1332.1611 8721.1133 2295044
7576.1328 1332.1611 8721.1133 2229508
7518.8589 1313.1036 8596.3516 2360838
7569.9668 1313.1036 8596.3516 2228993
7726.1387 1331.2062 8714.8613 2492422
7049.2383 1206.486 7898.3696 2953488
7829.7637 1331.2062 8714.8613 2887695
8389.0859 1416.925 9276.0283 917504
8168.6929 1370.6898 8973.3447 655360
7436.3491 1239.7075 8115.8574 591624
7279.1616 1205.6799 7893.0928 6775656
7555.6113 1243.4534 8140.3799 6447975
9422.7715 1540.8684 10087.435 6908270
9624.4775 1563.8989 10238.206 6841191
9824.5371 1586.3741 10385.342 2367523
9837.2637 1578.5088 10333.851 1249552
9527.7949 1519.3618 9946.6396 393216
8953.4082 1418.9595 9289.3467 524288
9008.6357 1418.9595 9289.3467 2036759
0 0 0 0
0 0 0 0
0 0 0 0
0 0 0 0
0 0 0 0
0 0 0 0
-6353.7695 1131.5586 7130.3291 397314
-6383.3809 1144.4679 7211.6743 397826
-6602.6323 1191.782 7509.8169 463363
-6695.9395 1216.8527 7667.7954 200192
-6694.1211 1224.8613 7718.2603 265986
-6604.7651 1216.8527 7667.7954 2048
-6534.6079 1212.2943 7639.0723 68096
-6444.0791 1203.8667 7585.9663 134145
-6407.3623 1205.444 7595.9053 1024
-6353.8779 1203.8667 7585.9663 1024
-6227.9297 1188.4391 7488.7515 768
-6183.4067 1188.4391 7488.7515 1318161
-6184.1167 1197.1957 7543.9302 1121292
-6068.0332 1183.3048 7456.3994 265728
-6160.3521 1210.1484 7625.5498 2304
-6203.1602 1227.5918 7735.4668 331776
-6245.8506 1245.2726 7846.8794 1536
-6031.2617 1211.538 7634.3057 768
-5973.1294 1208.9586 7618.0522 1024
-5900.9609 1203.4772 7583.5117 1024
-5963.7817 1225.6537 7723.2534 1024
-5935.7598 1229.36 7746.6084 67328
-6066.1626 1266.1923 7978.7007 264961
-6156.0303 1295.0774 8160.7158 1024
-6107.5122 1295.0774 8160.7158 1792
-5686.7715 1215.5168 7659.3774 1536
-5758.5444 1240.7936 7818.6553 595458
-5972.0132 1297.2614 8174.4775 924421
-5852.8438 1281.8062 8077.0894 331776
-5799.2246 1280.5699 8069.2993 2048
-5667.4214 1261.9045 7951.6826 2048
-5609.8931 1259.6024 7937.1758 199936
-5569.5493 1261.1523 7946.9429 2048
-5578.8467 1274.0656 8028.313 768
-5518.584 1271.179 8010.1235 1024
-5707.3652 1326.1073 8356.2451 1024
-5657.6846 1326.1073 8356.2451 463362
-5604.7051 1325.3271 8351.3291 200192
-5430.9961 1295.7292 8164.8228 67584
-5356.7759 1289.5477 8125.8711 1280
-5237.4092 1272.2864 8017.1021 1280
-5189.3467 1272.1887 8016.4868 1536
-5218.4893 1291.1918 8136.2314 1280
-5196.6157 1297.8097 8177.9326 1280
-5202.6558 1311.5895 8264.7637 1024
-5203.3657 1324.2755 8344.7031 1024
-5173.7729 1329.4194 8377.1162 1024
-5034.5288 1306.2141 8230.8916 1024
-4966.2866 1301.1558 8199.0176 67584
-4917.5415 1301.1558 8199.0176 1024
-5221.6055 1395.442 8793.1465 1024
-5181.7178 1398.7866 8814.2217 792325
-5129.8208 1398.9247 8815.0918 1280
-5190.1504 1429.986 9010.8193 1792
-5010.5742 1394.9073 8789.7773 1536
-4976.6016 1400.0514 8822.1914 68352
-4982.9429 1416.7672 8927.5234 200448
-4877.6499 1401.761 8832.9648 1280
-4803.981 1395.6155 8794.2393 1280
-4772.6211 1401.761 8832.9648 1792
-4832.23 1435.0591 9042.7871 1792
-4806.3784 1443.441 9095.6045 1024
-4728.8999 1436.3329 9050.8135 2560
-4680.5786 1438.019 9061.4385 1280
-4626.7061 1438.019 9061.4385 1024
-4622.4888 1453.6342 9159.835 2048
-4579.3418 1457.2335 9182.5156 1792
-4552.5518 1466.1876 9238.9385 1280
-4566.918 1488.777 9381.2812 1024
-4534.459 1496.4716 9429.7676 1024
-4492.1812 1501.0778 9458.793 1024
-4409.3042 1492.0625 9401.9844 1024
-4369.6211 1497.6196 9437.002 1024
-4313.5151 1497.6196 9437.002 1792
-4257.4097 1497.6196 9437.002 200960
-4207.2715 1499.7467 9450.4053 266496
-4229.9556 1528.2415 9629.96 530944
-4261.0684 1560.6051 9833.8945 1385731
-4302.6313 1597.7499 10067.956 68608
-4242.7749 1597.7499 10067.956 200704
-4017.1145 1534.418 9668.8809 661504
-3959.6304 1534.418 9668.8809 332800
-3965.8184 1559.4554 9826.6504 1648397
-3975.6035 1586.6771 9998.1836 1188101
-3966.3601 1607.0157 10126.344 267008
-3954.8218 1627.0371 10252.505 332032
-3845.9521 1607.0157 10126.344 134656
-3753.2034 1593.2007 10039.29 1536
-3668.1096 1582.2411 9970.2305 1187589
-3693.5496 1619.3837 10204.277 134656
-3695.9607 1647.5012 10381.456 264448
-3640.075 1650.1464 10398.124 2109201
-3466.0613 1598.4072 10072.098 133888
-3406.1799 1598.4072 10072.098 595968
-3392.8933 1620.6639 10212.345 991235
-3314.8381 1612.2303 10159.202 1122053
-3304.8862 1637.2216 10316.681 1780240
-3300.6116 1666.0238 10498.173 1024
-3238.1973 1666.0238 10498.173 1024
-3175.1025 1665.6671 10495.925 768
-3112.7014 1665.6671 10495.925 199424
-3050.3 1665.6671 10495.925 726020
-2968.2678 1654.7231 10426.964 1280
-2902.6838 1652.6776 10414.074 1280
-2844.2852 1654.7231 10426.964 67328
-2792.7764 1660.9575 10466.248 1024
-2730.552 1660.9575 10466.248 660224
-2736.0754 1703.1288 10731.984 528641
-2672.271 1703.1288 10731.984 462848
-2603.0107 1699.5669 10709.539 462592
-2497.5713 1671.6116 10533.384 768
-2432.3279 1669.8134 10522.052 768
-2357.585 1661.2263 10467.942 133120
-2312.7214 1673.7987 10547.165 512
-2261.1416 1682.0753 10599.319 330242
-2202.4028 1685.3484 10619.943 132864
-2117.1831 1667.9523 10510.325 768
-2012.7203 1633.8771 10295.606 463104
-1955.3231 1637.0697 10315.724 331008
-1890.2998 1633.8771 10295.606 768
-1843.4733 1646.726 10376.57 1024
-1818.986 1681.1101 10593.237 1536
-1782.1417 1706.131 10750.901 528129
-1678.6442 1666.829 10503.247 768
-1649.207 1700.8707 10717.755 768
-1585.4871 1700.8707 10717.755 1024
-1591.4351 1778.7383 11208.425 331009
-1446.9783 1687.9587 10636.392 462082
-1368.5438 1669.4191 10519.568 199170
-1281.4474 1638.0317 10321.785 1024
-1239.6876 1664.3541 10487.651 1280
-1160.728 1640.8766 10339.712 1536
-1106.7858 1652.1171 10410.542 331776
-1044.8922 1652.1171 10410.542 68608
-984.97119 1655.4323 10431.433 200192
-910.49158 1633.0804 10290.586 726787
-852.70776 1639.6116 10331.74 660481
-768.85352 1593.1361 10038.884 529408
-714.17096 1604.3718 10109.683 1121800
-654.0661 1604.3718 10109.683 1280
-599.43463 1619.1562 10202.845 1056260
-538.77588 1619.1562 10202.845 464384
-475.75116 1611.1439 10152.355 1911825
0 0 0 0
0 0 0 0
0 0 0 0
-138.71014 953.75977 6009.959 512
-101.62397 941.20752 5930.8633 512
-65.36496 927.04791 5841.6387 256
-30.014734 908.28424 5723.4028 256
3.9780447 900.48767 5674.2739 4869965
38.039711 908.28424 5723.4028 8620935
71.984428 907.24438 5716.8501 6515817
100.4744 860.17297 5420.2373 8621450
130.66394 846.97998 5337.104 10792105
164.92404 860.17297 5420.2373 9409939
204.76872 893.41888 5629.731 6515043
207.0224 776.35352 4892.063 9279887
0 0 0 0
0 0 0 0
400.02219 1055.3296 6649.9849 728333
472.14056 1133.5563 7142.9165 662541
625.38989 1377.584 8680.6172 727820
751.52271 1529.2286 9636.1807 858124
844.0072 1595.7716 10055.49 725512
906.87213 1601.2137 10089.783 592133
998.83661 1654.1722 10423.492 1840401
1245.4744 1942.1337 12238.033 590338
1299.6816 1914.8021 12065.809 2037526
1154.99 1612.6229 10161.677 2366747
0 0 0 0
0 0 0 0
0 0 0 0
0 0 0 0
0 0 0 0
0 0 0 0
0 0 0 0
0 0 0 0
0 0 0 0
0 0 0 0
0 0 0 0
0 0 0 0
0 0 0 0
0 0 0 0
0 0 0 0
0 0 0 0
450.37268 332.84695 2097.3799 394757
456.14252 328.02899 2067.0203 394757
468.43155 328.02899 2067.0203 328452
480.02432 327.55389 2064.0266 65536
492.64532 327.78662 2065.4932 0
500.34338 324.81216 2046.7501 985867
512.04272 324.51483 2044.8765 1315087
505.81824 313.13525 1973.1699 1446930
515.35968 311.81049 1964.822 591109
527.04108 311.81049 1964.822 525315
528.60681 305.95557 1927.9282 393986
525.14709 297.50217 1874.6606 131072
534.0304 296.24728 1866.7533 788743
508.46249 276.3212 1741.1924 657158
526.94055 280.64926 1768.4647 657671
537.45453 280.64926 1768.4647 1183758
547.87268 280.60013 1768.1552 592135
558.38489 280.60013 1768.1552 394756
568.89697 280.60013 1768.1552 921357
554.78217 268.67358 1693.0021 65793
560.89288 266.79254 1681.1489 0
567.53973 265.22787 1671.2896 2
572.94611 263.14737 1658.1794 2
585.40479 264.32144 1665.5779 4
589.39801 261.69775 1649.045 5
593.00488 258.99118 1631.99 658706
598.17432 257.04321 1619.7152 1250843
615.1778 260.16165 1639.3655 1579295
617.43365 257.04321 1619.7152 1315609
634.69318 260.17081 1639.4233 1775899
651.83417 263.15598 1658.2338 2367524
662.23663 263.37225 1659.5966 1380370
678.75098 265.97717 1676.0111 1314832
699.21399 270.03168 1701.5599 1972248
716.98785 272.94681 1719.9292 918790
728.87775 273.57156 1723.8658 590082
749.84082 277.53717 1748.8545 1050633
760.23822 277.53717 1748.8545 721925
765.88007 275.82449 1738.0624 2826787
776.21338 275.82449 1738.0624 1971478
789.96564 277.02347 1745.6176 2037014
804.005 278.29071 1753.6029 2432029
811.44055 277.26898 1747.1647 2168857
821.82788 277.26898 1747.1647 721924
825.46954 275.02151 1733.0026 1247755
835.77277 275.02151 1733.0026 852740
837.99182 272.39374 1716.4441 721411
0 0 0 0
0 0 0 0
0 0 0 0
0 0 0 0
0 0 0 0
0 0 0 0
0 0 0 0
0 0 0 0
0 0 0 0
0 0 0 0
0 0 0 0
0 0 0 0
0 0 0 0
0 0 0 0
0 0 0 0
0 0 0 0
0 0 0 0
0 0 0 0
1006.0651 265.5787 1673.5002 3289909
1063.1912 277.91031 1751.2058 2565933
1062.0737 274.92599 1732.4006 2565930
0 0 0 0
0 0 0 0
0 0 0 0
6731.5986 1677.4569 10570.217 3146752
6883.3867 1699.4161 10708.59 11163648
7153.4272 1749.9008 11026.709 12214016
7010.7178 1699.4161 10708.59 12344832
7085.4473 1702.0741 10725.338 11555072
6936.6787 1651.4744 10406.492 9649408
6998.5483 1651.4744 10406.492 7085568
7360.0742 1721.5657 10848.161 2031616
8649.3311 2005.5564 12637.682 787457
8945.4902 2056.365 12957.843 7039593
11126.495 2535.8894 15979.486 8223100
10303.259 2328.3813 14671.909 1445906
10198.909 2285.4509 14401.391 1050377
9444.458 2098.7686 13225.042 327680
8304.7881 1830.2712 11533.15 393216
8029.9722 1755.2134 11060.187 327680
7737.4526 1677.5366 10570.72 262144
7800.2988 1677.5366 10570.72 393216
7863.145 1677.5366 10570.72 393216
8145.9624 1724.0939 10864.092 1050374
8317.5078 1746.553 11005.614 655873
8288.3867 1726.8533 10881.479 2895404
7770.1929 1606.3514 10122.157 11643564
0 0 0 0
7886.625 1605.5521 10117.121 458752
7946.7739 1605.5521 10117.121 4735299
0 0 0 0
0 0 0 0
7986.1787 1577.6888 9941.5449 4079422
7968.4409 1562.6198 9846.5898 8748155
7896.4858 1537.2161 9686.5127 393216
7970.5322 1540.3967 9706.5547 786432
8037.4536 1542.1646 9717.6943 983040
8171.3296 1556.6621 9809.0479 851968
8275.5254 1565.34 9863.7305 1641485
7872.3379 1478.5983 9317.1416 1573378
7897.834 1473.0221 9282.0049 1836807
7669.6074 1420.5302 8951.2354 1967622
7761.8813 1427.7141 8996.5039 1640198
7776.043 1420.5302 8951.2354 983554
7655.1807 1388.9454 8752.209 1967107
7707.2148 1388.9454 8752.209 2097922
7726.1387 1383.0184 8714.8613 2295043
7054.8716 1254.4457 7904.6816 3019022
7955.8081 1405.2823 8855.1543 2954002
8389.0859 1472.0737 9276.0283 983040
8639.3838 1506.094 9490.4014 655360
7436.3491 1287.9585 8115.8574 2168086
7279.1616 1252.6066 7893.0928 10331303
9077.8545 1552.1217 9780.4375 10066850
9890.2529 1680.2618 10587.892 9935264
9975.3965 1684.0088 10611.503 9869469
10021.472 1681.1549 10593.519 10527134
9862.8965 1644.2197 10360.777 6251100
9385.2021 1554.8735 9797.7783 2960677
8827.2773 1453.4197 9158.4834 65536
9008.6357 1474.1873 9289.3467 2301980
0 0 0 0
0 0 0 0
0 0 0 0
0 0 0 0
0 0 0 0
0 0 0 0
-6384.0356 1179.5424 7164.2935 529158
-6457.6646 1201.1605 7295.5977 2048
-6636.1577 1242.7081 7547.9487 463362
-6591.2827 1242.7081 7547.9487 660741
-6626.7598 1257.9613 7640.5933 1318414
-6461.1826 1234.9954 7501.1035 463107
-6326.4033 1217.6378 7395.6777 726536
-6351.6606 1231.0552 7477.1714 66816
-6398.978 1248.9674 7585.9663 1024
-6362.2021 1250.6036 7595.9053 1280
-6317.0425 1250.6036 7595.9053 66816
-6228.9673 1242.0464 7543.9302 1516050
-6076.561 1220.4445 7412.7241 265218
-6066.915 1227.4091 7455.0254 332289
-6106.249 1244.4583 7558.5786 594946
-6195.25 1271.9574 7725.603 265728
-6243.5396 1291.4464 7843.9756 134400
-6048.2197 1260.4602 7655.7715 1280
-5985.8735 1256.926 7634.3057 1024
-6009.6982 1271.5706 7723.2534 1024
-5984.3394 1275.9539 7749.877 1024
-5997.6548 1288.7151 7827.3857 1024
-6124.7861 1326.3228 8055.8066 1024
-6013.7324 1312.5377 7972.0796 68352
-5966.3359 1312.5377 7972.0796 726277
-5739.7866 1272.8102 7730.7822 512
-5693.8252 1272.8102 7730.7822 768
-5900.8643 1329.8268 8077.0894 199168
-5847.1992 1328.5442 8069.2993 67584
-5700.999 1306.0417 7932.624 264705
-5646.1377 1304.2631 7921.8208 1024
-5537.7822 1289.9933 7835.1494 1024
-5569.5493 1308.3993 7946.9429 1024
-5552.3623 1315.5212 7990.2007 1536
-5531.1162 1321.796 8028.313 265216
-5707.3652 1375.7875 8356.2451 67328
-5815.084 1414.0624 8588.7188 397312
-5700.5562 1398.4928 8494.1523 1024
-5438.478 1346.1233 8176.0708 1280
-5377.959 1343.1487 8158.0044 2048
-5329.4575 1343.1487 8158.0044 1280
-5280.9502 1343.1473 8157.9956 1280
-5214.0044 1338.4127 8129.2393 1280
-5170.1172 1339.564 8136.2314 1280
-5181.7095 1355.2474 8231.4893 1280
-5145.5762 1358.6284 8252.0244 768
-5179.0142 1380.6208 8385.6025 1024
-5235.0879 1409.1337 8558.7832 528897
-5089.0923 1383.2812 8401.7607 331264
-4904.1206 1346.2172 8176.6411 265472
-4903.3057 1359.4692 8257.1318 1280
-5136.9077 1438.6401 8737.999 1024
-5232.377 1480.348 8991.3242 1280
-5178.9214 1480.348 8991.3242 1280
-4970.8628 1435.6953 8720.1133 1280
-4919.019 1435.6953 8720.1133 2560
-4982.9429 1469.8438 8927.5234 768
-4856.2651 1447.8997 8794.2393 1024
-4803.5503 1447.7697 8793.4502 1024
-4751.2705 1447.7697 8793.4502 1024
-4775.7124 1471.4077 8937.0225 989448
-4814.7974 1500.1399 9111.5361 67328
-4760.6265 1500.1399 9111.5361 1280
-4688.835 1494.5236 9077.4229 1280
-4626.7061 1491.8918 9061.4385 1280
-4622.4888 1508.0919 9159.835 1024
-4454.6147 1470.6487 8932.4121 1024
-4552.5518 1521.1157 9238.9385 1024
-4534.6152 1533.6262 9314.9248 1024
-4524.144 1549.0026 9408.3174 1024
-4490.8848 1556.8635 9456.0635 1024
-4466.3657 1567.9923 9523.6572 1024
-4423.0513 1572.7236 9552.3945 1024
-4350.4736 1567.0375 9517.8584 768
-4276.0581 1560.5308 9478.3379 1024
-4207.2715 1555.932 9450.4053 1536
-4196.3955 1572.9152 9553.5576 3328
-4235.7739 1609.4594 9775.5186 595458
-4177.6558 1609.4594 9775.5186 1536
-4196.4541 1639.5098 9958.0391 67328
-4106.1509 1627.1853 9883.1836 3072
-4020.7085 1616.4576 9818.0254 68096
-3965.8184 1617.8777 9826.6504 1253382
-4033.7439 1670.1924 10144.399 529920
-3966.3601 1667.2197 10126.344 2816
-3920.6997 1673.4271 10164.046 266240
-3812.8899 1652.887 10039.29 397824
-3727.3853 1641.517 9970.2305 1253382
-3684.0359 1648.644 10013.52 727041
-3647.1853 1658.9615 10076.186 332288
-3619.9766 1674.0826 10168.027 1536
-3572.2148 1680.0509 10204.277 67584
-3460.5667 1655.6597 10056.131 1280
-3452.635 1680.905 10209.466 67840
-3392.8933 1681.3792 10212.345 265728
-3332.1785 1681.3792 10212.345 398592
-3304.8862 1698.5571 10316.681 1188101
-3300.6116 1728.4385 10498.173 2634780
-3238.1973 1728.4385 10498.173 1536
-3190.7815 1736.6014 10547.754 2816
-3128.0718 1736.6014 10547.754 199680
-3050.3 1728.0681 10495.925 67840
-2956.4321 1709.8691 10385.388 133120
-2894.688 1709.8691 10385.388 1024
-2831.9082 1709.2439 10381.59 1024
-2780.8997 1715.854 10421.738 768
-2718.9397 1715.854 10421.738 1280
-2702.5171 1745.262 10600.355 1280
-2657.6401 1757.2595 10673.227 1186569
-2594.1846 1757.2595 10673.227 1792
-2495.5366 1732.8225 10524.802 1280
-2428.1814 1729.4166 10504.114 768
-2375.4275 1736.5045 10547.165 396289
-2324.1575 1745.0913 10599.319 512
-2264.1675 1747.4265 10613.503 512
-2202.4028 1748.4868 10619.943 512
-2083.5388 1702.9407 10343.305 512
-2012.7203 1695.0875 10295.606 512
-1955.3231 1698.3995 10315.724 512
-1890.2998 1695.0875 10295.606 768
-1829.7278 1695.6791 10299.199 768
-1791.2148 1717.4622 10431.506 528385
-1735.7684 1723.9895 10471.151 528387
-1673.5146 1723.9895 10471.151 1024
-1628.2051 1742.1195 10581.269 1024
-1572.7563 1750.4219 10631.696 1024
-1521.767 1764.5907 10717.755 199170
-1446.9783 1751.1949 10636.392 858121
-1362.8506 1724.7557 10475.806 1024
-1285.9729 1705.3992 10358.237 1280
-1222.3311 1702.5311 10340.817 1280
-1158.3832 1698.9102 10318.824 1792
-1086.7595 1682.9972 10222.173 1536
-1013.9129 1663.1931 10101.887 199937
-953.85431 1663.1931 10101.887 727043
-903.75836 1681.7318 10214.486 331520
-849.31116 1694.2609 10290.586 529409
-784.75586 1687.0056 10246.52 1187591
-723.83746 1687.0056 10246.52 2048
-657.2973 1672.6995 10159.626 331776
-596.89545 1672.6995 10159.626 529408
-528.85138 1648.8721 10014.903 2304
-473.54709 1663.7587 10105.321 2239769
0 0 0 0
0 0 0 0
0 0 0 0
-142.11711 1013.7943 6157.5747 512
-102.97926 989.4906 6009.959 256
-65.948715 970.36743 5893.8086 256
-29.757093 934.22284 5674.2739 0
3.8137941 895.64941 5439.9868 3619131
36.156029 895.64941 5439.9868 1053717
69.738922 911.87158 5538.5171 329222
100.4744 892.39777 5420.2373 10857384
132.69923 892.39777 5420.2373 10726053
171.89038 930.09235 5649.186 8159871
205.47636 930.09235 5649.186 11515566
215.02774 836.58362 5081.2339 4607046
233.22006 795.5896 4832.2451 7174769
265.19174 805.43817 4892.063 397830
400.02219 1094.8656 6649.9849 1280
469.66217 1169.8495 7105.4214 768
561.4248 1283.0143 7792.7603 512
768.59442 1622.5581 9855.0781 256
830.80322 1629.6543 9898.1787 0
889.6507 1629.6543 9898.1787 196608
963.57263 1655.5543 10055.49 2103319
1227.947 1986.5367 12065.809 1510413
1053.8594 1610.8026 9783.6777 458752
0 0 0 0
0 0 0 0
0 0 0 0
0 0 0 0
0 0 0 0
0 0 0 0
0 0 0 0
0 0 0 0
0 0 0 0
0 0 0 0
0 0 0 0
0 0 0 0
0 0 0 0
0 0 0 0
0 0 0 0
0 0 0 0
0 0 0 0
450.37268 345.31647 2097.3799 394758
460.26767 343.39566 2085.7134 263171
468.43155 340.31799 2067.0203 1184017
479.77988 339.65207 2062.9756 1578773
488.1749 336.98068 2046.7501 1052429
495.48605 333.70929 2026.8804 854282
505.68414 332.49139 2019.4832 985866
506.7196 325.44522 1976.686 262145
517.54932 324.8663 1973.1699 262144
529.04272 324.72046 1972.2842 262144
534.03778 320.6788 1947.736 196608
538.1651 316.29874 1921.1322 196608
547.58948 315.14923 1914.1504 525317
537.42169 303.00043 1840.3612 591110
545.63727 301.4942 1831.2126 855052
543.99402 294.70599 1789.9824 855051
547.87268 291.1123 1768.1552 986637
538.60712 280.80124 1705.528 921101
542.33746 277.52142 1685.6069 65793
552.35889 277.52142 1685.6069 2631720
559.98505 276.33942 1678.4277 2565928
567.53973 275.16415 1671.2896 1776412
574.8653 273.92017 1663.7336 2
584.75659 273.92017 1663.7336 4
592.66278 273.00571 1658.1794 6
596.04608 270.07181 1640.3597 724499
598.17432 266.67288 1619.7152 1316636
609.79968 267.54846 1625.0334 1776930
617.43365 266.67288 1619.7152 1184278
630.59625 268.17535 1628.8409 1775899
645.9491 270.54974 1643.2625 2170401
661.49091 272.9313 1657.7277 1446163
674.651 274.27472 1665.8872 327682
699.21399 280.14792 1701.5599 524803
718.4389 283.74536 1723.41 590082
731.33398 284.77686 1729.675 656131
749.84082 287.9346 1748.8545 852997
760.62823 288.08231 1749.7517 1050633
769.20929 287.40164 1745.6176 1379341
781.13348 287.97162 1749.0793 1116169
789.96564 287.40164 1745.6176 1313548
800.65637 287.51392 1746.2993 852997
811.03864 287.51392 1746.2993 1050376
824.56812 288.61551 1752.9902 1116683
832.2558 287.67041 1747.2498 787204
847.38348 289.28848 1757.0778 984584
839.35999 283.05984 1719.2463 722181
0 0 0 0
0 0 0 0
0 0 0 0
0 0 0 0
0 0 0 0
0 0 0 0
0 0 0 0
0 0 0 0
0 0 0 0
0 0 0 0
0 0 0 0
0 0 0 0
0 0 0 0
0 0 0 0
0 0 0 0
0 0 0 0
0 0 0 0
0 0 0 0
1006.0651 275.52814 1673.5002 3485488
1060.0726 287.47604 1746.0693 3156265
1062.0737 285.22562 1732.4006 3221284
0 0 0 0
0 0 0 0
0 0 0 0
0 0 0 0
0 0 0 0
6912.1621 1754.2271 10654.808 11162112
6975.5073 1754.2271 10654.808 11094016
7038.853 1754.2271 10654.808 9187072
0 0 0 0
0 0 0 0
0 0 0 0
0 0 0 0
8133.4492 1939.74 11781.574 8421502
10030.002 2371.623 14404.741 3421748
10115.643 2371.623 14404.741 2567203
10390.487 2415.6099 14671.909 2041116
9665.5225 2228.3608 13534.597 1712154
8427.4414 1926.8831 11703.484 1515029
8029.9722 1820.9692 11060.187 1383699
7714.2905 1735.1727 10539.076 1515027
7776.9487 1735.1727 10539.076 1513744
7863.145 1740.3827 10570.72 2038547
7983.5566 1753.0229 10647.494 1774092
8102.3613 1765.1143 10720.935 1049859
8277.915 1789.2832 10867.731 918789
8390.2461 1799.5179 10929.896 1708305
7830.3716 1666.5304 10122.157 393216
8815.0684 1861.7938 11308.146 131072
8210.9062 1721.0653 10453.391 2366743
8158.3882 1697.2108 10308.504 2368800
8219.6748 1697.2108 10308.504 3815988
8031.6323 1646.1101 9998.1279 4473662
7968.4409 1621.1605 9846.5898 2760992
7980.374 1611.7474 9789.417 1048833
8038.5742 1611.7474 9789.417 1048576
8037.4536 1599.9388 9717.6943 2101007
8095.2285 1599.9388 9717.6943 3285024
8342.917 1637.2074 9944.0557 2364693
8329.1182 1622.9985 9857.7539 1312518
8137.5381 1574.5883 9563.7197 1378568
8033.7485 1543.7189 9376.2256 524288
8089.4927 1543.7189 9376.2256 2035728
7465.2959 1414.8538 8593.5254 2037012
7194.0068 1354.1702 8224.9463 1904399
7242.9058 1354.1702 8224.9463 2165771
7420.3516 1378.0426 8369.9424 1114112
7522.4194 1387.6917 8428.5488 2165513
7972.1152 1460.9171 8873.3047 2888725
8651.8105 1575.051 9566.5303 2560016
8748.5869 1582.2675 9610.3613 589824
8961.5596 1610.2692 9780.4375 3483949
9249.9014 1651.3651 10030.046 6577252
9168.2588 1626.3053 9877.8379 7631739
9552.0576 1683.6012 10225.841 7764094
9953.2012 1743.2098 10587.892 6449002
10016.148 1743.2098 10587.892 5329490
9837.2637 1701.384 10333.851 3224368
8983.7441 1544.1216 9378.6719 3223853
8827.2773 1507.8695 9158.4834 1315086
8579.291 1456.5242 8846.623 328192
0 0 0 0
0 0 0 0
0 0 0 0
0 0 0 0
0 0 0 0
0 0 0 0
-6384.0356 1222.1361 7164.2935 463364
-6693.4688 1289.9795 7561.999 858122
-6621.5156 1284.7418 7531.2954 463362
-6576.7402 1284.7418 7531.2954 660741
-6531.9644 1284.7418 7531.2954 528899
-6531.4463 1293.5067 7582.6758 792328
-6326.4033 1261.6073 7395.6777 792329
-6316.248 1268.3976 7435.4839 133890
-6363.8149 1286.9568 7544.2798 1536
-6426.855 1308.9309 7673.0942 2048
-6450.0547 1323.0472 7755.8452 265987
-6335.6172 1308.9309 7673.0942 133633
-6127.7222 1275.1617 7475.1353 1713172
-6083.2803 1275.1617 7475.1353 199936
-6103.2905 1288.7714 7554.9165 200448
-6195.25 1317.8883 7725.603 1792
-6214.5757 1331.8737 7807.5869 200448
-6048.2197 1305.9758 7655.7715 331520
-6002.7041 1305.9758 7655.7715 68096
-6013.8076 1318.3883 7728.5347 1280
-6005.4302 1326.6882 7777.1895 1280
-5997.6548 1335.2511 7827.3857 2048
-6079.855 1364.1356 7996.71 199168
-6059.644 1370.3163 8032.9419 1516303
-5966.3359 1359.934 7972.0796 1318668
-5895.0918 1354.4547 7939.9595 200192
-5693.8252 1318.7719 7730.7822 68352
-5952.0137 1389.7905 8147.1021 199169
-5847.1992 1376.5184 8069.2993 1024
-5799.2246 1376.5184 8069.2993 1024
-5553.6875 1329.2333 7792.1084 1024
-5507.3613 1329.2333 7792.1084 1024
-5562.7046 1353.9799 7937.1758 1024
-5515.7549 1354.0386 7937.52 1024
-5531.1162 1369.5266 8028.313 512
-5768.1631 1440.6526 8445.2607 1384459
-5801.0918 1461.5995 8568.0537 1792
-5587.6577 1420.2958 8325.9268 1280
-5438.478 1394.7323 8176.0708 1792
-5377.959 1391.6503 8158.0044 1280
-5333.9116 1392.8135 8164.8228 1792
-5287.8911 1393.4779 8168.7178 1536
-5228.4282 1390.5796 8151.7275 1280
-5170.1172 1387.9362 8136.2314 1280
-5138.7324 1392.5396 8163.2173 2304
-5135.7544 1405.0021 8236.2734 1280
-5120.7788 1414.3906 8291.3105 1024
-5139.2495 1433.2897 8402.0986 67840
-5078.3125 1430.1963 8383.9648 2048
-4985.0811 1417.8562 8311.626 1280
-4955.2466 1423.4811 8344.5996 2304
-5123.5059 1486.701 8715.2021 1280
-5119.2427 1500.6401 8796.9141 69120
-5062.832 1499.4227 8789.7773 1792
-4934.7334 1476.7271 8656.7334 1792
-4903.3975 1482.8147 8692.4199 463360
-5092.0947 1556.2802 9123.082 989959
-4856.2651 1500.1838 8794.2393 924165
-4803.5503 1500.0492 8793.4502 1280
-4761.7656 1503.3627 8812.874 1280
-4830.0781 1541.8959 9038.7598 1280
-4803.8262 1550.7689 9090.7744 1024
-4742.8032 1548.4913 9077.4229 1280
-4675.0903 1543.9521 9050.8135 1024
-4603.6069 1538.0474 9016.1992 1024
-4550.0034 1538.0474 9016.1992 66816
-4360.7583 1491.6497 8744.2109 67328
-4484.9038 1552.6246 9101.6533 1024
-4497.624 1576.0437 9238.9385 1024
-4479.2354 1589.0061 9314.9248 1024
-4492.1812 1613.5482 9458.793 1024
-4473.7593 1627.3024 9539.4219 768
-4423.0513 1629.5154 9552.3945 512
-4398.1147 1641.4038 9622.0859 768
-4276.0581 1616.8822 9478.3379 1024
-4177.0347 1600.5314 9382.4873 1280
-4163.3555 1616.8822 9478.3379 1536
-4249.2144 1672.8689 9806.5381 1280
-4223.6675 1685.9436 9883.1836 1280
-4164.9092 1685.9436 9883.1836 1792
-4106.1509 1685.9436 9883.1836 2048
-4032.1367 1679.5891 9845.9316 2304
-4035.0457 1705.5612 9998.1836 529408
-3975.6035 1705.5612 9998.1836 1187594
-3883.5034 1691.338 9914.8057 1536
-3824.5571 1691.338 9914.8057 67584
-3772.2012 1694.2979 9932.1572 2304
-3720.2021 1697.5151 9951.0166 2304
-3661.0408 1697.5151 9951.0166 1536
-3606.4062 1699.6486 9963.5234 2048
-3563.0547 1707.2599 10008.142 595200
-3503.5537 1707.2599 10008.142 1280
-3502.3848 1736.1759 10177.65 1536
-3423.353 1726.8325 10122.878 792322
-3391.937 1741.6031 10209.466 265984
-3331.239 1741.6031 10209.466 2048
-3298.844 1756.6749 10297.818 331776
-3258.1895 1767.8353 10363.241 529410
-3252.1538 1798.5715 10543.42 265473
-3190.7815 1799.3108 10547.754 1280
-3128.0718 1799.3108 10547.754 1280
-3006.9705 1765.0355 10346.829 265216
-2930.7576 1756.228 10295.198 67072
-2893.6296 1770.9653 10381.59 1024
-2806.6519 1755.171 10289.002 1024
-2770.1868 1770.9653 10381.59 768
-2698.1365 1764.2119 10342 1024
-2651.7444 1774.3113 10401.204 133120
-2657.3362 1820.5066 10672.006 512
-2561.8367 1798.0116 10540.138 768
-2490.6313 1791.8663 10504.114 67072
-2408.8032 1777.5665 10420.286 512
-2376.5408 1800.0538 10552.109 768
-2322.4072 1806.7456 10591.337 512
-2264.1675 1810.5267 10613.503 512
-2157.7935 1774.9313 10404.838 512
-2072.8357 1755.3706 10290.171 256
-2006.2251 1750.6299 10262.382 256
-1948.0498 1753.1836 10277.352 512
-1890.095 1756.1074 10294.491 512
-1832.6635 1759.7294 10315.724 512
-1795.5618 1783.7988 10456.821 512
-1753.8149 1804.8147 10580.018 768
-1673.5146 1786.2434 10471.151 1024
-1616.7883 1792.3713 10507.074 199169
-1554.3208 1792.3713 10507.074 1024
-1497.1682 1798.757 10544.507 1024
-1415.0103 1774.3451 10401.402 791563
-1342.8132 1760.7634 10321.785 1024
-1281.4474 1760.7634 10321.785 1024
-1203.1099 1736.2708 10178.207 1024
-1140.4883 1733.0656 10159.417 1024
-1070.4995 1717.6808 10069.23 768
-1009.8115 1716.2809 10061.023 768
-953.85431 1723.2516 10101.887 1024
-903.75836 1742.4596 10214.486 792323
-843.03046 1742.4596 10214.486 529664
-784.75586 1747.9241 10246.52 858373
-720.67059 1740.2767 10201.69 1536
-657.2973 1733.1012 10159.626 134400
-582.5553 1691.464 9915.5449 2560
-517.17194 1670.684 9793.7295 134656
-388.84286 1415.4916 8297.7646 3029543
-314.40155 1310.8076 7684.0957 264962
-231.89635 1131.1936 6631.1792 1252114
-186.89146 1098.395 6438.9102 395524
-148.61035 1098.395 6438.9102 256
-106.36015 1058.8804 6207.271 256
-65.948715 1005.4078 5893.8086 256
-29.735661 967.26074 5670.187 256
3.8729312 942.38116 5524.3398 131843
36.716667 942.38116 5524.3398 2238247
67.618469 916.07245 5370.1152 2567469
98.933365 910.44116 5337.104 3422264
130.95248 912.45166 5348.8901 13225932
171.89038 963.67822 5649.186 9278351
206.60718 968.98181 5680.2759 8751749
235.88467 950.86884 5574.0957 2435623
245.23709 866.79297 5081.2339 921358
302.16379 950.86884 5574.0957 329477
405.94458 1151.1967 6748.439 512
464.02325 1197.5405 7020.1118 256
524.43671 1241.7639 7279.354 256
676.9986 1480.8014 8680.6172 0
772.37231 1569.7482 9202.0332 0
827.08093 1569.7482 9202.0332 196608
813.92987 1448.9453 8493.874 985353
0 0 0 0
0 0 0 0
0 0 0 0
0 0 0 0
0 0 0 0
0 0 0 0
0 0 0 0
0 0 0 0
0 0 0 0
0 0 0 0
0 0 0 0
0 0 0 0
0 0 0 0
0 0 0 0
0 0 0 0
0 0 0 0
0 0 0 0
0 0 0 0
0 0 0 0
0 0 0 0
455.4819 352.09631 2064.0266 0
464.37732 349.55527 2049.1306 0
473.67017 347.43558 2036.7048 0
483.4357 345.75964 2026.8804 1
493.67776 344.49777 2019.4832 65538
505.68414 344.49777 2019.4832 131074
512.23785 340.86926 1998.2124 196609
517.54932 336.59735 1973.1699 196610
526.45709 334.80188 1962.6448 196610
534.03778 332.25864 1947.736 196610
538.1651 327.72037 1921.1322 196610
544.64618 324.77426 1903.8618 196610
547.20544 319.65717 1873.8649 262146
548.36322 313.94189 1840.3612 196609
558.39636 313.43207 1837.3724 196609
548.40295 301.91641 1769.8665 196610
532.31604 287.54282 1685.6069 262145
532.82526 282.49948 1656.0425 131072
542.67084 282.49948 1656.0425 65537
557.60345 285.10043 1671.2896 592139
563.52295 283.08264 1659.4609 131587
572.94611 282.86404 1658.1794 3
582.15924 282.55087 1656.3436 4
591.05743 282.09784 1653.6879 5
599.20203 281.30582 1649.045 527120
599.58301 276.95319 1623.5295 1185307
609.23529 276.95319 1623.5295 1579037
612.55859 274.12094 1606.9265 1579035
627.47278 276.48297 1620.7731 1447191
639.98468 277.73102 1628.0892 2104606
660.04504 282.16885 1654.1042 1446162
687.00439 289.38242 1696.391 327680
708.19275 293.99152 1723.41 262144
728.18628 297.98026 1746.7924 393216
728.87775 294.06927 1723.8658 589825
739.12659 294.06927 1723.8658 327680
760.62823 298.48508 1749.7517 458752
771.03101 298.48508 1749.7517 655618
790.07037 301.78403 1769.0905 984583
800.58813 301.78403 1769.0905 984582
793.48193 295.22678 1730.6512 1313548
803.77118 295.22678 1730.6512 1379341
820.19928 297.45309 1743.7021 1774099
832.2558 298.05829 1747.2498 1116169
845.46448 299.05603 1753.0986 721411
873.28845 305.13626 1788.7416 918790
890.33386 307.3493 1801.7147 1445134
891.11792 303.96295 1781.8635 1247755
882.22754 297.39499 1743.3615 853767
0 0 0 0
0 0 0 0
0 0 0 0
936.46356 301.5087 1767.4764 1182217
960.06146 305.67639 1791.908 458752
968.63324 305.02087 1788.0653 458752
979.03284 304.94894 1787.6437 524288
956.87524 294.84656 1728.4224 3023392
967.15125 294.84656 1728.4224 4865852
0 0 0 0
0 0 0 0
0 0 0 0
0 0 0 0
0 0 0 0
0 0 0 0
1045.3026 296.61145 1738.7683 2695972
1060.0726 297.8569 1746.0693 3287339
1067.4568 297.02307 1741.1813 3353129
1069.2628 294.668 1727.3756 3154977
0 0 0 0
0 0 0 0
0 0 0 0
0 0 0 0
0 0 0 0
0 0 0 0
0 0 0 0
0 0 0 0
0 0 0 0
0 0 0 0
0 0 0 0
0 0 0 0
9022.5283 2210.4409 12957.843 2175260
9678.0527 2350.9651 13781.611 2177053
10201.281 2457.2629 14404.741 2177824
9444.9453 2256.1377 13225.724 2243615
8088.4375 1916.1533 11232.697 2112541
7626.4424 1791.9117 10504.38 2178332
7590.272 1768.9279 10369.646 2046745
7633.8257 1764.7443 10345.121 2374939
7713.5737 1768.9279 10369.646 2702369
7632.9922 1736.569 10179.954 1579785
7901.5552 1783.5276 10455.23 1312769
8141.3608 1823.3126 10688.455 1114369
8390.2461 1864.4993 10929.896 1114369
8334.9912 1837.9852 10774.468 655360
8731.4619 1910.7281 11200.895 721667
8210.9062 1783.2136 10453.391 2037013
8246.2041 1777.4263 10419.464 2168342
8219.6748 1758.4978 10308.504 2233621
8031.6323 1705.5518 9998.1279 2232594
7968.4409 1679.7013 9846.5898 2363664
7899.2622 1652.9752 9689.9189 1574148
7954.0747 1652.3943 9686.5127 1508098
7896.6577 1628.6743 9547.4639 786432
7887.3086 1615.1361 9468.1025 851968
8270.5107 1681.6056 9857.7539 720896
8329.1182 1681.6056 9857.7539 983040
8368.3984 1677.731 9835.04 983040
8388.7031 1670.1322 9790.4951 851968
8173.5967 1616.0924 9473.708 1049347
7839.0615 1539.3401 9023.7773 1115397
7333.2778 1430.2323 8384.1758 1378055
7370.5903 1427.8042 8369.9424 1837320
7420.3516 1427.8042 8369.9424 1638657
7522.4194 1437.8018 8428.5488 2230792
8473.2295 1608.8184 9431.0664 2559758
8651.8105 1631.9266 9566.5303 3414553
8719.5654 1633.9652 9578.4805 2494479
8776.5117 1633.9652 9578.4805 4008747
9109.5312 1685.0317 9877.8379 4600885
9168.2588 1685.0317 9877.8379 4470842
9552.0576 1744.3965 10225.841 3812912
9612.8525 1744.3965 10225.841 2300185
9673.6484 1744.3965 10225.841 3352873
8718.3779 1562.3192 9158.4834 2761507
8772.8271 1562.3192 9158.4834 2234905
8221.5449 1455.1119 8530.0234 2365719
7546.7603 1327.495 7781.9189 1182474
0 0 0 0
0 0 0 0
0 0 0 0
0 0 0 0
0 0 0 0
0 0 0 0
-6460.606 1279.8992 7250.2231 397569
-6617.3257 1319.7518 7475.9761 529155
-6529.7773 1311.0975 7426.9521 529667
-6576.7402 1329.5175 7531.2954 990219
-6505.7793 1324.1876 7501.1035 1845270
-6461.1826 1324.1876 7501.1035 200192
-6355.2271 1311.5249 7429.373 1536
-6341.8574 1317.9257 7465.6309 1280
-6333.2686 1325.417 7508.0674 134656
-6426.855 1354.5497 7673.0942 200192
-6450.0547 1369.1578 7755.8452 67584
-6394.5244 1367.1439 7744.4365 1280
-6171.9893 1329.1364 7529.1362 1280
-6127.2266 1329.1364 7529.1362 792328
-6082.4639 1329.1364 7529.1362 768
-6137.7412 1351.1592 7653.8882 660739
-6148.9663 1363.741 7725.1602 67072
-6103.0386 1363.741 7725.1602 199936
