# .PCD v0.7 - Point Cloud Data file format
VERSION 0.7
FIELDS x y z rgb
SIZE 4 4 4 4
TYPE F F F U
COUNT 1 1 1 1
WIDTH 1519
HEIGHT 1
VIEWPOINT 0 0 0 1 0 0 0
POINTS 1519
DATA ascii
-3638.342 734.40643 9732.0518 199424
-3603.4883 739.12524 9794.584 1024
-3492.6768 728.16327 9649.3203 768
-3487.0249 739.12524 9794.584 768
-3448.5798 743.39056 9851.1055 512
-3352.2976 735.12012 9741.5088 1024
-3166.655 706.61877 9363.8213 768
-3110.9846 706.61877 9363.8213 660737
-3061.0203 707.93848 9381.3096 858624
-3061.8369 721.26953 9557.9668 398080
-3178.8367 762.99127 10110.846 398080
-3147.8113 770.10718 10205.144 266240
-3087.1389 770.10718 10205.144 991489
-2956.9509 752.4184 9970.7393 2044170
-2947.2874 765.3017 10141.463 660994
-2914.5249 772.59985 10238.176 1385734
-2852.1677 772.19696 10232.836 200448
-2792.7874 772.59985 10238.176 1280
-2706.8025 765.49701 10144.051 462595
-2656.136 768.28607 10181.011 264450
-2672.6606 791.09351 10483.246 1536
-2547.0725 771.92108 10229.181 67072
-2532.0684 786.14441 10417.662 1024
-2480.1152 789.32153 10459.764 1024
-2408.1968 786.14441 10417.662 1536
-2302.4336 771.45966 10223.065 331520
-2262.3667 778.58752 10317.521 792579
-2236.7788 791.23462 10485.115 200448
-2155.9739 784.51453 10396.063 660992
-2112.1047 791.23462 10485.115 661248
-2050.9153 791.67755 10490.984 990212
-1985.2457 790.36456 10473.586 200448
-1951.4551 802.06934 10628.692 397056
-1888.2646 802.06934 10628.692 857858
-1825.0741 802.06934 10628.692 133376
-1763.1067 802.62616 10636.071 989444
-1691.2418 798.55109 10582.07 201216
-1633.5748 801.12396 10616.165 660994
-1565.415 798.55109 10582.07 1792
-1537.2987 817.04504 10827.145 331008
-1469.3694 815.0708 10800.983 660224
-1338.1764 776.2196 10286.143 1280
-1281.7992 779.12317 10324.619 1280
-1243.5839 793.91345 10520.614 1024
-1188.8358 799.15662 10590.095 768
-1119.9559 794.95544 10534.422 791811
-1073.4889 807.10767 10695.459 133120
-1013.9384 810.33398 10738.213 68608
-980.60309 836.35266 11083.002 332032
-901.77026 824.52002 10926.2 2306071
-817.88129 805.86835 10679.036 67584
-758.16974 809.90466 10732.522 1280
-694.36194 809.90466 10732.522 1280
-638.82172 820.52374 10873.243 768
-576.30011 823.55743 10913.444 2048
-501.93604 808.29034 10711.131 527619
-440.7775 812.94202 10772.773 396545
-374.57471 808.29034 10711.131 1280
-310.45517 807.14929 10696.01 594180
-250.73952 819.81934 10863.908 593920
-190.13248 837.35596 11096.297 660993
-119.67692 807.10895 10695.476 1911309
-58.373688 839.98004 11131.07 1779978
7.8036232 839.98004 11131.07 1846024
72.375298 821.74969 10889.488 1451269
141.31996 846.94232 11223.331 1056262
208.04579 846.94232 11223.331 463616
270.29196 833.1344 11040.354 134656
336.73245 835.12482 11066.729 1252874
405.2103 840.69135 11140.495 463361
467.5947 833.8277 11049.542 595460
557.64404 871.91101 11554.206 660994
586.99506 817.14392 10828.455 398081
651.37323 817.14392 10828.455 594435
713.40692 814.46729 10792.985 923657
768.7381 805.21198 10670.337 1054984
860.9483 833.05176 11039.259 133376
923.25714 830.06445 10999.673 529152
988.65326 830.06445 10999.673 199936
1036.5425 816.27777 10816.978 1910803
1101.9816 817.11505 10828.072 1536
1166.3574 817.11505 10828.072 1911570
1269.2654 842.69739 11167.079 332032
1249.8649 788.56927 10449.795 1056261
0 0 0 0
0 0 0 0
0 0 0 0
0 0 0 0
871.86774 440.58206 5838.4121 512
956.31726 464.75415 6158.731 132354
991.04639 463.87128 6147.0312 1711897
989.53229 446.69046 5919.3579 198147
0 0 0 0
0 0 0 0
0 0 0 0
1996.6927 789.08484 10456.628 1792
2091.2737 801.50757 10621.249 1792
2229.4814 829.43274 10991.302 1280
2318.4514 837.97119 11104.449 1280
2385.7095 838.40662 11110.219 1024
2471.0876 845.01495 11197.79 991756
2537.6616 845.01495 11197.79 530950
2652.5674 860.69751 11405.608 795143
2838.2319 897.9856 11899.735 1190412
3014.0325 930.41486 12329.476 861193
3355.6177 1011.2661 13400.882 267523
3137.7979 923.69171 12240.382 2375199
3210.5703 923.69171 12240.382 1585169
3283.3428 923.69171 12240.382 3162923
3640.4258 1001.9415 13277.316 1024
3697.7163 996.11023 13200.042 1024
3790.238 999.81458 13249.132 768
4077.5261 1053.6992 13963.188 256
4180.3765 1058.7227 14029.757 256
4263.7871 1058.7227 14029.757 512
4009.2222 976.41156 12939.004 768
4017.657 960.04523 12722.124 201220
4163.0742 976.41156 12939.004 1846553
4393.1909 1011.6893 13406.489 2242847
4355.7407 985.1908 13055.343 2177308
3916.1025 870.24506 11532.129 2637859
3766.5508 822.60931 10900.881 2177310
4317.5059 926.98706 12284.051 925967
4576.1655 966.17914 12803.408 1188114
4652.2856 966.17914 12803.408 2175266
5785.3945 1182.1592 15665.486 201477
5907.6602 1188.0171 15743.114 530443
5841.9209 1156.4746 15325.126 1780764
5201.0015 1013.7861 13434.276 1583386
5152.0635 989.05835 13106.594 1781533
4944.6699 935.10144 12391.579 2637353
4519.3174 842.11487 11159.359 4872774
0 0 0 0
0 0 0 0
0 0 0 0
0 0 0 0
0 0 0 0
0 0 0 0
0 0 0 0
0 0 0 0
0 0 0 0
0 0 0 0
0 0 0 0
0 0 0 0
0 0 0 0
894.73993 138.29892 1832.6803 66056
913.74225 139.53685 1849.085 3
0 0 0 0
0 0 0 0
0 0 0 0
0 0 0 0
0 0 0 0
0 0 0 0
0 0 0 0
0 0 0 0
0 0 0 0
0 0 0 0
0 0 0 0
0 0 0 0
0 0 0 0
0 0 0 0
0 0 0 0
0 0 0 0
0 0 0 0
0 0 0 0
887.98285 110.37291 1462.6163 394764
911.56274 112.20502 1486.8948 131338
923.05322 112.52814 1491.1766 197130
935.21558 112.92624 1496.452 268
924.89581 110.62771 1465.9929 783
926.85291 109.82686 1455.3804 1908784
915.40698 107.46732 1424.1127 3816780
944.1582 109.82686 1455.3804 3619658
946.30096 109.07649 1445.4368 329232
955.39636 109.13383 1446.1965 1644835
959.80164 108.65916 1439.9064 1381403
974.85101 109.38725 1449.5548 1973286
990.82532 110.20547 1460.3975 131333
999.50781 110.20547 1460.3975 7
1008.1902 110.20547 1460.3975 7
1041.4042 112.8641 1495.6285 6
1054.4047 113.3056 1501.4792 65540
1067.3418 113.73294 1507.1422 3
1072.2581 113.3056 1501.4792 131590
1069.1803 112.04756 1484.8081 65541
1078.0078 112.04756 1484.8081 197382
1075.6306 110.8924 1469.5004 2697518
0 0 0 0
0 0 0 0
0 0 0 0
0 0 0 0
1077.5312 106.75294 1414.6461 263174
1138.5358 111.92317 1483.1599 65541
1140.8617 111.28989 1474.7679 131590
1149.5991 111.28695 1474.7288 394506
1179.4673 113.31412 1501.592 4
1210.2202 115.3952 1529.1697 131334
1238.6285 117.22336 1553.3956 3
1242.7144 116.7396 1546.9852 131334
1245.4265 116.13488 1538.9717 65797
1221.1117 113.03711 1497.9213 4
1255.4849 115.37754 1528.9358 4
1264.5747 115.37754 1528.9358 197127
1273.6647 115.37754 1528.9358 591885
1295.7657 116.54782 1544.4438 197385
1304.9202 116.54536 1544.4111 6
1294.608 114.81646 1521.5005 592917
1303.6538 114.81646 1521.5005 592663
1292.9728 113.09105 1498.636 395798
0 0 0 0
0 0 0 0
0 0 0 0
0 0 0 0
0 0 0 0
0 0 0 0
10188.153 850.10968 11265.304 856595
10255.129 850.10968 11265.304 526603
10322.104 850.10968 11265.304 658959
10615.252 868.61676 11510.552 724751
10715.916 871.23724 11545.277 658443
9905.8877 800.25342 10604.629 1118994
9587.1553 769.60614 10198.504 1118994
9199.6895 733.86127 9724.8271 2237475
7238.7393 573.82947 7604.1519 2369062
7283.9478 573.82947 7604.1519 1447956
12622.459 988.26367 13096.062 1710874
15361.627 1195.3508 15840.298 328965
0 0 0 0
0 0 0 0
0 0 0 0
0 0 0 0
-6404.7051 577.41376 7092.8442 68097
-6680.6475 606.28302 7447.4692 512
-6636.3701 606.28302 7447.4692 512
-6592.0933 606.28302 7447.4692 512
-6515.814 603.31989 7411.0703 331521
-6471.7529 603.31989 7411.0703 1713422
-6368.4214 597.75659 7342.7319 1911824
-6324.7671 597.75659 7342.7319 1254148
-6227.3101 592.63635 7279.8359 793600
-6304.7388 604.20435 7421.9346 1188103
-6293.7964 607.40686 7461.2734 1450767
-6317.751 614.04645 7542.8335 66816
-6272.9062 614.04645 7542.8335 1280
-6302.1592 621.35193 7632.5728 132608
-6256.7812 621.35193 7632.5728 768
-6393.1196 639.52979 7855.8657 1024
-6203.0518 625.08307 7678.4053 594951
-6157.4014 625.08307 7678.4053 134401
-6111.7515 625.08307 7678.4053 2816
-6103.9541 628.98364 7726.3193 1024
-6029.2837 626.00012 7689.6704 1280
-5983.5664 626.00012 7689.6704 68096
-6045.105 637.30762 7828.5693 200193
-6135.9062 651.89954 8007.814 1024
-6110.4316 654.26953 8036.9263 1536
-6084.1885 656.59393 8065.479 768
-6036.2368 656.59393 8065.479 768
-6055.0303 663.91229 8155.3765 1280
-6049.9541 668.71039 8214.3154 133121
-5722.7861 637.69574 7833.3364 1845014
-5555.5918 624.14429 7666.873 265728
-5510.0103 624.14429 7666.873 3072
-5643.0757 644.54926 7917.5244 200193
-5596.0034 644.54926 7917.5244 2568734
-5487.2217 637.38123 7829.4731 595201
-5452.9614 638.82074 7847.1562 462592
-5528.6328 653.2749 8024.7085 528386
-5537.5854 660.02844 8107.668 396291
-5489.3828 660.02844 8107.668 66816
-5450.2319 661.1264 8121.1543 768
-5294.4497 647.96991 7959.5425 768
-5281.1299 652.16882 8011.1211 265216
-5342.9453 665.80701 8178.6504 1536
-5326.4795 669.85126 8228.3291 1280
-5234.4385 664.37811 8161.0981 1280
-5225.1543 669.40466 8222.8438 133632
-5176.2676 669.40466 8222.8438 1024
-5200.8862 679.00128 8340.7266 768
-5112.7144 673.91541 8278.2529 768
-5063.4976 673.91541 8278.2529 768
-5064.7085 680.69281 8361.5049 768
-5174.1958 702.30115 8626.9375 768
-5133.8364 703.79956 8645.3438 1024
-5071.6167 702.30115 8626.9375 857348
-4887.8257 683.76526 8399.2461 133632
-5008.2046 707.83679 8694.9365 923904
-5068.7124 723.86023 8891.7656 1280
-5015.8481 723.86023 8891.7656 2304
-4962.9844 723.86023 8891.7656 199680
-4966.5845 732.18427 8994.0166 727553
-4990.4575 743.71082 9135.6064 1450507
-5056.0874 761.78229 9357.5928 595201
-5000.4541 761.78229 9357.5928 1024
-4832.1558 744.42554 9144.3857 1024
-4388.3716 683.75037 8399.0635 1024
-4337.2881 683.56934 8396.8398 988934
-4510.9282 719.21362 8834.6875 1024
-4458.4038 719.21362 8834.6875 1280
-4352.666 710.52716 8727.9844 768
-4303.6514 711.00226 8733.8203 1280
-4326.0835 723.43677 8886.5635 768
-4276.771 724.03278 8893.8848 1280
-4223.8945 724.03278 8893.8848 2048
-4200.5952 729.16699 8956.9531 1280
-4198.8799 738.22784 9068.2549 2048
-4118.6387 733.53882 9010.6553 68608
-4054.2524 731.58716 8986.6816 1024
-4000.8242 731.58716 8986.6816 1536
-3992.8928 740.01929 9090.2607 2048
-3910.1355 734.62476 9023.9951 134912
-3792.4348 722.42371 8874.1201 1792
-3739.6755 722.42371 8874.1201 133888
-3686.9167 722.42371 8874.1201 1280
-3769.2573 749.27985 9204.0156 1280
-3772.6855 761.0094 9348.0986 1280
-3747.9937 767.33252 9425.7715 1536
-3691.9551 767.33252 9425.7715 67840
-3635.9163 767.33252 9425.7715 989958
-3572.031 765.65076 9405.1123 1536
-3637.3745 792.05554 9729.4639 2304
-3579.5298 792.05554 9729.4639 462593
-3490.4771 785.0365 9643.2432 768
-3435.3088 785.53125 9649.3203 512
-3552.6787 826.16602 10148.471 264192
-3384.7197 800.70612 9835.7256 527877
-3166.655 762.28931 9363.8213 1647630
-3050.9924 747.58929 9183.249 529665
-3118.6619 778.0943 9557.9668 200448
-3086.7639 784.42883 9635.7793 2048
-3113.3623 806.14954 9902.5928 661248
-3022.7576 797.77509 9799.7217 331776
-3058.613 823.10297 10110.846 69376
-2919.0227 801.28577 9842.8467 1846540
-3020.5969 846.1311 10393.718 991234
-2883.3589 824.55615 10128.695 1056770
-2827.4209 825.80621 10144.051 199681
-2792.7874 833.46869 10238.176 332288
-2716.6648 828.815 10181.011 1253130
-2681.0994 836.60449 10276.695 727043
-2652.5344 846.9928 10404.303 1280
-2590.678 846.9928 10404.303 1024
-2528.8213 846.9928 10404.303 133888
-2470.1326 848.08032 10417.662 331520
-2310.3018 813.60522 9994.1768 462338
-2302.4336 832.23853 10223.065 1024
-2241.6548 832.23853 10223.065 1280
-2210.3457 843.48462 10361.209 1024
-2155.9739 846.32196 10396.063 1024
-2112.1047 853.57153 10485.115 768
-2047.5139 852.633 10473.586 332032
-1983.8931 852.052 10466.45 68608
-1914.8705 849.03851 10429.433 134144
-1852.8647 849.03851 10429.433 660736
-1822.087 863.84375 10611.297 1280
-1758.5865 863.64069 10608.803 1280
-1675.5648 853.47906 10483.979 2304
-1633.5748 864.24005 10616.165 1024
-1570.4589 864.24005 10616.165 265216
-1548.4629 887.81641 10905.773 594688
-1488.5355 890.75494 10941.869 792065
-1406.4114 880.07214 10810.644 660226
-1287.7924 844.43573 10372.893 330241
-1226.1226 844.43573 10372.893 1280
-1181.036 856.46149 10520.614 132864
-1137.0764 870.69519 10695.459 133888
-1068.6923 866.80469 10647.669 69120
-1009.9015 870.69519 10695.459 660992
-966.72955 889.47931 10926.2 792580
-901.77026 889.47931 10926.2 924163
-817.88129 869.35828 10679.036 1280
-765.74207 882.43872 10839.715 1024
-701.297 882.43872 10839.715 397569
-640.56689 887.58649 10902.948 463617
-576.30011 888.44092 10913.444 792070
-504.82465 876.9892 10772.773 529408
-440.7775 876.9892 10772.773 660993
-379.91742 884.40826 10863.908 332032
-315.32846 884.40826 10863.908 989958
-254.38257 897.25806 11021.753 594690
-189.62505 900.91571 11066.683 133120
-119.59924 870.13135 10688.533 68096
-57.059628 885.75879 10880.497 858625
7.6279545 885.75879 10880.497 793088
72.375298 886.49072 10889.488 2043149
143.14157 925.44537 11368 1384203
208.04579 913.66815 11223.331 1536
272.74362 906.92462 11140.495 264704
338.97693 906.92462 11140.495 199680
405.2103 906.92462 11140.495 133632
482.7103 928.59851 11406.732 791812
557.64404 940.60394 11554.206 659969
586.99506 881.52209 10828.455 1536
649.23962 878.63458 10792.985 857604
705.56671 868.97852 10674.372 726019
801.46906 905.63495 11124.653 66816
871.09668 909.27643 11169.384 660227
926.57977 898.68317 11039.259 397312
1003.9069 909.27643 11169.384 1792
1036.5425 880.58777 10816.978 1911567
1101.9816 881.49091 10828.072 594947
1206.5756 911.88635 11201.443 68864
1269.2654 909.08881 11167.079 1280
1267.291 862.55707 10595.491 726531
0 0 0 0
0 0 0 0
0 0 0 0
0 0 0 0
853.29614 465.16885 5714.0483 256
961.9494 504.32227 6195.002 922381
998.7804 504.32227 6195.002 1975324
989.53229 481.88269 5919.3579 725769
1004.1987 472.23029 5800.79 792076
0 0 0 0
0 0 0 0
1986.3853 846.85797 10402.647 199427
2058.8606 851.2525 10456.628 1024
2179.6699 874.78778 10745.731 1280
2319.656 904.4599 11110.219 1280
2385.7095 904.4599 11110.219 529670
2328.5334 859.00037 10551.803 333572
2500.6274 898.28528 11034.371 1190159
2654.1003 929.04358 11412.2 1518866
2755.3337 940.43835 11552.171 1518865
3000.7625 999.29797 12275.192 3072
3222.2781 1047.5883 12868.381 2560
3404.4185 1081.1343 13280.454 1978903
3526.4656 1094.5084 13444.74 1321229
3606.3979 1094.5084 13444.74 1320721
3719.0183 1104.2137 13563.958 67328
3678.6108 1069.0358 13131.839 1024
3756.6831 1069.0358 13131.839 1025
3869.0076 1078.5844 13249.132 512
3947.7773 1078.5844 13249.132 768
4265.5435 1142.6039 14035.535 67074
3608.6514 948.09613 11646.238 659979
3874.4763 998.77228 12268.734 1122577
4121.833 1042.9028 12810.826 1121805
4393.1909 1091.3945 13406.489 398339
4355.7407 1062.8085 13055.343 3427626
4157.0103 996.55951 12241.554 4677438
3991.0747 940.31714 11550.682 792070
4169.8359 965.81586 11863.904 1536
4671.4458 1064.0006 13069.987 1024
4652.2856 1042.299 12803.408 200453
4857.8643 1070.8362 13153.953 1911328
5750.8086 1247.5868 15325.126 859410
5058.5269 1080.287 13270.046 1714975
5201.0015 1093.6566 13434.276 859921
4890.3101 1012.772 12440.705 334088
4784.8145 976.16034 11990.974 2374182
4559.105 916.45831 11257.605 3164210
0 0 0 0
0 0 0 0
0 0 0 0
0 0 0 0
0 0 0 0
0 0 0 0
0 0 0 0
0 0 0 0
0 0 0 0
0 0 0 0
0 0 0 0
0 0 0 0
0 0 0 0
902.74896 150.53017 1849.085 197385
915.7854 150.86676 1853.2195 1
919.15118 149.62114 1837.9185 768
0 0 0 0
0 0 0 0
0 0 0 0
0 0 0 0
0 0 0 0
0 0 0 0
0 0 0 0
0 0 0 0
0 0 0 0
0 0 0 0
0 0 0 0
0 0 0 0
0 0 0 0
0 0 0 0
0 0 0 0
0 0 0 0
0 0 0 0
896.28461 120.18175 1476.2904 198151
908.70056 120.66496 1482.2262 1031
920.40277 121.04503 1486.8948 778
926.32507 120.66496 1482.2262 780
922.4585 119.02895 1462.1298 132881
917.87573 117.33195 1441.2841 1646894
909.6969 115.21089 1415.2294 3751758
938.20032 117.73186 1446.1965 3619658
944.3916 117.43259 1442.5203 461331
952.96771 117.43259 1442.5203 2433839
959.39636 117.1703 1439.2983 1643806
970.51056 117.47985 1443.1008 2367786
988.94653 118.6625 1457.6282 6
1004.5365 119.48608 1467.745 65543
1009.972 119.09803 1462.9783 65540
1043.0856 121.95261 1498.0433 5
1054.4047 122.23232 1501.4792 4
1063.3313 122.23232 1501.4792 986643
1034.403 117.91702 1448.4709 395018
0 0 0 0
0 0 0 0
0 0 0 0
0 0 0 0
0 0 0 0
0 0 0 0
0 0 0 0
0 0 0 0
0 0 0 0
0 0 0 0
0 0 0 0
1113.3057 115.38443 1417.3611 1
1210.2202 124.48653 1529.1697 328967
1238.6285 126.45872 1553.3956 394760
1242.7144 125.93687 1546.9852 65541
1251.9116 125.93687 1546.9852 3
1250.3879 124.86626 1533.834 4
1255.4849 124.4675 1528.9358 4
1264.5747 124.4675 1528.9358 65540
1273.6647 124.4675 1528.9358 131336
1294.8578 125.64188 1543.3617 197386
1296.2025 124.88737 1534.0935 6
1277.7596 122.25023 1501.6992 921626
1298.3096 123.35445 1515.2633 921629
1292.9728 122.00085 1498.636 856348
1294.3186 121.29203 1489.9288 856348
0 0 0 0
0 0 0 0
0 0 0 0
0 0 0 0
0 0 0 0
10523.504 947.27161 11636.109 921615
10592.684 947.27161 11636.109 855568
10546.818 937.05017 11510.552 657933
10647.276 939.87714 11545.277 855568
10575.19 927.5343 11393.66 461064
10036.129 874.65149 10744.058 1316373
9770.0713 846.07941 10393.084 1776924
9199.6895 791.67798 9724.8271 2171682
7824.9316 669.16791 8219.9355 1711131
7873.8013 669.16791 8219.9355 1513750
12622.459 1066.1234 13096.062 724234
12700.318 1066.1234 13096.062 328706
0 0 0 0
0 0 0 0
0 0 0 0
0 0 0 0
0 0 0 0
-6702.4155 652.68005 7471.7354 1714444
-6657.9937 652.68005 7471.7354 1254149
-6614.1992 652.74194 7472.4438 1122821
-6520.3696 647.83331 7416.2515 1056518
-6471.7529 647.38074 7411.0703 1517067
-6360.2612 640.58923 7333.3228 69376
-6316.6621 640.58923 7333.3228 333056
-6302.5645 643.60175 7367.8091 1056772
-6387.4106 656.83118 7519.2568 464640
-6362.5947 658.89075 7542.8335 1057031
-6411.9307 668.71295 7655.2764 727300
-6366.418 668.71295 7655.2764 398337
-6320.9053 668.71295 7655.2764 594948
-6256.7812 666.72974 7632.5728 858122
-6214.835 667.09808 7636.7896 1024
-6257.9292 676.66718 7746.335 68864
-6157.4014 670.73334 7678.4053 768
-6165.8208 676.66718 7746.335 768
-6118.2144 676.49554 7744.3701 1024
-6029.2837 671.71741 7689.6704 1024
-5983.5664 671.71741 7689.6704 1024
-6045.105 683.85065 7828.5693 1280
-6107.6592 696.28802 7970.9497 67584
-6088.2974 699.50824 8007.814 68352
-6062.6494 702.05133 8036.9263 2560
-6014.8677 702.05133 8036.9263 2560
-5914.0576 695.81232 7965.5039 132609
-5866.7007 695.81232 7965.5039 726791
-5722.7861 684.26709 7833.3364 989705
-5555.5918 669.72595 7666.873 529154
-5510.0103 669.72595 7666.873 2816
-5629.0723 689.90485 7897.877 330496
-5596.0034 691.62115 7917.5244 133120
-5624.0508 700.98401 8024.7085 67328
-5576.3418 700.98401 8024.7085 265472
-5406.3081 685.4743 7847.1562 397312
-5345.771 683.69867 7826.8291 265986
-5237.0649 675.67719 7735.001 200192
-5341.7715 695.29156 7959.5425 594948
-5163.8691 678.14313 7763.231 134144
-5424.3188 718.77094 8228.3291 67584
-5342.9453 714.4314 8178.6504 265216
-5294.3203 714.4314 8178.6504 264960
-5191.7598 707.08545 8094.5566 1280
-5177.7881 711.78046 8148.3037 1024
-5130.4941 711.94 8150.1299 1024
-5149.6172 721.40698 8258.5059 1024
-5100.5181 721.40698 8258.5059 1024
-5114.4199 730.4043 8361.5049 1024
-5361.0825 773.14575 8850.7998 1024
-5128.6938 746.9635 8551.0713 462593
-5122.9062 753.5907 8626.9375 331776
-5075.7012 754.19751 8633.8848 265730
-4887.8257 733.70111 8399.2461 529408
-4884.395 740.75397 8479.9863 133632
-5206.4897 797.8371 9133.4609 2816
-5152.1885 797.8371 9133.4609 1792
-4949.9839 774.68964 8868.4736 595456
-4931.2256 780.06287 8929.9854 463360
-4913.1123 785.65619 8994.0166 1319175
-5047.9282 816.09656 9342.4912 67072
-5000.4541 817.41577 9357.5928 1280
-4832.1558 798.79144 9144.3857 67072
-4388.3716 733.68518 8399.0635 528640
-4441.0552 751.03925 8597.7295 66816
-4563.0352 780.65277 8936.7383 1976082
-4513.1006 781.20612 8943.0732 1581581
-4352.666 762.41742 8727.9844 1054984
-4300.7759 762.41742 8727.9844 1280
-4336.7773 778.18872 8908.5303 1280
-4287.2827 778.81885 8915.7441 1280
-4253.8472 782.41858 8956.9531 2048
-4222.2422 786.45062 9003.1113 2560
-4318.9028 814.78412 9327.4668 2048
-4263.4487 814.78412 9327.4668 1536
-4072.6731 788.58228 9027.5137 768
-4046.9368 794.06348 9090.2607 463360
-4068.8545 809.16992 9263.1963 332288
-3932.9993 792.88422 9076.7617 2304
-3856.4854 788.2749 9023.9951 2304
-3814.9951 790.79547 9052.8506 2560
-3761.5349 790.87158 9053.7207 1280
-3804.0737 811.42676 9289.0322 265216
-3958.3259 856.76764 9808.085 857860
-3900.0142 856.76764 9808.085 2048
-3691.9551 823.37134 9425.7715 792579
-3613.8293 818.36969 9368.5137 397568
-3558.1309 818.36969 9368.5137 1792
-3630.6675 848.3327 9711.5234 199682
-3572.9294 848.3327 9711.5234 199937
-3460.7102 835.18445 9561.0049 1280
-3467.5212 850.80286 9739.8008 1536
-3482.1528 868.9032 9947.0088 768
-3384.7197 859.18219 9835.7256 768
-3166.655 817.95984 9363.8213 1024
-3089.6707 812.35583 9299.668 462848
-3052.3777 817.17377 9354.8223 1384711
-3005.5496 819.57025 9382.2578 67840
-3045.3525 846.12726 9686.2764 2560
-2987.7649 846.12726 9686.2764 1024
-2979.3037 860.31317 9848.6729 1536
-2938.125 865.43085 9907.2588 1056258
-2964.425 891.04053 10200.433 990721
-2885.8186 885.52875 10137.336 1122309
-2885.2671 904.24432 10351.587 793090
-2826.0334 904.98395 10360.054 200192
-2762.1807 904.24432 10351.587 726277
-2702.8467 904.98395 10360.054 1280
-2672.6606 915.74518 10483.246 1024
-2612.0178 916.33563 10490.006 1024
-2532.0684 910.01617 10417.662 923397
-2483.4946 914.93896 10474.017 199424
-2310.3018 873.02344 9994.1768 1054474
-2288.2749 887.526 10160.199 768
-2262.3667 901.26862 10317.521 396288
-2223.8794 910.62659 10424.649 264192
-2183.2722 919.62793 10527.695 1024
-2112.1047 915.90851 10485.115 1024
-2040.8805 911.93726 10439.653 199680
-1976.8763 911.04443 10429.433 989699
-1880.7825 894.82623 10243.771 1056004
-1819.8804 894.82623 10243.771 1187335
-1816.7806 924.23132 10580.394 1024
-1758.2174 926.51849 10606.576 768
-1681.0449 918.8045 10518.269 1024
-1651.2622 937.39697 10731.111 1536
-1575.2314 930.17426 10648.428 265472
-1539.4703 947.12183 10842.439 199168
-1470.6836 944.34436 10810.644 331520
-1406.4114 944.34436 10810.644 463616
-1277.0223 898.52759 10286.143 1056006
-1219.2664 901.0387 10314.89 1121286
-1180.0133 918.21356 10511.504 1024
-1131.9957 930.10803 10647.669 512
-1057.3258 920.21558 10534.422 1024
-995.64282 921.09174 10544.452 1024
-950.09674 938.01733 10738.213 1536
-881.15063 932.61475 10676.365 1581835
-817.6767 932.61475 10676.365 529921
-765.74207 946.88385 10839.715 727296
-703.46613 949.81262 10873.243 595456
-638.82172 949.81262 10873.243 200704
-575.74585 952.40747 10902.948 265472
-504.82465 941.03632 10772.773 134656
-438.25537 935.65167 10711.131 1024
-374.57471 935.65167 10711.131 1536
-310.45517 934.33075 10696.01 1056006
-254.38257 962.78546 11021.753 331264
-185.90945 947.76813 10849.838 990468
-122.97285 960.01447 10990.031 727040
-57.634052 960.01447 10990.031 134400
7.6342583 951.23169 10889.488 463360
72.375298 951.23169 10889.488 1056005
144.39864 1001.752 11467.833 1977106
210.72751 993.03131 11368 200704
274.21939 978.42365 11200.775 134912
339.80756 975.54254 11167.793 1024
401.90207 965.21295 11049.542 512
467.5947 965.21295 11049.542 660228
546.93097 989.90704 11332.234 199680
585.6225 943.68848 10803.135 528386
649.85016 943.68848 10803.135 265216
713.40692 942.80188 10792.985 132864
801.46906 971.77411 11124.653 791558
871.09668 975.68146 11169.384 132864
926.57977 964.3147 11039.259 199168
1044.2291 1014.8701 11618.006 265472
1122.282 1023.0566 11711.724 1121800
1139.9799 978.48199 11201.443 464128
1166.3574 945.86682 10828.072 727555
1269.2654 975.48016 11167.079 1536
1267.291 925.55017 10595.491 2048
0 0 0 0
0 0 0 0
0 0 0 0
795.18713 484.43573 5545.7119 512
865.08911 506.03882 5793.019 263940
956.31726 537.98486 6158.731 1514517
992.93262 537.98486 6158.731 2633251
1024.6239 535.41187 6129.2749 1910039
1070.8756 540.36267 6185.9512 1515028
1239.1478 604.51184 6920.3169 726793
1301.8573 614.6947 7036.8877 512
1904.4735 871.23279 9973.6777 1792
2032.7769 901.84802 10324.154 512
2143.1709 922.95581 10565.792 1024
2313.126 967.78125 11078.943 2048
2378.9934 967.78125 11078.943 2048
2328.5334 921.73383 10551.803 4352
2391.2668 921.73383 10551.803 1123342
2654.1003 996.89227 11412.2 333573
2721.949 996.89227 11412.2 1386000
2961.7671 1058.343 12115.674 200962
3073.7419 1072.2773 12275.192 4096
3190.9617 1087.3528 12447.771 1123085
3526.4656 1174.4412 13444.74 596741
3606.3979 1174.4412 13444.74 793096
3719.0183 1184.8552 13563.958 1536
3678.6108 1147.1083 13131.839 768
3756.6831 1147.1083 13131.839 768
4257.6128 1273.5996 14579.883 1024
4447.1812 1303.7623 14925.181 1912864
4311.4551 1239.2455 14186.605 3032365
3608.6514 1017.3362 11646.238 3099431
3751.7505 1037.7662 11880.116 2901795
3947.4172 1071.7134 12268.734 2112023
4020.3584 1071.7134 12268.734 1782294
4141.9385 1084.4481 12414.52 993036
3922.4028 1008.9891 11550.682 1256720
3918.4961 990.64038 11340.63 3559221
3985.9194 990.64038 11340.63 4676934
4576.1655 1118.4188 12803.408 199939
4652.2856 1118.4188 12803.408 1536
4857.8643 1149.04 13153.953 1024
5144.4976 1197.5591 13709.389 2048
4742.3828 1086.7355 12440.705 768
4804.3247 1084.0231 12409.653 1024
4745.4194 1054.5376 12072.111 464652
4345.895 951.3656 10891.021 925458
0 0 0 0
0 0 0 0
0 0 0 0
0 0 0 0
0 0 0 0
0 0 0 0
0 0 0 0
0 0 0 0
0 0 0 0
0 0 0 0
0 0 0 0
0 0 0 0
0 0 0 0
0 0 0 0
895.79736 160.27969 1834.8462 197642
914.31219 161.62425 1850.2383 258
917.61469 160.27969 1834.8462 512
0 0 0 0
0 0 0 0
0 0 0 0
0 0 0 0
0 0 0 0
0 0 0 0
0 0 0 0
0 0 0 0
0 0 0 0
0 0 0 0
0 0 0 0
0 0 0 0
0 0 0 0
0 0 0 0
0 0 0 0
0 0 0 0
0 0 0 0
897.38159 129.11653 1478.0973 132615
906.32324 129.13847 1478.3484 774
915.11249 129.13847 1478.3484 778
923.90161 129.13847 1478.3484 780
909.30688 125.90079 1441.2841 67089
904.33173 124.04302 1420.0167 1646892
908.96973 123.52601 1414.0981 3818063
933.42493 125.68689 1438.8354 3619914
941.97919 125.68689 1438.8354 461330
952.01465 125.88274 1441.0775 2697010
960.62677 125.88857 1441.1442 1710370
977.09235 126.91439 1452.8876 2433580
985.7301 126.91439 1452.8876 6
1000.7133 127.72426 1462.1588 65543
1009.4062 127.72426 1462.1588 65541
1052.1461 131.99559 1511.0559 65541
1061.1298 131.99559 1511.0559 4
1029.0319 126.92829 1453.0466 986643
0 0 0 0
0 0 0 0
0 0 0 0
0 0 0 0
0 0 0 0
0 0 0 0
0 0 0 0
0 0 0 0
0 0 0 0
0 0 0 0
0 0 0 0
1104.879 123.81104 1417.3611 6317675
1201.1289 133.57788 1529.1697 1843231
1210.2202 133.57788 1529.1697 1910054
1239.6093 135.80154 1554.6256 5067602
1242.7144 135.13412 1546.9852 3027252
1251.9116 135.13412 1546.9852 2368808
1253.4991 134.3187 1537.6505 131846
1255.4849 133.55745 1528.9358 197379
1264.5747 133.55745 1528.9358 4013627
1272.6066 133.4465 1527.6656 5790293
1280.0079 133.27145 1525.6619 592395
1289.0784 133.27145 1525.6619 263690
1277.7596 131.17825 1501.6992 724242
1284.063 130.91066 1498.636 1316387
1292.9728 130.91066 1498.636 1251106
1296.3488 130.35422 1492.2659 1316900
0 0 0 0
0 0 0 0
0 0 0 0
0 0 0 0
0 0 0 0
9783.8252 945.0069 10818.228 1250837
10255.129 984.06042 11265.304 1250580
10439.714 995.27277 11393.66 1184787
10615.252 1005.4836 11510.552 921615
10509.171 989.05939 11322.531 724492
10081.279 942.75012 10792.393 790286
9968.9346 926.34839 10604.629 1316371
9447.7432 872.40002 9987.04 1711129
9257.5068 849.49481 9724.8271 1118992
10098.553 920.9201 10542.487 1053199
11327.132 1026.5867 11752.134 790027
12700.318 1143.9832 13096.062 526342
0 0 0 0
0 0 0 0
0 0 0 0
0 0 0 0
0 0 0 0
-6702.4155 697.10156 7471.7354 661505
-6673.1768 698.69128 7488.7739 793347
-6628.6538 698.69128 7488.7739 398336
-6491.5288 688.86456 7383.4487 793092
-6403.8599 684.18793 7333.3228 265984
-6360.2612 684.18793 7333.3228 398080
-6468.0435 700.58472 7509.0684 858880
-6432.1157 701.53528 7519.2568 727553
-6446.7656 708.0542 7589.1284 595712
-6494.9399 718.37299 7699.7285 793602
-6411.9307 714.22571 7655.2764 1188359
-6403.3857 718.37299 7699.7285 1846541
-6364.8999 719.19678 7708.5581 1977616
-6278.8286 714.61676 7659.4683 793092
-6013.6602 689.43719 7389.5859 200448
-6203.0518 716.38361 7678.4053 265729
-6136.1636 713.91272 7651.9214 396802
-6245.4331 732.05292 7846.354 66816
-6065.0547 716.26001 7677.0806 1024
-6019.4121 716.26001 7677.0806 67584
-6015.6528 721.2818 7730.9058 133121
-6053.3535 731.39026 7839.2515 2560
-6149.2168 748.73761 8025.1851 1792
-6065.2412 744.28766 7977.4888 2304
-6017.813 744.28766 7977.4888 331265
-5800.7915 723.14557 7750.8823 2048
-5807.7915 729.81592 7822.3765 1516049
-5761.2852 729.81592 7822.3765 792328
-5722.7861 730.83844 7833.3364 2048
-5550.8325 714.69489 7660.3052 67584
-5505.29 714.69489 7660.3052 594692
-5536.8252 724.78455 7768.4492 1536
-5582.1172 736.85999 7897.877 67328
-5731.1772 762.95422 8177.5625 1024
-5662.0815 760.20483 8148.0938 1024
-5392.3037 730.23132 7826.8291 923398
-5276.3369 720.74658 7725.1694 923139
-5237.0649 721.66388 7735.001 594688
-5450.2319 757.69141 8121.1543 330497
-5163.8691 724.29773 7763.231 68096
-5440.666 770.00427 8253.127 1280
-5237.7163 748.0274 8017.5728 462848
-5190.0498 748.0274 8017.5728 1792
-5207.5098 757.50098 8119.1133 1024
-5159.2393 757.50098 8119.1133 1536
-5107.3516 756.96484 8113.3667 1024
-5133.7666 768.13446 8233.0859 1024
-5095.751 769.78595 8250.7871 1280
-5114.4199 780.11572 8361.5049 397313
-5288.8716 814.64362 8731.584 1187337
-5128.6938 797.802 8551.0713 1187336
-5114.1035 803.49713 8612.1133 68608
-5075.7012 805.52838 8633.8848 858626
-5024.3701 805.52838 8633.8848 660992
-4865.4165 788.09576 8447.0371 198657
-5055.4346 827.41516 8868.4736 200192
-4783.0601 791.08661 8479.0938 134400
-4832.9868 807.85846 8658.8594 199936
-4911.0107 829.73877 8893.3779 595456
-4914.8042 839.41711 8997.1143 1056003
-4861.314 839.41711 8997.1143 528641
-4807.8237 839.41711 8997.1143 1024
-4517.1514 797.54059 8548.2695 66560
-4388.3716 783.61993 8399.0635 67072
-4408.2368 796.22742 8534.1943 1318408
-4438.8315 811.08905 8693.4854 528385
-4387.1465 811.08905 8693.4854 264960
-4303.479 805.10571 8629.3545 989190
-4303.6514 814.85223 8733.8203 791301
-4340.2891 831.82544 8915.7441 1280
-4316 837.39728 8975.4648 1280
-4275.7686 839.97668 9003.1113 1280
-4222.2422 839.97668 9003.1113 133376
-4358.4067 878.19836 9412.7822 1451272
-4302.4448 878.19836 9412.7822 1319431
-4065.0676 840.68048 9010.6553 1253634
-4105.9634 860.4776 9222.8467 200192
-4068.8545 864.24219 9263.1963 2048
-3951.7979 850.89575 9120.1455 1536
-3856.4854 841.92505 9023.9951 2304
-3729.9585 825.79059 8851.0615 397824
-3748.9116 841.86365 9023.3369 2560
-3764.4658 857.62915 9192.3154 529408
-3958.3259 915.07947 9808.085 68608
-3747.9937 879.41022 9425.7715 397824
-3625.7083 863.63043 9256.6396 595200
-3555.3333 859.91986 9216.8682 1024
-3500.5364 859.91986 9216.8682 132352
-3586.2297 894.98053 9592.6592 1280
-3548.5002 899.87537 9645.123 1280
-3471.6521 894.8476 9591.2344 1024
-3433.8145 899.87537 9645.123 1024
-3334.2268 888.61658 9524.4482 256
-3344.4351 906.73639 9718.6611 512
-3191.9143 880.59894 9438.5127 1024
-3130.5837 879.13416 9422.8125 330753
-3074.5625 879.13416 9422.8125 1122054
-3107.4143 905.01807 9700.2432 2560
-3083.6421 915.07733 9808.0625 2304
-2969.4712 898.18164 9626.9688 266240
-2979.3037 918.86627 9848.6729 595712
-2938.125 924.33221 9907.2588 464384
-2964.425 951.68494 10200.433 1056260
-2944.2703 964.95502 10342.665 1121541
-2882.7803 964.95502 10342.665 264450
-2823.7239 965.78741 10351.587 768
-2762.1807 965.78741 10351.587 512
-2702.8467 966.57733 10360.054 512
-2677.9456 980.005 10503.976 512
-2637.3958 988.21039 10591.924 768
-2545.7659 977.2099 10474.017 768
-2483.4946 977.2099 10474.017 132864
-2390.3123 964.73401 10340.296 1515536
-2347.8345 972.60394 10424.649 133376
-2285.8569 972.60394 10424.649 768
-2230.7571 975.61188 10456.889 1120524
-2216.7991 997.30121 10689.361 768
-2120.6821 982.21802 10527.695 1280
-2046.119 976.50397 10466.45 330753
-1983.8931 976.50397 10466.45 661248
-1914.8705 973.05023 10429.433 859138
-1816.4917 953.94873 10224.696 2042901
-1758.9784 955.72827 10243.771 660226
-1761.1222 991.2124 10624.1 2304
-1697.959 991.2124 10624.1 1280
-1657.6749 1005.0845 10772.785 1280
-1603.9316 1011.5832 10842.439 791812
-1548.4629 1017.4921 10905.773 768
-1470.6836 1008.6166 10810.644 1536
-1406.4114 1008.6166 10810.644 1024
-1295.6248 973.66132 10435.981 1450249
-1219.2664 962.36359 10314.89 1252871
-1153.104 958.3432 10271.798 594432
-1117.5194 980.7074 10511.504 768
-1054.9487 980.63586 10510.737 1024
-995.64282 983.78143 10544.452 768
-943.98816 995.4176 10669.172 462849
-881.15063 996.08875 10676.365 595456
-830.18726 1011.329 10839.715 463616
-756.35175 998.92706 10706.787 67584
-701.297 1011.329 10839.715 1792
-617.54407 980.66809 10511.082 529410
-563.46173 995.5249 10670.322 924163
-513.07239 1021.5043 10948.776 1280
-445.70566 1016.3209 10893.22 1536
-380.91284 1016.2419 10892.373 266752
-316.15466 1016.2419 10892.373 1451019
-254.18425 1027.5112 11013.16 2306326
-182.4229 993.28918 10646.359 661760
-122.97285 1025.3533 10990.031 990212
-57.634052 1025.3533 10990.031 266496
7.936461 1056.1901 11320.55 266496
75.24028 1056.1901 11320.55 398592
142.5441 1056.1901 11320.55 2372369
206.81575 1040.9288 11156.975 1648138
274.21939 1045.0154 11200.775 1280
339.80756 1041.9382 11167.793 1280
404.93787 1038.6926 11133.006 133120
479.55768 1057.2804 11332.234 594690
534.97614 1034.1703 11084.534 791556
598.04816 1029.3019 11032.354 726020
663.63855 1029.3019 11032.354 988934
740.06213 1044.5929 11196.247 67584
801.46906 1037.9133 11124.653 462848
858.43091 1026.9346 11006.98 463105
923.87054 1026.9346 11006.98 660740
1003.9069 1042.0867 11169.384 1280
1122.282 1092.686 11711.724 1121799
1139.9799 1045.0778 11201.443 1122055
1162.9176 1007.2632 10796.138 661762
1227.1036 1007.2632 10796.138 397825
1251.1886 975.98267 10460.862 595460
0 0 0 0
0 0 0 0
0 0 0 0
822.73676 535.33234 5737.8457 768
866.94696 541.64069 5805.4604 659209
983.93127 591.19208 6336.5664 1382931
1001.8701 579.77228 6214.166 3356976
1024.6239 571.85205 6129.2749 1975834
1070.8756 577.13989 6185.9512 330499
1248.0043 650.26971 6969.7778 256
1555.7504 784.57013 8409.248 66560
1808.516 883.64404 9471.1504 512
1944.8597 921.5686 9877.6367 768
2088.053 960.42041 10294.062 768
2214.4617 989.55914 10606.38 1024
2303.9629 1001.0486 10729.526 200707
2312.3118 977.60895 10478.294 400132
2401.5305 988.69275 10597.093 2506012
2604.1487 1044.702 11197.417 3032356
2692.1152 1053.071 11287.118 1057292
2900.0425 1106.8165 11863.178 1792
2916.5862 1086.7015 11647.58 1536
2916.054 1061.3049 11375.371 267010
3494.3596 1242.9537 13322.336 859911
3573.5645 1242.9537 13322.336 2175003
3686.3308 1254.3739 13444.74 67840
3497.6619 1164.9147 12485.891 1536
3650.0999 1190.4203 12759.267 1536
3725.9573 1190.4203 12759.267 463114
3963.6064 1241.0803 13302.256 331270
4263.4595 1308.8545 14028.679 529673
4195.2676 1263.2084 13539.431 68610
4137.3257 1222.309 13101.06 200451
4055.3992 1175.9664 12604.346 1255185
4017.2603 1143.7722 12259.279 1387028
4084.2307 1142.1184 12241.554 399879
3964.0686 1089.1085 11673.379 860686
3991.0747 1077.6611 11550.682 860173
4107.3813 1090.3057 11686.21 2438694
4332.8711 1131.0303 12122.708 67330
4426.4316 1136.5476 12181.844 1536
4568.5649 1154.158 12370.598 1024
4583.1079 1139.4882 12213.362 768
4579.2559 1120.7736 12012.773 768
4536.1958 1093.1849 11717.071 1024
4447.4214 1055.5809 11314.02 134917
3383.5513 791.10968 8479.3408 266500
0 0 0 0
0 0 0 0
0 0 0 0
0 0 0 0
0 0 0 0
0 0 0 0
0 0 0 0
0 0 0 0
0 0 0 0
0 0 0 0
0 0 0 0
0 0 0 0
0 0 0 0
0 0 0 0
888.34351 169.76392 1819.5785 66055
914.31219 172.62444 1850.2383 513
909.97931 169.76392 1819.5785 66050
0 0 0 0
0 0 0 0
0 0 0 0
0 0 0 0
0 0 0 0
0 0 0 0
0 0 0 0
0 0 0 0
0 0 0 0
0 0 0 0
0 0 0 0
0 0 0 0
0 0 0 0
0 0 0 0
0 0 0 0
0 0 0 0
0 0 0 0
896.28461 137.73566 1476.2904 198407
905.06158 137.73566 1476.2904 775
904.96173 136.39772 1461.9501 521
914.50525 136.52489 1463.313 524
905.56549 133.91634 1435.3538 395797
900.5625 131.93321 1414.0981 1186086
908.12659 131.81084 1412.7865 4014931
932.49554 134.1075 1437.4028 3619914
941.04132 134.1075 1437.4028 460304
950.53351 134.24117 1438.8354 2959929
964.2149 134.9588 1446.5272 1907493
981.54791 136.17033 1459.5127 2367785
984.12628 135.33165 1450.5236 4
1000.7133 136.41721 1462.1588 65540
1003.1343 135.56956 1453.0736 65541
1055.6268 141.4456 1516.0547 4
1064.6401 141.4456 1516.0547 4
1043.8226 137.51561 1473.9319 1381654
1034.403 135.14015 1448.4709 131586
0 0 0 0
0 0 0 0
0 0 0 0
0 0 0 0
1105.6176 138.67169 1486.323 4
1128.7539 140.451 1505.3943 4
0 0 0 0
0 0 0 0
0 0 0 0
1152.77 139.02982 1490.1615 65540
1085.0906 129.86926 1391.9761 65539
1093.3663 129.86926 1391.9761 65539
1207.4996 142.3485 1525.7321 65539
1246.2457 145.82072 1562.9485 65539
1259.7698 146.31223 1568.2166 131075
1244.3574 143.46046 1537.6505 131075
1225.4463 140.24988 1503.2385 65540
1229.9667 139.74805 1497.8597 4
1238.8719 139.74805 1497.8597 131331
1247.7771 139.74805 1497.8597 723725
1235.9517 137.44272 1473.1505 592141
1257.6411 138.87059 1488.455 1052696
1277.7596 140.10626 1501.6992 261
1278.605 139.22615 1492.2659 2961212
1295.6157 140.10626 1501.6992 2632759
1296.3488 139.22615 1492.2659 1580072
0 0 0 0
0 0 0 0
0 0 0 0
0 0 0 0
0 0 0 0
8928.4873 921.08545 9872.459 724233
9775.833 1001.9133 10738.795 2303266
10661.864 1085.6315 11636.109 1184787
10763.742 1088.9395 11671.565 790029
10940.127 1099.6945 11786.841 921616
10081.279 1006.9139 10792.393 724237
9747.4395 967.41278 10369.009 1118992
9630.6885 949.8186 10180.429 1711129
9597.6191 940.64551 10082.108 1513750
10707.001 1042.861 11177.684 987406
11327.132 1096.4563 11752.134 1316371
11397.001 1096.4563 11752.134 1315858
0 0 0 0
0 0 0 0
0 0 0 0
0 0 0 0
0 0 0 0
-6523.7524 721.75677 7272.5654 858372
-6688.4922 744.91992 7505.9619 661248
-6650.9136 745.70996 7513.9224 200448
-6491.5288 732.76129 7383.4487 266240
-6403.8599 727.78656 7333.3228 595202
-6360.2612 727.78656 7333.3228 529920
-6346.8721 731.26727 7368.395 990210
-6432.1157 746.23938 7519.2568 332288
-6446.7656 753.17371 7589.1284 662016
-6504.5127 765.27631 7711.0771 727808
-6411.9307 759.7384 7655.2764 398848
-6403.3857 764.15009 7699.7285 596224
-6320.9053 759.7384 7655.2764 2043664
-6278.8286 760.15448 7659.4683 990211
-6094.9917 743.28876 7489.5259 1319689
-6399.5029 786.16748 7921.5806 792836
-6136.1636 759.40552 7651.9214 463363
-6103.0386 760.94751 7667.459 463618
-5936.5947 745.76501 7514.4775 331521
-6061.6152 767.2442 7730.9058 199425
-6121.2207 780.70837 7866.5742 726791
-6175.7764 793.73108 7997.7925 331778
-6128.2271 793.73108 7997.7925 1792
-6060.2695 791.06702 7970.9497 1536
-5991.0713 788.19775 7942.0386 1792
-5800.7915 769.22675 7750.8823 1582612
-5807.7915 776.32208 7822.3765 924682
-5708.6289 769.22675 7750.8823 1792
-5702.9941 774.72113 7806.2451 3072
-5656.584 774.72113 7806.2451 1280
-5605.189 774.03284 7799.3096 726535
-5629.0723 783.815 7897.877 67072
-5582.1172 783.815 7897.877 1792
-5731.1772 811.57208 8177.5625 923654
-5662.0815 808.64752 8148.0938 1536
-5353.3916 771.15869 7770.3491 199424
-5304.5566 770.77533 7766.4863 594432
-5237.0649 767.65063 7735.001 133632
-5191.0781 767.65063 7735.001 330241
-5401.7437 805.9433 8120.8457 1280
-5440.666 819.07141 8253.127 1792
-5267.0708 800.15356 8062.5068 1024
-5219.1367 800.15356 8062.5068 67072
-5226.2324 808.66833 8148.3037 1024
-5159.2393 805.77136 8119.1133 1024
-5107.3516 805.20111 8113.3667 1024
-5116.2666 814.29712 8205.0205 1024
-5115.5322 822.01776 8282.8154 768
-5304.3198 860.63898 8671.9697 1280
-5252.7622 860.63898 8671.9697 463872
-5199.3667 860.33472 8668.9043 660740
-5114.1035 854.69849 8612.1133 660224
-5075.7012 856.85925 8633.8848 1280
-5024.3701 856.85925 8633.8848 133376
-4879.7666 840.78821 8471.9502 792578
-4817.8076 838.77026 8451.6172 266240
-4779.0303 840.78821 8471.9502 1056260
-4794.3667 852.47101 8589.668 332288
-4857.6538 873.02295 8796.7539 1253892
-4805.355 873.02295 8796.7539 1648391
-4753.0557 873.02295 8796.7539 1714695
-4417.8511 820.48193 8267.3398 1253892
-4383.25 823.21466 8294.875 1253639
-4458.9751 846.96558 8534.1943 595200
-4408.2368 846.96558 8534.1943 659718
-4389.9395 853.27106 8597.7295 66561
-4338.8237 853.27106 8597.7295 1280
-4303.479 856.40961 8629.3545 331008
-4252.1753 856.40961 8629.3545 1536
-4309.4102 878.53693 8852.3135 1280
-4287.2827 884.83203 8915.7441 1536
-4262.6387 890.75897 8975.4648 67584
-4187.2021 886.08746 8928.3945 1319175
-4243.48 909.52716 9164.5771 2048
-4346.9185 943.81616 9510.0801 1121792
-4141.585 911.08392 9180.2637 660992
-4105.9634 915.31006 9222.8467 989953
-4064.7954 918.39734 9253.9551 595456
-3983.9153 912.47369 9194.2676 989954
-3897.5759 905.11755 9120.1455 858624
-3729.9585 878.41266 8851.0615 265728
-3761.5349 898.52533 9053.7207 266496
-3764.4658 912.28003 9192.3154 265984
-3735.7747 918.66376 9256.6396 595201
-3646.0464 910.00439 9169.3857 2048
-3625.7083 918.66376 9256.6396 332288
-3555.3333 914.71667 9216.8682 1779471
-3500.5364 914.71667 9216.8682 726532
-3585.697 951.87018 9591.2344 1024
-3548.5002 957.21832 9645.123 1280
-3471.6521 951.87018 9591.2344 1024
-3390.8523 945.24213 9524.4482 768
-3333.1362 944.93298 9521.333 768
-3282.7703 946.73273 9539.4678 256
-3246.3679 952.69366 9599.5322 256
-3202.5535 956.65399 9639.4365 512
-3132.2241 952.69366 9599.5322 512
-3089.4282 957.11639 9644.0967 512
-3083.6421 973.38904 9808.0625 768
-2987.7649 961.30255 9686.2764 396802
-2971.0254 974.70355 9821.3076 67584
-2920.7505 977.41937 9848.6729 529152
-2907.2808 992.81506 10003.803 134400
-2958.1396 1031.2803 10391.386 397568
-2882.7803 1026.4451 10342.665 66816
-2797.0098 1017.6114 10253.655 512
-2736.0491 1017.6114 10253.655 197635
-2675.0881 1017.6114 10253.655 394757
-2677.9456 1042.4541 10503.976 256
-2612.0178 1041.0676 10490.006 256
-2549.6519 1041.0676 10490.006 0
-2483.6555 1039.5481 10474.694 256
-2416.998 1037.6666 10455.736 768
-2302.6746 1014.6815 10224.134 768
-2251.8647 1019.1965 10269.627 659715
-2230.7571 1037.781 10456.889 1280
-2182.5415 1044.4585 10524.173 768
-2117.2756 1043.1299 10510.785 1024
-2061.0908 1046.3306 10543.035 768
-1998.4097 1046.3306 10543.035 768
-1915.4731 1035.382 10432.715 768
-1816.4917 1014.7373 10224.696 791816
-1821.2764 1052.6365 10606.576 1024
-1761.1222 1054.3756 10624.1 1024
-1715.0618 1064.996 10731.111 132608
-1657.6749 1069.1318 10772.785 264960
-1593.6278 1069.1318 10772.785 133376
-1534.5188 1072.5835 10807.565 726017
-1436.459 1047.9215 10559.066 528640
-1373.6824 1047.9215 10559.066 1280
-1321.0005 1055.9911 10640.378 1536
-1257.7405 1055.9911 10640.378 791810
-1180.0133 1043.2013 10511.504 397825
-1117.4379 1043.1252 10510.737 660739
-1054.9487 1043.1252 10510.737 1792
-1010.1946 1061.7656 10698.563 1792
-954.62 1070.7743 10789.335 792835
-895.99146 1077.4084 10856.183 200192
-820.06781 1062.6613 10707.587 1280
-754.01398 1059.2976 10673.693 2560
-692.69696 1062.5819 10706.787 67840
-626.89972 1058.9629 10670.322 134400
-568.88385 1069.1532 10773.002 529152
-504.83536 1069.1532 10773.002 463617
-451.41696 1094.9371 11032.806 1536
-380.91284 1081.0001 10892.373 768
-316.15466 1081.0001 10892.373 397825
-242.26436 1041.7322 10496.701 265984
-182.77126 1058.6024 10666.689 661504
-122.97285 1090.692 10990.031 990466
-57.634052 1090.692 10990.031 69632
7.936461 1123.494 11320.55 1122304
74.569557 1113.4786 11219.633 990976
139.08807 1096.2545 11046.079 1385986
204.29126 1093.7445 11020.788 2043407
269.81293 1093.7445 11020.788 463872
342.97379 1118.6609 11271.851 1280
411.96161 1124.0458 11326.11 133632
491.50458 1152.6714 11614.547 198912
534.97614 1100.0709 11084.534 462848
598.04816 1094.8923 11032.354 331264
672.70392 1109.8486 11183.057 594432
740.06213 1111.1577 11196.247 462848
792.99133 1092.3741 11006.98 594179
847.57532 1078.5601 10867.787 595201
914.59601 1081.4081 10896.483 1253127
979.37854 1081.4081 10896.483 529408
1051.161 1088.6575 10969.53 529666
1116.3779 1088.6575 10969.53 1121285
1159.9539 1068.7186 10768.623 200192
1223.9763 1068.7186 10768.623 726528
1167.0345 968.34845 9757.2725 134656
0 0 0 0
0 0 0 0
0 0 0 0
822.73676 569.44537 5737.8457 512
866.94696 576.15576 5805.4604 1250576
962.28033 615.02686 6197.1333 1711381
1001.8701 616.71722 6214.166 3421999
1038.8151 616.71722 6214.166 1909020
1206.5671 691.70697 6969.7778 768
1345.3635 745.6684 7513.5034 768
1590.2321 853.06281 8595.6309 768
1718.001 892.90863 8997.126 768
1847.5413 931.24115 9383.3721 512
2003.585 980.29382 9877.6367 768
2169.0505 1031.0315 10388.879 1024
2256.8933 1043.0841 10510.324 1792
2338.5278 1051.6954 10597.093 1280
2374.6082 1039.9054 10478.294 1280
2420.1248 1032.7449 10406.144 133632
2481.9922 1032.7449 10406.144 2767397
2580.9175 1047.7894 10557.735 1280
2848.4243 1128.9347 11375.371 67328
2826.8843 1094.4131 11027.524 200960
2983.6838 1128.9347 11375.371 135168
3037.5349 1123.8368 11324.004 1847064
3308.2292 1197.4489 12065.733 1123087
3481.1648 1233.3022 12427 2560
3650.0999 1266.2777 12759.267 2766892
3874.5586 1316.7803 13268.142 1384727
3963.6064 1320.166 13302.256 200453
4042.6919 1320.166 13302.256 768
4195.2676 1343.7041 13539.431 512
4137.3257 1300.1985 13101.06 512
4055.3992 1250.9027 12604.346 67843
3903.3408 1182.1558 11911.638 68099
3894.6672 1158.51 11673.379 67842
3893.2566 1137.8151 11464.852 1280
4037.9033 1159.7834 11686.21 331784
4281.583 1208.972 12181.844 265222
4355.6123 1209.4177 12186.334 990227
4770.6343 1302.9825 13129.112 2437160
4510.4966 1212.1 12213.362 66561
4507.8364 1192.1929 12012.773 768
4466.5347 1162.8463 11717.071 256
4380.5195 1122.9391 11314.958 256
4447.4214 1122.8459 11314.02 67329
0 0 0 0
0 0 0 0
0 0 0 0
0 0 0 0
0 0 0 0
0 0 0 0
0 0 0 0
0 0 0 0
0 0 0 0
0 0 0 0
0 0 0 0
0 0 0 0
0 0 0 0
0 0 0 0
0 0 0 0
888.34351 180.58182 1819.5785 4
911.32635 183.02495 1844.1959 2
895.25702 177.66023 1790.14 198146
0 0 0 0
0 0 0 0
0 0 0 0
0 0 0 0
0 0 0 0
0 0 0 0
0 0 0 0
0 0 0 0
0 0 0 0
0 0 0 0
0 0 0 0
0 0 0 0
0 0 0 0
0 0 0 0
0 0 0 0
0 0 0 0
868.68439 143.4052 1444.9795 66820
889.84875 145.46056 1465.6897 198151
897.10559 145.22469 1463.313 1032
904.9444 145.08664 1461.922 520
912.94159 144.97639 1460.811 524
905.56549 142.44992 1435.3538 395798
900.5625 140.34042 1414.0981 1250854
908.12659 140.21025 1412.7865 3750987
930.05444 142.27983 1433.64 3421765
938.57782 142.27983 1433.64 197131
950.53351 142.79546 1438.8354 2960183
968.45453 144.19003 1452.8876 2039335
981.95563 144.9077 1460.119 2828338
985.7301 144.19003 1452.8876 3
994.54633 144.21588 1453.1481 4
1003.1343 144.2085 1453.0736 65540
1056.6702 150.60768 1517.5531 4
1073.9696 151.77744 1529.3398 4
1088.2324 152.50201 1536.6407 657162
1082.5988 150.44951 1515.9592 2
0 0 0 0
0 0 0 0
0 0 0 0
0 0 0 0
0 0 0 0
1128.7539 149.401 1505.3943 2
0 0 0 0
1166.3949 151.97311 1531.3114 329480
1187.8229 153.56641 1547.3657 1118740
1201.2836 154.11308 1552.8741 921361
1161.6294 147.88924 1490.1615 987153
0 0 0 0
1236.4229 155.04634 1562.278 131844
1250.6675 155.66325 1568.494 460808
1259.9927 155.66325 1568.494 263174
1226.776 150.44612 1515.9253 197381
1187.5145 144.5692 1456.7081 197381
0 0 0 0
0 0 0 0
1227.1934 146.201 1473.1505 3
1222.2926 144.58527 1456.87 4
1240.7648 145.73761 1468.4812 1184536
1254.8566 146.36295 1474.7822 855314
1263.6246 146.36295 1474.7822 2501171
1286.474 147.98271 1491.1034 3224896
1295.339 147.98271 1491.1034 1843244
0 0 0 0
0 0 0 0
0 0 0 0
0 0 0 0
0 0 0 0
8844.208 970.53137 9779.2686 790281
9240.5342 1007.4004 10150.768 1513748
10609.478 1149.1372 11578.937 1316371
10678.317 1149.1372 11578.937 592648
10940.127 1169.7705 11786.841 921869
10024.655 1065.0616 10731.774 921613
9570.1641 1010.3441 10180.429 987406
9818.7012 1030.0682 10379.174 1711129
9618.4463 1002.7578 10103.987 1513750
10391.915 1076.6705 10848.747 724234
11283.687 1161.8525 11707.059 724234
11349.959 1161.512 11703.626 855307
0 0 0 0
0 0 0 0
0 0 0 0
0 0 0 0
0 0 0 0
-6523.7524 764.9942 7272.5654 924165
-6601.7197 779.30182 7408.583 858371
-6510.4053 773.68451 7355.1816 134400
-6488.5444 776.30078 7380.0537 200448
-6447.6318 776.6579 7383.4487 529152
-6390.6792 775.0744 7368.395 69376
-6540.7598 798.75177 7593.4883 200448
