# .PCD v0.7 - Point Cloud Data file format
VERSION 0.7
FIELDS x y z rgb
SIZE 4 4 4 4
TYPE F F F U
COUNT 1 1 1 1
WIDTH 1350
HEIGHT 1
VIEWPOINT 0 0 0 1 0 0 0
POINTS 1350
DATA ascii
866.09851 -1307.1382 10318.686 727046
927.55652 -1307.2941 10319.916 398082
1003.881 -1327.0834 10476.135 1450512
1052.0479 -1309.512 10337.424 463874
1121.2236 -1318.5872 10409.065 858379
1192.7867 -1329.3737 10494.215 2304
1263.385 -1338.0662 10562.834 397574
1317.5687 -1329.3737 10494.215 2560
1375.4666 -1325.0452 10460.045 2048
1424.6617 -1313.0703 10365.514 134146
1451.2761 -1282.139 10121.34 200192
1511.4503 -1282.139 10121.34 1648404
1592.4344 -1299.116 10255.357 1056268
1727.8491 -1357.608 10717.1 201216
1791.5654 -1357.608 10717.1 267010
1841.709 -1347.6763 10638.697 1583123
1906.2382 -1348.5812 10645.841 2504224
2018.4135 -1382.0524 10910.066 464131
2083.2769 -1382.0524 10910.066 661512
2173.2095 -1398.1813 11037.39 2304
2147.4875 -1341.1367 10587.073 69120
2200.1506 -1334.8994 10537.836 68352
2231.1523 -1316.2289 10390.448 68096
2277.9102 -1307.609 10322.402 768
2301.1038 -1286.2694 10153.945 768
2335.2434 -1271.9832 10041.168 1280
2383.9395 -1266.14 9995.042 2304
2443.3628 -1266.14 9995.042 1024
2506.4922 -1268.015 10009.843 727301
2566.0034 -1268.015 10009.843 200960
2629.2742 -1269.8307 10024.176 595969
2698.2869 -1274.2775 10059.279 1451278
2847.3472 -1315.5145 10384.81 1253901
2903.314 -1312.9036 10364.198 1187597
3010.3186 -1333.0012 10522.852 1024
3072.8801 -1333.0012 10522.852 1024
3204.0703 -1362.1782 10753.177 68609
3280.2847 -1367.2985 10793.597 397318
3222.4973 -1317.4387 10399.999 2304
3223.1965 -1292.9171 10206.423 68096
3275.3794 -1289.5715 10180.013 199426
3314.7427 -1281.3918 10115.441 201216
3374.8818 -1281.3918 10115.441 398336
3353.0759 -1250.8232 9874.1299 267264
3405.8965 -1248.6661 9857.1006 1188870
3519.5718 -1268.515 10013.79 926211
3579.1067 -1268.515 10013.79 728832
3683.8484 -1284.2753 10138.203 1912849
3685.8579 -1264.2897 9980.4355 466176
3745.1943 -1264.2897 9980.4355 860929
3804.5308 -1264.2897 9980.4355 1716237
3950.4888 -1292.6331 10204.181 2110741
4338.3159 -1398.0636 11036.46 2304
4403.9307 -1398.0636 11036.46 1280
4391.9092 -1373.7792 10844.757 990221
4456.3848 -1373.7792 10844.757 69120
4386.6094 -1332.9839 10522.714 1792
4382.5938 -1313.0374 10365.254 1280
4346.022 -1284.0254 10136.231 1280
4406.2847 -1284.0254 10136.231 134144
4393.1494 -1262.9254 9969.665 266496
4389.29 -1245.0181 9828.3027 134400
4236.8892 -1186.0012 9362.418 331520
4459.1948 -1232.0436 9725.8809 68608
4568.4429 -1246.0701 9836.6074 67840
4630.2788 -1246.9734 9843.7383 134656
4655.0874 -1238.0071 9772.957 1254918
4019.8926 -1055.8994 8335.3809 992513
2994.2666 -776.92206 6133.104 1255425
3030.7295 -776.92206 6133.104 1387521
2799.4507 -709.10291 5597.7324 2045704
0 0 0 0
0 0 0 0
0 0 0 0
0 0 0 0
0 0 0 0
0 0 0 0
2473.3811 -578.37854 4565.7808 1536
2337.3596 -540.6377 4267.8506 133377
2514.2239 -575.30164 4541.4912 330244
2659.4912 -602.07581 4752.8496 512
2759.9355 -618.24628 4880.501 256
2771.1731 -614.30524 4849.3901 256
2746.5166 -602.57037 4756.7539 512
2680.3555 -582.06165 4594.8555 395269
2634.9673 -566.43225 4471.4756 461062
2661.5515 -566.43225 4471.4756 395012
2683.8613 -565.53162 4464.3657 768
2626.5776 -548.0412 4326.2944 768
2646.0237 -546.74463 4316.0591 2372897
2816.4492 -576.37 4549.9253 1650197
2923.2227 -592.5296 4677.4907 2374943
0 0 0 0
3612.5234 -718.57733 5672.5244 2244883
3791.9263 -747.2865 5899.1577 2311432
3679.9731 -718.57733 5672.5244 3429909
3753.7793 -726.33282 5733.7471 4154390
3787.8679 -726.33282 5733.7471 5009184
3856.8 -732.95447 5786.0195 3956498
3876.9395 -730.26843 5764.8154 3232013
3863.3425 -721.33057 5694.2588 1586944
3897.1968 -721.33057 5694.2588 1257984
3979.6055 -730.24017 5764.5923 3494676
4039.2488 -734.8559 5801.0293 3100174
4073.7373 -734.8559 5801.0293 1126144
4242.4609 -758.867 5990.5757 4218908
4281.4712 -759.46918 5995.3291 2574339
4359.5371 -766.93201 6054.2417 3166473
4377.748 -763.82922 6029.748 2508550
4413.5967 -763.82922 6029.748 2245888
4383.4502 -752.49994 5940.3135 3890191
4418.7666 -752.49994 5940.3135 3166468
4250.1777 -718.0509 5668.3687 3824658
4669.0239 -782.60803 6177.9893 2836999
4543.4814 -755.62061 5964.9482 2573832
4774.603 -787.90833 6219.8311 1455361
4610.3228 -754.95172 5959.6675 2573830
4433.3018 -720.42737 5687.1289 2838018
4398.8521 -709.41864 5600.2246 3890956
4432.147 -709.41864 5600.2246 4812057
4355.9492 -692.02362 5462.9067 2048258
4250.8296 -670.32544 5291.6191 4612664
4268.5303 -668.17157 5274.6162 1779992
6892.02 -1070.9698 8454.3477 3952698
8271.8604 -1276.0806 10073.514 5992025
8480.9531 -1298.9323 10253.907 5333840
8152.7246 -1239.7498 9786.7139 659723
7849.7607 -1185.2205 9356.2549 1536
0 0 0 0
0 0 0 0
0 0 0 0
0 0 0 0
0 0 0 0
0 0 0 0
0 0 0 0
0 0 0 0
0 0 0 0
0 0 0 0
0 0 0 0
0 0 0 0
0 0 0 0
0 0 0 0
0 0 0 0
9138.5654 -1239.3022 9783.1816 924936
9315.6738 -1255.3306 9909.7109 1583119
9254.8926 -1239.3022 9783.1816 794882
0 0 0 0
0 0 0 0
0 0 0 0
0 0 0 0
0 0 0 0
0 0 0 0
0 0 0 0
0 0 0 0
-6387.0176 -853.96509 7073.2563 512
-6358.2715 -855.75592 7088.0898 512
-6316.1309 -855.75592 7088.0898 512
-7129.0366 -972.38202 8054.0854 512
-7095.8076 -974.39453 8070.7539 512
-7047.3418 -974.3277 8070.2012 512
-6971.5239 -970.45251 8038.1035 512
-6923.7354 -970.45251 8038.1035 512
-6844.6929 -966.04138 8001.5669 512
-7073.2866 -1005.2915 8326.6689 256
-7030.189 -1006.2086 8334.2646 256
-6848.52 -987.16443 8176.5254 512
-6442.8389 -935.32751 7747.1685 512
-6387.8584 -934.02313 7736.3638 512
-6315.5322 -930.14502 7704.2427 512
-6397.6865 -949.12817 7861.4771 512
-6349.9951 -948.98578 7860.2979 512
-6190.8315 -932.05865 7720.0928 512
-6144.9331 -932.05865 7720.0928 512
-6201.2104 -947.67316 7849.4258 768
-6155.6348 -947.84125 7850.8174 768
-6222.9609 -965.52917 7997.3237 768
-6325.0649 -988.92712 8191.1255 512
-6379.9141 -1005.2424 8326.2627 512
-6009.0259 -954.2077 7903.5498 512
-5904.2119 -944.95294 7826.894 512
-5872.9346 -947.41394 7847.2778 512
-5850.8604 -951.41089 7880.3848 512
-5876.0522 -963.22034 7978.2007 256
-5936.6689 -981.07635 8126.0986 768
-5959.8574 -992.98932 8224.7715 768
-5939.7754 -997.83026 8264.8682 768
-6161.0542 -1043.6365 8644.2744 768
-6383.0225 -1090.3313 9031.04 512
-6210.4673 -1069.8552 8861.4404 1024
-6062.8945 -1053.3691 8724.8887 768
-6011.0229 -1053.3691 8724.8887 768
-5960.5181 -1053.6108 8726.8906 256
-5889.5171 -1050.202 8698.6553 512
-5818.3145 -1046.6963 8669.6182 512
-5753.73 -1044.3293 8650.0127 512
-5715.2275 -1046.6963 8669.6182 512
-5650.8765 -1044.3293 8650.0127 768
-5705.5454 -1064.1167 8813.9092 768
-5568.7197 -1048.2251 8682.2812 768
-5517.1011 -1048.2251 8682.2812 768
-5457.8867 -1046.7683 8670.2148 1280
-5407.7393 -1047.0393 8672.459 1024
-5386.7295 -1053.0114 8721.9248 1024
-5362.1245 -1058.39 8766.4746 1024
-5338.5918 -1064.0878 8813.6689 1024
-5389.4448 -1084.8721 8985.8223 1024
-5465.7476 -1111.2467 9204.2793 2048
-5482.9033 -1126.0081 9326.5449 266240
-5429.1392 -1126.3577 9329.4404 134144
-5291.5039 -1109.1344 9186.7832 463620
-5174.2231 -1095.8629 9076.8574 462853
-5051.0132 -1081.0427 8954.1035 1024
-4997.7788 -1081.0427 8954.1035 1024
-4892.0225 -1069.5597 8858.9922 1024
-4880.2686 -1078.6025 8933.8926 1536
-4827.1543 -1078.6025 8933.8926 1280
-4811.6533 -1087.1006 9004.2803 1024
-4725.4463 -1079.6355 8942.4482 200192
-4842.6704 -1119.0077 9268.5625 199168
-4889.3442 -1142.7966 9465.6016 2816
-4947.0596 -1169.7501 9688.8535 133632
-4889.4565 -1169.7501 9688.8535 1280
-4873.9517 -1179.9418 9773.2686 67584
-4831.6528 -1183.8145 9805.3457 594694
-4545.8213 -1127.3844 9337.9443 1318928
-4348.7773 -1091.851 9043.627 1536
-4327.8711 -1100.2047 9112.8193 397315
-4319.8086 -1112.0765 9211.1523 463108
-4540.6636 -1183.9417 9806.3994 1792
-4487.4771 -1185.2927 9817.5908 2560
-4458.7988 -1193.2382 9883.4014 1792
-4336.8359 -1176.0983 9741.4346 1536
-4195.7476 -1153.2375 9552.082 1280
-4191.2256 -1167.8008 9672.708 1024
-4241.4453 -1198.2344 9924.7832 1024
-4076.2117 -1167.8008 9672.708 1024
-4080.2412 -1185.6829 9820.8213 1024
-4021.8538 -1185.6829 9820.8213 858122
-3977.6423 -1189.9238 9855.9482 199937
-3950.5164 -1199.4789 9935.0918 265984
-3937.3457 -1213.6256 10052.268 397058
-3862.541 -1208.9181 10013.275 265472
-3803.0095 -1208.9181 10013.275 660740
-3772.6321 -1218.3333 10091.26 1055498
-3711.8694 -1218.0814 10089.174 67584
-3599.8481 -1200.7241 9945.4062 133888
-3540.7202 -1200.7241 9945.4062 660227
-3490.2949 -1203.7256 9970.2666 198657
-3449.96 -1210.3708 10025.308 132608
-3370.4912 -1203.2787 9966.5654 396550
-3311.2373 -1203.2787 9966.5654 1186834
-3239.7888 -1198.7666 9929.1924 67841
-3180.7571 -1198.7666 9929.1924 1280
-3222.2737 -1237.3781 10249.005 768
-3093.0496 -1210.6484 10027.607 1024
-2998.2144 -1196.5928 9911.1865 1792
-2973.8157 -1210.6484 10027.607 1384726
-2993.0698 -1243.4138 10298.998 397575
-2918.042 -1237.5623 10250.53 2304
-2822.3428 -1222.5072 10125.831 2816
-2736.7886 -1211.2859 10032.888 331780
-2615.8618 -1183.5602 9803.2402 67840
-2552.6711 -1181.2891 9784.4287 68864
-2629.5525 -1245.2441 10314.158 661510
-2587.3289 -1254.5035 10390.853 1121805
-2506.9114 -1245.2441 10314.158 265472
-2381.2966 -1212.507 10043.001 529154
-2263.0623 -1181.9403 9789.8223 200192
-2285.2974 -1225.0602 10146.978 133889
-2224.9707 -1225.0602 10146.978 1280
-2122.9729 -1201.4768 9951.6396 768
-2063.8076 -1201.4768 9951.6396 463876
-2013.3317 -1206.6847 9994.7764 660998
-1951.7522 -1205.3521 9983.7383 265729
-1892.396 -1205.3521 9983.7383 1056011
-1813.9108 -1192.7732 9879.5498 1121549
-1793.7869 -1219.0135 10096.895 528391
-1680.2544 -1181.395 9785.3057 594694
-1643.8418 -1197.246 9916.5967 134145
-1591.0575 -1201.9089 9955.2197 1536
-1531.8711 -1201.9089 9955.2197 133632
-1511.299 -1233.4235 10216.25 1280
-1377.554 -1171.3455 9702.0674 726537
-1308.5629 -1161.3086 9618.9336 199681
-1321.4564 -1226.3453 10157.622 398083
-1251.7346 -1217.2703 10082.455 1450772
-1191.7915 -1217.2703 10082.455 1024
-1125.9001 -1210.8729 10029.467 594696
-1092.4431 -1240.593 10275.634 768
-1031.3517 -1240.593 10275.634 1024
-965.80603 -1234.8978 10228.462 2562
-884.27155 -1206.6201 9994.2412 199940
-824.85303 -1206.6201 9994.2412 924176
-783.44147 -1235.006 10229.357 923919
-732.17456 -1251.3267 10364.538 463112
-672.73907 -1255.4033 10398.305 1280
-613.78558 -1261.2954 10447.108 134148
-542.27325 -1239.801 10269.074 2049
-485.09964 -1249.7946 10351.849 594698
-423.55499 -1249.7946 10351.849 594698
-366.43726 -1265.0778 10478.437 792590
-301.53754 -1254.2527 10388.774 661001
-237.45293 -1242.1143 10288.234 331781
-176.17168 -1241.3053 10281.533 397829
-114.10402 -1231.1512 10197.429 661000
-53.47747 -1231.1512 10197.429 199426
7.2707624 -1252.1067 10370.999 594949
70.543228 -1281.4249 10613.838 330243
135.08913 -1295.2672 10728.491 462342
188.82819 -1229.845 10186.609 265731
257.67365 -1270.693 10524.947 595210
315.78598 -1252.9907 10378.322 858638
370.90628 -1231.1442 10197.37 594696
424.15479 -1210.0959 10023.031 68096
485.94827 -1215.6088 10068.693 264963
545.80951 -1215.6088 10068.693 462853
605.67065 -1215.6088 10068.693 463620
670.815 -1225.2585 10148.621 792328
738.32135 -1237.274 10248.143 265730
802.10834 -1241.6998 10284.801 858376
863.25439 -1241.6998 10284.801 1792
928.00177 -1246.5374 10324.869 1319185
1018.9924 -1283.8387 10633.831 858379
1052.4895 -1248.5769 10341.763 1536
1121.2236 -1256.7024 10409.065 265219
1183.1084 -1256.7024 10409.065 463110
1243.2386 -1254.9313 10394.396 463109
1285.02 -1235.6836 10234.97 1792
1358.8687 -1247.6183 10333.822 727048
1417.7697 -1245.3903 10315.368 529666
1492.6805 -1256.8271 10410.099 463873
1540.4252 -1245.3903 10315.368 990473
1625.7709 -1264.0647 10470.046 1121546
1739.1274 -1302.3375 10787.054 67840
1791.5654 -1293.8918 10717.1 265475
1803.0948 -1257.4965 10415.642 1792
1838.9333 -1239.9082 10269.962 768
1920.8269 -1253.5054 10382.585 331269
1982.5543 -1253.5054 10382.585 68353
2037.6469 -1249.4371 10348.888 1024
2088.3218 -1242.9779 10295.387 1024
2148.7805 -1242.5439 10291.793 768
2189.9656 -1231.2979 10198.643 1280
2259.229 -1236.019 10237.748 264962
2335.5857 -1244.2714 10306.102 528389
2396.8584 -1244.2714 10306.102 133376
2403.7632 -1216.7512 10078.156 2048
2456.217 -1213.0652 10047.625 1024
2552.2573 -1230.5692 10192.608 1024
2606.512 -1227.5818 10167.864 1024
2673.4531 -1230.5692 10192.608 463873
2724.9026 -1226.4517 10158.503 1385229
2842.0173 -1251.427 10365.37 792580
2962.8022 -1276.924 10576.558 1451026
3156.8318 -1332.2727 11035.002 199937
3194.4192 -1320.6887 10939.054 1024
3264.3044 -1322.6537 10955.329 397318
3291.7549 -1307.6841 10831.339 133889
3239.5349 -1262.2463 10454.984 68352
3274.6079 -1251.8917 10369.22 68608
3283.8767 -1232.2371 10206.423 464131
3344.5569 -1232.2371 10206.423 200192
3500.7661 -1266.8058 10492.75 793093
3572.8333 -1270.2491 10521.271 333056
3632.0574 -1269.0863 10511.64 990982
3690.196 -1267.59 10499.245 2241047
3752.6167 -1267.59 10499.245 331008
3812.3403 -1266.6936 10491.821 267008
3909.2334 -1277.9777 10585.284 925185
3996.241 -1285.7234 10649.441 531456
4175.1807 -1322.3438 10952.762 1649679
4389.647 -1368.9186 11338.534 1584146
4398.7168 -1351 11190.117 1792
4369.875 -1322.1449 10951.115 1536
4369.2168 -1302.5391 10788.723 332035
4412.4932 -1296.4086 10737.945 265987
4324.25 -1252.3632 10373.124 2560
4295.541 -1226.556 10159.367 1280
4387.9512 -1235.5692 10234.022 1536
4563.7744 -1267.5026 10498.521 529155
4509.6387 -1235.5692 10234.022 397568
4522.7681 -1222.67 10127.181 2304
4593.5146 -1225.4813 10150.466 200192
4751.8125 -1251.2742 10364.104 397568
4698.5303 -1221.4054 10116.706 1280
4957.5654 -1272.4541 10539.534 2816
4830.5015 -1224.3655 10141.224 69120
4816.4263 -1205.7483 9987.0205 925696
4764.8599 -1178.3131 9759.7793 1387011
4751.1113 -1160.7777 9614.5361 1715205
0 0 0 0
0 0 0 0
0 0 0 0
0 0 0 0
0 0 0 0
0 0 0 0
0 0 0 0
2530.2856 -563.91583 4670.8247 264705
2732.2434 -602.31512 4988.8799 2304
2761.9036 -602.31512 4988.8799 132865
2769.0337 -597.45398 4948.6157 66560
2761.9275 -589.65564 4884.0234 256
2800.7876 -591.73102 4901.2134 256
2749.1914 -574.84949 4761.3862 66048
2689.46 -556.6283 4610.4634 197890
2667.4614 -546.50543 4526.6172 526855
2661.5515 -539.84808 4471.4756 921357
2647.1179 -531.61066 4403.2461 512
2656.6477 -528.29987 4375.8237 768
2652.2986 -522.32013 4326.2944 1187605
0 0 0 0
0 0 0 0
0 0 0 0
3682.8699 -698.18866 5782.9849 332038
3835.6282 -720.42261 5967.1455 199426
3858.6145 -718.09821 5947.8926 2048
4079.3486 -752.2832 6231.0415 1024
3929.3381 -718.09821 5947.8926 595712
3915.0408 -709.10376 5873.3931 265728
3922.0779 -704.09833 5831.9341 1848838
3984.8784 -709.10376 5873.3931 2375940
4037.7322 -712.26746 5899.5972 2179073
4072.8066 -712.26746 5899.5972 3232778
4270.7891 -740.51398 6133.5591 2377728
4481.2422 -770.42639 6381.3184 2772480
4519.1807 -770.42639 6381.3184 4680719
4440.5596 -750.72076 6218.1001 1783296
4539.3618 -761.08807 6303.9707 2376458
4699.3613 -781.46216 6472.7261 2375951
4914.7446 -810.64038 6714.4043 1519874
4670.561 -764.15784 6329.3975 729345
4580.3911 -743.41547 6157.5913 2816
4897.6426 -788.60376 6531.8784 3890702
5123.5522 -818.48914 6779.415 3823112
5163.8579 -818.48914 6779.415 3165453
5518.1704 -867.87494 7188.4692 1717760
5552.6074 -866.57947 7177.7393 2046976
5527.231 -856.03998 7090.4429 1783811
4467.1133 -686.61578 5687.1289 2244612
4495.4346 -685.77826 5680.1914 3298054
4219.3696 -638.8653 5291.6191 3955475
0 0 0 0
0 0 0 0
7338.0161 -1086.7583 9001.4453 2769190
7531.8374 -1107.387 9172.3096 5465935
7636.9863 -1114.7756 9233.5088 4279869
8067.9907 -1169.2847 9684.998 593159
8184.5435 -1177.7709 9755.2881 199937
8180.8062 -1168.9496 9682.2227 768
6553.4121 -929.86951 7701.9604 768
0 0 0 0
0 0 0 0
0 0 0 0
0 0 0 0
0 0 0 0
0 0 0 0
0 0 0 0
0 0 0 0
9479.7949 -1265.5144 10482.054 2110230
9542.1133 -1265.5144 10482.054 67840
9504.8926 -1252.3986 10373.418 659720
8629.2627 -1129.6925 9357.0625 264962
0 0 0 0
9704.6123 -1254.2988 10389.156 1384718
9790.166 -1257.3538 10414.46 2701085
9422.5605 -1202.5367 9960.4199 924423
9398.2227 -1191.9398 9872.6465 201216
9360.5186 -1179.7896 9772.0088 595971
0 0 0 0
0 0 0 0
0 0 0 0
0 0 0 0
0 0 0 0
0 0 0 0
-6387.0176 -811.9126 7073.2563 512
-6554.8765 -838.77325 7307.2622 512
-6511.4331 -838.77325 7307.2622 512
-7129.0366 -924.49829 8054.0854 512
-7095.8076 -926.41168 8070.7539 512
-7047.8252 -926.41168 8070.7539 512
-6886.0977 -911.35785 7939.6074 512
-6809.8525 -907.48767 7905.8916 512
-6875.9463 -922.66382 8038.1035 512
-6945.7437 -938.55273 8176.5254 512
-6897.1313 -938.55273 8176.5254 512
-6496.7974 -890.35095 7756.5991 512
-6450.1572 -890.27856 7755.9683 512
-6403.9819 -890.26965 7755.8906 512
-6640.2866 -929.81531 8100.4062 512
-6424.6602 -906.19421 7894.6226 512
-6350.9478 -902.38947 7861.4771 512
-6269.8394 -897.46985 7818.6177 768
-6241.2715 -900.05347 7841.1255 263939
-6235.9912 -906.05969 7893.4507 462342
-6237.002 -913.07788 7954.5923 132610
-6290.1113 -927.88849 8083.6206 768
-6401.4233 -951.57935 8290.0107 512
-6379.9141 -955.74054 8326.2627 512
-6009.0259 -907.21893 7903.5498 512
-5904.2119 -898.41992 7826.894 512
-5872.9346 -900.75964 7847.2778 512
-5871.2368 -907.71014 7907.8296 512
-5876.0522 -915.78784 7978.2007 768
-5946.2441 -934.26892 8139.2051 768
-5969.4893 -945.61652 8238.0635 768
-6007.4312 -959.49908 8359.0068 768
-6202.7017 -998.95129 8702.708 768
-6383.0225 -1036.6393 9031.04 1024
-6210.4673 -1017.1715 8861.4404 1024
-5935.7905 -980.50165 8541.9775 528131
-5700.6987 -949.79419 8274.459 199682
-5728.4688 -962.72876 8387.1436 527621
-5739.2012 -973.00201 8476.6426 768
-5766.8984 -986.35895 8593.0059 768
-5744.1753 -991.25372 8635.6484 512
-5702.3032 -992.90253 8650.0127 462090
-5917.2378 -1039.7043 9057.7422 256
-5863.3867 -1039.7043 9057.7422 768
-5566.6226 -996.23126 8679.0117 768
-5511.7222 -995.63489 8673.8164 768
-5471.4551 -997.69562 8691.7695 768
-5443.5903 -1002.0787 8729.9541 1792
-5395.1455 -1002.7213 8735.5518 1024
-5365.8799 -1006.9756 8772.6143 265990
-5338.5918 -1011.688 8813.6689 1280
-5333.7632 -1020.7923 8892.9834 1024
-5534.1348 -1069.744 9319.4434 2048
-5488.4541 -1071.6431 9335.9873 66816
-5429.1392 -1070.8915 9329.4404 2048
-5300.5786 -1056.325 9202.5381 68352
-5065.1694 -1019.9391 8885.5508 200193
-4942.0166 -1005.6288 8760.8818 1024
-4959.5156 -1019.9391 8885.5508 1024
-4968.8071 -1032.8516 8998.042 1024
-4916.8418 -1033.1732 9000.8438 1024
-4865.186 -1033.5676 9004.2803 1024
-4811.6533 -1033.5676 9004.2803 1024
-4777.1733 -1037.7064 9040.3369 66816
-4839.4531 -1063.1968 9262.4053 265472
-4787.5664 -1063.9036 9268.5625 199936
-4798.9839 -1078.8584 9398.8467 68352
-4757.2256 -1082.0702 9426.8271 1024
-4728.0771 -1088.2609 9480.7598 133888
-4794.4878 -1116.8615 9729.9229 68096
-4545.8213 -1071.8677 9337.9443 726279
-4523.4375 -1079.7769 9406.8477 398082
-4374.5713 -1057.3137 9211.1523 595205
-4319.8086 -1057.3137 9211.1523 397060
-4545.8452 -1126.9244 9817.5908 1024
-4487.4771 -1126.9244 9817.5908 768
-4396.6143 -1118.6567 9745.5635 768
-4336.8359 -1118.1829 9741.4346 1024
-4271.0337 -1116.1218 9723.4795 1024
-4191.6113 -1110.396 9673.5977 1280
-4213.2939 -1131.6674 9858.9102 1280
-4154.6797 -1131.6674 9858.9102 768
-3996.2314 -1104.085 9618.6162 1024
-3969.4658 -1112.6113 9692.8975 1280
-3970.988 -1129.4347 9839.46 1024
-3982.0273 -1149.5084 10014.339 529156
-3860.4497 -1131.3274 9855.9482 199936
-3791.259 -1128.1748 9828.4834 133888
-3732.8259 -1128.1748 9828.4834 660997
-3771.8525 -1158.0985 10089.174 331520
-3703.1018 -1155.3628 10065.342 726789
-3599.8481 -1141.5959 9945.4062 528899
-3444.012 -1110.4154 9673.7666 595202
-3490.2949 -1144.4496 9970.2666 1911828
-3431.0186 -1144.4496 9970.2666 1715729
-3425.1094 -1162.5635 10128.072 1518094
-3401.8245 -1175.3224 10239.226 2504484
-3299.2163 -1160.641 10111.324 791562
-3233.6379 -1158.6832 10094.269 2766379
-3070.6345 -1121.0818 9766.6904 133380
-3093.0496 -1151.0315 10027.607 264966
-2966.208 -1125.5232 9805.3828 332038
-2973.8157 -1151.0315 10027.607 661005
-2977.988 -1176.2264 10247.103 529675
-2917.0662 -1176.2264 10247.103 1024
-2822.3428 -1162.3062 10125.831 2304
-2760.7041 -1161.7013 10120.561 2560
-2681.4109 -1153.4747 10048.893 1977118
-2572.8269 -1131.986 9861.6855 134657
-2549.5176 -1147.8889 10000.229 67840
-2548.3032 -1174.7367 10234.124 200193
-2487.4585 -1174.7367 10234.124 529157
-2391.1587 -1157.5728 10084.594 792329
-2263.0623 -1123.7371 9789.8223 2304
-2225.0623 -1134.0339 9879.5273 463364
-2240.6172 -1172.9242 10218.333 134144
-2142.7915 -1152.9752 10044.541 134144
-2072.7534 -1147.2629 9994.7764 265984
-2013.3317 -1147.2629 9994.7764 1536
-1951.7522 -1145.996 9983.7383 595461
-1892.396 -1145.996 9983.7383 1280
-1885.6394 -1178.8805 10270.224 858632
-1824.5801 -1178.8805 10270.224 858632
-1714.2181 -1145.9226 9983.0996 594694
-1655.4493 -1146.3268 9986.6201 199937
-1632.776 -1172.6851 10216.25 397060
-1539.9 -1148.7117 10007.397 265732
-1511.299 -1172.6851 10216.25 134402
-1411.8097 -1141.3575 9943.3291 1252881
-1352.6937 -1141.3575 9943.3291 529158
-1335.6316 -1178.4625 10266.582 1280
-1251.7346 -1157.3273 10082.455 1647639
-1191.7915 -1157.3273 10082.455 463621
-1119.9326 -1145.1431 9976.3086 1055758
-1087.4281 -1174.0868 10228.462 923662
-1026.6171 -1174.0868 10228.462 512
-965.80603 -1174.0868 10228.462 1024
-890.26764 -1154.9803 10062.01 1055505
-844.25787 -1174.1896 10229.357 199940
-794.16821 -1190.2666 10369.417 134404
-732.51917 -1190.2666 10369.417 1793
-679.67932 -1205.896 10505.578 768
-617.2207 -1205.896 10505.578 512
-543.08734 -1180.5182 10284.491 2304
-485.09964 -1188.2499 10351.849 2561
-423.55499 -1188.2499 10351.849 1792
-362.01038 -1188.2499 10351.849 1281
-298.93253 -1182.1864 10299.024 332293
-237.70197 -1182.1864 10299.024 134402
-178.00365 -1192.451 10388.448 199938
-115.0451 -1180.1787 10281.533 398083
-53.588852 -1172.9625 10218.667 793096
7.2707624 -1190.4481 10370.999 990475
70.410225 -1216.0256 10593.826 1188360
130.18582 -1186.7844 10339.081 2504223
189.75572 -1175.0262 10236.646 2503712
251.16869 -1177.6202 10259.245 397828
315.78598 -1191.2888 10378.322 397060
373.01105 -1177.1603 10255.237 133377
433.98129 -1177.1603 10255.237 396550
496.41257 -1180.6351 10285.51 768
557.56281 -1180.6351 10285.51 768
624.70154 -1192.0624 10385.062 1536
686.4436 -1192.0624 10385.062 660743
735.63715 -1172.0692 10210.885 529412
796.34363 -1172.0692 10210.885 792583
857.05023 -1172.0692 10210.885 265986
928.00177 -1185.1531 10324.869 1055755
1035.2045 -1240.0376 10803.015 792330
1052.4895 -1187.0923 10341.763 1280
1113.9741 -1187.0923 10341.763 1024
1152.056 -1163.4578 10135.863 134145
1224.1703 -1174.8339 10234.97 529157
1272.577 -1163.4578 10135.863 265986
1321.1144 -1153.2244 10046.712 727047
1392.6072 -1163.0477 10132.291 266496
1491.918 -1194.3258 10404.78 858887
1555.311 -1195.5048 10415.051 398338
1617.2314 -1195.5048 10415.051 1911574
1741.4443 -1239.855 10801.424 2304
1844.1069 -1266.2533 11031.402 264707
1833.8416 -1215.9596 10593.251 1024
1818.627 -1165.8329 10156.556 1024
1899.9911 -1178.8505 10269.962 1280
1976.1199 -1187.91 10348.888 1024
2027.854 -1182.201 10299.151 1024
2088.3218 -1181.7689 10295.387 768
2149.5305 -1181.7689 10295.387 1024
2209.968 -1181.3563 10291.793 1024
2272.8293 -1182.2271 10299.378 768
2374.8174 -1202.8701 10479.217 528135
2437.1191 -1202.8701 10479.217 512
2458.1309 -1182.9988 10306.102 1536
2504.2266 -1175.8723 10244.017 768
2552.3843 -1170.0297 10193.116 1024
2606.512 -1167.1311 10167.864 1024
2673.4531 -1169.9713 10192.608 1792
2760.9719 -1181.4916 10292.971 68096
2881.9587 -1206.5233 10511.044 398082
2944.4497 -1206.5233 10511.044 1253391
3129.3835 -1255.653 10939.054 529156
3106.3633 -1221.0403 10637.513 1024
3259.4551 -1255.653 10939.054 768
3247.3821 -1226.5292 10685.332 1536
3239.5349 -1200.0885 10454.984 1280
3198.5747 -1162.6075 10128.456 2816
3258.7913 -1162.6075 10128.456 3072
3439.6851 -1204.8794 10496.722 924168
3500.7661 -1204.4235 10492.75 2560
3563.1484 -1204.4235 10492.75 68864
3623.3049 -1203.6841 10486.309 398848
3640.5325 -1188.9497 10357.944 924421
3702.1133 -1188.9497 10357.944 267264
3812.3403 -1204.3169 10491.821 595969
3927.8726 -1220.8384 10635.754 333058
4056.4731 -1240.8339 10809.951 531201
4175.1807 -1257.2264 10952.762 464641
4389.647 -1301.5079 11338.534 2767396
4457.0581 -1301.5079 11338.534 1536
4369.875 -1257.0375 10951.115 1280
4348.6528 -1232.5685 10737.945 1024
4231.3867 -1181.979 10297.218 512
4324.25 -1190.6921 10373.124 68096
4385.9209 -1190.6921 10373.124 1280
4573.9067 -1224.5084 10667.728 331523
4637.3296 -1224.5084 10667.728 1280
4738.7451 -1234.4054 10753.948 1536
4577.5552 -1176.5427 10249.857 2304
4638.4932 -1176.5427 10249.857 594947
4742.4893 -1187.3228 10343.771 200192
4803.9858 -1187.3228 10343.771 2816
4991.6289 -1218.1062 10611.951 134656
5020.2261 -1209.7936 10539.534 68864
5079.5542 -1209.0006 10532.625 596224
4865.4082 -1143.929 9965.7314 1385475
4901.0107 -1138.4362 9917.8789 1385474
4959.9751 -1138.4362 9917.8789 2043407
4769.9551 -1081.9595 9425.8623 1280
0 0 0 0
0 0 0 0
0 0 0 0
0 0 0 0
0 0 0 0
0 0 0 0
2738.4924 -573.9646 5000.2905 528132
2761.9036 -572.65485 4988.8799 1024
2732.8906 -560.61877 4884.0234 256
2761.4011 -560.5119 4883.0923 256
2790.7234 -560.57037 4883.6016 256
2797.7012 -556.18549 4845.4014 256
2694.7959 -530.26776 4619.6104 197890
2690.7017 -524.12036 4566.0552 724234
2619.2239 -505.10132 4400.3643 329220
2619.0574 -500.07431 4356.5698 512
2690.6296 -508.70926 4431.7959 67588
2741.6172 -513.32257 4471.9863 989203
0 0 0 0
0 0 0 0
0 0 0 0
3917.2942 -706.06024 6151.0869 5599582
4125.9424 -736.78912 6418.792 9279109
4222.2026 -747.06891 6508.3481 256
4260.8965 -747.06891 6508.3481 768
4055.926 -704.73138 6139.5103 1024
3874.5945 -667.21979 5812.7148 3623721
4231.2358 -722.19342 6291.6367 2243086
4002.6572 -677.19263 5899.5972 532224
4149.7588 -695.98138 6063.2812 2113026
4072.8066 -677.19263 5899.5972 1126400
4270.7891 -704.04828 6133.5591 2047493
4481.2422 -732.48767 6381.3184 1850112
4799.25 -777.88245 6776.791 2046721
4977.8232 -800.10944 6970.4287 1979905
4718.0762 -752.09766 6552.1582 659456
4958.1196 -783.89032 6829.1304 768
5057.7773 -793.15149 6909.8125 768
5210.5786 -810.53009 7061.2124 1536
5364.5625 -827.81348 7211.7822 1792
5385.6738 -824.48157 7182.7549 2441235
5432.6958 -825.13745 7188.4692 4546598
6493.0063 -978.48376 8524.3984 333568
6709.9541 -1003.346 8740.9941 861184
6594.3662 -978.48376 8524.3984 1189633
5973.7646 -879.63757 7663.2656 203520
4967.6206 -725.94611 6324.3296 335616
5005.2207 -725.94611 6324.3296 4349741
5042.8203 -725.94611 6324.3296 3494430
5925.9854 -846.76971 7376.9263 2572325
7071.5825 -1003.0417 8738.3438 1782043
7784.3374 -1096.0872 9548.9414 3359793
7841.1079 -1096.0872 9548.9414 3097134
8008.1968 -1111.3975 9682.3213 923404
8126.5454 -1119.7731 9755.2881 2372900
8273.5635 -1131.9523 9861.3926 595979
8291.0576 -1126.3641 9812.709 5664088
8304.5137 -1120.3093 9759.96 5533016
8295.9326 -1111.3861 9682.2227 4349002
8301.9678 -1104.5304 9622.4971 1648409
0 0 0 0
0 0 0 0
8947.3281 -1166.2817 10160.465 398341
9007.7354 -1166.2817 10160.465 661257
9068.1416 -1166.2817 10160.465 67841
9157.002 -1169.917 10192.135 1122832
9897.5244 -1256.2148 10943.948 991503
9962.5898 -1256.2148 10943.948 2373407
9783.1348 -1225.5826 10677.085 3097130
9783.3379 -1217.707 10608.474 4544320
9813.8623 -1213.6819 10573.408 3228460
9755.4775 -1198.7828 10443.609 1779738
9864.5801 -1204.5233 10493.62 1121549
10239.607 -1242.4586 10824.105 1024
9543.8945 -1150.8093 10025.672 66817
9560.9824 -1145.7145 9981.2861 1252116
9836.9268 -1171.5103 10206.016 331014
9959.8428 -1178.8771 10270.193 1539
0 0 0 0
0 0 0 0
0 0 0 0
0 0 0 0
-6598.3203 -795.32953 7307.2622 512
-6600.833 -800.90564 7358.4932 512
-7329.9375 -895.3045 8225.8037 512
-7302.9482 -897.99939 8250.5635 512
-7513.5 -930.13715 8545.8359 512
-7338.7002 -914.68286 8403.8467 512
-6886.0977 -864.15466 7939.6074 512
-6872.7217 -868.42902 7978.8794 512
-6959.0474 -885.44849 8135.2495 512
-6910.6807 -885.44849 8135.2495 512
-6655.4424 -858.75568 7890.0039 512
-6528.4346 -848.34698 7794.3716 512
-6450.6821 -844.23584 7756.5991 512
-6416.6089 -845.82312 7771.1831 512
-6471.5962 -859.25842 7894.6226 512
-6420.2974 -858.67487 7889.2612 512
-6335.7139 -853.59845 7842.6201 512
-6269.8394 -850.98596 7818.6177 768
-6231.7036 -852.12744 7829.1055 512
-6262.6709 -862.80646 7927.2212 512
-6237.002 -865.78564 7954.5923 768
-6290.1113 -879.82922 8083.6206 512
-6441.2915 -907.91248 8341.6416 512
-6369.7881 -904.80023 8313.0479 512
-6126.71 -877.07727 8058.3374 256
-5906.6294 -852.23566 7830.0991 512
-5958.0088 -866.47784 7960.9531 512
-5910.6792 -866.47784 7960.9531 512
-5863.3491 -866.47784 7960.9531 512
-5946.2441 -885.87897 8139.2051 768
-5959.8574 -895.1922 8224.7715 768
-6022.8706 -912.14075 8380.4902 768
-6161.0542 -940.85126 8644.2744 1024
-6508.8345 -1002.3215 9209.0459 133632
-5997.1709 -931.36279 8557.0967 726788
-5890.2183 -922.57928 8476.3965 1122055
-5742.4126 -907.19019 8335.0059 858881
-5728.4688 -912.86487 8387.1436 1187336
-5729.3784 -921.02698 8462.1348 68864
-5896.0498 -956.21674 8785.4482 133632
-5753.73 -941.47577 8650.0127 768
-5702.3032 -941.47577 8650.0127 1712410
-5738.4521 -956.06659 8784.0684 512
-5705.9253 -959.3783 8814.4961 512
-5574.8052 -946.02069 8691.7695 512
-5517.71 -945.09229 8683.2393 512
-5490.438 -949.30286 8721.9248 768
-5447.2949 -950.82324 8735.8945 768
-5395.1455 -950.78601 8735.5518 2304
-5390.9917 -959.28833 8813.6689 989453
-5552.7119 -997.76343 9167.167 67072
-5571.5825 -1011.0783 9289.5 512
-5548.0591 -1016.8894 9342.8916 1024
-5492.5132 -1016.8894 9342.8916 768
-5427.4541 -1015.1103 9326.5449 67073
-5300.5786 -1001.6132 9202.5381 1024
-5135.3228 -980.50653 9008.6162 1024
-4908.9526 -947.16339 8702.2686 1024
-5028.2051 -980.50653 9008.6162 1280
-4978.1152 -981.19037 9014.8984 67073
-4918.7192 -980.03461 9004.2803 1024
-4865.186 -980.03461 9004.2803 768
-4830.9209 -983.95911 9040.3369 1024
-4857.3896 -1000.4814 9192.1387 768
-4839.4531 -1008.1292 9262.4053 1024
-4784.3857 -1008.1292 9262.4053 1024
-4768.1133 -1016.399 9338.3857 134656
-4743.1055 -1022.9796 9398.8467 332033
-4701.1807 -1026.025 9426.8271 1280
-4743.6255 -1047.7797 9626.7021 1280
-4545.2764 -1016.2292 9336.8252 67072
-4523.4375 -1023.8505 9406.8477 397824
-4339.7534 -994.57129 9137.8389 332288
-4285.4263 -994.57129 9137.8389 595714
-4592.4321 -1079.507 9918.2031 331266
-4548.8286 -1083.1653 9951.8145 68608
-4396.6143 -1060.7167 9745.5635 265988
-4330.5625 -1058.7335 9727.3428 1024
-4271.0337 -1058.3131 9723.4795 768
-4319.1543 -1084.9213 9967.9482 1024
-4223.3525 -1075.6152 9882.4473 1024
-4182.4395 -1080.223 9924.7832 1024
-4096.0654 -1073.0535 9858.9102 1024
-3969.4658 -1054.9845 9692.8975 768
-3977.6423 -1072.731 9855.9482 3161642
-3919.0461 -1072.731 9855.9482 2569501
-3848.5486 -1069.424 9825.5635 793092
-3772.3247 -1064.3993 9779.3984 990471
-3731.717 -1069.424 9825.5635 1253388
-3846.0361 -1119.7129 10287.604 727300
-3749.3757 -1109.2113 10191.119 1792
-3698.5071 -1112.1343 10217.974 265984
-3608.6304 -1103.2292 10136.157 858629
-3548.3679 -1103.2292 10136.157 397825
-3431.0186 -1085.1736 9970.2666 463104
-3370.4912 -1084.7708 9966.5654 267008
-3364.8953 -1102.3492 10128.072 463619
-3304.6812 -1102.3492 10128.072 594184
-3239.1018 -1100.5264 10111.324 1384721
-3110.9187 -1076.962 9894.8213 1647383
-3156.2048 -1113.6996 10232.355 1319188
-3024.5957 -1088.235 9998.3945 768
-3035.3459 -1113.9966 10235.085 67585
-2977.988 -1115.3047 10247.103 1450774
-2917.0662 -1115.3047 10247.103 594953
-2820.8738 -1101.5317 10120.561 3584
-2741.1543 -1093.7313 10048.893 1319443
-2681.4109 -1093.7313 10048.893 1055758
-2621.6675 -1093.7313 10048.893 529414
-2520.7715 -1076.1626 9887.4756 1792
-2548.3032 -1113.892 10234.124 989194
-2487.4585 -1113.892 10234.124 396801
-2426.6138 -1113.892 10234.124 200448
-2263.0623 -1065.5338 9789.8223 200193
-2201.7698 -1064.0409 9776.1055 200192
-2224.9707 -1104.407 10146.978 1121293
-2179.8662 -1112.1733 10218.333 67329
-2102.9929 -1103.7117 10140.59 265473
-2023.3562 -1093.2577 10044.541 66816
-1966.2487 -1094.7108 10057.892 2048
-1906.4515 -1094.7108 10057.892 2560
-1821.8864 -1080.0278 9922.9893 134145
-1762.8914 -1080.0278 9922.9893 1024
-1703.8964 -1080.0278 9922.9893 768
-1705.8586 -1120.0518 10290.718 1280
-1632.776 -1111.9467 10216.25 529160
-1539.9 -1089.215 10007.397 397317
-1500.6376 -1104.1024 10144.18 265219
-1411.8097 -1082.2417 9943.3291 528647
-1381.5079 -1105.2948 10155.135 397061
-1335.6316 -1117.4248 10266.582 67585
-1260.7578 -1105.2948 10155.135 68864
-1213.5562 -1117.4248 10266.582 1451023
-1135.5925 -1101.0143 10115.807 2767136
-1087.4281 -1113.2758 10228.462 1517071
-1026.6171 -1113.2758 10228.462 1319182
-965.80603 -1113.2758 10228.462 198403
-888.57849 -1093.0812 10042.92 1792
-843.39447 -1112.2347 10218.896 1536
-782.64026 -1112.2347 10218.896 331270
-714.18805 -1100.3741 10109.925 512
-657.7309 -1106.5132 10166.329 256
-603.32574 -1117.696 10269.074 66562
-550.15698 -1133.9454 10418.369 512
-485.10709 -1126.7227 10352.008 660493
-423.56149 -1126.7227 10352.008 331527
-362.01596 -1126.7227 10352.008 265990
-293.55176 -1100.7788 10113.643 133635
-233.42332 -1100.7788 10113.643 199938
-173.75374 -1103.6931 10140.42 463621
-113.46613 -1103.6931 10140.42 265986
-53.19603 -1104.0569 10143.761 265985
7.1639676 -1112.2097 10218.667 1516562
69.33403 -1135.4187 10431.904 792836
130.18582 -1125.3157 10339.081 332033
189.75572 -1114.1666 10236.646 68864
246.1338 -1094.2426 10053.59 1280
315.78598 -1129.5867 10378.322 924172
377.48801 -1129.5867 10378.322 726538
434.75623 -1118.1832 10273.55 594696
495.83533 -1118.1832 10273.55 1280
547.76996 -1099.8226 10104.858 67329
607.84613 -1099.8226 10104.858 68354
685.30383 -1128.4436 10367.819 396293
753.65771 -1138.5873 10461.017 67072
796.34363 -1111.3627 10210.885 990217
842.97144 -1093.1063 10043.15 990729
898.71588 -1088.3049 9999.0371 2503713
1035.2045 -1175.8107 10803.015 68608
1042.358 -1114.7723 10242.212 1024
1103.2509 -1114.7723 10242.212 1280
1163.3206 -1113.9841 10234.97 397571
1244.7029 -1132.6686 10406.638 134656
1297.6711 -1124.9514 10335.734 726534
1329.9265 -1100.7878 10113.726 331779
1392.6072 -1102.8085 10132.291 134145
1479.0974 -1122.7347 10315.368 463873
1555.311 -1133.5842 10415.051 661509
1610.3179 -1128.7383 10370.527 1977880
1727.6879 -1166.3507 10716.099 398340
1844.1069 -1200.6687 11031.402 793608
1839.2473 -1156.3785 10624.478 1188364
1878.6409 -1141.9288 10491.718 924427
1920.8269 -1130.0508 10382.585 265219
1982.5543 -1130.0508 10382.585 1024
2053.3689 -1135.074 10428.737 66817
2109.9658 -1132.1738 10402.092 1024
2171.8091 -1132.1738 10402.092 768
2213.5334 -1121.9761 10308.397 512
2297.0693 -1132.95 10409.223 264195
2362.2966 -1134.5547 10423.967 1280
2424.27 -1134.5547 10423.967 396550
2424.1357 -1106.213 10163.571 66817
2484.561 -1106.213 10163.571 462855
2566.863 -1115.722 10250.938 1024
2612.9854 -1109.4287 10193.116 396807
2717.9434 -1127.8352 10362.229 725771
2779.5498 -1127.8352 10362.229 768
2881.9587 -1144.0322 10511.044 2304
2944.4497 -1144.0322 10511.044 660232
3156.6355 -1200.9857 11034.315 528646
3106.3633 -1157.7972 10637.513 1024
3212.885 -1173.6061 10782.76 199170
3247.3821 -1163.002 10685.332 594183
3258.7676 -1144.6865 10517.055 1792
3209.6077 -1106.1935 10163.393 1024
3270.032 -1106.1935 10163.393 1024
3457.7539 -1148.4747 10551.86 68096
3520.4873 -1148.4747 10551.86 134400
3470.8708 -1112.4648 10221.012 726790
3531.6377 -1112.4648 10221.012 134656
3640.5325 -1127.3688 10357.944 398080
3739.4194 -1138.7292 10462.321 595459
3815.0376 -1142.748 10499.245 134145
3927.8726 -1157.6058 10635.754 924426
4112.54 -1192.8276 10959.362 134144
4214.2305 -1203.2589 11055.201 924937
4718.1519 -1326.4524 12187.067 2503970
4457.0581 -1234.097 11338.534 1792
4334.4785 -1182.2754 10862.41 1024
4369.2168 -1174.2551 10788.723 1024
4351.6987 -1152.6261 10590.001 768
4414.6592 -1152.6261 10590.001 68096
4410.3511 -1135.3097 10430.903 1536
4560.916 -1157.7882 10637.429 1024
4624.1582 -1157.7882 10637.429 2048
4738.7451 -1170.4702 10753.948 67840
4577.5552 -1115.6045 10249.857 768
4630.5664 -1113.698 10232.341 768
4742.4893 -1125.826 10343.771 199424
4928.5381 -1155.0151 10611.951 1536
5010.8022 -1159.4515 10652.712 529408
5054.1636 -1154.8879 10610.783 68608
5079.5542 -1146.3812 10532.625 68352
4982.6138 -1110.8093 10205.801 661248
5012.6216 -1104.0543 10143.738 1187844
5103.9663 -1110.8093 10205.801 924676
5018.9399 -1079.4717 9917.8789 858882
4985.6821 -1059.8669 9737.7559 398081
0 0 0 0
0 0 0 0
0 0 0 0
0 0 0 0
0 0 0 0
0 0 0 0
2581.3723 -507.50183 4662.7827 67328
2732.8906 -531.58185 4884.0234 512
2761.4011 -531.48053 4883.0923 256
2790.7234 -531.53601 4883.6016 256
2843.0701 -535.93048 4923.9771 256
2696.1912 -503.06326 4622.0024 256
2689.8628 -496.819 4564.6318 256
2694.3733 -492.68146 4526.6172 256
2574.5005 -466.10645 4282.4536 256
2483.9155 -445.30246 4091.3127 462089
0 0 0 0
0 0 0 0
0 0 0 0
3648.4883 -629.42572 5782.9849 3361593
4087.781 -698.62762 6418.792 5075513
4107.6343 -695.52747 6390.3091 8233835
4128.9443 -692.7287 6364.5947 4352549
4166.7837 -692.7287 6364.5947 3035420
4204.6226 -692.7287 6364.5947 4086572
4396.0127 -717.80115 6594.9531 3625254
4842.9009 -783.78046 7201.1523 136704
4469.1172 -716.94873 6587.1216 1387783
4508.2793 -716.94873 6587.1216 793858
4535.0039 -714.98785 6569.1055 2560
4457.9434 -696.83734 6402.3438 990977
4706.7471 -729.50006 6702.4395 1586944
4823.1011 -741.25818 6810.4697 2904069
4977.8232 -758.66827 6970.4287 4417294
5019.5635 -758.7135 6970.8442 4219657
5016.0718 -751.97705 6908.9517 3163160
5057.7773 -752.07074 6909.8125 1024
5321.6865 -784.93744 7211.7822 1280
5438.9932 -795.828 7311.8418 398085
5544.0869 -804.77313 7394.0269 66305
6784.3115 -977.0556 8976.9092 2239774
7636.1279 -1091.1478 10025.156 4017979
6947.957 -985.12378 9051.0381 135937
7001.7676 -985.12378 9051.0381 1650200
6914.3418 -965.40387 8869.8564 2571562
6519.665 -903.40771 8300.2539 3755325
7125.4727 -979.93524 9003.3672 1913378
7179 -979.93524 9003.3672 596236
7758.438 -1051.1909 9658.0439 662801
7953.9443 -1069.7628 9828.6768 69893
8281.2842 -1105.6653 10158.539 2636331
8341.6787 -1105.6653 10158.539 2965295
8232.54 -1083.3556 9953.5635 2768686
8191.9604 -1070.3219 9833.8135 1451544
8273.5635 -1073.3236 9861.3926 2767916
8609.5654 -1109.0538 10189.672 1254931
8449.6309 -1080.8464 9930.5098 728844
8684.1172 -1103.1332 10135.274 3361079
8744.375 -1103.1332 10135.274 4019265
8489.1064 -1063.601 9772.0635 4017470
9255.1055 -1151.691 10581.411 133635
9318.0146 -1151.691 10581.411 1792
9380.9238 -1151.691 10581.411 1536
9260.71 -1129.3589 10376.229 1536
9640.0898 -1167.8455 10729.832 331527
9703.8818 -1167.8455 10729.832 134658
10036.702 -1200.0111 11025.361 463880
10102.251 -1200.0111 11025.361 2964269
9791.9395 -1155.6519 10617.801 2635047
9846.4092 -1154.6366 10608.474 2503203
10083.426 -1174.9047 10794.69 3621687
10175.255 -1178.1062 10824.105 1383956
10652.969 -1225.665 11261.062 1280
9977.7705 -1140.8113 10481.45 1024
9724.4688 -1104.9491 10151.959 512
9898.7832 -1117.8179 10270.193 68355
9959.8428 -1117.8179 10270.193 660494
0 0 0 0
0 0 0 0
0 0 0 0
0 0 0 0
-6627.2686 -755.18451 7339.3203 512
-6687.8286 -767.13629 7455.4746 512
-7329.9375 -846.39984 8225.8037 512
-7302.9482 -848.94745 8250.5635 512
-7515.5811 -879.57336 8548.2031 512
-7464.7598 -879.57336 8548.2031 512
-6920.1582 -820.99243 7978.8794 512
-6872.7217 -820.99243 7978.8794 512
-6982.6885 -839.9259 8162.8867 512
-6755.1035 -818.23724 7952.1035 512
-6654.9839 -811.7915 7889.46 512
-6528.4346 -802.00726 7794.3716 512
-6453.8848 -798.51703 7760.4512 512
-6416.1465 -799.56378 7770.6235 512
-6384.4834 -801.38831 7788.3555 512
-6383.2788 -807.09058 7843.7734 512
-6334.5068 -806.81812 7841.1255 512
-6269.8394 -804.50214 7818.6177 768
-6212.4668 -803.09454 7804.9375 512
-6262.6709 -815.67694 7927.2212 768
-6245.5146 -819.61047 7965.4492 768
-6389.4746 -844.90912 8211.3164 768
-6441.2915 -858.31897 8341.6416 768
-6352.1367 -853.00641 8290.0107 512
-6272.7368 -848.93103 8250.4033 512
-5942.2559 -810.54309 7877.3271 256
-5938.4507 -816.45886 7934.8198 512
-5910.6792 -819.14777 7960.9531 768
-5931.7773 -828.7077 8053.8618 512
-5976.7524 -841.78613 8180.9648 768
-5986.3115 -850.05005 8261.2783 1024
-6064.6196 -868.2937 8438.5811 1280
-6176.042 -891.6225 8665.3037 1024
-6212.9731 -904.49902 8790.4453 529154
-5986.5747 -878.93274 8541.9775 199681
-5927.5161 -877.70758 8530.0703 133888
-5797.6787 -865.89032 8415.2236 200448
-5747.6475 -865.89032 8415.2236 1792
-5729.3784 -870.71722 8462.1348 1024
-5951.3237 -912.45947 8867.8096 397314
-5772.1821 -892.90344 8677.7529 768
-5720.5903 -892.90344 8677.7529 1024
-5738.4521 -903.84283 8784.0684 1280
-5705.9253 -906.97375 8814.4961 768
-5574.8052 -894.3457 8691.7695 768
-5523.1304 -894.3457 8691.7695 768
-5503.1978 -899.53418 8742.1943 1280
-5483.4126 -904.84601 8793.8174 1024
-5431.1309 -904.84601 8793.8174 1792
-5438.6265 -914.90186 8891.5469 1280
-5656.7354 -960.93304 9338.9033 792327
-5644.606 -968.37732 9411.252 529155
-5723.0996 -991.67352 9637.6582 2048
-5673.8813 -993.08789 9651.4033 1280
-5616.501 -993.08789 9651.4033 1024
-5348.0347 -955.37921 9284.9287 1280
-5245.8667 -946.90161 9202.5381 1024
-4908.9526 -895.42596 8702.2686 768
-5063.3711 -933.43073 9071.6201 1280
-5154.7036 -960.49872 9334.6826 594950
-5021.5972 -945.88 9192.6104 1792
-4914.2588 -935.8468 9095.1016 512
-4845.9795 -933.11133 9068.5166 1024
-4972.6069 -968.2666 9410.1758 1024
-4839.4531 -953.06165 9262.4053 1024
-4784.3857 -953.06165 9262.4053 1280
-4776.0747 -962.48419 9353.9785 134144
-4720.4624 -962.48419 9353.9785 264193
-4726.7046 -975.24628 9478.0078 1024
-4743.6255 -990.54626 9626.7021 1024
-4710.6646 -995.67664 9676.5625 1055239
-4678.7935 -1001.1672 9729.9229 200448
-4595.6045 -995.67664 9676.5625 397824
-4549.5977 -998.20477 9701.1328 199936
-4592.4321 -1020.5405 9918.2031 858371
-4548.8286 -1023.9988 9951.8145 1280
-4460.5068 -1017.3491 9887.1875 332033
-4401.7246 -1017.3491 9887.1875 529668
-4375.4277 -1024.959 9961.1445 331524
-4246.3945 -1008.381 9800.0303 1280
-4213.2939 -1014.4394 9858.9102 1024
-4204.7075 -1026.6547 9977.624 768
-4107.271 -1017.2145 9885.8799 768
-4101.8101 -1030.6099 10016.064 330757
-4056.0815 -1034.1333 10050.307 3753273
-3982.0273 -1030.4324 10014.339 1252621
-3830.4663 -1006.2581 9779.3984 727045
-3766.1116 -1004.6006 9763.291 660740
-3714.1836 -1006.2581 9779.3984 660741
-3846.0361 -1058.5502 10287.604 1280
-3749.3757 -1048.6223 10191.119 529154
-3688.7869 -1048.6223 10191.119 67328
-3571.1528 -1032.1351 10030.888 265474
-3548.3679 -1042.967 10136.157 68352
-3447.1189 -1030.7115 10017.052 133888
-3345.4858 -1017.9086 9892.625 69376
-3359.3308 -1040.4117 10111.324 1122059
-3328.05 -1049.5045 10199.693 1187854
-3267.4102 -1049.5045 10199.693 3293999
-3143.4819 -1028.7917 9998.3945 530694
-3174.8105 -1059.072 10292.675 266243
-3113.6179 -1059.072 10292.675 1121296
-3092.4641 -1072.964 10427.686 512
-2977.988 -1054.3828 10247.103 1121298
-2917.0662 -1054.3828 10247.103 1536
-2825.6257 -1043.1165 10137.61 2304
-2741.1543 -1033.9878 10048.893 1280
-2681.4109 -1033.9878 10048.893 1024
-2636.8308 -1039.9683 10107.014 1024
-2522.6499 -1018.1369 9894.8438 1280
-2502.1985 -1033.9952 10048.965 528901
-2487.4585 -1053.0472 10234.124 133376
-2382.7107 -1033.9952 10048.965 528901
-2248.5969 -1000.8919 9727.2471 133889
-2166.0422 -989.5965 9617.4717 1280
-2160.3672 -1013.7648 9852.3535 396548
-2147.5476 -1035.8341 10066.836 858630
-2102.9929 -1043.4231 10140.59 2240537
-2058.8137 -1051.652 10220.562 1516819
-2012.9871 -1059.514 10296.972 134656
-1908.3557 -1035.9475 10067.938 1792
-1854.5087 -1039.3154 10100.669 1024
-1771.0144 -1025.7377 9968.7129 1055759
-1760.5536 -1054.9838 10252.943 133377
-1717.0365 -1065.8091 10358.149 1280
-1654.2196 -1065.014 10350.423 1024
-1560.9475 -1043.7925 10144.18 1024
-1500.6376 -1043.7925 10144.18 462854
-1453.7117 -1053.4918 10238.443 331268
-1416.8997 -1071.6886 10415.291 463110
-1335.6316 -1056.3872 10266.582 594949
-1272.7683 -1054.8741 10251.878 266498
-1211.8181 -1054.8741 10251.878 1977619
-1142.4017 -1047.1141 10176.462 2636831
-1069.1333 -1034.7582 10056.379 729093
-1012.4756 -1037.9672 10087.566 2175257
-960.22589 -1046.3839 10169.365 529926
-890.87665 -1036.0459 10068.894 67840
-839.30646 -1046.3839 10169.365 1792
-771.37048 -1036.3396 10071.748 1536
-711.49121 -1036.3396 10071.748 768
-657.7309 -1046.0715 10166.329 134148
-593.11511 -1038.761 10095.281 1054995
-543.08734 -1058.2299 10284.491 768
-485.10709 -1065.177 10352.008 256
-424.53201 -1067.6177 10375.728 1280
-360.16312 -1059.7253 10299.024 512
-298.66019 -1058.7599 10289.642 1793
-232.66429 -1037.2664 10080.755 463368
-172.1382 -1033.7041 10046.135 1280
-111.90024 -1029.0061 10000.478 529413
-53.178505 -1043.4056 10140.42 200704
7.1251249 -1045.7559 10163.262 1253389
67.99025 -1052.5941 10229.72 858633
130.18582 -1063.847 10339.081 1280
189.75572 -1053.3069 10236.646 1536
246.1338 -1034.4712 10053.59 266241
309.52258 -1046.704 10172.476 1536
375.03867 -1060.9557 10310.982 331012
442.30359 -1075.4554 10451.898 199170
498.51312 -1062.813 10329.032 768
559.92206 -1062.813 10329.032 1537
627.79541 -1073.8705 10436.496 1536
711.67035 -1107.8485 10766.713 594696
775.68146 -1107.8485 10766.713 528902
779.82172 -1028.8579 9999.0371 134400
833.35419 -1021.6072 9928.5703 1280
892.38226 -1021.6072 9928.5703 792330
1003.0748 -1077.0834 10467.721 265219
1046.0125 -1057.5743 10278.12 768
1105.1923 -1055.7341 10260.235 2304
1168.2251 -1057.5743 10278.12 68097
1236.2223 -1063.5027 10335.734 2048
1297.6711 -1063.5027 10335.734 2304
1334.7048 -1044.3978 10150.063 726534
1392.6072 -1042.5691 10132.291 2560
1463.7336 -1050.3818 10208.22 924423
1555.311 -1071.6639 10415.051 1451278
1610.3179 -1067.0826 10370.527 1648914
1727.6879 -1102.6405 10716.099 793349
1811.6393 -1115.0994 10837.182 464386
1852.7386 -1101.2319 10702.41 793860
1902.4127 -1093.213 10624.478 925445
1941.0171 -1079.5526 10491.718 2438174
1999.0052 -1077.1881 10468.738 200704
2061.2449 -1077.1881 10468.738 2304
2115.3706 -1073.0721 10428.737 1793
2177.3723 -1073.0721 10428.737 199170
2233.6523 -1070.3304 10402.092 660233
2297.0693 -1071.0643 10409.223 133377
2373.4722 -1077.6555 10473.281 768
2408.7656 -1065.7217 10357.301 66816
2424.1357 -1045.7877 10163.571 512
2484.561 -1045.7877 10163.571 768
2572.3933 -1057.0499 10273.023 768
2633.4695 -1057.0499 10273.023 528903
2750.8647 -1079.1437 10487.743 1318419
2813.2175 -1079.1437 10487.743 1024
2955.1277 -1109.0001 10777.905 1024
3091.0334 -1135.3835 11034.315 1024
3043.1204 -1094.5542 10637.513 68097
3072.6099 -1082.661 10521.927 133632
3155.9294 -1089.8314 10591.612 2304
3218.8997 -1089.8314 10591.612 67840
3268.3164 -1085.3306 10547.872 768
3249.28 -1058.6957 10289.018 768
3395.02 -1085.7411 10551.86 768
3457.7539 -1085.7411 10551.86 265985
3520.4873 -1085.7411 10551.86 595203
3560.9609 -1078.996 10486.309 332288
3554.8257 -1058.6034 10288.121 793090
3640.5325 -1065.788 10357.944 924931
3677.1572 -1058.6034 10288.121 2175000
3801.6208 -1076.528 10462.321 332288
3992.2051 -1112.2975 10809.951 67840
4306.5801 -1180.8776 11476.452 1123336
4374.8105 -1180.8776 11476.452 3030820
4443.0415 -1180.8776 11476.452 1253646
4361.5601 -1141.6888 11095.593 1536
4305.8613 -1110.316 10790.694 768
4273.231 -1085.7255 10551.709 68353
4335.9639 -1085.7255 10551.709 331269
4398.6968 -1085.7255 10551.709 2304
4410.3511 -1073.295 10430.903 1024
4560.916 -1094.5457 10637.429 1024
4590.7842 -1086.646 10560.655 1450257
4591.3604 -1072.1195 10419.479 858119
4569.7324 -1052.8639 10232.341 68864
4630.5664 -1052.8639 10232.341 1280
4732.6836 -1062.1288 10322.383 199680
4918.4414 -1089.6873 10590.212 67584
5006.8394 -1095.2513 10644.287 67840
5054.1636 -1091.804 10610.783 134144
5117.248 -1091.804 10610.783 529408
5058.5552 -1066.1384 10361.351 1451269
5051.7021 -1051.8846 10222.824 2174994
