# .PCD v0.7 - Point Cloud Data file format
VERSION 0.7
FIELDS x y z rgb
SIZE 4 4 4 4
TYPE F F F U
COUNT 1 1 1 1
WIDTH 1328
HEIGHT 1
VIEWPOINT 0 0 0 1 0 0 0
POINTS 1328
DATA ascii
-5594.8203 -1104.9988 8722.9756 768
-5494.8672 -1095.4114 8647.292 768
-5440.6245 -1094.8414 8642.793 768
-5388.123 -1094.6144 8641 768
-5348.4546 -1097.0151 8659.9521 1024
-5312.0103 -1100.1301 8684.543 1024
-5307.7251 -1110.0321 8762.71 1536
-5313.4248 -1122.2393 8859.0742 1792
-5326.2422 -1136.2091 8969.3535 1024
-5288.6694 -1139.6035 8996.1494 594950
-5367.6079 -1168.4296 9223.7051 397828
-5239.0151 -1152.2086 9095.6553 1536
-5252.7866 -1167.2859 9214.6768 1024
-5198.0024 -1167.2859 9214.6768 768
-5302.1201 -1203.3495 9499.3672 768
-5178.251 -1187.8896 9377.3252 768
-5111.0186 -1185.2271 9356.3066 1280
-5156.3301 -1208.8916 9543.1172 1793
-5201.7256 -1233.1028 9734.2422 265730
-4938.543 -1183.8851 9345.7129 2304
-4711.0698 -1142.2052 9016.6875 924169
-4611.9312 -1131.0388 8928.5391 594435
-4511.5513 -1119.3046 8835.9072 1280
-4467.1333 -1121.3413 8851.9854 768
-4476.583 -1137.1099 8976.4639 1024
-4387.3608 -1127.8923 8903.7002 660998
-4495.4141 -1169.7842 9234.3994 989451
-4440.5132 -1169.7842 9234.3994 1280
-4424.0557 -1180.0385 9315.3467 1024
-4368.6733 -1180.0385 9315.3467 198656
-4334.8398 -1185.9338 9361.8857 1792
-4310.3892 -1194.5828 9430.1621 1280
-4268.4038 -1198.5364 9461.3711 200960
-4254.5254 -1210.5929 9556.5469 1792
-4312.0312 -1243.5627 9816.8145 1385232
-4320.6812 -1263.1543 9971.4717 727046
-4233.3203 -1254.8315 9905.7715 134656
-4174.4277 -1254.8315 9905.7715 2560
-4115.5352 -1254.8315 9905.7715 397573
-4035.4863 -1248.2872 9854.1104 512
-3892.4692 -1221.7854 9644.9023 1536
-3835.1274 -1221.7854 9644.9023 2048
-3834.3643 -1240.0837 9789.3506 67841
-3946.7388 -1296.1001 10231.55 1024
-3795.595 -1265.9768 9993.7529 2568999
-3743.3826 -1268.4175 10013.021 1280
-3677.9155 -1266.3734 9996.8848 199425
-3509.7256 -1228.3118 9696.4219 529157
-3402.1726 -1210.5547 9556.2451 660485
-3388.1599 -1226.043 9678.5107 2048
-3377.7378 -1243.3882 9815.4365 1280
-3177.4458 -1190.2211 9395.7295 988939
-3182.3965 -1213.4073 9578.7646 768
-3168.4473 -1230.1012 9710.5479 512
-3117.2837 -1232.6986 9731.0518 1024
-3086.4739 -1243.5951 9817.0703 1280
-3024.0771 -1241.9395 9804 1648657
-2965.7896 -1241.9395 9804 728582
-2917.2651 -1246.1099 9836.9209 2109979
-2858.782 -1246.1099 9836.9209 68608
-2779.0337 -1236.647 9762.2207 2816
-2752.5737 -1250.9993 9875.5186 68353
-2698.3735 -1253.0947 9892.0605 200450
-2639.5625 -1253.0947 9892.0605 1024
-2580.7512 -1253.0947 9892.0605 595207
-2537.9592 -1261.0542 9954.8936 1582358
-2418.3472 -1230.3121 9712.2129 1517075
-2337.2805 -1218.1556 9616.248 67072
-2284.4153 -1220.4562 9634.4082 1451281
-2268.2847 -1243.0054 9812.4141 2560
-2209.947 -1243.0054 9812.4141 464132
-2037.127 -1176.8677 9290.3164 594438
-2038.3737 -1210.4061 9555.0723 1280
-1981.5659 -1210.4061 9555.0723 397570
-1963.4053 -1234.7096 9746.9268 397569
-1912.7983 -1239.4667 9784.4795 134400
-1819.6719 -1216.1058 9600.0664 200192
-1796.4556 -1239.4667 9784.4795 661509
-1722.7216 -1228.3699 9696.8809 1451026
-1645.2014 -1213.7117 9581.167 1024
-1580.6899 -1207.9431 9535.6289 67328
-1524.474 -1208.3204 9538.6074 1024
-1451.7937 -1195.1727 9434.8184 132611
-1411.0547 -1208.3204 9538.6074 768
-1356.8678 -1210.571 9556.375 396807
-1279.4066 -1191.3463 9404.6123 1778970
-1260.3885 -1227.2719 9688.2119 199936
-1206.6478 -1231.2089 9719.291 397571
-1159.2245 -1242.312 9806.9404 1253136
-1088.7695 -1228.6016 9698.709 726536
-1029.2323 -1226.3665 9681.0654 529158
-972.52417 -1227.4375 9689.5195 726793
-914.11896 -1226.3665 9681.0654 1280
-840.15729 -1202.8788 9495.6514 768
-783.58032 -1202.6906 9494.165 768
-716.84875 -1185.6771 9359.8594 768
-654.25134 -1173.2135 9261.4707 1024
-570.49298 -1117.0261 8817.9209 67074
-544.12732 -1173.2135 9261.4707 132866
-508.73654 -1220.4028 9633.9873 1024
-449.01849 -1213.8033 9581.8906 330502
-384.00562 -1188.8931 9385.2461 989457
-326.87262 -1184.0568 9347.0684 512
-270.50195 -1180.5665 9319.5156 768
-219.06583 -1202.3617 9491.5684 1778969
-166.80586 -1233.1907 9734.9355 594182
-109.85056 -1243.624 9817.2979 133891
-49.797234 -1202.8795 9495.6562 527623
6.6570888 -1202.8795 9495.6562 132866
63.439476 -1209.1323 9545.0166 768
122.14419 -1228.8197 9700.4316 768
177.14954 -1210.5981 9556.5879 768
231.16789 -1196.1194 9442.292 768
291.28885 -1212.7053 9573.2227 66817
361.2789 -1258.2407 9932.6846 1792
421.99371 -1263.2166 9971.9639 2304
479.2308 -1257.8385 9929.5088 1253391
539.93292 -1261.7373 9960.2861 1516819
604.52771 -1273.063 10049.692 2560
664.27588 -1273.063 10049.692 768
715.56488 -1258.189 9932.2754 132866
780.2276 -1267.3053 10004.24 265732
818.53839 -1235.3594 9752.0557 768
896.67303 -1263.767 9976.3086 67585
941.25647 -1244.2966 9822.6074 768
999.6546 -1244.2966 9822.6074 768
1027.514 -1208.3823 9539.0967 792840
1076.9744 -1200.2994 9475.29 1977112
1130.8544 -1197.7013 9454.7793 265985
1211.2454 -1222.0978 9647.3672 1187848
1313.3696 -1265.2245 9987.8145 1451020
1372.7499 -1265.2245 9987.8145 1648910
1465.0409 -1294.2997 10217.337 1648656
1555.5836 -1319.5767 10416.876 793095
1597.3057 -1303.0898 10286.728 266754
1639.9796 -1288.5671 10172.083 133121
1718.5911 -1302.3098 10280.569 769
1782.8225 -1304.5859 10298.538 265986
1833.8495 -1297.3694 10241.57 266497
1905.278 -1304.5859 10298.538 266497
1928.7949 -1279.5685 10101.048 727815
1988.8483 -1279.5685 10101.048 1714196
2066.8718 -1290.7909 10189.639 68864
2127.4519 -1290.7909 10189.639 595461
2144.7114 -1265.2346 9987.8945 1055757
2293.9419 -1316.8119 10395.051 594950
2391.9741 -1337.064 10554.923 264452
2425.2063 -1320.9849 10427.993 768
2453.4075 -1303.0354 10286.298 768
2504.3665 -1297.7518 10244.589 512
2523.6458 -1276.6927 10078.347 768
2541.8918 -1256.1 9915.7842 768
2600.844 -1256.1 9915.7842 512
2686.5842 -1268.7509 10015.651 1536
2772.7737 -1281.0607 10112.826 528133
2871.9417 -1298.7168 10252.206 67072
2989.5989 -1323.8262 10450.423 1024
3031.3345 -1314.9791 10380.582 463365
3086.26 -1312.0924 10357.795 528902
3140.2563 -1308.9313 10332.841 200192
3207.7258 -1311.3998 10352.327 199681
3163.7861 -1269.0858 10018.296 67841
3223.3474 -1269.0858 10018.296 528390
3282.9092 -1269.0858 10018.296 528900
3371.7476 -1280.2018 10106.047 1252878
3476.2351 -1296.7662 10236.808 1280
3599.429 -1319.6188 10417.209 1024
3590.8657 -1294.2107 10216.634 1280
3622.9155 -1284.0419 10136.361 1024
3683.179 -1284.0419 10136.361 768
3755.7656 -1288.2689 10169.729 1024
3773.2188 -1273.7501 10055.117 1280
3860.9441 -1283.0366 10128.425 67584
3921.1604 -1283.0366 10128.425 331267
4000.0391 -1289.0507 10175.9 398081
4029.8926 -1279.3221 10099.103 529665
4059.3643 -1269.7599 10023.617 1056261
4139.8892 -1276.2124 10074.555 1583370
4199.7852 -1276.2124 10074.555 794112
4259.6812 -1276.2124 10074.555 2571542
4441.6719 -1312.2852 10359.316 1255427
4650.8154 -1355.2837 10698.751 2044944
4680.6758 -1345.5824 10622.168 662018
4736.0728 -1343.3827 10604.803 2043158
4906.543 -1373.4525 10842.178 198914
4971.0029 -1373.4525 10842.178 397058
5047.6216 -1376.7689 10868.357 989451
5130.9316 -1381.8036 10908.102 68352
5179.6582 -1377.515 10874.248 528644
5200.5479 -1366.0205 10783.509 2560
5264.6587 -1366.0205 10783.509 199680
5196.9561 -1332.2303 10516.766 1024
5197.0742 -1316.4226 10391.978 1024
5259.5156 -1316.5874 10393.278 1024
5320.6406 -1316.4226 10391.978 265472
5235.6802 -1280.5323 10108.656 768
5281.3281 -1277.0381 10081.072 198912
5413.4565 -1294.2988 10217.33 462848
5486.1616 -1297.1266 10239.653 67584
5634.4248 -1317.5609 10400.964 462848
5792.2759 -1339.7693 10576.279 726786
5855.1548 -1339.7693 10576.279 595200
5792.0806 -1311.2552 10351.186 133120
5853.6216 -1311.2552 10351.186 134400
5864.4404 -1300.0114 10262.426 1779472
6074.5649 -1332.7256 10520.676 134400
6191.793 -1344.5997 10614.411 2560
6264.543 -1346.673 10630.777 2048
6327.7461 -1346.673 10630.777 134400
6501.7109 -1370.0123 10815.021 464130
6566.0093 -1370.0123 10815.021 1188106
6110.3467 -1262.5734 9966.8867 201216
6232.8638 -1275.5194 10069.084 397313
6292.7271 -1275.5194 10069.084 924673
6355.3745 -1276.0785 10073.497 595968
6433.041 -1279.6144 10101.41 464128
6765.3877 -1333.2756 10525.018 661760
6431.6416 -1255.8873 9914.1055 200960
6393.0107 -1237.0076 9765.0674 1122820
6055.2632 -1161.1113 9165.9336 1517835
0 0 0 0
0 0 0 0
0 0 0 0
0 0 0 0
0 0 0 0
0 0 0 0
2966.1658 -535.06256 4223.8398 133124
2931.0007 -524.28058 4138.7256 329734
2955.6064 -524.28058 4138.7256 395269
2977.7271 -523.84332 4135.2739 987406
2972.1714 -518.58435 4093.7588 1119249
3066.8271 -530.7536 4189.8247 725004
3075.0037 -527.8811 4167.1484 1382934
0 0 0 0
0 0 0 0
0 0 0 0
6715.6743 -1116.8754 8816.7305 768
7495.7959 -1236.9614 9764.7031 989458
7626.4409 -1248.8484 9858.54 1977635
7902.3188 -1284.155 10137.254 398348
8150.481 -1314.4572 10376.462 462859
8212.1709 -1314.4572 10376.462 200711
8351.9531 -1326.8633 10474.397 1320476
8799.2441 -1387.5778 10953.685 2505005
8890.3828 -1391.6503 10985.832 2637614
8583.0547 -1333.7444 10528.718 2703150
8761.2148 -1351.5721 10669.452 3822142
9044.4531 -1385.2373 10935.208 3624767
9109.4658 -1385.2373 10935.208 3624510
9134.1816 -1379.1528 10887.177 3098422
9113.6289 -1366.3673 10786.246 3951679
8876.2637 -1321.4814 10431.913 4740939
9322.9268 -1378.3491 10880.832 2106399
9367.0527 -1375.3298 10856.997 512
9431.6006 -1375.3298 10856.997 725261
9585.4287 -1388.2603 10959.072 396553
9689.8623 -1393.9105 11003.676 263942
9752.4121 -1393.5005 11000.438 1121302
9858.9033 -1399.3328 11046.479 199687
9734.29 -1372.5029 10834.682 67845
9920.835 -1389.6096 10969.724 2370858
9986.0537 -1389.6096 10969.724 593419
10051.271 -1389.6096 10969.724 512
9570.627 -1314.6294 10377.822 256
9582.4971 -1307.8287 10324.137 512
9895.6367 -1341.9705 10593.655 769
9965.5215 -1342.9006 10600.998 1055253
10028.548 -1342.9006 10600.998 1318168
10097.334 -1343.6672 10607.05 1515802
10087.378 -1334.0109 10530.821 1121301
9242.2998 -1214.7139 9589.0781 726799
8493.126 -1109.4067 8757.7734 726544
0 0 0 0
0 0 0 0
0 0 0 0
0 0 0 0
0 0 0 0
-6609.7793 -889.6062 7368.4663 512
-6754.7295 -915.18054 7580.2944 512
-6733.9521 -918.49359 7607.7358 512
-6818.7061 -936.3429 7755.5786 512
-6961.5767 -962.47034 7971.9878 768
-6914.1812 -962.47034 7971.9878 512
-6751.8037 -946.35419 7838.5 512
-6705.2017 -946.35419 7838.5 512
-6624.3428 -941.48535 7798.1729 512
-6527.9868 -934.32996 7738.9053 512
-6456.1294 -930.60413 7708.0454 512
-6374.6953 -925.43488 7665.2295 512
-6287.1304 -919.29468 7614.3711 512
-6169.8154 -908.68396 7526.4844 512
-6221.6553 -923.01318 7645.1704 512
-6178.145 -923.30341 7647.5742 512
-6152.1426 -926.23389 7671.8472 512
-6111.0503 -926.91931 7677.5244 512
-6132.6108 -937.1897 7762.5928 768
-6160.291 -948.55817 7856.7559 768
-6229.1636 -966.49158 8005.2954 768
-6231.3237 -974.27057 8069.7275 768
-6239.4751 -983.11438 8142.979 768
-6191.0625 -983.11438 8142.979 768
-6005.9907 -961.24237 7961.8169 768
-5958.6558 -961.24237 7961.8169 768
-5921.5093 -962.89923 7975.5405 768
-5905.1836 -967.99585 8017.7544 512
-5878.2788 -971.427 8046.1743 768
-5721.0151 -953.19507 7895.1626 768
-5653.0308 -949.65955 7865.8784 768
-5606.2661 -949.65955 7865.8784 768
-5710.6533 -975.479 8079.7368 768
-5682.4526 -978.896 8108.0396 1024
-5726.6631 -994.95227 8241.0303 1536
-5704.9502 -999.73309 8280.6299 69376
-5708.916 -1009.1364 8358.5156 1536
-5749.8994 -1025.3057 8492.4434 1792
-5710.189 -1027.245 8508.5059 1280
-5628.7314 -1021.6415 8462.0938 1280
-5578.4224 -1021.6415 8462.0938 1024
-5537.0903 -1023.3007 8475.8359 1024
-5558.2656 -1036.6483 8586.3916 768
-5546.2778 -1044.0009 8647.292 1024
-5542.96 -1053.1382 8722.9756 265731
-5491.0996 -1053.1382 8722.9756 1024
-5371.145 -1039.954 8613.7725 768
-5319.9341 -1039.954 8613.7725 768
-5293.4297 -1044.8307 8654.166 1024
-5307.7251 -1057.9354 8762.71 1024
-5276.2305 -1062.0824 8797.0596 1024
-5339.8271 -1085.6459 8992.2305 1024
-5358.7959 -1100.5205 9115.4355 1280
-5465.4116 -1133.8828 9391.7705 1024
-5409.5747 -1133.8828 9391.7705 768
-5358.2974 -1134.8485 9399.7686 1024
-5515.1948 -1180.389 9776.9736 725773
-5527.8584 -1195.7014 9903.8037 461575
-5346.8472 -1168.9995 9682.6367 67073
-5040.0029 -1113.9058 9226.3037 265220
-4985.1499 -1113.9058 9226.3037 768
-4835.3267 -1092.4492 9048.582 768
-4781.5308 -1092.4492 9048.582 1024
-4745.563 -1096.5688 9082.7051 331777
-4707.6895 -1100.338 9113.9238 68608
-4627.9902 -1094.3052 9063.9541 134400
-4539.1802 -1085.9503 8994.7529 1713936
-4476.583 -1083.7422 8976.4639 1056262
-4644.478 -1137.9542 9425.4932 858884
-4602.3896 -1141.4137 9454.1465 1056006
-4440.5132 -1114.8832 9234.3994 67329
-4205.5112 -1069.0991 8855.1768 768
-4157.3325 -1070.2493 8864.7031 1792
-4335.8799 -1130.5459 9364.1318 1536
-4361.5532 -1152.0321 9542.0977 1280
-4324.9443 -1157.417 9586.6992 1056010
-4342.6787 -1177.6829 9754.5586 1319694
-4284.6851 -1177.6829 9754.5586 398593
-4241.4399 -1181.7922 9788.5957 67584
-4117.71 -1163.2782 9635.248 2560
-4219.9321 -1208.9756 10013.752 67328
-4166.0273 -1210.6117 10027.303 529158
-4164.6084 -1227.7683 10169.409 265732
-4061.5452 -1215.0236 10063.846 1024
-3976.5469 -1207.3826 10000.557 1024
-3866.2056 -1191.698 9870.6436 1024
-3786.7866 -1185.208 9816.8887 1536
-3761.8027 -1195.8192 9904.7793 331268
-3719.8684 -1201.2937 9950.124 462852
-3608.2271 -1184.0703 9807.4648 768
-3505.2397 -1169.1676 9684.0283 330752
-3402.1726 -1153.7401 9556.2451 1280
-3388.1599 -1168.5015 9678.5107 463364
-3226.7869 -1132.0736 9376.7852 463108
-3348.3391 -1195.3702 9901.0615 791048
-3182.3965 -1156.4589 9578.7646 1024
-3168.4473 -1172.3693 9710.5479 768
-3068.4993 -1156.4589 9578.7646 397062
-3047.6631 -1170.3262 9693.625 1024
-2990.0317 -1170.3262 9693.625 1792
-2908.4573 -1160.7705 9614.4766 265474
-2876.9734 -1171.2236 9701.0586 133376
-2767.9836 -1149.9061 9524.4883 768
-2811.2866 -1192.2865 9875.5186 1024
-2718.2522 -1177.42 9752.3818 266244
-2635.6877 -1166.5393 9662.2588 1280
-2557.8992 -1157.3347 9586.0186 726536
-2558.5681 -1184.0178 9807.0312 1254414
-2451.623 -1160.9844 9616.248 1452303
-2286.887 -1108.83 9184.2617 859141
-2232.2839 -1108.83 9184.2617 1056775
-2204.095 -1122.2795 9295.6621 200960
-2180.7041 -1138.9266 9433.5479 68864
-2100.0693 -1125.7666 9324.5449 265984
-2015.5675 -1109.7635 9191.9941 68608
-1971.761 -1115.8998 9242.8193 2304
-1916.8098 -1115.8998 9242.8193 726534
-1955.4133 -1171.9716 9707.2529 529412
-1915.494 -1182.96 9798.2686 200448
-1835.2749 -1168.9691 9682.3838 199680
-1778.9332 -1169.7729 9689.043 463363
-1721.329 -1169.7729 9689.043 199680
-1637.3821 -1151.2511 9535.6289 2048
-1557.724 -1134.5244 9397.085 726535
-1479.512 -1117.6456 9257.2803 463620
-1404.1656 -1101.7109 9125.2959 134656
-1372.2372 -1119.9304 9276.2041 726792
-1375.5343 -1169.6281 9687.8428 1792
-1350.7205 -1198.722 9928.8232 594949
-1231.9795 -1143.3085 9469.8408 529413
-1175.6786 -1143.3085 9469.8408 397569
-1119.3778 -1143.3085 9469.8408 858120
-1093.7836 -1176.3324 9743.373 792329
-1041.1508 -1182.3447 9793.1729 133377
-982.67603 -1182.042 9790.665 199171
-908.52777 -1161.6609 9621.8516 68099
-840.15729 -1146.4246 9495.6514 513
-783.70294 -1146.4246 9495.6514 4
-723.59668 -1140.6675 9447.9668 259
-654.79462 -1119.0801 9269.1611 513
-599.68683 -1119.0801 9269.1611 133892
-556.58704 -1143.7557 9473.5459 463624
-503.28366 -1150.6591 9530.7256 858380
-454.1535 -1170.066 9691.4697 331526
-400.52026 -1181.8253 9788.8701 2049
-347.10544 -1198.337 9925.6348 768
-284.12512 -1181.8253 9788.8701 397317
-224.68277 -1175.3137 9734.9355 792075
-166.80586 -1175.3137 9734.9355 923915
-108.33849 -1168.9427 9682.166 132610
-49.759583 -1145.5585 9488.4775 199169
6.4799976 -1115.9281 9243.0537 768
65.826622 -1195.7473 9904.1836 133378
121.09287 -1161.0677 9616.9385 512
172.50856 -1123.5548 9306.2246 1539
242.19981 -1194.3853 9892.9023 67075
301.01587 -1194.3853 9892.9023 768
354.5748 -1176.9353 9748.3672 68099
412.53152 -1176.9353 9748.3672 1280
473.17328 -1183.6519 9803.999 199939
536.66785 -1195.2488 9900.0547 397316
595.89258 -1195.9838 9906.1426 265985
656.29694 -1198.7411 9928.9805 199936
721.15448 -1208.506 10009.861 594696
778.52289 -1205.1884 9982.3828 768
848.94189 -1221.1128 10114.282 768
902.42871 -1212.1863 10040.346 1280
955.98499 -1204.4551 9976.3086 768
958.76031 -1137.3853 9420.7803 133889
1014.7695 -1137.3853 9420.7803 332288
1066.9646 -1133.334 9387.2246 1911826
1122.7744 -1133.334 9387.2246 793602
1209.7849 -1163.3369 9635.7344 2241045
1331.886 -1222.8446 10128.627 1056518
1392.1035 -1222.8446 10128.627 1536
1423.3853 -1198.481 9926.8262 199425
1492.5411 -1206.6774 9994.7158 200192
1579.5038 -1228.0912 10172.083 199680
1653.6981 -1238.3643 10257.173 266497
1716.4667 -1239.6547 10267.861 989963
1777.5118 -1239.6547 10267.861 768
1838.5573 -1239.6547 10267.861 1024
1894.7386 -1236.4805 10241.57 1024
1889.5126 -1194.6781 9895.3281 397826
1988.8483 -1219.515 10101.048 594694
2021.5505 -1203.2354 9966.2061 726789
2138.8601 -1236.8076 10244.279 924426
2214.4756 -1245.0784 10312.785 134656
2308.1611 -1262.7896 10459.484 133377
2285.3857 -1217.5278 10084.588 1450005
2439.4436 -1266.3785 10489.211 132354
2360.9133 -1195.0613 9898.501 768
2435.3083 -1202.7388 9962.0938 512
2487.9702 -1199.5734 9935.874 512
2541.8918 -1197.1478 9915.7842 512
2623.0811 -1207.3834 10000.564 768
2682.5374 -1207.3834 10000.564 68097
2717.8049 -1196.7325 9912.3438 1024
2729.6211 -1176.4264 9744.1523 2042652
2877.6365 -1214.4442 10059.048 264706
2956.5146 -1222.3303 10124.367 199170
3022.251 -1224.5768 10142.974 199426
3064.3687 -1217.3525 10083.137 1536
3189.2246 -1242.6434 10292.617 68608
3217.7515 -1230.1554 10189.181 331523
3122.4348 -1171.658 9704.6553 462341
3378.8623 -1244.8762 10311.111 528899
3440.1648 -1244.8762 10311.111 265218
3497.4397 -1243.4443 10299.251 768
3652.3208 -1276.1666 10570.284 768
3643.9128 -1251.6915 10367.562 768
3691.7307 -1247.0234 10328.896 1792
3683.179 -1223.7784 10136.361 768
3680.8936 -1203.3303 9966.9932 1024
3739.2859 -1203.0522 9964.6895 1024
3779.6233 -1197.0647 9915.0957 1024
3844.2285 -1198.8289 9929.708 67328
3876.3167 -1190.5526 9861.1572 265472
3985.2583 -1205.7756 9987.2471 2304
4026.7009 -1200.4292 9942.9629 2560
4085.8149 -1200.4292 9942.9629 266496
4197.0181 -1215.515 10067.917 925441
4320.9155 -1233.8013 10219.379 1122820
4440.2183 -1250.2869 10355.926 793601
4503.2612 -1250.6962 10359.316 1451783
4564.8501 -1250.6962 10359.316 925189
4555.3208 -1231.4702 10200.071 1583117
4615.9629 -1231.4702 10200.071 1451277
4877.7773 -1284.4441 10638.845 2048
4941.0283 -1284.4441 10638.845 1024
4954.7129 -1271.7219 10533.47 1024
5017.3374 -1271.7219 10533.47 330498
5090.498 -1274.3596 10555.317 133632
5153.2524 -1274.3596 10555.317 1024
5161.0391 -1260.9302 10444.083 1024
5196.9453 -1254.6082 10391.72 768
5258.7271 -1254.6082 10391.72 1024
5320.5088 -1254.6082 10391.72 726021
5191.0767 -1210.0365 10022.539 923142
5191.3091 -1196.3582 9909.2432 396801
5413.4565 -1233.554 10217.33 768
5452.8789 -1228.749 10177.532 67584
5546.7837 -1236.192 10239.182 923396
5599.4268 -1234.3774 10224.151 2240026
5532.0122 -1206.4196 9992.5811 1280
5614.2856 -1211.353 10033.443 68864
5673.9375 -1211.353 10033.443 265217
5786.8291 -1222.6012 10126.61 1911058
6000.2451 -1254.6371 10391.959 2048
6166.4941 -1276.2582 10571.042 1792
6207.5396 -1271.7913 10534.044 1536
6318.0044 -1281.4941 10614.411 2560
6389.6226 -1283.2037 10628.571 1792
6417.8984 -1276.2607 10571.063 2560
6308.7368 -1242.3867 10290.49 67584
6369.917 -1242.3867 10290.49 726788
6405.9009 -1237.5192 10250.174 134400
6567.144 -1256.7136 10409.158 660992
6891.8037 -1306.5298 10821.777 2048
6906.7002 -1297.2434 10744.859 529664
6517.5669 -1212.9362 10046.557 727296
6436.4224 -1186.9573 9831.377 1385738
6055.2632 -1106.6172 9165.9336 992002
0 0 0 0
0 0 0 0
0 0 0 0
0 0 0 0
0 0 0 0
0 0 0 0
2844.5554 -489.04309 4050.6658 198659
2877.1453 -490.49344 4062.679 395271
2945.5205 -497.96954 4124.6021 592648
2932.8318 -491.73068 4072.9265 921613
2978.448 -495.28949 4102.4038 1053969
3050.229 -503.10623 4167.1484 462090
3084.0417 -504.58496 4179.3965 857871
3099.8811 -503.12283 4167.2861 1581850
0 0 0 0
0 0 0 0
6504.7905 -1031.0316 8539.8701 794129
7559.2622 -1188.8893 9847.3799 2176292
7723.376 -1205.365 9983.8457 2440485
8007.8887 -1240.2366 10272.681 4019773
8329.627 -1280.3018 10604.535 4081717
8212.1709 -1252.7662 10376.462 464137
8471.749 -1282.7288 10624.637 2561
8377.9209 -1259.1337 10429.203 399372
8598.082 -1282.7288 10624.637 859667
8975.2344 -1329.2299 11009.799 4743501
8979.4404 -1320.2244 10935.208 3690554
8903.5615 -1299.6583 10764.862 2375210
8988.4453 -1302.6851 10789.933 2769199
9049.502 -1302.24 10786.246 2900787
9113.6289 -1302.24 10786.246 1583900
9266.5059 -1314.8328 10890.55 660747
9356.3193 -1318.3647 10919.805 2239268
9421.2412 -1318.3647 10919.805 512
9591.0547 -1332.9425 11040.55 256
9624.4414 -1328.4906 11003.676 768
9761.1787 -1338.2682 11084.662 256
9829.3291 -1338.5746 11087.199 256
9861.9697 -1334.0731 11049.915 198405
9924.5781 -1333.6584 11046.479 513
9761.9717 -1303.1838 10794.063 256
9766.2979 -1295.2466 10728.32 256
9598.1113 -1264.6815 10475.155 256
9673.5195 -1266.4006 10489.394 258
9955.1064 -1294.9161 10725.584 256
9936.8135 -1284.3103 10637.736 0
9965.5215 -1279.8748 10600.998 256
9962.1602 -1271.4022 10530.821 396039
9923.5723 -1258.5679 10424.517 461833
9741.3311 -1227.7869 10169.562 659725
9375.5049 -1174.3895 9727.2803 67075
9148.9629 -1138.9868 9434.0459 1283
0 0 0 0
0 0 0 0
0 0 0 0
0 0 0 0
0 0 0 0
-6673.8735 -854.00031 7439.918 512
-6746.1948 -869.01428 7570.7168 512
-6776.1064 -878.73004 7655.3599 512
-6970.4507 -910.04535 7928.1733 512
-6986.3086 -918.32544 8000.3086 512
-6938.7441 -918.32544 8000.3086 512
-6818.9302 -908.69733 7916.4302 512
-6722.1499 -902.02637 7858.313 512
-6644.9033 -897.90125 7822.376 512
-6561.7441 -892.91357 7778.9243 512
-6483.4771 -888.52557 7740.6963 768
-6397.0049 -882.94232 7692.0557 512
-6329.1235 -879.86304 7665.2295 512
-6169.8154 -863.93689 7526.4844 512
-6151.2378 -867.62817 7558.6416 512
-6178.145 -877.83643 7647.5742 512
-6213.8872 -889.46075 7748.8438 512
-6116.9688 -882.12781 7684.96 512
-6217.6499 -903.39471 7870.2339 768
-6178.2197 -904.47229 7879.6221 768
-6251.4038 -922.17865 8033.877 768
-6231.3237 -926.29376 8069.7275 768
-6266.2603 -938.71466 8177.936 768
-6196.1816 -935.47485 8149.7119 768
-6065.6724 -922.98865 8040.9336 768
-5968.9263 -915.48236 7975.5405 768
-5922.0986 -915.57343 7976.3335 512
-5886.8013 -917.46307 7992.7954 512
-5812.1284 -913.19672 7955.6279 768
-5741.8027 -909.54901 7923.8496 768
-5674.0767 -906.25616 7895.1626 768
-5713.501 -920.16504 8016.3345 512
-5695.2402 -924.93958 8057.9292 256
-5687.1611 -931.46265 8114.7573 768
-5740.7769 -948.28833 8261.3408 768
-5758.6094 -959.44269 8358.5156 1024
-5708.916 -959.44269 8358.5156 1024
-5749.8994 -974.8158 8492.4434 2304
-5759.9756 -985.17487 8582.6904 1024
-5723.1631 -987.62781 8604.0596 1024
-5609.0181 -976.65948 8508.5059 1536
-5625.0337 -988.36176 8610.4541 1536
-5525.2944 -979.75323 8535.458 1536
-5507.2173 -985.59967 8586.3916 1024
-5515.3086 -996.28278 8679.4609 768
-5463.707 -996.28278 8679.4609 2304
-5376.2827 -989.68848 8622.0117 1024
-5325.0225 -989.68848 8622.0117 1024
-5286.5176 -992.08209 8642.8652 768
-5260.5942 -996.90717 8684.9004 1024
-5291.5596 -1012.7153 8822.6182 1792
-5459.9531 -1055.4047 9194.5215 768
-5393.2783 -1053.0596 9174.0908 1280
-5437.6602 -1072.5724 9344.083 1792
-5409.5747 -1078.0461 9391.7705 768
-5556.5464 -1118.8843 9747.5459 769
-5597.3291 -1138.9753 9922.5762 1186584
-5675.5371 -1167.1912 10168.388 856848
-5551.791 -1154.0347 10053.771 1318425
-5163.082 -1084.9155 9451.6152 768
-5095.3252 -1082.4587 9430.2119 1024
-4993.4937 -1072.6279 9344.5674 1024
-4884.6011 -1061.0421 9243.6338 1024
-4761.874 -1046.1532 9113.9238 528133
-4707.6895 -1046.1532 9113.9238 1536
-4653.5044 -1046.1532 9113.9238 1024
-4576.188 -1040.8916 9068.0859 1280
-4555.8618 -1048.6222 9135.4336 134144
-4684.9316 -1091.3407 9507.5898 1536
-4628.4067 -1091.3407 9507.5898 2304
-4409.9824 -1052.6943 9170.9092 463363
-4179.0972 -1010.0684 8799.5586 134400
-4083.6074 -999.50122 8707.499 1024
-4235.6934 -1050.0372 9147.7607 1792
-4326.6895 -1086.5465 9465.8242 1024
-4324.9443 -1100.4213 9586.6992 1280
-4271.1855 -1101.2559 9593.9697 1280
-4284.6851 -1119.6892 9754.5586 1280
-4174.9941 -1105.994 9635.248 1280
-4073.1321 -1094.0208 9530.9385 1280
-4060.4255 -1105.994 9635.248 133376
-4204.7432 -1161.693 10120.488 134401
-4084.9729 -1144.9872 9974.9502 265474
-3983.5732 -1133.0142 9870.6436 1253134
-3976.5469 -1147.9264 10000.557 1121551
-3866.2056 -1133.0142 9870.6436 265731
-3780.6069 -1125.005 9800.8691 768
-3728.4224 -1126.8439 9816.8887 768
-3693.8584 -1134.1514 9880.5508 768
-3545.2078 -1106.1002 9636.1729 1792
-3505.2397 -1111.5934 9684.0283 768
-3447.6655 -1111.5934 9684.0283 858122
-3441.6248 -1128.491 9831.2373 396548
-3383.175 -1128.491 9831.2373 133376
-3411.4324 -1157.9211 10087.629 593414
-3230.6255 -1116.1737 9723.9316 768
-3166.9487 -1114.1102 9705.9551 768
-3021.9802 -1082.8418 9433.5488 67842
-3022.7788 -1103.6097 9614.4766 768
-2990.0317 -1112.6948 9693.625 1024
-2932.4004 -1112.6948 9693.625 1024
-2877.666 -1113.8162 9703.3936 1280
-2817.9297 -1113.0077 9696.3496 463367
-2757.114 -1111.7302 9685.2207 1024
-2718.2522 -1119.4395 9752.3818 1024
-2586.7791 -1088.5138 9482.9629 1384467
-2561.7529 -1102.001 9600.4609 660998
-2504.6755 -1102.001 9600.4609 267009
-2358.9314 -1062.0797 9252.6738 859143
-2255.2058 -1039.6224 9057.0293 200961
-2232.2839 -1054.2269 9184.2617 2560
-2236.7891 -1082.8416 9433.5479 134912
-2180.7041 -1082.8416 9433.5479 68352
-2100.0693 -1070.3296 9324.5449 1792
-1916.4868 -1003.2476 8740.1367 1187084
-1971.761 -1060.9486 9242.8193 1280
-1916.8098 -1060.9486 9242.8193 528900
-1955.4133 -1114.2593 9707.2529 199425
-1898.016 -1114.4441 9708.8633 265728
-1838.9458 -1113.6276 9701.75 68864
-1781.2661 -1113.6276 9701.75 792841
-1787.3153 -1154.8033 10060.467 660999
-1727.5029 -1154.8033 10060.467 768
-1570.0072 -1087.1616 9471.1836 768
-1480.1006 -1063.0314 9260.9639 1536
-1422.9957 -1061.5052 9247.668 768
-1368.0157 -1061.5052 9247.668 199425
-1317.8032 -1065.3593 9281.2441 133888
-1327.5474 -1120.1398 9758.4834 332036
-1246.1589 -1099.5184 9578.834 726280
-1171.0392 -1082.7181 9432.4717 200193
-1114.9606 -1082.7181 9432.4717 133376
-1055.5762 -1079.338 9403.0244 397571
-1040.8842 -1123.8337 9790.665 199170
-966.5249 -1105.3627 9629.748 1024
-908.16785 -1104.0187 9618.0391 768
-836.88379 -1085.7234 9458.6533 768
-782.18414 -1087.8578 9477.248 770
-721.87305 -1081.9135 9425.4619 769
-645.53918 -1048.9331 9138.1426 768
-591.21039 -1048.9331 9138.1426 528906
-556.58704 -1087.4329 9473.5459 67841
-501.5112 -1090.1434 9497.1602 463369
-454.1535 -1112.4475 9691.4697 133891
-397.98505 -1116.5155 9726.9092 768
-348.17651 -1142.842 9956.2627 132609
-288.98376 -1142.842 9956.2627 1121298
-234.07318 -1164.139 10141.799 726539
-165.90482 -1111.4006 9682.3496 133633
-108.33849 -1111.3796 9682.166 463367
-50.775326 -1111.3796 9682.166 331524
6.4980149 -1063.9255 9268.7539 989199
65.826622 -1136.8641 9904.1836 461832
126.8271 -1156.166 10072.339 264708
184.87088 -1144.778 9973.127 198659
244.16389 -1144.778 9973.127 396806
300.57623 -1133.9106 9878.4531 331012
354.35321 -1118.2793 9742.2754 528902
414.88577 -1125.3644 9803.999 1187599
473.17328 -1125.3644 9803.999 924682
529.47174 -1121.1525 9767.3066 858632
587.54114 -1121.1525 9767.3066 66560
654.38501 -1136.3901 9900.0547 331523
718.13965 -1144.1909 9968.0137 463365
777.40222 -1144.1909 9968.0137 67072
862.83508 -1179.9803 10279.806 331011
902.42871 -1152.4937 10040.346 67328
955.65045 -1144.7423 9972.8174 133120
980.71686 -1106.1406 9636.5254 768
1014.7695 -1081.3761 9420.7803 67584
1066.9646 -1077.5244 9387.2246 464128
1122.7744 -1077.5244 9387.2246 1977363
1231.1625 -1125.5944 9806.0029 132865
1340.8129 -1170.4197 10196.514 858628
1401.434 -1170.4197 10196.514 1280
1446.4222 -1157.905 10087.488 1536
1492.5411 -1147.256 9994.7158 1280
1566.3682 -1157.905 10087.488 200193
1641.2821 -1168.5427 10180.162 1024
1686.1989 -1157.826 10086.801 199680
1746.1678 -1157.826 10086.801 265731
1806.1367 -1157.826 10086.801 1024
1843.4474 -1143.7678 9964.3281 1024
1889.5126 -1135.8477 9895.3281 1280
2017.0499 -1175.9025 10244.279 133633
2021.5505 -1143.9835 9966.2061 2048
2095.4185 -1152.019 10036.211 1648657
2155.0864 -1152.019 10036.211 1648657
2250.4094 -1170.5651 10197.781 398082
2286.8081 -1158.2924 10090.863 134402
2371.6667 -1170.5651 10197.781 395782
2417.5608 -1163.4741 10136.005 1024
2491.2393 -1169.774 10190.89 512
2509.312 -1150.2849 10021.104 512
2572.1113 -1151.7273 10033.669 1024
2629.6838 -1150.8169 10025.737 512
2682.5374 -1147.9274 10000.564 1024
2717.8049 -1137.8009 9912.3438 199682
2779.2817 -1138.8438 9921.4297 68096
2871.3533 -1152.1194 10037.085 594950
2937.4402 -1154.6404 10059.048 792584
3036.8293 -1169.89 10191.9 265217
3052.0869 -1152.7666 10042.724 660487
3189.2246 -1181.451 10292.617 134144
3250.417 -1181.451 10292.617 265730
3311.6096 -1181.451 10292.617 331523
3279.6355 -1148.8159 10008.306 200193
3489.9619 -1200.7064 10460.367 1024
3535.8027 -1195.1801 10412.223 1024
3597.7063 -1195.1801 10412.223 1024
3659.6099 -1195.1801 10412.223 2560
3705.5508 -1190.0536 10367.562 330756
3767.1887 -1190.0536 10367.562 768
3710.6392 -1153.3192 10047.537 1024
3739.2859 -1143.8094 9964.6895 1024
3779.6233 -1138.1167 9915.0957 1024
3804.5095 -1128.0176 9827.1133 1024
3834.635 -1119.7538 9755.1211 1792
3957.9951 -1138.5562 9918.9238 2816
4016.9656 -1138.5562 9918.9238 2560
4081.4414 -1140.0939 9932.3203 68608
4197.0181 -1155.6586 10067.917 267008
4256.8745 -1155.6586 10067.917 1911824
4440.2183 -1188.7179 10355.926 923909
4501.7871 -1188.7179 10355.926 68608
4563.356 -1188.7179 10355.926 530176
4530.9443 -1164.5627 10145.489 332289
4626.0269 -1173.3806 10222.31 2240538
4772.7441 -1194.8972 10409.759 768
4892.0889 -1209.0975 10533.47 768
4874.5767 -1189.542 10363.104 512
4961.0269 -1195.5277 10415.251 1024
4973.9839 -1183.8733 10313.721 1536
5018.9087 -1180.0192 10280.144 264961
5073.7451 -1178.5599 10267.431 67840
5183.7285 -1189.7931 10365.292 593923
5198.0581 -1179.0651 10271.832 1280
5259.1265 -1179.0651 10271.832 768
5051.0332 -1119.4131 9752.1533 768
5109.0122 -1119.4131 9752.1533 1792
5414.6353 -1173.0645 10219.555 1024
5475.3931 -1173.0645 10219.555 397056
5513.3867 -1168.2407 10177.532 1252616
5404.6538 -1132.7693 9868.5098 1911058
5532.0122 -1147.011 9992.5811 200704
5650.0312 -1159.0342 10097.325 1056005
5710.0625 -1159.0342 10097.325 1384970
5786.8291 -1162.3956 10126.61 2371609
6000.2451 -1192.854 10391.959 133120
6062.0278 -1192.854 10391.959 1280
6123.8115 -1192.854 10391.959 1024
6270.168 -1209.1635 10534.044 331008
6381.5073 -1218.4644 10615.072 1792
6444.6172 -1218.4644 10615.072 2560
6369.2363 -1192.5344 10389.174 332288
6422.502 -1190.958 10375.441 595200
6419.3735 -1179.0537 10271.732 1122054
6567.144 -1194.8282 10409.158 661249
6869.7432 -1238.2151 10787.137 266240
6841.3989 -1221.701 10643.27 660992
6736.9336 -1192.021 10384.701 68352
6465.2114 -1133.5547 9875.3516 1056517
6298.4912 -1094.3849 9534.1113 1280
0 0 0 0
0 0 0 0
0 0 0 0
0 0 0 0
0 0 0 0
2853.4607 -470.39883 4098.0415 265220
2959.8237 -483.80209 4214.8086 199171
2902.1887 -470.39883 4098.0415 66048
2945.5205 -473.44763 4124.6021 66049
2936.8716 -468.15997 4078.5366 461062
2977.2109 -470.70404 4100.7002 527368
3008.3198 -471.75928 4109.8936 198658
3127.7263 -486.53259 4238.5962 67840
3161.8335 -487.90717 4250.5713 1055245
3255.8574 -498.4324 4342.2656 3425321
6814.6997 -1035.0411 9017.1182 1188363
7732.7217 -1165.3066 10151.97 2901280
7664.019 -1146.0082 9983.8457 2636316
7822.2554 -1160.6802 10111.665 2176534
7882.3721 -1160.6802 10111.665 1319947
8284.1406 -1210.6077 10546.626 1844502
8253.9121 -1197.1292 10429.203 397060
8409.5459 -1210.6077 10546.626 990483
8275.9014 -1182.5515 10302.205 1056532
8527.4648 -1209.5458 10537.375 1451804
8663.4541 -1219.8729 10627.343 1649696
8793.8008 -1229.2616 10709.136 1517597
8857.4707 -1229.2616 10709.136 1387035
8988.4453 -1238.536 10789.933 992277
9031.5615 -1235.6582 10764.862 992535
9058.2568 -1230.5905 10720.712 2241833
9266.5059 -1250.0854 10890.55 2832945
9356.3193 -1253.4435 10919.805 2699821
9562.8721 -1272.2867 11083.964 66562
9591.0547 -1267.3033 11040.55 256
9415.7139 -1235.6781 10765.035 256
9609.6289 -1252.6123 10912.564 256
9743.8262 -1261.5876 10990.755 257
9729.8428 -1251.385 10901.872 258
9794.6572 -1251.385 10901.872 512
9790.8262 -1242.6724 10825.969 256
9826.1445 -1239.0101 10794.063 256
9611.1582 -1204.0382 10489.394 256
9833.0107 -1223.8895 10662.335 256
9955.1064 -1231.1497 10725.584 396808
9960.126 -1223.9307 10662.693 1516572
10000.058 -1221.0659 10637.736 2043427
9861.5957 -1196.5912 10424.517 4084543
9787.1621 -1180.1428 10281.221 3887165
9687.042 -1160.8204 10112.887 3096880
9375.5049 -1116.5581 9727.2803 2503207
9366.4531 -1108.6416 9658.3135 1251861
0 0 0 0
0 0 0 0
0 0 0 0
0 0 0 0
0 0 0 0
-6745.8418 -818.50012 7520.1465 512
-6754.8735 -825.06415 7580.4556 512
-6827.0737 -839.48401 7712.9404 512
-7064.457 -874.54767 8035.0957 512
-7033.0205 -876.58356 8053.8008 512
-6969.9404 -874.67633 8036.2773 512
-6889.0918 -870.49762 7997.8848 512
-6745.1377 -858.2312 7885.1851 512
-6682.4126 -856.20111 7866.5322 512
-6598.397 -851.39508 7822.376 512
-6551.8906 -851.39508 7822.376 512
-6469.2485 -846.66571 7778.9243 512
-6399.1875 -843.52679 7750.085 512
-6196.1763 -822.68994 7558.6416 512
-6200.103 -829.22534 7618.6865 512
-6247.7612 -841.74878 7733.749 512
-6215.8706 -843.66089 7751.3174 512
-6231.6719 -852.12317 7829.0659 512
-6347.3486 -874.47253 8034.4053 1536
-6299.582 -874.47253 8034.4053 512
-6365.0269 -890.30811 8179.8979 768
-6316.395 -890.30811 8179.8979 768
-6275.0386 -891.34137 8189.3916 768
-6191.0625 -886.28979 8142.979 768
-6005.9907 -866.57196 7961.8169 768
-5934.0806 -862.99805 7928.9805 768
-5911.3203 -866.57196 7961.8169 768
-5874.6772 -868.15192 7976.3335 768
-5878.2788 -875.75342 8046.1743 768
-5845.6758 -878.04163 8067.1968 768
-5797.7134 -878.04163 8067.1968 768
-5749.752 -878.04163 8067.1968 512
-5701.3843 -877.97913 8066.6226 512
-5682.4526 -882.48694 8108.0396 768
-5754.1807 -901.27185 8280.6299 768
-5720.1636 -903.67523 8302.7119 768
-5646.8257 -899.85455 8267.6084 1024
-5597.6724 -899.85455 8267.6084 1024
-5759.9756 -934.14844 8582.6904 1280
-5726.1416 -936.96155 8608.5371 1536
-5609.0181 -926.0741 8508.5059 1280
-5576.04 -929.00763 8535.458 1792
-5518.813 -927.91779 8525.4453 1536
-5523.5181 -937.31744 8611.8066 1024
-5525.7979 -946.4776 8695.9678 1024
-5489.209 -949.09027 8719.9727 1024
-5449.1689 -951.15045 8738.9004 1024
-5325.0225 -938.42816 8622.0117 3072
-5335.9673 -949.49707 8723.71 1280
-5328.5317 -957.48059 8797.0596 1024
-5351.6948 -971.17505 8922.8809 1024
-5432.8193 -995.76752 9148.8291 134400
-5358.7959 -992.13293 9115.4355 134145
-5338.7354 -998.51703 9174.0908 1024
-5409.5747 -1022.2095 9391.7705 2562
-5597.7573 -1068.801 9819.8398 3095616
-5790.0786 -1117.1732 10264.271 5269866
-5729.0547 -1117.1732 10264.271 792087
-5551.791 -1094.2622 10053.771 513
-5151.3906 -1026.3936 9430.2119 1024
-5095.3252 -1026.3936 9430.2119 768
-4939.5576 -1006.0861 9243.6338 768
-4937.9375 -1017.0718 9344.5674 1024
-4943.4565 -1029.7947 9461.4609 768
-4747.5239 -1000.362 9191.042 1280
-4692.8804 -1000.362 9191.042 265472
-4576.188 -986.97937 9068.0859 67840
-4555.8618 -994.30951 9135.4336 1280
-4644.478 -1025.8799 9425.4932 2048
-4464.5063 -998.17072 9170.9092 1280
-4383.1929 -992.10699 9115.1973 331521
-4179.0972 -957.75256 8799.5586 1024
-4152.8647 -963.80609 8855.1768 1024
-4235.6934 -995.65118 9147.7607 66816
-4367.1069 -1039.8937 9554.248 1024
-4412.9092 -1064.6479 9781.6826 768
-4271.1855 -1044.217 9593.9697 768
-4220.0371 -1045.6766 9607.3799 1024
-4129.7964 -1037.3567 9530.9385 2560
-4069.1208 -1036.3351 9521.5527 2048
-4096.002 -1057.8983 9719.6699 2048
-4187.5317 -1097.0149 10079.062 2560
-4084.9729 -1085.6833 9974.9502 1977623
-3901.5334 -1052.2051 9667.3623 1649167
-3976.5469 -1088.4703 10000.557 1320459
-3866.2056 -1074.3304 9870.6436 595971
-3773.8733 -1064.8362 9783.4121 858634
-3670.0842 -1051.7614 9663.2852 1536
-3601.1423 -1048.416 9632.5488 1024
-3356.334 -992.93433 9122.7988 768
-3302.0967 -992.93433 9122.7988 132866
-3490.3291 -1067.0623 9803.8652 922380
-3481.1621 -1082.3341 9944.1787 659209
-3471.406 -1097.9474 10087.629 512
-3439.2842 -1106.9113 10169.986 768
-3277.376 -1073.6777 9864.6455 768
-3172.8145 -1058.3622 9723.9316 512
-3097.9087 -1052.5543 9670.5703 331012
-3001.7505 -1039.1693 9547.5928 396551
-2990.0317 -1055.0636 9693.625 768
-2933.2246 -1055.3602 9696.3496 67586
-2932.1992 -1076.1409 9887.2773 2048
-2885.9009 -1080.8165 9930.2354 68098
-2864.585 -1095.2391 10062.746 1792
-2773.1826 -1082.9087 9949.457 1024
-2593.1653 -1034.6831 9506.374 529418
-2561.7529 -1044.9236 9600.4609 1280
-2504.6755 -1044.9236 9600.4609 1280
-2495.8865 -1065.5387 9789.8672 1024
-2302.1321 -1006.2878 9245.4873 266244
-2415.4136 -1081.6301 9937.7109 2048
-2340.1987 -1074.2249 9869.6729 1024
-2242.7053 -1055.949 9701.7598 768
-2049.0347 -990.22919 9097.9453 200193
-1866.0859 -926.2677 8510.2842 134656
-1924.724 -981.99908 9022.3291 134400
-1916.8098 -1005.9975 9242.8193 68608
-1903.4819 -1028.4873 9449.4492 660230
-1898.016 -1056.7222 9708.8633 989450
-1838.9458 -1055.948 9701.75 857862
-1781.2661 -1055.948 9701.75 1280
-1797.5321 -1101.2504 10117.976 2048
-1751.5786 -1110.2517 10200.677 922637
-1535.1597 -1007.9724 9260.9639 1024
-1464.5458 -997.37927 9163.6377 768
-1404.2568 -993.27057 9125.8887 1793
-1368.0157 -1006.5252 9247.668 1792
-1317.8032 -1010.1797 9281.2441 133889
-1275.7081 -1020.6483 9377.4258 1536
-1231.9795 -1030.7067 9469.8408 512
-1154.9214 -1012.509 9302.6455 67072
-1111.4799 -1023.4343 9403.0244 199426
-1055.5762 -1023.4343 9403.0244 1024
-1035.8564 -1060.4783 9743.373 726282
-966.5249 -1048.1111 9629.748 133889
-908.16785 -1046.8368 9618.0391 256
-838.52905 -1031.5129 9477.248 512
-778.56604 -1026.7416 9433.4102 768
-721.87305 -1025.8765 9425.4619 2818
-650.22485 -1001.8237 9204.4717 1384727
-611.57776 -1028.8689 9452.9551 462855
-586.87 -1087.2108 9988.9844 1280
-527.48273 -1087.2108 9988.9844 265988
-455.34222 -1057.5901 9716.8369 1186835
-397.57294 -1057.5901 9716.8369 331526
-347.10544 -1080.3158 9925.6348 512
-281.27481 -1054.7419 9690.6689 593673
-223.66109 -1054.7419 9690.6689 768
-165.90482 -1053.8363 9682.3496 768
-108.34055 -1053.8363 9682.3496 1024
-50.776287 -1053.8363 9682.3496 396549
6.7488322 -1047.7598 9626.5186 725514
65.762207 -1076.9263 9894.4922 199170
129.22154 -1116.9806 10262.501 528135
184.87088 -1085.4849 9973.127 1024
242.19981 -1076.7532 9892.9023 199937
296.09552 -1059.1527 9731.1943 331778
353.95016 -1059.1527 9731.1943 595717
411.82858 -1059.2139 9731.7559 1253388
471.40237 -1063.0833 9767.3066 463617
529.47174 -1063.0833 9767.3066 332544
587.54114 -1063.0833 9767.3066 661251
649.27637 -1069.1196 9822.7676 530176
713.90857 -1078.5363 9909.2852 793346
777.40222 -1084.9283 9968.0137 990470
847.63861 -1099.1583 10098.755 464128
907.67853 -1099.1583 10098.755 727299
955.65045 -1085.4512 9972.8174 266752
990.62061 -1059.4406 9733.8389 529155
1023.1902 -1033.8755 9498.9551 67840
1079.6642 -1033.8755 9498.9551 726790
1172.8629 -1067.2949 9806.0029 1188360
1240.4697 -1075.3635 9880.1348 265728
1324.8427 -1096.5798 10075.064 1056264
1392.1035 -1102.4097 10128.627 462853
1444.6407 -1096.5798 10075.064 768
1492.5411 -1087.8346 9994.7158 660234
1564.6001 -1096.6929 10076.103 329733
1624.5054 -1096.6929 10076.103 66817
1662.5746 -1082.4758 9945.4805 1792
1762.3301 -1108.0188 10180.162 1024
1838.5573 -1117.5641 10267.861 768
1909.6534 -1123.4772 10322.189 133377
1987.3083 -1132.7605 10407.481 594948
2031.0698 -1122.7474 10315.484 398081
2043.5995 -1096.5627 10074.907 1056009
2057.4583 -1072.5621 9854.3965 1516305
2116.0454 -1072.5621 9854.3965 396547
2236.1055 -1102.8816 10132.963 132864
2311.0381 -1109.9364 10197.781 768
2360.3765 -1104.6528 10149.236 512
2420.7168 -1104.6528 10149.236 1536
2481.9082 -1105.032 10152.72 512
2549.5676 -1108.2043 10181.867 768
2610.1016 -1108.2043 10181.867 768
2636.0791 -1093.8647 10050.119 1280
2658.8733 -1078.8693 9912.3438 768
2717.8049 -1078.8693 9912.3438 768
2801.1436 -1088.3522 9999.4717 1280
2877.6365 -1094.8365 10059.048 264960
2937.4402 -1094.8365 10059.048 858120
2997.2441 -1094.8365 10059.048 200192
3045.8262 -1090.8177 10022.124 200192
3148.6016 -1105.9891 10161.515 133376
3209.0144 -1105.9891 10161.515 68352
3311.6096 -1120.2585 10292.617 1792
3320.3083 -1102.823 10132.425 133632
3489.9619 -1138.5166 10460.367 265729
3501.5754 -1122.306 10311.43 768
3597.7063 -1133.2765 10412.223 768
3682.6091 -1140.3987 10477.659 768
3778.6621 -1150.6794 10572.116 67072
3841.5164 -1150.6794 10572.116 1280
3805.7795 -1121.6232 10305.155 595206
3799.0974 -1101.9148 10124.08 528901
3798.5286 -1084.5665 9964.6895 1280
3848.187 -1081.8719 9939.9326 1024
3907.2827 -1081.8719 9939.9326 1280
3957.9951 -1079.5853 9918.9238 1280
4059.989 -1091.1481 10025.159 1280
4081.4414 -1081.0435 9932.3203 1280
4207.3784 -1098.507 10092.77 2560
4248.5801 -1093.6666 10048.299 858628
4339.4697 -1101.5741 10120.95 727554
4410.3091 -1104.245 10145.489 266496
4470.627 -1104.245 10145.489 133632
4530.9443 -1104.245 10145.489 859140
4646.9658 -1117.6423 10268.58 1450510
4814.7754 -1142.9862 10501.433 594694
4877.2095 -1142.9862 10501.433 1024
4871.8091 -1127.2899 10357.22 768
4933.3853 -1127.2899 10357.22 1024
5022.9487 -1133.6061 10415.251 67328
5151.9243 -1148.5549 10552.597 528387
5048.4487 -1111.9456 10216.24 199424
5154.6992 -1121.8506 10307.245 132864
5198.0581 -1117.9962 10271.832 1536
5217.9404 -1109.2407 10191.39 1024
5206.8579 -1094.1793 10053.009 1024
5209.8066 -1082.3746 9944.5508 768
5345.2642 -1098.0557 10088.624 528128
5475.3931 -1112.3063 10219.555 133888
5513.3867 -1107.7325 10177.532 1055749
5404.6538 -1074.0983 9868.5098 1779470
5605.1987 -1101.9908 10124.779 661249
5720.998 -1112.8066 10224.151 331776
5875.3643 -1130.8179 10389.634 1582861
5937.1333 -1130.8179 10389.634 923651
6060.8867 -1142.5021 10496.985 1516304
6153.957 -1148.2233 10549.55 67584
6216.6768 -1148.2233 10549.55 1280
6329.4995 -1157.3849 10633.724 133120
6531.9941 -1182.6 10865.394 1536
6444.6172 -1155.3549 10615.072 68096
6369.2363 -1130.7678 10389.174 2304
6422.502 -1129.2732 10375.441 397824
6522.4736 -1135.9412 10436.704 727042
6584.5229 -1135.9412 10436.704 1319432
6423.4302 -1097.8047 10086.318 990212
6347.7886 -1074.8429 9875.3516 1280
6503.6455 -1091.1414 10025.098 266496
6390.3301 -1062.3938 9760.9727 1648910
6223.1211 -1025.2844 9420.0225 1386250
0 0 0 0
0 0 0 0
0 0 0 0
0 0 0 0
0 0 0 0
2884.2129 -450.8418 4142.2065 792331
2959.8237 -458.7439 4214.8086 199170
2933.4658 -450.8418 4142.2065 263683
2940.781 -448.2034 4117.9653 526855
2932.8318 -443.30133 4072.9265 658697
2957.0466 -443.30133 4072.9265 856589
2893.4998 -430.25153 3953.0288 462085
3123.9834 -460.78091 4233.5239 134403
3223.1343 -471.60577 4332.98 1452310
6879.8442 -998.67004 9175.4971 3429661
7321.376 -1054.402 9687.5459 4483633
7378.9717 -1054.402 9687.5459 4220716
7583.0493 -1075.1711 9878.3672 3759656
7822.2554 -1100.5636 10111.665 4220206
7923.7041 -1106.3346 10164.688 4153905
8284.1406 -1147.905 10546.626 3891247
8346.8428 -1147.905 10546.626 4218940
8409.5459 -1147.905 10546.626 5534292
8484.5635 -1149.5737 10561.957 2901550
8551.3838 -1150.1152 10566.932 2111778
8593.3828 -1147.3348 10541.387 2044706
8675.9941 -1149.9778 10565.67 1715230
8738.8096 -1149.9778 10565.67 2817
8988.4453 -1174.3868 10789.933 662033
9031.5615 -1171.6581 10764.862 2044968
9194.0322 -1184.3428 10881.405 1386267
9387.4199 -1200.8051 11032.655 4478281
9496.9746 -1206.3895 11083.964 2305829
9835.9111 -1240.8344 11400.434 3358002
9779.5713 -1225.2834 11257.557 512
9387.6172 -1168.1807 10732.912 256
9609.6289 -1187.7341 10912.564 256
9685.1211 -1189.0372 10924.537 0
9750.0703 -1189.0372 10924.537 0
9815.0205 -1189.0372 10924.537 790800
9861.8379 -1186.8552 10904.488 331272
9785.3486 -1169.9587 10749.248 2437930
9795.3115 -1163.5508 10690.374 4543820
9833.0107 -1160.4989 10662.335 2438701
9847.5029 -1154.765 10609.653 1584673
9967.1094 -1161.3517 10670.17 267786
10006.222 -1158.5352 10644.293 3229241
9861.5957 -1134.6146 10424.517 4148803
9817.9561 -1122.5388 10313.568 132354
9662.749 -1097.9362 10087.526 462857
9481.2822 -1070.6718 9837.0273 1538
9433.3359 -1058.7267 9727.2803 1025
0 0 0 0
0 0 0 0
0 0 0 0
0 0 0 0
0 0 0 0
-6764.2671 -775.90424 7540.687 512
-6930.1592 -800.23676 7777.165 512
-6986.1309 -812.11835 7892.6362 512
-7057.5537 -825.96887 8027.2441 512
-7008.6338 -825.82794 8025.8745 512
-6943.3315 -823.74164 8005.5981 512
-6854.5952 -818.82703 7957.8354 512
-6766.1118 -813.87463 7909.7046 512
-6677.3452 -808.81854 7860.5669 512
-6653.269 -811.58221 7887.4263 512
-6660.4438 -818.22449 7951.9795 512
-6555.9526 -811.14551 7883.1821 512
-6433.4033 -801.71429 7791.5239 512
-6261.4443 -785.94421 7638.2617 512
-6293.7407 -795.76947 7733.749 512
-6247.7612 -795.76947 7733.749 512
-6230.9243 -799.50885 7770.0898 512
-6310.2739 -815.73816 7927.8164 512
-6353.3677 -827.48969 8042.0239 512
-6302.562 -827.09692 8038.2065 768
-6273.9712 -829.63562 8062.8794 1024
-6220.854 -828.94513 8056.1694 1024
-6275.0386 -842.6532 8189.3916 1024
-6063.1289 -820.56342 7974.7104 1024
-5943.4683 -810.70844 7878.9341 768
-5896.626 -810.70844 7878.9341 768
-5876.8984 -814.46625 7915.4546 768
-5860.248 -818.7146 7956.7427 768
-5943.0688 -837.04193 8134.8589 768
-5899.3555 -837.70233 8141.2769 768
-5859.3853 -838.90955 8153.0088 768
-5810.9126 -838.90955 8153.0088 512
-5743.9302 -836.21466 8126.8184 512
-5712.3301 -838.66882 8150.6699 512
-5769.5254 -854.31335 8302.7119 512
-5782.5991 -863.63818 8393.3359 512
-5571.1118 -839.29492 8156.7544 1280
-5484.4346 -833.49219 8100.3594 67328
-5628.584 -862.97687 8386.9092 2048
-5737.4932 -887.53741 8625.6025 1024
-5685.6797 -887.45441 8624.7959 1280
-5576.04 -878.2619 8535.458 1280
-5525.2944 -878.2619 8535.458 1024
-5524.0923 -886.20996 8612.7021 1280
-5525.7979 -894.77765 8695.9678 1024
-5489.209 -897.24768 8719.9727 1280
-5449.1689 -899.19531 8738.9004 1280
-5397.2134 -899.19531 8738.9004 134912
-5350.1509 -900.01825 8746.8984 768
-5344.0127 -907.80945 8822.6182 1024
-5500.8062 -943.70734 9171.4941 67328
-5525.4746 -957.43005 9304.8594 1792
-5295.1421 -926.79791 9007.1592 1024
-5259.8442 -930.02521 9038.5234 1024
-5382.1069 -961.46594 9344.083 265483
-5697.2173 -1028.3723 9994.3174 3883587
-5790.0786 -1056.1493 10264.271 66052
-5729.0547 -1056.1493 10264.271 1283
-5455.7402 -1016.5922 9879.832 768
-5205.2451 -980.47247 9528.7988 594956
-5130.2178 -976.97308 9494.79 768
-4993.4937 -961.51575 9344.5674 1024
-4949.7407 -963.81409 9366.9033 768
-5010.3579 -986.71887 9589.5059 1536
-4747.5239 -945.71869 9191.042 1024
-4692.8804 -945.71869 9191.042 1280
-4638.2373 -945.71869 9191.042 1792
-4660.3721 -961.56006 9344.998 1280
-4516.374 -943.09253 9165.5195 1536
-4437.3853 -937.91455 9115.1973 1280
-4283.7559 -916.63708 8908.4102 1024
-4194.5527 -908.7854 8832.1025 768
-4177.8301 -916.63708 8908.4102 1024
-4247.8345 -943.96326 9173.9814 512
-4286.9858 -965.05475 9378.9609 1792
-4231.2251 -965.05475 9378.9609 924172
-4241.4316 -980.30127 9527.1357 67584
-4220.0371 -988.55804 9607.3799 332547
-4211.5742 -1000.1122 9719.6699 1024
-4218.811 -1015.7678 9871.8203 133633
-4160.1206 -1015.7678 9871.8203 858376
-4187.5317 -1037.092 10079.062 1024
-3942.0916 -990.47937 9626.0527 924425
-3884.8618 -990.47937 9626.0527 332288
-3836.9248 -992.88397 9649.4219 793347
-3779.5562 -992.88397 9649.4219 1912084
-3687.8135 -983.71484 9560.3105 1253642
-3566.4949 -966.24567 9390.5352 463875
-3406.6829 -937.6264 9112.3965 330757
-3356.334 -938.69672 9122.7988 199171
-3374.6343 -959.31732 9323.2012 726537
