# .PCD v0.7 - Point Cloud Data file format
VERSION 0.7
FIELDS x y z rgb
SIZE 4 4 4 4
TYPE F F F U
COUNT 1 1 1 1
WIDTH 1384
HEIGHT 1
VIEWPOINT 0 0 0 1 0 0 0
POINTS 1384
DATA ascii
-2707.3015 842.0918 8005.5088 768
-2659.7063 842.0918 8005.5088 768
-2620.5581 844.81488 8031.396 1024
-2596.3354 852.53998 8104.8364 1024
-2607.2883 872.32605 8292.9365 768
-2564.9565 874.70374 8315.54 768
-2482.7432 863.30701 8207.1953 768
-2428.3184 861.30981 8188.2085 768
-2338.7949 846.52692 8047.6719 1024
-2274.1941 840.33575 7988.814 1024
-2226.6982 840.33575 7988.814 2304
-2241.0735 864.19415 8215.6289 332288
-2194.4451 865.06763 8223.9326 397568
-2126.3284 857.31702 8150.2505 1024
-2140.0342 882.96429 8394.0713 1536
-2101.1367 887.61456 8438.2793 1536
-2040.2239 882.96429 8394.0713 2304
-1949.8036 864.99054 8223.2002 397568
-1873.0229 852.29895 8102.5444 1024
-1842.3296 860.46228 8180.1509 330752
-1803.2914 865.06512 8223.9092 1280
-1812.6302 893.77856 8496.8789 68864
-1745.6038 885.40417 8417.2666 199168
-1695.5607 885.40417 8417.2666 1024
-1630.4298 877.28583 8340.0879 1024
-1554.1478 862.47003 8199.2383 1024
-1523.2948 872.72162 8296.6973 1536
-1474.2841 872.90845 8298.4727 1536
-1442.2603 883.51404 8399.2979 1280
-1404.2981 891.11243 8471.5322 1024
-1340.0222 881.95703 8384.4951 1024
-1290.174 881.95703 8384.4951 1024
-1263.4928 898.4303 8541.1016 1024
-1212.7135 898.4303 8541.1016 265984
-1084.3512 838.44153 7970.8066 858628
-1063.4294 859.84143 8174.249 1536
-1058.3401 896.70544 8524.7041 1280
-1007.6583 896.70544 8524.7041 1280
-970.11029 909.01196 8641.6982 2304
-930.69836 920.85077 8754.2461 68864
-887.75391 930.38977 8844.9307 1280
-837.99341 933.53687 8874.8496 1280
-784.36066 932.50354 8865.0254 133632
-732.46649 933.53687 8874.8496 1319435
-695.16962 954.77954 9076.7969 199169
-639.75458 952.61902 9056.2568 1024
-584.23688 949.89447 9030.3555 1024
-528.45471 946.14508 8994.7109 512
-468.746 933.72974 8876.6826 768
-414.75845 931.00653 8850.7939 768
-362.13803 931.00653 8850.7939 768
-310.33441 933.4635 8874.1514 768
-259.31302 939.76172 8934.0264 768
-209.37544 954.24432 9071.708 768
-160.44855 984.98151 9363.917 331012
-104.77746 984.98151 9363.917 66817
-45.856014 919.78564 8744.1201 768
6.1065674 916.23798 8710.3936 512
57.895138 916.28314 8710.8232 512
111.54001 931.79297 8858.2705 512
166.47716 944.68719 8980.8516 512
219.87082 944.68719 8980.8516 512
273.26447 944.68719 8980.8516 512
302.88022 875.92206 8327.1221 768
389.10947 967.20166 9194.8896 768
449.99774 980.76257 9323.8096 199426
515.18524 999.69141 9503.7598 199425
588.88593 1029.7653 9789.6631 1024
643.28955 1023.7202 9732.1943 768
663.43286 968.65076 9208.666 768
703.29425 948.5722 9017.7852 512
762.53149 955.62036 9084.79 768
813.5401 952.10583 9051.3789 512
867.35315 952.10583 9051.3789 768
921.48444 952.43488 9054.5068 768
985.16431 962.05219 9145.9355 768
1058.0627 979.19489 9308.9053 768
1113.4069 979.19489 9308.9053 791812
1191.6503 998.38019 9491.2949 1648140
1248.0786 998.38019 9491.2949 595457
1326.7097 1015.3727 9652.8369 1280
1311.4644 962.08838 9146.2793 199936
1338.1573 942.58783 8960.8936 1792
1391.4324 942.58783 8960.8936 267522
1572.9597 1026.2651 9756.3877 1914133
1538.0011 967.76917 9200.2852 4216631
1592.0732 967.38867 9196.668 264706
1709.8461 1004.4547 9549.043 133632
1831.3906 1041.2828 9899.1572 856586
1826.9319 1006.406 9567.5938 512
1833.8024 979.68805 9313.5938 256
1889.1742 979.68805 9313.5938 512
1991.6265 1003.4077 9539.0889 512
2048.3391 1003.4077 9539.0889 512
2079.0217 991.00012 9421.1348 512
2174.6262 1009.3777 9595.8447 512
2263.4131 1023.7322 9732.3086 512
2385.1428 1051.8997 10000.088 512
2321.3381 998.86224 9495.877 256
2325.9189 977.07074 9288.7119 256
2351.2009 964.78436 9171.9092 256
2408.4829 965.88824 9182.4033 256
2463.075 965.88824 9182.4033 256
2517.667 965.88824 9182.4033 256
2492.5671 935.96387 8897.9219 256
2538.1516 933.27362 8872.3467 256
2623.5891 945.04865 8984.2881 256
2739.2629 967.02795 9193.2383 512
2829.2412 979.25348 9309.4629 512
3030.0347 1028.6292 9778.8623 768
3088.1726 1028.6292 9778.8623 512
3146.3108 1028.6292 9778.8623 512
3258.7996 1046.0757 9944.7217 512
3317.9238 1046.0757 9944.7217 512
3320.3052 1028.4993 9777.627 256
3356.4568 1021.808 9714.0156 256
3414.2092 1021.808 9714.0156 256
3471.9619 1021.808 9714.0156 256
3551.3213 1028.0629 9773.4795 256
3556.4346 1012.9692 9629.9883 256
3673.8875 1029.8441 9790.4121 256
3747.8767 1034.1992 9831.8145 256
3813.27 1036.0848 9849.7412 256
3871.8291 1036.0848 9849.7412 256
3930.3254 1036.0682 9849.583 256
3937.7251 1022.7802 9723.2578 512
3825.4224 979.23529 9309.29 768
3853.8469 972.44208 9244.709 1024
4011.6123 998.01764 9487.8477 1280
4251.2764 1042.9763 9915.2568 1384204
4310.2256 1042.9763 9915.2568 198656
4325.7119 1032.6014 9816.625 1280
4414.2412 1039.7067 9884.1729 1024
4473.0054 1039.7067 9884.1729 528641
4577.0117 1050.0863 9982.8496 132864
4636.3623 1050.0863 9982.8496 199680
4653.2295 1040.5858 9892.5303 264960
4769.0322 1053.1709 10012.174 768
4779.7393 1042.5232 9910.9482 768
4704.1592 1013.5435 9635.4473 512
4744.3345 1009.9014 9600.8232 512
4801.4141 1009.9014 9600.8232 512
4568.1421 949.54797 9027.0615 512
4621.8105 949.54797 9027.0615 512
4965.6016 1008.4693 9587.209 768
5022.6006 1008.4693 9587.209 1024
5164.9658 1025.4176 9748.3301 331265
5411.4893 1062.4388 10100.281 3072
5300.708 1029.2678 9784.9336 1792
5009.8965 962.23895 9147.7109 727810
4791.2271 910.35718 8654.4863 3293727
4793.5254 901.11676 8566.6406 2306832
0 0 0 0
0 0 0 0
0 0 0 0
0 0 0 0
0 0 0 0
0 0 0 0
0 0 0 0
0 0 0 0
0 0 0 0
0 0 0 0
2288.2146 385.13974 3661.4053 262144
2345.3918 391.04343 3717.53 131072
2346.4697 387.57086 3684.5173 65536
2267.1575 371.0072 3527.0518 131072
2288.127 371.0072 3527.0518 65536
2424.0981 389.48477 3702.7124 0
2391.4785 380.78577 3620.0137 0
2361.7842 372.70352 3543.1782 0
2324.0137 363.50098 3455.6924 0
2307.4934 357.75436 3401.061 2
2300.47 353.5672 3361.2549 2
2315.0439 352.74292 3353.4189 65541
2317.8711 350.15814 3328.8462 197896
2357.355 353.10797 3356.8894 1053206
2347.949 348.74652 3315.4263 2434859
2360.6743 347.71753 3305.644 7369593
2370.2039 346.23871 3291.5852 3356220
2395.6125 347.08472 3299.6282 1645602
2415.2297 347.08472 3299.6282 4541007
2400.0513 342.12463 3252.4741 6054246
2411.6047 341.02399 3242.0105 8883350
2421.8486 339.75708 3229.9663 13553365
2449.1885 340.88959 3240.7329 13158349
2468.4556 340.88959 3240.7329 11315377
2487.7227 340.88959 3240.7329 9538968
2497.3853 339.58365 3228.3176 11447222
2516.5786 339.58365 3228.3176 12829388
2502.9275 335.18521 3186.5032 11316148
2485.1843 330.30899 3140.1462 12763335
2503.3711 330.24536 3139.5415 11973816
2468.3154 323.21091 3072.667 10329245
2360.9578 306.88187 2917.4319 3881787
0 0 0 0
0 0 0 0
0 0 0 0
0 0 0 0
4019.6516 503.96988 4791.0869 2370075
6069.7461 755.6488 7183.7217 2107416
6035.0225 746.07617 7092.7178 2436894
6155.1646 755.6488 7183.7217 3095591
6061.8848 739.06891 7026.1016 2700836
3901.8621 472.46185 4491.5498 2965033
4530.1025 544.80463 5179.2905 3162409
4560.895 544.80463 5179.2905 3557935
4591.687 544.80463 5179.2905 3427116
6214.2231 732.40723 6962.771 3492654
6652.5532 778.88025 7404.5762 3756593
6663.3696 775.01813 7367.8599 3823157
6707.1738 775.01813 7367.8599 4020533
6951.6948 798.06061 7586.918 4218168
6963.8403 794.30109 7551.1768 3889716
6771.0049 767.35919 7295.0483 3692337
6851.0659 771.49078 7334.3262 3495214
6894.6704 771.49078 7334.3262 3298095
6947.9297 772.56427 7344.5317 3232560
6991.5947 772.56427 7344.5317 3364146
7044.439 773.57233 7354.1147 3232305
7095.0195 774.32074 7361.23 3363376
6885.0127 746.79498 7099.5513 3494705
0 0 0 0
0 0 0 0
0 0 0 0
0 0 0 0
0 0 0 0
-6377.7905 790.14832 7109.8496 768
-6353.1885 792.35175 7129.6763 768
-6310.7998 792.35175 7129.6763 1024
-6347.5356 802.35333 7219.6714 1024
-6290.7822 800.59314 7203.833 397571
-6261.6899 802.35333 7219.6714 67073
-6190.5215 798.70892 7186.8794 1280
-6150.3096 799.03583 7189.8208 768
-6109.4741 799.28583 7192.0698 1024
-6066.7153 799.28583 7192.0698 1280
-6038.8628 801.26355 7209.8662 200704
-5997.832 801.50861 7212.0713 1536
-5974.0684 804.08136 7235.2207 1280
-5967.064 808.96344 7279.1504 1280
-5900.0327 805.71942 7249.9604 1024
-5856.9297 805.71942 7249.9604 1024
-5813.8267 805.71942 7249.9604 1024
-5784.1904 807.59973 7266.8794 2048
-5765.1968 811.00537 7297.5239 200448
-5782.8496 819.65692 7375.3716 1792
-5808.5513 829.59027 7464.7529 1280
-5764.1709 829.59027 7464.7529 1024
-5648.0386 819.18335 7371.1104 200192
-5634.6943 823.63861 7411.1992 2048
-5639.2368 830.79926 7475.6313 2048
-5594.7925 830.79926 7475.6313 1280
-5465.6167 818.11639 7361.5093 134912
-5421.8506 818.11639 7361.5093 3072
-5316.5698 808.75879 7277.3086 768
-5290.1362 811.34027 7300.5371 1024
-5246.7324 811.34027 7300.5371 1280
-5232.251 815.85004 7341.1167 1280
-5198.1709 817.354 7354.6494 1024
-5139.7729 815.02734 7333.7139 1280
-5096.1724 815.02734 7333.7139 1024
-5079.9287 819.44043 7373.4233 68096
-5036.5513 819.51508 7374.0957 1024
-5002.644 821.14569 7388.7676 1024
-5003.7642 828.60553 7455.8921 1024
-4999.979 835.37921 7516.8428 768
-4989.7627 841.19086 7569.1367 1024
-4937.6851 839.98694 7558.3032 768
-4892.7485 839.98694 7558.3032 1024
-4979.9634 862.88477 7764.3413 768
-4933.8018 862.88477 7764.3413 1024
-4772.167 842.4986 7580.9038 1280
-4727.0962 842.4986 7580.9038 594435
-4731.6436 851.42694 7661.2417 661505
-4863.2676 883.61774 7950.8989 398080
-4891.7285 897.51257 8075.9263 596224
-4800.0347 889.41895 8003.0986 1122819
-4596.436 860.22021 7740.3647 1386242
-4550.417 860.22021 7740.3647 530944
-4436.3091 847.21692 7623.3599 3840
-4390.9858 847.21692 7623.3599 1189121
-4463.3896 870.16852 7829.8809 1517828
-4416.8389 870.16852 7829.8809 1780743
-4440.6992 884.18811 7956.0312 1254151
-4198.7783 845.02008 7603.5923 1792
-4180.1338 850.42365 7652.2148 399104
-4134.6392 850.42365 7652.2148 332800
-4183.1338 869.9707 7828.1016 662272
-4136.5933 869.9707 7828.1016 1847307
-3951.5464 840.50983 7563.0083 794880
-3835.8787 825.29779 7426.1289 267776
-3791.7283 825.29779 7426.1289 728832
-3813.3699 839.78662 7556.501 662016
-3768.4443 839.78662 7556.501 595202
-3721.6001 839.35382 7552.6064 2560
-3676.6975 839.35382 7552.6064 69120
-3627.803 838.43109 7544.3037 991489
-3586.6768 839.30322 7552.1514 3840
-3628.9734 859.96631 7738.0806 2048
-3697.4983 887.4552 7985.4292 728320
-3703.7776 900.52509 8103.0327 2304
-3658.5339 901.24713 8109.5303 2048
-3610.3208 901.24713 8109.5303 1536
-3582.2122 906.33392 8155.3013 1280
-3500.7212 897.86847 8079.1289 1280
-3450.0862 897.19183 8073.04 1280
-3409.0413 899.02502 8089.5356 1024
-3371.6057 901.87634 8115.1914 512
-3297.1008 894.75061 8051.0737 512
-3167.9768 872.37427 7849.729 1024
-3190.4429 891.6969 8023.5957 660231
-3210.4265 910.90155 8196.4014 1024
-3095.0381 891.6969 8023.5957 1280
-3064.7246 896.78516 8069.3809 1280
-2974.7449 884.2984 7957.0234 199425
-2927.4382 884.2984 7957.0234 1536
-2926.3088 898.47638 8084.5986 1280
-2894.7695 903.63519 8131.0181 1280
-2833.6226 899.56982 8094.4375 1024
-2742.5571 885.70184 7969.6519 1024
-2695.1753 885.70184 7969.6519 512
-2644.24 884.51324 7958.9565 768
-2610.7856 889.23529 8001.4458 512
-2572.8091 892.56372 8031.396 512
-2593.2258 916.659 8248.208 512
-2544.1877 916.659 8248.208 512
-2482.7432 912.10107 8207.1953 512
-2428.3184 909.99097 8188.2085 256
-2346.6265 897.36737 8074.6201 1024
-2274.1941 887.83142 7988.814 1280
-2277.9514 908.26715 8172.6968 1024
-2262.376 921.71722 8293.7227 989703
-2222.4312 925.61707 8328.8135 924163
-2132.5117 908.40649 8173.9512 661762
-2120.5732 924.38617 8317.7383 68096
-2090.1289 932.86945 8394.0713 1536
-2040.2239 932.86945 8394.0713 1792
-1968.8867 922.82416 8303.6826 463362
-1927.855 926.83173 8339.7432 200960
-1878.2728 926.83173 8339.7432 397825
-1812.9478 918.85272 8267.9473 332032
-1812.6302 944.29486 8496.8789 331521
-1767.7662 947.32379 8524.1338 1024
-1699.6241 937.68903 8437.4385 768
-1592.8573 905.51074 8147.8945 512
-1548.2178 907.73993 8167.9531 512
-1523.1622 921.96747 8295.9746 768
-1473.9688 922.04785 8296.6973 1024
-1442.2603 933.4502 8399.2979 67328
-1404.2981 941.47803 8471.5322 132352
-1345.7633 935.7973 8420.417 1280
-1305.3063 942.73425 8482.8359 67328
-1220.4609 916.88147 8250.21 1516305
-1150.2667 900.33142 8101.2905 528900
-1084.3512 885.8302 7970.8066 1024
-1038.0073 886.72278 7978.8379 1280
-1087.8947 973.84338 8762.7598 1024
-1035.7976 973.84338 8762.7598 726277
-982.74487 972.89722 8754.2461 1318924
-930.69836 972.89722 8754.2461 266241
-866.98932 959.98364 8638.0479 1280
-835.16827 982.9754 8844.9307 132865
-764.27814 959.98364 8638.0479 1976086
-743.18805 1000.7376 9004.7568 768
-719.14484 1043.5334 9389.8398 768
-654.14026 1029.0925 9259.8984 1024
-596.31427 1024.3286 9217.0322 1024
-534.01874 1010.146 9089.415 923657
-476.60709 1003.0483 9025.5488 198657
-411.25616 975.32117 8776.0566 768
-362.13803 983.62695 8850.7939 768
-309.51761 983.62695 8850.7939 512
-259.31302 992.87701 8934.0264 512
-206.4342 994.0155 8944.2715 512
-159.58406 1035.0455 9313.4648 768
-99.526482 988.49976 8894.6396 768
-45.99696 974.75867 8770.9961 768
6.0802059 963.84479 8672.792 512
57.526623 961.90942 8655.377 512
111.02254 979.89062 8817.1738 256
166.47716 998.08087 8980.8516 512
220.22377 999.68292 8995.2676 512
268.03766 978.99011 8809.0713 768
307.48022 939.48413 8453.5908 1024
388.02628 1019.0231 9169.293 265732
447.5874 1030.645 9273.8682 1450258
508.81949 1043.1433 9386.3291 1121039
585.42896 1081.5808 9732.1943 768
617.13501 1037.6064 9336.5078 512
649.68097 1002.1854 9017.7852 512
699.01306 996.08484 8962.8916 256
754.76636 999.35059 8992.2764 512
808.22797 999.35059 8992.2764 512
867.35315 1005.9189 9051.3789 512
929.37213 1014.8799 9132.0117 512
985.53223 1016.807 9149.3516 768
1041.8354 1018.6722 9166.1357 1317901
1098.8447 1021.0083 9187.1553 1536
1198.6542 1061.0083 9547.0801 68864
1245.0631 1052.2601 9468.3633 1122056
1301.3552 1052.2601 9468.3633 2701596
1343.1588 1041.0306 9367.3193 1536
1365.8416 1016.4655 9146.2793 1280
1420.2188 1016.4655 9146.2793 201216
1591.4172 1096.9926 9870.8711 1255178
1630.9641 1084.2695 9756.3877 199937
1583.3755 1016.4817 9146.4248 7572329
1709.8461 1061.2264 9549.043 67584
1789.7466 1075.1201 9674.0596 67072
1855.4406 1079.8804 9716.8936 256
1913.2102 1079.8804 9716.8936 256
1970.5265 1079.632 9714.6582 256
2003.277 1066.3217 9594.8906 256
2055.0833 1063.6107 9570.4971 256
2036.9362 1025.8168 9230.4229 256
2120.8064 1040.0347 9358.3574 256
2231.6763 1066.4277 9595.8447 256
2315.5867 1078.9434 9708.4619 256
2322.8442 1056.0026 9502.0381 0
2335.1013 1036.37 9325.3818 0
2390.5432 1036.37 9325.3818 0
2530.6189 1072.2295 9648.0498 0
2624.5273 1087.3717 9784.3018 0
2645.3396 1072.2295 9648.0498 0
2482.2852 984.78528 8861.2168 0
2570.175 998.46277 8984.2881 256
2887.5505 1098.9188 9888.2041 256
2946.3386 1098.9188 9888.2041 256
3021.8584 1105.0374 9943.2588 256
3071.3994 1101.6033 9912.3594 66048
3130.3313 1101.6033 9912.3594 66304
3168.0645 1094.2811 9846.4736 395265
3226.6042 1094.2811 9846.4736 460803
3281.9631 1093.2214 9836.9375 723975
3301.0002 1080.312 9720.7773 592389
3357.2705 1079.8223 9716.3701 131585
3415.0366 1079.8223 9716.3701 66048
3498.8328 1087.9156 9789.1963 65792
3557.0322 1087.9156 9789.1963 0
3556.4346 1070.2222 9629.9883 256
3673.8875 1088.0508 9790.4121 0
3747.8767 1092.6521 9831.8145 0
3813.27 1094.6443 9849.7412 0
3871.8291 1094.6443 9849.7412 0
3879.9172 1080.5876 9723.2578 0
3787.9504 1039.4866 9353.4258 0
3825.4224 1034.5817 9309.29 0
3880.7688 1034.5817 9309.29 256
4011.6123 1054.4255 9487.8477 256
4235.1138 1097.736 9877.5605 256
4304.1216 1100.365 9901.2158 256
4325.7119 1090.964 9816.625 256
4373.5635 1088.3483 9793.0889 512
4470.1895 1097.7793 9877.9502 256
4612.4438 1118.0258 10060.13 1251337
4636.3623 1109.4373 9982.8496 2369818
4629.8481 1093.8755 9842.8232 724741
4769.0322 1112.6962 10012.174 263424
4828.5571 1112.6962 10012.174 512
4838.6626 1101.4465 9910.9482 256
4952.4653 1113.7886 10022.004 512
5022.2202 1116.049 10042.343 512
5081.9248 1116.049 10042.343 768
5006.0205 1086.6135 9777.4795 512
4845.9736 1039.7994 9356.2402 512
4700.1616 997.0675 8971.7334 768
4766.9463 999.88776 8997.1104 1024
4941.9961 1025.1023 9223.9941 1024
4996.835 1025.1023 9223.9941 1536
4359.0005 884.54266 7959.2217 331264
4294.3208 862.05939 7756.9146 5002804
0 0 0 0
0 0 0 0
0 0 0 0
0 0 0 0
0 0 0 0
0 0 0 0
0 0 0 0
0 0 0 0
0 0 0 0
0 0 0 0
2191.0977 393.37997 3539.6804 1250318
2306.6091 410.17883 3690.8386 131072
2345.3918 413.1452 3717.53 196608
2326.0176 405.90729 3652.4026 196610
2277.2141 393.71518 3542.6968 65538
2298.2764 393.71518 3542.6968 65538
2338.4016 396.95117 3571.8145 2
2358.2876 396.72418 3569.772 0
2303.8997 384.11789 3456.3389 65793
2321.6292 383.65198 3452.1467 65793
2305.7888 377.69543 3398.5488 65793
2300.47 373.55078 3361.2549 131586
2308.6418 371.64932 3344.1453 131588
2331.8521 372.18054 3348.9253 1
2356.7 372.96198 3355.9565 131334
2358.2041 370.06696 3329.907 262920
2360.6743 367.37051 3305.644 263174
2370.2039 365.80811 3291.5852 1776929
2341.2983 358.38794 3224.8176 1711137
2380.7144 361.46149 3252.4741 1185305
2467.5723 371.63055 3343.9763 5330267
2487.4531 371.63055 3343.9763 4475214
2451.6125 363.37161 3269.6616 10791342
2446.718 359.79337 3237.4639 13487314
2465.9653 359.79337 3237.4639 13684694
2485.2131 359.79337 3237.4639 10657704
2497.3853 358.77689 3228.3176 10262433
2516.0874 358.70685 3227.6875 10986155
2486.2039 351.76367 3165.2119 6446180
2484.7058 348.9108 3139.5415 1841180
2503.3711 348.9108 3139.5415 1117458
2509.9619 347.24036 3124.5105 658959
2528.5381 347.24036 3124.5105 4873792
2509.261 342.07996 3078.0767 4021812
0 0 0 0
0 0 0 0
0 0 0 0
3939.0234 521.77399 4694.9849 3825966
4008.8047 527.28094 4744.5371 3431720
3788.3403 494.80145 4452.2832 3431462
4028.5469 522.52429 4701.7363 3825964
3841.2834 494.80188 4452.2866 3891758
3568.2642 456.48819 4107.5356 3299365
3592.6848 456.48819 4107.5356 3167780
4560.895 575.59692 5179.2905 3101989
4591.687 575.59692 5179.2905 3101989
4815.3579 599.61438 5395.4023 3497004
5387.8516 666.46246 5996.9092 2970661
6061.8721 744.90765 6702.7686 3102756
6634.7261 809.97754 7288.2759 3102501
6695.8784 812.13916 7307.7256 2839585
6506.9253 784.13318 7055.7246 3102499
6548.8726 784.13318 7055.7246 2773534
6614.6729 786.97095 7081.2588 2905119
6656.7729 786.97095 7081.2588 3628842
6698.873 786.97095 7081.2588 4023601
6628.5542 773.84662 6963.165 3892015
6522.7798 756.77167 6809.5229 3826223
6563.2646 756.77167 6809.5229 3892016
6833.8115 783.13629 7046.7544 3892017
0 0 0 0
0 0 0 0
0 0 0 0
0 0 0 0
0 0 0 0
-6377.7905 832.4184 7109.8496 512
-6353.1885 834.73962 7129.6763 768
-6310.7998 834.73962 7129.6763 1024
-6333.6104 843.42188 7203.833 1024
-6288.6733 843.1391 7201.418 67584
-6232.1133 841.28357 7185.5693 397313
-6190.292 841.40582 7186.6128 2048
-6151.3125 841.91858 7190.9932 2560
-6109.4741 842.04462 7192.0698 1792
-6064.9956 841.80597 7190.0312 1024
-6022.249 841.80597 7190.0312 1024
-5979.5024 841.80597 7190.0312 1536
-5953.1333 844.1283 7209.8662 1024
-5910.8027 844.20453 7210.5176 1024
-5899.7012 848.77466 7249.5527 768
-5856.9297 848.82245 7249.9604 768
-5813.8267 848.82245 7249.9604 768
-5784.1904 850.80334 7266.8794 768
-5796.9521 859.09729 7337.7197 768
-5782.8496 863.50549 7375.3716 768
-5785.9678 870.57233 7435.7305 512
-5744.2339 870.94733 7438.9336 768
-5648.0386 863.00665 7371.1104 1024
-5622.6226 865.84125 7395.3213 1024
-5578.6553 865.84125 7395.3213 1024
-5501.1826 860.59973 7350.5522 1536
-5465.6167 861.88257 7361.5093 1024
-5419.1118 861.4472 7357.791 1024
-5375.3682 861.4472 7357.791 1024
-5333.4326 861.7395 7360.2871 1024
-5262.7002 857.34528 7322.7554 1024
-5241.8965 861.07935 7354.6494 1024
-5213.1211 863.55597 7375.8018 1024
-5140.2988 858.71613 7334.4639 1024
-5096.1724 858.62823 7333.7139 1024
-5053.6655 858.81433 7335.3027 1280
-5034.6118 863.02374 7371.2563 1280
-5002.644 865.07397 7388.7676 1024
-5001.665 872.56665 7452.7646 1024
-5012.3711 882.25006 7535.4722 1024
-4967.5703 882.25006 7535.4722 768
-4909.8481 879.93427 7515.6924 768
-4865.1655 879.93427 7515.6924 512
-4905.4824 895.45026 7648.2173 512
-4888.9961 900.79059 7693.8301 512
-4814.5405 895.45026 7648.2173 768
-4563.8608 856.9198 7319.1211 768
-4687.6528 888.63593 7590.0146 2560
-4727.6045 904.92053 7729.105 1792
-4721.3945 912.60217 7794.7158 1280
-4604.4185 898.81396 7676.9473 134912
-4447.5625 876.88678 7489.6631 530176
-4426.8486 881.62952 7530.1719 3328
-4436.3091 892.53992 7623.3599 201216
-4430.0444 900.47913 7691.1699 199936
-4449.3623 913.83832 7805.2739 1583620
-4402.958 913.83832 7805.2739 1320449
-4239.6235 889.31091 7595.7798 464896
-4198.7783 890.22552 7603.5923 464896
-4153.5728 890.22552 7603.5923 200704
-4134.6392 895.91821 7652.2148 68864
-4089.1445 895.91821 7652.2148 3584
-4136.5933 916.51099 7828.1016 531968
-3984.7339 892.91077 7626.5273 2308880
-3884.3621 880.4375 7519.9907 5534524
-3914.7795 897.664 7667.1255 662274
-3892.6108 903.09613 7713.5229 2901018
-3846.752 903.09613 7713.5229 1254915
-3721.6001 884.2561 7552.6064 3072
-3676.6975 884.2561 7552.6064 2304
-3571.1663 869.49438 7426.5234 2048
-3586.6768 884.20288 7552.1514 530432
-3673.573 917.10565 7833.1802 596736
-3759.6863 950.6554 8119.7354 663041
-3771.5764 966.0661 8251.3613 1056773
-3655.603 948.69989 8103.0327 133376
-3608.6865 949.03076 8105.8594 1280
-3561.9478 949.41803 8109.167 1024
-3478.9402 940.01593 8028.8623 1280
-3431.2063 940.01593 8028.8623 1280
-3409.0413 947.11963 8089.5356 1024
-3371.6057 950.12341 8115.1914 66816
-3297.1008 942.61646 8051.0737 1024
-3247.9973 942.25739 8048.0068 1280
-3190.4429 939.39941 8023.5957 1056522
-3210.4265 959.63135 8196.4014 2043161
-3095.0381 939.39941 8023.5957 1280
-3152.5352 971.8291 8300.585 1024
-2993.1169 937.3587 8006.166 1024
-2927.4382 931.60516 7957.0234 1024
-2910.8438 941.53925 8041.873 1024
-2878.2437 946.54156 8084.5986 1024
-2759.0369 922.74854 7881.3779 1024
-2703.4441 919.77655 7855.9932 1024
-2458.6343 851.19189 7270.1982 512
-2570.3374 905.78802 7736.5151 768
-2524.3416 905.78802 7736.5151 768
-2506.2014 915.96881 7823.4702 512
-2556.7026 952.09601 8132.04 768
-2525.6807 958.67212 8188.2085 512
-2482.7432 960.89514 8207.1953 512
-2428.3184 958.67212 8188.2085 512
-2346.6265 945.37329 8074.6201 768
-2255.3215 927.56525 7922.5181 2304
-2279.2458 957.39978 8177.3408 1792
-2307.2664 990.29285 8458.2871 1024
-2256.9795 990.29285 8458.2871 1280
-2163.759 971.02576 8293.7227 2304
-2140.0342 982.77448 8394.0713 1536
-2090.1289 982.77448 8394.0713 1280
-2040.2239 982.77448 8394.0713 1280
-1949.8036 962.76898 8223.2002 1280
-1927.855 976.41376 8339.7432 1280
-1896.62 985.95142 8421.2061 1280
-1850.7343 988.18378 8440.2725 68096
-1803.6195 989.86578 8454.6396 768
-1753.3541 989.86578 8454.6396 768
-1669.7455 970.48596 8289.1123 512
-1590.3914 952.4754 8135.2803 512
-1544.6411 954.09137 8149.083 512
-1499.6571 956.30072 8167.9531 512
-1473.6562 971.16809 8294.9385 768
-1424.6426 971.37402 8296.6973 768
-1385.3468 978.4585 8357.207 265473
-1324.2074 970.06805 8285.543 67328
-1277.4821 971.99646 8302.0137 66816
-1220.4609 965.93134 8250.21 768
-1139.0723 939.26508 8022.4487 1024
-1091.3766 939.26508 8022.4487 1024
-1066.6615 959.94666 8199.0938 768
-1094.8193 1032.4707 8818.5361 1024
-1041.8684 1031.9535 8814.1182 133376
-1001.9825 1045.0073 8925.6143 133376
-928.32214 1022.3267 8731.8945 396545
-876.40863 1022.3267 8731.8945 768
-827.03827 1025.4802 8758.8291 512
-764.27814 1011.3392 8638.0479 512
-743.18805 1054.2733 9004.7568 512
-704.40393 1076.8241 9197.3682 256
-635.74176 1053.6522 8999.4521 768
-572.46985 1035.9761 8848.4766 1792
-530.26648 1056.7076 9025.5488 512
-467.02399 1035.4606 8844.0732 132610
-409.65225 1023.4899 8741.8291 512
-365.54355 1045.9922 8934.0264 512
-305.70706 1023.4899 8741.8291 512
-256.54095 1034.8105 8838.5215 512
-203.69571 1033.2999 8825.6191 512
-154.59683 1056.3397 9022.4062 512
-100.95612 1056.3397 9022.4062 512
-46.645374 1041.3809 8894.6396 512
6.1490536 1026.9047 8770.9961 512
57.642372 1015.407 8672.792 512
111.84202 1039.931 8882.2559 256
166.90889 1054.2013 9004.1416 512
221.34209 1058.5104 9040.9463 768
273.26447 1051.4745 8980.8516 768
313.74591 1009.9116 8625.8545 1024
387.01779 1070.7471 9145.4619 768
442.54028 1073.5371 9169.293 1024
506.11874 1093.1146 9336.5078 66305
555.7254 1081.6283 9238.4014 768
602.21222 1066.6821 9110.7432 256
639.64276 1039.4855 8878.4512 512
697.74835 1047.4731 8946.6748 256
751.68585 1048.5151 8955.5752 256
805.58691 1049.3717 8962.8916 512
856.54852 1046.5308 8938.626 512
909.6911 1046.5308 8938.626 512
983.66449 1069.1722 9132.0117 768
1037.9568 1069.1722 9132.0117 768
1124.7346 1100.9713 9403.6143 199168
1228.304 1145.4174 9783.2363 1186566
1203.9218 1071.9216 9155.4941 1055494
1258.3538 1071.9216 9155.4941 463105
1311.4644 1070.8428 9146.2793 1536
1398.8501 1096.7219 9367.3193 2048
1468.8927 1107.5428 9459.7422 134401
1582.7003 1149.3475 9816.8047 332035
1631.3981 1142.5779 9758.9834 265985
1507.3879 1019.4684 8707.4805 397058
1709.8461 1117.9982 9549.043 2634271
1766.6177 1117.9982 9549.043 1449742
1826.9319 1120.17 9567.5938 1118985
1912.7701 1137.3883 9714.6582 1118219
1970.5265 1137.3883 9714.6582 1117705
2003.277 1123.366 9594.8906 1117192
2055.0833 1120.51 9570.4971 985863
1976.5741 1048.6692 8956.8906 723205
2029.8252 1048.6692 8956.8906 394754
2257.8672 1136.6628 9708.4619 394498
2316.3999 1137.062 9711.8721 66048
2374.1396 1137.062 9711.8721 263169
2482.4514 1160.7079 9913.835 131840
2561.6492 1169.9596 9992.8564 197632
2621.0593 1169.9596 9992.8564 197377
2689.947 1174.0962 10028.188 328964
2728.5916 1165.1392 9951.6846 65792
2787.7571 1165.1392 9951.6846 131328
2896.3767 1185.379 10124.557 65792
3010.5466 1207.0199 10309.396 263170
2978.8662 1170.488 9997.3701 592132
3038.3032 1170.488 9997.3701 920840
3138.0503 1185.7191 10127.462 1447183
3176.7068 1177.7283 10059.21 1447437
3236.5115 1177.7283 10059.21 1513230
3296.3164 1177.7283 10059.21 1710611
3345.0039 1173.827 10025.889 2630942
3301.0002 1138.1047 9720.7773 2959909
3358.7932 1138.1047 9720.7773 3814704
3441.3936 1146.3685 9791.3594 2958881
3498.8328 1146.1151 9789.1963 3156517
3510.9158 1131.256 9662.2803 3090982
3556.4346 1127.4752 9629.9883 1841171
3673.8875 1146.2576 9790.4121 1973785
3780.3064 1161.0652 9916.8877 1184269
3839.2654 1161.0652 9916.8877 1118733
3905.0127 1163.0873 9934.1582 657927
3930.3254 1153.1852 9849.583 328962
3937.7251 1138.3951 9723.2578 197889
3860.3213 1099.8711 9394.2168 329474
3916.1724 1099.8711 9394.2168 132096
4114.6597 1139.3678 9731.5654 856073
4235.1138 1156.4608 9877.5605 856074
4293.8389 1156.4608 9877.5605 256
4315.3408 1146.5709 9793.0889 396035
4133.834 1083.7236 9256.2979 264961
4188.8657 1083.7236 9256.2979 1713427
4405.4409 1124.9756 9608.6387 2043417
4462.5669 1124.9756 9608.6387 2768156
4519.6929 1124.9756 9608.6387 4479797
4688.3662 1152.3938 9842.8232 4677432
4779.7393 1160.3699 9910.9482 4415799
4838.6626 1160.3699 9910.9482 3889712
4952.4653 1173.3722 10022.004 3429930
5022.2202 1175.7534 10042.343 3627821
5081.9248 1175.7534 10042.343 4417848
4882.9609 1116.6029 9537.126 4089395
3071.6843 694.34949 5930.5762 4484148
3106.9431 694.34949 5930.5762 4155437
0 0 0 0
3310.8635 723.50104 6179.5654 4221228
3197.9209 691.15106 5903.2578 4484400
3233.0176 691.15106 5903.2578 3694882
0 0 0 0
0 0 0 0
0 0 0 0
0 0 0 0
0 0 0 0
0 0 0 0
0 0 0 0
0 0 0 0
0 0 0 0
0 0 0 0
0 0 0 0
2254.5586 426.42737 3642.2004 3158305
2279.1609 426.97971 3646.9182 1579278
2328.5522 432.12192 3690.8386 526082
2326.0176 427.62186 3652.4026 657155
2320.301 422.62549 3609.728 1117709
2317.166 418.18661 3571.8145 986636
2319.196 414.75198 3542.4788 920589
2335.7004 413.94446 3535.5815 1118481
2303.4685 404.59109 3455.6924 1644825
2306.0425 401.46243 3428.9702 1118481
2283.4734 394.04984 3365.6575 1052688
2295.1072 392.61694 3353.4189 1513239
2304.8569 390.88928 3338.6626 2302755
2331.8521 392.09082 3348.9253 1184274
2351.7625 392.09082 3348.9253 1447447
2357.0681 389.67639 3328.303 1315862
2342.0298 383.96677 3279.5361 723725
2361.5276 383.96677 3279.5361 526603
2335.9094 376.69131 3217.395 592397
2335.3105 373.53595 3190.4443 259
2354.2786 373.53595 3190.4443 856340
2432.1733 382.81067 3269.6616 4079429
2383.9199 372.24072 3179.3816 4342090
2425.1658 375.70218 3208.9465 1973541
2444.2439 375.70218 3208.9465 4539472
2477.7083 377.89636 3227.6875 7566207
2496.8977 377.89636 3227.6875 9013911
2508.199 376.71155 3217.5679 1446423
2501.7449 372.89822 3184.9976 1643547
2525.4841 373.60886 3191.0671 1315603
2544.4561 373.60886 3191.0671 724233
2555.6558 372.47614 3181.3921 4481088
2581.7283 373.51175 3190.2378 4352055
2608.1365 374.58044 3199.3657 4023601
2527.561 360.38 3078.0767 4747579
0 0 0 0
2625.4031 368.98724 3151.593 4813373
3645.7085 508.75516 4345.3784 4418871
3756.6245 520.54468 4446.0747 4615993
3744.3403 515.21716 4400.5718 4550968
3770.5029 515.21716 4400.5718 4090670
3841.2803 521.27155 4452.2832 3959081
3568.2642 480.90863 4107.5356 4221740
4530.1025 606.38928 5179.2905 4287532
4755.5098 632.2641 5400.2925 4221481
4591.687 606.38928 5179.2905 4221740
4591.8545 602.37177 5144.9766 4221997
4847.4351 631.69153 5395.4023 4550963
5423.5049 702.11572 5996.9092 4748088
5870.3071 754.99457 6448.5576 4156211
6272.7778 801.52264 6845.9634 4155957
6313.479 801.52264 6845.9634 4353594
6396.8452 806.90448 6891.9307 4616509
6447.792 808.1543 6902.606 5274696
6494.2607 808.83075 6908.3833 5340234
6529.8672 808.1543 6902.606 5077060
6490.106 798.21686 6817.728 5273925
6365.7769 778.06622 6645.6177 5339972
6355.3813 772.00421 6593.8403 5537351
6460.5103 779.96332 6661.8208 5076542
0 0 0 0
0 0 0 0
0 0 0 0
0 0 0 0
0 0 0 0
-6395.5762 877.12756 7129.6763 512
-6373.7915 879.97217 7152.7983 512
-6310.7998 877.12756 7129.6763 512
-6331.4873 885.95355 7201.418 256
-6288.6733 885.95355 7201.418 1024
-6239.5391 885.05713 7194.1313 768
-6207.5122 886.59167 7206.605 67584
-6167.2544 886.96381 7209.6299 1024
-6103.1724 883.89075 7184.6509 1024
-6054.6147 883.03864 7177.7241 1024
-5987.7266 879.48193 7148.814 1280
-5945.2246 879.48193 7148.814 1024
-5917.0122 881.61102 7166.1196 768
-5887.3013 883.54602 7181.8486 768
-5862.1011 886.19128 7203.3501 768
-5819.2754 886.19128 7203.3501 768
-5813.8267 891.92554 7249.9604 768
-5784.1904 894.0069 7266.8794 512
-5765.1968 897.77698 7297.5239 512
-5753.3276 902.72205 7337.7197 512
-5759.5 910.59515 7401.7158 512
-5706.8833 909.22321 7390.5635 512
-5647.6333 906.76495 7370.5815 512
-5622.6226 909.80853 7395.3213 256
-5587.7212 911.28705 7407.3394 768
-5510.3193 905.80273 7362.7607 512
-5466.5459 905.80273 7362.7607 1024
-5419.1118 905.19141 7357.791 1024
-5440.1699 916.10376 7446.4917 1024
-5395.8984 916.10376 7446.4917 1024
-5337.5845 913.69989 7426.9521 1024
-5284.6743 912.18872 7414.6689 1536
-5223.9375 909.28979 7391.105 1280
-5142.3003 902.67291 7337.3198 1024
-5096.6934 902.32147 7334.4639 1024
-5053.0879 902.32147 7334.4639 1280
-5020.9146 904.3808 7351.2021 1280
-5002.644 909.0022 7388.7676 199680
-5001.665 916.87543 7452.7646 1536
-4953.3613 916.13654 7446.7588 1536
-4909.0884 916.13654 7446.7588 768
-4848.9082 913.14099 7422.4092 768
-4804.7798 913.14099 7422.4092 512
-4898.1992 939.52399 7636.8618 512
-4888.9961 946.53253 7693.8301 512
-4843.2539 946.53253 7693.8301 512
-4732.7773 933.76056 7590.0146 512
-4520.3467 900.43396 7319.1211 512
-4695.7017 944.45551 7676.9473 768
-4605.9307 935.49249 7604.0923 1792
-4492.0908 921.41486 7489.6631 1280
-4425.2896 916.80054 7452.1558 1280
-4382.8032 917.18127 7455.25 1792
-4367.3555 923.28564 7504.8696 727298
-4430.0444 946.20526 7691.1699 727296
-4430.1514 956.0968 7771.5728 1536
-4284.7822 934.46985 7595.7798 2304
-4185.0918 922.45032 7498.0801 1792
-4140.5132 922.45032 7498.0801 133632
-4126.7866 929.3985 7554.5571 134144
-4081.8728 929.3985 7554.5571 1792
-3994.9146 919.71893 7475.8779 3328
-4030.0759 938.25262 7626.5273 2304
-4005.946 943.24719 7667.1255 267008
-3884.3621 925.146 7519.9907 397570
-3914.7795 943.24719 7667.1255 1386760
-3892.6108 948.9552 7713.5229 4019249
-3816.5007 941.49261 7652.8638 1387018
-3771.0024 941.49261 7652.8638 1782029
-3778.7043 954.93719 7762.1475 68608
-3631.5762 929.10248 7552.1514 135680
-3716.9011 962.83618 7826.353 2304
-3673.573 963.67603 7833.1802 201728
-3667.8076 974.51776 7921.3066 793602
-3703.7776 996.87463 8103.0327 660996
-3655.603 996.87463 8103.0327 1280
-3695.9138 1021.3267 8301.79 768
-3560.4949 997.22235 8105.8594 256
-3447.178 978.73181 7955.5601 512
-3399.8799 978.73181 7955.5601 512
-3381.0415 987.04004 8023.0933 768
-3344.9668 990.48236 8051.0737 768
-3295.845 990.1051 8048.0068 2048
-3247.9973 990.1051 8048.0068 1536
-3231.4973 999.80377 8126.8428 594436
-3328.8123 1045.545 8498.6475 1280
-3201.8843 1021.1785 8300.585 1280
-3195.407 1035.0657 8413.4658 1536
-3068.8318 1009.8734 8208.6924 1280
-2885.3599 964.84119 7842.6509 1024
-2910.8438 989.3504 8041.873 768
-2688.9807 929.20508 7552.9854 256
-2759.0369 969.60559 7881.3779 256
-2712.1799 969.60559 7881.3779 256
-2645.1694 962.27405 7821.7842 256
-2598.6667 962.27405 7821.7842 256
-2524.3416 951.78381 7736.5151 256
-2486.4546 954.89789 7761.8276 256
-2518.5781 985.52502 8010.7778 256
-2505.5151 999.31036 8122.8315 66048
-2463.2727 1001.7709 8142.832 132352
-2405.1235 997.73132 8109.9961 256
-2314.8022 979.90729 7965.1147 256
-2251.2949 972.92676 7908.3745 512
-2279.2458 1006.0164 8177.3408 512
-2157.2603 972.92676 7908.3745 512
-2256.9795 1040.5797 8458.2871 512
-2206.6924 1040.5797 8458.2871 768
-2162.4922 1043.5168 8482.1611 512
-2060.8496 1018.2134 8276.4844 132864
-1963.6654 993.92883 8079.0879 768
-1915.6332 993.92883 8079.0879 132608
-1928.8575 1026.5294 8344.0801 768
-1906.8975 1041.632 8466.8398 395778
-1853.8845 1040.131 8454.6396 66816
-1803.6195 1040.131 8454.6396 66048
-1749.787 1038.0149 8437.4385 66304
-1655.8412 1011.2752 8220.0869 197889
-1544.3154 971.84601 7899.5894 256
-1493.4594 969.32068 7879.0625 512
-1493.6583 1000.8419 8135.2803 512
-1449.0125 1003.4183 8156.2231 512
-1424.3406 1020.4838 8294.9385 768
-1373.4673 1019.3279 8285.543 512
-1324.2074 1019.3279 8285.543 512
-1274.6392 1019.0813 8283.5381 512
-1198.4312 996.66022 8101.2905 512
-1138.0571 986.08124 8015.2993 768
-1133.5981 1025.1428 8332.8086 1280
-1100.3591 1040.5587 8458.1162 199680
-1094.8193 1084.8993 8818.5361 1024
-1041.8684 1084.3558 8814.1182 1024
-989.46606 1084.3558 8814.1182 1024
-932.67755 1079.2802 8772.8613 1024
-879.11194 1077.554 8758.8291 512
-824.495 1074.2402 8731.8945 66048
-745.52637 1036.6213 8426.1113 197889
-695.43085 1036.6213 8426.1113 724231
-661.20782 1062.118 8633.3594 526596
-594.26923 1034.9313 8412.374 198145
-544.25531 1034.9313 8412.374 256
-519.86316 1088.5828 8848.4766 256
-461.12372 1074.2949 8732.3389 256
-407.55032 1069.9442 8696.9746 768
-362.15176 1088.9092 8851.1299 256
-304.55579 1071.4125 8708.9092 256
-256.90692 1088.9092 8851.1299 256
-203.69571 1085.7708 8825.6191 256
-152.40759 1094.262 8894.6396 512
-100.95612 1109.9803 9022.4062 0
-46.645374 1094.262 8894.6396 329219
6.4816327 1137.4125 9245.3857 526852
58.210625 1077.4877 8758.291 329474
111.33349 1087.7699 8841.8691 0
167.59114 1112.2614 9040.9463 256
215.33536 1082.077 8795.5957 512
267.62762 1082.077 8795.5957 132609
313.74591 1061.1947 8625.8545 256
388.02628 1128.0511 9169.293 512
452.39612 1153.1741 9373.5029 133121
506.11874 1148.6228 9336.5078 725001
555.7254 1136.5532 9238.4014 593159
598.29175 1113.5513 9051.4316 329988
638.28601 1089.9535 8859.6191 790025
694.05719 1094.8409 8899.3457 197633
751.68585 1101.7585 8955.5752 264452
805.58691 1102.6586 8962.8916 659466
865.00281 1110.5272 9026.8516 0
905.77655 1094.9413 8900.1611 132096
977.59363 1116.531 9075.6523 791046
1031.5509 1116.531 9075.6523 1975575
1169.4091 1202.8296 9777.125 512
1228.304 1203.5814 9783.2363 790789
1210.1808 1132.2094 9203.0928 528129
1258.3538 1126.3535 9155.4941 396545
1334.2551 1144.7742 9305.2246 768
1430.9406 1178.8503 9582.2109 1384213
1487.9094 1178.8503 9582.2109 1055501
1525.1335 1163.7836 9459.7422 593926
1552.3728 1142.4406 9286.2559 330497
1507.3879 1071.2367 8707.4805 923656
1559.1562 1071.2367 8707.4805 4606781
1583.2412 1052.8276 8557.8438 2829600
1763.5001 1136.1844 9235.4043 3880747
1912.7701 1195.1447 9714.6582 4537652
1935.5007 1173.9012 9541.9824 4076845
1933.5608 1139.3307 9260.9775 3221024
1949.6605 1117.0099 9079.5449 3221282
1984.3273 1106.2427 8992.0244 3484967
2200.1477 1194.3823 9708.4619 4998463
2262.0605 1196.6006 9726.4932 3682860
2319.8875 1196.6006 9726.4932 3354153
2400.3967 1208.0159 9819.2812 2828067
2490.6956 1223.6987 9946.7578 2893348
2570.7063 1233.7166 10028.188 2302494
2647.9294 1241.9729 10095.299 1775894
2707.9487 1241.9729 10095.299 1973530
2767.968 1241.9729 10095.299 1841943
2820.5767 1238.7183 10068.844 1776151
2949.2544 1268.3121 10309.396 1907993
3033.7727 1278.097 10388.932 1578770
3071.8389 1268.3121 10309.396 2171162
3038.3032 1229.9253 9997.3701 2039832
3097.7405 1229.9253 9997.3701 2039574
3240.0173 1262.1967 10259.687 2565917
3301.0139 1262.1967 10259.687 2697759
3232.1899 1213.4581 9863.5186 2566429
3262.4443 1202.9908 9778.4355 3356200
3404.9668 1233.5627 10026.938 3422247
3554.0979 1265.4355 10286.014 4870203
3736.126 1307.7451 10629.924 3949610
3683.8862 1268.0109 10306.947 4607793
3745.1638 1268.0109 10306.947 4674868
3771.7744 1256.4625 10213.077 4939065
3832.4939 1256.4625 10213.077 4742197
3876.7344 1251.1442 10169.847 4611381
3937.1968 1251.1442 10169.847 5006394
3943.3215 1234.1382 10031.614 4875064
3972.3069 1224.6869 9954.79 4481587
4005.5503 1216.8066 9890.7363 4876602
4054.5952 1213.8851 9866.9893 4482613
4113.2573 1213.8851 9866.9893 4351795
4171.9194 1213.8851 9866.9893 3891498
4197.4224 1204.3708 9789.6523 4023341
4252.9346 1203.6096 9783.4648 3629606
4311.1001 1203.6096 9783.4648 3432479
3799.8054 1046.7394 8508.3555 3498528
0 0 0 0
3553.0205 953.37366 7749.438 2906647
3599.0933 953.37366 7749.438 2972184
3645.1658 953.37366 7749.438 3366687
3529.1978 911.52179 7409.248 3564067
3489.2771 890.10126 7235.1323 3235104
3475.7546 875.85443 7119.3276 3169315
3126.2571 778.3067 6326.417 3432744
3168.1079 779.34937 6334.8926 3564075
3201.4814 778.3067 6326.417 2972194
3066.375 736.80487 5989.0723 2840606
0 0 0 0
0 0 0 0
0 0 0 0
0 0 0 0
0 0 0 0
0 0 0 0
0 0 0 0
0 0 0 0
0 0 0 0
0 0 0 0
0 0 0 0
0 0 0 0
0 0 0 0
0 0 0 0
0 0 0 0
2116.968 428.97607 3486.9053 2829343
2164.0298 434.25998 3529.8552 2368282
2223.2627 441.86136 3591.6423 2565149
2255.2822 443.96106 3608.7097 2301978
2276.7371 443.96106 3608.7097 2236700
2298.8403 444.08636 3609.728 2302493
2318.8184 443.80252 3607.4211 2367774
2317.166 439.42203 3571.8145 2235675
2319.196 435.81302 3542.4788 2960426
2340.2571 435.81302 3542.4788 2565667
2301.1052 424.69992 3452.1467 2697254
2306.0425 421.84866 3428.9702 2763048
2293.6821 415.91077 3380.7046 2697254
2303.4832 414.0596 3365.6575 3487027
2304.8569 410.73856 3338.6626 3815993
2328.01 411.32227 3343.4072 4539717
2337.2805 409.46405 3328.303 4079167
2357.0681 409.46405 3328.303 2302755
2362.3494 406.96503 3307.9897 1053202
2382.0164 406.96503 3307.9897 1052947
2359.8672 399.87927 3250.3936 789775
2335.3105 392.50403 3190.4443 262917
2346.1152 391.14301 3179.3816 263175
2365.0176 391.14301 3179.3816 197382
2383.9199 391.14301 3179.3816 1842981
2396.6755 390.14246 3171.2483 395534
2417.9922 390.54019 3174.4814 2697522
2436.8652 390.54019 3174.4814 3026486
2468.0083 392.49149 3190.3425 1315867
2506.2705 395.53659 3215.0942 1250070
2529.5271 396.1853 3220.3674 1184531
2584.283 401.72079 3265.3621 1120272
2609.9778 402.68991 3273.2397 3885371
2624.8364 401.9852 3267.5115 5992277
2664.6743 405.0882 3292.7339 5599308
2626.3201 396.34573 3221.6714 5337929
2627.1575 393.60159 3199.3657 5207112
0 0 0 0
2915.3936 430.55069 3499.7041 5471303
3124.1746 458.11435 3723.7537 4682558
3548.9136 516.73431 4200.2427 4616762
3573.8853 516.73431 4200.2427 4485174
3403.6128 488.70062 3972.3723 4090668
3796.6655 541.37976 4400.5718 3761957
3353.2266 474.87595 3859.9993 4025384
4723.4038 664.3703 5400.2925 4156716
4883.0811 682.19275 5545.1606 4222765
0 0 0 0
0 0 0 0
0 0 0 0
5017.6953 682.56598 5548.1948 4616757
5757.0596 778.02838 6324.1548 4419380
5794.6582 778.02838 6324.1548 4155954
5832.2573 778.02838 6324.1548 4090419
6170.0435 817.81714 6647.5752 4024112
6427.5103 846.52118 6880.894 4155186
6468.4189 846.52118 6880.894 4418359
6449.5732 838.75018 6817.728 3892272
6490.106 838.75018 6817.728 4023857
6515.0625 836.74951 6801.4663 5273925
6225.3608 794.61041 6458.9409 3892014
6197.8071 786.24353 6390.9316 3826220
0 0 0 0
0 0 0 0
0 0 0 0
0 0 0 0
0 0 0 0
-6402.5552 920.51886 7137.4565 512
-6373.7915 922.49756 7152.7983 512
-6333.4248 922.81201 7155.2368 512
-6317.5537 926.724 7185.5693 512
-6274.8335 926.724 7185.5693 768
-6232.1133 926.724 7185.5693 512
-6196.7676 927.82825 7194.1313 858378
-6164.667 929.43695 7206.605 1280
-6023.9531 914.57825 7091.394 1280
-5962.0078 911.55322 7067.939 1024
-5945.6489 915.50458 7098.5771 768
-5903.4458 915.50458 7098.5771 768
-5856.6836 914.79248 7093.0557 768
-5871.7251 923.79358 7162.8477 512
-5854.2485 927.77264 7193.7007 512
-5778.7168 922.54224 7153.145 512
-5736.1895 922.54224 7153.145 512
-5706.9883 924.70148 7169.8872 512
-5692.1274 929.23425 7205.0337 512
-5651.6851 929.62799 7208.0859 512
-5709.7026 946.3468 7337.7197 512
-5706.8833 953.16217 7390.5635 512
-5647.6333 950.58508 7370.5815 768
-5589.1445 948.09686 7351.2886 725769
-5596.4995 956.8266 7418.9766 512
-5643.0464 972.44873 7540.1069 1024
-5617.1846 975.74347 7565.6528 768
-5572.2051 975.74347 7565.6528 659718
-5579.1318 984.90668 7636.7021 396549
-5533.729 984.90668 7636.7021 768
-5373.3101 964.26636 7476.6626 768
-5347.6167 967.66058 7502.9805 512
-5249.2734 957.85522 7426.9521 512
-5174.9111 952.29639 7383.8506 512
-5116.563 949.61469 7363.0576 512
-5055.0552 946.29529 7337.3198 512
-5033.7393 950.50732 7369.979 512
-5050.4204 962.03119 7459.332 512
-5031.2905 966.87744 7496.9087 512
-5019.1899 973.17322 7545.7241 512
-4974.3286 973.17322 7545.7241 512
-4883.6655 964.1311 7475.6138 256
-4865.1655 969.30005 7515.6924 512
-4905.4824 986.39178 7648.2173 0
-4951.3833 1004.9367 7792.0098 131328
-4905.0581 1004.9367 7792.0098 328960
-4786.0527 989.90436 7675.4526 329216
-4601.1265 960.81671 7449.915 526592
-4651.1387 980.70099 7604.0923 512
-4536.6187 965.94305 7489.6631 768
-4468.2246 960.81116 7449.8716 768
-4397.6396 955.10052 7405.5933 768
-4255.3413 933.54199 7238.4346 1280
-4258.0449 943.67853 7317.0303 1280
-4214.543 943.67853 7317.0303 1280
-4329.9414 979.62885 7595.7798 134144
-4250.3149 971.74866 7534.6787 595458
-4205.5195 971.74866 7534.6787 528388
-4140.5132 967.02863 7498.0801 1024
-4095.8438 967.00696 7497.9126 1280
-4021.8823 959.9931 7443.5293 1536
-3977.6282 959.9931 7443.5293 1280
-4005.0471 977.4859 7579.1631 1280
-3984.7339 983.59448 7626.5273 1536
-3854.4695 962.39081 7462.1201 135168
-3854.4285 973.5863 7548.9272 333568
-3892.6108 994.81421 7713.5229 1913105
-3846.752 994.81421 7713.5229 332802
-3791.0796 992.24579 7693.6079 1584396
-3893.3499 1031.4581 7997.6494 1913104
-3923.1555 1052.2046 8158.5127 2048
-3874.6504 1052.2046 8158.5127 2560
-3684.502 1013.252 7856.4839 1792
-3555.8562 990.42969 7679.5264 1280
-3581.8838 1010.6561 7836.3564 593667
-3630.8347 1037.9688 8048.1313 768
-3695.9138 1070.6831 8301.79 512
-3560.4949 1045.4139 8105.8594 256
-3447.178 1026.0298 7955.5601 256
-3399.8799 1026.0298 7955.5601 768
-3356.4109 1027.2017 7964.6465 330496
-3284.0591 1019.4412 7904.4741 791813
-3237.0652 1019.4412 7904.4741 726788
-3206.6509 1024.7397 7945.5566 68608
-3432.8042 1113.413 8633.1055 1280
-3433.3584 1130.4956 8765.5596 1280
-3278.2856 1096.0719 8498.6475 2048
-3195.407 1085.0861 8413.4658 1280
-3103.3821 1070.5953 8301.1094 1280
-2885.3599 1011.4679 7842.6509 1024
-2828.8916 1007.9613 7815.4614 512
-2688.9807 974.10968 7552.9854 256
-2735.6443 1007.8445 7814.5562 131328
-2607.0417 977.0592 7575.855 1708810
-2562.001 977.0592 7575.855 2497296
-2516.9604 977.0592 7575.855 2167303
-2447.2295 967.29993 7500.1846 3088919
-2396.6992 964.90863 7481.6431 2102796
-2358.9231 967.65887 7502.9678 1576710
-2387.5706 998.28802 7740.458 1577223
-2436.5024 1038.769 8054.3369 1775120
-2362.1572 1027.2621 7965.1147 1117445
-2219.23 984.849 7636.2549 657155
-2219.2954 1005.4469 7795.9658 197120
-2204.2778 1019.9443 7908.3745 327936
-2157.2603 1019.9443 7908.3745 787969
-2094.1892 1012.1852 7848.2124 853504
-2206.6924 1090.8666 8458.2871 3286555
-2192.7678 1109.2612 8600.9141 3747363
-2140.397 1108.6211 8595.9502 3549725
-2011.6438 1067.4194 8276.4844 5128497
-1978.4655 1076.1373 8344.0801 4535846
-1928.8575 1076.1373 8344.0801 5983546
-1943.3485 1112.843 8628.6865 5918012
-1856.5597 1091.9696 8466.8398 4537644
-1840.7487 1112.843 8628.6865 3419681
-1753.3541 1090.3962 8454.6396 3092002
-1708.5946 1093.9211 8481.9707 2039317
-1595.6505 1052.678 8162.1821 1710354
-1543.2253 1050.0253 8141.6143 1250060
-1478.4631 1038.5347 8052.5195 526595
-1430.5887 1038.5347 8052.5195 658435
-1399.7882 1051.3586 8151.9531 198144
-1373.135 1068.3292 8283.5381 512
-1335.6609 1077.8303 8357.207 512
-1303.1078 1092.1901 8468.5488 67072
-1252.76 1092.1901 8468.5488 264449
-1157.3287 1051.2394 8151.0283 329730
-1129.2958 1070.6049 8301.1836 329472
-1093.5657 1084.1099 8405.8975 658692
-1045.6493 1086.2489 8422.4824 724484
-995.57532 1086.2489 8422.4824 66048
-984.83459 1131.4373 8772.8613 131840
-928.32214 1126.1538 8731.8945 724226
-876.40863 1126.1538 8731.8945 1315080
-784.54681 1071.5897 8308.8193 1709580
-720.39276 1050.0809 8142.0454 1972496
-671.98602 1050.0809 8142.0454 3090720
-610.06506 1027.3235 7965.5903 3946029
-565.56372 1032.5381 8006.0234 4538168
-517.96564 1032.5381 8006.0234 2828320
-506.10748 1110.9933 8614.3438 2368028
-459.25626 1121.6501 8696.9746 5723472
-424.74686 1168.9781 9063.9424 2565923
-370.85919 1168.9781 9063.9424 2237214
-305.15347 1125.3937 8726 1645077
-251.888 1119.2307 8678.2148 1974041
-196.57426 1098.4473 8517.0654 1513748
-145.77673 1097.2339 8507.6572 1316369
-100.95612 1163.6211 9022.4062 1250576
-45.930332 1129.5582 8758.291 1053197
6.4816327 1192.3789 9245.3857 1382160
58.210625 1129.5582 8758.291 790024
111.16246 1138.5854 8828.2861 2434843
163.64906 1138.5854 8828.2861 3290149
212.0882 1117.2635 8662.9619 2106134
279.62045 1185.2024 9189.7412 1382416
334.25604 1185.2024 9189.7412 922380
387.01779 1179.4917 9145.4619 790795
452.39612 1208.9021 9373.5029 725255
495.76242 1179.4917 9145.4619 2567714
546.04175 1170.7163 9077.4199 3686192
585.40442 1142.2194 8856.4619 3159590
626.75208 1121.979 8699.5244 1908757
694.05719 1147.75 8899.3457 2698014
743.50153 1142.4263 8858.0674 3421994
751.56787 1078.4331 8361.8809 3224872
768.61121 1034.4625 8020.9448 3553584
896.04431 1135.5219 8804.5322 1382418
956.64044 1145.4006 8881.1299 198657
1011.6044 1147.8552 8900.1611 768
1085.5083 1170.4883 9075.6523 330241
1140.002 1171.0394 9079.9258 512
1200.2467 1177.1812 9127.5469 0
1254.5126 1177.1812 9127.5469 856837
1308.7783 1177.1812 9127.5469 1514511
1364.8306 1178.7239 9139.5088 2369817
1468.8927 1220.0244 9459.7422 3883823
1441.8569 1153.4077 8943.2139 3422500
1489.9633 1149.5012 8912.9238 5528129
1475.5026 1099.2505 8523.293 5264188
1532.3625 1103.7064 8557.8438 3488033
1575.4187 1098.2532 8515.5605 3948584
1604.4337 1083.6559 8402.377 4737586
1725.7616 1130.4067 8764.8711 5066550
1815.5862 1154.3868 8950.8057 4804146
1811.8547 1119.2102 8678.0557 5133880
1888.4976 1134.2551 8794.71 4871222
1940.7847 1134.2551 8794.71 4739382
2002.5007 1139.6212 8836.3174 4608052
2262.0605 1254.4274 9726.4932 4213807
2316.123 1252.392 9710.7109 3819048
2370.8733 1250.8182 9698.5098 4345904
2486.3584 1280.601 9929.4365 3820328
2549.8318 1282.835 9946.7578 3689512
2630.3267 1293.3369 10028.188 3822121
2692.6531 1294.6381 10038.276 3889193
2752.3335 1294.6381 10038.276 3495459
