# .PCD v0.7 - Point Cloud Data file format
VERSION 0.7
FIELDS x y z rgb
SIZE 4 4 4 4
TYPE F F F U
COUNT 1 1 1 1
WIDTH 1321
HEIGHT 1
VIEWPOINT 0 0 0 1 0 0 0
POINTS 1321
DATA ascii
-4088.0674 -174.53876 6816.0352 1122564
-4061.748 -175.15126 6839.9546 661253
-4082.3669 -177.82071 6944.2007 68608
-4044.7527 -177.98224 6950.5088 2048
-4003.4299 -177.98224 6950.5088 266240
-3998.7983 -179.63043 7014.8735 1024
-3935.1582 -178.63472 6975.9893 1280
-3924.3936 -180.04361 7031.0093 1024
-3895.5273 -180.64345 7054.4336 1792
-3838.54 -179.93808 7026.8882 66816
-3812.2153 -180.67041 7055.4868 1280
-3842.6731 -184.14003 7190.981 1280
-3839.6833 -186.06688 7266.228 1280
-3805.3481 -186.50134 7283.1943 1536
-3788.6396 -187.81963 7334.6758 2048
-3766.95 -188.91879 7377.5996 134656
-3723.0879 -188.91879 7377.5996 2560
-3702.1282 -190.09476 7423.5234 1536
-3680.6311 -191.27116 7469.4644 2304
-3638.918 -191.41293 7475 2304
-3633.8503 -193.50964 7556.8804 2816
-3620.2883 -195.20084 7622.9248 1280
-3574.9683 -195.20084 7622.9248 1280
-3541.9695 -195.88226 7649.5356 1280
-3530.083 -197.76421 7723.0278 1280
-3458.656 -196.31613 7666.479 768
-3349.3186 -192.64886 7523.2656 1024
-3257.5686 -189.90759 7416.2144 1280
-3262.2344 -192.789 7528.7383 1121547
-3269.7776 -195.923 7651.126 1280
-3285.2917 -199.62979 7795.8828 1280
-3179.6121 -195.97298 7653.0776 1024
-3167.356 -198.05167 7734.2544 1024
-3122.4204 -198.11809 7736.8477 2043158
-3076.4229 -198.11809 7736.8477 727553
-3030.425 -198.11809 7736.8477 1780494
-2961.22 -196.5775 7676.6851 1385483
-2976.4692 -200.68283 7837.0054 134656
-2853.1594 -195.4281 7631.7998 1792
-2804.1272 -195.17342 7621.8535 133888
-2795.8904 -197.79646 7724.2881 1792
-2749.9673 -197.79646 7724.2881 990466
-2687.9827 -196.6216 7678.4072 858882
-2617.5686 -194.77885 7606.4453 727041
-2660.4451 -201.44972 7866.9541 464129
-2497.7886 -192.51785 7518.1494 990724
-2434.0166 -191.02089 7459.6904 858883
-2408.3938 -192.51785 7518.1494 265984
-2441.0505 -198.81819 7764.1885 133632
-2443.2483 -202.83276 7920.9644 397312
-2374.6448 -201.01186 7849.8545 133888
-2327.9751 -201.01186 7849.8545 595458
-2284.186 -201.26567 7859.7661 67073
-2300.731 -206.95728 8082.0332 396548
-2189.3789 -201.1416 7854.9219 332547
-2164.3884 -203.17953 7934.5063 1253131
-2194.8357 -210.62839 8225.3965 1280
-2145.9333 -210.62839 8225.3965 1536
-1949.1736 -195.77739 7645.4399 1280
-2084.199 -214.3378 8370.2559 923910
-2034.4354 -214.3378 8370.2559 1280
-1984.5414 -214.3237 8369.7051 1536
-1896.854 -210.12238 8205.6357 332033
-1854.198 -210.8192 8232.8477 1648909
-1805.2512 -210.8192 8232.8477 69632
-1779.6919 -213.62648 8342.4775 1253893
-1729.3278 -213.53194 8338.7852 67072
-1692.9908 -215.21494 8404.5088 793346
-1700.1329 -222.69553 8696.6387 925699
-1636.0734 -221.02631 8631.4531 2110991
-1626.4321 -226.83878 8858.4395 1518857
-1573.7662 -226.83878 8858.4395 991749
-1526.8275 -227.69286 8891.793 1978893
-1417.0986 -218.90858 8548.752 2044685
-1366.2739 -218.90858 8548.752 662017
-1315.4492 -218.90858 8548.752 68608
-1263.6372 -218.73769 8542.0781 266240
-1191.6543 -214.91466 8392.7822 1536
-1139.3187 -214.45569 8374.8594 266240
-1089.5278 -214.45569 8374.8594 595712
-1045.1483 -215.57184 8418.4473 530177
-1014.521 -219.77945 8582.7607 465152
-963.49402 -219.77945 8582.7607 661760
-911.09021 -219.4478 8569.8096 794625
-866.46246 -221.06078 8632.7988 2307861
-815.13806 -221.06078 8632.7988 596224
-763.81366 -221.06078 8632.7988 68352
-721.05353 -223.71797 8736.5664 1056770
-691.71014 -231.27357 9031.626 2503959
-637.35406 -231.03412 9022.2754 200960
-598.24347 -236.78485 9246.8506 2048
-527.91663 -230.09375 8985.5518 924166
-474.495 -230.09375 8985.5518 200448
-442.17154 -241.62273 9435.7783 398336
-386.07318 -241.62273 9435.7783 990725
-323.22958 -236.68355 9242.8945 530176
-264.34671 -233.21519 9107.4502 991234
-210.20038 -233.21519 9107.4502 530432
-155.33626 -232.14252 9065.5596 2109454
-101.37614 -231.99869 9059.9434 1451015
-49.277496 -240.61824 9396.5508 198913
6.8365541 -249.71114 9751.6445 1280
64.812798 -249.71114 9751.6445 1024
118.10012 -240.17548 9379.2607 1024
173.86243 -240.17548 9379.2607 1536
233.49677 -244.22539 9537.417 1536
301.5704 -253.79501 9911.127 1056261
360.83856 -254.03703 9920.5781 267008
407.43909 -246.54572 9628.0293 925440
464.68039 -246.54572 9628.0293 464640
502.61978 -237.42784 9271.9609 201728
562.98187 -239.65752 9359.0332 925441
612.86853 -237.42784 9271.9609 991234
639.58423 -227.3304 8877.6387 1977872
733.68542 -240.89778 9407.4678 1536
836.43268 -255.18089 9965.2471 1536
901.63342 -256.87735 10031.497 1024
956.16705 -255.5128 9978.209 1536
999.8808 -251.58521 9824.8301 1123587
1049.1578 -249.41371 9740.0293 1189121
1113.8661 -250.94595 9799.8662 1123841
1144.1425 -244.95419 9565.8779 1583878
1229.071 -250.67656 9789.3457 135424
1294.8008 -252.14278 9846.6045 597248
1342.2322 -250.073 9765.7754 795136
1378.3488 -246.15413 9612.7373 2308362
1417.7542 -243.1113 9493.9092 1585156
1515.3102 -249.89113 9758.6729 2176779
1635.3057 -259.73499 10143.093 398592
1697.156 -259.97192 10152.346 661506
1771.8262 -262.0889 10235.017 200704
1843.5081 -263.63794 10295.51 1792
1907.2356 -263.98648 10309.12 266752
1968.5262 -263.98648 10309.12 265472
1953.7241 -254.09029 9922.6572 793601
2207.0447 -278.62265 10880.688 1253893
2123.3914 -260.42886 10170.189 1792
2223.8792 -265.20169 10356.577 201472
2293.3201 -266.11472 10392.232 463360
2345.8721 -265.0715 10351.492 1057536
2424.1975 -266.91937 10423.655 2900756
2318.5244 -248.92076 9720.7793 1914371
2439.126 -255.50002 9977.71 3822365
2591.8245 -265.04926 10350.623 463360
2657.7422 -265.48679 10367.71 135680
2719.3811 -265.48679 10367.71 662272
2763.3608 -263.80099 10301.877 1517064
2824.6084 -263.80099 10301.877 1188611
2964.0796 -270.95154 10581.118 991232
3070.3545 -274.8334 10732.712 662272
3144.6921 -275.75665 10768.767 2767892
3243.1416 -278.71524 10884.304 992000
3272.7385 -275.75665 10768.767 2504716
3368.6853 -278.39487 10871.793 794880
3572.3691 -289.66974 11312.096 531200
3685.6895 -293.33612 11455.273 3425562
3879.5298 -303.16156 11838.975 132864
4133.6323 -317.26205 12389.623 1024
4595.6309 -346.54581 13533.202 768
3908.9529 -289.69318 11313.011 512
3951.9578 -287.92609 11244.003 512
4089.3396 -292.9794 11441.344 512
4157.3613 -292.9794 11441.344 512
3962.9705 -274.78421 10730.791 512
4014.9185 -273.97565 10699.214 512
4078.5281 -273.97565 10699.214 512
4160.5234 -275.19171 10746.703 512
4385.1182 -285.66037 11155.522 256
4189.0376 -268.82129 10497.928 329990
4138.4927 -261.67886 10219.005 67073
4210.2139 -262.36227 10245.692 512
4202.0713 -258.12033 10080.038 512
0 0 0 0
0 0 0 0
0 0 0 0
0 0 0 0
0 0 0 0
0 0 0 0
0 0 0 0
1659.5692 -91.502426 3573.3252 256
1692.2729 -92.126259 3597.687 658439
1648.8644 -88.642738 3461.6494 2237471
1669.4449 -88.642738 3461.6494 3684917
1713.0256 -89.849113 3508.7605 4540226
1648.1798 -85.407845 3335.3215 5395278
0 0 0 0
0 0 0 0
4648.8315 -232.50813 9079.8379 512
5053.6572 -249.8539 9757.2197 512
5233.7412 -255.8208 9990.2373 512
5368.395 -259.45816 10132.281 1792
5723.7017 -273.5607 10683.01 133379
5821.0015 -275.15778 10745.379 1517597
6097.2812 -285.08868 11133.197 2965296
6190.6484 -286.34573 11182.288 1584412
6333.6709 -289.84848 11319.076 532233
6439.9629 -291.61435 11388.036 1715735
6507.6685 -291.61435 11388.036 2767139
6503.5005 -288.42685 11263.559 464131
6820.9116 -299.42081 11692.891 1280
6890.4287 -299.42081 11692.891 1024
6979.8833 -300.27847 11726.385 768
6877.2622 -292.93774 11439.717 1536
6781.6499 -286.03635 11170.206 134405
6738.3101 -281.45224 10991.188 134661
6702.8843 -277.28357 10828.395 768
6767.2622 -277.28357 10828.395 768
6831.6406 -277.28357 10828.395 768
6871.2671 -276.28836 10789.53 265221
6837.1064 -272.37207 10636.592 793105
6999.561 -276.28836 10789.53 660747
7120.3022 -278.50201 10875.977 2701865
7335.2251 -284.32642 11103.43 331524
7663.3062 -294.39404 11496.588 2899494
7598.2559 -289.31461 11298.228 464390
7832.1187 -295.60605 11543.918 595978
7708.3389 -288.40695 11262.782 200197
7969.3823 -295.60605 11543.918 200968
8067.7686 -296.70029 11586.65 332811
8175.481 -298.11606 11641.939 464653
8069.689 -291.78812 11394.821 2767666
8521.9639 -305.57635 11933.276 2372908
8270.0693 -294.09567 11484.936 3228474
8573.2754 -302.3815 11808.512 991255
9277.7803 -324.57175 12675.078 1320219
9353.1377 -324.57175 12675.078 2963761
11659.947 -401.38855 15674.904 725006
12098.569 -413.18552 16135.597 1711905
12195.516 -413.21997 16136.941 5001043
0 0 0 0
0 0 0 0
12484.728 -413.26614 16138.746 3750470
12581.545 -413.29465 16139.858 1842468
12676.543 -413.26346 16138.64 1381404
12772.01 -413.2478 16138.029 5790561
12866.655 -413.20615 16136.401 1053974
9685.7793 -308.7518 12057.282 5989479
8982.5547 -284.23163 11099.729 724491
8820.0703 -277.05481 10819.461 329735
8551.1553 -266.66293 10413.641 395014
8168.0254 -252.88429 9875.5615 263683
6947.1997 -213.55217 8339.5752 256
0 0 0 0
5897.4639 -178.73282 6979.8203 256
5724.1396 -172.26778 6727.3496 4803140
5764.1353 -172.26778 6727.3496 0
6001.3257 -178.12054 6955.9102 328963
6140.8354 -181.01385 7068.8989 131584
8741.8818 -255.93358 9994.6406 460547
9090.457 -264.34189 10323 526596
9191.1455 -265.47748 10367.347 658439
9497.0059 -272.48465 10640.988 131584
10157.496 -289.50668 11305.728 0
9653.1846 -273.32422 10673.775 0
8684.001 -244.27649 9539.4121 0
8052.8931 -225.05396 8788.7393 0
8105.1445 -225.05396 8788.7393 0
9651.2256 -266.26715 10398.185 256
7025.7002 -192.59801 7521.2793 0
6812.5322 -185.57324 7246.9507 65536
6666.5781 -180.45618 7047.1201 65536
6463.4399 -173.86479 6789.7158 262401
6366.5615 -170.19585 6646.437 2563612
6378.2432 -169.45638 6617.5596 1774867
6417.5859 -169.45638 6617.5596 393216
0 0 0 0
0 0 0 0
0 0 0 0
0 0 0 0
0 0 0 0
0 0 0 0
-5050.2798 -111.43378 5667.5264 2241295
-5204.1245 -115.59961 5879.4004 1319683
-5605.582 -125.35922 6375.7749 596225
-5567.6763 -125.35922 6375.7749 135168
-5626.4087 -127.55 6487.1978 1253639
-5587.8403 -127.55 6487.1978 1055494
-5454.6685 -125.37553 6376.604 333057
-5284.2964 -122.3096 6220.6709 990980
-5420.8413 -126.35437 6426.3882 1188359
-5421.0142 -127.25532 6472.21 1780494
-5382.5352 -127.25532 6472.21 924932
-5423.1777 -129.1394 6568.0347 1780493
-5347.4058 -128.25858 6523.2363 2438676
-5308.6235 -128.25858 6523.2363 859650
-5137.8438 -125.04601 6359.8447 1255172
-5143.251 -126.10566 6413.7388 334592
-5105.1196 -126.10566 6413.7388 1715972
-5209.4727 -129.65178 6594.0942 1452806
-5261.6357 -131.94293 6710.6226 2044942
-5354.7759 -135.30449 6881.5918 464896
-5351.5449 -136.26398 6930.3911 2304
-5174.9336 -132.7894 6753.6738 1792
-5094.644 -131.75142 6700.8823 660996
-5054.8057 -131.75142 6700.8823 528132
-5105.3301 -134.1254 6821.623 727303
-5212.2539 -138.03098 7020.2607 68864
-5201.6143 -138.86116 7062.4839 332034
-5077.7812 -136.65846 6950.4551 3584
-5020.5845 -136.22774 6928.5479 1536
-4976.7832 -136.15636 6924.9175 1280
-4956.73 -136.73892 6954.5464 1024
-4948.644 -137.66417 7001.605 1280
-4836.5396 -135.68695 6901.0435 529666
-4742.8076 -134.19572 6825.1997 1253638
-4702.2295 -134.19572 6825.1997 924166
-4483.7998 -129.07587 6564.8037 1977615
-4375.7651 -127.07196 6462.8853 331264
-4597.2349 -134.68611 6850.1406 464128
-4566.498 -134.98138 6865.1582 727552
-4608.1396 -137.4407 6990.2397 659712
-4566.5806 -137.4407 6990.2397 1188357
-4364.2061 -132.55617 6741.812 1714443
-4272.3882 -130.97021 6661.1499 464384
-4232.7856 -130.97021 6661.1499 397568
-4254.7129 -132.89203 6758.8936 1536
-4215.252 -132.91481 6760.0527 1536
-4197.4141 -133.6264 6796.2441 1280
-4213.6035 -135.44565 6888.771 265984
-4042.01 -131.20509 6673.0962 2048
-4002.3364 -131.20509 6673.0962 793349
-4047.5439 -134.01553 6816.0352 2304
-4021.0828 -134.48582 6839.9546 2048
-4041.0818 -136.53551 6944.2007 1385994
-4003.4299 -136.65953 6950.5088 1582860
-3998.7983 -137.92506 7014.8735 1792
-3935.1582 -137.16052 6975.9893 1792
-3932.79 -138.5381 7046.0527 595203
-3896.1091 -138.72359 7055.4868 331520
-3854.1624 -138.72359 7055.4868 463616
-3885.4255 -141.38765 7190.981 1024
-3842.6731 -141.38765 7190.981 1280
-3839.6833 -142.86714 7266.228 1280
-3803.9998 -143.14996 7280.6133 1280
-3791.5083 -144.32213 7340.229 134912
-3759.5652 -144.77254 7363.1367 1280
-3715.7893 -144.77254 7363.1367 1280
-3686.8611 -145.35791 7392.9092 1280
-3683.3589 -146.97197 7475 1280
-3674.2537 -148.39914 7547.5859 1536
-3633.8503 -148.58189 7556.8804 199424
-3616.8784 -149.73927 7615.7446 67072
-3522.9783 -147.70076 7512.0664 768
-3549.8147 -150.7368 7666.479 768
-3570.3154 -153.57925 7811.0469 768
-3475.5444 -151.47282 7703.9136 1536
-3349.3186 -147.92096 7523.2656 3094833
-3304.5908 -147.92096 7523.2656 512
-3377.5293 -153.26022 7794.8213 1024
-3270.6113 -150.4733 7653.0776 594436
-3285.2917 -153.28111 7795.8828 924676
-3179.6121 -150.4733 7653.0776 1056260
-3184.1208 -152.87428 7775.1919 727298
-3122.4204 -152.12036 7736.8477 3072
-3076.4229 -152.12036 7736.8477 793091
-3024.7429 -151.83514 7722.3408 3072
-2909.5686 -148.30472 7542.7832 989703
-2861.5999 -148.14294 7534.5562 134400
-2820.8662 -148.35655 7545.4199 397824
-2807.7864 -150.05493 7631.7998 2560
-2803.4207 -152.28247 7745.0918 2048
-2767.0979 -152.8195 7772.4058 200960
-2704.0442 -151.87343 7724.2881 1122053
-2599.1504 -148.50409 7552.9238 1792
-2572.3462 -149.55643 7606.4453 462852
-2509.342 -148.50409 7552.9238 68352
-2426.9197 -146.24329 7437.9395 1536
-2382.699 -146.24329 7437.9395 1280
-2404.8501 -150.39404 7649.0464 1024
-2443.2483 -155.74043 7920.9644 463872
-2396.1562 -155.74043 7920.9644 398080
-2346.6609 -155.58112 7912.8618 1792
-2299.6167 -155.58112 7912.8618 464642
-2258.7341 -156.0067 7934.5063 1583376
-2211.5613 -156.0067 7934.5063 859400
-2193.3542 -158.09451 8040.6929 133632
-2192.7749 -161.57426 8217.6738 463872
-2097.7458 -158.09451 8040.6929 199680
-1987.8198 -153.30357 7797.0259 3072
-1916.6593 -151.34489 7697.4072 199936
-2034.4354 -164.57431 8370.2559 2307088
-1968.7979 -163.258 8303.3076 2110728
-1896.854 -161.33759 8205.6357 2833937
-1783.5662 -155.70644 7919.2354 3426081
-1712.6786 -153.57184 7810.6694 267008
-1779.3149 -163.99338 8340.71 1280
-1729.3278 -163.95554 8338.7852 1792
-1679.7515 -163.95554 8338.7852 728064
-1700.1329 -170.99158 8696.6387 1584648
-1558.3175 -161.64432 8221.2363 2966555
-1509.4401 -161.64432 8221.2363 2044942
-1465.895 -162.23448 8251.252 1189377
-1481.6071 -169.65073 8628.4424 2304
-1395.0205 -165.46515 8415.5635 332288
-1344.9875 -165.46515 8415.5635 2175506
-1294.9546 -165.46515 8415.5635 133120
-1263.6372 -167.95265 8542.0781 1792
-1181.2423 -163.57538 8319.4502 2816
-1139.3187 -164.66483 8374.8594 68352
-1089.5278 -164.66483 8374.8594 464640
-1055.8237 -167.21252 8504.4355 1188614
-1005.2626 -167.21252 8504.4355 333312
-963.49402 -168.75255 8582.7607 68864
-849.28253 -157.06712 7988.4399 69632
-866.46246 -169.73639 8632.7988 530688
-818.2453 -170.38339 8665.7061 596480
-763.81366 -169.73639 8632.7988 464128
-695.02356 -165.57552 8421.1768 727810
-690.99396 -177.3942 9022.2754 989957
-670.82349 -186.70972 9496.0635 134144
-605.5426 -184.02802 9359.6719 1280
-549.89679 -184.02802 9359.6719 1280
-485.327 -180.70531 9190.6787 2304
-435.35886 -182.66597 9290.3984 68352
-386.31381 -185.64003 9441.6592 463873
-323.22958 -181.73196 9242.8945 200448
-266.8024 -180.73238 9192.0557 199936
-212.15308 -180.73238 9192.0557 1385476
-155.24004 -178.13481 9059.9434 1189634
-100.35072 -176.33295 8968.3008 3689246
-47.031666 -176.33295 8968.3008 2570260
6.30616 -176.85971 8995.0918 660738
62.07906 -183.64772 9340.3301 1536
118.77376 -185.46504 9432.7598 1024
163.42349 -173.34074 8816.1172 1024
215.83778 -173.34074 8816.1172 134400
294.62048 -190.37965 9682.7168 265728
365.28613 -197.46065 10042.855 661505
411.6893 -191.27913 9728.4639 68096
469.05121 -191.08501 9718.5908 1280
521.92175 -189.30441 9628.0293 69120
562.98187 -184.01546 9359.0332 925441
630.19275 -187.45671 9534.0557 793601
641.81433 -175.159 8908.5938 265984
694.77844 -175.159 8908.5938 1451274
841.99335 -197.2373 10031.497 1792
931.56213 -203.78438 10364.481 990469
956.16705 -196.18956 9978.209 3584
999.06238 -193.01573 9816.7881 1583881
1049.1578 -191.50653 9740.0293 2307857
1087.2706 -188.0824 9565.8779 795137
1125.1688 -184.96336 9407.2441 1058048
1229.071 -192.47618 9789.3457 728064
1294.8008 -193.60199 9846.6045 333312
1347.2281 -192.72743 9802.124 464897
1379.3787 -189.14496 9619.9199 2175755
1463.7809 -192.72743 9802.124 397824
1516.1064 -191.97392 9763.8008 1453062
1628.2445 -198.57034 10099.295 3096856
1695.6091 -199.43149 10143.093 1536
1757.5145 -199.61342 10152.346 133632
1832.676 -201.23888 10235.017 1792
1904.7177 -202.42827 10295.51 200704
1958.2162 -201.63428 10255.127 398336
1957.1992 -195.44434 9940.3066 725765
2080.1553 -201.63428 10255.127 463104
2111.8015 -198.87283 10114.68 1188610
2175.7295 -199.22014 10132.345 2044172
2284.3296 -203.52899 10351.492 1452547
2334.4331 -202.53651 10301.016 2440206
2367.5879 -200.16191 10180.243 3164695
2388.2766 -196.87808 10013.227 1059073
2497.5398 -200.87799 10216.663 1782787
2591.8245 -203.51189 10350.623 3624220
2657.7422 -203.84785 10367.71 661504
2739.0234 -205.32025 10442.597 3328
2781.0198 -203.84785 10367.71 332288
2860.3374 -205.11562 10432.188 331520
2922.3599 -205.11562 10432.188 1056258
3026.9873 -208.04384 10581.118 794112
3144.6921 -211.73335 10768.767 1912846
3236.866 -213.59093 10863.243 859392
3272.7385 -211.73335 10768.767 2043912
3368.6853 -213.75905 10871.793 332800
3458.5498 -215.32979 10951.681 1715969
3505.5811 -214.22496 10895.489 3492120
3879.5298 -232.77557 11838.975 330241
3955.8879 -233.1275 11856.874 1024
4595.6309 -266.08713 13533.202 512
4336.5386 -246.7654 12550.498 768
4031.95 -225.55223 11471.595 512
4100.1519 -225.55223 11471.595 256
4207.9927 -227.6971 11580.684 512
4014.0193 -213.70451 10869.02 256
4014.9185 -210.36583 10699.214 256
4068.614 -209.85446 10673.206 256
4152.0625 -210.86987 10724.85 256
4271.7563 -213.66748 10867.136 198147
4372.3154 -215.43892 10957.231 256
4122.3608 -200.14085 10179.172 256
4250.3354 -203.36848 10343.329 256
4243.397 -200.14085 10179.172 256
0 0 0 0
0 0 0 0
0 0 0 0
0 0 0 0
0 0 0 0
0 0 0 0
0 0 0 0
0 0 0 0
1680.8138 -70.258011 3573.3252 1053455
1626.2207 -67.127571 3414.1108 2698024
1686.7487 -68.767731 3497.5295 3421746
1713.0256 -68.988548 3508.7605 4212032
1690.0496 -67.24437 3420.051 5527635
0 0 0 0
0 0 0 0
4583.188 -176.0051 8951.626 256
4873.9346 -185.02197 9410.2246 512
5181.0044 -194.44682 9889.5732 66305
5293.6294 -196.44438 9991.1689 265734
5428.6343 -199.21892 10132.281 1187092
5624.5386 -204.14285 10382.714 1713947
5702.3521 -204.72034 10412.085 397828
6163.4712 -218.89871 11133.197 199680
6229.6611 -218.89871 11133.197 592902
6400.9663 -222.55344 11319.076 6118964
6507.6685 -223.9093 11388.036 4210719
6876.1543 -234.15172 11908.966 131072
7291.3428 -245.75948 12499.337 256
7141.9097 -238.29411 12119.647 512
7283.9917 -240.60727 12237.295 512
7049.5996 -230.56186 11726.385 512
6811.5996 -220.59633 11219.538 768
6713.7539 -215.31903 10951.134 512
6671.6465 -211.91353 10777.93 768
6858.6655 -215.78139 10974.649 133893
6999.8208 -218.147 11094.966 2175524
7044.4688 -217.48898 11061.498 1386775
6990.9814 -213.84131 10875.977 2901548
7055.6421 -213.84131 10875.977 3954744
7123.7598 -213.94511 10881.257 5007431
7559.2378 -224.98059 11442.521 1913112
7806.2383 -230.25967 11711.016 3097131
7598.2559 -222.14351 11298.228 397828
7832.1187 -226.97424 11543.918 331523
7609.916 -218.61908 11118.975 331527
7695.9512 -219.18666 11147.843 594955
7762.2275 -219.18666 11147.843 397577
8175.481 -228.9015 11641.939 1280
8244.6953 -228.9015 11641.939 67074
8839.1289 -243.362 12377.401 200711
8883.8096 -242.57272 12337.258 1318423
9262.9365 -250.85365 12758.427 2700845
9780.4443 -262.71716 13361.805 2503466
11566.756 -308.19687 15674.904 2305573
12002.639 -317.25491 16135.597 1449754
12098.896 -317.26346 16136.032 1844002
12196.531 -317.30774 16138.284 2173485
12293.034 -317.32211 16139.015 5001814
12388.298 -317.3045 16138.119 8027267
12484.728 -317.31683 16138.746 2040103
12580.677 -317.31683 16138.746 394762
12676.288 -317.30832 16138.314 921107
12771.979 -317.302 16137.992 3421238
12867.239 -317.2851 16137.133 1118994
12962.523 -317.26904 16136.315 592650
13058.165 -317.2619 16135.953 1382165
9059.1426 -218.49625 11112.728 263429
8884.3955 -212.73009 10819.461 0
8948.7197 -212.73009 10819.461 0
8359.9082 -197.31447 10035.422 0
8285.4512 -194.17134 9875.5615 66307
6170.709 -143.59435 7303.2139 771
5724.1396 -132.27182 6727.3496 2107430
5764.1353 -132.27182 6727.3496 4276288
5992.4834 -136.56422 6945.6616 591881
6155.7998 -139.32599 7086.125 855310
7959.1826 -178.918 9099.7764 723980
8801.3027 -196.51265 9994.6406 987408
9151.8301 -202.96878 10323 1053201
9310.7871 -205.11858 10432.339 131842
9631.9531 -210.78975 10720.775 0
11694.088 -254.23604 12930.454 0
9694.5312 -209.38808 10649.485 0
8740.7148 -187.56204 9539.4121 0
8105.1445 -172.80246 8788.7393 0
7964.7119 -168.72073 8581.1426 0
6582.7837 -138.55908 7047.1201 0
6554.5332 -137.0919 6972.4995 65537
6264.2021 -130.19604 6621.7759 197123
6235.6504 -128.7932 6550.4268 3222830
6158.0303 -126.40059 6428.7388 1906714
6306.2065 -128.64363 6542.8198 1247245
6345.105 -128.64363 6542.8198 393216
0 0 0 0
0 0 0 0
0 0 0 0
0 0 0 0
0 0 0 0
0 0 0 0
-5329.8584 -82.042297 5981.2749 1714697
-5505.9878 -85.322716 6220.4331 464128
-5605.582 -87.453468 6375.7749 398592
-5558.9741 -87.316772 6365.8096 1187845
-5626.4087 -88.981804 6487.1978 265728
-5587.8403 -88.981804 6487.1978 529409
-5454.6685 -87.464836 6376.604 792834
-5370.6533 -86.72039 6322.3301 399104
-5241.2412 -85.227242 6213.4727 2816
-5421.0142 -88.776222 6472.21 793089
-5382.5352 -88.776222 6472.21 2044433
-5426.7759 -90.150368 6572.3921 1517326
-5347.4058 -89.476128 6523.2363 2374423
-5204.3345 -87.718353 6395.0864 1123591
-5181.3823 -87.974197 6413.7388 1124352
-5400.6738 -92.377365 6734.7505 860928
-5231.7021 -90.15554 6572.769 1124096
-5237.6357 -90.937019 6629.7427 1584647
-5261.6357 -92.04641 6710.6226 1782028
-5217.3418 -91.968895 6704.9712 596993
-5345.1294 -94.946915 6922.083 266240
-5265.1665 -94.25219 6871.4341 1792
-5126.4814 -92.487183 6742.7568 3072
-5239.271 -95.266991 6945.418 68096
-5223.437 -95.733574 6979.4346 200448
-5212.2539 -96.293571 7020.2607 594949
-5284.7334 -98.4207 7175.3389 1056268
-5226.7212 -98.132454 7154.3237 266496
-5166.5635 -97.798866 7130.0034 2304
-5210.6934 -99.450157 7250.3906 2304
-5081.7837 -97.798866 7130.0034 68864
-4982.4302 -96.693367 7049.4077 1024
-4907.0171 -96.037682 7001.605 595458
-4795.5107 -94.658325 6901.0435 2816
-4702.2295 -93.618011 6825.1997 1780236
-4483.7998 -90.046288 6564.8037 1714441
-4402.6362 -89.192688 6502.5728 1451272
-4525.416 -92.492256 6743.127 201472
-4556.5088 -93.960114 6850.1406 1452040
-4518.7949 -94.022789 6854.71 1781003
-4403.5688 -92.459129 6740.7114 859904
-4382.6963 -92.86602 6770.376 1781003
-4342.4448 -92.86602 6770.376 859136
-4443.5444 -95.917198 6992.8213 69120
-4358.2642 -94.964867 6923.3916 1280
-4217.3735 -92.77108 6763.4546 1280
-4197.4141 -93.22084 6796.2441 1792
-4098.2368 -91.902893 6700.1592 1536
-4027.8938 -91.212013 6649.791 1536
-4002.3364 -91.531685 6673.0962 68864
-3973.4395 -91.780602 6691.2437 1582857
-3965.915 -92.533226 6746.1133 1452035
-4035.5027 -95.11879 6934.6133 2044169
-4003.4299 -95.336815 6950.5088 859649
-3963.1489 -95.361877 6952.3359 397824
-3974.1421 -96.634247 7045.0977 68608
-4005.4521 -98.432999 7176.2354 859139
-3896.1091 -96.776756 7055.4868 925443
-3880.5676 -97.439781 7103.8247 793344
-3939.7646 -100.01471 7291.5498 1056260
-3860.0593 -99.081535 7223.5166 133632
-3817.1135 -99.081535 7223.5166 1280
-3797.6616 -99.698311 7268.4829 199168
-3762.0476 -99.900101 7283.1943 2048
-3747.8687 -100.68243 7340.229 1280
-3715.7893 -100.99664 7363.1367 1280
-3686.8611 -101.40501 7392.9092 266497
-3714.4658 -103.39691 7538.1279 529666
-3728.2808 -105.04892 7658.5679 792325
-3682.7483 -105.04892 7658.5679 1055750
-3576.043 -103.28214 7529.7607 1187594
-3512.0059 -102.71852 7488.6704 1581842
-3616.7539 -107.1404 7811.0469 1024
-3628.2764 -108.87974 7937.8525 1024
-3523.8765 -107.1404 7811.0469 1024
-3429.7422 -105.67091 7703.9136 2569503
-3383.9407 -105.67091 7703.9136 661506
-3278.127 -103.7712 7565.4155 2505238
-3233.1482 -103.7712 7565.4155 794114
-3225.1118 -104.97362 7653.0776 1320196
-3179.6121 -104.97362 7653.0776 859648
-3226.7971 -108.078 7879.4014 990720
-3116.5659 -105.92367 7722.3408 200960
-3046.6565 -105.09586 7661.9893 1280
-3024.7429 -105.92367 7722.3408 924422
-2912.4399 -103.56287 7550.2271 1280
-2861.5999 -103.34791 7534.5562 1024
-2820.8662 -103.49693 7545.4199 1280
-2849.4673 -106.23574 7745.0918 1319178
-2803.4207 -106.23574 7745.0918 68864
-2767.0979 -106.61038 7772.4058 859396
-2710.8367 -106.21652 7743.6909 1123077
-2599.1504 -103.59985 7552.9238 1781256
-2554.2463 -103.59985 7552.9238 2373389
-2509.342 -103.59985 7552.9238 3359519
-2434.0166 -102.32101 7459.6904 727297
-2424.0017 -103.79118 7566.8721 1536
-2434.0078 -106.19041 7741.7871 1779986
-2447.4924 -108.83682 7934.7231 1977364
-2382.3228 -108.02084 7875.2349 1536
-2330.9146 -107.80867 7859.7661 1792
-2288.6816 -108.02084 7875.2349 266496
-2238.9724 -107.88165 7865.0869 1792
-2192.2122 -107.88165 7865.0869 266752
-2238.4097 -112.55592 8205.8633 1024
-2145.55 -110.29034 8040.6929 1780235
-2097.7458 -110.29034 8040.6929 595968
-1949.1736 -104.86886 7645.4399 2438673
-1903.7194 -104.86886 7645.4399 858882
-1894.6027 -106.91953 7794.9434 134912
-1878.5006 -108.66894 7922.4834 1780743
-1831.3992 -108.66894 7922.4834 860928
-1783.5662 -108.62438 7919.2354 1650433
-1712.6786 -107.13523 7810.6694 3361305
-1769.6416 -113.78357 8295.3652 3360798
-1672.3065 -110.6077 8063.8286 3072
-1729.563 -117.77096 8586.0645 67328
-1629.4209 -114.32623 8334.9277 67072
-1546.4004 -111.9044 8158.3647 1536
-1497.8966 -111.9044 8158.3647 67584
-1465.895 -113.17849 8251.252 2306328
-1438.6337 -114.91946 8378.1777 1792
-1395.0205 -115.43227 8415.5635 133632
-1344.9875 -115.43227 8415.5635 332032
-1318.8842 -117.56536 8571.0752 67840
-1267.9268 -117.56536 8571.0752 463361
-1181.2423 -114.11394 8319.4502 332544
-1171.2185 -118.09032 8609.3477 1536
-1120.0336 -118.09032 8609.3477 68608
-1087.7094 -120.17413 8761.2676 1024
-1010.0843 -117.21082 8545.2275 1792
-959.28058 -117.21082 8545.2275 768
-849.28253 -109.57363 7988.4399 768
-861.242 -117.69856 8580.7861 133376
-818.2453 -118.86336 8665.7061 661505
-778.19788 -120.64192 8795.3721 1451785
-716.08618 -119.00977 8676.3799 793603
-661.63641 -118.49644 8638.9551 1780494
-628.59375 -122.05327 8898.2656 200448
-583.71411 -123.75426 9022.2754 133120
-549.89679 -128.38216 9359.6719 1024
-494.25092 -128.38216 9359.6719 68096
-442.44711 -129.50674 9441.6592 68608
-387.67542 -129.96321 9474.9375 132864
-323.6651 -126.95119 9255.3477 1536
-264.34671 -124.92256 9107.4502 768
-210.20038 -124.92256 9107.4502 68352
-159.29863 -127.51987 9296.8066 199936
-100.65048 -123.38139 8995.0918 1188352
-47.172165 -123.38139 8995.0918 1583109
6.3418608 -124.07989 9046.0156 1253636
62.07906 -128.11685 9340.3301 858115
119.18049 -129.82774 9465.0615 462849
174.85414 -129.38466 9432.7598 989959
242.87737 -136.07585 9920.5781 200448
301.85797 -136.07585 9920.5781 1779982
363.52631 -137.08942 9994.4717 925189
416.85352 -135.11459 9850.498 3072
475.41748 -135.11459 9850.498 1792
533.98145 -135.11459 9850.498 1792
573.51013 -130.77409 9534.0557 69376
630.19275 -130.77409 9534.0557 134400
660.20972 -125.69721 9163.9268 265984
750.1665 -131.93637 9618.791 1582862
824.9668 -134.81482 9828.6436 2560
918.21063 -140.12711 10215.934 1536
941.8349 -134.81482 9828.6436 1188361
1013.6588 -136.61949 9960.2129 68352
1061.2426 -135.13821 9852.2197 201216
1060.2825 -127.95367 9328.4336 267264
1125.1688 -129.03468 9407.2441 267008
1232.5111 -134.65161 9816.7451 1254404
1264.048 -131.85333 9612.7373 68352
1321.1982 -131.85333 9612.7373 267264
1405.5045 -134.45107 9802.124 398592
1463.7809 -134.45107 9802.124 1781514
1511.1064 -133.48372 9731.6006 531200
1604.1046 -136.47345 9949.5654 3162650
1695.6091 -139.12796 10143.093 989959
1731.485 -137.19246 10001.985 1792
1823.3845 -139.67709 10183.126 1280
1883.926 -139.67709 10183.126 1024
1899.1902 -136.42467 9946.0088 199168
1957.7705 -136.38625 9943.208 595969
2032.9963 -137.47569 10022.634 793600
2097.3926 -137.79161 10045.666 267264
2167.5254 -138.45648 10094.139 1319683
2227.5378 -138.45648 10094.139 133376
2307.0635 -139.63754 10180.243 1451274
2367.5879 -139.63754 10180.243 528640
2439.1099 -140.27 10226.353 531456
2499.9084 -140.27 10226.353 1979653
2595.2166 -142.16037 10364.169 2111495
2657.7422 -142.20894 10367.71 2768660
2719.3811 -142.20894 10367.71 267264
2781.0198 -142.20894 10367.71 1536
2841.7734 -142.16464 10364.48 1280
2903.3931 -142.16464 10364.48 68352
2975.1465 -142.65053 10399.904 2304
3109.8633 -146.0741 10649.498 2304
3208.7153 -147.71005 10768.767 4677929
3272.7385 -147.71005 10768.767 4940847
3368.6853 -149.1232 10871.793 1058560
3433.321 -149.1232 10871.793 530432
3447.9883 -146.99297 10716.488 2241288
3511.7009 -146.99297 10716.488 2503700
3575.4131 -146.99297 10716.488 1024
4971.459 -200.8091 14639.94 512
5058.4976 -200.8091 14639.94 256
4172.9565 -162.8533 11872.783 512
4218.1094 -161.87723 11801.622 512
4288.2729 -161.87723 11801.622 256
4014.0193 -149.08516 10869.02 256
4019.0454 -146.90686 10710.211 256
4068.614 -146.39929 10673.206 256
4186.3335 -148.32187 10813.371 256
4290.0493 -149.69763 10913.672 256
4372.3154 -150.29512 10957.231 256
4090.1553 -138.53206 10099.647 256
4182.8789 -139.62285 10179.172 256
4210.2456 -138.53206 10099.647 256
0 0 0 0
0 0 0 0
0 0 0 0
0 0 0 0
0 0 0 0
0 0 0 0
0 0 0 0
0 0 0 0
0 0 0 0
1604.1141 -46.193134 3367.7 2763817
1693.2574 -48.159065 3511.0256 3421747
1714.1315 -48.159065 3511.0256 4277056
1765.7207 -49.011639 3573.1821 4671814
1632.7484 -44.781914 3264.8149 197635
0 0 0 0
0 0 0 0
5053.6572 -133.83513 9757.2197 512
5224.3916 -136.78653 9972.3906 512
5343.6992 -138.34033 10085.67 512
5428.6343 -138.97968 10132.281 512
5574.0552 -141.13649 10289.523 132611
5685.3848 -142.39265 10381.104 264709
5910.9888 -146.45316 10677.134 330241
6116.9521 -149.94591 10931.772 1184261
6400.9663 -155.25838 11319.076 1907975
6805.3521 -163.34961 11908.966 1250052
7163.8228 -170.18344 12407.185 65792
7291.3428 -171.44745 12499.337 512
7365.6543 -171.44745 12499.337 512
7488.2236 -172.55948 12580.41 513
7286.019 -166.23944 12119.647 768
6735.4209 -152.17195 11094.062 768
6713.7539 -150.21149 10951.134 2108709
6795.6655 -150.58385 10978.28 1977892
6860.9346 -150.58385 10978.28 399113
7196.7461 -156.46577 11407.101 268551
7044.4688 -151.7253 11061.498 2176545
6978.5977 -148.91634 10856.711 3492143
6985.6216 -147.70013 10768.044 1254413
7107.6895 -148.91634 10856.711 1253899
7425.0342 -154.16516 11239.375 991754
7806.2383 -160.63441 11711.016 1649173
7875.8633 -160.63441 11711.016 4412990
7870.8105 -159.12465 11600.946 3756085
7609.916 -152.51367 11118.975 5137478
7575.0737 -150.50797 10972.749 5201737
7909.3896 -155.80862 11359.191 2964520
8175.481 -159.68694 11641.939 2108959
8244.6953 -159.68694 11641.939 1516825
9130.3447 -175.36835 12785.189 2306342
9034.6289 -172.09717 12546.705 397577
9966.3887 -188.29131 13727.335 989711
11810.937 -221.32727 16135.814 1713944
11906.869 -221.32727 16135.814 1121037
12002.801 -221.32727 16135.814 1713942
12098.896 -221.33026 16136.032 2502690
12196.069 -221.3528 16137.674 2700329
12292.353 -221.3589 16138.12 3029039
12388.097 -221.3553 16137.857 2962477
12484.041 -221.3553 16137.857 2435879
12579.645 -221.3493 16137.42 1777692
12676.288 -221.36157 16138.314 856593
12772.953 -221.37402 16139.223 658189
12870.098 -221.39455 16140.719 329221
12963.87 -221.35716 16137.992 66306
13061.357 -221.3833 16139.898 461064
13154.392 -221.33414 16136.315 592650
10605.943 -177.16223 12915.972 855822
10579.58 -175.45155 12791.255 197636
9234.7363 -152.05568 11085.585 395270
8560.5713 -139.95628 10203.481 724235
6332.7686 -102.80556 7495.0166 855824
5799.6401 -93.492958 6816.0825 1118226
5840.1636 -93.492958 6816.0825 5197648
5957.5063 -94.714249 6905.1206 2894892
6211.061 -98.06955 7149.7378 1185301
7618.563 -119.47564 8710.3438 1185300
7670.3486 -119.47564 8710.3438 1645338
8686.1982 -134.39148 9797.7803 329478
8999.9473 -138.31819 10084.056 724233
9563.6494 -146.00897 10644.751 513
11694.088 -177.36089 12930.454 131586
11370.22 -171.32262 12490.236 0
8616.3506 -128.98586 9403.6846 0
7767.3716 -115.52713 8422.4785 0
6980.9844 -103.1658 7521.2793 0
6550.5552 -96.188736 7012.6182 65536
6157.7617 -89.849083 6550.4268 591107
6184.1245 -89.666656 6537.127 4664368
6055.2397 -87.249565 6360.9097 10908804
6084.6611 -87.129333 6352.1445 2758941
6299.5552 -89.650093 6535.9194 1443594
6338.4136 -89.650093 6535.9194 393216
0 0 0 0
0 0 0 0
0 0 0 0
0 0 0 0
0 0 0 0
0 0 0 0
-5335.4614 -46.530819 5987.563 661760
-5580.5488 -48.995125 6304.6689 595712
-5605.582 -49.54771 6375.7749 661761
-5567.6763 -49.54771 6375.7749 464128
-5521.1274 -49.470264 6365.8096 595456
-5608.8525 -50.60318 6511.5918 67072
-5454.6685 -49.55415 6376.604 133120
-5416.7578 -49.55415 6376.604 1536
-5357.6089 -49.358498 6351.4268 133120
-5319.8481 -49.358498 6351.4268 133632
-5282.0874 -49.358498 6351.4268 1714698
-5423.1777 -51.041805 6568.0347 2175762
-5242.355 -49.697784 6395.0864 1912844
-5450.0991 -52.044666 6697.082 991745
-5410.2832 -52.044666 6697.082 264960
-5400.6738 -52.337399 6734.7505 199936
-5231.7021 -51.078598 6572.769 992001
-5235.9341 -51.50462 6627.5889 1057795
-5244.5259 -51.980312 6688.8008 1649677
-5217.3418 -52.105976 6704.9712 199168
-5229.6157 -52.63068 6772.4897 596224
-5265.1665 -53.399601 6871.4341 266240
-5269.2886 -53.859303 6930.5884 134912
-5248.3823 -54.068409 6957.4961 2816
-5223.437 -54.238895 6979.4346 1385234
-5214.1323 -54.575832 7022.791 3072
-5284.7334 -55.761318 7175.3389 1024
-5157.9595 -54.866566 7060.2026 463879
-5166.5635 -55.409008 7130.0034 594696
-5211.6406 -56.354805 7251.7085 265475
-5167.5879 -56.344563 7250.3906 529667
-5061.083 -55.64748 7160.6904 134144
-4901.522 -54.350254 6993.7642 1536
-4742.8076 -53.040302 6825.1997 200960
-4559.7988 -51.433704 6618.4639 463872
-4512.0879 -51.338558 6606.2207 727301
-4489.1475 -51.526054 6630.3472 199424
-4449.728 -51.526054 6630.3472 595968
-4485.3267 -52.402489 6743.127 924674
-4443.6445 -52.38372 6740.7114 464641
-4443.5562 -52.859402 6801.9214 990722
-4382.6963 -52.61425 6770.376 266240
-4485.1187 -54.342926 6992.8213 793602
-4443.5444 -54.342926 6992.8213 267008
-4395.6777 -54.265251 6982.8252 1648651
-4237.8198 -52.815281 6796.2441 661248
-4275.0835 -53.792583 6922.0029 331776
-4067.4285 -51.677155 6649.791 1792
-4027.8938 -51.677155 6649.791 397056
-4013.2207 -51.999298 6691.2437 859650
-3973.4395 -51.999298 6691.2437 1715210
-3965.915 -52.425701 6746.1133 992512
-4035.5027 -53.890579 6934.6133 2242319
-4004.4824 -54.028309 6952.3359 1978639
-4049.1177 -55.200294 7103.1465 267008
-4026.6482 -55.472523 7138.1768 200960
-4005.4521 -55.768284 7176.2354 2560
-3922.8018 -55.205563 7103.8247 463873
-3900.8921 -55.494701 7141.0312 529665
-3939.7646 -56.664417 7291.5498 265984
-3860.0593 -56.135719 7223.5166 528643
-3817.1135 -56.135719 7223.5166 1122309
-3797.6616 -56.485161 7268.4829 1024
-3734.8811 -56.190769 7230.6006 1280
-3711.2356 -56.485161 7268.4829 198401
-3715.7893 -57.220737 7363.1367 1536
-3691.189 -57.51955 7401.5879 1280
-3714.4658 -58.580639 7538.1279 1024
-3675.335 -58.671402 7549.8076 265728
-3630.4492 -58.671402 7549.8076 331520
-3568.3877 -58.39035 7513.6416 397313
-3512.0059 -58.196293 7488.6704 463363
-3596.1797 -60.356251 7766.6123 1792
-3438.2588 -58.456375 7522.1372 1280
-3393.5378 -58.456375 7522.1372 68352
-3420.1953 -59.702347 7682.4688 2438678
-3413.5823 -60.393425 7771.3965 1847305
-3347.4604 -60.036186 7725.4268 2242576
-3233.1482 -58.792702 7565.4155 530432
-3208.384 -59.16547 7613.3833 727808
-3163.1204 -59.16547 7613.3833 596736
-3155.4326 -59.878521 7705.1387 662528
-3097.4268 -59.643665 7674.9175 1057028
-3051.7971 -59.643665 7674.9175 1714702
-2957.3281 -58.674667 7550.2271 1536
-2906.395 -58.552879 7534.5562 1280
-2858.4395 -58.488213 7526.2349 1280
-2876.1487 -59.786461 7693.2925 199168
-2849.4673 -60.189007 7745.0918 1024
-2803.4207 -60.189007 7745.0918 332033
-2775.1375 -60.576759 7794.9873 133376
-2710.8367 -60.17812 7743.6909 727041
-2599.1504 -58.695625 7552.9238 859137
-2554.2463 -58.695625 7552.9238 1649157
-2509.342 -58.695625 7552.9238 2570515
-2468.989 -58.804016 7566.8721 1715208
-2450.3259 -59.442616 7649.0464 333056
-2522.5339 -62.351501 8023.3608 68608
-2489.0295 -62.709175 8069.3862 1024
-2382.3228 -61.200382 7875.2349 1792
-2289.8708 -60.004642 7721.3682 1024
-2288.6816 -61.200382 7875.2349 67328
-2238.9724 -61.121521 7865.0869 199936
-2192.2122 -61.121521 7865.0869 858881
-2193.3542 -62.486195 8040.6929 1977617
-2129.9797 -62.032734 7982.3413 133376
-2082.5225 -62.032734 7982.3413 1451783
-1983.5686 -60.463017 7780.3511 1057026
-1916.6593 -59.818439 7697.4072 1254146
-1894.6027 -60.576416 7794.9434 727808
-1878.5006 -61.567562 7922.4834 859648
-1837.7162 -61.779922 7949.8101 3072
-1834.4985 -63.299744 8145.3799 1979401
-1712.6786 -60.698627 7810.6694 2374157
-1649.6215 -60.093174 7732.7598 2835727
-1603.6482 -60.093174 7732.7598 598272
-1624.3646 -62.665993 8063.8286 991749
-1594.9042 -63.40065 8158.3647 464896
-1474.7329 -60.462364 7780.2676 1123074
-1497.8966 -63.40065 8158.3647 1584395
-1488.4443 -65.108871 8378.1777 1188614
-1483.0114 -67.117294 8636.6201 265728
-1422.8263 -66.702965 8583.3047 1536
-1371.7961 -66.702965 8583.3047 1280
-1318.8842 -66.607925 8571.0752 266240
-1285.7756 -67.545586 8691.7324 398336
-1199.13 -65.631538 8445.4336 1187593
-1210.4335 -69.145493 8897.6074 1319433
-1144.5781 -68.371521 8798.0137 134144
-1092.2715 -68.371521 8798.0137 332032
-967.62018 -63.615284 8185.9839 266241
-920.33105 -63.710739 8198.2666 1280
-849.28253 -62.080128 7988.4399 1280
-861.242 -66.683388 8580.7861 1536
-813.10602 -66.920349 8611.2773 1385738
-775.96094 -68.154518 8770.0898 1189636
-707.20007 -66.589569 8568.7129 1914122
-656.25671 -66.589569 8568.7129 2242575
-621.00134 -68.315376 8790.7891 2571034
-589.00641 -70.750015 9104.0771 333056
-549.89679 -72.736305 9359.6719 133376
-494.25092 -72.736305 9359.6719 67072
-454.63635 -75.394859 9701.7734 1536
-396.95663 -75.394859 9701.7734 1516300
-323.6651 -71.925575 9255.3477 1450761
-260.25723 -69.681313 8966.5566 661760
-204.63594 -68.902634 8866.3574 858117
-145.52995 -66.003166 8493.2549 67840
-100.65048 -69.903061 8995.0918 68096
-47.172165 -69.903061 8995.0918 1319682
6.4495687 -71.492737 9199.6504 858884
61.935371 -72.417999 9318.7119 2307088
117.33771 -72.417999 9318.7119 2635538
164.11443 -68.801865 8853.3906 791810
244.68645 -77.669487 9994.4717 1121285
300.3237 -76.703377 9870.1533 463104
359.00449 -76.703377 9870.1533 133888
416.85352 -76.550636 9850.498 133888
475.41748 -76.550636 9850.498 398080
533.98145 -76.550636 9850.498 1280
589.00677 -76.093483 9791.6719 1280
652.32117 -76.693115 9868.832 2816
709.45093 -76.526649 9847.4111 134656
750.1665 -74.749985 9618.791 768
824.9668 -76.380798 9828.6436 1280
891.99176 -77.123589 9924.2256 397056
941.8349 -76.380798 9828.6436 68096
1013.6588 -77.403259 9960.2129 1536
1067.4449 -77.011497 9909.8018 1280
1026.0887 -70.155663 9027.5957 1792
1079.7604 -70.155663 9027.5957 1122310
1143.6357 -70.787239 9108.8672 1517579
1336.4989 -78.984657 10163.707 3072
1393.7284 -78.803917 10140.449 1714450
1452.4696 -78.720093 10129.663 465408
1463.7809 -76.174706 9802.124 465152
1511.1064 -75.626648 9731.6006 201472
1582.4795 -76.278145 9815.4346 2504464
1705.1981 -79.270226 10200.453 3754021
1722.4105 -77.320511 9949.5654 1280
1822.1182 -79.080612 10176.054 1280
1837.9266 -77.203331 9934.4863 2048
1898.6553 -77.271111 9943.208 1792
1958.3219 -77.292877 9946.0088 200960
2035.9877 -78.002945 10037.381 464384
2115.4897 -78.740936 10132.345 463616
2175.7295 -78.740936 10132.345 990469
2185.197 -76.952972 9902.2705 1792
2253.4409 -77.274353 9943.626 1792
2302.0369 -76.922775 9898.3848 3886633
2422.7952 -78.939919 10157.95 859141
2497.5398 -79.396194 10216.663 2044934
2574.1736 -79.889435 10280.133 1584642
2656.8342 -80.542496 10364.169 661760
2718.4521 -80.542496 10364.169 2767382
2774.6587 -80.385719 10343.995 134144
2832.6189 -80.285454 10331.093 199680
2873.5198 -79.716179 10257.839 332546
2967.5239 -80.613129 10373.258 529664
3029.1956 -80.613129 10373.258 464128
3098.8074 -80.820206 10399.904 530177
3117.9299 -79.728134 10259.377 1846796
3273.8345 -82.108482 10565.68 925440
3358.7505 -82.652328 10635.661 2307850
3447.9883 -83.280457 10716.488 1583365
3485.2144 -82.652328 10635.661 3689243
3575.4131 -83.280457 10716.488 659202
4499.5347 -102.97069 13250.218 857354
4336.5386 -97.532997 12550.498 197890
4039.7634 -89.321335 11493.825 512
4108.0972 -89.321335 11493.825 512
4288.2729 -91.713295 11801.622 256
4116.209 -86.616158 11145.725 256
4057.7566 -84.033356 10813.371 256
4142.54 -84.451172 10867.136 256
4397.9448 -88.281075 11359.966 256
4672.0039 -92.363945 11885.347 395269
4742.666 -92.363945 11885.347 0
4626.8711 -88.785988 11424.938 256
4518.0547 -85.443535 10994.832 512
4177.8135 -77.88224 10021.849 256
0 0 0 0
0 0 0 0
0 0 0 0
0 0 0 0
0 0 0 0
0 0 0 0
0 0 0 0
0 0 0 0
0 0 0 0
1604.1141 -26.171223 3367.7 2763817
1706.4131 -27.497028 3538.3042 3290161
1727.4493 -27.497028 3538.3042 4803400
1772.5366 -27.875261 3586.9751 5001035
1654.7329 -25.713301 3308.7749 2303009
0 0 0 0
0 0 0 0
4945.563 -74.20388 9548.5195 512
5224.3916 -77.497894 9972.3906 512
5293.6294 -77.643822 9991.1689 512
5416.9717 -78.571281 10110.514 512
5500.9727 -78.914001 10154.615 512
5553.0625 -78.796486 10139.493 198659
5747.103 -80.674103 10381.104 66304
6086.1914 -84.526268 10876.799 460805
6181.9448 -84.953484 10931.772 263427
6452.1948 -87.744835 11290.962 0
7152.0161 -96.260376 12386.737 256
7237.5864 -96.419273 12407.185 512
7311.3511 -96.419273 12407.185 512
7213.9644 -94.184753 12119.647 331017
7186.5386 -92.898796 11954.171 792849
6663.7275 -85.296982 10975.974 1517340
6730.396 -85.314903 10978.28 1713946
6795.6655 -85.314903 10978.28 2308132
6860.9346 -85.314903 10978.28 2505765
7196.7461 -88.647377 11407.101 202242
7154.2598 -87.301353 11233.896 597510
7009.0449 -84.738266 10904.078 5533262
7041.8916 -84.355171 10854.781 3362348
7106.4263 -84.355171 10854.781 1979924
7048.8979 -82.919281 10670.013 1585172
7806.2383 -91.009171 11711.016 3098914
7900.2344 -91.290802 11747.255 1257224
7970.0752 -91.290802 11747.255 4085551
7572.4067 -85.982368 11064.169 4678200
7530.2607 -84.767456 10907.835 4743737
7595.1108 -84.767456 10907.835 2241304
8556.9795 -94.694145 12185.196 1581841
9054.333 -99.356842 12785.189 792075
9457.1572 -102.91323 13242.824 858124
9439.1494 -101.86919 13108.478 1976862
10254.44 -109.76174 14124.087 2306081
11810.937 -125.39537 16135.814 1975837
11906.869 -125.39537 16135.814 1252369
12003.134 -125.39884 16136.262 1515541
12099.567 -125.40402 16136.928 1120783
12196.407 -125.41329 16138.12 1054734
12292.152 -125.41125 16137.857 988940
12388.097 -125.41125 16137.857 1251089
12483.702 -125.40784 16137.42 1580310
12579.643 -125.40784 16137.419 1317139
12676.288 -125.4148 16138.314 1317139
12774.279 -125.43488 16140.898 1777691
12870.242 -125.43488 16140.898 724491
12998.774 -125.74996 16181.443 0
13061.357 -125.42711 16139.898 197635
13153.821 -125.39381 16135.615 921615
12784.618 -120.99186 15569.173 724236
12877.182 -120.99186 15569.173 526857
10759.521 -100.37318 12915.972 329477
9300.6436 -86.148796 11085.585 263170
8621.2334 -79.293755 10203.481 395013
5875.4004 -53.661385 6905.1206 393986
5916.4536 -53.661385 6905.1206 394243
6113.6709 -55.068012 7086.125 3682096
6242.2979 -55.841805 7185.6958 919303
6842.5859 -60.795731 7823.1646 1052172
7537.9829 -66.522102 8560.0312 263171
7722.1338 -67.690216 8710.3438 657928
8961.0137 -78.026665 10040.433 592135
9372.8105 -81.072266 10432.339 131586
11295.962 -97.06469 12490.236 0
8942.8477 -76.342827 9823.7568 65536
8616.3506 -73.078339 9403.6846 196608
6612.0547 -55.717663 7169.7212 196608
6426.9009 -53.810528 6924.312 262144
6088.7974 -50.655224 6518.2891 393216
6071.0527 -50.188171 6458.189 4993849
5962.2471 -48.978931 6302.585 8082528
5999.7183 -48.978931 6302.585 5776432
6084.6611 -49.364071 6352.1445 2099213
6170.7432 -49.753643 6402.2739 1574150
6338.4136 -50.792233 6535.9194 720896
0 0 0 0
0 0 0 0
0 0 0 0
0 0 0 0
0 0 0 0
0 0 0 0
-5335.4614 -10.933091 5987.563 1187845
-5580.5488 -11.512116 6304.6689 398336
-5548.8423 -11.524114 6311.2393 859137
-5558.9741 -11.623757 6365.8096 1319429
-5447.522 -11.468793 6280.9429 1780240
-5585.7539 -11.840985 6484.7754 792834
-5408.2412 -11.544365 6322.3301 1056260
-5370.6533 -11.544365 6322.3301 134656
-5241.2412 -11.345594 6213.4727 2174997
-5319.8481 -11.597495 6351.4268 465152
-5282.0874 -11.597495 6351.4268 1781001
-5361.4634 -11.856536 6493.292 2504725
-5251.3149 -11.697174 6406.0166 728832
-5381.3784 -12.074457 6612.6377 1452804
-5410.2832 -12.228649 6697.082 1780488
-5400.6738 -12.297431 6734.7505 2109712
-5360.6338 -12.297431 6734.7505 1024
-5346.4463 -12.357183 6767.4741 333056
-5244.5259 -12.213528 6688.8008 1451278
-5320.5483 -12.485241 6837.6055 1122058
-5279.8975 -12.485241 6837.6055 68096
-5367.4233 -12.79069 7004.8867 68608
-5338.6294 -12.821557 7021.791 1024
-5291.9531 -12.809625 7015.2559 1024
-5255.8853 -12.823383 7022.791 1024
-5259.7261 -12.935513 7084.1997 1779231
-5225.2119 -12.954364 7094.5234 6123367
-5145.2651 -12.859969 7042.8271 1318681
-5103.394 -12.859969 7042.8271 1280
-5148.292 -13.080428 7163.563 1024
-5105.7026 -13.080428 7163.563 792590
-5061.083 -13.075184 7160.6904 68609
-4930.8394 -12.846764 7035.5957 2816
-4756.4248 -12.49837 6844.7959 68096
-4559.7988 -12.085095 6618.4639 331521
-4520.4502 -12.085095 6618.4639 397057
-4489.1475 -12.106793 6630.3472 199424
-4449.728 -12.106793 6630.3472 1280
-4483.7197 -12.308315 6740.7114 332033
-4361.6479 -12.081197 6616.3286 397056
-4443.5562 -12.420083 6801.9214 529920
-4403.1172 -12.420083 6801.9214 397057
-4500.6543 -12.812887 7017.043 727296
-4458.9355 -12.812887 7017.043 2048
-4395.6777 -12.750407 6982.8252 727296
-4209.7969 -12.327658 6751.3042 463872
-4111.1382 -12.15464 6656.5503 331264
-4012.6611 -11.978804 6560.2529 793093
-4027.8938 -12.142298 6649.791 1583367
-4159.2656 -12.662614 6934.7446 267520
-4118.0366 -12.662614 6934.7446 1846538
-4076.8081 -12.662614 6934.7446 265216
-4030.813 -12.647659 6926.5547 1536
-3989.6326 -12.647659 6926.5547 662016
-4009.4426 -12.843022 7033.5464 1319689
-4026.6482 -13.034074 7138.1768 68352
-4028.2029 -13.177994 7216.9956 134400
-3906.9482 -12.918927 7075.1157 398080
-3955.1782 -13.220744 7240.4077 463873
-3915.5476 -13.232288 7246.73 1451274
-3882.7241 -13.267347 7265.9302 67328
-3839.5261 -13.267347 7265.9302 1024
-3797.6616 -13.27201 7268.4829 1024
-3734.8811 -13.202838 7230.6006 1024
-3711.2356 -13.27201 7268.4829 768
-3735.1936 -13.515055 7401.5879 1024
-3774.9399 -13.821704 7569.5259 726278
-3687.9871 -13.666251 7484.3921 1253641
-3643.49 -13.666251 7484.3921 265472
-3607.3928 -13.698148 7501.8599 1648909
-3562.7925 -13.698148 7501.8599 1253641
-3523.717 -13.71966 7513.6416 1536
-3596.1797 -14.181576 7766.6123 199681
-3438.2588 -13.735173 7522.1372 1280
-3431.0513 -13.887008 7605.29 924933
-3385.8357 -13.887008 7605.29 1056518
-3374.5208 -14.027933 7682.4688 201984
-3347.4604 -14.106373 7725.4268 332800
-3301.5305 -14.106373 7725.4268 596480
-3208.384 -13.901785 7613.3833 1057024
-3160.2239 -13.889055 7606.4116 596736
-3123.4136 -13.926563 7626.9531 332288
-3092.2092 -13.990538 7661.9893 661251
-3042.4185 -13.971076 7651.3311 528899
-2947.9307 -13.742655 7526.2349 660992
-2882.3242 -13.643908 7472.1553 1280
-2858.4395 -13.742655 7526.2349 529666
-2879.5061 -14.064095 7702.2734 1280
-2881.0376 -14.298969 7830.9028 1792
-2801.5667 -14.132928 7739.9697 1280
