# .PCD v0.7 - Point Cloud Data file format
VERSION 0.7
FIELDS x y z rgb
SIZE 4 4 4 4
TYPE F F F U
COUNT 1 1 1 1
WIDTH 1374
HEIGHT 1
VIEWPOINT 0 0 0 1 0 0 0
POINTS 1374
DATA ascii
7105.8154 416.74707 10473.404 2512159
6909.5015 401.71332 10095.587 2774048
6877.3062 396.3981 9962.0088 3035943
6875.9902 392.93829 9875.0596 920578
6907.8032 391.41422 9836.7578 1245952
7122.4692 400.18973 10057.298 2099200
7246.5532 403.77194 10147.323 2690570
7401.9048 409.02283 10279.285 1639424
7641.9907 418.83176 10525.796 917504
7507.7139 408.13034 10256.855 720896
7568.6938 408.13034 10256.855 327680
7691.1147 411.41696 10339.453 131584
7746.252 411.08087 10331.006 66048
7916.9043 416.832 10475.54 3230500
7979.1841 416.832 10475.54 2970399
7823.999 405.55963 10192.25 2643736
7707.1348 396.43161 9962.8516 2709272
7384.9634 376.96301 9473.5791 3365408
6679.2451 338.35931 8503.417 1845255
6825.2031 343.15594 8623.9629 1443072
6876.4756 343.15594 8623.9629 1968897
7066.4165 350.02475 8796.585 1902850
7238.7827 355.92847 8944.9531 917504
7805.8608 381.01233 9575.3438 786432
7948.019 385.1424 9679.1377 2167053
8014.1729 385.55655 9689.5459 2628115
8063.1089 385.1424 9679.1377 1050629
8312.3516 394.2341 9907.625 721409
8371.2549 394.2341 9907.625 918272
8337.583 389.90479 9798.8232 2103311
8401.7236 390.17807 9805.6914 3813417
8454.0957 389.90479 9798.8232 393216
8072.583 369.76132 9292.5918 3287068
7521.2876 342.16776 8599.1279 327680
7437.2695 336.06122 8445.6631 3547677
7623.5361 342.16776 8599.1279 1573889
7144.731 318.54135 8005.3652 2296067
7192.3252 318.54135 8005.3652 3019531
7369.6475 324.24908 8148.8086 3151631
7786.9761 340.37314 8554.0273 918272
7936.3633 344.65204 8661.5615 655360
7317.6001 315.73242 7934.7734 2562580
7364.7754 315.73242 7934.7734 524288
7388.1357 314.71802 7909.2803 720896
7318.7759 309.79172 7785.4761 1836807
7164.9707 301.37537 7573.9619 1179648
7398.3691 309.24915 7771.8403 1573637
7591.9883 315.37271 7925.7339 589824
7729.6323 319.10989 8019.6538 918016
7777.3115 319.10989 8019.6538 2958366
0 0 0 0
0 0 0 0
0 0 0 0
0 0 0 0
0 0 0 0
-5106.1318 260.34113 5692.2261 2816
-5328.2568 273.47894 5979.4775 463872
-5204.5142 268.92194 5879.8408 134656
-5218.9424 271.49097 5936.0117 332032
-5184.7314 271.54758 5937.249 331008
-5114.1309 269.68597 5896.5464 529408
-5028.6797 267.01016 5838.041 332032
-4993.9712 267.01016 5838.041 2048
-5033.9526 271.03152 5925.9663 1280
-4972.2827 269.59802 5894.6235 2304
-5002.3091 273.15128 5972.3135 2048
-4951.4272 272.30573 5953.8262 67072
-4903.1606 271.59286 5938.2397 1280
-4797.7363 267.68066 5852.7012 2048
-4823.0879 271.06097 5926.6104 68096
-4875.8511 276.04297 6035.5386 1792
-4758.7314 271.40973 5934.2354 1536
-4946.7588 284.24103 6214.7847 1792
-4852.9785 280.9509 6142.8481 2560
-4681.3696 273.07101 5970.5586 3072
-4641.8491 272.83447 5965.3867 3584
-4594.8628 272.15213 5950.4678 134144
-4559.4858 272.15213 5950.4678 2241300
-4877.8467 293.43164 6415.7329 1780494
-4927.7236 298.76828 6532.416 661252
-4904.9546 299.75024 6553.8862 1977365
-5056.9297 311.51233 6811.0581 397570
-5030.5918 312.39139 6830.2783 67072
-4882.4028 305.65643 6683.022 1024
-4837.8315 305.35098 6676.3438 1024
-4695.4653 298.81693 6533.4795 1024
-4706.5674 302.02191 6603.5552 1024
-4621.9062 299.08401 6539.3193 1280
-4659.1621 304.05243 6647.9512 265216
-4642.4331 305.55273 6680.7549 528896
-4514.3672 299.68781 6552.521 660480
-4583.9092 306.95319 6711.375 1054726
-4544.0083 306.95319 6711.375 1536
-4469.5806 304.60022 6659.9287 1792
-4254.082 292.50531 6395.48 67840
-4216.0591 292.50531 6395.48 792577
-4422.7876 309.64044 6770.1304 1319427
-4527.2969 319.86813 6993.7539 859136
-4530.8452 323.08618 7064.1147 1057792
-4504.103 324.18423 7088.123 992257
-4432.7686 322.06314 7041.7461 2440724
-4390.9033 322.06314 7041.7461 2637845
-4316.231 319.63367 6988.6274 1779727
-4418.1348 330.36017 7223.1567 67840
-4507.6909 340.3649 7441.9048 1280
-4463.4463 340.3649 7441.9048 768
-4439.0112 341.89053 7475.2627 330752
-4394.5684 341.89053 7475.2627 1536
-4417.3052 347.17038 7590.7036 1280
-4372.1763 347.17038 7590.7036 1024
-4378.2422 351.27789 7680.5117 396033
-4575.4927 370.97287 8111.1328 527875
-4527.27 370.97287 8111.1328 199168
-4391.3105 363.70618 7952.2505 1383949
-4397.2549 368.16229 8049.6807 1280
-4248.4727 359.61932 7862.8931 1280
-4188.8721 358.5192 7838.8398 1536
-4142.2681 358.5192 7838.8398 1024
-3929.2708 343.95383 7520.3745 1024
-3756.7451 332.63657 7272.9287 2108177
-3916.4788 350.81784 7670.4531 2305301
-3911.1719 354.46988 7750.3032 1280
-3865.0942 354.46988 7750.3032 1280
-3781.7805 351.01376 7674.7368 1280
-3824.7756 359.33997 7856.7852 133376
-3778.0647 359.33997 7856.7852 68096
-3683.0613 354.68927 7755.1001 2048
-3636.9553 354.68927 7755.1001 1536
-3616.1182 357.18524 7809.6733 1024
-3536.7026 353.88477 7737.5103 1536
-3522.8936 357.14844 7808.8687 1536
-3504.8928 360.06866 7872.7173 1536
-3490.4695 363.4404 7946.439 3840
-3350.5657 353.65991 7732.5933 529920
-3460.4519 370.34 8097.2954 529920
-3412.311 370.34 8097.2954 1792
-3364.1707 370.34 8097.2954 68096
-3273.9629 365.64191 7994.5737 463616
-3218.7253 364.76843 7975.4756 793088
-3094.1265 355.89081 7781.3706 594944
-3047.864 355.89081 7781.3706 792832
-3001.6016 355.89081 7781.3706 529408
-2961.2263 356.59973 7796.8711 2816
-2999.3896 366.93948 8022.9448 595200
-2951.6909 366.93948 8022.9448 68352
-2868.4739 362.45145 7924.8164 1536
-2821.3586 362.45145 7924.8164 990210
-2784.7183 363.82001 7954.7388 69120
-2744.489 364.75885 7975.2661 2048
-2801.6731 378.90509 8284.5664 793856
-2752.4189 378.90509 8284.5664 1320195
-2670.2512 374.29153 8183.6934 133888
-2621.5967 374.29153 8183.6934 596736
-2594.2356 377.38907 8251.4199 134400
-2628.1804 389.69626 8520.5107 1189126
-2584.8103 390.79797 8544.5977 1453059
-2622.1123 404.38516 8841.6748 1453825
-2569.5461 404.38516 8841.6748 1519107
-2837.5896 455.89517 9967.916 465408
-2800.949 459.60718 10049.076 330753
-2532.3328 424.58646 9283.3662 1536
-2429.8123 416.47427 9105.998 1536
-2421.9482 424.58646 9283.3662 200192
-2512.043 450.65033 9853.2393 200192
-2304.2451 423.24213 9253.9736 69376
-2219.1912 417.59009 9130.3945 1912335
-2155.824 415.8378 9092.0811 463873
-2110.6257 417.59009 9130.3945 1715470
-2230.0894 452.8735 9901.8477 69632
-2142.1511 446.81027 9769.2793 1792
-2077.3386 445.36713 9737.7246 1792
-2010.8019 443.46091 9696.0469 332032
-1953.1562 443.46091 9696.0469 1280
-1949.0447 455.98544 9969.8887 1280
-1890.261 456.1037 9972.4746 1280
-1846.3513 459.93475 10056.239 1792
-1817.7712 467.96875 10231.898 1517837
-1730.6792 460.97418 10078.965 597249
-1727.7563 476.70068 10422.817 925696
-1691.2578 483.98886 10582.17 465152
-1603.7877 476.69016 10422.587 1792
-1537.2517 475.27698 10391.688 3328
-1472.5823 474.34668 10371.349 1792
-1369.4489 460.40366 10066.491 727808
-1381.257 485.59515 10617.29 3030803
-1328.2987 489.33969 10699.163 1451522
-1311.4417 507.42935 11094.685 3161367
-1201.0797 489.33969 10699.163 1450499
-1213.6617 522.11725 11415.828 2042642
-1183.9144 539.48926 11795.657 594690
-1222.6887 592.23901 12949.004 265728
-1142.385 590.52368 12911.499 67584
-1065.6226 590.52368 12911.499 256
-1042.7919 622.73041 13615.684 0
-876.97528 567.78424 12414.313 0
-849.12323 600.27087 13124.616 0
-747.44147 581.85834 12722.036 131072
-685.67529 593.87115 12984.69 196608
-561.27527 547.80188 11977.409 2630686
-537.41229 600.72583 13134.564 1776402
-458.96182 600.25269 13124.219 330240
-380.93472 600.25269 13124.219 199938
0 0 0 0
0 0 0 0
0 0 0 0
0 0 0 0
0 0 0 0
0 0 0 0
0 0 0 0
59.475655 146.7448 3208.5002 789771
81.355133 151.98318 3323.0349 66048
101.95985 153.25835 3350.9158 66048
121.88198 153.25835 3350.9158 512
140.39278 151.73303 3317.5652 526853
160.11662 151.73303 3317.5652 2171933
183.01872 154.41454 3376.1951 3882551
203.57558 154.78285 3384.2483 1975067
223.56262 154.69066 3382.2324 3751734
0 0 0 0
0 0 0 0
0 0 0 0
0 0 0 0
0 0 0 0
0 0 0 0
0 0 0 0
0 0 0 0
0 0 0 0
0 0 0 0
0 0 0 0
0 0 0 0
0 0 0 0
1789.7727 548.15411 11985.11 1318934
1895.3459 558.26239 12206.122 768
2341.9595 664.37219 14526.159 1280
2395.509 655.39496 14329.876 768
2423.0439 640.16125 13996.8 1792
2506.2588 640.16125 13996.8 135172
2720.4883 672.55029 14704.97 1188114
3070.3567 735.41052 16079.377 1518101
3177.6763 738.13373 16138.917 2636580
3273.833 738.18024 16139.935 3755061
3369.6016 738.13916 16139.036 2767655
3465.2903 738.08319 16137.812 512
3560.8635 738.00647 16136.135 768
3657.0002 738.04742 16137.03 1280
3753.2847 738.1153 16138.515 1280
3849.3391 738.13574 16138.962 1280
3945.4124 738.15863 16139.462 1024
4041.3657 738.15863 16139.462 1024
4137.3394 738.16211 16139.539 1536
4233.0654 738.12244 16138.67 768
4328.8931 738.10175 16138.219 512
4424.8394 738.10175 16138.219 132610
3687.1187 601.9903 13162.21 131841
3303.6726 528.17596 11548.298 329478
3281.6338 513.97101 11237.714 197636
3295.7417 505.88123 11060.835 328965
3224.042 485.19464 10608.533 460295
0 0 0 0
0 0 0 0
0 0 0 0
0 0 0 0
0 0 0 0
0 0 0 0
0 0 0 0
0 0 0 0
2781.832 355.97165 7783.1387 918020
2885.4653 363.19156 7940.998 3023138
3719.1599 460.59201 10070.609 2232086
6055.8218 738.08923 16137.944 7365225
6151.8335 738.09723 16138.12 6839651
6247.9526 738.1178 16138.568 10261916
6343.9009 738.1178 16138.568 10854566
6439.5181 738.07983 16137.739 11774383
6535.1602 738.04578 16136.995 13353665
6633.0347 738.26123 16141.705 2961195
6729.0015 738.26123 16141.705 4868934
6824.4028 738.20007 16140.368 7763059
6919.438 738.1015 16138.213 9144455
7015.4609 738.10962 16138.39 5065292
7111.4512 738.11407 16138.487 2698283
7207.3555 738.10962 16138.39 1185810
7303.2632 738.10559 16138.303 1318678
7398.1899 738.00385 16136.078 1913377
7493.9155 737.98334 16135.63 2638635
5262.4023 511.67905 11187.602 2771500
5115.2227 491.1604 10738.972 2574888
5061.644 480.02432 10495.487 2312739
4755.7744 445.52466 9741.1699 2247712
4514.3696 417.82162 9135.457 2116381
3921.6003 358.64374 7841.5625 2313502
3608.9617 326.17429 7131.6343 2379037
3595.115 321.14984 7021.7773 2575387
3426.9382 302.61279 6616.4741 2706198
3441.907 300.48538 6569.9595 4870410
3252.5554 280.76831 6138.8564 6050324
3289.0527 280.76831 6138.8564 2166276
3440.6895 290.48926 6351.3999 11839141
3404.7217 284.33212 6216.7769 13874614
4510.2393 372.61023 8146.9331 3607819
5606.3037 458.23975 10019.179 5512705
5649.2085 456.89212 9989.7139 5651971
5711.3911 457.11554 9994.5986 5461268
5770.812 457.11554 9994.5986 3034896
5871.3916 460.34262 10065.156 3428638
5985.5264 464.55658 10157.293 1317381
6183.6494 475.13992 10388.691 1280
6564.4087 499.40854 10919.312 1448448
7003.8179 527.62012 11536.146 3627813
7063.0781 526.92438 11520.934 3366434
7112.5879 525.52167 11490.263 3170848
6871.4805 502.87729 10995.155 3565349
6936.8496 502.87729 10995.155 3499557
7032.0479 505.01947 11041.993 3170592
7109.3965 505.85205 11060.197 3039008
7175.1528 505.85205 11060.197 3170339
7260.623 507.22931 11090.311 3039009
7380.1489 510.93948 11171.432 3039010
7028.8999 482.28168 10544.843 3368231
7043.5483 479.01431 10473.404 3302438
7105.8154 479.01431 10473.404 3171620
6919.7124 462.41678 10110.507 3696943
6969.522 461.73438 10095.587 3360027
7068.0703 464.26501 10150.918 1379840
7147.7451 465.52362 10178.437 589824
7335.0005 473.70886 10357.402 2625798
7405.814 474.30032 10370.335 2561032
7546.9287 479.34732 10480.685 1509120
7641.9907 481.41055 10525.796 3749926
7745.3057 483.95587 10581.448 2696214
7714.9282 478.17392 10455.028 66048
7691.1147 472.88791 10339.453 512
7746.252 472.50156 10331.006 3561260
7916.9043 479.112 10475.54 3038498
7979.1841 479.112 10475.54 2776348
7838.0444 466.99222 10210.547 3039775
7820.6577 462.37524 10109.6 3302178
7766.3667 455.66354 9962.8516 3694630
6498.1084 378.36737 8272.8096 2308366
6729.8003 388.91449 8503.417 1181440
6732.7378 386.18317 8443.6982 1969666
6973.6782 397.04291 8681.1406 1903362
7118.7148 402.32288 8796.585 655360
7726.123 433.46686 9477.5312 657923
7782.4697 433.46686 9477.5312 3821367
7838.8159 433.46686 9477.5312 4080176
7893.8521 433.39487 9475.958 327936
8104.9819 441.83316 9660.457 656384
8371.2549 453.1377 9907.625 853760
8337.583 448.16153 9798.8232 2895385
8471.9365 452.22351 9887.6367 3619871
8785.2148 465.71451 10182.61 0
8845.7529 465.71451 10182.61 3556910
7521.2876 393.29196 8599.1279 1184261
7572.4116 393.29196 8599.1279 2300171
7623.5361 393.29196 8599.1279 918528
7280.8247 373.10968 8157.853 2429190
7192.3252 366.13547 8005.3652 2953992
7369.6475 372.69601 8148.8086 2955016
7852.4829 394.52036 8625.9863 2765331
7903.7666 394.52036 8625.9863 3361835
7194.1479 356.78442 7800.9092 4016945
7240.5269 356.78442 7800.9092 256
7272.4888 356.07855 7785.4761 196608
7318.7759 356.07855 7785.4761 1182464
7352.1636 355.4549 7771.8403 1182469
7628.4819 366.51068 8013.5693 3221791
7676.125 366.51068 8013.5693 394240
7814.8657 370.8335 8108.085 722432
8115.6577 382.74585 8368.543 2500888
0 0 0 0
0 0 0 0
0 0 0 0
0 0 0 0
0 0 0 0
-5061.0864 291.5878 5642.0107 1385738
-5328.2568 309.02859 5979.4775 134400
-5306.8921 309.85684 5995.5034 332288
-5228.5073 307.34448 5946.8911 200448
-5152.6963 304.95023 5900.564 2304
-5114.1309 304.74258 5896.5464 266240
-5076.2515 304.57321 5893.269 200448
-5044.0181 304.74258 5896.5464 331777
-5007.3276 304.64322 5894.6235 68352
-4935.2056 302.37155 5850.6689 2304
-4900.4219 302.37155 5850.6689 464384
-4870.6729 302.68442 5856.7227 134656
-4830.8472 302.37112 5850.6602 1122055
-4784.1987 301.62314 5836.187 266496
-4762.9404 302.47659 5852.7012 1024
-4794.0122 306.6904 5934.2354 595968
-4733.314 305.05231 5902.5391 595715
-4946.7588 321.18961 6214.7847 67072
-4852.9785 317.47186 6142.8481 134400
-4794.5337 316.02673 6114.8862 266752
-4758.1787 316.02673 6114.8862 1536
-4787.1479 320.39877 6199.4819 2304
-4915.9902 331.57495 6415.7329 1122310
-4916.2549 334.18573 6466.25 859398
-4895.5312 335.39978 6489.7407 68608
-4875.5376 336.68353 6514.5801 200704
-4847.582 337.43356 6529.0928 331522
-4875.1528 342.09204 6619.231 768
-4898.8496 346.55231 6705.5337 1280
-4842.6709 345.38885 6683.022 768
-4695.4653 337.66028 6533.4795 1024
-4635.3306 336.11639 6503.6064 1024
-4596.6646 336.11639 6503.6064 1024
-4682.1523 345.2717 6680.7549 1024
-4642.4331 345.2717 6680.7549 1280
-4591.627 344.43994 6664.6616 1280
-4440.2764 335.98581 6501.0801 1536
-4601.105 351.21252 6795.7056 1024
-4601.1519 354.32745 6855.9775 1280
-4429.9854 344.19537 6659.9287 1280
-4236.0869 332.09836 6425.8608 2560
-4346.5669 343.86087 6653.4565 1122050
-4495.9277 358.94354 6945.2954 332288
-4546.2441 366.3251 7088.123 1517320
-4511.2788 366.90869 7099.415 1188356
-4461.9624 366.3251 7088.123 1188864
-4452.9204 369.06842 7141.2046 2570510
-4344.4126 363.5412 7034.2568 1714947
-4377.8574 369.90067 7157.3076 3228442
-4375.1914 373.30383 7223.1567 924929
-4456.46 384.00705 7430.2559 595202
-4412.2852 384.00705 7430.2559 331264
-4374.4731 384.5665 7441.0806 1280
-4417.3052 392.29922 7590.7036 1536
-4423.9048 396.94064 7680.5117 1024
-4378.2422 396.94064 7680.5117 1024
-4536.3906 415.61331 8041.8145 768
-4238.4839 392.45609 7593.7388 768
-4296.6758 402.12762 7780.8755 527619
-4308.2505 407.59921 7886.7476 1280
-4235.4761 405.12329 7838.8398 1280
-4188.8721 405.12329 7838.8398 1280
-4131.127 404.03369 7817.7568 1280
-3942.0569 389.92926 7544.8462 1024
-3885.4709 388.75562 7522.1372 1024
-3942.5132 399.056 7721.4419 1450506
-3896.6072 399.056 7721.4419 1280
-3865.0942 400.54761 7750.3032 133120
-3781.7805 396.64221 7674.7368 527618
-3751.9177 398.31592 7707.1221 529920
-3778.0647 406.05075 7856.7852 727296
-3674.759 399.892 7737.6182 727296
-3635.1514 400.59671 7751.2534 793601
-3589.0679 400.59671 7751.2534 1187847
-3536.7026 399.88644 7737.5103 1536
-3460.3147 396.40543 7670.1558 1536
-3498.2241 406.10001 7857.7378 1280
-3501.3796 411.96783 7971.2764 1024
-3427.1772 408.77002 7909.4014 1280
-3380.1538 408.77002 7909.4014 1280
-3412.311 418.48065 8097.2954 1024
-3364.1707 418.48065 8097.2954 1280
-3328.6875 420.07809 8128.2036 1280
-3288.4783 421.11731 8148.312 1536
-3171.3088 412.18484 7975.4756 463616
-3053.9355 402.95428 7796.8711 859394
-2919.4082 391.14099 7568.292 1451013
-2961.2263 402.95428 7796.8711 134656
-3182.3796 439.93481 8512.417 1792
-3009.2095 422.71802 8179.2847 1280
-2907.2441 415.10245 8031.9287 768
-2731.323 396.49655 7671.9189 1280
-2791.9043 412.17401 7975.2661 1536
-2861.2595 429.71088 8314.5918 1280
-2811.8269 429.71088 8314.5918 1280
-2779.3765 432.35257 8365.7061 69632
-2753.7466 436.17084 8439.5869 1320194
-2643.2925 426.44608 8251.4199 1780741
-2652.4431 436.01434 8436.5596 69120
-2629.8967 440.64062 8526.0742 134912
-2577.5237 440.35312 8520.5107 135168
-2526.8669 440.35312 8520.5107 1319943
-2569.5461 456.95135 8841.6748 67840
-2713.8655 492.69543 9533.2969 1792
-2565.2927 475.65637 9203.6025 1536
-2522.1892 477.85684 9246.1807 1536
-2270.6768 439.79025 8509.6201 1536
-2421.9482 479.77866 9283.3662 199680
-2471.7456 501.06165 9695.1768 67072
-2393.7937 496.84595 9613.6055 2048
-2249.2278 478.25961 9253.9736 1280
-2164.9084 471.87283 9130.3945 859393
-2228.8179 498.29709 9641.6846 990722
-2215.9932 508.50806 9839.2598 2043409
-2142.1511 504.89139 9769.2793 661248
-2084.0701 504.89139 9769.2793 1024
-2010.8019 501.1066 9696.0469 1024
-1936.5945 496.85754 9613.8301 1536
-1944.0261 513.9325 9944.2178 132608
-1890.261 515.39282 9972.4746 1582859
-1830.9718 515.39282 9972.4746 4412976
-1776.1033 516.67877 9997.3564 4084268
-1690.3781 508.76663 9844.2627 1024
-1726.4022 538.24506 10414.648 1792
-1665.7529 538.65533 10422.587 2560
-1595.9033 536.00726 10371.349 2816
-1533.5042 535.74921 10366.355 1792
-1429.2969 520.25177 10066.491 1792
-1369.4489 520.25177 10066.491 1319427
-1370.9114 544.60797 10537.767 1714952
-1328.2987 552.94922 10699.163 1319428
-1311.4417 573.39038 11094.685 1385475
-1237.5806 569.75336 11024.311 4346419
-1213.6617 589.98755 11415.828 2832928
-1152.8474 593.62079 11486.129 1846804
-1148.575 628.65912 12164.095 1123343
-1076.2561 628.65912 12164.095 794379
-1046.4371 655.27228 12679.04 1536
-1033.6418 697.505 13496.212 1024
-821.55402 601.04486 11629.779 768
-803.16876 641.59082 12414.313 256
-729.36224 641.59082 12414.313 0
-632.48431 619.01093 11977.409 262400
-531.01453 585.63739 11331.655 657156
-464.24069 586.3902 11346.222 2827035
-399.23718 590.01538 11416.366 1511177
-331.36374 590.01538 11416.366 1840913
0 0 0 0
0 0 0 0
0 0 0 0
0 0 0 0
0 0 0 0
0 0 0 0
0 0 0 0
0 0 0 0
81.136551 171.27812 3314.1067 256
101.95118 173.16576 3350.6309 131842
121.88198 173.18048 3350.9158 1645334
139.96455 170.9339 3307.446 855561
159.82567 171.14532 3311.5369 2172448
180.41257 172.00229 3328.1187 3949118
202.63242 174.09285 3368.5693 7239026
215.83565 168.75742 3265.3328 8818575
223.26265 160.15897 3098.9587 9805215
0 0 0 0
0 0 0 0
0 0 0 0
0 0 0 0
0 0 0 0
0 0 0 0
0 0 0 0
0 0 0 0
0 0 0 0
0 0 0 0
0 0 0 0
0 0 0 0
1789.7727 619.40894 11985.11 4145724
1903.5688 633.56799 12259.078 3093803
2489.2703 797.95593 15439.864 3685685
2627.5471 812.32642 15717.922 791821
2475.2529 738.96259 14298.387 68355
2636.1809 760.87531 14722.381 1121811
2974.7603 831.00696 16079.377 529673
3081.1311 833.9231 16135.803 727306
3177.6763 834.08411 16138.917 1846042
3273.8323 834.13647 16139.932 1188111
3369.5332 834.0733 16138.709 2108701
3465.2756 834.0235 16137.746 725770
3560.8826 833.94476 16136.221 1120267
3657.0002 833.98657 16137.03 1316622
3753.2847 834.06329 16138.515 987146
3849.3391 834.08643 16138.962 855818
3945.4124 834.11224 16139.462 658182
4041.6091 834.16248 16140.435 855560
4137.5684 834.16248 16140.435 789768
4233.5278 834.16248 16140.435 526853
4328.8931 834.04797 16138.219 526083
4424.9629 834.07129 16138.67 460290
3981.3643 734.52911 14212.602 394500
3765.3718 680.24323 13162.21 591879
3372.3306 596.8338 11548.298 657671
3295.7417 571.64099 11060.835 920843
3319.5056 564.49939 10922.65 1117453
3253.4543 542.65137 10499.907 1182989
3147.9844 515.17493 9968.2588 1249038
0 0 0 0
0 0 0 0
0 0 0 0
0 0 0 0
0 0 0 0
2791.0422 410.40298 7940.998 1051913
3035.3103 438.89679 8492.332 591362
3122.9585 444.18192 8594.5957 2368542
3624.1008 507.16187 9813.2119 2237981
3888.1213 535.48877 10361.316 2634021
6151.7666 834.03375 16137.944 2832169
6247.9526 834.06604 16138.568 2832423
6343.9009 834.06604 16138.568 2832933
6438.709 833.9184 16135.712 2637094
4892.895 624.40698 12081.819 2375460
4964.7251 624.40698 12081.819 2376489
6727.8828 834.08948 16139.021 2114345
6823.8335 834.08948 16139.021 1917481
6919.3994 834.04303 16138.123 1918508
7015.1489 834.01971 16137.672 2050350
7111.2539 834.03864 16138.038 2247984
7207.1162 834.02911 16137.854 2116908
7303.1436 834.03864 16138.038 2577713
7397.9849 833.91418 16135.63 2512174
5256.5635 584.94427 11318.244 2577965
5051.377 555.00659 10738.972 2643756
4690.3462 508.9071 9846.9805 2644010
4745.3882 508.53183 9839.7197 2709802
4573.271 484.11908 9367.3506 2512678
4260.9302 445.62851 8622.5859 2446625
3781.0139 390.7356 7560.4482 2381087
3649.2725 372.69067 7211.292 2512670
3651.3611 368.57385 7131.6343 2907171
3471.9419 346.44012 6703.3633 3892260
3441.907 339.54562 6569.9595 3891230
3365.1677 328.25012 6351.3999 6711577
3173.937 306.16135 5923.9985 2628107
3450.4141 329.17789 6369.3516 1707018
3404.7217 321.2926 6216.7769 13615035
3409.272 318.267 6158.2339 13216939
4558.6753 421.04605 8146.9331 3753259
5476.645 500.51315 9684.5635 4939571
5696.6411 515.20227 9968.7871 4808754
5785.1904 517.82318 10019.501 4281388
5886.4512 521.51697 10090.973 4082732
6244.1318 547.62482 10596.141 1118983
6307.1289 547.62482 10596.141 1024
6564.4087 564.3269 10919.312 1186053
7003.8179 596.20575 11536.146 5076274
7078.1436 596.68958 11545.508 4222497
6806.1113 568.24652 10995.155 3961120
6763.6353 559.32819 10822.591 4223779
6827.979 559.32819 10822.591 3894814
6823.5957 553.75085 10714.674 4289574
6742.6191 542.11847 10489.596 3960867
6804.9829 542.11847 10489.596 4026404
6706.4536 529.41736 10243.839 3960355
6657.0312 520.78656 10076.839 3829027
6804.7061 527.59125 10208.505 3631903
6865.3984 527.59125 10208.505 3368986
6849.48 521.75543 10095.587 3828774
6891.499 520.39612 10069.284 5337915
6969.522 521.75543 10095.587 394240
7147.8462 530.53632 10265.489 657152
7273.4229 535.2865 10357.402 2634777
7422.3076 541.6579 10480.685 4208154
7475.2319 540.97864 10467.541 2758146
7546.9287 541.6579 10480.685 1574144
7527.7227 535.85516 10368.406 4670518
7441.7983 525.43604 10166.804 197376
7651.0083 535.85516 10368.406 1024
7650.2041 531.51654 10284.456 1718036
7711.3486 531.51654 10284.456 3431462
7916.9043 541.39203 10475.54 3170338
7979.1841 541.39203 10475.54 3170336
7926.2754 533.6369 10325.484 2908189
7797.1353 520.9082 10079.193 3103775
7794.4023 516.75421 9998.8164 3629098
6497.2959 427.49808 8271.7754 2768150
6681.251 436.29926 8442.0723 1509888
6596.4766 427.55154 8272.8096 2167043
6851.7202 440.80844 8529.3213 1838850
6833.1382 436.3833 8443.6982 919040
7688.2817 487.41437 9431.1113 3625012
7752.8467 487.94897 9441.4561 3362353
7695.0405 480.8295 9303.6992 4017204
7415.3203 460.0441 8901.5176 393728
8244.5869 507.86694 9826.8545 656128
8391 513.24902 9930.9932 919552
8413.1514 511.00827 9887.6367 2960923
8471.9365 511.00827 9887.6367 2896922
8785.2148 526.25293 10182.61 512
8845.7529 526.25293 10182.61 4085303
7570.9292 447.3494 8655.8838 2106384
7366.5938 432.33698 8365.4043 1312000
7416.3291 432.33698 8365.4043 1377536
7349.4023 425.58145 8234.6904 2560262
7097.6592 408.28406 7899.9976 3282188
7145.9497 408.35965 7901.4609 3217932
7786.9761 442.08527 8554.0273 1578755
7791.2427 439.45746 8503.1807 3033891
7233.0762 405.34451 7843.1206 3886124
7279.7056 405.34451 7843.1206 131584
7388.1357 408.76376 7909.2803 256
7435.1592 408.76376 7909.2803 854784
7570.7397 413.60187 8002.8936 1775367
7686.5366 417.30539 8074.5547 4343348
7330.2568 395.49283 7652.4971 2171921
7931.5225 425.29355 8229.1191 329728
8182.3862 436.05527 8437.3506 1381637
0 0 0 0
0 0 0 0
0 0 0 0
0 0 0 0
0 0 0 0
-5003.6392 321.44061 5577.9692 266752
-5250.5874 339.55539 5892.3154 200704
-5263.9253 342.70444 5946.9609 463617
-5228.5688 342.70444 5946.9609 529664
-5076.5786 335.00766 5813.3984 1536
-5035.2002 334.55478 5805.54 331264
-5004.6182 334.81793 5810.1064 792832
-5059.6538 340.85251 5914.8247 990721
-4965.1973 336.83032 5845.0273 68096
-4935.2056 337.15543 5850.6689 2109705
-4900.4219 337.15543 5850.6689 3030550
-4865.6382 337.15543 5850.6689 2307338
-4801.248 335.08917 5814.813 794112
-4841.1582 340.32504 5905.6714 1912581
-4818.0542 341.17526 5920.4253 596224
-4857.6685 346.51187 6013.0317 728064
-4892.1362 351.5578 6100.5938 201472
-4855.8667 351.5578 6100.5938 1846278
-4803.5469 350.38705 6080.2778 529920
-4785.0459 351.68414 6102.7861 398336
-4748.7632 351.68414 6102.7861 1536
-4994.8706 372.75842 6468.4888 2560
-4886.2041 367.47815 6376.8599 1024
-4855.0151 367.98773 6385.7031 660741
-4914.269 375.41452 6514.5801 1280
-4856.9478 373.98309 6489.7407 1536
-4818.3647 373.98309 6489.7407 1280
-4755.8994 372.1145 6457.3149 462594
-4934.2886 389.21396 6754.0425 397313
-4894.6396 389.25418 6754.7402 1024
-4854.0259 389.21771 6754.1074 1280
-4798.2544 387.95508 6732.1968 1280
-4701.7666 383.35144 6652.3101 1280
-4662.2168 383.35144 6652.3101 1024
-4631.25 384.06323 6664.6616 1024
-4536.2109 379.42801 6584.2266 68096
-4552.0034 384.06323 6664.6616 199936
-4635.874 394.57425 6847.0591 2048
-4658.582 400.0195 6941.5518 1536
-4560.3911 395.08817 6855.9775 68096
-4353.4648 380.56262 6603.9155 133632
-4227.3384 372.90015 6470.9482 1648909
-4188.8667 372.90015 6470.9482 1254148
-4408.6938 396.10751 6873.666 464640
-4468.7451 405.25943 7032.48 991233
-4385.4248 401.45938 6966.5376 1583877
-4385.125 405.25943 7032.48 398592
-4344.4126 405.36185 7034.2568 1847301
-4377.8574 412.45285 7157.3076 1255424
-4364.9893 415.27695 7206.314 1716226
-4322.1455 415.27695 7206.314 2043912
-4308.9556 418.1546 7256.2505 1450499
-4265.8154 418.1546 7256.2505 923395
-4405.2402 436.23331 7569.9707 1056007
-4360.2344 436.23331 7569.9707 726024
-4249.9346 429.6326 7455.4287 768
-4210.3564 430.11749 7463.8428 768
-4165.9819 430.11749 7463.8428 512
-4144.8091 432.53873 7505.8589 256
-4084.9792 430.93472 7478.0239 768
-4064.1138 433.45102 7521.6895 1024
-4062.5056 438.10004 7602.3643 2048
-4017.3074 438.10004 7602.3643 3072
-3930.1919 433.47684 7522.1372 1187844
-3885.4709 433.47684 7522.1372 1318920
-3879.0867 437.80365 7597.2207 1792
-3853.3958 440.02774 7635.8154 3072
-3823.1594 441.7796 7666.2158 858624
-3857.5664 451.13361 7828.5361 1253380
-3729.4905 441.48206 7661.0527 331521
-3764.4807 451.13361 7828.5361 201216
-3673.2676 445.71335 7734.478 1253891
-3635.1514 446.68005 7751.2534 1536
-3568.9607 444.17758 7707.8281 1188358
-3490.0566 440.0072 7635.459 1056008
-3444.6616 440.0072 7635.459 1280
-3489.6094 451.70135 7838.3877 1280
-3471.7961 455.47812 7903.9268 1280
-3427.1772 455.79361 7909.4014 1280
-3436.4868 463.38986 8041.2188 1024
-3538.614 483.89285 8397.0078 2108181
-3488.6917 483.89285 8397.0078 1024
-3438.769 483.89285 8397.0078 330752
-3383.761 483.16669 8384.4072 1024
-3250.1619 471.02902 8173.7817 1280
-3201.5667 471.02902 8173.7817 1536
-3128.4375 467.36386 8110.1802 462849
-3080.22 467.36386 8110.1802 1536
-3093.292 476.81119 8274.1201 726528
-3028.2285 474.32523 8230.9805 1536
-2936.502 467.51254 8112.7598 1280
-2859.4922 462.85449 8031.9287 2048
-2859.1143 470.65298 8167.2563 266240
-2854.7405 478.05179 8295.6484 1792
-2829.426 482.14236 8366.6318 267008
-2770.0952 480.47919 8337.7705 2048
-2768.9641 489.03415 8486.2256 1254402
-2689.3311 483.78494 8395.1357 793600
-2703.5935 495.54749 8599.252 133632
-2662.377 497.39865 8631.375 2048
-2543.5288 484.53397 8408.1338 266752
-2398.6687 466.099 8088.231 594689
-2443.5513 484.53397 8408.1338 133376
-2570.4568 520.34302 9029.5293 2048
-2516.7737 520.34302 9029.5293 1536
-2510.5747 530.37433 9203.6025 1536
-2455.8567 530.37433 9203.6025 1536
-2371.7905 523.89172 9091.1104 1024
-2317.7412 523.89172 9091.1104 1536
-2393.7937 554.00146 9613.6055 2560
-2336.6382 554.00146 9613.6055 3328
-2286.1404 555.61963 9641.6846 727808
-2176.4966 542.57648 9415.3467 2570260
-2090.9814 535.01849 9284.1934 991744
-2119.7129 557.0755 9666.9492 663040
-2069.7556 559.10565 9702.1787 1386505
-2012.0736 559.10565 9702.1787 4608
-1876.8766 536.93054 9317.373 267521
-1930.1483 568.96277 9873.2295 2900251
-1883.629 572.66565 9937.4854 530433
-1781.4073 559.12524 9702.5186 530176
-1723.7231 559.12524 9702.5186 2109457
-1683.7667 565.07477 9805.7598 330243
-1705.7903 592.99756 10290.306 1792
-1615.6042 582.53839 10108.808 1792
-1592.2249 596.29022 10347.443 68864
-1533.5042 597.38007 10366.355 69376
-1445.788 586.79291 10182.637 925440
-1434.196 607.52679 10542.433 1715719
-1372.9233 608.14923 10553.232 594436
-1316.2614 610.97131 10602.205 2439435
-1253.2284 610.97131 10602.205 2241803
-1196.9331 614.43005 10662.225 1252870
-1203.4994 652.34949 11320.241 1280
-1136.1975 652.34949 11320.241 793862
-1081.9235 660.30048 11458.215 1387283
-1047.625 682.33032 11840.5 862475
-993.32593 693.56903 12035.525 533769
-899.99585 677.18445 11751.203 598793
-765.70789 624.63037 10839.23 1123856
-701.26562 624.63037 10839.23 595975
-680.73798 667.7041 11586.691 331267
-611.85193 667.7041 11586.691 592387
-531.01453 653.0072 11331.655 525314
-436.46356 614.72473 10667.338 2956569
-396.78421 653.84662 11346.222 3679775
-306.82452 609.1687 10570.925 2956056
0 0 0 0
0 0 0 0
0 0 0 0
0 0 0 0
0 0 0 0
0 0 0 0
40.536572 185.51965 3219.3284 526855
60.965061 189.52588 3288.8486 724234
81.917137 192.81877 3345.9902 197890
101.95118 193.08618 3350.6309 66048
122.83849 194.61804 3377.2131 1118990
147.40265 200.72646 3483.2126 987404
167.55627 200.06372 3471.7124 1646105
179.61876 190.94504 3313.4753 4936784
196.42233 188.17073 3265.3328 7765887
207.99004 181.33075 3146.6382 9805726
226.14789 180.89098 3139.0068 12568777
240.35812 177.60136 3081.9221 10068132
257.38986 176.7149 3066.5393 9081747
277.00391 177.60136 3081.9221 462347
0 0 0 0
0 0 0 0
0 0 0 0
0 0 0 0
0 0 0 0
0 0 0 0
0 0 0 0
0 0 0 0
0 0 0 0
0 0 0 0
0 0 0 0
2318.5911 828.74365 14381.216 8027255
2627.5471 905.77386 15717.922 1579285
2793.5188 929.91595 16136.861 1185552
2889.457 929.91595 16136.861 1383445
2985.249 929.87042 16136.071 1778456
3081.5591 929.98413 16138.044 2041625
3180.5945 930.88855 16153.739 2304541
3276.9089 930.96686 16155.099 1646352
3373.137 931.01703 16155.969 2106393
3469.1887 931.01703 16155.969 2566687
3006.5784 785.12958 13624.379 2237466
3070.7495 780.84998 13550.115 2500125
3331.2659 825.44086 14323.902 2499611
3275.6543 791.4292 13733.697 2893600
3295.0632 776.75677 13479.085 2564379
3375.2 776.75677 13479.085 2104086
4149.9312 932.90094 16188.66 2762272
4246.9248 933.06519 16191.511 2498843
4343.188 933.06519 16191.511 2039320
4439.5234 933.08032 16191.773 2631711
2954.7217 607.83105 10547.712 2434588
3001.7747 604.67731 10492.984 2631710
3058.5266 603.56598 10473.699 2631966
3096.3933 598.8465 10391.803 2764320
3223.4062 611.21539 10606.44 2699039
3286.4644 611.21539 10606.44 2239513
3315.8794 605.07623 10499.907 2437403
3347.7715 599.6076 10405.01 2372635
3356.9048 590.33508 10244.104 2110231
3002.5413 518.60876 8999.4346 2438940
2905.2209 493.01398 8555.2871 2766369
2973.342 495.89215 8605.2324 1777424
3064.0874 502.38242 8717.8584 329984
3312.4385 534.06775 9267.6943 529672
3463.4075 549.27197 9531.5342 1980704
3679.9854 574.22437 9964.5342 2246183
3878.4331 595.60187 10335.499 2378281
3939.8806 595.60187 10335.499 2378281
4011.3232 597.08966 10361.316 2444074
4084.7703 598.82635 10391.453 2641450
4221.0342 609.58301 10578.113 2773037
4301.3623 612.06433 10621.173 2774316
4570.1753 640.90643 11121.67 2775083
4636.2969 640.90643 11121.67 2972716
4717.0664 642.90289 11156.314 3236142
4739.377 636.98688 11053.653 3039020
4789.3745 634.90302 11017.492 3038764
4677.6567 611.72687 10615.316 2972971
4645.2705 599.4043 10401.482 2842154
4608.6001 586.86011 10183.802 3368242
4537.7783 570.34863 9897.2783 3039275
4525.4448 561.51721 9744.0254 3302445
4572.3037 560.16071 9720.4863 3302699
4185.5181 506.37473 8787.1367 3171621
4237.7603 506.37473 8787.1367 3368741
4406.6265 520.14062 9026.0166 4421425
4290.5088 500.34152 8682.4424 4092711
4066.3225 468.56052 8130.9463 4289829
3825.9626 435.68457 7560.4482 4158499
3800.7786 427.79083 7423.4678 4223522
3558.7537 395.95227 6870.9727 4354851
3545.4653 389.9971 6767.6328 4354083
3585.7007 389.9971 6767.6328 4220708
3391.031 364.73129 6329.1938 3555102
3428.6599 364.73129 6329.1938 1972490
3272.311 344.3205 5975.0044 9274752
3270.0752 340.39011 5906.8003 12956084
3512.0542 361.69403 6276.4883 3549737
3659.9626 372.96387 6472.0542 1247750
4990.4004 503.24966 8732.9072 1379850
5600.5962 558.96844 9699.7979 1577742
5844.7593 577.39197 10019.501 1512205
5904.3281 577.39197 10019.501 263168
6137.7808 594.2265 10311.631 512
6105.334 585.23962 10155.683 1516816
6282.3379 596.30951 10347.778 4417831
6343.8579 596.30951 10347.778 4748074
6356.8203 591.78894 10269.333 4486951
6370.8921 587.45679 10194.156 4486437
6405.1636 585.05127 10152.413 3960350
6325.6104 572.39093 9932.7178 3631640
6384.6626 572.39093 9932.7178 3500054
6443.7158 572.39093 9932.7178 3434262
6519.9653 573.90466 9958.9854 3697689
6627.1719 578.09149 10031.641 3827993
6580.873 568.93274 9872.708 3631124
6639.5693 568.93274 9872.708 3630869
6698.2651 568.93274 9872.708 3762199
6834.4229 575.45496 9985.8887 1648129
6903.6274 576.27594 10000.136 462336
7147.8462 591.56744 10265.489 263936
7001.853 574.57886 9970.6855 4676645
7107.6035 578.36035 10036.306 3814927
7167.2715 578.36035 10036.306 2759425
7233.0688 578.85077 10044.816 1575936
7146.7617 567.26025 9843.6855 3224085
7146.6416 562.64331 9763.5674 66560
7263.8086 567.26025 9843.6855 594176
7207.0293 558.32776 9688.6787 4942135
7528.8599 578.63519 10041.075 4679220
7747.2686 590.73712 10251.08 4154669
7808.2134 590.73712 10251.08 3628070
7737.2119 580.83179 10079.193 3167523
7786.5063 580.04004 10065.453 2903587
7733.9854 571.73358 9921.3115 3362603
6533.0249 479.29733 8317.2617 3686692
6582.4731 479.29733 8317.2617 1313536
6595.6519 476.67606 8271.7754 2036487
6394.2344 458.69925 7959.8228 1904390
6441.5576 458.69925 7959.8228 4801336
7450.6479 526.68658 9139.6094 7368547
7135.8462 500.7811 8690.0703 7303780
7111.8496 495.5094 8598.5908 7963509
7188.3262 497.26346 8629.0283 4537140
7479.2695 513.72357 8914.6611 1840907
8200.9795 559.33154 9706.0986 5986122
8371.8369 566.99493 9839.0811 7238247
7964.4028 535.65808 9295.292 1778454
8690.7178 580.47968 10073.083 2238749
7916.2349 525.13098 9112.6143 6121815
7679.5117 505.96497 8780.0264 5001024
6864.6362 449.22342 7795.3882 656640
7304.9863 474.83423 8239.8135 2166787
7050.6914 455.25171 7899.9976 2691848
7090.1318 454.76892 7891.6196 3217164
6709.5571 427.52939 7418.9307 3546384
7192.9263 455.33606 7901.4609 2367243
6797.7725 427.52939 7418.9307 3950378
7233.0762 451.97409 7843.1206 3817512
6941.2217 430.95865 7478.4395 66048
7319.2427 451.5365 7835.5273 65792
7365.8267 451.5365 7835.5273 790017
7542.7686 459.47739 7973.3257 2961693
7590.1729 459.47739 7973.3257 3490349
7131.6689 429.04193 7445.1787 4146480
7931.5225 474.21793 8229.1191 65792
8121.1611 482.5795 8374.2178 1052160
0 0 0 0
0 0 0 0
0 0 0 0
0 0 0 0
0 0 0 0
-5003.6392 354.60321 5577.9692 2816
-5250.5874 374.58682 5892.3154 3072
-5215.5562 374.58682 5892.3154 2304
-5174.2261 374.13141 5885.1514 1536
-5076.5786 369.56992 5813.3984 1536
-4977.2788 364.82477 5738.7568 69632
-5000.6846 369.07034 5805.54 332544
-4970.0757 369.36063 5810.1064 924673
-5012.0771 375.08899 5900.2144 925184
-4987.9907 375.91742 5913.2456 1122816
-4952.835 375.91742 5913.2456 2241037
-4835.8188 369.65985 5814.813 1648646
-4801.248 369.65985 5814.813 1385986
-4855.0015 376.5094 5922.5581 398592
-4842.854 378.31113 5950.8989 1648899
-4868.627 383.12338 6026.5967 662016
-4892.1362 387.82751 6100.5938 465152
-4855.8667 387.82751 6100.5938 1452037
-4826.0728 388.34863 6108.791 2833685
-4785.0459 387.96689 6102.7861 1320962
-4748.7632 387.96689 6102.7861 1189120
-4924.1162 405.39032 6376.8599 2504720
-4886.2041 405.39032 6376.8599 3293727
-4855.0151 405.95251 6385.7031 133632
-4837.7168 407.69415 6413.0991 529924
-4745.7603 403.12173 6341.1743 68352
-4708.0605 403.12173 6341.1743 1779473
-4702.3667 405.88434 6384.6309 1024
-4934.7979 429.41299 6754.7402 768
-4894.6396 429.41299 6754.7402 1024
-4937.9404 436.79559 6870.8701 132608
-4813.8706 429.37274 6754.1074 768
-4772.3711 429.25183 6752.2051 1024
-4559.0864 413.54654 6505.1582 1024
-4409.6362 403.41235 6345.7456 768
-4406.3013 406.58585 6395.6655 1024
-4395.0474 409.07751 6434.8599 1792
-4594.8667 431.43149 6786.4917 1280
-4649.6006 440.4382 6928.1685 1536
-4555.2134 435.354 6848.1934 1280
-4483.0439 432.32062 6800.4775 1647372
-4319.9702 420.38599 6612.7437 266752
-4280.6558 420.38599 6612.7437 1977613
-4346.8965 430.84824 6777.3169 68352
-4468.7451 447.06946 7032.48 1188865
-4369.7983 441.29929 6941.7139 1057280
-4344.0063 442.87738 6966.5376 596736
-4302.5889 442.87738 6966.5376 793600
-4346.3159 451.72684 7105.7407 135424
-4362.1616 457.82367 7201.6455 925440
-4274.7104 453.09262 7127.2251 2767635
-4276.5298 457.82367 7201.6455 990214
-4222.7256 456.63538 7182.9531 68608
-4405.2402 481.23889 7569.9707 1122818
-4421.812 488.03522 7676.8779 2240530
-4315.229 481.23889 7569.9707 395777
-4314.3892 486.21625 7648.2651 264193
-4268.9185 486.21625 7648.2651 1024
-4144.8091 477.16315 7505.8589 768
-4084.9792 475.39365 7478.0239 768
-4063.9106 478.14566 7521.3135 1024
-4062.5056 483.29822 7602.3643 2816
-4017.3074 483.29822 7602.3643 1280
-3830.0693 466.01581 7330.5093 2048
-3786.4875 466.01581 7330.5093 199936
-3777.0784 470.27054 7397.4365 199424
-3863.1716 486.65628 7655.187 397824
-3823.1594 487.35742 7666.2158 1280
-3749.6741 483.7569 7609.5796 1536
-3729.4905 487.02917 7661.0527 529664
-3700.9026 489.27124 7696.3208 2816
-3673.2676 491.69696 7734.478 1320960
-3627.2837 491.69696 7734.478 3558938
-3568.9607 490.00278 7707.8281 2834958
-3490.0566 485.4021 7635.459 1190145
-3515.1052 495.32864 7791.605 266496
-3540.7266 505.60202 7953.207 1792
-3493.4426 505.60202 7953.207 1280
-3441.5488 504.92575 7942.5688 1280
-3596.2114 534.95709 8414.9668 67584
-3546.1824 534.95709 8414.9668 2567963
-3551.8318 543.47668 8548.9814 1024
-3337.5981 518.11017 8149.9624 1024
-3298.7573 519.62445 8173.7817 768
-3250.1619 519.62445 8173.7817 1024
-3201.5667 519.62445 8173.7817 1280
-3164.4211 521.51147 8203.4648 595712
-3080.22 515.58112 8110.1802 2109200
-3004.2454 510.86108 8035.9331 267008
-2984.7344 515.74512 8112.7598 134144
-2936.502 515.74512 8112.7598 266240
-2851.3469 509.15207 8009.0498 1792
-2803.731 509.15207 8009.0498 463872
-2843.6968 525.33154 8263.5557 463872
-2829.426 531.88428 8366.6318 660993
-2745.4385 525.33154 8263.5557 1536
-2765.5725 538.82635 8475.8311 133888
-2709.0645 537.61243 8456.7363 67328
-2658.7869 537.61243 8456.7363 1536
-2652.8059 546.742 8600.3457 1792
-2601.6743 546.742 8600.3457 1451786
-2493.54 534.52271 8408.1338 1847311
-2443.5513 534.52271 8408.1338 1792
-2570.4568 574.02612 9029.5293 2560
-2523.4556 575.55011 9053.502 1536
-2494.8501 581.42767 9145.957 1536
-2440.4746 581.42767 9145.957 2560
-2296.679 559.63824 8803.2061 2048
-2292.7832 571.71753 8993.2148 134144
-2307.853 589.21558 9268.4629 1536
-2252.7493 589.21558 9268.4629 398336
-2232.4736 598.55328 9415.3467 464128
-2080.3054 572.10004 8999.2314 659968
-2101.0273 593.05121 9328.7979 726529
-2114.0896 612.91791 9641.3047 2571284
-2062.2402 614.54822 9666.9492 1518599
-2044.5541 626.74457 9858.7998 729856
-2030.4039 640.77673 10079.528 399104
-1930.1483 627.66187 9873.2295 730114
-1871.4493 627.66187 9873.2295 2769948
-1800.3625 623.37268 9805.7598 398593
-1742.0647 623.37268 9805.7598 661505
-1747.4457 646.94824 10176.607 1536
-1715.2618 657.80865 10347.443 1792
-1653.7434 657.80865 10347.443 398336
-1592.2249 657.80865 10347.443 68864
-1569.8232 674.61877 10611.869 661762
-1445.788 647.33154 10182.637 2560
-1434.196 670.20453 10542.433 794624
-1372.9233 670.89105 10553.232 1585154
-1310.1814 670.89105 10553.232 2572039
-1234.7567 664.07007 10445.937 2835214
-1190.1953 674.00439 10602.205 660484
-1203.4994 719.65149 11320.241 1582865
-1316.5328 833.87329 13116.971 858632
-1068.8955 719.65149 11320.241 1584149
-1047.625 752.7254 11840.5 663305
-967.96924 745.59216 11728.293 860941
-921.83948 765.18005 12036.414 530183
-794.05927 714.58649 11240.568 1280
-699.69818 687.53235 10815.003 1024
-644.65051 697.54193 10972.454 256
-605.86597 729.38397 11473.336 0
-530.30426 719.41357 11316.499 327680
-436.46356 678.14502 10667.338 2497306
-376.9368 685.22302 10778.676 2298386
0 0 0 0
0 0 0 0
0 0 0 0
0 0 0 0
0 0 0 0
0 0 0 0
0 0 0 0
40.7318 205.64513 3234.8333 1315859
62.077248 212.89322 3348.8469 724234
82.681534 214.69652 3377.2131 461062
103.03109 215.26288 3386.1221 329220
125.58626 219.49907 3452.7581 461062
146.11386 219.49907 3452.7581 592648
166.0421 218.70958 3440.3394 1777693
181.59943 212.96735 3350.0132 3159346
198.47272 209.75095 3299.4185 6252133
207.99004 200.03839 3146.6382 8093828
226.14789 199.55324 3139.0068 11120053
247.79269 201.98441 3177.2495 10923190
265.42807 201.03442 3162.3064 8357520
285.57196 201.98441 3177.2495 7831173
305.01715 202.35298 3183.0471 2698798
326.10364 203.70372 3204.2947 1316629
0 0 0 0
0 0 0 0
0 0 0 0
0 0 0 0
0 0 0 0
0 0 0 0
0 0 0 0
0 0 0 0
0 0 0 0
0 0 0 0
2558.2808 972.88013 15303.572 7171176
2793.3601 1025.7958 16135.944 2893856
2889.3154 1025.804 16136.071 3485735
2985.249 1025.804 16136.071 3419945
3084.4963 1026.9072 16153.427 3485993
3180.5945 1026.9271 16153.739 2894370
3276.9089 1027.0134 16155.099 3158056
3373.137 1027.0687 16155.969 3684401
3469.1887 1027.0687 16155.969 3158055
3006.5784 866.13037 13624.379 3684398
3087.5791 866.13037 13624.379 3092772
3173.8245 867.5639 13646.93 3159079
3254.9592 867.5639 13646.93 3685934
3273.821 851.36963 13392.19 3357995
3291.9863 835.76746 13146.766 3358252
3357.9717 832.74786 13099.268 3161128
3435.8503 832.74786 13099.268 2964518
4343.188 1029.3282 16191.511 2899236
4439.4512 1029.3282 16191.511 2571296
2933.9883 665.83496 10473.699 2242843
2965.2803 658.95117 10365.415 2244124
3058.5266 665.83496 10473.699 2310685
3096.3933 660.62866 10391.803 2574881
3232.8442 676.24792 10637.496 2838824
3301.3455 677.32672 10654.466 2970921
3355.0491 675.38611 10623.94 2707750
3326.4417 657.25385 10338.716 2247710
3356.9048 651.2392 10244.104 2511395
3315.2659 631.70038 9936.7559 2115097
2928.8215 548.29572 8624.7861 2443551
2973.342 547.05267 8605.2324 924928
3024.5024 547.05267 8605.2324 69632
3312.4385 589.16675 9267.6943 2838306
3521.959 616.18353 9692.6729 3103273
3745.2058 644.69324 10141.136 2775587
3878.4331 657.04932 10335.499 2841637
3886.2136 648.0993 10194.714 2644002
3946.824 648.0993 10194.714 2775844
4007.4341 648.0993 10194.714 2841892
4012.1697 639.19757 10054.688 2907685
4092.3625 642.40222 10105.098 3039525
4201.9692 650.06464 10225.629 3039269
4212.5176 642.40222 10105.098 3105573
4411.2358 663.24738 10432.995 3105574
4378.8032 649.24194 10212.688 3302952
4439.5205 649.24194 10212.688 3171365
4385.2852 632.6579 9951.8184 3368999
4417.8906 628.87701 9892.3438 3171363
4303.0801 604.48688 9508.6826 3171617
3938.9395 546.15808 8591.1602 2842651
3909.9692 535.20111 8418.8057 2842649
3960.0212 535.20111 8418.8057 2842648
4021.7373 536.75781 8443.293 3105818
4071.9353 536.75781 8443.293 3237401
4335.2168 564.50421 8879.749 3105815
4290.5088 551.96106 8682.4424 3368472
4066.3225 516.90131 8130.9463 2973458
3752.9558 471.4621 7416.1802 2579215
3705.0684 460.04156 7236.5327 2906897
3638.3401 446.57062 7024.6328 2774801
3578.229 434.20837 6830.1729 2971409
3585.7007 430.23257 6767.6328 3232023
3409.0762 404.50128 6362.8745 3688992
3428.6599 402.36014 6329.1938 1842695
3454.4299 400.98361 6307.541 1906189
3491.9302 400.98361 6307.541 13220793
3621.4846 411.44205 6472.0542 12430507
3674.3467 413.05902 6497.4897 988167
4046.6433 450.17865 7081.3877 1712649
5409.3672 595.58185 9368.6045 1845512
5542.9805 604.07294 9502.1709 2438161
5599.4736 604.07294 9502.1709 2570257
5804.6372 619.95135 9751.9414 2769170
5867.6548 620.48425 9760.3242 3165463
6222.6528 651.58032 10249.471 3034388
6283.5894 651.58032 10249.471 2904593
6310.2852 648.06384 10194.156 2576906
6243.1792 635.07263 9989.8018 2708747
6194.0293 624.13544 9817.7578 2971918
6239.2031 622.81824 9797.0381 3037712
6233.4839 616.49207 9697.5264 3103504
6293.6797 616.74115 9701.4443 2840589
6477.1875 628.95972 9893.6445 2577160
6536.0088 628.95972 9893.6445 2577160
6486.1538 618.59521 9730.6094 2905613
6469.7412 611.5752 9620.1826 2773516
6582.4492 616.77679 9702.0049 3101458
6834.4229 634.82385 9985.8887 1323264
6893.792 634.82385 9985.8887 464896
6884.9185 628.59332 9887.8818 2899217
6862.5547 621.24707 9772.3232 4015898
6920.6538 621.24707 9772.3232 3023626
7167.2715 638.02899 10036.306 2629386
7233.0688 638.57001 10044.816 3221272
7161.5024 627.0744 9863.9883 5262913
7205.2856 625.78369 9843.6855 6250838
7263.8086 625.78369 9843.6855 6711134
7429.251 634.9212 9987.4199 6382425
7488.6289 634.9212 9987.4199 6382681
7641.1045 642.75238 10110.605 6316634
7701.2148 642.75238 10110.605 6119511
7616.0151 630.71857 9921.3115 5987926
6817.0063 560.21008 8812.2012 5723984
6687.3457 545.36346 8578.6611 5789007
6533.0249 528.74573 8317.2617 5523523
6407.0405 514.65393 8095.5952 2693137
6389.2881 509.40121 8012.9688 2692626
6394.2344 506.02261 7959.8228 2298640
6441.5576 506.02261 7959.8228 3681837
6780.6211 528.77338 8317.6963 4077624
7060.7285 546.63043 8598.5908 3420466
7014.1196 539.11871 8480.4307 3092015
7064.5381 539.11871 8480.4307 4077112
7316.9048 554.42084 8721.1357 4011316
7839.7983 589.86194 9278.6299 3879985
7704.3384 575.61975 9054.5977 3880756
7184.2446 533.03711 8384.7656 3092266
7812.0029 575.61975 9054.5977 3026730
7780.7471 569.39301 8956.6504 5591885
7260.2207 527.6897 8300.6494 5460041
6796.3911 490.64236 7717.8892 2233357
6871.1274 492.71127 7750.4331 2429961
6888.1606 490.64236 7717.8892 2757640
6885.2456 487.18936 7663.5723 3546388
6658.4277 468.04291 7362.3955 3678485
6702.1992 468.04291 7362.3955 3286817
6654.0981 461.66864 7262.1274 8157555
6697.2734 461.66864 7262.1274 7763056
6740.4487 461.66864 7262.1274 5130822
7355.1191 500.56253 7873.9351 3684144
7669.8711 518.68219 8158.96 788741
7448.7446 500.56253 7873.9351 6974817
7410.8086 494.90295 7784.9082 7106399
7207.3965 478.33136 7524.2349 7435107
7332.4209 483.6272 7607.5391 395012
7758.4351 508.58878 8000.1895 1315330
0 0 0 0
0 0 0 0
0 0 0 0
0 0 0 0
0 0 0 0
-5016.854 388.78989 5592.7012 1536
-5187.1162 404.66666 5821.0869 1280
-5194.5298 407.96695 5868.561 1280
-5111.6152 404.16968 5813.938 1280
-5033.5068 400.70334 5764.0752 1280
-4989.0986 399.89072 5752.3853 1024
-4966.666 400.84036 5766.0459 1024
-4992.9497 405.76227 5836.8472 1024
-5012.0771 410.16739 5900.2144 1536
-4987.9907 411.0733 5913.2456 1280
-4870.3896 404.23053 5814.813 68864
-4835.8188 404.23053 5814.813 331520
-4801.248 404.23053 5814.813 793344
-4878.2334 413.69086 5950.8989 859137
-4904.4565 418.95319 6026.5967 332288
-4913.4834 422.81314 6082.1221 266496
-4934.1836 427.74234 6153.0278 396545
-4873.4834 425.63586 6122.7261 134144
-4854.0078 427.12524 6144.1509 1255425
-4817.479 427.12524 6144.1509 2768916
-4780.9507 427.12524 6144.1509 1848067
-4917.562 442.71246 6368.3716 1651200
-4997.2515 453.37735 6521.7852 2572550
-4875.8442 445.82178 6413.0991 4086040
-4817.0508 443.9173 6385.7031 5270566
-4594.5796 426.77896 6139.1699 1453825
-4586.6494 429.45398 6177.6494 3756056
-4702.3667 443.84274 6384.6309 1054471
-4934.2886 469.52328 6754.0425 991232
-4962.6411 476.09561 6848.5845 1977869
-4937.9404 477.64484 6870.8701 793089
-4840.6836 472.14304 6791.7271 1792
-4772.375 469.39594 6752.2104 133120
-4559.0864 452.2215 6505.1582 199680
-4409.6362 441.13956 6345.7456 1024
-4406.3013 444.60989 6395.6655 1280
-4395.0474 447.33453 6434.8599 1280
-4609.7202 473.30417 6808.4302 1280
-4569.2422 473.30417 6808.4302 768
