# .PCD v0.7 - Point Cloud Data file format
VERSION 0.7
FIELDS x y z rgb
SIZE 4 4 4 4
TYPE F F F U
COUNT 1 1 1 1
WIDTH 1517
HEIGHT 1
VIEWPOINT 0 0 0 1 0 0 0
POINTS 1517
DATA ascii
-4315.272 628.49353 7194.8535 1517067
-4272.4966 628.49353 7194.8535 1253893
-4229.7212 628.49353 7194.8535 2048
-4319.0186 648.31879 7421.8081 1536
-4289.1826 650.48572 7446.6152 200704
-4226.0513 647.59576 7413.5312 3072
-4181.9756 647.59576 7413.5312 1792
-4185.8013 655.09247 7499.3521 1792
-4164.8638 658.83331 7542.1763 1792
-4006.4529 640.67218 7334.272 2241046
-4081.6287 659.87537 7554.1055 1253640
-3941.7529 644.35162 7376.3936 134656
-3945.9807 652.30011 7467.3857 201216
-3879.145 648.5484 7424.437 1536
-3856.3555 652.159 7465.7705 1792
-3858.553 660.12866 7557.0049 1536
-3834.7637 663.78778 7598.894 1536
-3789.4375 663.76178 7598.5962 2048
-3738.8269 662.79828 7587.5669 67584
-3796.6169 681.26263 7798.9424 67840
-3750.25 681.26263 7798.9424 1536
-3746.7312 689.14374 7889.1636 1536
-3699.8276 689.14374 7889.1636 2816
-3671.1343 692.5791 7928.4912 1536
-3682.5493 703.76892 8056.5894 1056512
-3634.6504 703.76892 8056.5894 792580
-3727.3347 731.35321 8372.3682 67840
-3806.6514 757.02576 8666.2617 134400
-3768.4309 759.70758 8696.9629 134656
-3734.4351 763.32758 8738.4033 3840
-3713.3228 769.72021 8811.585 3072
-3689.1367 775.64966 8879.4639 3328
-3706.4683 790.60712 9050.6934 794113
-3667.4961 793.81848 9087.4561 1187081
-3526.9387 774.8092 8869.8428 2048
-3321.3494 740.71979 8479.5947 1536
-3261.2527 738.52692 8454.4912 1536
-3308.7034 761.0014 8711.7744 1536
-3256.9097 761.0014 8711.7744 1536
-3324.6067 789.37256 9036.5605 2048
-3285.9802 793.01636 9078.2734 134656
-3232.0071 793.01636 9078.2734 2048
-3164.7725 789.70703 9040.3896 1280
-3150.2041 799.6524 9154.2422 2560
-3164.4595 817.39264 9357.3281 69120
-3047.9202 801.37848 9174.002 2816
-3183.7241 852.33728 9757.3672 1188352
-3195.8345 871.45831 9976.2598 3030292
-3272.6538 909.28119 10409.248 2370576
-3315.179 938.8501 10747.746 2501396
-3067.0332 885.6463 10138.681 3552289
-2972.9309 875.68304 10024.623 4274984
-2890.5444 868.83368 9946.2139 4208167
-2763.2893 847.92999 9706.9131 4735023
-2109.6782 661.17444 7568.9771 4668973
-2064.6787 661.17444 7568.9771 4011043
-2019.6791 661.17444 7568.9771 4011043
0 0 0 0
0 0 0 0
0 0 0 0
0 0 0 0
0 0 0 0
0 0 0 0
0 0 0 0
0 0 0 0
0 0 0 0
0 0 0 0
-557.50647 241.76117 2767.6277 1315083
-544.8045 243.43784 2786.8218 65536
-528.23602 243.43784 2786.8218 526598
-518.15332 246.52351 2822.1462 657927
-498.92999 245.32141 2808.3848 512
-485.63049 247.04959 2828.1685 256
-474.14987 249.86024 2860.3442 256
-454.83252 248.59668 2845.8792 66048
-431.37714 244.88638 2803.4045 198147
-410.21088 242.22957 2772.99 264453
-391.33792 240.76117 2756.1802 6186338
-379.427 243.63484 2789.0771 3423546
-362.84515 243.63484 2789.0771 4279116
-341.45523 240.25182 2750.3491 7502973
-322.49985 238.32761 2728.3213 10661036
-308.75204 240.25182 2750.3491 5266010
-292.25104 240.12904 2748.9436 7832451
-268.96783 234.08902 2679.7988 8227209
-251.89015 233.02927 2667.667 8555405
-234.88905 231.90271 2654.7703 12041664
-220.12286 232.97926 2667.0945 11515062
-207.63736 236.82423 2711.1111 13028812
-188.65944 233.28818 2670.6309 10068384
-175.7482 237.29338 2716.4817 7041134
-157.49008 234.15933 2680.6038 5067857
-144.74811 239.4445 2741.1072 6252898
-130.02481 242.37733 2774.6816 6516835
-112.40167 239.97153 2747.1404 4215359
0 0 0 0
0 0 0 0
0 0 0 0
0 0 0 0
0 0 0 0
0 0 0 0
0 0 0 0
0 0 0 0
84.291306 584.76306 6694.2363 2777879
124.09041 584.76306 6694.2363 2646549
155.02612 553.13812 6332.2021 2844184
0 0 0 0
203.83122 489.52353 5603.9561 3041817
290.4848 599.62122 6864.3296 4028712
331.29517 599.62122 6864.3296 3436319
0 0 0 0
0 0 0 0
0 0 0 0
0 0 0 0
434.97263 487.19592 5577.3101 3304985
563.1687 586.1037 6709.584 3108376
588.50281 571.95673 6547.6328 2779411
627.43036 571.95679 6547.6333 2844948
666.35785 571.95679 6547.6333 2713361
683.37073 554.18494 6344.1851 2516492
721.08868 554.18494 6344.1851 2647309
750.12909 547.84741 6271.6348 2910480
783.73401 545.28577 6242.3101 2515722
820.38507 544.97943 6238.8027 3173396
857.47644 544.97943 6238.8027 2778894
894.56781 544.97943 6238.8027 2581256
952.17596 556.98077 6376.1914 3304980
990.08423 556.98077 6376.1914 2449924
967.06909 523.97168 5998.3105 2515974
976.97034 510.51068 5844.2124 2581767
993.66901 501.4043 5739.9644 2779146
985.50616 480.77405 5503.7939 2713610
980.86176 463.13104 5301.8208 2713355
1146.0922 524.29865 6002.0542 2910732
1181.776 524.29865 6002.0542 2384134
1217.4598 524.29865 6002.0542 2778636
1231.9033 515.41199 5900.3208 2713099
1190.2794 484.20901 5543.1167 2712842
1226.3934 485.45932 5557.4297 3107859
1259.4338 485.45932 5557.4297 3173652
1292.4744 485.45932 5557.4297 3239191
1331.4111 487.61877 5582.1509 2910223
1364.5985 487.61877 5582.1509 3041553
1275.0188 444.79135 5091.8721 3304721
0 0 0 0
1325.3403 441.38654 5052.894 3305229
1355.3811 441.38654 5052.894 3503119
1385.4315 441.3895 5052.9282 3108104
1462.9567 456.19659 5222.4365 3305739
1522.4666 464.88718 5321.9248 3371533
1558.8782 466.31448 5338.2637 3568400
1516.4586 444.57413 5089.3853 3699985
1546.5625 444.52991 5088.8789 3568399
1604.9923 452.4729 5179.8086 3502604
1660.2186 459.23068 5257.1699 3567884
1634.8224 443.84991 5081.0947 3962385
1665.0309 443.84991 5081.0947 3962385
1713.5494 448.64386 5135.9746 4225557
1792.808 461.17743 5279.4561 3962384
1754.5328 443.56583 5077.8428 4094226
1784.722 443.56583 5077.8428 4093969
1895.3248 463.21902 5302.8276 4291604
1926.8516 463.21902 5302.8276 4686105
1923.8853 455.0603 5209.4282 4817434
1927.3378 448.65427 5136.0938 4751897
1958.9557 448.90231 5138.9336 4488726
1965.0454 443.38269 5075.7461 4225298
1974.996 438.88797 5024.2915 4357135
2042.5502 447.13733 5118.728 4159755
2072.9824 447.13733 5118.728 4357387
2107.5156 448.00906 5128.7075 4225544
2130.5034 446.43671 5110.7075 4225802
1994.9388 412.15182 4718.2217 3962377
1960.2941 399.37854 4571.9961 4093709
2027.3893 407.39905 4663.813 4291346
2169.4417 430.06235 4923.2578 4817434
2198.7119 430.06235 4923.2578 4488470
2297.9026 443.55902 5077.7642 4554262
2303.8962 438.94925 5024.9927 4620312
2130.6794 400.75055 4587.7026 4225041
2143.7288 398.10864 4557.459 4488470
2183.9221 400.51074 4584.9575 4290835
2226.6465 403.31198 4617.0254 4554006
2244.5049 401.59595 4597.3804 4225041
2346.021 414.70941 4747.5005 4291091
2374.2461 414.70941 4747.5005 4356884
2428.679 419.23331 4799.2891 4356885
2457.2119 419.23331 4799.2891 4291092
2475.5474 417.5134 4779.6001 4291092
2447.0525 408.02405 4670.9678 4225298
2505.1548 413.02484 4728.2163 4356884
2502.593 408.02405 4670.9678 4488470
2484.2546 400.58896 4585.853 5277728
2365.5583 377.30814 4319.3394 4554006
2401.8364 378.9805 4338.4839 4686106
2427.6301 378.9805 4338.4839 5409316
2491.8855 384.92169 4406.4976 5277730
2490.1021 380.64444 4357.5322 4620059
2469.9045 373.66934 4277.6831 4751644
2495.3367 373.66934 4277.6831 4948766
2613.8911 387.47351 4435.71 5080353
2557.8782 375.38309 4297.3018 4750875
2583.4268 375.38309 4297.3018 4422423
2712.8911 390.33459 4468.4634 4554009
2739.4573 390.33459 4468.4634 4948767
2749.094 387.94553 4441.1138 4948764
2694.8413 376.67181 4312.0547 4685336
2735.9238 378.81042 4336.5371 4817178
2804.1309 384.6297 4403.1548 5014300
2799.6047 380.45712 4355.3882 4882714
2788.1853 375.43283 4297.8711 4882713
2820.1904 376.29382 4307.7275 5146140
2911.5945 384.99356 4407.3203 4948504
2937.7974 384.99356 4407.3203 4882967
3173.9512 412.2641 4719.5068 4882966
3202.0098 412.2641 4719.5068 4882968
3073.2612 392.25024 4490.3931 4685333
2988.4365 378.13898 4328.8506 4751382
2964.9817 371.96777 4258.2041 4554006
3026.6638 376.49139 4309.9893 4487956
3015.614 371.96777 4258.2041 5276702
3034.2539 371.15112 4248.855 5276703
2989.6323 362.67368 4151.8071 4816152
3300.4614 397.10187 4545.9336 5013532
3362.5762 401.28925 4593.8696 4750360
3389.8882 401.28925 4593.8696 4816153
3421.6304 401.80954 4599.8257 4422422
3448.9775 401.80954 4599.8257 4158992
3432.0798 396.6955 4541.2812 4685336
3446.2322 395.22223 4524.4155 3961869
3486.0781 396.6955 4541.2812 3764234
3621.5273 408.94159 4681.4722 4356372
3649.3596 408.94159 4681.4722 4290579
3639.7893 404.78201 4633.854 4882719
3607.1011 398.13327 4557.7407 4947997
3652.4922 400.13739 4580.6836 4947997
3679.7256 400.13739 4580.6836 4684826
3701.5752 399.55624 4574.0308 4684569
0 0 0 0
3453.6868 367.40039 4205.9175 4092945
4189.2573 442.44641 5065.0273 4290067
4521.2852 474.10538 5427.4526 3895052
4773.9614 497.05383 5690.1611 4421653
4502.6113 465.50275 5328.9717 4487189
0 0 0 0
0 0 0 0
0 0 0 0
0 0 0 0
0 0 0 0
0 0 0 0
3797.7412 374.19864 4283.7422 4093204
4125.5396 403.78943 4622.4907 3830032
3848.677 374.19864 4283.7422 4093207
0 0 0 0
0 0 0 0
0 0 0 0
0 0 0 0
0 0 0 0
0 0 0 0
0 0 0 0
0 0 0 0
0 0 0 0
0 0 0 0
0 0 0 0
0 0 0 0
0 0 0 0
0 0 0 0
0 0 0 0
0 0 0 0
0 0 0 0
0 0 0 0
-5259.8115 550.7099 5902.667 529410
-5224.7183 550.7099 5902.667 1536
-5480.772 581.60559 6233.8159 1536
-5443.71 581.60559 6233.8159 1280
-5371.3037 577.80347 6193.064 1280
-5255.543 569.25299 6101.417 1280
-5219.2681 569.25299 6101.417 1280
-5147.9033 565.39899 6060.1089 68608
-5204.0308 575.59192 6169.3599 727552
-5167.3521 575.59192 6169.3599 464384
-5088.4834 570.85876 6118.6284 1122050
-5052.106 570.85876 6118.6284 332288
-5126.2949 583.44269 6253.5063 266752
-5089.1162 583.44269 6253.5063 265216
-5084.9448 587.25464 6294.3643 1536
-4861.2153 565.57867 6062.0347 1536
-4737.4766 555.29919 5951.856 1280
-4905.3628 579.30481 6209.1553 1280
-4967.1514 591.04974 6335.041 1536
-4929.4883 591.04974 6335.041 2048
-4872.8833 588.76117 6310.5117 793858
-4832.2983 588.3877 6306.5088 595200
-4864.2427 596.90875 6397.8398 68096
-4886.3423 604.34644 6477.5591 925696
-4847.8311 604.34644 6477.5591 1978124
-4975.7759 625.26355 6701.7544 596480
-4781.6558 605.7204 6492.2856 201472
-4596.5635 587.01215 6291.7651 69120
-4559.1572 587.01215 6291.7651 397312
-4864.5938 631.5199 6768.812 1536
-4824.3511 631.5199 6768.812 1280
-4771.0181 629.79187 6750.2905 512
-4883.9033 650.16211 6968.6245 923904
-4964.478 666.54285 7144.1978 133376
-4874.6245 660.12665 7075.4272 1280
-4805.3394 656.40845 7035.5747 1280
-4693.6572 646.78271 6932.4028 1024
-4652.4424 646.78271 6932.4028 1280
-4645.6323 651.60852 6984.127 1280
-4572.3262 647.11017 6935.9131 1024
-4528.1392 646.68872 6931.396 768
-4489.854 647.11017 6935.9131 1024
-4424.5293 643.60608 6898.3555 1024
-4319.3047 634.17822 6797.3047 1024
-4278.8926 634.17822 6797.3047 1024
-4318.0522 646.08405 6924.9146 1024
-4310.1343 651.1073 6978.7554 1024
-4275 652.07684 6989.1475 1024
-4360.0503 671.57745 7198.1606 1280
-4300.8379 669.02356 7170.7871 1024
-4360.624 685.11499 7343.2593 1536
-4308.5884 683.78534 7329.0078 1792
-4350.6948 697.52191 7476.2402 67840
-4304.3765 697.21893 7472.9932 1779982
-4226.0513 691.67126 7413.5312 596224
-4166.3687 689.0899 7385.8638 2048
-4137.9004 691.67126 7413.5312 1792
-4050.0569 684.27643 7334.272 1536
-3973.6824 678.6795 7274.2822 1536
-3930.4346 678.6795 7274.2822 1536
-3795.7529 662.71564 7103.1768 1536
-3906.4883 689.72296 7392.6494 1536
-3868.5505 690.79688 7404.1597 1792
-3824.7927 690.84418 7404.6665 1536
-3825.6777 699.04999 7492.6191 1792
-3834.613 708.9375 7598.5962 134144
-3789.4375 708.9375 7598.5962 3072
-3781.5273 715.99341 7674.2231 1280
-3796.6169 727.62952 7798.9424 1280
-3762.2341 729.95465 7823.8643 1536
-3746.7312 736.047 7889.1636 1536
-3699.8276 736.047 7889.1636 1792
-3661.1377 737.7019 7906.9014 398848
-3682.5493 751.6676 8056.5894 2048
-3691.5984 763.44482 8182.8208 134912
-3727.3347 781.12933 8372.3682 332800
-3737.6914 793.90173 8509.2666 2048
-3786.3872 815.27985 8738.4033 2048
-3737.8633 816.02826 8746.4258 332800
-3682.4827 815.27985 8738.4033 990722
-3689.1367 828.44055 8879.4639 1056769
-3782.6875 861.78033 9236.8096 793856
-3667.4961 847.84595 9087.4561 264960
-3526.9387 827.54291 8869.8428 1536
-3311.5166 788.7912 8454.4912 1536
-3247.1582 785.38232 8417.9531 1536
-3220.5225 791.13336 8479.5947 1536
-3256.9097 812.79535 8711.7744 1792
-3230.6252 819.26434 8781.1113 1792
-3220.3704 830.0777 8897.0117 2816
-3155.7642 827.00873 8864.1172 2304
-3127.2305 833.44922 8933.1484 2304
-3111.0249 843.45471 9040.3896 2048
-3093.1123 853.341 9146.3545 1792
-3002.8806 843.2724 9038.4365 135936
-3093.7959 884.63373 9481.7588 2571022
-3037.4241 884.63373 9481.7588 3689500
-3236.5405 960.45032 10294.383 9016946
-3175.3374 960.45032 10294.383 11778713
-2971.7153 916.52594 9823.5889 4211250
-2941.95 925.53564 9920.1572 4276017
-2856.0247 916.88464 9827.4326 4537907
-2405.4399 788.35889 8449.8564 5590335
0 0 0 0
0 0 0 0
0 0 0 0
0 0 0 0
0 0 0 0
0 0 0 0
0 0 0 0
0 0 0 0
0 0 0 0
0 0 0 0
0 0 0 0
0 0 0 0
0 0 0 0
0 0 0 0
-544.8045 260.00626 2786.8218 768
-530.39539 261.06912 2798.2139 512
-518.15332 263.30197 2822.1462 0
-499.00705 262.0585 2808.8184 66048
-486.55511 264.36624 2833.5532 256
-474.14987 266.86578 2860.3442 256
-454.83252 265.51624 2845.8792 256
-431.37714 261.55341 2803.4045 395269
-413.05249 260.50793 2792.199 329992
-391.33792 257.14743 2756.1802 2435369
-379.427 260.21667 2789.0771 6121061
-362.84515 260.21667 2789.0771 4673873
-345.7316 259.81711 2784.7942 4213323
-329.1752 259.81711 2784.7942 6910578
-309.25473 257.02118 2754.8269 922644
-292.25104 256.47226 2748.9436 5857891
-270.60864 251.5464 2696.1467 9213592
-247.30412 244.35788 2619.0981 9739677
-231.73285 244.35788 2619.0981 12963278
-220.12286 248.83589 2667.0945 12831691
-205.97639 250.91917 2689.4238 11318708
-187.70779 247.90898 2657.1597 11582135
-172.04352 248.10115 2659.2195 11647926
-156.11269 247.90898 2657.1597 12305856
-144.18654 254.74898 2730.4727 7371635
-128.45146 255.74113 2741.1072 1779230
-111.6803 254.65912 2729.5098 8624517
-94.783577 252.87422 2710.3787 4155695
0 0 0 0
0 0 0 0
0 0 0 0
0 0 0 0
0 0 0 0
0 0 0 0
0 0 0 0
0 0 0 0
0 0 0 0
0 0 0 0
0 0 0 0
0 0 0 0
0 0 0 0
0 0 0 0
0 0 0 0
0 0 0 0
0 0 0 0
0 0 0 0
0 0 0 0
408.5899 454.1709 4867.9346 2976534
536.41949 556.82007 5968.1577 3173913
591.36359 575.76868 6171.2539 3239704
627.05304 574.85156 6161.4243 3107861
644.86652 558.55237 5986.7246 2581260
700.31586 574.85156 6161.4243 2647311
718.57019 560.51666 6007.7788 2055173
754.28809 560.51666 6007.7788 2910483
0 0 0 0
0 0 0 0
0 0 0 0
871.75366 544.64368 5837.6479 2976014
943.18756 566.7113 6074.1748 2581511
915.06146 529.53699 5675.7295 2844939
936.70331 522.78278 5603.3359 3173648
914.66614 492.952 5283.6016 3042065
928.37909 483.72974 5184.7544 3305493
943.55042 475.83563 5100.1431 3239445
934.82611 456.75763 4895.6597 3107601
1059.8042 502.18643 5382.5786 3042065
993.03815 456.75763 4895.6597 3042065
1020.5563 456.04803 4888.0542 3371032
978.77386 425.26733 4558.1377 3436568
1113.387 470.72244 5045.3384 3173397
1143.3828 470.72244 5045.3384 3239189
1203.1364 482.66022 5173.291 3370777
1169.5765 457.50162 4903.6338 3173397
1091.6128 416.61978 4465.4507 3238678
1097.9878 409.1033 4384.8867 3172884
1124.057 409.1033 4384.8867 3304722
1182.729 420.7001 4509.1846 3041804
1242.8264 432.27869 4633.2871 3699989
1332.7206 453.49426 4860.6821 3173386
1402.2151 467.01508 5005.6021 3305228
1455.9429 474.83197 5089.3853 3305228
1486.2008 474.83197 5089.3853 3436815
1486.8391 465.55753 4989.9795 3568144
1516.506 465.55753 4989.9795 3633936
1434.3438 431.88547 4629.0723 3699729
1461.8647 431.88547 4629.0723 3370508
1425.0055 413.21667 4428.9751 3830801
1629.651 463.98526 4973.1274 3830800
1659.2175 463.98526 4973.1274 3436044
1642.2651 451.20435 4836.1382 4357399
1574.8353 425.23349 4557.7749 4488729
1601.9324 425.23349 4557.7749 3896591
1684.8116 439.79453 4713.8442 3962639
1876.959 481.93518 5165.5195 4883484
1830.0306 462.32123 4955.292 4620055
1846.766 459.15741 4921.3813 5409315
1806.4542 442.12994 4738.876 5277471
1834.6282 442.12994 4738.876 5212446
1786.7271 424.07379 4545.3447 4225549
1802.139 421.35898 4516.2466 4488720
1925.7778 443.65686 4755.2417 4423182
2053.0701 466.13907 4996.2129 4422926
1966.8876 440.20294 4718.2217 4093962
1933.1123 426.5603 4571.9961 4159500
1817.2717 395.43863 4238.4248 4093710
1816.3646 389.83572 4178.3711 4620056
2047.715 433.55948 4647.0151 4027918
2036.0272 425.34607 4558.9814 3962382
2063.1316 425.34607 4558.9814 4028432
2122.0464 431.81921 4628.3623 3896589
2100.3608 421.93506 4522.4214 3896845
2127.2478 421.93506 4522.4214 3765003
2154.1348 421.93506 4522.4214 3962126
2197.9194 425.20404 4557.459 3896333
2181.4519 416.87912 4468.23 3764747
2258.2876 426.37033 4569.96 4225297
2285.4573 426.37033 4569.96 3962126
2242.3767 413.41858 4431.1392 3765003
2268.7212 413.41858 4431.1392 4291345
2396.825 431.7489 4627.6089 4554259
2424.3376 431.7489 4627.6089 4620308
2457.9058 432.81528 4639.0386 4357134
2420.374 421.47684 4517.5103 4422671
2333.1113 401.82233 4306.8472 4882966
2341.2546 398.8476 4274.9629 5014807
2391.238 402.98782 4319.3394 4685330
2416.9177 402.98782 4319.3394 5408539
2462.6655 406.2988 4354.8271 4487694
2385.3213 389.44394 4174.1719 4487696
2451.4849 396.12503 4245.7817 4619027
2417.0596 386.58182 4143.4951 5145628
2326.2927 368.31091 3947.6621 4751383
2336.9053 366.29559 3926.0615 4619799
2422.3547 375.93436 4029.3726 4356625
2575.417 395.77466 4242.0269 4554004
2600.6372 395.77466 4242.0269 4619540
2573.5378 387.88901 4157.5059 4816919
2598.2554 387.88901 4157.5059 4685588
2680.6201 396.41397 4248.8789 4619794
2761.7058 404.59235 4336.5371 4685844
2762.6333 400.98486 4297.8711 4751380
2732.4087 392.96329 4211.8936 4949016
2812.6377 400.82816 4296.1914 5014806
2748.752 388.19852 4160.8232 4882964
2820.4622 394.77316 4231.2925 4751635
2903.7832 402.84241 4317.7808 5080343
2944.2219 404.87326 4339.5479 4882964
2712.9116 369.82404 3963.8804 5014550
2736.478 369.82404 3963.8804 4949014
2795.5862 374.58633 4014.9241 5409310
2858.467 379.76929 4070.4763 4620050
2882.6675 379.76929 4070.4763 5145370
2915.1606 380.85275 4082.0891 5211163
2939.4297 380.85275 4082.0891 5079833
3113.1428 400.05719 4287.9277 5014041
3220.8201 410.53256 4400.2061 5606177
3246.9807 410.53256 4400.2061 5869093
3194.9226 400.72208 4295.0542 5671714
3220.458 400.72208 4295.0542 5408542
3300.3909 407.4375 4367.0322 5342750
3081.239 377.41394 4045.231 5803303
3105.2891 377.41394 4045.231 6000169
3459.8284 417.27255 4472.4473 5803046
3486.4182 417.27255 4472.4473 5737252
3558.2546 422.64691 4530.0513 5671717
3607.1011 425.23032 4557.7407 5342495
3652.4922 427.37085 4580.6836 5737254
3661.2952 425.23032 4557.7407 6263345
3588.6165 413.72726 4434.4478 6986812
3149.5818 360.46332 3863.5496 5933866
3301.4009 375.10309 4020.4626 5604898
3478.6924 392.40573 4205.9175 5999400
3503.6978 392.40573 4205.9175 5407263
3563.9067 396.32053 4247.8774 5670436
0 0 0 0
0 0 0 0
0 0 0 0
0 0 0 0
0 0 0 0
0 0 0 0
0 0 0 0
3442.9312 362.32718 3883.5269 5013022
3502.7212 366.16382 3924.6492 5210917
3489.1084 362.32718 3883.5269 4947488
0 0 0 0
0 0 0 0
0 0 0 0
0 0 0 0
0 0 0 0
0 0 0 0
0 0 0 0
0 0 0 0
0 0 0 0
0 0 0 0
0 0 0 0
0 0 0 0
0 0 0 0
0 0 0 0
0 0 0 0
0 0 0 0
0 0 0 0
0 0 0 0
-5089.0986 566.78998 5711.0894 4348713
-5224.7183 585.80292 5902.667 2440218
-5444.9429 614.62299 6193.064 67328
-5408.123 614.62299 6193.064 3584
-5266.5005 602.63062 6072.2266 68864
-5230.3989 602.63062 6072.2266 2048
-5194.2979 602.63062 6072.2266 266496
-5157.4902 602.54803 6071.3945 2560
-5121.394 602.54803 6071.3945 595712
-5167.3521 612.27051 6169.3599 596224
-5130.6733 612.27051 6169.3599 332800
-5157.2793 619.87689 6246.0039 3840
-4982.1606 603.17169 6077.6782 1792
-4993.8418 609.00269 6136.4326 200192
-4989.4048 612.93945 6176.1006 1536
-4861.2153 601.61914 6062.0347 1536
-4773.7432 595.20642 5997.4189 1280
-4827.4585 606.43347 6110.5449 1280
-4894.5342 619.52179 6242.4253 1280
-4857.4209 619.52179 6242.4253 1536
-4789.1338 615.5152 6202.0542 1536
-4778.3853 618.8988 6236.1479 1280
-4864.2427 634.94568 6397.8398 397570
-5065.8232 666.47028 6715.4878 1792
-5025.8979 666.47028 6715.4878 332288
-4985.9722 666.47028 6715.4878 1280
-4833.7705 651.34119 6563.0439 134400
-4707.9951 639.55585 6444.2925 1792
-4889.5913 669.67444 6747.7734 200960
-4880.0757 673.90033 6790.354 3072
-4824.3511 671.76239 6768.812 1792
-4746.1338 666.43011 6715.083 857856
-4888.4302 692.23358 6975.0835 768
-4846.9609 692.23358 6975.0835 1280
-4615.6182 664.88214 6699.4849 1280
-4575.7881 664.88214 6699.4849 1280
-4520.3228 662.59033 6676.3921 1280
-4594.1553 679.37836 6845.5522 1280
-4645.6323 693.13104 6984.127 1024
-4569.3486 687.89783 6931.396 2048
-4500.2646 683.66327 6888.7275 1024
-4451.8516 682.51984 6877.2065 1024
-4424.5293 684.61877 6898.3555 1024
-4383.5166 684.61877 6898.3555 1024
-4349.8672 685.7796 6910.0522 1280
-4348.3496 692.0766 6973.5024 1280
-4306.8901 692.0766 6973.5024 1280
-4275 693.62933 6989.1475 1280
-4360.0503 714.37256 7198.1606 1280
-4351.3193 720.00903 7254.9546 133889
-4360.624 728.77271 7343.2593 1536
-4316.9663 728.77271 7343.2593 1792
-4348.8052 741.64795 7472.9932 1536
-4289.1826 739.03015 7446.6152 1280
-4205.457 732.16138 7377.4038 1280
-4161.5962 732.16138 7377.4038 1536
-4132.8389 734.84674 7404.4629 1280
-4016.9299 721.92719 7274.2822 1280
-3928.8833 713.78815 7192.272 1280
-3907.3496 717.68695 7231.5566 1280
-3864.356 717.68695 7231.5566 1536
-3890.689 730.70715 7362.751 1536
-3855.55 732.34729 7379.2773 1792
-3807.7791 731.59808 7371.7285 1536
-3784.8616 735.66229 7412.6802 1536
-3790.3059 745.39984 7510.7979 1280
-3764.8638 749.22302 7549.3208 1536
-3744.9768 754.25732 7600.0474 2304
-3742.906 763.04669 7688.6108 1536
-3735.0867 770.86688 7767.4087 1536
-3747.6765 783.14783 7891.1543 1536
-3611.6455 764.28937 7701.1323 2304
-3632.8813 778.6543 7845.8765 3072
-3740.2478 812.09387 8182.8208 2304
-3763.7161 827.95868 8342.6768 2048
-3757.5366 837.638 8440.208 1792
-3677.5588 830.90533 8372.3682 1536
-3755.1282 860.07251 8666.2617 397312
-3737.8633 868.0282 8746.4258 200704
-3660.3733 862.02521 8685.9385 199680
-3648.9756 871.638 8782.7988 4352
-3699.9941 896.65601 9034.8848 1254148
-3674.7231 903.65051 9105.3633 857351
-3600.458 898.62604 9054.7354 1536
-3402.9421 862.2204 8687.9053 1280
-3257.3726 838.05731 8444.4326 1280
-3266.5132 853.56464 8600.6875 1280
-3337.1965 885.90247 8926.5303 1280
-3189.8677 860.47614 8670.3291 1280
-3178.4189 871.47052 8781.1113 1280
-2924.7314 815.30511 8215.1768 1792
-3103.0647 879.70831 8864.1172 1792
-3220.0913 928.65649 9357.3281 135168
-3093.1123 907.71869 9146.3545 1792
-2942.7651 879.05109 8857.4941 597248
-2962.4602 901.05859 9079.2461 2045195
-2514.0454 778.86072 7847.9561 3226899
-3087.7891 974.69812 9821.2529 8224343
-2625.1562 844.63452 8510.7061 13750703
0 0 0 0
0 0 0 0
0 0 0 0
0 0 0 0
0 0 0 0
0 0 0 0
0 0 0 0
0 0 0 0
0 0 0 0
0 0 0 0
0 0 0 0
0 0 0 0
0 0 0 0
0 0 0 0
0 0 0 0
0 0 0 0
0 0 0 0
0 0 0 0
-544.49377 276.41696 2785.2324 1536
-527.93475 276.41696 2785.2324 768
-517.53198 279.74457 2818.7622 512
-500.67545 279.68973 2818.2095 256
-487.41437 281.70911 2838.5574 256
-471.75208 282.43576 2845.8792 256
-450.53766 279.76877 2819.0061 256
-431.37714 278.22043 2803.4045 66304
-411.52222 276.0817 2781.8545 395785
-384.39062 268.67773 2707.2505 593420
-379.427 276.79852 2789.0771 6450026
-362.90366 276.84314 2789.5269 4410700
-347.25958 277.59494 2797.1021 791316
-333.02277 279.60385 2817.3442 726036
-316.27289 279.60385 2817.3442 198664
-297.05643 277.30133 2794.1436 3160634
-274.40903 271.33353 2734.0107 6319207
-247.30412 259.92917 2619.0981 6911088
-229.95833 257.93872 2599.042 11318708
-216.4249 260.24579 2622.2886 13095118
-203.6631 263.91095 2659.2195 12502210
-187.70779 263.70654 2657.1597 11515570
-171.91025 263.70654 2657.1597 9805209
-156.11269 263.70654 2657.1597 11384497
-143.33736 269.38644 2714.3916 12898246
-127.79175 270.64062 2727.0291 9871507
-110.85103 268.87537 2709.2419 10398874
-94.783577 268.98816 2710.3787 11321766
0 0 0 0
0 0 0 0
0 0 0 0
0 0 0 0
0 0 0 0
0 0 0 0
0 0 0 0
0 0 0 0
0 0 0 0
0 0 0 0
0 0 0 0
0 0 0 0
0 0 0 0
0 0 0 0
0 0 0 0
0 0 0 0
0 0 0 0
0 0 0 0
0 0 0 0
0 0 0 0
437.53116 483.11215 4867.9346 2976790
501.67801 519.57361 5235.3276 2910740
605.72986 590.68921 5951.9023 3108376
611.21527 563.14069 5674.3184 2581776
623.14142 544.09784 5482.4385 2582032
655.73602 544.09784 5482.4385 2713362
662.66309 523.80872 5278.001 2910741
0 0 0 0
0 0 0 0
0 0 0 0
0 0 0 0
664.28339 424.56662 4278.0181 3107857
757.85388 466.50912 4700.6392 2845455
789.2431 468.55292 4721.2329 2911249
817.31219 468.55292 4721.2329 2910994
831.11816 460.64758 4641.5771 3304982
836.14703 448.54199 4519.5986 2581515
863.32007 448.6994 4521.1846 2778637
935.76422 471.66583 4752.5991 2844433
854.08997 417.88052 4210.6475 2778895
871.52808 414.27014 4174.269 2515722
0 0 0 0
1005.8733 452.36676 4558.1377 3041810
1050.6364 460.10217 4636.0815 3042066
1077.6954 459.88715 4633.915 3304982
1065.0645 443.16815 4465.4507 3304981
1045.5408 424.46402 4276.9844 3501847
1070.9688 424.46402 4276.9844 3502102
1151.2296 445.69235 4490.8853 3107341
1182.729 447.50845 4509.1846 3107341
1241.4845 459.32834 4628.2842 3568147
1270.3726 459.82486 4633.2871 3370768
1226.3555 434.4715 4377.8218 3436304
1303.6947 452.27243 4557.187 4226077
1330.7885 452.27243 4557.187 3238926
1357.8822 452.27243 4557.187 3041546
1341.2581 437.99609 4413.3359 3370512
1352.6642 433.24539 4365.4673 3304719
1378.3185 433.15125 4364.5186 3765012
1395.8977 430.56973 4338.5068 3699474
1450.5295 439.30362 4426.5112 3699218
1549.0662 460.78619 4642.9736 3962391
1547.738 452.33075 4557.7749 3896854
1511.0333 434.00528 4373.124 4422684
1537.0328 434.00528 4373.124 4751904
1579.2456 438.50723 4418.4863 4160021
1605.5146 438.50723 4418.4863 4751645
1583.4021 425.50565 4287.48 4159505
1608.8922 425.50565 4287.48 4291091
1654.9696 430.86548 4341.4863 4751896
1671.2979 428.43442 4316.9907 4751636
1696.9634 428.43442 4316.9907 4619794
1614.0153 401.42111 4044.7991 4422672
1638.0627 401.42111 4044.7991 4619793
1717.5514 414.81085 4179.7168 4422672
1778.6946 423.45123 4266.7793 4422416
1804.0618 423.45123 4266.7793 4488465
1777.9293 411.53076 4146.6665 4751382
1703.9595 389.01511 3919.7939 4817430
1727.2637 389.01511 3919.7939 4817176
1549.5511 344.34473 3469.686 4620054
1570.1794 344.34473 3469.686 4225040
1673.1199 362.16193 3649.2158 4159247
1846.8069 394.64072 3976.4785 4356625
1870.4482 394.64072 3976.4785 4356881
1881.2914 391.97415 3949.6099 4225551
1904.7728 391.97415 3949.6099 3962379
1971.553 400.77585 4038.2976 3830539
2043.3052 410.36435 4134.9131 3896331
2067.8884 410.36435 4134.9131 4027917
2134.7219 418.6503 4218.4038 4422674
2128.6921 412.62006 4157.6421 4356881
2164.6047 414.76505 4179.2554 4356879
2330.5122 441.4873 4448.5142 4685843
2214.2983 414.76505 4179.2554 4290828
2152.573 398.72891 4017.6724 4356619
2176.459 398.72891 4017.6724 4881937
2142.7302 388.28839 3912.4714 4685070
2222.1914 398.36319 4013.9873 4750863
2246.0557 398.36319 4013.9873 5145367
2351.1992 412.6275 4157.7168 4947989
2252.793 391.24423 3942.2551 4684818
2245.6914 385.99506 3889.3633 5014041
2274.3794 386.94177 3898.9026 5013785
2279.7229 383.93787 3868.6345 5014041
2297.2981 383.03333 3859.5203 4750615
2265.1418 373.93692 3767.863 4750869
2312.6157 378.03546 3809.1609 4816662
2393.1023 387.39871 3903.5068 4750612
2416.3098 387.39871 3903.5068 4422161
2439.5173 387.39871 3903.5068 4817174
2511.4006 395.05566 3980.6599 4619794
2550.457 397.45407 4004.8267 4685844
2574.2671 397.45407 4004.8267 4685844
2598.0769 397.45407 4004.8267 4817430
2665.0725 404.00067 4070.7913 4554256
2578.1223 387.30264 3902.5388 4488463
2507.6482 373.35556 3762.0051 4488206
2663.9609 393.12216 3961.1772 5014807
2646.6667 387.14752 3900.9756 4685842
2642.7371 383.2146 3861.3469 4817428
2665.6938 383.2146 3861.3469 4816917
2699.5649 384.77023 3877.0217 4684817
2722.615 384.77023 3877.0217 4619282
2834.334 397.19611 4002.2271 5211420
2858.1282 397.19611 4002.2271 5276956
2825.0334 389.35541 3923.2229 5211163
2950.3389 403.29562 4063.6875 4882199
2974.4985 403.29562 4063.6875 5474336
2958.4519 397.88821 4009.2009 5473823
2964.9907 395.58047 3985.948 5276444
3006.1235 397.88821 4009.2009 5473823
3025.043 397.24258 4002.6956 5276443
3048.8401 397.24258 4002.6956 5473823
2996.0007 387.33472 3902.8621 5013270
3019.2043 387.33472 3902.8621 4947477
2874.6536 365.9776 3687.6633 4947477
2986.1133 377.29025 3801.6521 4486928
3261.6077 409.00272 4121.1934 4750358
3338.6079 415.53696 4187.0332 4750102
3459.4104 427.38586 4306.4253 5341983
3388.394 415.53696 4187.0332 4881432
3132.9644 381.41016 3843.165 5275676
3197.7983 386.4845 3894.2949 5407518
3255.4617 390.62546 3936.02 5341726
3278.8623 390.62546 3936.02 5472798
0 0 0 0
0 0 0 0
0 0 0 0
0 0 0 0
0 0 0 0
0 0 0 0
0 0 0 0
0 0 0 0
0 0 0 0
3466.02 385.41583 3883.5269 5078045
3489.1084 385.41583 3883.5269 5078047
0 0 0 0
0 0 0 0
0 0 0 0
0 0 0 0
0 0 0 0
0 0 0 0
0 0 0 0
0 0 0 0
0 0 0 0
0 0 0 0
0 0 0 0
0 0 0 0
0 0 0 0
0 0 0 0
0 0 0 0
0 0 0 0
0 0 0 0
0 0 0 0
-5089.0986 600.74402 5711.0894 861440
-5105.7119 606.75342 5768.2188 3229467
-5144.2007 615.46118 5851.001 1715211
-5160.1929 621.57776 5909.1489 1536
-5204.8955 631.26013 6001.1968 1536
-5169.2168 631.26013 6001.1968 726788
-5159.1924 634.41479 6031.187 463104
-5164.8003 639.54938 6080 3072
-5121.394 638.64417 6071.3945 2560
-5186.5684 651.3623 6192.3022 2560
-5130.6733 648.94904 6169.3599 990722
-5157.2793 657.01117 6246.0039 1253893
-4982.1606 639.30518 6077.6782 1319686
-4945.7681 639.27167 6077.3599 793089
-4957.3589 645.48547 6136.4326 1280
-4768.666 625.51971 5946.624 1536
-4733.312 625.51971 5946.624 1280
-4827.1548 642.72186 6110.1602 1280
-4862.8799 652.38818 6202.0542 1536
-4857.4209 656.63477 6242.4253 1536
-4815.4604 655.97443 6236.1479 1536
-4787.2847 657.19617 6247.7627 2304
-4833.6182 668.74567 6357.5601 135168
-4795.8208 668.74567 6357.5601 67328
-4767.4775 670.07446 6370.1924 1024
-4933.7817 699.00153 6645.1934 1024
-4833.7705 690.36035 6563.0439 1280
-4914.1494 707.55157 6726.4761 1536
-4920.4463 714.27087 6790.354 2560
-4864.5938 712.00488 6768.812 200704
-4751.979 701.32379 6667.2705 134400
-4712.3403 701.32379 6667.2705 2560
-4836.7104 725.93988 6901.2876 1280
-4718.8486 714.30951 6790.7217 199168
-4615.6182 704.7124 6699.4849 1280
-4569.6328 703.7644 6690.4727 1280
-4520.3228 702.28333 6676.3921 1280
-4561.0747 714.89215 6796.2603 1280
-4553.4565 720.07709 6845.5522 529153
-4493.3042 716.9729 6816.042 1024
-4452.7808 716.9729 6816.042 1024
-4411.0908 716.78326 6814.2393 1024
-4424.5293 725.63141 6898.3555 1280
-4405.9429 729.34381 6933.6479 1280
-4393.8745 734.21545 6979.9614 1280
-4351.625 734.08862 6978.7554 1280
-4310.1343 734.08862 6978.7554 1536
-4311.2202 741.41052 7048.3628 2048
-4339.0264 753.51654 7163.4507 1024
-4296.4375 753.51654 7163.4507 1536
-4313.9521 764.16309 7264.6641 1280
-4315.145 772.10455 7340.1616 1536
-4284.5371 774.46014 7362.5552 1536
-4167.7944 761.13403 7235.8682 266496
-4148.769 765.56152 7277.959 1280
-4161.5962 776.02203 7377.4038 1280
-5138.6597 968.42389 9206.5088 1024
-3961.2646 754.57117 7173.4771 768
-3918.6162 754.57117 7173.4771 512
-3907.3496 760.68054 7231.5566 512
-3904.5593 768.59436 7306.7915 256
-3890.689 774.48071 7362.751 512
-3851.606 775.42505 7371.7285 1024
-3786.5173 771.09534 7330.5669 1024
-3741.4819 770.7959 7327.7207 1024
-3701.8464 771.61511 7335.5083 2816
-3736.5027 788.12372 7492.4512 1792
-3773.0364 805.43164 7656.9917 2048
-3699.7925 799.44171 7600.0474 1536
-3576.6799 782.39502 7437.9893 1536
-3643.1101 806.90283 7670.978 924417
-3611.6455 810.07471 7701.1323 1536
-3638.3811 826.54968 7857.7539 1792
-3612.333 831.30609 7902.9722 1536
-3568.3765 832.01233 7909.686 1516809
-3714.1165 877.55817 8342.6768 1792
-3467.2273 830.31238 7893.5249 1536
-3486.4368 846.36823 8046.1636 266240
-3737.8633 920.0282 8746.4258 2048
-3557.397 887.96161 8441.5791 1280
-3648.9756 923.85419 8782.7988 69632
-3690.1997 947.8551 9010.9678 3072
-3782.9387 985.98993 9373.5039 768
-3620.5891 957.78442 9105.3633 1280
-3356.6526 901.4411 8569.7246 1024
-3257.3726 888.26172 8444.4326 768
-3324.6414 920.79736 8753.7383 768
-3569.6729 1004.3841 9548.3721 768
-3292.5356 941.37762 8949.3887 1024
-3178.4189 923.67676 8781.1113 1024
-2924.7314 864.14661 8215.1768 1280
-2875.8899 864.14661 8215.1768 1536
-3066.4404 937.32178 8910.8311 1536
-2995.4255 931.7113 8857.4941 2304
-2938.4744 930.35284 8844.5791 67328
-2962.4602 955.03723 9079.2461 5070134
-2514.0454 825.51898 7847.9561 6582087
0 0 0 0
0 0 0 0
0 0 0 0
0 0 0 0
0 0 0 0
0 0 0 0
0 0 0 0
0 0 0 0
0 0 0 0
0 0 0 0
0 0 0 0
0 0 0 0
0 0 0 0
0 0 0 0
0 0 0 0
0 0 0 0
0 0 0 0
0 0 0 0
-588.78723 298.64435 2839.1204 2180379
-561.25537 293.08173 2786.2383 1792
-545.22772 293.37085 2788.9868 1024
-534.29028 296.5029 2818.7622 512
-520.30505 298.09164 2833.866 512
-503.45694 298.09164 2833.866 256
-488.00107 298.94455 2841.9741 256
-471.10474 298.94455 2841.9741 256
-450.53766 296.52856 2819.0061 256
-430.4035 294.22186 2797.0771 256
-411.52222 292.62061 2781.8545 395271
-384.39062 284.7731 2707.2505 395528
-365.79874 282.84274 2688.8992 922387
-362.28796 292.92984 2784.7942 6976370
-345.7316 292.92984 2784.7942 5857891
-332.44983 295.8439 2812.4973 2239275
-315.72876 295.8439 2812.4973 3490875
-296.62839 293.48978 2790.1174 5201238
-273.7919 286.94125 2727.8625 4016965
-256.13507 285.33823 2712.623 6516076
-230.36497 273.87421 2603.6382 5463388
-214.88564 273.87421 2603.6382 13291728
-203.23082 279.12701 2653.575 13291726
-187.66245 279.43652 2656.5176 11581108
-171.67833 279.12701 2653.575 10857640
-156.07497 279.43652 2656.5176 9279121
-143.33736 285.52423 2714.3916 10924970
-127.37891 285.92691 2718.2195 10990505
-110.85103 284.98257 2709.2419 11188391
-94.783577 285.10214 2710.3787 2964265
-76.896263 278.67542 2649.2817 3496735
0 0 0 0
0 0 0 0
0 0 0 0
0 0 0 0
0 0 0 0
0 0 0 0
0 0 0 0
0 0 0 0
0 0 0 0
0 0 0 0
0 0 0 0
0 0 0 0
0 0 0 0
0 0 0 0
0 0 0 0
0 0 0 0
0 0 0 0
0 0 0 0
0 0 0 0
0 0 0 0
0 0 0 0
507.20526 524.24109 4983.7993 2779153
536.83533 524.24109 4983.7993 2976789
0 0 0 0
0 0 0 0
0 0 0 0
0 0 0 0
0 0 0 0
0 0 0 0
0 0 0 0
0 0 0 0
679.81781 443.54172 4216.6152 3765788
747.3183 470.24124 4470.4395 3305237
787.49011 478.50128 4548.9648 3370775
807.71375 474.49405 4510.8696 3633946
798.16235 453.81519 4314.2817 3173396
765.9823 421.9584 4011.4292 3239190
821.89374 439.08737 4174.269 3304983
850.36859 440.98413 4192.3013 3370777
879.12347 442.914 4210.6475 2910482
925.02252 453.13528 4307.8184 3239191
959.08978 457.16605 4346.1372 3041811
984.92871 457.16605 4346.1372 3436569
1010.7678 457.16605 4346.1372 3699742
928.87561 409.65424 3894.4575 3502106
995.8894 428.52707 4073.8757 3173140
1069.4532 449.25534 4270.9326 3502103
1124.057 461.24203 4384.8867 3238930
1177.9292 472.39194 4490.8853 3370514
1121.6371 439.84698 4181.4902 3436561
1137.0605 436.22662 4147.0728 3436304
1156.2137 434.16055 4127.4312 3238925
1210.9189 445.25266 4232.8809 3765526
1281.1328 461.47955 4387.145 3041803
1307.2156 461.47955 4387.145 3173132
1326.7103 459.19931 4365.4673 3238926
1270.9808 431.46967 4101.8496 3502098
1332.7959 443.93652 4220.3687 3501839
1319.754 431.46967 4101.8496 3501582
1382.9784 443.93652 4220.3687 3369997
1407.5105 443.76025 4218.6929 3436046
1485.0339 460.00473 4373.124 3633168
1496.6185 455.61639 4331.4058 3764755
1436.3296 429.86621 4086.6062 3633425
1398.1703 411.48538 3911.8657 3501581
1421.3719 411.46936 3911.7131 4620059
1444.6282 411.46936 3911.7131 4027920
1421.6035 398.49615 3788.3809 3961613
1448.6366 399.74069 3800.2122 4356369
1568.0402 426.04456 4050.2749 4947734
1653.3411 442.42694 4206.0176 4356622
1486.4829 391.84991 3725.197 4685844
1508.6302 391.84991 3725.197 4751636
1604.0276 410.60052 3903.4534 4949014
1627.2347 410.60052 3903.4534 4817172
1753.2761 436.1839 4146.6665 4685588
1680.6552 412.31937 3919.7939 4751381
1613.674 390.47232 3712.1008 4948504
1577.4237 376.55069 3579.752 4882712
1520.4034 358.10764 3404.4197 4685590
1540.6437 358.10764 3404.4197 4619797
1630.8185 374.1525 3556.9531 4225039
1694.8154 383.85751 3649.2158 4290576
1774.6931 396.86856 3772.908 4356369
1830.7355 404.29114 3843.4722 4158989
1853.5859 404.29114 3843.4722 4290575
1895.3566 408.36761 3882.2258 4093453
1984.8589 422.50635 4016.6387 4093197
1937.9114 407.60895 3875.0132 4422418
1833.5743 381.13235 3623.3086 4422417
1850.7172 380.22864 3614.7173 5014553
2120.4048 430.63528 4093.9177 5540895
2092.4724 420.13977 3994.1401 4554257
2116.2188 420.13977 3994.1401 4619021
2112.7708 414.80072 3943.3835 4750865
2119.4695 411.54913 3912.4714 4750608
2034.3135 390.72577 3714.5105 4421387
2056.3975 390.72577 3714.5105 5013524
2096.6003 394.13196 3746.8916 4947731
2212.6941 411.58289 3912.7925 5408538
2197.6267 404.52731 3845.7173 4290058
2172.5066 395.78564 3762.6128 4290314
2194.8765 395.78564 3762.6128 4816402
2214.6631 395.32455 3758.2295 4816403
2237.0068 395.32455 3758.2295 5276954
2227.0984 389.6813 3704.5811 4619281
2249.1233 389.6813 3704.5811 4290316
2259.002 387.59732 3684.769 4882197
2257.469 383.61417 3646.9023 4421645
2272.6736 382.5239 3636.5376 4158474
2300.8328 383.61417 3646.9023 4158730
2374.7605 392.24374 3728.9409 4355851
2386.3069 390.50531 3712.4141 4684816
2408.3782 390.50531 3712.4141 4948244
2444.5383 392.76895 3733.9341 4619022
2466.7375 392.76895 3733.9341 4290314
2466.5271 389.23257 3700.3147 4487437
2475.1484 387.14011 3680.4224 4750352
2497.0298 387.14011 3680.4224 4816401
2478.4788 380.92596 3621.3464 4685072
2500.0088 380.92596 3621.3464 4684815
2569.1663 388.121 3689.7476 4684817
2584.2566 387.09552 3679.9985 4684818
2586.1841 384.13214 3651.8267 4947990
2628.0139 387.09552 3679.9985 4356110
2715.4092 396.66623 3770.9841 4816663
2737.8289 396.66623 3770.9841 4816662
2752.0381 395.48636 3759.7676 5014039
2786.4749 397.20886 3776.1431 4882197
2808.925 397.20886 3776.1431 4947734
2877.2273 403.64139 3837.2949 5013270
2900.041 403.64139 3837.2949 5144856
2955.7661 408.18637 3880.5027 5144856
2887.5261 395.67419 3761.5532 4947478
2764.4285 375.89502 3573.5186 5079064
2785.6738 375.89502 3573.5186 5013528
2975.4871 398.46915 3788.1238 5539617
3008.7153 399.89215 3801.6521 4947737
3051.1782 402.51224 3826.5605 4684308
3073.9282 402.51224 3826.5605 4815638
3086.7388 401.22028 3814.2783 4552721
3109.4158 401.22028 3814.2783 5210393
3172.5518 406.40308 3863.5496 5473308
3067.1389 390.07553 3708.3284 4421388
2926.0117 369.47128 3512.4504 4618252
2886.1509 361.8555 3440.0496 4815631
0 0 0 0
0 0 0 0
0 0 0 0
0 0 0 0
0 0 0 0
0 0 0 0
0 0 0 0
0 0 0 0
2967.9993 349.80786 3325.5161 5144346
3075.4941 360.07855 3423.1565 4881688
3002.8411 349.26114 3320.3186 4815894
0 0 0 0
0 0 0 0
0 0 0 0
0 0 0 0
0 0 0 0
0 0 0 0
0 0 0 0
0 0 0 0
0 0 0 0
0 0 0 0
0 0 0 0
0 0 0 0
0 0 0 0
0 0 0 0
0 0 0 0
0 0 0 0
0 0 0 0
-5089.0986 634.69806 5711.0894 1584387
-5105.7119 641.04706 5768.2188 1123332
-5121.6367 647.39484 5825.3364 1517577
-5091.9883 648.02924 5831.0449 1187846
-5204.8955 666.93896 6001.1968 67840
-5169.2168 666.93896 6001.1968 1536
-5200.9478 675.69666 6080 1280
-5164.8003 675.69666 6080 1024
-5121.394 674.7403 6071.3945 1536
-5267.5562 698.92322 6288.9951 1280
-5230.1665 698.92322 6288.9951 332288
-5192.7769 698.92322 6288.9951 1536
-5021.4985 680.77179 6125.6665 1536
-4875.5479 665.81384 5991.0732 1280
-4823.564 663.56262 5970.8159 1280
-4769.7246 661.02069 5947.9438 1024
-4771.7393 666.23932 5994.9014 1024
-4794.5957 674.46838 6068.9478 1024
-4792.6084 679.3009 6112.4312 1024
-4826.0068 689.26111 6202.0542 1280
-4824.4297 694.34088 6247.7627 200192
-4846.1221 702.87451 6324.5498 1536
-4808.7056 702.90155 6324.7925 727552
-4770.3745 702.79425 6323.8276 595713
-4732.7778 702.79425 6323.8276 859392
-4861.8887 727.7478 6548.3623 793858
-4894.2744 738.50903 6645.1934 398080
-4932.0615 750.26721 6750.9946 2304
-4920.4463 754.64136 6790.354 1792
-4834.168 747.54236 6726.4761 1536
-4716.6255 735.44995 6617.667 1280
-4673.3921 734.83838 6612.1641 1280
-4822.5166 764.71912 6881.0347 1280
-4701.7046 751.94037 6766.0498 133376
-4615.6182 744.54272 6699.4849 1024
-4569.6328 743.54114 6690.4727 1280
-4529.856 743.54114 6690.4727 768
-4556.9141 754.60876 6790.0605 1792
-4494.6802 750.95563 6757.189 67840
-4454.5068 750.95563 6757.189 1280
-4407.7671 749.83856 6747.1377 1024
-4394.019 754.36499 6787.8672 1024
-4412.4014 764.54266 6879.4468 1024
-4405.9429 770.56628 6933.6479 1280
-4393.8745 775.71326 6979.9614 1280
-4352.377 775.71326 6979.9614 1280
-4310.8794 775.71326 6979.9614 1024
-4317.4331 784.44391 7058.521 2048
-4339.0264 796.10516 7163.4507 3584
-4351.3193 806.27448 7254.9546 200192
-4313.9521 807.35345 7264.6641 1024
-4270.7612 807.35345 7264.6641 1536
-4196.4854 801.41693 7211.2461 1536
-4130.8247 797.0202 7171.6836 1536
-4088.187 797.0202 7171.6836 2560
-4161.5962 819.88275 7377.4038 1024
-4307.1172 857.59052 7716.7026 768
-3958.8103 796.72565 7169.0332 512
-3918.6162 797.21948 7173.4771 512
-3948.0002 812.03528 7306.7915 512
-3934.4626 818.25433 7362.751 512
-3910.4106 822.40198 7400.0723 1024
-3872.9958 823.80176 7412.667 1024
-3786.5173 814.67761 7330.5669 1024
-3741.4819 814.36127 7327.7207 1024
-3701.8464 815.22681 7335.5083 768
-3745.6523 834.7074 7510.7979 512
-3700.2605 834.54095 7509.3003 768
-3612.7866 824.76349 7421.3213 768
-3525.1409 814.70465 7330.8105 1024
-3532.4587 826.61591 7437.9893 398081
-3686.2776 873.5459 7860.271 1792
-3638.3811 873.26617 7857.7539 1536
-3591.6641 873.26617 7857.7539 1450761
-3565.3474 878.29144 7902.9722 67840
-3571.6951 891.60492 8022.7686 1280
-3504.6465 886.70892 7978.7139 1024
-3420.2979 877.24152 7893.5249 768
-3587.5059 932.92767 8394.5957 133632
-3557.397 938.14911 8441.5791 1120773
-3743.7727 1001.4278 9010.9678 1317130
-3690.1997 1001.4278 9010.9678 67072
-3720.8262 1024.6138 9219.5986 512
-3600.458 1006.2919 9054.7354 512
-3417.1973 969.56915 8724.2998 256
-3376.6848 972.84076 8753.7383 256
-3609.3179 1056.1415 9503.2881 768
-3569.6729 1061.1519 9548.3721 512
-3292.5356 994.58423 8949.3887 768
-2888.7397 886.94141 7980.8057 66304
-2841.2915 886.94141 7980.8057 198402
-2776.1389 881.3208 7930.231 926983
-2927.8467 945.54071 8508.0889 1324810
-2877.2637 945.54071 8508.0889 3366173
-2829.7861 946.57947 8517.4355 4616492
-2779.1477 946.57947 8517.4355 4419882
-2514.0454 872.17725 7847.9561 4288294
0 0 0 0
0 0 0 0
0 0 0 0
0 0 0 0
0 0 0 0
0 0 0 0
0 0 0 0
0 0 0 0
0 0 0 0
0 0 0 0
0 0 0 0
0 0 0 0
0 0 0 0
0 0 0 0
0 0 0 0
0 0 0 0
-615.94507 312.17822 2809.0173 464900
-605.66656 315.52371 2839.1204 332546
-592.86188 317.70728 2858.7683 133121
-571.90784 315.52371 2839.1204 768
-546.34692 310.58841 2794.7119 512
-534.29028 313.26123 2818.7622 512
-520.06952 314.79721 2832.5833 512
-503.45694 314.93976 2833.866 256
-488.00107 315.84088 2841.9741 66305
-473.02872 317.13077 2853.5808 256
-450.23877 313.08051 2817.136 256
-428.0611 309.15952 2781.8545 66048
-404.21365 303.66891 2732.4495 66306
-380.0621 297.48047 2676.7649 264199
-373.8652 305.41867 2748.1938 395531
-357.52643 305.41867 2748.1938 66822
-342.58359 306.66824 2759.4377 132871
-322.63995 303.34183 2729.5063 3949636
-310.97467 307.85855 2770.1482 5331802
-294.50537 307.85855 2770.1482 1844770
-272.91519 302.18839 2719.1274 4081989
-256.74921 302.18839 2719.1274 3818560
-239.60205 300.95596 2708.0378 6121057
-214.88564 289.35355 2603.6382 5462101
-203.23082 294.90326 2653.575 13554385
-187.53362 295.02762 2654.6938 13488336
-171.67833 294.90326 2653.575 12502208
-157.86163 298.60992 2686.928 10199197
-141.8871 298.60992 2686.928 9673619
-124.46954 295.18771 2656.1345 8819078
-106.61728 289.59021 2605.7676 1385490
-92.64698 294.42615 2649.2817 2901541
-75.633255 289.59021 2605.7676 3301917
0 0 0 0
0 0 0 0
0 0 0 0
0 0 0 0
0 0 0 0
0 0 0 0
0 0 0 0
0 0 0 0
0 0 0 0
0 0 0 0
0 0 0 0
0 0 0 0
0 0 0 0
0 0 0 0
0 0 0 0
0 0 0 0
273.96924 422.61969 3802.7827 3371298
297.75327 424.29468 3817.8545 2910747
319.18643 422.61969 3802.7827 2779414
340.93521 421.55655 3793.2166 2713876
0 0 0 0
0 0 0 0
0 0 0 0
0 0 0 0
0 0 0 0
0 0 0 0
0 0 0 0
0 0 0 0
0 0 0 0
0 0 0 0
589.37683 421.82321 3795.616 3239447
679.81781 468.61069 4216.6152 3107861
684.7851 455.24704 4096.3677 3173397
727.58984 467.09186 4202.9487 3239190
752.57751 467.09186 4202.9487 3568155
777.56525 467.09186 4202.9487 3436826
765.9823 445.8075 4011.4292 3107349
808.52191 456.35703 4106.3555 2712592
752.93854 412.52759 3711.9727 2909969
857.34869 456.35703 4106.3555 3173141
914.33441 473.21484 4258.0439 3501849
921.2326 463.93985 4174.5864 3501848
882.56842 432.80789 3894.4575 3370264
905.72198 432.80789 3894.4575 3765278
923.54114 430.3223 3872.0918 3304728
995.8894 452.74744 4073.8757 2843664
946.91467 420.26184 3781.5667 2843662
965.5293 418.58499 3766.478 3435798
1089.174 461.48569 4152.5039 3369746
1061.2764 439.69894 3956.4639 3435538
1109.4589 449.69446 4046.4048 3567125
1133.5159 449.69446 4046.4048 3238416
1149.5247 446.56787 4018.2715 3435795
1181.1104 449.4967 4044.6255 3699223
1175.998 438.62112 3946.7659 3238672
1199.4626 438.62112 3946.7659 3370002
1234.3489 442.71771 3983.6272 3501330
1258.0327 442.71771 3983.6272 4619810
1281.7166 442.71771 3983.6272 3896598
1274.2952 432.16864 3888.7053 3896342
1297.4146 432.16864 3888.7053 4027927
1415.0233 463.09195 4166.957 3896340
1412.0336 454.16223 4086.6062 4159256
1310.0837 414.24371 3727.4148 4224792
1332.2443 414.24371 3727.4148 3830289
1365.5449 417.65094 3758.0732 4356119
1387.8877 417.65094 3758.0732 4290324
1415.8434 419.3132 3773.0305 4816154
1443.6399 420.87726 3787.1042 4355602
1466.625 421.01208 3788.3176 4486931
1442.9714 407.95715 3670.8477 5342240
1351.6124 376.43475 3387.2051 5144603
1436.8813 394.30795 3548.0305 5342494
1538.7625 416.15677 3744.6284 4881687
1555.6801 414.73175 3731.8062 5605670
1632.9127 429.20023 3861.9954 5671464
1651.4417 428.05154 3851.6594 4552979
1571.3641 401.72516 3614.7712 4552977
1577.4237 397.83331 3579.752 3829256
1549.5511 385.6012 3469.686 4158222
1544.9545 379.40652 3413.9456 4224273
1628.2772 394.68356 3551.4104 2448128
1651.9656 395.29956 3556.9531 3632391
1673.1127 395.29956 3556.9531 3829770
1795.4789 418.91568 3769.4539 4027406
1695.5905 390.73306 3515.863 4027406
1720.9635 391.75064 3525.0195 3632904
1796.7542 404.08246 3635.9827 4225039
1812.0327 402.67392 3623.3086 4093197
1777.2146 390.29669 3511.9368 3764232
1782.1833 386.84311 3480.8608 3632389
1872.2078 401.71915 3614.7173 4093195
1906.5343 404.44214 3639.219 4158989
1928.1704 404.44214 3639.219 4290059
1968.7811 408.37796 3674.634 4487694
1990.6278 408.37796 3674.634 4619023
1855.7804 376.58105 3388.5217 3895556
1875.9261 376.58105 3388.5217 4750865
2043.1835 405.79907 3651.429 4948246
2023.642 397.69244 3578.4846 4290059
2044.9171 397.69244 3578.4846 4487439
2034.2355 391.5416 3523.1382 4355854
2079.9658 396.26334 3565.6252 4487696
2073.6138 391.0675 3518.8723 4750611
2094.5347 391.0675 3518.8723 3961353
2096.8022 387.61926 3487.8447 4356111
2115.0745 387.16821 3483.7861 4816405
2138.7478 387.70502 3488.6165 4158732
2159.4885 387.70502 3488.6165 4290062
2163.3589 384.70502 3461.6221 4750611
2114.0093 372.38672 3350.7805 4421902
2134.0254 372.40326 3350.9292 4356109
2175.4543 376.12161 3384.3875 4158989
2240.8628 383.87976 3454.1963 4224525
2314.6345 392.91666 3535.5112 3763715
2335.6541 392.91666 3535.5112 4224266
2317.5537 386.39438 3476.823 4750610
2275.4712 376.02435 3383.5125 5013783
2384.5947 390.60403 3514.7024 4684818
2361.9651 383.53638 3451.1064 4487438
2426.3867 390.60403 3514.7024 4553488
2365.3198 377.52222 3396.9905 4487441
2402.9995 380.28915 3421.8875 4816406
2423.3438 380.28915 3421.8875 4947992
2551.8147 397.11597 3573.2974 5408543
2573.0591 397.11597 3573.2974 5934887
2562.5984 392.26282 3529.6282 4947735
2580.012 391.72067 3524.7498 5342238
2718.2024 409.37692 3683.6226 5079062
2735.7112 408.72079 3677.719 4947477
2757.5764 408.72079 3677.719 5013270
2713.9011 399.08298 3590.9968 4947733
2762.6438 403.0798 3626.9604 4947478
2743.1829 397.14056 3573.5186 5210650
2764.4285 397.14056 3573.5186 5276187
2778.6465 396.13867 3564.5034 5013015
2790.3142 394.79114 3552.3782 5013272
2787.8909 391.48514 3522.6304 4750098
2884.9316 402.09134 3618.0664 5013526
2906.4421 402.09134 3618.0664 5078805
