# .PCD v0.7 - Point Cloud Data file format
VERSION 0.7
FIELDS x y z rgb
SIZE 4 4 4 4
TYPE F F F U
COUNT 1 1 1 1
WIDTH 1413
HEIGHT 1
VIEWPOINT 0 0 0 1 0 0 0
POINTS 1413
DATA ascii
0 0 0 0
0 0 0 0
0 0 0 0
0 0 0 0
0 0 0 0
0 0 0 0
0 0 0 0
0 0 0 0
0 0 0 0
0 0 0 0
0 0 0 0
0 0 0 0
250.22401 414.39575 2611.2461 4223789
295.62668 460.98621 2904.8281 2184718
315.16116 464.32242 2925.8508 1987340
332.55618 464.32242 2925.8508 3303457
364.75574 483.96545 3049.6279 2645526
375.78201 474.98523 2993.0408 1263875
388.43192 468.77661 2953.918 2053134
405.99377 468.77661 2953.918 1987597
423.55566 468.77661 2953.918 2513685
433.22971 460.39417 2901.0977 2711064
447.5578 457.41016 2882.2944 2776855
455.19827 448.06348 2823.3977 2711062
462.88538 439.42584 2768.969 2514196
489.95969 449.15402 2830.2695 2645270
502.95969 445.76242 2808.8982 2382097
519.65936 445.76242 2808.8982 2974235
563.05023 467.94519 2948.6792 2448147
580.58093 467.94519 2948.6792 2776856
590.68152 462.13211 2912.0488 2513940
589.59576 448.14737 2823.9265 1921547
605.15857 447.24112 2818.2158 2316814
594.80945 427.74948 2695.3926 3106074
610.83429 427.74948 2695.3926 2645778
640.01398 436.72598 2751.9563 2448143
656.37518 436.72598 2751.9563 2777108
685.92938 445.29062 2805.925 3105816
730.54022 462.99091 2917.4607 3105816
728.12079 450.7554 2840.3604 3171353
718.44983 434.68704 2739.1084 3105816
717.18683 424.30536 2673.6899 2974228
710.64258 411.31711 2591.8467 2842898
787.04144 445.86847 2809.5664 4487467
806.30963 447.29117 2818.531 3171350
777.17181 422.34988 2661.3677 3105557
836.3443 445.43814 2806.8545 3368472
853.03186 445.43814 2806.8545 3434522
797.6438 408.52368 2574.2441 3434265
0 0 0 0
0 0 0 0
0 0 0 0
0 0 0 0
0 0 0 0
883.29742 405.68805 2556.376 3105298
898.49579 405.68805 2556.376 3631642
921.77203 409.27469 2578.9766 3960350
937.1048 409.27469 2578.9766 3434008
969.74097 416.71017 2625.8301 3433752
1014.7972 429.1626 2704.2971 3433753
1042.9336 434.18265 2735.9302 3302166
1059.1993 434.18265 2735.9302 4420906
1084.2209 437.7175 2758.2043 4683827
1053.0742 418.80878 2639.0542 4486444
1047.8524 410.61426 2587.4177 3434008
1081.7031 417.74637 2632.3596 4354850
1084.0565 412.68457 2600.4634 5078316
1099.5171 412.68457 2600.4634 4288544
1156.7322 428.13913 2697.8479 4419871
1172.7717 428.13913 2697.8479 4616739
1112.896 400.79904 2525.5686 4419358
1089.9468 387.3085 2440.5603 4682276
0 0 0 0
0 0 0 0
0 0 0 0
1104.9358 372.78415 2349.0376 3959323
1118.9014 372.78415 2349.0376 3564564
1149.7778 378.34885 2384.1025 3827735
0 0 0 0
1371.5406 440.46292 2775.5039 5077799
1296.9893 411.56946 2593.4368 5012006
1373.4357 430.70764 2714.033 4419613
1324.724 410.60776 2587.3767 5077799
1219.4189 373.62915 2354.3621 5537581
1217.2467 368.73099 2323.4973 5077031
1231.0605 368.73099 2323.4973 5011238
1294.2712 383.36234 2415.6941 5340459
1360.6625 398.60425 2511.7385 4682018
1406.6459 407.60165 2568.4343 4089624
1406.2858 403.12119 2540.2012 4747554
1416.2085 401.65222 2530.9448 4813859
1400.8955 393.13226 2477.2578 4353308
1404.6825 390.09381 2458.1116 4682530
1463.0438 402.11777 2533.8784 3959064
1486.9548 404.52444 2549.0437 4156443
1525.2833 410.76517 2588.3687 4419359
1535.2771 409.32687 2579.3054 5143083
1500.8213 396.18326 2496.4832 5011497
1470.6046 384.40518 2422.2656 5472561
1493.0021 386.47513 2435.3091 4617507
1520.9772 389.93524 2457.1123 5012266
1571.5103 399.05771 2514.5962 4551458
1588.5485 399.58304 2517.9062 4946216
1596.0283 397.71664 2506.1455 4420128
1610.9281 397.71664 2506.1455 4288799
1661.4402 406.42828 2561.0405 4091419
1676.6664 406.42828 2561.0405 4091419
1662.3923 399.3418 2516.386 4881189
1625.5237 387.00229 2438.6309 4815394
1640.022 387.00229 2438.6309 3894547
1654.5203 387.00229 2438.6309 3038980
1683.9778 390.47092 2460.4878 3696909
1657.3303 380.98257 2400.6985 2973444
1696.4719 386.65054 2436.4143 3697164
1710.9572 386.65054 2436.4143 3762443
1651.7512 370.13727 2332.3586 3630598
1665.6177 370.13727 2332.3586 3893770
1679.4843 370.13727 2332.3586 3696650
1659.9407 362.83438 2286.3408 3762440
1707.0979 370.11139 2332.1956 4420370
1781.8545 383.20667 2414.7134 4288527
1773.608 378.38458 2384.3276 4157196
1818.3208 384.84781 2425.0547 4157195
1832.7385 384.84781 2425.0547 4683540
1898.4014 395.52454 2492.3323 4025611
1917.9207 396.49655 2498.4573 4354575
1984.3518 407.07724 2565.1299 4354318
1999.6022 407.07724 2565.1299 4748819
1909.9822 385.8894 2431.6182 4748819
1924.4387 385.8894 2431.6182 4551187
1915.1462 381.16272 2401.8337 5538084
1897.306 374.81738 2361.8496 5340963
1903.6014 373.29828 2352.2773 5472294
1941.0336 377.86279 2381.0398 5998638
1948.7322 376.61484 2373.176 4551194
2038.9761 391.22299 2465.2268 4353816
2053.6326 391.22299 2465.2268 5406504
2061.6772 389.97232 2457.3459 5209382
2003.355 376.27414 2371.0291 5012003
2001.726 373.34119 2352.5476 5012000
2015.7126 373.34119 2352.5476 4814620
2029.6991 373.34119 2352.5476 5012000
2024.4116 369.82022 2330.3608 4682522
2016.3038 365.83536 2305.251 5340708
2015.2874 363.18228 2288.533 4287764
2026.3079 362.71948 2285.6167 4353813
2022.8583 359.68988 2266.5261 4616983
1920.7773 339.2785 2137.9072 4090896
1934.4991 339.45596 2139.0256 4813849
2030.0173 353.89059 2229.9829 4879640
2063.7861 357.44305 2252.3682 4287504
2008.0564 345.54868 2177.4177 4813847
2096.1826 358.40298 2258.417 4287762
2164.3394 367.70111 2317.0076 3366402
2178.1145 367.70111 2317.0076 4747798
2258.9595 378.95236 2387.9055 3958538
2252.7026 375.54257 2366.4194 4287760
2220.7185 367.91284 2318.3418 3366661
2234.5017 367.91284 2318.3418 3959049
2256.6836 369.28723 2327.0022 4090635
0 0 0 0
0 0 0 0
0 0 0 0
0 0 0 0
0 0 0 0
0 0 0 0
0 0 0 0
0 0 0 0
-4978.1226 932.21918 5662.104 728320
-5006.0674 943.83447 5732.6533 1715211
-5059.2451 960.39917 5833.2632 1385737
-5024.5645 960.39917 5833.2632 68352
-5025.1738 967.19128 5874.5171 1536
-4952.519 959.87872 5830.1025 1024
-4886.0596 953.67236 5792.4062 1024
-4817.4849 946.96216 5751.6499 768
-4599.6514 910.60663 5530.834 512
-4693.5513 935.88684 5684.3809 512
-4720.6621 948.11945 5758.6792 512
-4703.1816 951.50946 5779.2695 512
-4696.4683 957.1438 5813.4912 512
-4662.5571 957.27759 5814.3037 256
-4641.4424 960.06024 5831.2051 512
-4642.6016 967.52667 5876.5547 512
-4610.5078 968.1239 5880.1821 512
-4613.6045 976.17609 5929.0889 512
-4621.9658 985.47473 5985.5674 512
-4613.7812 991.36237 6021.3276 512
-4552.0732 985.75165 5987.2495 768
-4534.2964 989.64081 6010.8711 768
-4516.9971 993.69672 6035.5059 768
-4506.8521 999.40417 6070.1719 512
-4470.7632 999.40417 6070.1719 512
-4419.0713 995.88788 6048.8149 512
-4389.9805 997.4491 6058.2969 512
-4353.9624 997.4491 6058.2969 512
-4317.9443 997.4491 6058.2969 512
-4263.9697 993.26642 6032.8921 512
-4276.0942 1004.5405 6101.3691 512
-4257.6655 1008.7686 6127.0498 768
-4240.6636 1013.4108 6155.2451 768
-4204.0688 1013.4108 6155.2451 768
-4168.4521 1013.6486 6156.6895 512
-4162.7402 1021.2272 6202.7197 512
-4134.147 1023.2774 6215.1729 256
-4109.6519 1026.3882 6234.0674 256
-4096.7866 1032.4867 6271.1079 256
-4104.3193 1043.8851 6340.3398 256
-4179.5986 1072.8853 6516.48 256
-4194.2886 1086.7294 6600.5664 256
-4180.584 1093.4087 6641.1353 256
-4141.1006 1093.4087 6641.1353 256
-4009.6526 1068.8926 6492.23 512
-3963.6877 1066.9098 6480.1865 512
-4073.0422 1107.1057 6724.3281 512
-4033.064 1107.1057 6724.3281 263424
-4111.5176 1139.9415 6923.7666 197888
-4089.7046 1145.3608 6956.6821 658433
-4069.498 1151.3455 6993.0312 921605
-4002.8423 1144.1764 6949.4883 1316361
-4023.3115 1162.0216 7057.8755 1513740
-3981.3503 1162.0216 7057.8755 1907984
-3939.3894 1162.0216 7057.8755 2499864
-3960.7993 1180.9156 7172.6348 2960414
-3918.1562 1180.9156 7172.6348 3749415
-3882.3333 1182.994 7185.2578 3025694
-3839.615 1182.994 7185.2578 3552038
-3779.4546 1177.5597 7152.251 3618087
-3699.8359 1165.8699 7081.25 3289379
-3762.5657 1199.2834 7284.1973 5263426
-3713.127 1197.3062 7272.187 3092770
-3656.655 1192.9877 7245.9575 3291173
-3613.5759 1192.9877 7245.9575 4871482
-3516.4126 1174.917 7136.1997 3688229
-3457.7847 1169.4376 7102.9194 3887399
-3370.5935 1154.0432 7009.4165 4086824
-3291.3342 1141.0131 6930.2749 4679982
-3286.5789 1153.8083 7007.9902 4615211
-3183.0542 1131.8124 6874.3916 4155427
-3142.1836 1131.8124 6874.3916 4024352
-3140.5112 1146.1174 6961.2773 3366679
-3099.1245 1146.1174 6961.2773 3038228
-3041.6013 1140.069 6924.5405 3169814
-3000.4329 1140.069 6924.5405 3235864
-2793.3264 1076.1406 6536.2529 3696930
-2754.4666 1076.1406 6536.2529 3303196
-2626.6204 1040.8771 6322.0698 3040537
-2538.5906 1020.5972 6198.894 2711830
-2550.9512 1040.6747 6320.8403 3171866
-2513.3721 1040.6747 6320.8403 2579476
-2470.6475 1038.512 6307.7041 2711062
-2399.282 1024.058 6219.9136 2513682
-2354.3789 1020.6229 6199.0498 2776598
-2350.614 1035.1956 6287.5615 3171613
-2313.2327 1035.1956 6287.5615 3105820
-1972.4681 897.19843 5449.3955 2908954
-1935.4867 895.07886 5436.5215 3041310
0 0 0 0
0 0 0 0
0 0 0 0
0 0 0 0
0 0 0 0
0 0 0 0
0 0 0 0
0 0 0 0
0 0 0 0
0 0 0 0
0 0 0 0
0 0 0 0
0 0 0 0
0 0 0 0
0 0 0 0
0 0 0 0
0 0 0 0
0 0 0 0
0 0 0 0
0 0 0 0
0 0 0 0
-522.1842 381.73138 2318.5566 2238750
-519.20038 389.84106 2367.813 65793
-507.54529 391.71048 2379.1675 256
-497.69226 395.11771 2399.8623 256
-484.42667 395.93692 2404.8379 256
-467.31271 393.56485 2390.4304 256
-445.33041 386.81537 2349.4355 256
-430.1651 385.7417 2342.9143 256
-415.32053 384.89349 2337.7625 256
-401.13312 384.61661 2336.0808 66306
-387.01111 384.38483 2334.6731 461062
-372.71548 383.95697 2332.0742 921613
-356.00079 380.90771 2313.5537 1250578
-337.3822 375.49438 2280.6743 1118991
-322.87494 374.39511 2273.9976 1250578
-299.07181 361.94949 2198.4055 1447444
-283.66162 358.98801 2180.418 2631718
-270.34946 358.52524 2177.6072 2237217
-254.53494 354.53049 2153.344 2302753
-242.79836 356.09338 2162.8367 2434853
-231.64917 358.74075 2178.9163 1382424
-218.69493 358.74075 2178.9163 658957
-205.74065 358.74075 2178.9163 922129
-192.19789 357.64566 2172.2649 1053971
-180.02287 359.12128 2181.2275 856592
-166.6949 358.34744 2176.5273 395785
-153.54181 357.85095 2173.5117 132356
-141.28871 359.5535 2183.8528 922642
-126.7944 355.32004 2158.1396 2961456
-112.75141 351.54047 2135.1831 3817021
-102.14439 358.87372 2179.7239 725007
-89.185326 358.87372 2179.7239 329481
-75.579033 355.82657 2161.2161 6845813
-62.34893 353.66498 2148.0872 2765621
-49.57795 353.66498 2148.0872 1317146
-37.97047 364.8446 2215.9897 1448986
-25.643887 377.32339 2291.7834 3158831
-11.981484 376.15823 2284.7065 790283
1.5877273 372.86938 2264.7305 2435870
14.985246 371.21124 2254.6594 5989198
27.807796 363.60098 2208.4363 6121291
40.623604 360.81238 2191.499 4543795
0 0 0 0
0 0 0 0
0 0 0 0
0 0 0 0
0 0 0 0
0 0 0 0
0 0 0 0
0 0 0 0
185.7825 424.56552 2578.7222 2579994
201.11374 424.56552 2578.7222 2711064
219.17485 429.92032 2611.2461 2777111
242.93756 445.01086 2702.9028 2513948
258.63251 444.36734 2698.9941 3763756
291.53336 471.63416 2864.6072 2382358
309.39508 472.90411 2872.3206 2316562
326.06201 472.31046 2868.7148 2776858
343.11731 472.31046 2868.7148 2908443
360.17264 472.31046 2868.7148 2250513
373.63165 467.80765 2841.366 2645014
386.86963 463.42972 2814.7751 2382099
403.07309 462.81985 2811.0708 2776857
419.78571 462.81985 2811.0708 2579735
436.61563 462.94418 2811.8262 2645015
425.95926 434.99042 2642.0408 2711063
443.49905 436.79486 2653.0005 2842650
484.78302 461.05746 2800.3665 3237408
501.43198 461.05746 2800.3665 3040284
515.13623 458.43683 2784.4495 3105820
522.96283 450.91156 2738.7424 3106076
514.64166 430.33813 2613.7839 2777111
551.75616 447.85007 2720.1475 2711317
545.59631 430.23981 2613.1868 2777109
561.13239 430.23981 2613.1868 2776851
582.22028 434.38187 2638.3445 2974743
605.41083 439.8342 2671.4609 2382606
626.85913 443.77435 2695.3926 2514192
647.90851 447.24268 2716.4585 2251020
664.05859 447.24268 2716.4585 2052872
686.05792 451.08856 2739.8176 3500317
701.67865 450.65939 2737.2109 2645265
681.24854 427.62051 2597.2776 2908437
695.23334 426.72638 2591.8467 2711058
706.35217 424.15005 2576.1987 2513423
718.75439 422.43738 2565.7964 3171354
750.53149 431.94659 2623.5532 3434524
725.39392 408.97989 2484.0581 2973715
781.72699 431.94659 2623.5532 3565595
774.76593 419.72546 2549.3247 2315014
770.55627 409.4353 2486.8242 3104788
769.7334 401.29825 2437.4016 3302425
0 0 0 0
798.71545 401.29825 2437.4016 3696926
819.73608 404.52045 2456.9727 3236120
838.349 406.46246 2468.7681 3434270
853.02661 406.46246 2468.7681 3697442
890.46167 417.12292 2533.5173 3565601
921.77203 424.60742 2578.9766 3631394
930.59576 421.65814 2561.0632 2841879
945.82196 421.65814 2561.0632 3367964
966.69281 424.13467 2576.1052 3236121
994.18616 429.39429 2608.051 2709264
988.41467 420.3457 2553.092 2906900
1003.5936 420.3457 2553.092 3170329
1025.6613 423.18811 2570.356 4091427
1036.5992 421.42227 2559.6306 4289061
1051.8169 421.42227 2559.6306 3762460
1048.6722 414.1701 2515.5825 4157216
1063.6282 414.1701 2515.5825 3761687
1078.933 414.30411 2516.3965 4682531
1097.1829 415.54993 2523.9631 4024858
1108.8544 414.30411 2516.3965 4419102
1089.9468 401.81833 2440.5603 4155930
0 0 0 0
0 0 0 0
1090.9701 386.74982 2349.0376 4550948
1104.9358 386.74982 2349.0376 4419359
1104.3077 381.70551 2318.3994 4353567
1105.9272 377.5528 2293.1768 4485407
0 0 0 0
0 0 0 0
0 0 0 0
0 0 0 0
0 0 0 0
1219.4189 387.6265 2354.3621 4090390
1233.4163 387.6265 2354.3621 4156183
1237.8691 384.66058 2336.3479 3629838
1282.9553 394.24698 2394.5735 3366667
1303.8602 396.27365 2406.8833 3695120
1381.4971 415.31137 2522.5144 4287515
1396.4941 415.31137 2522.5144 4419102
1386.1676 407.86026 2477.2578 4550687
1365.5613 397.57294 2414.7749 3695635
1379.5043 397.4538 2414.0513 4616737
1372.543 391.37631 2377.1379 3893012
1386.6757 391.37631 2377.1379 4024856
1433.6079 400.54028 2432.7979 5077288
1448.0715 400.54028 2432.7979 4879652
1462.5353 400.54028 2432.7979 4616481
1493.6941 405.06778 2460.2969 4287515
1493.0021 400.95377 2435.3091 4681761
1520.9772 404.54346 2457.1123 4878625
1535.5853 404.54346 2457.1123 5602608
1572.3778 410.33276 2492.2751 4419103
1567.1412 405.14822 2460.7856 4287773
1579.655 404.60623 2457.4937 3893271
1594.2656 404.60623 2457.4937 4156441
1608.8761 404.60623 2457.4937 4090905
1600.7584 398.94186 2423.0896 3893528
1577.9309 389.74536 2367.2317 5406516
1592.0048 389.74536 2367.2317 4221731
1616.5605 392.28897 2382.6812 4155938
1632.785 392.78424 2385.6892 4090398
1630.8376 388.93719 2362.323 3169551
1644.8822 388.93719 2362.323 3696147
1695.8981 397.60513 2414.9702 3103752
1650.6803 383.75479 2330.8464 3498762
1651.8207 380.82294 2313.0388 4354326
1665.5723 380.82294 2313.0388 4815134
1651.0223 374.40494 2274.0571 4223251
1698.8828 382.12915 2320.9724 4025615
1731.1029 386.23923 2345.9363 3959564
1745.05 386.23923 2345.9363 4222736
1758.9973 386.23923 2345.9363 4354321
1789.9366 389.94095 2368.4197 5407266
1809.7572 391.18158 2375.9551 5341469
1860.3328 398.99924 2423.438 4288268
1928.0365 410.34213 2492.3323 4090889
1984.8947 419.22137 2546.2629 3959304
1909.9822 400.34607 2431.6182 4025096
1900.8667 395.44229 2401.8337 4485649
1883.264 388.85925 2361.8496 4945946
1842.6686 377.6611 2293.8345 4616981
1850.8666 376.55447 2287.113 4485653
1906.2346 384.9906 2338.3523 5669417
1920.1367 384.9906 2338.3523 5143073
1962.8414 390.72403 2373.176 5011745
1976.9507 390.72403 2373.176 5669418
2041.9253 400.70587 2433.8035 5406247
2003.355 390.37054 2371.0291 5274662
1949.0066 377.12671 2290.5886 5274662
1962.6248 377.12671 2290.5886 5340454
1935.8558 369.41959 2243.7773 4748573
1999.0767 378.87323 2301.1968 5406245
1999.1307 376.30811 2285.6167 5405988
1992.5626 372.53952 2262.7271 4945693
2006.0151 372.53952 2262.7271 5143071
2019.4677 372.53952 2262.7271 5011228
1978.0532 362.48495 2201.6577 4682264
1934.4991 352.1731 2139.0256 4682520
1922.4154 347.68762 2111.7817 5274401
1934.9706 347.68762 2111.7817 5143070
1917.4279 342.3143 2079.1455 4616726
2000.1567 354.79648 2154.9595 4287505
1984.9434 349.85684 2124.9573 4484883
1976.0648 346.0892 2102.0735 4945433
2161.6382 376.21136 2285.0291 4879640
2175.2234 376.21136 2285.0291 5472032
2188.8083 376.21136 2285.0291 4353807
2087.927 356.65823 2166.2676 4353550
2100.8062 356.65823 2166.2676 3827720
0 0 0 0
0 0 0 0
0 0 0 0
0 0 0 0
0 0 0 0
0 0 0 0
0 0 0 0
0 0 0 0
-4978.1226 965.8819 5662.104 1188357
-5035.3115 983.62946 5766.1421 1451529
-5059.2451 995.07947 5833.2632 3584
-5237.0181 1037.1544 6079.9106 2560
-5101.146 1017.2672 5963.3301 68096
-4957.8706 995.61499 5836.4023 661764
-4906.5073 992.24493 5816.647 1792
-4766.7007 970.81427 5691.0176 1024
-4713.4009 966.82153 5667.6123 768
-4679.7061 966.82153 5667.6123 1024
-4720.6621 982.35645 5758.6792 768
-4719.8442 989.36163 5799.7446 512
-4688.5752 990.03998 5803.7212 512
-4662.5571 991.84521 5814.3037 256
-4641.4424 994.72839 5831.2051 256
-4623.8726 998.42041 5852.8481 256
-4594.2222 999.54016 5859.4121 256
-4574.2217 1002.7924 5878.4771 256
-4572.4844 1010.1293 5921.4873 256
-4555.6279 1014.2142 5945.4331 0
-4544.1089 1019.5605 5976.7739 0
-4513.1045 1020.5848 5982.7778 0
-4491.5938 1023.7893 6001.563 256
-4481.1138 1029.5795 6035.5059 256
-4470.7632 1035.493 6070.1719 256
-4424.3613 1033.085 6056.0552 256
-4383.1099 1031.8499 6048.8149 256
-4347.1479 1031.8499 6048.8149 256
-4318.9609 1033.7107 6059.7236 256
-4273.5757 1031.452 6046.4829 256
-4276.0942 1040.8149 6101.3691 512
-4257.6655 1045.1957 6127.0498 512
-4240.6636 1050.0055 6155.2451 512
-4204.0688 1050.0055 6155.2451 512
-4167.4746 1050.0055 6155.2451 512
-4162.7402 1058.104 6202.7197 512
-4134.147 1060.2284 6215.1729 256
-4097.3652 1060.2721 6215.4297 256
-4060.2454 1060.2284 6215.1729 256
-4079.1279 1074.9418 6301.4243 256
-4156.8174 1105.5685 6480.9619 256
-4181.7949 1122.6176 6580.9053 256
-4178.9175 1132.4404 6638.4878 256
-4139.4502 1132.4404 6638.4878 512
-3975.3735 1098.0227 6436.7275 512
-4263.686 1189.103 6970.6504 461058
-4222.2437 1189.103 6970.6504 461056
-3797.7981 1080.1694 6332.0693 1316107
-3940.96 1132.1096 6636.5483 1184262
-4096.8833 1188.8032 6968.8926 2105620
-4157.9082 1218.8373 7144.9556 2105620
-4215.1416 1248.3682 7318.0688 1908498
-4158.2056 1244.3499 7294.5132 2303256
-4075.178 1232.3566 7224.2075 2565914
-4071.4697 1244.3499 7294.5132 3882028
-4137.0522 1278.0065 7491.812 3289632
-3918.1562 1223.559 7172.6348 5066554
-3875.5125 1223.559 7172.6348 3750948
-3768.7937 1203.1042 7052.7271 3620387
-3681.1328 1188.3416 6966.1865 4214315
-3639.5417 1188.2844 6965.8516 4413742
-3636.7922 1201.0532 7040.7036 4745010
-3538.843 1182.3137 6930.8506 4746545
-3494.1565 1181.1371 6923.9531 3893028
-3452.9912 1181.1371 6923.9531 3564831
-3453.9392 1195.7161 7009.4165 3433756
-3307.4297 1158.9795 6794.063 3632161
-3266.2527 1158.7012 6792.4316 3368475
-3165.866 1137.1483 6666.0864 3171352
-2984.7205 1085.6737 6364.3359 2908180
-3066.4475 1129.7231 6622.5586 3236889
-3027.0747 1129.7231 6622.5586 3039254
-2696.6538 1019.6708 5977.4199 3236892
-2643.8911 1013.0705 5938.7285 3302428
-2588.7449 1005.3659 5893.5635 3302430
-2744.8154 1080.6035 6334.6147 3500065
-2707.1545 1080.6035 6334.6147 3368736
-2619.0366 1060.1788 6214.8828 2908440
-2509.686 1030.4515 6040.6177 2711572
-2373.0193 988.4826 5794.5918 2777365
-2239.3354 946.5379 5548.7075 2842901
-2206.3469 946.5379 5548.7075 3171865
-2130.5813 927.90784 5439.4956 3698467
-2098.2419 927.90784 5439.4956 3237656
-2105.4431 945.66742 5543.6045 2778132
-2032.2834 927.32373 5436.0718 3107609
-1955.7766 906.83514 5315.9653 2976025
-1716.5933 809.00635 4742.4824 3173147
0 0 0 0
0 0 0 0
0 0 0 0
0 0 0 0
0 0 0 0
0 0 0 0
0 0 0 0
0 0 0 0
0 0 0 0
0 0 0 0
0 0 0 0
0 0 0 0
0 0 0 0
0 0 0 0
0 0 0 0
0 0 0 0
0 0 0 0
0 0 0 0
0 0 0 0
0 0 0 0
0 0 0 0
0 0 0 0
-515.69849 390.60345 2289.7595 4673860
-512.56732 398.75809 2337.563 3816759
-510.25305 408.02054 2391.8604 131841
-503.40591 414.08542 2427.4133 197378
-484.42667 410.23434 2404.8379 131842
-458.37595 399.97839 2344.7166 1118222
-440.68195 396.59995 2324.9116 1512723
-426.85974 396.59995 2324.9116 920843
-413.68826 397.22479 2328.5747 1315857
-399.84421 397.22479 2328.5747 855563
-382.40329 393.52332 2306.876 1513492
-367.01892 391.74149 2296.4309 1513492
-349.91464 387.91534 2274.0015 1579287
-332.70636 383.66168 2249.0662 987149
-315.54434 379.10739 2222.3684 1447700
-296.62479 371.9512 2180.418 2040094
-280.09183 367.27032 2152.9783 2961194
-266.51785 366.20694 2146.7446 3421745
-253.75488 366.20694 2146.7446 2500645
-240.56554 365.55908 2142.9468 2829610
-227.82513 365.55908 2142.9468 921359
-218.02734 370.56036 2172.2649 3290675
-205.11261 370.56036 2172.2649 922383
-190.4698 367.22861 2152.7336 1448727
-178.89745 369.76312 2167.5913 593674
-166.46394 370.77307 2173.5117 659213
-152.34583 367.88501 2156.5815 790543
-139.52435 367.88501 2156.5815 329992
-126.42041 367.06488 2151.7739 526859
-113.96367 368.15079 2158.1396 1777696
-101.75816 370.42676 2171.4817 330251
-88.666618 369.67017 2167.0464 3818309
-74.878159 365.25671 2141.1743 988696
-62.296501 366.12787 2146.281 1778468
-49.898727 368.80685 2161.9856 1251352
-37.677753 375.1051 2198.9065 256
-25.302626 385.74606 2261.2849 66048
-11.858657 385.74606 2261.2849 1514773
1.5877273 386.33383 2264.7305 198400
14.664369 376.38013 2206.3809 1514000
28.204975 382.11157 2239.9792 2171673
41.522274 382.11157 2239.9792 3027744
53.652676 373.84146 2191.499 3752746
67.201553 376.75571 2208.5825 2899227
81.108994 380.3989 2229.9392 2375699
94.480217 380.85687 2232.624 4286770
111.6156 394.50647 2312.6394 2183444
125.76288 395.75891 2319.9814 3631147
151.33539 429.16397 2515.8054 2777112
169.11388 436.44519 2558.4888 2908441
186.39725 441.35233 2587.2549 2447891
205.21167 448.86017 2631.2666 2579478
225.89601 459.1048 2691.3218 2579734
242.93756 461.08035 2702.9028 2842648
258.63251 460.4136 2698.9941 2974234
278.72589 467.1973 2738.761 3040027
299.62036 474.50082 2781.5752 2776854
316.15762 474.50082 2781.5752 3303198
331.7283 473.12231 2773.4941 2710807
347.73911 472.47235 2769.6838 2578967
366.58496 475.55896 2787.7778 3039775
379.62375 471.17105 2762.0557 4420915
396.04495 471.17105 2762.0557 3105312
391.4126 447.12106 2621.072 1921552
411.92493 452.53635 2652.8169 2250260
424.67563 449.33987 2634.0789 2711066
440.33597 449.33987 2634.0789 3500582
455.99631 449.33987 2634.0789 2184978
478.51688 455.87555 2672.3916 2776601
497.42657 458.66165 2688.7241 2052878
506.68732 452.6543 2653.5083 2578966
513.8783 445.21652 2609.9072 1921293
515.92883 433.8916 2543.5195 2118415
531.05078 433.8916 2543.5195 2908186
551.81244 438.37195 2569.7837 2184460
566.14514 437.64114 2565.4995 3303196
597.90594 450.06757 2638.3445 3171609
600.36365 440.36481 2581.4661 2382095
617.69104 441.78085 2589.7671 2184461
631.55206 440.70914 2583.4844 2644755
639.33368 435.54663 2553.2214 2381326
654.51331 435.54663 2553.2214 2184204
671.25812 436.56458 2559.1887 2776342
686.47321 436.56458 2559.1887 2513171
703.5 437.69177 2565.7964 2841882
695.85706 423.74826 2484.0581 2710295
704.72754 420.23132 2463.4412 2973465
719.37341 420.23132 2463.4412 2446093
734.01923 420.23132 2463.4412 2907155
755.77142 424.22012 2486.8242 3235863
760.02618 418.42294 2452.8403 2841108
769.7334 415.78928 2437.4016 2577939
784.22449 415.78928 2437.4016 3038491
805.12872 419.12787 2456.9727 2577685
829.59076 424.16647 2486.5098 2775063
838.349 421.14001 2468.7681 3761958
851.41254 420.34317 2464.0969 3038236
867.7041 421.14001 2468.7681 3169821
832.52234 397.34335 2329.2695 2841113
919.54675 431.6972 2530.6555 3828008
922.42023 426.07486 2497.6968 3630629
937.26971 426.07486 2497.6968 3630373
952.1192 426.07486 2497.6968 3433248
925.53778 407.81915 2390.6799 3827750
938.51678 407.28351 2387.54 3169559
990.69897 423.52322 2482.7388 4090915
1005.4595 423.52322 2482.7388 2840848
1020.2201 423.52322 2482.7388 3630362
967.97034 396.10199 2321.9927 3498518
971.138 391.81033 2296.8345 4616742
1009.5949 401.67795 2354.6794 4090139
1006.1691 394.84 2314.5947 4287518
1018.8539 394.42343 2312.1526 4748069
1032.6002 394.42343 2312.1526 4024600
1030.0261 388.27136 2276.0886 3826712
0 0 0 0
1076.7407 395.48907 2318.3994 4879658
1092.2994 396.13281 2322.1733 5208367
1105.5728 395.94211 2321.0554 4221726
1105.9272 391.1864 2293.1768 4682531
0 0 0 0
0 0 0 0
0 0 0 0
0 0 0 0
0 0 0 0
1219.4189 401.62381 2354.3621 4089877
1236.0327 402.4758 2359.3564 3826961
1237.8691 398.55084 2336.3479 3695376
1264.0868 402.4758 2359.3564 3563791
1267.0669 398.9971 2338.9641 3826707
1348.8206 420.13034 2462.8494 3432464
1363.4628 420.13034 2462.8494 4353310
1358.7432 414.22766 2428.2471 3629843
1349.5699 407.10559 2386.4968 3300621
1339.8112 399.95694 2344.5908 3893271
1325.6667 391.65979 2295.9519 4221979
1339.3168 391.65979 2295.9519 3103757
1349.8627 390.76123 2290.6843 3695891
1406.2429 403.01627 2362.5247 5142824
1439.91 408.58392 2395.1628 3563791
1427.0691 400.97479 2350.5574 4090390
1439.6473 400.58621 2348.2795 3761938
1458.252 401.86584 2355.7808 3761426
1472.2577 401.86584 2355.7808 7048520
1486.2634 401.86584 2355.7808 8232783
1526.9968 409.02518 2397.7495 4746266
1541.2521 409.02518 2397.7495 4024344
1531.4238 402.69232 2360.6257 3959320
1537.1232 400.52045 2347.894 3366412
1518.4437 392.09259 2298.489 5866545
1531.448 391.92343 2297.4973 4814117
1544.4629 391.75998 2296.5393 4024858
1540.7369 387.39026 2270.9233 4814120
1571.7699 391.75998 2296.5393 5076779
1606.5858 396.98923 2327.1936 4155675
1622.2365 397.43381 2329.7998 4221982
1601.4604 389.02228 2280.4905 3432467
1586.5549 382.16599 2240.2981 3366673
1599.874 382.16599 2240.2981 4616740
1525.5957 361.41406 2118.6482 3498258
1611.6196 378.66675 2219.7854 4617250
1664.5424 387.9248 2274.0571 3629842
1678.0623 387.9248 2274.0571 3630094
1706.5111 391.34842 2294.1267 4354072
1713.1277 389.7507 2284.7607 4222740
1708.2629 385.58661 2260.3503 5078302
1770.7963 396.58176 2324.8049 5011995
1796.2839 399.17419 2340.0022 4748820
1810.1959 399.17419 2340.0022 4354062
1889.1488 413.40726 2423.438 4090378
1905.2483 413.7746 2425.5913 4156428
1849.0659 398.55649 2336.3811 4222479
1829.031 391.29858 2293.8345 4156687
1824.8153 387.50739 2271.6101 4419604
1838.3208 387.50739 2271.6101 4354580
1861.7871 389.5918 2283.8291 4288532
1890.7666 392.79135 2302.5852 5275427
1934.0389 398.89273 2338.3523 5077536
1949.498 399.21155 2340.2212 4288278
1914.0466 389.17447 2281.3828 4354072
1916.139 386.85852 2267.8064 4354327
1912.1643 383.35858 2247.2893 4091153
1890.8479 376.45459 2206.8174 4946206
1903.9679 376.45459 2206.8174 3696139
1919.0333 376.83658 2209.0566 4419350
1902.0316 370.95923 2174.603 5208865
1914.9604 370.95923 2174.603 4617240
1966.6947 378.42612 2218.3748 4616727
1964.9637 375.57443 2201.6577 5143327
1921.7821 364.89017 2139.0256 3893517
1860.5406 350.93994 2057.2478 4287505
1922.4154 360.24274 2111.7817 4748055
1911.5818 355.88837 2086.2559 6129709
1917.4279 354.67542 2079.1455 4550934
1936.3887 355.88837 2086.2559 4748311
1963.5674 358.58664 2102.0735 4353297
1936.1014 351.33469 2059.5618 4550932
2001.2583 360.87607 2115.4944 5011995
2065.9678 370.21808 2170.2583 5275167
2135.6548 380.33057 2229.5388 5275166
2087.927 369.53732 2166.2676 4222221
2100.8062 369.53732 2166.2676 4156429
0 0 0 0
0 0 0 0
0 0 0 0
0 0 0 0
0 0 0 0
0 0 0 0
0 0 0 0
0 0 0 0
-4978.1226 999.54474 5662.104 2373909
-5156.9072 1042.4919 5905.3862 2307860
-5121.7979 1042.4919 5905.3862 201216
-5277.3672 1081.5704 6126.7539 595968
-5240.9419 1081.5704 6126.7539 133888
-5062.4819 1052.0537 5959.5508 1536
-5027.0503 1052.0537 5959.5508 1280
-4991.6196 1052.0537 5959.5508 1280
-4783.29 1015.3525 5751.6499 768
-4751.6143 1015.8911 5754.7012 1024
-4767.043 1026.5815 5815.2588 768
-4732.4697 1026.5815 5815.2588 512
-4697.1245 1026.413 5814.3037 512
-4672.3145 1028.5608 5826.4712 256
-4647.8159 1030.8101 5839.2124 256
-4613.8701 1030.9822 5840.187 256
-4573.334 1029.673 5832.771 256
-4539.0605 1029.7646 5833.2905 256
-4545.1729 1039.0905 5886.1182 256
-4537.2798 1045.3342 5921.4873 256
-4534.541 1052.8727 5964.1899 256
-4499.0825 1052.8727 5964.1899 256
-4477.5347 1056.1539 5982.7778 256
-4455.9131 1059.4702 6001.563 256
-4443.9976 1065.1665 6033.8306 256
-4399.3267 1063.0405 6021.7876 256
-4363.5249 1063.0405 6021.7876 256
-4327.7236 1063.0405 6021.7876 256
-4340.4365 1075.0566 6089.855 256
-4263.9697 1065.0009 6032.8921 256
-4103.5767 1033.6344 5855.2114 512
-4061.5154 1031.7925 5844.7773 512
-3973.334 1018.1013 5767.2207 512
-3934.6543 1016.9661 5760.791 512
-3900.405 1016.9661 5760.791 512
-3880.9622 1020.861 5782.8535 256
-4033.8367 1070.5575 6064.3687 256
-3997.7825 1070.5575 6064.3687 256
-3952.314 1068.0135 6049.958 256
-3896.7402 1062.6671 6019.6724 256
-3782.0168 1040.9415 5896.6035 256
-3741.1235 1039.3202 5887.4194 132097
-3756.7534 1053.5192 5967.8521 461059
-3721.2732 1053.5192 5967.8521 527108
-3761.2402 1075.0845 6090.0132 1250316
-3925.9448 1133.0697 6418.481 1250570
-3851.3264 1122.4441 6358.29 1711122
-3714.4326 1093.2782 6193.0742 1908498
-3661.3413 1088.4408 6165.6724 2171156
-3972.1006 1192.7649 6756.6348 2237205
-4292.0405 1302.0055 7375.4487 2434585
-4266.7749 1307.7012 7407.7124 2500888
-4204.3428 1302.0055 7375.4487 2829853
-4064.5315 1271.9747 7205.334 3159841
-3913.73 1237.8281 7011.9038 3490084
-3938.5281 1259.0825 7132.3032 4412976
-3772.8198 1219.235 6906.5801 3888679
-3752.7151 1226.0819 6945.3657 3824421
-3711.4229 1226.0819 6945.3657 4088613
-3674.7424 1227.6227 6954.0933 3694878
-3587.1899 1212.0101 6865.6533 3630110
-3423.0793 1169.8737 6626.9639 3170327
-3231.5854 1117.2883 6329.0845 3302939
-3199.7532 1119.3159 6340.5698 2513936
-3226.5803 1142.156 6469.9521 2250764
-3227.634 1156.3142 6550.1533 2513934
-3188.6917 1156.3142 6550.1533 2251019
-3149.749 1156.3142 6550.1533 2579728
-2732.5701 1015.7203 5753.7339 2645008
-2698.3625 1015.7203 5753.7339 2579216
-2682.804 1022.8303 5794.0093 2447886
-2648.3569 1022.8303 5794.0093 2776596
-2613.9099 1022.8303 5794.0093 2908438
-2410.3909 955.78839 5414.2383 2842389
-2378.2017 955.78839 5414.2383 2974232
-2433.2903 991.34625 5615.6626 3697697
-2399.9038 991.34625 5615.6626 3237659
-2366.5171 991.34625 5615.6626 3369243
-2242.7717 952.95294 5398.1763 3896355
-2209.5217 952.45447 5395.353 4488492
-2177.4451 952.45447 5395.353 4817200
-2065.189 916.85828 5193.7114 4751665
-2007.3601 904.71167 5124.9048 3830306
-1913.444 875.67542 4960.4238 3896613
-1883.9528 875.67542 4960.4238 4291371
0 0 0 0
0 0 0 0
0 0 0 0
0 0 0 0
0 0 0 0
0 0 0 0
0 0 0 0
0 0 0 0
0 0 0 0
0 0 0 0
0 0 0 0
0 0 0 0
0 0 0 0
0 0 0 0
0 0 0 0
0 0 0 0
0 0 0 0
0 0 0 0
0 0 0 0
0 0 0 0
0 0 0 0
0 0 0 0
0 0 0 0
0 0 0 0
-518.4585 395.92841 2242.8091 1383437
-519.51453 407.20782 2306.7031 725511
-508.39975 409.30032 2318.5566 526598
-494.61523 409.30032 2318.5566 1316370
-496.03278 422.24081 2391.8604 395269
-475.48157 416.69263 2360.4316 723978
-451.6149 407.81311 2310.1321 1184271
-428.4762 399.05457 2260.5176 1513493
-413.99597 398.0538 2254.8486 1118479
-398.86288 396.33728 2245.1252 1250066
-387.18457 398.0538 2254.8486 1315859
-371.57919 395.71127 2241.5789 1053199
-353.54514 390.51184 2212.1257 1316368
-340.39343 390.51184 2212.1257 2171677
-328.14658 391.59161 2218.2424 2171677
-312.14194 388.08978 2198.4055 2632483
-290.61487 377.11563 2136.2405 2500896
-275.17706 373.40128 2115.2 3619376
-259.48022 368.96289 2090.0579 4738112
-246.74738 368.50458 2087.4617 5264199
-234.33681 368.50458 2087.4617 3882549
-227.10378 377.10175 2136.1619 3685171
-214.64621 377.52823 2138.5779 1514261
-203.26839 380.02722 2152.7336 1843227
-190.28725 379.66296 2150.6704 1448469
-177.67119 380.02722 2152.7336 2303522
-165.1673 380.70648 2156.5815 1974814
-152.34583 380.70648 2156.5815 1316626
-139.52435 380.70648 2156.5815 1053457
-126.41106 379.82968 2151.6147 527114
-113.61911 379.82968 2151.6147 1318426
-101.20407 381.24951 2159.6577 6055781
-88.364304 381.24951 2159.6577 4213322
-75.524529 381.24951 2159.6577 1120537
-62.729996 381.52463 2161.2161 856593
-49.898727 381.66046 2161.9856 257
-37.280106 384.08142 2175.6995 132098
-24.841974 391.92252 2220.1167 66048
-11.621119 391.19397 2215.9897 461060
1.55645 391.92252 2220.1167 1053196
14.657718 389.32101 2205.3801 2369057
28.204975 395.42886 2239.9792 1448465
41.619267 396.35251 2245.2114 2369564
54.96767 396.35251 2245.2114 3422761
69.232986 401.67221 2275.3457 3883314
82.760551 401.67221 2275.3457 2173461
97.86631 408.25577 2312.6394 660740
111.96995 409.55182 2319.9814 3161887
127.88329 416.45703 2359.0972 1453574
151.33539 444.12112 2515.8054 5534772
168.71834 450.5997 2552.5046 2710289
185.7825 455.22797 2578.7222 2776851
201.11374 455.22797 2578.7222 2513680
216.44495 455.22797 2578.7222 2579730
236.49887 464.50375 2631.2666 1921031
254.06586 468.04706 2651.3381 2711311
269.8288 468.04706 2651.3381 3697949
292.21567 478.9028 2712.8325 2448140
308.34421 478.9028 2712.8325 2184715
329.54141 486.38382 2755.2102 2711060
339.58972 477.48044 2704.7754 3039771
353.48239 474.54315 2688.1365 2644758
354.25131 455.00366 2577.4517 3105311
364.3895 448.61957 2541.2876 2513174
379.65381 448.80353 2542.3298 1920781
399.51675 454.20151 2572.9077 2578967
410.08505 449.0242 2543.5798 3105054
421.37881 444.98123 2520.6777 2118416
432.36884 440.90622 2497.594 2052622
443.93439 437.66925 2479.2576 2315794
472.06741 450.44904 2551.6509 2052879
492.82373 455.61328 2580.9048 2908189
500.80692 449.01358 2543.5195 2447382
505.67657 440.091 2492.9761 2183956
520.49805 440.091 2492.9761 2710558
535.31946 440.091 2492.9761 2052371
537.76611 430.19165 2436.8994 2183957
552.25415 430.19165 2436.8994 2381335
584.25391 443.48413 2512.197 2447383
615.71112 455.71237 2581.4661 2973215
629.02356 454.24268 2573.1409 3499560
626.93958 441.98853 2503.7249 1986575
641.82495 441.98853 2503.7249 3500068
665.58203 447.9595 2537.5486 2842138
655.13739 431.15707 2442.3682 1788938
669.65796 431.15707 2442.3682 2446867
674.88531 425.30069 2409.1936 2775833
692.70642 427.45905 2421.4202 2249999
725.39392 438.51672 2484.0581 2315792
734.01923 434.87714 2463.4412 2973463
750.14288 435.73557 2468.304 3105050
756.89166 431.21994 2442.7244 2972696
761.71588 425.79852 2412.0137 2183182
784.22449 430.28033 2437.4016 3499042
790.39606 425.79852 2412.0137 1854218
792.66406 419.41101 2375.8303 3367714
806.78906 419.41101 2375.8303 2446868
804.77972 411.16785 2329.1355 2314514
791.39197 397.48862 2251.647 2906651
802.80597 396.51431 2246.1279 2840858
846.05157 411.03656 2328.3918 3564837
871.03381 416.36121 2358.5544 4222766
866.24054 407.50977 2308.4136 3432993
879.20374 407.15738 2306.4175 3038489
902.77698 411.65381 2331.8884 3367454
920.14545 413.22772 2340.8042 3630367
934.06213 413.22772 2340.8042 2972179
940.3606 409.90692 2321.9927 4419880
941.83606 404.6102 2291.9885 3696413
955.46252 404.6102 2291.9885 3959069
948.04944 395.82581 2242.2278 3169297
954.34601 392.92972 2225.8223 3300878
945.96149 384.15088 2176.093 2774538
1011.994 405.42163 2296.585 4155939
1025.6478 405.42163 2296.585 4879410
1030.0261 401.80338 2276.0886 4747569
1017.5957 391.80695 2219.4622 5010738
1031.042 391.90234 2220.0027 4747564
1082.8209 406.3815 2302.0225 5471029
1104.3077 409.27258 2318.3994 5208369
1093.1219 400.13266 2266.6248 4353057
0 0 0 0
0 0 0 0
0 0 0 0
0 0 0 0
0 0 0 0
1184.2937 403.64923 2286.5449 4418591
1203.6074 405.57654 2297.4624 5208108
1223.1073 407.52264 2308.4866 4023579
1251.7594 412.44104 2336.3479 3694874
1260.3661 410.7193 2326.5947 3628824
1291.2795 416.22516 2357.7837 3629336
1305.2972 416.22516 2357.7837 2444810
1285.0851 405.42615 2296.6106 2576651
1284.9504 401.12177 2272.2275 4352801
1222.0828 377.52734 2138.5728 3037200
1292.2977 395.10764 2238.1594 4748071
1305.6042 395.10764 2238.1594 4813864
1294.4491 387.77963 2196.6487 3432470
1241.5923 368.23016 2085.9072 3893271
1352.8004 397.24442 2250.2637 3564306
1391.3588 404.56598 2291.738 4288029
1404.9838 404.56598 2291.738 3827221
1418.6088 404.56598 2291.738 3432463
1450.5294 409.73401 2321.0132 4221210
1464.3286 409.73401 2321.0132 4287260
1480.5724 410.41168 2324.8521 4353053
1497.8112 411.35004 2330.1677 5273129
1499.5487 408.0531 2311.4915 5470508
1475.0555 397.74301 2253.0881 4352027
1484.0625 396.5704 2246.4456 5996852
1453.8367 385.02841 2181.064 5931830
1459.9076 383.21823 2170.8098 4682019
1479.7708 385.02841 2181.064 4945191
1547.807 399.2327 2261.5266 4484641
1561.2526 399.2327 2261.5266 4090394
1544.7905 391.65027 2218.5747 5340460
1573.2356 395.48517 2240.2981 5011238
1569.3352 391.19278 2215.9829 4024597
1541.726 381.11108 2158.8735 4024345
1523.3739 373.46533 2115.5627 4155928
1562.5082 379.92255 2152.1409 3893014
1597.649 385.3118 2182.6692 4682786
1588.0983 379.92255 2152.1409 3301136
1691.9319 401.52774 2274.5273 5801265
1705.4546 401.52774 2274.5273 4880159
1636.4908 382.2601 2165.3823 4683033
0 0 0 0
1735.1399 399.02502 2260.3503 4814360
0 0 0 0
1780.8059 403.28003 2284.4536 4682514
1820.2794 409.09912 2317.4167 4682516
1815.3936 404.93607 2293.8345 5011226
1792.5991 396.87027 2248.1443 4945690
1816.4109 399.16586 2261.1479 4682777
1833.4924 399.9595 2265.6438 4551447
1833.2799 396.99655 2248.8596 4024335
1846.6499 396.99655 2248.8596 4550936
1886.9197 402.73795 2281.3828 4419350
1835.8711 389.04578 2203.821 5932589
1822.0947 383.3902 2171.7839 3893262
1889.9575 394.87112 2236.8198 3827467
1870.8271 388.14307 2198.7075 3959054
1858.9934 383.01169 2169.6399 3630090
0 0 0 0
1884.7916 383.01169 2169.6399 3893007
1872.2299 377.87289 2140.5303 3761676
1880.1732 376.91418 2135.0994 4945694
1892.8671 376.91418 2135.0994 4090385
1905.5609 376.91418 2135.0994 4748571
1803.9783 354.46021 2007.9048 4419605
1776.7979 346.82455 1964.6512 3959310
1872.7716 363.17087 2057.2478 4222224
1903.3231 366.70056 2077.2424 3367175
1911.687 365.93756 2072.9204 3959052
1929.7891 367.03653 2079.1455 4288019
1938.4192 366.33142 2075.1514 5669674
1950.7566 366.33142 2075.1514 4813851
2001.2583 373.45325 2115.4944 4484887
2028.1798 376.11331 2130.5627 4616471
1842.22 339.50784 1923.2043 4353555
1965.3859 359.97223 2039.1285 4222224
1977.509 359.97223 2039.1285 4090894
0 0 0 0
0 0 0 0
0 0 0 0
0 0 0 0
0 0 0 0
0 0 0 0
0 0 0 0
0 0 0 0
-5183.5903 1075.8523 5895.8027 1781516
-5191.7783 1084.8878 5945.3184 2176785
-5156.4316 1084.8878 5945.3184 2111247
-5277.3672 1117.9957 6126.7539 1650954
-5240.9419 1117.9957 6126.7539 727040
-4984.3267 1070.6962 5867.5464 2042645
-4895.5649 1059.041 5803.6753 1536
-5067.5425 1104.0256 6050.1963 1536
-4924.6177 1080.5577 5921.5889 134144
-4889.4121 1080.5577 5921.5889 923397
-4853.8208 1080.4718 5921.1182 2238744
-4748.4053 1064.7281 5834.8408 263938
-4713.7158 1064.7281 5834.8408 512
-4679.0259 1064.7281 5834.8408 256
-4648.5918 1065.7037 5840.187 256
-4608.0112 1064.3503 5832.771 256
-4569.562 1063.4727 5827.9604 256
-4534.9131 1063.4727 5827.9604 256
-4504.0684 1064.3717 5832.8872 256
-4475.7783 1065.8928 5841.2236 256
-4448.7979 1067.7523 5851.4136 256
-4308.8765 1042.3206 5712.0444 256
-4274.917 1042.3206 5712.0444 256
-4217.4082 1036.5327 5680.3267 256
-4216.4243 1044.656 5724.8433 256
-4186.4824 1045.6786 5730.4473 256
-4249.6934 1070.1761 5864.6968 256
-3974.2383 1009.0891 5529.9321 256
-4246.1436 1087.1211 5957.5571 0
-4138.3877 1068.4453 5855.2114 256
-3968.2144 1033.2012 5662.0688 512
-3925.2815 1030.7668 5648.7285 132096
-3891.6985 1030.7668 5648.7285 198144
-3858.1152 1030.7668 5648.7285 395523
-3798.6909 1023.8022 5610.562 527108
-3785.5947 1029.311 5640.751 527108
-3774.0557 1035.3455 5673.8203 921866
-3832.2952 1060.804 5813.3359 724743
-3865.7854 1079.8126 5917.5054 395010
-3817.0735 1075.9984 5896.6035 987659
-3706.7209 1054.5765 5779.209 921609
-3672.3621 1054.5765 5779.209 1316366
-3674.0691 1065.0312 5836.5024 1250060
-3659.4519 1070.9083 5868.709 1842453
-3673.2678 1085.2992 5947.5732 2105880
-3925.9448 1171.2294 6418.481 2105877
-3851.3264 1160.2458 6358.29 2303765
-3697.998 1125.0975 6165.6724 2041613
-3650.6309 1121.8063 6147.6362 4148263
-3624.6846 1125.0975 6165.6724 4084515
-3974.9734 1246.4319 6830.5996 3823393
-4266.7749 1351.7421 7407.7124 3692065
-4107.3696 1314.8125 7205.334 4022055
-3944.6721 1276.0398 6992.855 3233308
-3883.7129 1269.7024 6958.125 2378511
-3664.2241 1210.8424 6635.5649 2445327
-3372.8909 1126.7018 6174.4644 2051340
-3336.1821 1126.7018 6174.4644 2578707
-3299.4731 1126.7018 6174.4644 1921289
-3340.271 1153.4664 6321.1382 2250508
-3306.8418 1154.9166 6329.0845 2053387
-3263.1689 1152.7811 6317.3823 2382096
-3091.2878 1104.7764 6054.3105 2514196
-3075.9705 1112.2532 6095.2842 2185230
-3016.3225 1103.6874 6048.3428 1593349
-2886.8843 1069.0702 5858.6362 1264896
-2712.6448 1016.8141 5572.2661 1264641
-2582.7815 980.10559 5371.0991 1987848
-2444.5315 939.25568 5147.2363 2053639
-2413.9299 939.25568 5147.2363 2119689
-2522.1375 993.95966 5447.021 3040279
-2489.7537 993.95966 5447.021 2448142
-2297.512 929.30035 5092.6797 2250762
-2267.1467 929.26428 5092.4824 2842642
-2236.8704 929.26428 5092.4824 2777106
-2094.281 881.9657 4833.2803 2908693
-2065.5457 881.9657 4833.2803 3303450
-2172.5168 940.72827 5155.3066 2711569
-2231.0012 979.87683 5369.8452 2711567
-2111.2173 940.72827 5155.3066 2777616
-2065.2776 933.81494 5117.4204 2514701
-1924.3951 883.12463 4839.6313 2777871
-1895.6221 883.12463 4839.6313 2712079
-1778.0005 841.09412 4609.2993 2909713
-1245.8878 598.60095 3280.4067 3501850
0 0 0 0
0 0 0 0
0 0 0 0
0 0 0 0
0 0 0 0
0 0 0 0
0 0 0 0
0 0 0 0
0 0 0 0
0 0 0 0
0 0 0 0
0 0 0 0
0 0 0 0
0 0 0 0
0 0 0 0
0 0 0 0
0 0 0 0
0 0 0 0
0 0 0 0
0 0 0 0
0 0 0 0
-539.4082 395.29999 2166.2925 1585681
-553.3053 415.40274 2276.458 529668
-533.66785 410.70572 2250.7178 1712405
-525.62372 414.9187 2273.8054 1053963
-512.44653 415.1951 2275.3203 1909529
-494.6954 411.68021 2256.0581 2040091
-478.03711 408.90417 2240.845 2829351
-467.71136 411.54099 2255.2952 2303006
-454.30307 411.54099 2255.2952 1776919
-440.67624 411.3371 2254.1777 2763302
-425.55865 409.68518 2245.1252 2368287
-408.33945 405.83762 2224.04 2170907
-390.80429 401.40802 2199.7651 2960680
-379.78558 403.59662 2211.759 2566178
-366.63605 403.59662 2211.759 2961193
-352.99637 403.03696 2208.6921 2435362
-332.48822 394.28894 2160.752 2763557
-319.01227 393.51218 2156.4951 3618864
-303.68741 390.29425 2138.8604 2763556
-287.82385 386.07245 2115.7244 3487531
-273.82544 384.0809 2104.8105 4606013
-259.1579 380.91513 2087.4617 4803393
-245.05132 378.29684 2073.1133 3356713
-232.81282 378.43787 2073.886 5593420
-225.03584 386.25238 2116.7104 4737856
-212.69034 386.68677 2119.0911 1777173
-202.51163 391.36331 2144.719 1711380
-189.76007 391.36206 2144.7122 3093032
-177.00917 391.36206 2144.7122 2237721
-162.75433 387.77881 2125.0754 2435099
-150.35854 388.39456 2128.45 2500638
-138.43303 390.44989 2139.7134 1645845
-126.02113 391.41055 2144.978 1381907
-113.26865 391.41055 2144.978 264197
-101.00536 393.31555 2155.4175 1777438
-88.190804 393.31555 2155.4175 593164
-75.524529 394.08926 2159.6577 922132
-62.794731 394.78061 2163.4463 1184787
-50.190212 396.81866 2174.615 1974814
-37.131042 395.42911 2167 3684916
-24.628336 401.6377 2201.0239 3619379
-11.437538 397.98074 2180.9834 2369311
1.5461563 402.44238 2205.4338 2961447
14.657718 402.43259 2205.3801 2632227
27.986307 405.57724 2222.613 2764320
41.522274 408.74615 2239.9792 2830369
55.675495 414.97672 2274.1233 3488298
69.388275 416.13101 2280.4492 3751468
82.946175 416.13101 2280.4492 4541238
96.942352 418.02087 2290.8057 3027740
110.56182 418.02087 2290.8057 4344626
125.82888 423.56696 2321.199 4082476
142.90985 433.51929 2375.739 3097886
157.09079 433.67532 2376.594 2641423
168.56227 426.94293 2339.6997 2643728
193.24075 452.13828 2477.7732 3039510
210.57454 457.79669 2508.7822 1921288
225.48996 457.79669 2508.7822 2908436
240.40536 457.79669 2508.7822 4421673
246.57561 442.11646 2422.8523 4421928
260.98013 442.11646 2422.8523 2119173
294.19186 472.31042 2588.3191 2843149
314.49335 479.80624 2629.3972 3303702
330.12582 479.80624 2629.3972 2184711
338.92767 470.32733 2577.4517 3171609
348.20084 462.29434 2533.4297 2381583
355.64328 452.5976 2480.2905 2578706
370.38928 452.5976 2480.2905 2249744
386.01263 453.62863 2485.9407 999427
402.67105 455.7551 2497.594 2644759
405.52405 442.66068 2425.8347 3565861
419.94626 442.66068 2425.8347 2184210
434.36853 442.66068 2425.8347 3368483
458.62997 452.36542 2479.0181 2250002
487.23767 465.61929 2551.6509 2183953
495.91257 459.59952 2518.6619 1723149
502.53604 452.08713 2477.4932 2183703
506.47891 442.65979 2425.8301 2775840
531.99481 452.08713 2477.4932 1788435
531.59253 439.5748 2408.9238 933127
545.91425 439.5748 2408.9238 2315034
552.41193 433.43582 2375.2815 3960114
580.51227 444.1304 2433.8892 2249240
598.79828 446.97879 2449.4988 2577947
613.36127 446.97879 2449.4988 3038241
611.40149 435.21732 2385.0444 1261831
625.58124 435.21732 2385.0444 2183186
641.76929 436.58356 2392.5315 2182929
660.56201 439.62402 2409.1936 2248977
636.33759 414.51376 2271.5864 3170078
651.362 415.48285 2276.897 2840856
687.88885 429.84891 2355.6248 2972443
696.97424 426.83618 2339.1147 2314255
704.38556 422.93613 2317.7419 2380306
697.4729 410.75021 2250.9617 2577687
737.21552 425.98166 2334.4319 2774811
776.05597 440.13861 2412.0137 2248211
760.96698 423.75079 2322.2063 2511642
758.55957 414.88303 2273.6099 2511641
775.17859 416.54974 2282.7439 3103779
776.09833 409.86819 2246.1279 3432744
780.38831 405.16235 2220.3396 3498536
781.33795 398.90775 2186.0635 2511640
794.33472 398.90775 2186.0635 3301413
822.11902 406.21439 2226.1047 2709273
835.35376 406.21439 2226.1047 3827751
863.72882 413.46191 2265.822 3037975
878.46729 414.05933 2269.0959 3301401
909.46509 422.18652 2313.634 3893283
918.06616 419.82956 2300.7175 3300632
914.8548 412.21927 2259.0122 4353576
892.74011 396.43494 2172.512 3892769
921.88293 403.53784 2211.437 4813357
935.03058 403.53784 2211.437 3169046
931.21423 396.31815 2171.8721 2840080
944.12665 396.31815 2171.8721 4353319
961.5166 398.17233 2182.0332 4023842
1003.1224 409.87167 2246.147 3958048
1016.4763 409.87167 2246.147 3563291
1017.5957 405.00226 2219.4622 3169043
1027.1844 403.58524 2211.6968 3300371
1044.2406 405.10092 2220.0027 2247689
1079.6462 413.60837 2266.6248 5142832
1077.8148 407.81656 2234.8848 4484902
1051.3297 392.95108 2153.4202 4418852
1060.8281 391.73096 2146.7336 4024093
1076.9349 392.95108 2153.4202 5142063
0 0 0 0
1064.6694 379.4537 2079.4529 5274417
1158.2167 408.05603 2236.1973 4484134
1136.6329 395.90732 2169.6208 4615719
1143.2587 393.74673 2157.7805 4418337
1156.0873 393.74673 2157.7805 4484644
1198.7803 403.80652 2212.9092 2445066
1211.9366 403.80652 2212.9092 4945199
1252.9025 412.97287 2263.1421 5866556
1266.3574 412.97287 2263.1421 5405493
1209.3683 390.24176 2138.5728 5010990
1187.0192 379.04507 2077.2136 5142830
1211.8157 382.97879 2098.7708 4682021
1251.5046 391.49088 2145.418 5208620
1236.7712 382.97879 2098.7708 2971913
0 0 0 0
1265.4402 384.10596 2104.9478 3169547
1344.1835 404.01184 2214.0347 3827734
1328.344 395.37927 2166.7271 3235597
0 0 0 0
1346.3732 393.12097 2154.3513 4287262
1354.2585 391.69714 2146.5483 4550176
1328.2391 380.58502 2085.6526 4089368
1435.6589 407.55957 2233.4766 5799472
1461.6603 411.13824 2253.0881 4615455
1470.7067 409.92615 2246.4456 5273130
1481.6409 409.2572 2242.7798 5668662
1421.9602 389.2691 2133.2424 7247696
1434.6429 389.2691 2133.2424 5339950
1447.3256 389.2691 2133.2424 5932086
1464.2478 390.39938 2139.4368 5537072
1496.8466 395.65399 2168.2324 5602866
1509.7373 395.65399 2168.2324 4813604
1555.1692 404.1098 2214.5713 4879142
1528.891 393.94617 2158.8735 5274155
1510.2174 385.89502 2114.7522 5339948
1514.7329 383.85321 2103.5627 4879141
1553.4709 390.44626 2139.6934 4747555
1569.7577 391.33517 2144.5647 4484383
1582.5077 391.33517 2144.5647 5405485
1595.2577 391.33517 2144.5647 4682017
1611.0187 392.06793 2148.5803 4945443
1478.9431 357.09372 1956.9175 3432461
0 0 0 0
0 0 0 0
0 0 0 0
0 0 0 0
1771.0244 411.43417 2254.7097 4748056
1779.2333 410.23608 2248.1443 5208606
1769.5729 404.96658 2219.2666 4221712
1782.7671 404.96658 2219.2666 4748057
1751.9912 395.05191 2164.9329 4814362
