# .PCD v0.7 - Point Cloud Data file format
VERSION 0.7
FIELDS x y z rgb
SIZE 4 4 4 4
TYPE F F F U
COUNT 1 1 1 1
WIDTH 1398
HEIGHT 1
VIEWPOINT 0 0 0 1 0 0 0
POINTS 1398
DATA ascii
6592.1685 -14.048534 7693.751 1310720
6942.8408 -14.693893 8047.1851 983040
6904.0132 -14.511718 7947.416 1376768
7136.1904 -14.89778 8158.8447 851968
7549.0894 -15.653363 8572.6436 655360
7910.5806 -16.292931 8922.9062 655360
8176.4634 -16.728371 9161.377 393216
9336.9258 -18.976173 10392.397 1708052
9686.8691 -19.55797 10711.021 2630181
9681.1562 -19.418779 10634.793 2827559
9467.0625 -18.866131 10332.132 1971480
9528.4902 -18.866131 10332.132 655619
8449.459 -16.622519 9103.4072 983813
7668.1465 -14.989439 8209.042 589824
7867.0566 -15.281004 8368.7197 720896
7772.5522 -15.002556 8216.2256 851968
6797.0464 -13.037701 7140.1626 851968
6839.4966 -13.037701 7140.1626 2231818
7137.0601 -13.521006 7404.8477 2297355
7358.8745 -13.855762 7588.1787 1639169
0 0 0 0
0 0 0 0
0 0 0 0
0 0 0 0
0 0 0 0
0 0 0 0
-5048.2319 23.33684 5665.228 529158
-5014.5508 23.33684 5665.228 331779
-4921.438 23.058384 5597.6309 200448
-4942.5762 23.315084 5659.9473 68097
-4884.7275 23.200153 5632.0464 1024
-4900.2085 23.434319 5688.8921 1280
-4803.542 23.131687 5615.4258 1024
-4688.5513 22.735962 5519.3599 768
-4578.0278 22.356474 5427.2358 1024
-4625.5176 22.748722 5522.4575 462336
-4596.4341 22.767292 5526.9653 792323
-4654.3564 23.220194 5636.9116 133632
-4678.4561 23.509705 5707.1929 1024
-4587.8071 23.222609 5637.4976 68096
-4537.8706 23.138882 5617.1719 67584
-4504.4746 23.138882 5617.1719 67328
-4466.9019 23.117262 5611.9238 68352
-4592.9854 23.948654 5813.7515 2304
-4608.8516 24.2136 5878.0698 2371605
-4651.0845 24.622179 5977.2559 2042643
-4704.3804 25.096066 6092.2959 792579
-4677.3149 25.145283 6104.2437 1318921
-4636.8257 25.12254 6098.7231 332032
-4617.7134 25.216169 6121.4526 266240
-4599.5435 25.316475 6145.8027 66560
-4599.4595 25.518732 6194.9023 989958
-4526.4663 25.316475 6145.8027 924416
-4479.5698 25.258074 6131.625 398336
-4410.2881 25.071457 6086.3218 1280
-4460.8696 25.568785 6207.0527 595712
-4314.6284 24.93685 6053.6445 1779984
-4501.2266 26.234144 6368.5747 1280
-4242.3433 24.935061 6053.2109 2816
-4205.8765 24.932224 6052.522 1536
-4223.2852 25.251461 6130.02 1536
-4231.394 25.520174 6195.252 1792
-4194.5615 25.520174 6195.252 1536
-4074.3115 25.008158 6070.9556 1536
-4082.1995 25.280525 6137.0757 2304
-3970.4604 24.810297 6022.9233 1536
-4009.2258 25.280525 6137.0757 1792
-3863.4932 24.585337 5968.3125 67328
-4034.2649 25.910007 6289.8877 726786
-3822.3464 24.778648 6015.2402 198912
-3786.5842 24.778648 6015.2402 1385479
-3761.7322 24.850723 6032.7368 1122562
-3779.3989 25.207777 6119.415 1792
-3859.1868 25.990133 6309.3389 3072
-3828.5139 26.036638 6320.6284 1536
-3811.6616 26.178982 6355.1841 332288
-3791.6038 26.301943 6385.0337 199424
-3809.3125 26.69202 6479.729 792834
-3942.4912 27.907442 6774.7827 727808
-3768.9363 26.954283 6543.395 2560
-3710.4827 26.813002 6509.0977 3840
-3671.7847 26.813002 6509.0977 2816
-3615.1265 26.680456 6476.9209 859648
-3576.4333 26.679068 6476.5845 69888
-3559.9958 26.845478 6516.9814 794624
-3593.677 27.397642 6651.0249 1321217
-3611.3679 27.838835 6758.1279 1320708
-3621.1196 28.228065 6852.6172 727810
-3580.3789 28.228065 6852.6172 1280
-3512.5212 28.011812 6800.1196 1024
-3455.3921 27.877073 6767.4111 68096
-3415.1577 27.877073 6767.4111 768
-3392.5569 28.022726 6802.7695 1024
-3419.3818 28.585077 6939.2856 528640
-3325.5193 28.139931 6831.2222 1024
-3250.9463 27.84902 6760.6006 923141
-3217.4153 27.906811 6774.6299 1024
-3323.3625 29.191193 7086.4253 1024
-3291.6599 29.283962 7108.9458 67328
-3249.3953 29.283962 7108.9458 2304
-3185.9924 29.090956 7062.0918 1318921
-3144.0066 29.090956 7062.0918 990212
-3102.0205 29.090956 7062.0918 1280
-3034.3083 28.846386 7002.7202 1280
-2985.272 28.775024 6985.3965 2503959
-2932.7068 28.667156 6959.2109 859139
-2891.3323 28.667156 6959.2109 201216
-2933.6042 29.508539 7163.4639 266752
-2930.1926 29.908419 7260.5386 1254404
-2893.719 29.977749 7277.3687 530432
-2889.4578 30.387955 7376.9502 464640
-2747.6538 29.341997 7123.0347 333824
-2705.3054 29.341997 7123.0347 1058816
-2743.7141 30.231827 7339.0488 2835726
-2677.8125 29.982489 7278.5195 2968338
-2634.5396 29.982489 7278.5195 663808
-2607.6543 30.172102 7324.5498 2112001
-2566.7275 30.202929 7332.0332 466176
-2625.9385 31.433508 7630.7676 1650948
-2682.074 32.669895 7930.9116 993280
-2625.228 32.549694 7901.7314 1781764
-2584.2129 32.624973 7920.0063 67840
-2537.1262 32.624973 7920.0063 2438674
-2532.9651 33.187393 8056.5381 333312
-2449.1863 32.708221 7940.2153 1058048
-2401.9797 32.708221 7940.2153 1649413
-2354.7729 32.708221 7940.2153 2048
-2358.7996 33.434422 8116.5073 3584
-2306.7239 33.379131 8103.085 267008
-2227.8699 32.925728 7993.0176 332800
-2180.3494 32.925728 7993.0176 464640
-2100.6562 32.429062 7872.4478 1255168
-2058.3809 32.500568 7889.8057 268800
-2031.5172 32.824421 7968.4243 3426586
-2140.0098 35.402992 8594.3955 4096
-2030.7103 34.416557 8354.9297 728064
-1981.0378 34.416557 8354.9297 4608
-1877.1965 33.451275 8120.5986 1716736
-1857.3074 33.970535 8246.6543 1255936
-1811.8511 34.037643 8262.9453 1059072
-1766.8044 34.116409 8282.0654 3032836
-1713.1366 34.028442 8260.7109 1323521
-1632.5066 33.383919 8104.2471 2705159
-1654.3618 34.859699 8462.5068 2967560
-1630.4644 35.43375 8601.8623 3493400
-1553.7379 34.859699 8462.5068 1536
-1551.2677 35.969002 8731.7988 1792
-1523.9697 36.559505 8875.1494 1792
-1507.0648 37.450634 9091.4795 2816
-1489.2983 38.38586 9318.5137 398848
-1403.4968 37.572033 9120.9502 135168
-1349.2704 37.572033 9120.9502 596736
-1312.4033 38.075672 9243.2129 1321216
-1341.1909 40.611359 9858.7734 3032081
-1290.61 40.865696 9920.5156 3031313
-1297.2062 43.041527 10448.719 1024
-1245.3033 43.397606 10535.16 857605
-1159.8784 42.561321 10332.145 462342
-1032.2114 39.994759 9709.0879 768
-772.62164 31.709789 7697.8374 512
-651.24146 28.411039 6897.0356 256
0 0 0 0
0 0 0 0
0 0 0 0
0 0 0 0
0 0 0 0
0 0 0 0
0 0 0 0
0 0 0 0
0 0 0 0
0 0 0 0
0 0 0 0
0 0 0 0
0 0 0 0
0 0 0 0
0 0 0 0
1.3624034 8.0051775 1943.3291 1711383
13.046 8.0857277 1962.8834 1646360
24.764605 8.1016645 1966.7522 4146492
36.653919 8.1453161 1977.3488 4475714
48.409809 8.1453161 1977.3488 3093549
61.54554 8.3321199 2022.6974 256
74.147896 8.3974514 2038.557 1448724
86.796768 8.4489536 2051.0596 3160112
0 0 0 0
0 0 0 0
0 0 0 0
0 0 0 0
0 0 0 0
690.14093 36.452328 8849.1309 256
796.03113 39.067154 9483.9043 264707
883.11646 40.474209 9825.4795 132352
962.71912 41.38501 10046.584 3225882
1399.7777 56.657909 13754.218 526853
1362.2042 52.093834 12646.248 1024
1437.3896 52.093834 12646.248 768
1426.7627 49.138409 11928.792 768
1453.5746 47.691242 11577.479 331527
1432.4448 44.873096 10893.349 398602
1464.5636 43.894684 10655.83 69378
1613.9725 46.36697 11256 2702890
1680.8926 46.36697 11256 2111263
1724.558 45.750061 11106.239 3072
1803.019 46.067684 11183.346 3072
1894.3917 46.680882 11332.205 927500
1968.0835 46.831234 11368.704 1980958
2051.0239 47.184372 11454.432 1915931
2239.8486 49.872437 12106.983 3363887
2187.3142 47.186329 11454.907 3957046
2255.4167 47.186329 11454.907 4745794
2352.2158 47.7691 11596.38 4283964
2407.3184 47.496017 11530.087 2834732
2672.2402 51.263138 12444.59 1058322
2881.8616 53.795002 13059.222 1453594
3041.8896 55.292564 13422.768 334088
3752.8311 66.471535 16136.563 5335125
3848.9312 66.474365 16137.251 1912612
3945.3101 66.48175 16139.044 4151625
4041.3201 66.482719 16139.279 4544844
4137.2725 66.482719 16139.279 3752762
4233.2397 66.482941 16139.334 923662
4329.1069 66.481636 16139.016 725515
4425.0576 66.481628 16139.015 791049
4521.355 66.486725 16140.251 527879
4617.6133 66.491043 16141.301 512
4713.2715 66.486725 16140.251 256
4809.0088 66.483658 16139.509 66049
4891.1846 66.296913 16094.174 256
4888.4072 64.98793 15776.406 263683
4982.2021 64.98793 15776.406 197891
4622.2163 59.178181 14366.036 330247
4086.6086 51.371555 12470.907 527625
3619.051 44.683334 10847.282 659211
3533.3396 42.861309 10404.969 461830
3246.1687 38.700222 9394.8281 256
3096.7922 36.29488 8810.9092 0
2596.4614 29.92474 7264.5 131072
2530.3481 28.685614 6963.6914 524801
2456.7881 27.403324 6652.4038 7099734
2606.4614 28.612188 6945.8667 458752
2780.0386 30.041655 7292.8823 197632
2925.2583 31.125486 7555.9922 132098
2993.3081 31.367846 7614.8271 132097
3038.5803 31.367846 7614.8271 66305
3186.9595 32.416607 7869.4238 329476
3373.8779 33.821365 8210.4414 256
3645.0242 36.018353 8743.7793 0
3613.8091 35.207779 8547.0059 256
3022.0076 29.033863 7048.2319 196608
2842.9673 26.940178 6539.9712 393216
2717.9512 25.408024 6168.0269 5390915
3043.8494 28.075792 6815.6519 5586499
3306.1321 30.094404 7305.6875 262658
4515.5508 40.570267 9848.7979 5596002
4941.5698 43.829517 10640.011 725523
6111.4922 53.521072 12992.724 3227203
7075.1138 61.186581 14853.595 5990512
7163.4229 61.186581 14853.595 7238525
0 0 0 0
0 0 0 0
0 0 0 0
0 0 0 0
0 0 0 0
0 0 0 0
5992.8735 47.12196 11439.28 1116677
5554.5063 43.184994 10483.547 1051398
5902.2568 45.379463 11016.274 656897
5967.7515 45.379463 11016.274 854276
6040.876 45.436855 11030.206 920069
5671.0601 42.197182 10243.746 591105
5708.478 42.0243 10201.777 591361
5741.6172 41.823879 10153.124 525312
0 0 0 0
0 0 0 0
0 0 0 0
3595.365 25.132938 6101.2476 3355182
4028.2214 27.877508 6767.5166 262913
3983.928 27.298311 6626.9111 657411
3637.3845 24.679689 5991.2168 787200
3630.6995 24.395437 5922.2119 1707276
3506.3008 23.333298 5664.3682 2232849
3451.2583 22.748518 5522.4082 3682866
3341.4036 21.816879 5296.2441 14011594
3362.8972 21.752235 5280.5513 13089723
3564.6821 22.844181 5545.6309 722182
4007.979 25.44965 6178.1318 1905682
4158.689 26.166819 6352.231 656128
5168.5825 32.228477 7823.7534 459520
5604.542 34.635189 8408.0039 197632
5825.0635 35.679745 8661.5791 197377
5876.5591 35.679745 8661.5791 256
5959.3384 35.868034 8707.2881 65792
5506.6387 32.857899 7976.5508 196608
5554.0615 32.857899 7976.5508 393216
5636.5781 33.063755 8026.5249 6969112
5594.6255 32.542156 7899.9023 8348428
5641.5923 32.542156 7899.9023 2621696
5383.0215 30.794287 7475.5908 3736576
5603.1973 31.791348 7717.6362 6759424
5736.1948 32.281601 7836.6494 12414464
5482.8555 30.607283 7430.1938 13268992
5503.0435 30.474449 7397.9473 13597184
5571.2046 30.607283 7430.1938 13465856
5964.9873 32.512859 7892.79 12478208
6061.0952 32.778847 7957.3608 13398784
6139.6479 32.94651 7998.062 13398016
6369.9868 33.919842 8234.3477 13397504
6452.7822 34.098667 8277.7588 13200128
6562.0361 34.41354 8354.1973 12804864
7676.0151 39.953213 9699.0029 11620352
7731.3081 39.940971 9696.0312 6560768
7694.2671 39.455425 9578.1602 1507328
6797.6104 34.601379 8399.7969 655360
6134.6973 30.999262 7525.3506 656384
6006.0571 30.129496 7314.2065 854279
5780.8408 28.791241 6989.333 656642
5822.394 28.791241 6989.333 458752
6321.0205 31.035412 7534.126 655360
6520.9805 31.791901 7717.7705 2757643
6929.2095 33.546104 8143.6191 2626313
6427.5264 30.901411 7501.5962 1245184
6512.4995 31.094177 7548.3921 983040
6676.0815 31.657063 7685.0371 1048576
7154.8052 33.696487 8180.1265 720896
7526.0259 35.205502 8546.4531 589824
7850.5439 36.477272 8855.1865 458752
8176.4634 37.738567 9161.377 262144
9399.9443 43.098461 10462.54 1642773
9631.8623 43.871483 10650.198 2169373
9681.1562 43.808025 10634.793 2695204
9467.0625 42.561268 10332.132 1773588
9130.2383 40.782383 9900.291 1115144
8189.8179 36.34745 8823.6709 917763
7516.1582 33.145355 8046.3335 655360
7723.7041 33.845192 8216.2256 720896
7765.7559 33.815601 8209.042 786432
7027.27 30.408789 7382.0078 786432
6839.4966 29.412554 7140.1626 2165770
7137.0601 30.502874 7404.8477 2165770
8566.8887 36.38932 8833.835 1573634
0 0 0 0
0 0 0 0
0 0 0 0
0 0 0 0
0 0 0 0
0 0 0 0
-5152.3032 58.193649 5782.019 768
-5122.98 58.251099 5787.7271 67073
-4976.2261 56.96505 5659.9473 768
-4957.5391 57.137497 5677.0815 1024
-4967.8149 57.648415 5727.8452 1280
-4961.146 57.968384 5759.6372 67840
-4880.7129 57.424919 5705.6396 1318922
-4691.1826 55.581268 5522.4575 1187594
-4658.3501 55.581268 5522.4575 1024
-4786.6411 57.517368 5714.8247 1056517
-4752.6646 57.517368 5714.8247 1648394
-4971.5571 60.599648 6021.0747 1516805
-4752.4155 58.348606 5797.415 1517062
-4587.8071 56.739101 5637.4976 2043407
-4587.0918 57.147751 5678.1001 1280
-4553.3335 57.147751 5678.1001 1582092
-4519.5762 57.147751 5678.1001 5727308
-4722.1572 60.158627 5977.2559 1120773
-4776.8208 61.31646 6092.2959 2239514
-4740.6006 61.31646 6092.2959 989189
-4704.3804 61.31646 6092.2959 397568
-4673.0845 61.381149 6098.7231 594180
-4636.8257 61.381149 6098.7231 1280
-4617.7134 61.609909 6121.4526 2816
-4616.978 62.089443 6169.0981 463104
-4599.4595 62.349152 6194.9023 200704
-4516.0239 61.712292 6131.625 595968
-4365.0522 60.134651 5974.8735 1254144
-4468.7695 62.068607 6167.0278 530688
-4432.1045 62.068607 6167.0278 1122820
-4314.6284 60.927452 6053.6445 1780746
-4278.6377 60.927452 6053.6445 662273
-4197.041 60.272511 5988.5713 333312
-4195.5332 60.766342 6037.6372 1792
-4169.8921 60.916153 6052.522 1792
-4281.5283 63.091434 6268.6543 1280
-4271.126 63.49081 6308.3354 200448
-4084.2727 61.25106 6085.7983 68352
-4038.218 61.101673 6070.9556 331264
-3934.4597 60.068619 5968.3125 858624
-4009.2258 61.767151 6137.0757 134400
-4005.4136 62.275158 6187.5508 200192
-4034.2649 63.305138 6289.8877 792578
-3996.8694 63.305138 6289.8877 134656
-3774.0403 60.34037 5995.3135 1536
-3761.7322 60.717022 6032.7368 1536
-3779.3989 61.589401 6119.415 67072
-3899.4734 64.163803 6375.2031 792323
-3821.6758 63.500908 6309.3389 67072
-3784.1653 63.500908 6309.3389 332544
-3773.8784 63.962322 6355.1841 1536
-3783.0769 64.766655 6435.1011 332289
-3807.8386 65.856583 6543.395 661251
-3749.1814 65.511398 6509.0977 1792
-3710.4827 65.511398 6509.0977 1536
-3671.7847 65.511398 6509.0977 1536
-3672.9517 66.230247 6580.5215 398336
-3576.4333 65.184166 6476.5845 267008
-3598.4099 66.298492 6587.3022 464640
-3593.677 66.939842 6651.0249 133632
-3554.1345 66.939842 6651.0249 925697
-3606.8733 68.697449 6825.6577 332032
-3566.293 68.697449 6825.6577 3360284
-3487.7437 67.957634 6752.1509 1386247
-3337.1074 65.779648 6535.75 1057537
-3298.2505 65.779648 6535.75 991488
-3226.9968 65.125824 6470.7876 1188353
-3453.2231 70.532272 7007.9629 529920
-3411.5586 70.532272 7007.9629 1319174
-3250.9463 68.042671 6760.6006 1713934
-3286.8159 69.654617 6920.7603 1280
-3323.3625 71.32196 7086.4253 1792
-3281.2322 71.32196 7086.4253 1792
-3226.4116 71.042549 7058.6626 1024
-3181.6658 70.98053 7052.501 1024
-3100.0671 70.08371 6963.3945 768
-3058.6677 70.08371 6963.3945 1536
-3054.6636 70.952301 7049.6968 1517321
-2985.8164 70.31797 6986.6704 1715975
-2932.7068 70.041603 6959.2109 3295513
-2891.3323 70.041603 6959.2109 1188356
-2920.5776 71.777184 7131.6548 1123585
-2878.178 71.777184 7131.6548 332544
-2886.2744 73.055298 7258.6465 991744
-2850.4529 73.243736 7277.3687 1452805
-2782.644 72.603371 7213.7437 2045703
-2739.7563 72.603371 7213.7437 1519360
-2743.7141 73.864517 7339.0488 202496
-2677.8125 73.255318 7278.5195 1191168
-2651.2007 73.71859 7324.5498 994304
-2610.3186 73.793907 7332.0332 2770190
-2671.3054 76.800545 7630.7676 597505
-2637.0251 77.124802 7662.9849 1321984
-2635.6411 78.439476 7793.6089 69888
-2545.9082 77.124802 7662.9849 1716226
-2542.9707 78.439476 7793.6089 1058049
-2483.2734 78.019661 7751.897 1452805
-2493.73 79.82975 7931.7441 1123840
-2449.1863 79.915009 7940.2153 992768
-2437.1682 81.085754 8056.5381 926720
-2407.0547 81.689316 8116.5073 2571283
-2358.7996 81.689316 8116.5073 68096
-2296.7021 81.199905 8067.8804 2560
-2227.8699 80.446442 7993.0176 464640
-2199.1396 81.13974 8061.9023 464896
-2103.4353 79.337791 7882.8638 465408
-2094.1174 80.786301 8026.7852 201984
-2125.9558 83.927109 8338.8506 1123841
-2142.7388 86.60936 8605.3545 1716229
-2030.7103 84.088943 8354.9297 333824
-1971.9539 83.703354 8316.6182 203008
-1877.1965 81.730499 8120.5986 729600
-1820.1171 81.337234 8081.5249 3427854
-1802.3116 82.725311 8219.4414 400896
-1729.1775 81.580406 8105.686 2440964
-1704.578 82.725311 8219.4414 796160
-1632.7964 81.580406 8105.686 2573059
-1645.167 84.69828 8415.4727 927488
-1595.1348 84.69828 8415.4727 2111753
-1658.5746 90.918526 9033.5049 266240
-1542.2777 87.372681 8681.1963 134656
-1551.1613 90.918526 9033.5049 530178
-1507.0648 91.502014 9091.4795 793348
-1475.0797 92.891609 9229.5479 3072
-1384.2975 90.542847 8996.1787 69120
-1312.4869 89.296036 8872.2979 267264
-1277.3279 90.542847 8996.1787 1583363
-1341.1909 99.22451 9858.7734 2242052
-1320.4758 102.15644 10150.085 4413729
-1314.3414 106.55119 10586.74 1280
-1279.2859 108.92552 10822.649 1845270
-1188.4592 106.55119 10586.74 988939
-967.31415 91.574249 9098.6572 1024
0 0 0 0
0 0 0 0
0 0 0 0
0 0 0 0
0 0 0 0
0 0 0 0
0 0 0 0
0 0 0 0
0 0 0 0
0 0 0 0
0 0 0 0
0 0 0 0
0 0 0 0
0 0 0 0
0 0 0 0
0 0 0 0
0 0 0 0
1.3624034 19.558811 1943.3291 2171933
13.032619 19.735353 1960.8701 2961449
24.730068 19.766951 1964.0095 3422514
36.834145 19.999058 1987.0713 3883065
48.228653 19.826731 1969.9492 1711896
61.54554 20.35762 2022.6974 790537
74.602646 20.643074 2051.0596 3619893
86.87674 20.662092 2052.9492 3291440
0 0 0 0
0 0 0 0
0 0 0 0
0 0 0 0
0 0 0 0
0 0 0 0
764.33765 91.651253 9106.3076 1121808
883.11646 98.88942 9825.4795 1024
962.71912 101.11475 10046.584 256
1142.5171 112.98887 11226.375 512
1226.1582 114.56767 11383.242 256
1293.8347 114.56767 11383.242 768
1348.1099 113.43996 11271.196 331781
1415.1202 113.43996 11271.196 1650208
1429.667 109.42448 10872.225 928017
1497.2087 109.63708 10893.349 2245413
1650.9122 115.87988 11513.621 4484410
1735.238 116.94973 11619.921 4879676
1733.5165 112.3604 11163.933 1852184
1845.3693 115.19955 11446.025 4089143
1900.4933 114.42134 11368.704 5010750
1968.0835 114.42134 11368.704 5996873
2000.8132 112.46192 11174.019 1651983
2239.8486 121.85182 12106.983 1718542
2381.9172 125.54608 12474.038 928261
2278.8711 116.48784 11574.027 3363878
2352.2158 116.71281 11596.38 4284982
2421.1597 116.71281 11596.38 199682
2672.2402 125.24969 12444.59 795148
2881.8616 131.4357 13059.222 1320981
2959.5024 131.4357 13059.222 1650204
3752.8311 162.40788 16136.563 1057298
3849.0869 162.42139 16137.903 4610117
3945.2908 162.43208 16138.966 1123343
4041.3201 162.43523 16139.279 2176030
4137.2725 162.43523 16139.279 1516564
4233.3906 162.44157 16139.91 661254
4329.3452 162.4415 16139.903 1450006
4425.3027 162.44157 16139.91 1536
4521.9834 162.46759 16142.496 768
4617.9551 162.46759 16142.496 790026
4713.4141 162.44992 16140.739 197890
4809.0088 162.43753 16139.509 329219
4904.8267 162.43304 16139.062 461575
5000.104 162.41115 16136.888 659467
5095.7573 162.40208 16135.986 856847
4832.2222 151.1575 15018.744 1251348
3705.8975 113.82156 11309.109 988433
3583.2419 108.09322 10739.953 1120275
3535.5044 104.7859 10411.344 725002
3504.9265 102.09225 10143.707 256
3096.7922 88.678185 8810.9092 256
2523.7932 71.067932 7061.1855 65536
2530.3481 70.0867 6963.6914 196608
2456.7881 66.953712 6652.4038 1181446
2466.2578 66.146935 6572.2432 3877162
2614.3225 69.024559 6858.1592 65536
2823.3967 73.399872 7292.8823 512
2970.1809 76.047958 7555.9922 256
3140.1733 79.202522 7869.4238 855821
3297.2583 81.943687 8141.7812 131841
3373.8779 82.634727 8210.4414 256
3330.2354 80.402542 7988.6558 0
3076.082 73.222191 7275.229 131072
2804.0852 65.822128 6539.9712 524288
2824.7439 65.400208 6498.0503 7619406
2717.8228 62.075726 6167.7354 9852260
2754.4917 62.075726 6167.7354 1704453
3332.0632 74.105461 7362.9888 723462
4878.312 107.08734 10640.011 2304291
6062.8052 131.38531 13054.214 4673102
7589.8115 162.39775 16135.556 3423035
7686.3818 162.41129 16136.9 132614
7782.2905 162.41066 16136.839 7896188
0 0 0 0
0 0 0 0
0 0 0 0
0 0 0 0
0 0 0 0
0 0 0 0
0 0 0 0
0 0 0 0
6299.2764 118.33234 11757.293 2039064
5975.2988 111.0145 11030.206 1446670
6319.8555 116.14137 11539.603 920326
6416.2178 116.64598 11589.739 656899
5731.9619 103.09911 10243.746 459776
5807.5195 103.35994 10269.662 328192
0 0 0 0
0 0 0 0
0 0 0 0
3968.085 67.772369 6733.7441 2434080
4125.6807 69.760193 6931.2505 65792
4048.1531 67.772369 6733.7441 196608
3960.616 65.657547 6523.6187 721665
3720.699 61.08215 6069.0151 1247494
3584.9058 58.287598 5791.3535 2167313
3453.6829 55.61982 5526.2876 1181702
3426.667 54.664715 5431.3901 12103853
3298.9607 52.136143 5180.1558 13749450
3289.0442 51.498657 5116.8164 9663094
3623.8198 56.220463 5585.9668 1116679
4158.689 63.932598 6352.231 262144
4843.4526 73.789543 7331.5996 262400
5604.542 84.623116 8408.0039 131840
5751.6255 86.076195 8552.3799 329219
5876.5591 87.17524 8661.5791 197632
5853.3179 86.076195 8552.3799 459264
5506.6387 80.280716 7976.5508 2038276
5451.6265 78.800079 7829.4375 9860891
5562.041 79.715408 7920.3833 5582344
5355.0967 76.105156 7561.6748 3086090
5338.5771 75.238754 7475.5908 4733221
5226.3965 73.049599 7258.0801 8932885
5370.6943 74.451752 7397.3955 13138688
5519.0425 75.886818 7539.9814 13532928
5425.6367 74.001427 7352.6519 13466368
5328.606 72.09713 7163.4443 13465856
5513.0635 74.001427 7352.6519 13202432
5740.041 76.442009 7595.144 12540160
5807.3999 76.735397 7624.2944 13594624
6139.6479 80.497208 7998.062 13331456
6369.9868 82.875336 8234.3477 13002496
6452.7822 83.312248 8277.7588 11752960
6562.0361 84.081566 8354.1973 8793344
7330.2085 93.218842 9262.0605 2359296
7637.3218 96.400253 9578.1602 786432
7541.5156 94.486458 9388.0088 655616
7248.2246 90.144707 8956.6201 328192
6169.5708 76.170113 7568.1294 591107
6006.0571 73.614487 7314.2065 985607
5780.8408 70.344772 6989.333 393728
5822.394 70.344772 6989.333 393216
6039.4365 72.449959 7198.5005 458752
6492.2871 77.334404 7683.811 2560781
6566.8647 77.676193 7717.7705 2495243
6294.228 73.934715 7346.0234 1114112
6337.9023 73.934715 7346.0234 1179648
6381.5762 73.934715 7346.0234 1048832
7279.0493 83.759285 8322.1758 655360
7526.0259 86.016541 8546.4531 458752
7576.8374 86.016541 8546.4531 393216
7993.4756 90.141968 8956.3477 196865
8907.1777 99.781044 9914.0693 2433060
9193.6992 102.3137 10165.71 2893352
9254.1367 102.3137 10165.71 1905687
9282.1836 101.9579 10130.358 1378828
8885.6885 96.973495 9635.1162 1311752
7403.0435 80.275208 7976.0039 655360
7367.605 79.382454 7887.3013 655360
7563.9961 80.983047 8046.3335 655360
7483.4526 79.61718 7910.6235 655360
7226.8379 76.406845 7591.6504 655360
7071.5859 74.301376 7382.4546 2100235
7137.0601 74.526749 7404.8477 2166028
8566.8887 88.908928 8833.835 1507842
0 0 0 0
0 0 0 0
0 0 0 0
0 0 0 0
0 0 0 0
0 0 0 0
-5115.4653 91.907509 5740.6787 66560
-5122.98 92.660744 5787.7271 330752
-5027.8696 91.55542 5718.6865 66816
-4957.5391 90.889328 5677.0815 1024
-4909.8896 90.632782 5661.0576 1024
-4836.9272 89.902229 5615.4258 1024
-4842.5762 90.632782 5661.0576 66816
-4733.856 89.218079 5572.6929 1054979
-4700.7251 89.218079 5572.6929 512
-4786.6411 91.493591 5714.8247 660224
-4759.1152 91.617767 5722.5811 2304
-4876.835 94.55999 5906.3564 792576
-4799.2944 93.731407 5854.6021 1516800
-4764.4873 93.731407 5854.6021 2569487
-4754.9941 94.23307 5885.937 3490591
-4732.3765 94.480156 5901.3701 2964247
-4714.6519 94.829346 5923.1807 2635284
-4997.3115 101.2711 6325.543 4279853
-4959.7041 101.2711 6325.543 4543027
-4922.0977 101.2711 6325.543 2963744
-4548.9258 94.313782 5890.978 2832158
-4733.7124 98.906509 6177.8467 1280
-4654.1074 98.003654 6121.4526 1536
-4617.7134 98.003654 6121.4526 858369
-4616.978 98.766449 6169.0981 2304
-4500.1846 97.038872 6061.1914 463104
-4399.4146 95.631721 5973.2983 1792
-4329.7397 94.88308 5926.5376 2304
-4468.7695 98.733307 6167.0278 200448
-4350.8037 96.922165 6053.9019 1977868
-4314.6284 96.918053 6053.6445 2570007
-4209.1592 95.344246 5955.3423 1320201
-4398.6929 100.48273 6276.2998 267264
-4375.0776 100.79834 6296.0132 595713
-4318.7969 100.36033 6268.6543 1536
-4300.2144 100.79834 6296.0132 1280
-4271.8975 101.01387 6309.4756 1536
-4084.2727 97.432823 6085.7983 1280
-4048.0911 97.432823 6085.7983 660992
-3970.4604 96.426208 6022.9233 68096
-4060.5125 99.510651 6215.582 1536
-4005.4136 99.061874 6187.5508 265728
-3968.6272 99.061874 6187.5508 1536
-3961.7993 99.816696 6234.6978 1024
-3774.0403 95.984177 5995.3135 1280
-3761.7322 96.583321 6032.7368 1280
-3775.9414 97.881401 6113.8169 1253637
-3899.4734 102.06615 6375.2031 332288
-3847.1111 101.68398 6351.3311 1714695
-3784.1653 101.01168 6309.3389 1649158
-3773.8784 101.74566 6355.1841 596224
-3752.8442 102.2018 6383.6753 793344
-3705.3948 101.94052 6367.3555 1792
-3721.5908 103.44291 6461.1968 1792
-3683.1772 103.44291 6461.1968 1280
-3644.7637 103.44291 6461.1968 661504
-3695.3547 105.99588 6620.6592 3584
-3637.5728 105.46184 6587.3022 1792
-3598.4099 105.46184 6587.3022 135168
-3581.0059 106.10658 6627.5737 529920
-3547.1838 106.27379 6638.0176 2308365
-3507.719 106.27379 6638.0176 1387520
-3658.6079 112.10658 7002.3428 1782528
-3375.9644 104.63649 6535.75 2309123
-3337.1074 104.63649 6535.75 2309122
-3254.906 103.26141 6449.8594 1649920
-3216.5598 103.26141 6449.8594 2438667
-3331.3335 108.23632 6760.6006 1280
-3369.1074 110.80045 6920.7603 512
-3279.6355 109.19151 6820.2622 462848
-3299.1023 111.21464 6946.6304 1280
-3307.3044 112.90453 7052.1836 1024
-3227.9709 111.61118 6971.3984 768
-3148.2366 110.27012 6887.6343 768
-3107.2881 110.27012 6887.6343 768
-3066.3389 110.27012 6887.6343 67072
-3075.9417 112.11263 7002.7202 1024
-3054.6636 112.86471 7049.6968 792833
-3012.7512 112.86471 7049.6968 267008
-2960.9221 112.48798 7026.165 2304
-2902.741 111.85567 6986.6704 1979402
-2869.563 112.18248 7007.0835 1781766
-2878.178 114.17685 7131.6548 795648
-2803.2463 112.86701 7049.8403 861184
-2761.333 112.86701 7049.8403 1518595
-2782.644 115.49108 7213.7437 136704
-2745.2522 115.72276 7228.2139 1518848
-2787.769 119.38383 7456.8896 1651200
-2746.511 119.51764 7465.248 532736
-2704.3706 119.61683 7471.4438 1389056
-2659.9507 119.61683 7471.4438 2375691
-2621.6082 119.89476 7488.8037 1585666
-2637.0251 122.68337 7662.9849 333568
-2591.4668 122.68337 7662.9849 991744
-2507.7273 120.84351 7548.0635 3840
-2529.3606 124.10685 7751.897 2304
-2483.2734 124.10685 7751.897 1792
-2470.5068 125.80361 7857.8794 333312
-2423.7896 125.80361 7857.8794 399873
-2455.3096 129.94421 8116.5073 1782275
-2410.1257 130.11002 8126.8633 2111241
-2361.8091 130.11002 8126.8633 1649416
-2346.2197 131.95056 8241.8271 465152
-2285.3931 131.27124 8199.3955 135680
-2225.1816 130.59843 8157.3706 68608
-2151.2095 129.06999 8061.9023 728320
-2103.2791 129.06999 8061.9023 597248
-2124.9993 133.44383 8335.0986 2439693
-2142.7388 137.7706 8605.3545 991489
-2021.6527 133.1647 8317.6641 3072
-1972.2019 133.1647 8317.6641 1124096
-1877.1965 130.0097 8120.5986 268800
-1759.6572 125.08632 7813.0767 1586432
-1752.5895 127.96181 7992.6836 1849859
-1729.1775 129.77097 8105.686 1192192
-1704.578 131.59218 8219.4414 2441224
-1640.5275 130.38541 8144.0654 1783554
-1725.1451 141.2804 8824.582 201472
-1680.307 141.92456 8864.8174 2045704
-1665.2408 145.2065 9069.8125 991748
-1574.8994 141.92456 8864.8174 1319687
-1551.1613 144.62523 9033.5049 858371
-1529.952 147.76384 9229.5479 69632
-1555.3739 155.80719 9731.9473 595712
-1497.5148 155.80719 9731.9473 267008
-1330.8127 144.02763 8996.1787 530432
-1271.5354 143.37448 8955.3818 794112
-1332.526 156.81795 9795.0801 2109708
-1320.4758 162.50153 10150.085 2241038
-1314.3414 169.49231 10586.74 133376
-1276.7311 172.92317 10801.036 1384206
-1201.8916 171.40799 10706.396 66561
-859.22583 129.39122 8081.9673 1024
0 0 0 0
-651.24146 110.42063 6897.0356 512
0 0 0 0
0 0 0 0
0 0 0 0
0 0 0 0
0 0 0 0
0 0 0 0
0 0 0 0
0 0 0 0
0 0 0 0
0 0 0 0
0 0 0 0
0 0 0 0
-34.765614 32.483246 2028.9514 256
-22.70293 32.483246 2028.9514 256
-10.487611 32.017258 1999.8451 855818
1.3848765 31.625647 1975.3846 2237727
13.198335 31.792448 1985.8033 2632741
25.004488 31.792448 1985.8033 3817272
37.123051 32.062267 2002.6566 4409409
48.097507 31.452868 1964.5925 395781
62.365353 32.814476 2049.6406 790026
74.551041 32.814476 2049.6406 2567972
87.045967 32.931473 2056.9482 4738885
97.823334 32.449894 2026.8682 68097
0 0 0 0
0 0 0 0
0 0 0 0
0 0 0 0
0 0 0 0
0 0 0 0
908.90698 161.89856 10112.423 1280
962.71912 160.84448 10046.584 1792
1055.8263 166.09518 10374.55 330755
1170.326 173.94588 10864.916 4877627
1234.921 173.94588 10864.916 5339196
1345.3394 180.07953 11248.033 2375194
1412.212 180.07953 11248.033 1650707
1429.667 174.06288 10872.225 3328
1481.7964 172.60579 10781.212 464390
1623.8506 181.31001 11324.891 201985
1691.1802 181.31001 11324.891 598533
1733.5165 178.73309 11163.933 3954993
1861.0948 184.81096 11543.565 994820
1973.5331 189.00652 11805.626 2443544
2043.7208 189.00652 11805.626 3233567
2009.0275 179.62901 11219.894 6720840
2120.8557 183.53383 11463.794 4352
2216.2336 185.81625 11606.357 665862
2278.8711 185.29865 11574.027 4020280
2352.2158 185.65651 11596.38 1586196
2577.0046 197.60684 12342.815 1782297
2980.4929 222.21886 13880.118 2304
2962.0876 214.89673 13422.768 794893
3433.3823 242.55405 15150.284 1453333
3752.8311 258.34424 16136.563 4282427
3849.3403 258.38272 16138.966 2571554
3945.4792 258.39502 16139.735 728070
4041.4783 258.39786 16139.911 727304
4137.2725 258.38776 16139.279 924426
4233.3906 258.39786 16139.911 858890
4329.8286 258.42657 16141.705 1516309
4425.9185 258.43378 16142.154 792075
4522.0146 258.44101 16142.607 330756
4617.9858 258.44095 16142.603 988173
4713.9375 258.43982 16142.533 987404
4809.375 258.4111 16140.739 395268
4905.2344 258.40573 16140.404 197633
5000.6597 258.37811 16138.68 197634
5096.0425 258.34946 16136.888 198147
5191.6919 258.33508 16135.991 263684
4621.1948 225.77559 14102.277 395526
3773.1333 181.05736 11309.109 527112
3647.0942 171.94524 10739.953 330245
3504.9265 162.39941 10143.707 256
3096.7922 141.06149 8810.9092 0
2654.8071 118.91718 7427.7427 0
2684.5024 118.27986 7387.9346 65536
2522.6841 109.36076 6830.8345 196864
2562.8506 109.3418 6829.6499 526084
2511.3389 105.47305 6588.002 855305
2703.7534 111.81038 6983.8413 0
3449.5051 140.49252 8775.3701 256
3501.6772 140.49252 8775.3701 0
3275.0105 129.46933 8086.8452 329476
3323.0891 129.46933 8086.8452 592647
3032.8289 116.47546 7275.229 591877
2843.4309 107.66616 6724.9873 524544
2804.0852 104.70407 6539.9712 5186091
2824.7439 104.03293 6498.0503 9589858
2717.8228 98.744629 6167.7354 3410706
3043.8494 109.11769 6815.6519 196608
3573.1873 126.41087 7895.8101 1580309
5957.0015 208.0118 12992.724 5070164
7494.2896 258.34219 16136.436 9674654
7590.4766 258.35077 16136.97 6055013
7686.5835 258.35641 16137.322 6579818
7782.5239 258.35641 16137.322 5658459
7201.2534 236.14877 14750.201 2631467
7288.9468 236.14877 14750.201 1315349
8070.6553 258.36627 16137.938 1315091
8166.7158 258.36996 16138.169 920330
8262.6611 258.36996 16138.169 1578514
0 0 0 0
0 0 0 0
0 0 0 0
7667.6538 229.12206 14311.302 1380878
7203.876 212.90115 13298.12 460548
7540.5562 220.43208 13768.514 460290
6965.52 201.43544 12581.954 525826
6485.1221 185.5502 11589.739 525826
6128.3379 173.49858 10836.978 328962
0 0 0 0
0 0 0 0
0 0 0 0
3968.085 107.80636 6733.7441 263170
4125.6807 110.96841 6931.2505 328706
4048.1531 107.80636 6733.7441 525569
4052.4995 106.86526 6674.9619 393216
3797.804 99.177681 6194.7847 458752
3584.9058 92.718803 5791.3535 1641482
3451.2583 88.413033 5522.4082 1904912
3283.9407 83.333984 5205.1636 1183246
3258.6233 81.919556 5116.8164 14143437
3270.8406 81.466156 5088.4966 13485766
3482.4092 85.940773 5367.9878 2102036
3907.6196 95.558609 5968.7319 196608
4843.4526 117.37794 7331.5996 131072
5659.8154 135.9386 8490.9258 196608
5825.0635 138.67073 8661.5791 459776
5876.5591 138.67073 8661.5791 722688
5538.8218 129.56569 8092.8643 6640654
5319.3105 123.35923 7705.1997 8677902
5365.1196 123.35923 7705.1997 3148297
4978.0859 113.4912 7088.8276 1246980
5017.1172 113.42081 7084.4307 524549
4881.3555 109.43298 6835.3452 459269
4825.3433 107.2841 6701.1235 4800299
5363.5166 118.27305 7387.5093 13796609
5407.437 118.27305 7387.5093 13534464
5331.0483 115.66279 7224.4688 13335552
5373.9995 115.66279 7224.4688 13202944
5416.9512 115.66279 7224.4688 11949057
5428.2954 114.99324 7182.647 11557376
5577.1099 117.22356 7321.9565 12479232
5852.7285 122.06395 7624.2944 12147712
6173.7881 127.77037 7980.7261 9977088
6422.3804 131.90144 8238.7588 3935232
7059.376 143.88654 8987.3652 983040
7330.2085 148.28436 9262.0605 655360
7652.2827 153.64546 9596.9229 393216
7541.5156 150.30078 9388.0088 328192
7248.2246 143.3943 8956.6201 1117450
6147.2344 120.72609 7540.7295 1117449
5911.396 115.25389 7198.9277 1971475
0 0 0 0
0 0 0 0
5849.0547 111.61411 6971.582 655360
5958.0161 112.89336 7051.4858 2495245
6129.9526 115.33967 7204.2856 2297865
6041.8623 112.89336 7051.4858 1179648
6215.6157 115.33967 7204.2856 1246211
6266.8623 115.49475 7213.9727 786945
6942.1387 127.07007 7936.9844 327680
7148.8823 129.97089 8118.1738 5589834
7429.3281 134.16377 8380.0674 5918544
8540.041 153.19443 9568.75 6905699
8907.1777 158.72295 9914.0693 8024693
9147.2197 161.92888 10114.316 8484473
9221.9551 162.1857 10130.358 8286579
9071.3789 158.50235 9900.291 3548713
8333.1064 144.664 9035.9277 1706251
8317.3418 143.46547 8961.0645 589824
7389.3911 126.64804 7910.6235 655360
7436.4219 126.64804 7910.6235 720896
7379.4258 124.88751 7800.6587 655360
7027.6948 118.19212 7382.4546 851968
6990.8486 116.8427 7298.168 2099978
6956.1646 115.54586 7217.165 2034952
8865.0811 146.3513 9141.3184 1573632
0 0 0 0
0 0 0 0
0 0 0 0
0 0 0 0
0 0 0 0
0 0 0 0
-5102.3408 125.71407 5725.9502 1383697
-5098.5166 126.46361 5760.0894 199168
-4991.291 124.64116 5677.0815 768
-4931.0151 123.9743 5646.708 1792
-4897.4438 123.9743 5646.708 1024
-4789.769 122.08549 5560.6772 527874
-4756.709 122.08549 5560.6772 1024
-4730.2134 122.25514 5568.4048 198400
-4742.8882 123.4467 5622.6772 68096
-4786.6411 125.46982 5714.8247 199936
-4759.1152 125.64011 5722.5811 462848
-4767.9033 126.77843 5774.4287 528640
-4799.2944 128.53865 5854.6021 528896
-4764.4873 128.53865 5854.6021 265472
-4754.9941 129.22661 5885.937 331264
-4749.8667 130.0443 5923.1807 1121028
-4963.4033 136.90561 6235.6958 4345645
-5085.8398 141.33847 6437.6011 5990985
-5041.604 141.17152 6429.9971 8556913
-5003.376 141.17152 6429.9971 1976342
-4374.5996 124.38078 5665.2217 2043412
-5036.146 144.30119 6572.5454 1280
-4690.332 135.44345 6169.0981 1792
-4492.3433 130.74852 5955.2563 68608
-4604.3804 135.07388 6152.2656 1536
-4440.0352 131.29568 5980.1777 1792
-4354.3325 129.80077 5912.0884 1280
-4290.0889 128.92642 5872.2637 1536
-4436.6001 134.42329 6122.6328 67840
-4350.8037 132.91431 6053.9019 530176
-4314.8115 132.91431 6053.9019 1385481
-4201.9287 130.52582 5945.1128 596738
-4398.6929 137.79709 6276.2998 2304
-4480.2456 141.55266 6447.3564 464384
-4343.6592 138.42151 6304.7407 1024
-4431.9902 142.46581 6488.9482 1536
-4393.4116 142.46581 6488.9482 1280
-4372.1621 143.03271 6514.7695 1280
-4064.3594 134.15157 6110.2559 133888
-4054.1611 135.02176 6149.8911 1536
-4017.5979 135.02176 6149.8911 3072
-4005.4136 135.84859 6187.5508 1714186
-3986.8123 136.47108 6215.9038 660481
-3949.8572 136.47108 6215.9038 1280
-3747.3071 130.6956 5952.8457 1024
-3738.3965 131.62799 5995.3135 1024
-3902.1021 138.71458 6318.0898 1280
-3899.4734 139.96852 6375.2031 1024
-3816.3823 138.3306 6300.5996 1536
-3748.1763 137.20505 6249.3345 1536
-3771.5906 139.4444 6351.3311 1254149
-3730.9404 139.33649 6346.416 530432
-3705.3948 139.79622 6367.3555 1792
-3805.4583 145.05331 6606.8022 1536
-3788.7222 145.92155 6646.3486 2560
-3715.4924 144.60933 6586.5801 792577
-3758.4534 147.83954 6733.708 266496
-3611.2297 143.5778 6539.5972 1792
-3627.4182 145.79108 6640.4058 1792
-3587.939 145.79108 6640.4058 924672
-3558.1499 146.18919 6658.5386 134656
-3523.3867 146.3896 6667.667 2816
-3501.6675 147.1427 6701.9688 267776
-3461.8225 147.1427 6701.9688 69632
-3405.6895 146.44234 6670.0684 1189376
-3254.906 141.6076 6449.8594 1452544
-3226.9968 142.06709 6470.7876 2438666
-3360.7322 149.73985 6820.2622 462592
-3369.1074 151.9463 6920.7603 132864
-3325.0706 151.8143 6914.7476 768
-3299.1023 152.51428 6946.6304 768
-3257.8022 152.51428 6946.6304 768
-3146.2085 149.18121 6794.8174 512
-3092.3611 148.53514 6765.3906 768
-3052.1389 148.53514 6765.3906 1024
-3011.9167 148.53514 6765.3906 396545
-2999.3523 149.91756 6828.356 1648389
-3044.4673 154.26048 7026.165 990976
-3002.6946 154.26048 7026.165 1649667
-2960.9221 154.26048 7026.165 794112
-2837.6677 149.95464 6830.0444 202496
-2858.6545 153.25673 6980.4468 531712
-2856.0032 155.37019 7076.7095 663040
-2764.1155 152.61969 6951.4307 2110722
-2698.084 151.235 6888.3623 332544
-2745.8354 156.28377 7118.3203 1452288
-2745.2522 158.69649 7228.2139 861184
-2787.769 163.7171 7456.8896 1190656
-2746.511 163.90062 7465.248 202496
-2704.3706 164.03664 7471.4438 1125632
-2659.9507 164.03664 7471.4438 3296535
-2615.531 164.03664 7471.4438 1650944
-2597.478 165.71884 7548.0635 133376
-2575.7163 167.21941 7616.4106 135168
-2507.7273 165.71884 7548.0635 2304
-2500.0811 168.22388 7662.1616 2110479
-2461.4041 168.69518 7683.6284 464384
-2427.3628 169.50804 7720.6519 2304
-2381.4614 169.50804 7720.6519 69120
-2335.5598 169.50804 7720.6519 2304
-2410.1257 178.42648 8126.8633 1387265
-2361.8091 178.42648 8126.8633 2966037
-2357.8145 181.84474 8282.5566 199936
-2308.5723 181.84474 8282.5566 2048
-2250.5806 181.1405 8250.4805 1792
-2176.6838 179.09627 8157.3706 134912
-2174.5537 182.99832 8335.0986 1536
-2154.4722 185.53642 8450.7031 2570512
-2053.5933 181.07161 8247.3418 68864
-2021.6527 182.61552 8317.6641 859648
-1963.9142 181.84813 8282.7109 136192
-1891.6232 179.65912 8183.0073 136960
-1762.7522 171.83894 7826.8184 1124864
-1728.8743 173.10602 7884.5303 861952
-1705.0709 175.48055 7992.6836 1191680
-1718.8741 181.97253 8288.377 1256193
-1689.5052 184.14232 8387.2051 2769420
-1646.4141 184.90298 8421.8516 2816
-1603.7104 185.75626 8460.7158 1979912
-1658.5746 198.33192 9033.5049 135424
-1604.8679 198.33192 9033.5049 2572040
-1551.1613 198.33192 9033.5049 1848320
-1588.9165 210.44569 9585.2559 1716740
-1555.3739 213.66634 9731.9473 1254656
-1497.5148 213.66634 9731.9473 530688
-1340.5585 198.95883 9062.0586 727808
-1277.3279 197.51241 8996.1787 267776
-1332.526 215.05243 9795.0801 1715204
-1320.4758 222.84662 10150.085 3492123
-1290.256 228.17407 10392.737 1648650
-1276.7311 237.13834 10801.036 1911060
-1214.9423 237.61285 10822.649 1647638
-859.22583 177.44078 8081.9673 512
0 0 0 0
-654.59448 152.20506 6932.5459 512
0 0 0 0
0 0 0 0
0 0 0 0
0 0 0 0
0 0 0 0
0 0 0 0
0 0 0 0
0 0 0 0
0 0 0 0
0 0 0 0
0 0 0 0
0 0 0 0
-34.771408 44.553352 2029.2897 256
-22.706717 44.553352 2029.2897 256
-10.585901 44.31839 2018.5878 461060
1.3998638 43.839214 1996.7626 1447954
13.271173 43.839214 1996.7626 2698020
25.004488 43.598606 1985.8033 3158827
37.123051 43.96862 2002.6566 4080444
48.097507 43.132915 1964.5925 659207
62.365353 45.00016 2049.6406 2106397
74.551041 45.00016 2049.6406 3423281
87.045967 45.160603 2056.9482 2634790
101.60899 46.222294 2105.3057 1977117
112.38558 45.517559 2073.2068 67585
0 0 0 0
0 0 0 0
0 0 0 0
0 0 0 0
0 0 0 0
831.3432 203.07315 9249.4551 768
928.99536 212.84758 9694.6553 1280
1055.8263 227.77477 10374.55 1056268
1170.326 238.54082 10864.916 1782037
1234.921 238.54082 10864.916 1586450
1299.5161 238.54082 10864.916 3231013
1365.0286 238.70128 10872.225 1717779
1436.9425 239.91602 10927.553 1190665
1517.3873 242.3884 11040.163 2374940
1593.5492 243.99998 11113.566 1386512
1667.1437 245.10577 11163.933 2304
1733.5165 245.10577 11163.933 2304
1788.0959 243.49979 11090.784 3328
1886.2096 247.7256 11283.259 597766
1984.5449 251.68927 11463.794 926475
2009.0275 246.33441 11219.894 2304
2120.8557 251.68927 11463.794 399619
2276.7795 261.78076 11923.436 135937
2285.2366 254.81927 11606.357 466441
2670.7434 289.07715 13166.715 465926
2857.0933 300.44141 13684.327 2836524
2980.4929 304.74002 13880.118 4351040
3071.9854 305.63257 13920.771 5008451
3656.7661 354.26816 16135.996 1256724
3752.7964 354.27737 16136.416 2374435
3849.0869 354.31003 16137.903 1189393
3945.4346 354.34628 16139.554 267011
4041.4783 354.3541 16139.911 727046
4137.6636 354.37375 16140.806 267009
4233.8613 354.39349 16141.705 1121293
4329.9487 354.40335 16142.154 529159
4425.9185 354.40335 16142.154 1055246
4522.5166 354.45264 16144.398 2765352
4618.2407 354.43277 16143.494 4014908
4714.4814 354.45258 16144.396 658439
4809.5078 354.38205 16141.185 132096
4905.3364 354.37228 16140.739 658439
5000.7778 354.33548 16139.062 256
5096.6084 354.32706 16138.68 512
5192.4185 354.31763 16138.249 768
5287.6235 354.26794 16135.986 593418
4706.3276 309.70251 14106.146 512
3795.7463 245.40813 11177.704 66048
3673.6121 233.425 10631.903 66049
3522.0742 220.01056 10020.91 0
2729.7883 167.68306 7637.5283 0
2702.7542 163.306 7438.1646 65536
2522.6841 149.97197 6830.8345 65536
2472.1714 144.64055 6588.002 0
2511.3389 144.64055 6588.002 920840
2655.0962 150.57188 6858.1592 131585
2757.2888 154.00232 7014.4062 0
3501.6772 192.66454 8775.3701 66048
3157.3806 171.17081 7796.3867 263683
2988.5457 159.67371 7272.7231 197632
2982.0662 157.05524 7153.4585 262144
2902.8301 150.73244 6865.4717 5320758
2806.0562 143.68695 6544.5679 10578550
2710.5789 136.89966 6235.4248 6564147
2747.6504 136.89966 6235.4248 917504
3120.5632 153.40996 6987.4263 655874
3298.8745 160.04533 7289.6504 921353
7398.354 354.2778 16136.436 198657
7494.8945 354.30637 16137.737 660489
7591.1084 354.319 16138.312 3029551
7687.0547 354.319 16138.312 1447439
7783.002 354.319 16138.312 1513235
7878.9971 354.3212 16138.412 525318
7974.5908 354.30548 16137.696 328965
8070.5342 354.30548 16137.696 723723
8166.7158 354.31586 16138.169 263170
8262.6611 354.31586 16138.169 0
8357.2158 354.25687 16135.481 855048
8453.5596 354.2742 16136.271 789255
8549.4941 354.2742 16136.271 723462
8645.1895 354.26437 16135.823 591876
8075.5093 327.28815 14907.127 592389
7685.543 308.10208 14033.25 460803
7152.2427 283.64368 12919.234 658182
7040.3237 276.23865 12581.954 395010
6128.3379 237.92744 10836.978 460548
6059.6055 232.81134 10603.953 1513748
0 0 0 0
0 0 0 0
0 0 0 0
3754.8264 138.49759 6308.2061 7632986
3792.3306 138.49759 6308.2061 525312
4052.4995 146.54976 6674.9619 459264
4019.6941 143.95377 6556.7207 459008
3834.634 136.0074 6194.7847 918274
3555.1963 124.8967 5688.7207 1839376
3283.9407 114.28013 5205.1636 1904656
3258.6233 112.34046 5116.8164 8418677
3270.8406 111.71869 5088.4966 13616581
3301.093 111.71869 5088.4966 12097437
3657.0303 122.64072 5585.9668 1114112
4607.3457 153.11963 6974.2021 393216
5492.5493 180.91022 8239.9912 327680
5672.7612 185.19414 8435.1133 1511682
5802.4717 187.76875 8552.3799 10452253
5773.0596 185.19414 8435.1133 6173186
5319.3105 169.16878 7705.1997 2689024
5265.1836 166.01768 7561.6748 1312512
4812.1167 150.44734 6852.4858 919553
4793.9116 148.61993 6769.2529 196613
4785.5029 147.12415 6701.1235 131592
4777.5659 145.66742 6634.7734 262151
4870.123 147.27351 6707.9272 11301632
5046.9072 151.3799 6894.9619 13533696
5112.4468 152.11023 6928.2271 13138433
5297.9478 156.36958 7122.2295 8410957
5385.5928 157.69608 7182.647 4012629
5428.4614 157.70088 7182.8662 5394014
5507.6855 158.75354 7230.812 8087102
5730.0776 163.8846 7464.5181 5646080
6010.3052 170.57822 7769.3955 1310720
6764.9902 190.53259 8678.2656 524288
7740.4292 216.35526 9854.4209 393216
7799.0161 216.35526 9854.4209 131072
7777.4673 214.14874 9753.9199 1182986
7541.5156 206.11511 9388.0088 2565150
7248.2246 196.64391 8956.6201 2039320
6068.6963 163.44263 7444.3882 2499357
5820.3325 155.61874 7088.0303 3617069
5862.4727 155.61874 7088.0303 1511181
5996.6392 158.04413 7198.5005 1180932
6039.4365 158.04413 7198.5005 1114112
5927.0879 154.01274 7014.8813 2494990
5999.9395 154.81641 7051.4858 2298125
6107.6655 156.50255 7128.2852 1048576
6150.0454 156.50255 7128.2852 2496276
6266.8623 158.38383 7213.9727 853253
7093.6191 178.06001 8110.1724 393216
7141.8364 178.06001 8110.1724 721668
7197.1475 178.23569 8118.1738 787461
8540.041 210.08331 9568.75 1444879
8825.0996 215.6591 9822.7129 2234140
8906.2207 216.21072 9847.8379 1773585
8897.6094 214.59097 9774.0625 458752
8735.3877 209.31155 9533.5986 524288
8683.2295 206.72044 9415.5801 589824
8739.207 206.72044 9415.5801 720897
7367.605 173.16685 7887.3013 458752
7333.0483 171.2646 7800.6587 524288
7187.7129 166.81526 7598.0024 655360
7027.6948 162.08287 7382.4546 720896
6990.8486 160.23235 7298.168 2034441
7067.3486 160.98656 7332.5205 2034695
8743.0078 197.93533 9015.4414 1573632
0 0 0 0
0 0 0 0
0 0 0 0
0 0 0 0
0 0 0 0
-4825.1465 150.07607 5378.9888 988685
-5087.4111 159.28899 5709.1958 725766
-5068.2983 159.75644 5725.9502 462593
-4964.5864 157.54556 5646.708 265216
-4929.2896 157.49042 5644.7319 67328
-4895.73 157.49042 5644.7319 1280
-4799.8511 155.47183 5572.3823 1024
-4739.4297 154.58167 5540.4775 1280
-4706.4902 154.58167 5540.4775 1024
-4742.8882 156.87509 5622.6772 923395
-4717.0815 157.12897 5631.7769 330496
-4710.7563 158.04005 5664.4316 67584
-4724.1196 159.62955 5721.4023 134144
-4785.5156 162.87691 5837.793 2816
-4764.4873 163.34589 5854.6021 595456
-4716.1006 162.87691 5837.793 1582342
-4911.4058 170.87959 6124.6235 1647619
-5078.2983 178.00589 6380.0425 1055744
-5244.9697 185.23166 6639.0264 2963479
-5205.499 185.23166 6639.0264 9872770
-5244.646 188.05055 6740.0605 768
-4564.7056 164.93095 5911.4136 1647888
-5036.146 183.3768 6572.5454 1024
-4618.2324 169.47462 6074.2671 1280
-4407.6333 163.02107 5842.9604 2048
-4475.5889 166.8495 5980.1777 134146
-4440.0352 166.8495 5980.1777 1280
-4348.4468 164.72681 5904.0972 1024
-4290.0889 163.83865 5872.2637 1280
-4385.5552 168.85867 6052.1899 266240
-4349.5732 168.85867 6052.1899 595969
-4363.7983 170.82405 6122.6328 1583113
-4201.9287 165.87117 5945.1128 2175507
-4398.6929 175.11142 6276.2998 1451533
-4605.314 184.90555 6627.3379 2304
-4565.9126 184.90555 6627.3379 2108438
-4446.082 181.62007 6509.5806 67584
-4393.4116 181.0444 6488.9482 1280
-4446.0347 184.83595 6624.8438 1280
-4333.4297 181.76483 6514.7695 1187592
-4273.7236 180.87715 6482.9531 2569240
-4082.3699 174.35088 6249.04 464384
-4045.218 174.35088 6249.04 200192
-3998.8667 173.95071 6234.6978 1780492
-3949.8572 173.42636 6215.9038 793344
-3887.0129 172.27892 6174.7778 199680
-3935.0564 176.0712 6310.6992 529920
-3902.1021 176.27739 6318.0898 68352
-3907.8284 178.25198 6388.8628 1280
-3847.1111 177.20483 6351.3311 2048
-3809.3508 177.20483 6351.3311 2304
-3771.5906 177.20483 6351.3311 2304
-3734.5588 177.23943 6352.5708 1792
-3773.2971 180.90746 6484.0396 1536
-3805.4583 184.3326 6606.8022 331520
-3847.1577 188.29604 6748.8589 332800
-3795.1819 187.70982 6727.8481 332288
-3755.1826 187.70982 6727.8481 990723
-3611.2297 182.45753 6539.5972 1792
-3637.3235 185.77606 6658.5386 1792
-3587.939 185.27014 6640.4058 1792
-3558.1499 185.77606 6658.5386 1536
-3523.3867 186.03075 6667.667 68864
-3540.0737 189.03864 6775.4751 1792
-3499.7915 189.03864 6775.4751 2048
-3422.3457 187.00789 6702.6899 2304
-3467.5007 191.70755 6871.1333 1583104
-3329.7251 186.28497 6676.7793 1121792
-3290.03 186.28497 6676.7793 4344876
-3320.1838 190.28821 6820.2622 1024
-3279.6355 190.28821 6820.2622 768
-3299.1023 193.81393 6946.6304 593408
-3245.7085 193.09444 6920.8423 528640
-3146.2085 189.57829 6794.8174 3687456
-3092.3611 188.75726 6765.3906 264960
-3048.729 188.5464 6757.8325 1280
-3011.9167 188.75726 6765.3906 132864
-3135.1746 199.14125 7137.5708 1450761
-3044.4673 196.03299 7026.165 595968
-3002.6946 196.03299 7026.165 200448
-3031.8562 200.72929 7194.4888 1122050
-2911.2219 195.50061 7007.0835 399360
-2869.563 195.50061 7007.0835 794368
-2872.1118 198.55682 7116.6235 1650177
-2764.1155 193.94788 6951.4307 1189889
-2712.6414 193.22517 6925.5278 464896
-2745.8354 198.60416 7118.3203 2241797
-2745.2522 201.67023 7228.2139 2048
-2759.3643 205.93056 7380.9106 1189120
-2780.1301 210.83313 7556.6279 1584896
-2704.3706 208.45647 7471.4438 927744
-2659.9507 208.45647 7471.4438 1059328
-2589.8164 206.40701 7397.9883 3427607
