# .PCD v0.7 - Point Cloud Data file format
VERSION 0.7
FIELDS x y z rgb
SIZE 4 4 4 4
TYPE F F F U
COUNT 1 1 1 1
WIDTH 1422
HEIGHT 1
VIEWPOINT 0 0 0 1 0 0 0
POINTS 1422
DATA ascii
7110.7251 234.20869 10667.599 1846555
6986.3687 228.07843 10388.382 2109983
7042.6021 227.89954 10380.233 1280
7067.0552 226.70427 10325.791 398853
7178.9424 228.31021 10398.938 1780253
7895.4536 248.95331 11339.178 1122325
7802.1807 243.92952 11110.357 859410
7962.1665 246.84157 11242.993 1122582
7864.6846 241.78961 11012.891 530701
7719.0811 235.35388 10719.759 2373930
7937.5352 240.0327 10932.867 2242342
8326.2793 249.7433 11375.16 4611145
8503.7812 253.01237 11524.058 1584412
9434.793 278.46912 12683.546 2045729
9869.6104 288.99301 13162.883 3887677
9009.1572 261.72278 11920.795 5269072
8995.2734 259.27975 11809.521 6387806
9336.6641 267.03574 12162.785 6519131
9408.9756 267.03574 12162.785 2439446
9760.8535 274.90961 12521.42 3293726
11788.451 329.50284 15008 1779469
12770.341 354.26654 16135.922 5331523
12866.344 354.26846 16136.01 396033
12963.476 354.30121 16137.502 768
13059.418 354.30121 16137.502 67072
13155.539 354.30606 16137.724 1025
13176.5 352.30121 16046.407 1025
13190.897 350.15103 15948.472 396295
12984.14 342.20285 15586.453 790027
12825.322 335.62189 15286.706 256
12738.299 330.99905 15076.148 256
12843.365 331.39731 15094.288 256
13266.088 339.92963 15482.913 132098
13757.767 350.09912 15946.107 395271
11629.918 293.92554 13387.546 0
10887.851 273.30069 12448.138 460808
10249.245 255.53384 11638.904 65793
10023.991 248.24185 11306.772 0
10091.213 248.24185 11306.772 256
10083.178 246.40279 11223.008 0
9867.7207 239.55244 10910.993 0
9528.2959 229.80176 10466.874 0
9563.1807 229.14656 10437.032 0
9626.3203 229.1725 10438.213 0
9593.1621 226.9202 10335.627 263172
9147.6475 215.00465 9792.9043 657929
0 0 0 0
0 0 0 0
0 0 0 0
0 0 0 0
0 0 0 0
0 0 0 0
0 0 0 0
0 0 0 0
0 0 0 0
0 0 0 0
0 0 0 0
0 0 0 0
0 0 0 0
-4565.9478 143.92198 5158.4155 1321219
-4579.8579 145.33662 5209.1187 1847558
-4726.9878 151.0269 5413.0679 464128
-4816.21 154.93234 5553.0459 201728
-4783.1953 154.93234 5553.0459 332032
-4822.272 157.28366 5637.3213 728576
-4746.9272 155.90981 5588.0801 136192
-4676.9062 154.69269 5544.4561 794882
-4643.9429 154.69269 5544.4561 859906
-4614.9775 154.8268 5549.2632 1255432
-4613.1099 155.87848 5586.9575 1254149
-4593.668 156.34731 5603.7607 859652
-4509.5303 154.60492 5541.3105 68864
-4470.1392 154.38228 5533.3311 1536
-4373.6035 152.16815 5453.9727 1024
-4250.5171 148.9903 5340.0723 768
-4347.6895 153.54324 5503.2583 1024
-4314.9707 153.54324 5503.2583 1024
-4312.9463 154.64378 5542.7036 1024
-4279.9932 154.64378 5542.7036 1280
-4218.3765 153.60007 5505.2949 1536
-4194.8794 153.93892 5517.4399 462338
-4179.3511 154.57782 5540.3394 3622943
-4146.9243 154.59692 5541.0239 2241544
-4113.9814 154.59692 5541.0239 2048
-4110.2202 155.70236 5580.645 68096
-4138.064 158.03281 5664.1724 859392
-4105.5146 158.07616 5665.7256 793856
-4056.259 157.47165 5644.0591 1792
-4042.6343 158.25185 5672.0229 529920
-4021.7263 158.75769 5690.1528 398080
-4040.873 160.86665 5765.7422 530688
-4006.594 160.86665 5765.7422 134400
-3894.9751 157.73463 5653.4849 1536
-3844.208 157.03381 5628.3667 2048
-3810.7458 157.03381 5628.3667 512
-3809.8591 158.38809 5676.9062 530432
-3714.4377 155.80133 5584.1924 70656
-3694.1946 156.34969 5603.8462 794112
-3702.1875 158.11395 5667.0801 2304
-3691.4114 159.10164 5702.481 859648
-3760.6948 163.59024 5863.3604 925440
-3725.8354 163.59024 5863.3604 728576
-3680.2771 163.11604 5846.3643 266752
-3588.0825 160.5461 5754.2529 1057280
-3512.8521 158.69302 5687.8354 398592
-3626.1294 165.40253 5928.3159 267520
-3590.8838 165.40253 5928.3159 1280
-3555.6379 165.40253 5928.3159 2816
-3545.0256 166.55991 5969.7979 1536
-3433.4314 162.94814 5840.3457 1123074
-3374.0752 161.76709 5798.0151 859392
-3425.7908 165.94188 5947.647 1650440
-3510.2666 171.80716 6157.8691 398595
-3409.7795 168.64781 6044.6323 531456
-3244.7981 162.19728 5813.4341 3072
-3244.5774 163.9324 5875.624 595968
-3276.3704 167.34041 5997.7725 2304
-3180.7537 164.24434 5886.8042 1792
-3231.0659 168.69853 6046.4507 1536
-3159.7554 166.83144 5979.5303 399104
-3133.3557 167.32005 5997.0435 596224
-3112.5579 168.12251 6025.8047 266240
-3074.585 168.00514 6021.5977 1792
-3082.7527 170.43599 6108.7236 463616
-3081.7515 172.41183 6179.5415 925184
-3045.0125 172.41183 6179.5415 727808
-2924.3359 167.60115 6007.1182 67840
-2969.5151 172.29468 6175.3423 3228952
-2911.9685 171.07082 6131.4771 2439690
-2858.2075 170.04117 6094.5723 531456
-2793.9182 168.35063 6033.981 992512
-2758.0444 168.35063 6033.981 1452546
-2684.3782 166.01337 5950.2095 728576
-2701.8271 169.32391 6068.8647 1518087
-2675.0847 169.91708 6090.1255 68864
-2641.5757 170.09084 6096.353 399104
-2579.3618 168.39542 6035.5859 2304
-2543.4785 168.39542 6035.5859 2048
-2545.2898 170.92676 6126.3135 135168
-2581.7109 175.88953 6304.188 2504981
-2616.8079 180.90698 6484.0225 991237
-2695.2659 189.11696 6778.2822 2560
-2716.2378 193.48134 6934.7095 463874
-2685.3716 194.23087 6961.5742 1450251
-2713.646 199.3484 7144.9951 1536
-2724.626 203.33801 7287.9902 924938
-2645.6392 200.63391 7191.0703 2240538
-2511.7378 193.60806 6939.2515 1536
-2465.8201 193.24272 6926.1572 1792
-2396.8596 191.02846 6846.7939 1056006
-2323.2593 188.36151 6751.2061 858881
-2235.5344 184.4355 6610.4907 727042
-2136.1492 179.38976 6429.6421 1280
-2097.9231 179.38976 6429.6421 1792
-2088.77 181.92186 6520.3975 660992
-2068.4739 183.5609 6579.1436 67584
-2098.6143 189.8252 6803.6665 1385474
-2104.5928 194.1073 6957.145 924672
-2145.4583 201.84322 7234.4136 2503700
-2021.8685 194.1073 6957.145 9015935
-2010.9144 197.08755 7063.9624 132354
-1984.8306 198.68047 7121.0557 1024
-1997.7438 204.33148 7323.5977 768
-1954.2028 204.33148 7323.5977 922633
-1910.662 204.33148 7323.5977 1024
-1793.423 196.2662 7034.5234 1280
-1758.858 197.07936 7063.6689 266496
-1734.9161 199.15175 7137.9473 1517575
-1692.4791 199.15175 7137.9473 3425827
-1684.7878 203.3454 7288.2549 2240276
-1651.6252 204.60504 7333.4019 200448
-1605.6909 204.30791 7322.7524 132608
-1538.6556 201.2345 7212.5967 1536
-1510.6918 203.24136 7284.5259 67328
-1468.1204 203.34344 7288.1851 1188102
-1412.106 201.5332 7223.3027 398592
-1365.1422 200.9416 7202.0981 2109451
-1311.7299 199.33176 7144.3984 1977358
-1269.2544 199.33176 7144.3984 857860
-1226.7791 199.33176 7144.3984 264192
-1186.0878 199.63205 7155.1616 1280
-1143.5482 199.63205 7155.1616 1536
-1101.0089 199.63205 7155.1616 1280
-1048.6046 197.7715 7088.4761 1450764
-1047.9281 205.91971 7380.5225 2048
-997.64838 204.60706 7333.4746 1792
-930.9046 199.64351 7155.5723 727044
-905.23438 203.43509 7291.4697 332032
-851.52124 200.98898 7203.7969 3072
-819.03064 203.55836 7295.8877 199936
-802.68622 210.65239 7550.1499 1847818
-754.51245 209.73895 7517.4102 926720
-709.81934 209.73895 7517.4102 1651712
-653.15118 205.96277 7382.0654 3098638
-609.26276 205.96277 7382.0654 3098892
-555.58002 202.39474 7254.1816 2702852
-514.25415 203.10657 7279.6948 1779717
-479.24045 206.6713 7407.4604 331520
-443.91562 210.80975 7555.79 923142
-412.23447 217.80518 7806.5186 264448
-349.88037 208.31348 7466.3193 768
-305.15271 208.08279 7458.0508 512
-261.10168 208.31348 7466.3193 512
-212.63574 204.39487 7325.8691 66816
-164.44046 198.78464 7124.7886 462594
-128.56398 209.33984 7503.106 1056005
-83.955925 209.33984 7503.106 861186
-39.86129 212.07133 7601.0068 991238
5.0540195 201.13535 7209.042 2572049
49.692116 208.60054 7476.6084 1255937
94.142632 208.60054 7476.6084 1190400
137.6954 207.24934 7428.1782 1913606
182.5777 208.0695 7457.5752 860674
226.91507 208.0695 7457.5752 1453569
274.81635 210.80328 7555.5586 1716739
314.9444 207.64403 7442.3247 730112
357.92462 206.9119 7416.084 3296019
402.36938 207.09413 7422.6157 3361808
468.33627 217.22269 7785.6406 200704
514.62408 217.22269 7785.6406 926976
549.79443 212.91728 7631.3271 1124353
598.42188 214.08246 7673.0898 3098392
640.53516 212.91728 7631.3271 1386756
711.81738 220.96077 7919.6206 1519108
770.71478 224.40025 8042.8975 1782531
798.20007 218.82626 7843.1152 1453312
844.82965 218.82626 7843.1152 3228952
861.01733 211.3537 7575.2861 264704
927.93823 216.45848 7758.25 69376
955.01495 212.22554 7606.5342 1188352
991.86908 210.44987 7542.8916 728576
1039.4534 211.00606 7562.8257 1320960
1105.7054 215.14845 7711.2969 465408
1151.5513 215.14845 7711.2969 3755544
1227.0524 220.47693 7902.2788 991236
1273.9069 220.45499 7901.4922 664320
1330.4919 222.05865 7958.9702 401920
1364.8218 219.96533 7883.9419 1323008
1457.0626 227.0345 8137.3135 2375939
1458.5663 219.96533 7883.9419 862208
1585.5227 231.66673 8303.3408 2968070
1682.1628 238.36562 8543.4404 1849088
1732.9559 238.36562 8543.4404 3428625
1778.6328 237.68192 8518.9355 2770186
1829.2802 237.68192 8518.9355 4282913
2098.636 265.3335 9510.0166 198912
2155.1755 265.3335 9510.0166 3072
2038.392 244.54037 8764.7549 2560
2061.0544 241.09583 8641.2959 69376
2142.6099 244.54037 8764.7549 398848
2235.7771 249.11517 8928.7236 201728
2259.2258 245.88977 8813.1191 729088
2290.4211 243.6346 8732.29 1584641
2424.2307 252.15263 9037.5908 2309379
2504.6704 254.87045 9135.0029 2966282
2826.3496 281.5 10089.452 2768146
3086.3596 301.00818 10788.659 133632
2967.0278 283.47861 10160.369 1119500
3090.7563 289.40787 10372.885 263426
3052.1975 280.20642 10043.088 256
2609.356 234.95509 8421.2012 256
2553.6616 225.61133 8086.3047 256
2558.6309 221.87335 7952.3291 256
2545.9224 216.76591 7769.269 256
2400.251 200.72142 7194.2065 256
2223.5349 182.68806 6547.8599 256
2135.5864 172.44305 6180.6606 256
0 0 0 0
0 0 0 0
0 0 0 0
0 0 0 0
0 0 0 0
0 0 0 0
0 0 0 0
0 0 0 0
0 0 0 0
0 0 0 0
0 0 0 0
0 0 0 0
0 0 0 0
0 0 0 0
0 0 0 0
0 0 0 0
706.12909 44.114277 1581.1328 256
728.08276 44.888226 1608.8726 256
723.90582 44.051975 1578.8998 256
722.6803 43.414436 1556.0493 256
735.84015 43.646278 1564.359 2303264
741.18262 43.414436 1556.0493 2895401
745.95026 43.155056 1546.7527 3553331
757.95062 43.315327 1552.4971 4211261
761.94885 43.019939 1541.9098 5329742
779.9884 43.514927 1559.651 4277054
782.38239 43.135681 1546.0582 4342847
798.81567 43.530304 1560.2021 4934984
807.95215 43.522797 1559.9331 724489
814.2735 43.365532 1554.2965 2040091
822.22864 43.297836 1551.8701 3422255
0 0 0 0
0 0 0 0
0 0 0 0
0 0 0 0
0 0 0 0
0 0 0 0
0 0 0 0
5318.0869 256.97726 9210.5146 768
5833.5264 279.01108 10000.245 768
5892.9805 279.01108 10000.245 768
5968.5078 279.76447 10027.248 768
6049.7773 280.76947 10063.269 1793
6200.8467 284.96246 10213.553 67843
6363.3408 289.59406 10379.558 768
6449.5493 290.6983 10419.136 67330
6511.4941 290.6983 10419.136 1794
6643.4556 293.79465 10530.114 529675
6706.0591 293.79465 10530.114 595982
6749.6743 292.97043 10500.572 661261
6794.9507 292.23273 10474.132 1386266
6820.8623 290.6832 10418.594 1055760
6876.6084 290.42154 10409.216 398855
7110.7251 297.63052 10667.599 2176799
7131.7524 295.87173 10604.56 530695
7237.5684 297.63052 10667.599 2571046
7197.1108 293.39578 10515.818 267269
7317.5283 295.73569 10599.685 662029
7828.481 313.6843 11242.993 1649439
7895.3237 313.6843 11242.993 662801
7868.2349 309.9837 11110.357 2372906
7864.6846 307.26431 11012.891 1188888
7918.9214 306.82886 10997.283 859922
7937.5352 305.03165 10932.867 728334
8318.1621 317.06238 11364.07 2110499
8385.7246 317.06238 11364.07 2571305
9791.3535 367.25 13162.883 4216640
10184.863 378.98062 13583.328 2374433
10265.619 378.98062 13583.328 595971
10288.254 376.85165 13507.021 2308891
11278.259 409.91528 14692.081 5335361
11365.606 409.91528 14692.081 5466687
9944.2861 355.91818 12756.729 3361309
12029.18 427.28033 15314.475 3426081
12770.727 450.21265 16136.409 2372374
12868.398 450.27341 16138.587 2700830
12965.12 450.30026 16139.548 1251851
13059.962 450.26193 16138.175 1843482
13155.908 450.26193 16138.175 856589
13216.226 449.05139 16094.786 768
13048.977 440.18173 15776.882 1538
13014.862 435.89764 15623.333 132097
12825.322 426.50558 15286.706 0
12700.085 419.36908 15030.921 256
12914.206 423.45993 15177.544 256
13266.088 431.97983 15482.913 198146
13921.137 450.18628 16135.464 658443
13499.761 433.57202 15539.979 395271
11310.671 360.79575 12931.55 329478
10150.414 321.59909 11526.673 66306
9949.7305 313.12668 11223.008 592650
10016.454 313.12668 11223.008 131586
9989.4229 310.21518 11118.654 132355
9901.418 305.46091 10948.253 460551
9932.5898 304.42133 10910.993 131586
9590.5244 292.03024 10466.874 0
10026.365 303.33331 10871.997 0
10091.002 303.33331 10871.997 0
9147.6475 273.22617 9792.9043 460038
0 0 0 0
0 0 0 0
0 0 0 0
0 0 0 0
0 0 0 0
0 0 0 0
0 0 0 0
0 0 0 0
0 0 0 0
0 0 0 0
0 0 0 0
0 0 0 0
0 0 0 0
-4601.3457 175.94373 5198.4067 3163420
-4583.0732 176.43005 5212.7759 860929
-4716.7808 182.81349 5401.3794 1978895
-4743.3271 185.10258 5469.0127 531200
-4710.8125 185.10258 5469.0127 134400
-4678.2974 185.10258 5469.0127 69632
-4746.9272 189.13249 5588.0801 332288
-4702.1182 188.6676 5574.3442 68352
-4643.9429 187.65601 5544.4561 1024
-4614.9775 187.81871 5549.2632 463873
-4581.9854 187.81871 5549.2632 595970
-4528.7456 186.98271 5524.5625 1024
-4438.4541 184.59354 5453.9727 1280
-4314.0137 180.73851 5340.0723 1280
-4282.2656 180.73851 5340.0723 1024
-4250.5171 180.73851 5340.0723 768
-4332.5571 185.61336 5484.104 1024
-4299.9526 185.61336 5484.104 1280
-4207.3628 183.00423 5407.0151 1280
-4197.4414 183.97836 5435.7964 1536
-4218.3765 186.33057 5505.2949 1536
-4185.646 186.33057 5505.2949 462593
-4179.8672 187.53984 5541.0239 1517574
-4146.9243 187.53984 5541.0239 1057025
-4081 186.03635 5496.6016 1320195
-4104.4873 188.61742 5572.8613 2816
-4181.2534 193.70876 5723.2896 332032
-4105.5146 191.76047 5665.7256 331776
-4053.1157 190.87912 5639.6855 133888
-4019.5864 190.87912 5639.6855 1649156
-4020.2664 192.5173 5688.0869 397824
-4040.873 195.14561 5765.7422 1188098
-3942.1323 192.00591 5672.9775 398080
-3877.6699 190.49603 5628.3667 201216
-3844.208 190.49603 5628.3667 793600
-3816.6165 190.78949 5637.0376 330754
-3747.6375 189.00092 5584.1924 1792
-3712.5618 188.90546 5581.3721 333056
-3694.1946 189.66612 5603.8462 266240
-3702.1875 191.80632 5667.0801 67072
-3681.2263 192.47197 5686.7476 398848
-3657.5085 193.00447 5702.481 135680
-3650.7981 194.45284 5745.2739 465152
-3582.3054 192.60675 5690.73 793600
-3588.0825 194.75674 5754.2529 1057024
-3512.8521 192.50879 5687.8354 727552
-3435.0083 190.07254 5615.8545 792578
-3616.01 202.052 5969.7979 1792
-3580.5178 202.052 5969.7979 133120
-3545.0256 202.052 5969.7979 1911823
-3433.4314 197.67061 5840.3457 859649
-3374.0752 196.23788 5798.0151 859648
-3425.7908 201.30229 5947.647 399360
-3510.2666 208.41742 6157.8691 989703
-3296.0066 197.75853 5842.9434 201472
-3237.5623 196.32101 5800.4707 333312
-3244.5774 198.86464 5875.624 727808
-3250.1145 201.37206 5949.708 332545
-3267.0137 204.64638 6046.4507 859395
-3231.0659 204.64638 6046.4507 2048
-3169.8232 203.02625 5998.5825 2048
-3120.6377 202.15028 5972.7017 1536
-3028.509 198.44037 5863.0889 1536
-2981.22 197.61633 5838.7422 1536
-3013.8552 202.13324 5972.1978 69120
-3037.7446 206.16428 6091.2983 134656
-2940.1421 201.94775 5966.7178 1780739
-2924.3359 203.31514 6007.1182 1188352
-2997.2559 210.96135 6233.0317 2966284
-2953.8408 210.50824 6219.644 2966282
-2883.7886 208.12125 6149.1187 3426836
-2821.9736 206.27509 6094.5723 1782280
-2745.5967 203.30263 6006.7485 597504
-2684.3782 201.38904 5950.2095 530432
-2701.8271 205.405 6068.8647 794372
-2665.7458 205.405 6068.8647 794880
-2606.8865 203.62576 6016.2954 660992
-2557.6694 202.56067 5984.8267 68352
-2524.1897 202.72946 5989.814 2560
-2488.5786 202.72946 5989.814 1280
-2508.8672 207.34938 6126.3135 1280
-2735.5647 229.41573 6778.2822 1280
-2701.1323 229.91508 6793.0361 1024
-2690.2605 232.46544 6868.3887 768
-2675.0088 234.71011 6934.7095 768
-2643.9832 235.61937 6961.5742 134656
-2658.9214 240.71875 7112.2397 1649682
-2604.0786 239.56343 7078.1045 661768
-2511.7378 234.86386 6939.2515 1536
-2465.8201 234.42065 6926.1572 1536
-2357.5315 227.93222 6734.4507 1024
-2259.7495 222.25294 6566.6519 768
-2220.709 222.25294 6566.6519 858117
-2181.6685 222.25294 6566.6519 1536
-2155.248 223.56203 6605.3296 1536
-2115.9775 223.56203 6605.3296 1792
-2037.165 219.30525 6479.5596 858880
-2106.5469 231.14534 6829.3848 1911819
-2132.0378 238.54013 7047.8701 1583110
-2134.0786 243.55508 7196.0415 1780998
-2046.4899 238.3369 7041.8657 2439184
-2005.4132 238.43073 7044.6377 4413226
-1963.5309 238.43073 7044.6377 2043149
-1921.6484 238.43073 7044.6377 512
-1954.2028 247.87231 7323.5977 264194
-1910.662 247.87231 7323.5977 1024
-1793.423 238.08839 7034.5234 66816
-1758.858 239.07486 7063.6689 67328
-1734.9161 241.58885 7137.9473 134400
-1674.8671 239.07486 7063.6689 3621937
-1684.7878 246.6761 7288.2549 265728
-1641.4572 246.6761 7288.2549 528389
-1570.3486 242.3885 7161.5737 461827
-1527.771 242.3885 7161.5737 768
-1510.6918 246.5499 7284.5259 67328
-1461.424 245.54863 7254.9424 1516298
-1368.5166 236.93112 7000.3311 924928
-1326.6372 236.88463 6998.957 1254147
-1285.0264 236.88463 6998.957 2898456
-1259.2007 239.89185 7087.8076 1187587
-1224.4178 241.3418 7130.6479 198401
-1165.9801 238.06596 7033.8608 923652
-1143.5482 242.17148 7155.1616 1792
-1109.342 244.00436 7209.3164 200704
-1097.8429 251.17989 7421.3228 134912
-1053.7211 251.17989 7421.3228 132864
-1004.0487 249.79898 7380.5225 463617
-930.9046 242.18538 7155.5723 398336
-905.23438 246.78493 7291.4697 1911823
-846.14661 242.27864 7158.3281 1792
-819.03064 246.93445 7295.8877 1536
-776.47284 247.19495 7303.584 1536
-742.65601 250.43388 7399.2812 398848
-698.66516 250.43388 7399.2812 266752
-647.9505 247.86177 7323.2861 135680
-604.41156 247.86177 7323.2861 1913094
-564.4093 249.42474 7369.4653 1781506
-520.59576 249.42474 7369.4653 2701583
-488.83691 255.73103 7555.79 132864
-455.60968 262.46774 7754.8315 66560
-412.23447 264.2171 7806.5186 512
-349.49292 252.42297 7458.0508 256
-305.15271 252.42297 7458.0508 198145
-252.83829 244.70522 7230.0234 768
-206.7993 241.14348 7124.7886 66560
-163.88849 240.33406 7100.8735 1384966
-128.59889 254.01685 7505.1431 1584647
-84.573387 255.81555 7558.2876 1584389
-39.86129 257.26141 7601.0068 1650179
5.2988644 255.81555 7558.2876 1255424
49.692116 253.05107 7476.6084 1058560
93.488564 251.29294 7424.6631 1256192
134.44086 245.46956 7252.6064 1452807
182.5777 252.40689 7457.5752 2243077
226.384 251.81616 7440.1221 1585152
271.25241 252.40689 7457.5752 2046211
324.67142 259.67032 7672.1797 2244359
359.1911 251.89072 7442.3247 3099409
402.36938 251.22366 7422.6157 1058049
452.61084 254.66254 7524.2207 1717510
511.70935 262.01804 7741.5449 1584904
554.09015 260.30573 7690.9531 596225
602.3905 261.4234 7723.9766 1792
648.31171 261.4234 7723.9766 4096
704.44421 265.26865 7837.5874 926208
750.25781 264.99207 7829.4155 860928
798.20007 265.45575 7843.1152 2703632
850.57098 267.25974 7896.416 2703632
891.45911 265.45575 7843.1152 1648649
947.70227 268.17618 7923.4927 1123072
974.63873 262.73859 7762.8345 530944
994.4903 255.96915 7562.8257 596992
1059.8596 260.99426 7711.2969 1057792
1121.6571 264.75952 7822.5449 1584384
1161.53 263.25589 7778.1191 2834702
1311.6676 285.90161 8447.2051 1716483
1361.8887 285.90161 8447.2051 201472
1346.3239 272.58234 8053.6758 467200
1394.2051 272.58234 8053.6758 1323008
1457.0626 275.41309 8137.3135 2968588
1428.6606 261.36646 7722.2939 2310661
1585.5227 281.03241 8303.3408 3428877
1634.8884 281.03241 8303.3408 1256704
1727.9855 288.32938 8518.9355 3427600
1778.6328 288.32938 8518.9355 2241798
1829.2802 288.32938 8518.9355 2900498
2098.636 321.8732 9510.0166 924680
2155.1755 321.8732 9510.0166 333056
2117.7327 308.1958 9105.9062 1583114
2061.0544 292.47073 8641.2959 1583115
2193.6265 303.71268 8973.4482 135168
2246.9761 303.71268 8973.4482 200448
2259.2258 298.28622 8813.1191 530944
2311.6223 298.28622 8813.1191 1782019
2424.2307 305.88361 9037.5908 1782273
2610.8887 322.29233 9522.4004 4216344
2822.2651 340.99109 10074.871 1845260
3086.3596 365.14975 10788.659 1252108
2984.229 345.87845 10219.272 2699045
3213.6768 365.04001 10785.417 593417
3105.7417 345.87845 10219.272 256
2609.356 285.02148 8421.2012 256
2511.3521 269.15219 7952.3291 256
2558.6309 269.15219 7952.3291 256
2441.3962 252.16037 7450.2915 256
2363.033 239.71741 7082.6543 256
2148.2188 214.11026 6326.0688 256
2080.6489 203.80746 6021.6641 256
0 0 0 0
0 0 0 0
0 0 0 0
0 0 0 0
0 0 0 0
0 0 0 0
0 0 0 0
0 0 0 0
0 0 0 0
0 0 0 0
0 0 0 0
0 0 0 0
0 0 0 0
0 0 0 0
0 0 0 0
0 0 0 0
706.12909 53.514553 1581.1328 256
725.79163 54.28207 1603.8098 256
723.90582 53.438972 1578.8998 256
730.5141 53.236473 1572.9167 197632
739.86548 53.236473 1572.9167 658439
745.14069 52.946831 1564.359 2434593
750.26648 52.653847 1555.7025 2566436
757.95062 52.545357 1552.4971 4145468
764.09271 52.333858 1546.2482 5461328
771.23944 52.195381 1542.1567 5263949
782.38239 52.327427 1546.0582 3947832
796.92023 52.68084 1556.5001 1184783
805.03278 52.606255 1554.2965 0
813.18884 52.53619 1552.2262 1974296
822.22864 52.524136 1551.8701 1843478
0 0 0 0
0 0 0 0
0 0 0 0
0 0 0 0
0 0 0 0
0 0 0 0
0 0 0 0
5859.0039 343.44385 10147.34 512
5905.1821 342.62283 10123.082 512
5911.4189 339.52432 10031.534 512
5952.4351 338.46533 10000.245 512
6152.8096 346.39908 10234.654 512
6200.8467 345.68488 10213.553 331016
6261.5693 345.68488 10213.553 1024
6484.8545 354.57339 10476.171 134919
6486.7593 351.30344 10379.558 3228729
6494.1963 348.39191 10293.534 1651233
6812.0933 362.03436 10696.612 1980964
6789.4902 357.4957 10562.514 4152898
6758.9209 352.62463 10418.594 4153146
6814.7231 352.30722 10409.216 4087091
6876.6084 352.30722 10409.216 6126669
7068.7046 358.91876 10604.56 8099682
7131.7524 358.91876 10604.56 3622438
7484.8979 373.39062 11032.143 727308
7254.5098 358.75378 10599.685 792586
7404.439 363.01471 10725.578 332295
7662.6929 372.46838 11004.895 200197
7802.1807 376.03784 11110.357 925459
7868.2349 376.03784 11110.357 1319704
8097.8086 383.78769 11339.333 3163701
8165.2236 383.78769 11339.333 3360822
8000.3335 372.9581 11019.363 2834737
8318.1621 384.62494 11364.07 795665
8519.0244 390.73898 11544.714 2374442
10071.154 458.23801 13539.03 6980975
11942.37 539.06989 15927.276 6519139
11889.437 532.45862 15731.941 2768934
11365.279 505.01187 14921.004 2636834
12076.498 532.45862 15731.941 2043664
12355.301 540.56451 15971.438 3953195
11938.131 518.32916 15314.475 3097632
12096.312 521.22186 15399.941 2637081
12770.727 546.14813 16136.409 2503705
12868.398 546.22186 16138.587 593923
12964.928 546.24634 16139.311 396032
13060.152 546.21582 16138.409 593412
13155.738 546.20087 16137.967 512
13250.739 546.16193 16136.817 256
13270.796 543.05682 16045.074 256
13014.862 528.78265 15623.333 263426
12757.064 514.63568 15205.349 65792
12700.085 508.73209 15030.921 0
12820.658 509.97354 15067.601 256
13103.135 517.59326 15292.73 66048
13194.055 517.59326 15292.73 132099
12663.599 493.38391 14577.446 395271
11310.671 437.6774 12931.55 724236
10156.215 390.35129 11533.26 855822
9949.7305 379.85059 11223.008 395271
10016.454 379.85059 11223.008 329478
9903.1846 373.06995 11022.668 197892
9909.3438 370.84793 10957.017 329222
10000.806 371.82648 10985.929 394758
10039.629 370.84793 10957.017 0
10313.698 378.51566 11183.565 0
10336.794 376.93326 11136.812 0
0 0 0 0
0 0 0 0
0 0 0 0
0 0 0 0
0 0 0 0
0 0 0 0
4304.4692 150.22745 4438.5972 7829056
0 0 0 0
0 0 0 0
0 0 0 0
0 0 0 0
0 0 0 0
0 0 0 0
0 0 0 0
-4601.3457 206.8497 5198.4067 2048
-4697.0303 212.57898 5342.3906 68352
-4665.2686 212.57898 5342.3906 2304
-4671.8252 214.33698 5386.5713 1792
-4641.0811 214.39615 5388.0586 266752
-4609.0479 214.39615 5388.0586 69376
-4680.1035 219.22504 5509.415 69120
-4647.3481 219.22504 5509.415 332544
-4614.5933 219.22504 5509.415 1451018
-4602.5215 220.21466 5534.2856 990468
-4561.5908 219.82776 5524.5625 199936
-4483.1597 217.61502 5468.9531 1536
-4319.0762 211.1819 5307.2808 1024
-4261.1821 209.88449 5274.6748 1024
-4229.8228 209.88449 5274.6748 768
-4235.8345 211.75272 5321.626 512
-4315.5205 217.35979 5462.5391 768
-4299.9526 218.2179 5484.104 1024
-4250.5679 217.35979 5462.5391 1024
-4279.9932 220.54962 5542.7036 1280
-4247.0405 220.54962 5542.7036 660481
-4212.29 220.45554 5540.3394 858885
-4179.8672 220.48279 5541.0239 2304
-4146.9243 220.48279 5541.0239 1056258
-4113.9814 220.48279 5541.0239 397568
-4126.0459 222.91434 5602.1323 1792
-4279.8579 233.10591 5858.2598 2816
-4097.7378 225.01775 5654.9937 660736
-4070.719 225.38327 5664.1797 134912
-3978.3301 222.10536 5581.8013 596224
-4003.3687 225.38327 5664.1797 1846276
-3966.8455 225.22154 5660.1152 661760
-3933.1943 225.22154 5660.1152 1188608
-3885.3086 224.3994 5639.4536 727808
-3861.364 224.95772 5653.4849 134656
-3902.8835 229.37318 5764.4517 2048
-3759.8052 222.92192 5602.3228 3072
-3725.1536 222.84151 5600.3018 200704
-3751.9094 226.46625 5691.396 2899225
-3736.4087 227.58307 5719.4639 2175756
-3691.4114 226.9073 5702.481 991489
-3657.5085 226.9073 5702.481 2816
-3650.7981 228.61009 5745.2739 135168
-3591.844 227.04265 5705.8823 529664
-3670.1213 234.20256 5885.8198 266752
-3553.8718 228.96738 5754.2529 1583365
-3497.7966 227.54501 5718.5068 1977609
-3539.7793 232.53635 5843.9463 4019490
-3637.6621 241.33527 6065.0742 4085279
-3470.2917 232.53635 5843.9463 3492120
-3587.2512 242.80444 6101.9971 991744
-3461.1511 236.66272 5947.647 269056
-3443.7356 237.90237 5978.8018 1058560
-3510.2666 245.02765 6157.8691 2111496
-3438.8545 242.57278 6096.1748 3361304
-3261.2688 232.49644 5842.9434 3328
-3244.5774 233.79684 5875.624 2304
-3250.1145 236.74472 5949.708 1792
-3274.948 241.17851 6061.1348 1536
-3238.9126 241.17851 6061.1348 1536
-3198.8789 240.87741 6053.5679 1536
-3092.2549 235.49809 5918.3789 1536
-3028.509 233.29807 5863.0889 1280
-2993.6514 233.29807 5863.0889 1536
-3013.8552 237.6396 5972.1978 1792
-3037.7446 242.37874 6091.2983 1536
-2960.0496 239.02913 6007.1182 1280
-2924.3359 239.02913 6007.1182 1536
-2990.8184 247.48575 6219.644 2304
-2920.3467 244.67946 6149.1187 266752
-2916.8633 247.48575 6219.644 1123072
-2900.448 249.25279 6264.0522 1649928
-2781.04 242.09987 6084.29 529920
-2744.8672 242.09987 6084.29 1782275
-2708.6943 242.09987 6084.29 926976
-2665.7458 241.48608 6068.8647 3164437
-2606.8865 239.3943 6016.2954 2901008
-2557.6694 238.14212 5984.8267 1190656
-2546.915 240.48637 6043.7407 2374408
-2510.9834 240.48637 6043.7407 3689761
-2508.8672 243.77202 6126.3135 1536
-2729.4919 269.11575 6763.2354 1024
-2695.3936 269.72729 6778.6035 1280
-2649.0732 269.11575 6763.2354 133376
-2649.4263 273.29993 6868.3887 462848
-2643.9832 277.00787 6961.5742 1055498
-2638.7515 280.8562 7058.2881 1122056
-2604.0786 281.64471 7078.1045 1253896
-2506.998 275.5986 6926.1572 1792
-2397.5696 267.9704 6734.4507 1792
-2287.084 259.96295 6533.2129 1536
-2273.5964 262.89462 6606.8901 68352
-2234.3169 262.89462 6606.8901 265217
-2195.0369 262.89462 6606.8901 67840
-2196.8118 267.90125 6732.7129 1536
-2156.7839 267.90125 6732.7129 1280
-2056.9963 260.33792 6542.6362 68608
-2160.6863 278.73196 7004.9033 1385223
-2166.6292 284.9917 7162.2183 198912
-2134.0786 286.33755 7196.0415 1780489
-2078.6272 284.60297 7152.4487 1057793
-2005.4132 280.31305 7044.6377 2177544
-1963.5309 280.31305 7044.6377 3756315
-1908.7369 278.42963 6997.3047 2636813
-1889.6699 281.78989 7081.7529 1055239
-1835.2452 279.91061 7034.5234 1536
-1856.5958 289.77039 7282.313 1024
-1833.0475 292.92599 7361.6177 858119
-1770.005 289.77039 7282.313 1536
-1670.2372 280.29337 7044.1431 1024
-1662.9569 286.24899 7193.8159 1024
-1620.1877 286.24899 7193.8159 768
-1566.0032 284.17749 7141.7563 768
-1547.6892 288.68127 7254.9424 1024
-1510.6918 289.85846 7284.5259 512
-1472.9562 290.95929 7312.1919 133376
-1373.9218 279.65024 7027.9805 265472
-1332.1385 279.65024 7027.9805 133888
-1298.2721 281.366 7071.1001 67072
-1259.2007 282.03082 7087.8076 2306065
-1219.4338 282.58051 7101.6221 3160862
-1153.1296 276.79959 6956.3398 1280
-1113.9421 277.33981 6969.916 1536
-1109.342 286.86575 7209.3164 1845517
-1080.4819 290.6319 7303.9639 924422
-1047.9281 293.67825 7380.5225 1792
-1038.3958 303.72452 7632.9985 1536
-930.70813 284.66718 7154.0625 1385481
-933.58112 299.22009 7519.7969 2833183
-862.40674 290.31055 7295.8877 2048
-819.03064 290.31055 7295.8877 1792
-765.41205 286.47699 7199.5454 1536
-742.65601 294.42468 7399.2812 463363
-698.66516 294.42468 7399.2812 1536
-648.44464 291.62299 7328.8711 1536
-607.86615 293.06631 7365.144 201728
-564.92163 293.50443 7376.1543 1847304
-514.25415 289.6662 7279.6948 2307340
-470.97437 289.6662 7279.6948 4081444
-443.91562 300.65231 7555.79 768
-398.99435 300.65231 7555.79 3688217
-338.80728 287.68973 7230.0234 2569991
-292.46255 284.42188 7147.8984 3951392
-246.21429 280.15268 7040.6074 660992
-204.35591 280.15268 7040.6074 1536
-163.00386 281.02557 7062.5444 1253891
-128.59889 298.63702 7505.1431 1648901
-84.12738 299.16565 7518.4282 1385220
-40.013031 303.60291 7629.9424 1188864
5.4265771 308.0004 7740.457 663296
51.445747 308.0004 7740.457 1387264
90.959442 287.44232 7223.8057 860928
133.25351 286.03958 7188.5532 1124608
182.5777 296.74423 7457.5752 2637836
226.91507 296.74423 7457.5752 3840
274.81635 300.6431 7555.5586 1914118
324.67142 305.28357 7672.1797 269824
365.74567 301.54135 7578.1333 2507272
402.36938 295.35315 7422.6157 2901778
452.46716 299.30109 7521.832 2178054
497.34442 299.39615 7524.2207 1453827
551.36359 304.52466 7653.1074 465920
596.86346 304.52466 7653.1074 1386253
648.31171 307.3446 7723.9766 1781259
704.44421 311.8653 7837.5874 2816
750.25781 311.54013 7829.4155 135168
798.20007 312.08527 7843.1152 69120
844.82965 312.08527 7843.1152 1979139
891.45911 312.08527 7843.1152 4413733
947.70227 315.28354 7923.4927 67072
999.05347 316.62854 7957.2944 1792
1018.7354 308.2688 7747.2026 1792
1064.7946 308.2688 7747.2026 1451780
1130.4784 313.71472 7884.0659 660482
1168.1643 311.26675 7822.5449 1714182
1278.0515 327.50821 8230.7148 4096
1339.5562 330.61081 8308.6865 1189888
1346.3239 320.46368 8053.6758 597760
1403.3749 322.57135 8106.645 1651200
1442.0865 320.46368 8053.6758 1915136
1471.2198 316.43134 7952.3379 599296
1585.5227 330.3981 8303.3408 3033865
1634.8884 330.3981 8303.3408 3297038
1702.3468 333.94733 8392.5381 2440964
1741.3903 331.87903 8340.5586 334848
1837.5609 340.51123 8557.498 1716743
2009.4584 362.33295 9105.9062 1385478
2090.8096 367.11133 9225.9932 1057539
2117.7327 362.33295 9105.9062 530177
2090.501 348.75821 8764.7549 925441
2301.4163 374.60754 9414.3828 1188866
2230.5786 354.45657 8907.9629 464896
2235.3977 346.98401 8720.167 662272
2280.325 345.93475 8693.7979 925696
2455.728 364.28699 9155.0137 1650435
2626.5308 381.17572 9579.4502 3492119
2822.2651 400.88901 10074.871 2767119
3087.0879 429.39267 10791.206 462849
2984.229 406.63489 10219.272 3028005
3215.4016 429.39267 10791.206 396035
3105.7417 406.63489 10219.272 66817
2505.5862 321.76199 8086.3047 512
2494.4136 314.29675 7898.6929 256
2464.1821 304.75034 7658.7788 256
2392.2168 290.48267 7300.2134 256
2397.8491 285.97809 7187.0073 256
2151.0503 252.05228 6334.4072 256
0 0 0 0
0 0 0 0
0 0 0 0
0 0 0 0
0 0 0 0
0 0 0 0
0 0 0 0
0 0 0 0
0 0 0 0
0 0 0 0
0 0 0 0
0 0 0 0
0 0 0 0
0 0 0 0
0 0 0 0
0 0 0 0
0 0 0 0
705.15784 62.828297 1578.9581 256
721.43091 63.433735 1594.1737 256
727.98108 63.179653 1587.7883 256
739.18396 63.3307 1591.5844 263424
746.86078 63.179653 1587.7883 395268
754.67535 63.043884 1584.3762 2303264
753.49005 62.1689 1562.3866 3553331
757.95062 61.775383 1552.4971 3553331
762.07086 61.36393 1542.1567 4540226
771.11591 61.354107 1541.9098 5000777
782.38239 61.519173 1546.0582 4671812
796.24451 61.882149 1555.1803 658182
803.96051 61.764603 1552.2262 461059
813.18884 61.764603 1552.2262 2040342
827.75848 62.165733 1562.3071 4013358
0 0 0 0
0 0 0 0
0 0 0 0
0 0 0 0
0 0 0 0
0 0 0 0
5427.1265 377.901 9497.1523 512
5859.0039 403.77261 10147.34 66305
5880.1343 401.09882 10080.144 1538
5940.0635 401.09882 10080.144 791824
5952.4351 397.91956 10000.245 67842
6067.5376 401.60284 10092.812 726284
6120.4927 401.14084 10081.2 1978400
6180.4282 401.14084 10081.2 2571050
6404.0244 411.66119 10345.591 399625
6370.6978 405.62311 10193.846 333319
6419.0864 404.85266 10174.482 2769960
6789.0747 424.19046 10660.468 5599821
6852.4541 424.19046 10660.468 1253388
6852.2871 420.29276 10562.514 461573
6814.7231 414.1929 10409.216 988941
6876.6084 414.1929 10409.216 530183
6995.7974 417.61362 10495.183 133377
7144.6689 422.7301 10623.767 661000
7207.8301 422.7301 10623.767 1122320
7254.5098 421.77185 10599.685 528647
7317.5283 421.77185 10599.685 1122065
7662.6929 437.89557 11004.895 792847
7829.4761 443.63861 11149.226 1536
7739.2861 434.84677 10928.274 3331
7853.5386 437.59268 10997.283 926229
7937.6392 438.62708 11023.278 1782048
8327.1006 456.38025 11469.439 4479817
8458.9287 459.83978 11556.382 2242597
9854.4189 531.38458 13354.398 859919
11088.598 593.15686 14906.817 5991778
12099.062 642.07733 16136.253 5463129
12194.539 642.05322 16135.647 5726304
12290.355 642.0473 16135.498 6252649
12386.286 642.0473 16135.498 3356988
12482.444 642.05914 16135.795 8489611
12578.341 642.05725 16135.749 4014148
12675.093 642.09882 16136.793 4281166
12771.03 642.09882 16136.793 3818302
12867.928 642.14673 16137.996 3095088
12964.579 642.18164 16138.875 4212799
13060.162 642.1637 16138.423 1317139
13156.11 642.1637 16138.423 0
13251.088 642.1167 16137.242 768
13311.914 640.42731 16094.786 256
13142.773 627.77759 15776.882 0
12817.629 607.9082 15277.537 0
12573.009 592.1106 14880.522 0
12535.588 586.22345 14732.57 256
12623.179 586.22345 14732.57 512
12913.053 595.55286 14967.032 592907
12663.599 580.0509 14577.446 987665
11199.653 509.50854 12804.623 790800
10150.414 458.65765 11526.673 1448986
9942.4863 446.24939 11214.838 1514523
10009.162 446.24939 11214.838 1382423
9903.1846 438.60278 11022.668 527114
10134.279 445.88715 11205.733 263685
10200.9 445.88715 11205.733 724493
10267.521 445.88715 11205.733 921102
10315.828 445.09689 11185.874 0
9944.8154 426.34036 10714.497 0
0 0 0 0
0 0 0 0
0 0 0 0
0 0 0 0
0 0 0 0
0 0 0 0
4267.5928 175.10307 4400.5718 6974042
0 0 0 0
0 0 0 0
0 0 0 0
0 0 0 0
0 0 0 0
0 0 0 0
0 0 0 0
-4591.1611 237.22945 5186.9009 1254405
-4735.874 246.36163 5386.5713 332800
-4703.8496 246.36163 5386.5713 1280
-4673.1147 246.42966 5388.0586 530688
-4669.1792 247.92157 5420.6787 266240
-4609.0479 246.42966 5388.0586 1253381
-4552.0391 245.08498 5358.6577 1536
-4524.5127 245.31985 5363.7935 1536
-4559.7661 248.98619 5443.9561 1280
-4602.5215 253.11754 5534.2856 1024
-4569.6191 253.11754 5534.2856 1024
-4365.6577 243.57367 5325.6138 1024
-4218.561 237.08615 5183.7681 768
-4222.2231 239.03825 5226.4497 768
-4191.1504 239.03825 5226.4497 512
-4198.4629 241.24391 5274.6748 256
-4315.5205 249.83611 5462.5391 67328
-4345.6919 253.49046 5542.4395 396545
-4250.5679 249.83611 5462.5391 1536
-4265.377 252.63683 5523.7754 67328
-4232.5371 252.63683 5523.7754 1384712
-4203.7285 252.87936 5529.0786 68608
-4194.3052 254.30106 5560.1631 1792
-4192.5503 256.21399 5601.9878 1280
-4159.3521 256.22058 5602.1323 463360
-4130.959 256.5257 5608.8032 1792
-4149.4673 259.77194 5679.7812 1536
-4112.8984 259.59515 5675.916 2560
-4070.719 259.05841 5664.1797 267264
-3977.8381 255.25912 5581.1108 2816
-3925.0066 253.98756 5553.3086 2701584
-3922.0864 255.9516 5596.251 1320193
-3933.1943 258.8725 5660.1152 69120
-3885.3086 257.92752 5639.4536 2048
-3851.7805 257.92752 5639.4536 1536
-3818.2522 257.92752 5639.4536 1536
-3759.8052 256.22928 5602.3228 1536
-3725.1536 256.13684 5600.3018 1280
-3693.1902 256.22928 5602.3228 1280
-3743.6548 262.09418 5730.5557 134144
-3679.321 259.95593 5683.8037 398592
-3659.6899 260.96573 5705.8823 1536
-3670.6318 264.19489 5776.4863 595713
-3591.844 260.96573 5705.8823 332544
-3563.9182 261.40561 5715.5005 1280
-3529.938 261.40561 5715.5005 332032
-3647.7629 272.75665 5963.6851 1254407
-3539.7793 267.28024 5843.9463 1978378
-3512.5332 267.85196 5856.4468 1280
-3397.6846 261.68808 5721.6763 726784
-3442.8965 267.85196 5856.4468 1518848
-3577.0083 281.12872 6146.7363 1057792
-3443.7356 273.44803 5978.8018 3840
-3511.814 281.76205 6160.5835 268288
-3296.0066 267.23438 5842.9434 1123841
-3402.6111 278.81622 6096.1748 2048
-3295.6685 272.96066 5968.1455 2304
-3260.1863 272.96066 5968.1455 727552
-3274.948 277.21362 6061.1348 68352
-3252.5005 278.37659 6086.562 1792
-3198.8789 276.86755 6053.5679 1280
-3092.2549 270.68451 5918.3789 2048
-3050.6938 270.12009 5906.0376 1536
-3019.7446 270.49307 5914.1929 1280
-3017.0037 273.43134 5978.437 1280
-3024.3325 277.36319 6064.4048 1280
-3061.8123 284.18842 6213.6348 1280
-2912.6558 273.64578 5983.1255 1280
-2877.0845 273.64578 5983.1255 267008
-2841.5132 273.64578 5983.1255 529920
-2883.7886 281.2377 6149.1187 1123073
-2903.4749 286.7933 6270.5894 1780996
-2781.04 278.27267 6084.29 68608
-2744.8672 278.27267 6084.29 924928
-2708.6943 278.27267 6084.29 332288
-2642.6548 275.16284 6016.2954 1387520
-2606.8865 275.16284 6016.2954 2572040
-2705.377 289.53137 6330.4556 3624979
-2662.4065 288.95245 6317.7979 1848320
-2624.8455 288.95245 6317.7979 2046721
-2633.7158 294.138 6431.1772 3428371
-2716.8799 307.89578 6731.9844 5665328
-2689.2827 309.3251 6763.2354 795392
-2636.8328 307.89578 6731.9844 1846798
-2611.5432 309.64276 6770.1807 1122307
-2637.2317 317.58331 6943.7974 397312
-2631.8425 321.97449 7039.8081 1280
-2604.0786 323.72601 7078.1045 530176
-2548.1353 321.97449 7039.8081 1536
-2397.5696 308.00858 6734.4507 1280
-2286.0071 298.664 6530.1362 1536
-2247.1836 298.664 6530.1362 67584
-2234.3169 302.17444 6606.8901 1280
-2183.2046 300.54556 6571.2754 1536
-2210.9033 309.90436 6775.9004 1536
-2105.0684 300.54556 6571.2754 397825
-2110.1558 306.96893 6711.7192 924931
-2160.6863 320.37808 7004.9033 1583113
-2202.4819 332.99365 7280.7363 2176526
-2174.9463 335.4227 7333.8462 1978635
-2091.2961 329.12003 7196.0415 1649159
-2018.4424 324.28873 7090.4072 134656
-1976.288 324.28873 7090.4072 2111236
-1908.7369 320.03055 6997.3047 2769672
-1867.136 320.03055 6997.3047 2177792
-1819.0056 318.88589 6972.2773 2045191
-1876.8142 336.69287 7361.6177 659716
-1833.3309 336.74493 7362.7563 726786
-1712.1166 322.17276 7044.1431 1536
-1670.2372 322.17276 7044.1431 2560
-1632.5264 322.9975 7062.1758 2048
-1590.5398 322.9975 7062.1758 1024
-1534.2559 320.01538 6996.9731 1024
-1493.5358 320.2038 7001.0928 1024
-1481.0836 326.63721 7141.7563 768
-1461.424 331.81393 7254.9424 1024
-1373.9218 321.43353 7027.9805 1792
-1332.1385 321.43353 7027.9805 1024
-1298.2721 323.40567 7071.1001 1024
-1261.6549 324.80164 7101.6221 4608819
-1219.4338 324.80164 7101.6221 2636312
-1148.889 316.98694 6930.7578 1536
-1125.7692 322.16245 7043.9175 1024
-1109.342 329.72714 7209.3164 1024
-1097.8429 339.42352 7421.3228 331520
-1053.7211 339.42352 7421.3228 332032
-998.69592 335.7579 7341.1753 1536
-955.0506 335.7579 7341.1753 595714
-933.58112 343.9274 7519.7969 595204
-890.76416 344.65878 7535.7886 1792
-844.16656 343.9274 7519.7969 1536
-793.0639 341.17609 7459.6411 924162
-742.65601 338.41547 7399.2812 464129
-691.48944 334.93973 7323.2861 1188358
-642.2359 331.98572 7258.6982 134144
-604.41156 334.93973 7323.2861 464640
-564.92163 337.35773 7376.1543 728064
-511.54602 331.19266 7241.3584 4084002
-462.75223 327.13351 7152.6079 2045192
-412.75626 321.31702 7025.4331 3164180
-374.12515 324.03406 7084.8398 663552
-340.7728 332.59259 7271.9673 1123840
-297.53894 332.59259 7271.9673 2373386
-251.00647 328.2785 7177.6421 2504974
-208.3334 328.2785 7177.6421 1385735
-163.88849 324.7674 7100.8735 1780998
-128.59889 343.25717 7505.1431 68864
-84.573387 345.68781 7558.2876 2702099
-41.160458 358.97205 7848.7407 333824
5.4265771 354.01956 7740.457 925696
50.009285 344.13464 7524.3286 199168
91.18782 331.21936 7241.9429 795136
134.24319 331.21936 7241.9429 1255680
183.67203 343.12595 7502.2739 200448
228.08643 342.84232 7496.0723 926720
275.30487 346.17728 7568.9897 1650690
321.10709 347.04456 7587.9526 1387776
366.21957 347.04456 7587.9526 1586176
397.88181 335.69644 7339.8315 2441736
441.51913 335.69644 7339.8315 3231253
497.18652 344.02048 7521.832 1519110
551.36359 350.02451 7653.1074 2374416
596.86346 350.02451 7653.1074 2048
662.39624 360.94049 7891.7798 1451016
709.31506 360.94049 7891.7798 529921
749.66339 357.80444 7823.2119 4096
796.81219 358.09103 7829.478 1123840
843.36066 358.09103 7829.478 597504
889.90906 358.09103 7829.478 1584646
947.70227 362.3909 7923.4927 1792
999.05347 363.93689 7957.2944 333056
1020.7909 355.043 7762.8345 662016
1069.0439 355.74207 7778.1191 596992
1160.4862 370.15924 8093.3428 991744
1177.3514 360.58768 7884.0659 3689504
1278.0515 376.44211 8230.7148 201472
1305.4628 370.33655 8097.2197 597504
1346.3239 368.345 8053.6758 926976
1406.0889 371.48465 8122.3228 1519616
1442.0865 368.345 8053.6758 2639113
1487.1693 367.65317 8038.5488 1651968
1602.5549 383.84332 8392.5381 2244103
1683.7264 391.10825 8551.3818 1783297
1734.5669 391.10825 8551.3818 3493654
1785.5057 391.12979 8551.8535 200704
1837.5609 391.38794 8557.498 3032086
1936.8358 401.41873 8776.8164 597248
2063.5955 416.47009 9105.9062 3493138
2117.7327 416.47009 9105.9062 2835465
2152.543 412.7641 9024.876 1584898
2026.3014 379.10663 8288.9727 1124096
2230.5786 407.41693 8907.9629 531456
2265.9126 404.27216 8839.2041 596736
2318.4641 404.27216 8839.2041 662528
2455.728 418.71609 9155.0137 1124352
2620.7769 437.16843 9558.4648 3163156
2822.2651 460.78693 10074.871 2174482
2987.9387 477.69788 10444.62 1121032
3151.2449 493.54941 10791.206 2896422
3280.6121 503.5589 11010.059 66048
3269.251 491.99826 10757.291 512
2457.6221 362.7576 7931.5098 512
2460.2717 356.31201 7790.5806 256
2380.5364 338.39362 7398.8042 256
2392.2168 333.88446 7300.2134 256
2397.8491 328.70685 7187.0073 256
2196.7102 295.86172 6468.8662 256
2080.6489 275.40839 6021.6641 256
0 0 0 0
0 0 0 0
0 0 0 0
0 0 0 0
0 0 0 0
0 0 0 0
0 0 0 0
0 0 0 0
0 0 0 0
0 0 0 0
0 0 0 0
0 0 0 0
0 0 0 0
0 0 0 0
0 0 0 0
0 0 0 0
705.15784 72.215645 1578.9581 256
721.43091 72.911537 1594.1737 256
730.64459 72.885193 1593.5975 256
740.1189 72.885193 1593.5975 66048
748.82526 72.810509 1591.9647 724233
755.57745 72.550056 1586.27 2961194
754.83667 71.585426 1565.179 3355952
751.08405 70.362144 1538.4324 3487538
760.23047 70.362144 1538.4324 4013882
770.96973 70.507812 1541.6174 5395535
783.00549 70.767242 1547.2897 1776664
796.24451 71.128128 1555.1803 132096
802.54102 70.867683 1549.4857 2105628
811.75317 70.867683 1549.4857 3750194
820.96527 70.867683 1549.4857 2434592
0 0 0 0
0 0 0 0
0 0 0 0
0 0 0 0
0 0 0 0
0 0 0 0
5172.083 413.95163 9050.8408 512
5778 457.68494 10007.048 133893
5837.4951 457.68494 10007.048 1187093
5940.0635 461.02805 10080.144 1056533
5999.9927 461.02805 10080.144 1320474
6171.2368 469.49667 10265.306 2242855
6295.9229 474.29205 10370.154 2045726
6342.5166 473.16864 10345.591 1913883
6419.229 474.29205 10370.154 1254673
6465.5317 473.16864 10345.591 2304
6514.5444 472.26285 10325.786 136449
6575.9341 472.26285 10325.786 991757
6852.4541 487.56992 10660.468 1585427
6915.834 487.56992 10660.468 3361836
7070.2729 493.9314 10799.559 1979670
6978.6191 483.1409 10563.63 2704161
6995.7974 480.01041 10495.183 4809793
7144.6689 485.89133 10623.767 5402440
7186.3706 484.44473 10592.137 3955501
7249.3438 484.44473 10592.137 6257231
7252.6851 480.49405 10505.758 8294766
7464.0874 490.27734 10719.664 3426605
7463.7817 486.10672 10628.476 922889
7526.9712 486.10672 10628.476 925199
7586.3511 485.86276 10623.142 1714716
8212.3984 521.61493 11404.845 1583390
8390.2217 528.54572 11556.382 1253911
9775.0234 610.78021 13354.398 4017475
11906.694 737.98102 16135.578 1516315
12002.959 738.00153 16136.027 4542023
12099.062 738.0119 16136.253 3357238
12194.539 737.98413 16135.647 5001550
12291.036 738.01819 16136.392 5066831
12388.047 738.08228 16137.793 1644826
12483.99 738.08228 16137.793 1447957
12579.934 738.08228 16137.793 1908765
12675.782 738.07666 16137.67 2106143
12771.725 738.07666 16137.67 1251346
12867.736 738.08057 16137.756 461574
12964.232 738.112 16138.443 263940
13060.162 738.11108 16138.423 461830
13156.114 738.11139 16138.429 790028
13253.35 738.18304 16139.996 0
13347.028 738.05713 16137.242 65792
13442.969 738.05713 16137.242 0
13303.666 725.23309 15856.853 0
12844.249 695.26172 15201.543 0
12418.762 667.53302 14595.269 0
12409.607 662.41254 14483.312 0
12495.715 662.41254 14483.312 256
12086.227 636.32019 13912.817 66049
10676.724 558.29132 12206.755 855819
10458.597 543.19312 11876.641 395269
9942.4863 512.92474 11214.838 1053455
10187.261 522.05151 11414.39 724234
10255.123 522.05151 11414.39 461061
10499.622 530.98444 11609.703 512
10200.9 512.50836 11205.733 855820
10267.521 512.50836 11205.733 1316371
10315.828 511.60004 11185.874 1184785
9942.3809 489.92102 10711.874 1316627
0 0 0 0
0 0 0 0
0 0 0 0
0 0 0 0
0 0 0 0
0 0 0 0
4267.5928 201.26569 4400.5718 5725275
0 0 0 0
0 0 0 0
0 0 0 0
0 0 0 0
0 0 0 0
0 0 0 0
0 0 0 0
-4488.127 262.05109 5070.4971 199168
-4735.874 278.38629 5386.5713 1913101
-4703.8496 278.38629 5386.5713 3096865
-4673.1719 278.46658 5388.1245 1123334
-4641.1382 278.46658 5388.1245 596224
-4529.6104 273.66382 5295.1953 1536
-4392.8003 267.25568 5171.2021 1280
-4498.3711 275.60748 5332.8032 1024
-4468.2915 275.70776 5334.7437 1280
-4460.7339 277.20911 5363.7935 1536
-4481.6997 280.5174 5427.8066 134145
-4402.2065 277.54016 5370.1992 1280
-4320.48 274.37759 5309.0059 1024
-4288.6694 274.36179 5308.6997 1024
-4229.8228 272.6033 5274.6748 1024
-4198.4629 272.6033 5274.6748 768
-4392.6338 287.35703 5560.1484 396802
-4418.0376 291.21039 5634.7085 1319179
-4355.8916 289.30777 5597.894 1188355
-4309.3867 288.42273 5580.769 398337
-4235.0991 285.65002 5527.1191 1518602
-4202.2388 285.65002 5527.1191 1518602
-4170.8564 285.75128 5529.0786 794112
-4192.5503 289.51935 5601.9878 2560
-4192.1113 291.80713 5646.2549 1792
-4144.8906 290.84918 5627.7188 1536
-4111.4321 290.84918 5627.7188 1536
-4115.6997 293.53983 5679.7812 1280
-4081.9314 293.53983 5679.7812 1536
-4045.4089 293.34009 5675.916 595968
-3925.0066 287.00354 5553.3086 1280
-3966.8455 292.52347 5660.1152 793856
-4038.208 300.33365 5811.2368 1517313
-4010.2756 300.83005 5820.8413 267264
-3875.6851 293.26443 5674.4526 464384
-3864.0085 294.9483 5707.0342 1792
-3790.0085 291.86261 5647.3281 1536
-3756.4338 291.86261 5647.3281 1280
-3770.4126 295.5907 5719.4639 1536
-3757.2297 297.23785 5751.3354 1536
-3626.7559 289.55103 5602.6011 858373
-3704.9749 298.53769 5776.4863 396545
-3740.1074 304.1882 5885.8198 2816
-3636.2891 298.53769 5776.4863 1536
-3670.1213 304.1882 5885.8198 464384
-3683.2188 308.21243 5963.6851 792577
-3647.7629 308.21243 5963.6851 859648
-3504.519 299.01559 5785.7334 3097882
-3505.0354 302.02414 5843.9463 1123842
-3367.5491 293.08231 5670.9282 2636815
-3333.8337 293.08231 5670.9282 2048
-3479.2812 308.99368 5978.8018 464640
-3400.8857 305.14893 5904.4087 268032
-3475.0981 315.05969 6096.1748 333824
-3337.1824 305.74475 5915.9375 1913349
-3402.6111 315.05969 6096.1748 133632
-3267.5425 305.81061 5917.2119 136192
-3260.1863 308.44293 5968.1455 69632
-3243.3062 310.22226 6002.5737 398592
-3238.9126 313.24878 6061.1348 595968
-3198.8789 312.8577 6053.5679 68864
-3096.4907 306.28989 5926.4858 1792
-3061.2559 306.28989 5926.4858 69120
-3029.1599 306.6076 5932.6328 1024
-2996.4846 306.87341 5937.7764 1024
-2998.1584 310.70526 6011.9199 1024
-3061.8123 321.13019 6213.6348 1536
-2912.6558 309.21713 5983.1255 1280
-2871.7749 308.64648 5972.084 3030297
-2771.9204 301.64395 5836.5903 1122305
-2816.2756 310.3559 6005.1602 1536
-2780.5732 310.3559 6005.1602 265472
-2781.04 314.44547 6084.29 529408
-2744.8672 314.44547 6084.29 1057536
-2672.4932 310.24298 6002.9746 992512
-2628.0693 309.2153 5983.0898 201216
-2690.585 320.9144 6209.459 795136
-2705.377 327.16769 6330.4556 1453056
-2662.4065 326.51349 6317.7979 400128
-2634.6543 327.73364 6341.4067 2045698
-2633.7158 332.37314 6431.1772 3823633
-2595.4807 332.37314 6431.1772 3560971
-2596.8242 337.51727 6530.7129 3561494
