# .PCD v0.7 - Point Cloud Data file format
VERSION 0.7
FIELDS x y z rgb
SIZE 4 4 4 4
TYPE F F F U
COUNT 1 1 1 1
WIDTH 1345
HEIGHT 1
VIEWPOINT 0 0 0 1 0 0 0
POINTS 1345
DATA ascii
-4328.7666 -614.88208 5649.3623 68352
-4314.7417 -617.68262 5675.0923 1189122
-4334.5898 -625.41449 5746.1309 1716231
-4311.7148 -627.05609 5761.2134 2966553
-4266.2646 -625.41449 5746.1309 861185
-4296.6782 -634.95734 5833.8081 598016
-4213.0791 -627.66992 5766.853 531202
-4181.4619 -628.07068 5770.5352 1583885
-4144.6426 -627.69025 5767.04 727044
-4110.356 -627.69025 5767.04 3840
-4036.6833 -621.62512 5711.3149 2048
-4072.0315 -632.38794 5810.2007 1518854
-4040.4219 -632.84747 5814.4229 3296028
-4040.0837 -638.25519 5864.1074 1387782
-4133.8477 -658.75275 6052.4331 925701
-4097.8643 -658.75275 6052.4331 793863
-4069.4883 -659.98651 6063.7686 1792
-3954.687 -647.10065 5945.377 1536
-3892.0679 -642.5979 5904.0068 1280
-3912.7571 -651.89294 5989.4072 2560
-3783.688 -636.17871 5845.0298 1536
-3785.1606 -642.32562 5901.5054 1792
-3772.9204 -646.23877 5937.458 69632
-3714.9885 -642.32562 5901.5054 398080
-3660.7471 -638.98212 5870.7861 134912
-3625.844 -638.98212 5870.7861 1280
-3671.814 -653.37299 6003.0054 2307095
-3636.1245 -653.37299 6003.0054 530432
-3573.6062 -648.50439 5958.2739 662016
-3482.0864 -638.2226 5863.8081 68608
-3502.7588 -648.50439 5958.2739 199938
-3548.967 -663.77209 6098.5498 67840
-3443.5471 -650.703 5978.4746 68608
-3359.6951 -641.47931 5893.73 2048
-3324.6553 -641.47931 5893.73 397570
-3313.5471 -646.146 5936.606 265219
-3288.99 -648.26239 5956.0513 266498
-3253.5796 -648.26239 5956.0513 792838
-3138.7781 -632.27002 5809.1177 1024
-3190.7893 -649.89807 5971.0791 462593
-3156.864 -650.22235 5974.0586 2108949
-3165.073 -659.33124 6057.748 266241
-3162.2996 -666.33557 6122.1025 398336
-3125.9019 -666.33557 6122.1025 1536
-3161.7979 -681.92767 6265.3579 1792
-3012.9685 -657.5755 6041.6172 1451021
-2956.387 -653.0116 5999.6851 67840
-3066.0334 -685.50128 6298.1909 67584
-3028.5889 -685.50128 6298.1909 134912
-3037.5432 -696.13477 6395.8887 266496
-2911.4109 -675.68671 6208.0181 133888
-2921.3137 -686.69031 6309.1152 1582861
-2883.8042 -686.69031 6309.1152 2307603
-2821.6807 -680.75195 6254.5557 663808
-2771.5305 -677.58221 6225.4331 1913866
-2734.5186 -677.58221 6225.4331 3426595
-2665.5986 -669.56732 6151.7944 1536
-2682.3376 -683.14526 6276.5449 198914
-2626.4131 -678.33905 6232.3867 67585
-2589.3599 -678.33905 6232.3867 2305
-2552.3064 -678.33905 6232.3867 595469
-2632.9773 -710.08807 6524.0874 134405
-2594.1897 -710.08807 6524.0874 265477
-2485.8042 -690.74829 6346.3994 1280
-2339.4185 -660.09033 6064.7227 199424
-2324.5791 -666.17072 6120.5874 1451532
-2300.9531 -669.88635 6154.7256 2438679
-2309.3679 -683.20099 6277.0566 2304
-2272.0491 -683.20099 6277.0566 68352
-2234.7305 -683.20099 6277.0566 2833677
-2189.5056 -680.74298 6254.4731 4478997
-2148.6443 -679.58008 6243.7891 9282654
-2111.5234 -679.58008 6243.7891 595459
-2108.9319 -690.89209 6347.7207 2570006
-2113.4526 -704.98877 6477.2368 1024
-2074.9438 -704.98877 6477.2368 2560
-2036.2363 -704.9201 6476.6055 331776
-2020.8588 -713.08093 6551.5854 1255942
-2008.6816 -722.71405 6640.0913 2310161
-1969.2043 -722.71405 6640.0913 3757860
-1958.2919 -733.41193 6738.3809 1124871
-1951.0354 -745.95459 6853.6191 2048
-1906.5066 -744.47766 6840.0493 1536
-1859.1735 -741.81738 6815.6079 1517072
-1861.6927 -759.37323 6976.9058 3072
-1831.5074 -764.08508 7020.1968 3689770
-1803.0228 -769.7428 7072.1782 2439699
-1825.6285 -798.00287 7331.8232 860928
-1782.0388 -798.00287 7331.8232 1847817
-1733.1322 -795.56219 7309.3994 2507277
-1650.1239 -776.9397 7138.3013 2112014
-1573.4623 -760.40112 6986.3496 2573069
-1528.7029 -758.80103 6971.6484 1454084
-1477.0934 -753.61682 6924.0171 860673
-1445.806 -758.80103 6971.6484 1386755
-1417.8766 -766.10553 7038.7603 398848
-1392.0024 -774.9986 7120.4673 67840
-1362.9344 -782.6156 7190.4507 1056518
-1323.8619 -784.79535 7210.4766 1536
-1277.4359 -782.6156 7190.4507 4874804
-1240.8154 -786.50043 7226.1426 3098646
-1197.854 -786.50043 7226.1426 1716489
-1166.1318 -794.1546 7296.4668 1649673
-1122.7523 -794.1546 7296.4668 2304
-1092.2623 -803.63812 7383.5991 662785
-1018.6932 -780.89288 7174.6221 992265
-993.49561 -794.86011 7302.9487 2768673
-967.60919 -809.52759 7437.7095 1123850
-937.57678 -821.96503 7551.9814 266240
-892.67816 -821.96503 7551.9814 1451024
-847.7796 -821.96503 7551.9814 768
-791.8703 -810.69269 7448.4141 2561
-724.49396 -785.64984 7218.3281 768
-681.57898 -785.64984 7218.3281 768
-638.664 -785.64984 7218.3281 768
-609.19153 -803.37726 7381.2026 512
-556.86047 -791.37189 7270.9009 133888
-513.633 -791.37189 7270.9009 134912
-468.4718 -788.1189 7241.0132 2437916
-425.42197 -788.1189 7241.0132 1253896
-382.3721 -788.1189 7241.0132 530944
-336.97617 -782.6698 7190.9482 1518085
-294.22397 -782.6698 7190.9482 662528
-250.17712 -778.64038 7153.9268 2834198
-207.96144 -779.82684 7164.8276 1782281
-161.90936 -763.53284 7015.123 5120
-124.49552 -790.80231 7265.667 2506774
-82.841698 -805.80725 7403.5278 3691306
-38.102695 -790.80231 7265.667 730114
5.1903672 -805.80725 7403.5278 2048
48.150063 -788.50854 7244.5928 3840
91.283829 -789.05011 7249.5684 1536
137.43381 -806.95422 7414.0659 3031076
189.25504 -841.37531 7730.3179 1280
232.97743 -833.37531 7656.8154 1792
278.43546 -833.18414 7655.0591 332800
316.55206 -814.16479 7480.3149 332289
360.57123 -813.14233 7470.9204 792326
404.98795 -813.14233 7470.9204 662019
447.07904 -808.93445 7432.2598 1319946
485.13434 -798.83795 7339.4966 1648401
555.15863 -838.70508 7705.7837 792581
623.56818 -870.24042 7995.5215 2304
651.51385 -844.83752 7762.1274 2571033
675.66235 -818.19708 7517.3623 2110483
719.94128 -817.72693 7513.0435 662529
764.59381 -817.71136 7512.8999 1913607
809.26013 -817.71136 7512.8999 135936
834.93243 -799.52301 7345.79 2637585
885.14197 -805.47144 7400.4424 1980172
929.13971 -805.47144 7400.4424 1190403
1043.854 -864.00397 7938.2231 3558687
1111.0432 -879.83746 8083.6968 727048
1141.1566 -866.2149 7958.5366 1280
1186.1461 -864.51947 7942.959 528902
1162.689 -814.97668 7487.7749 397060
1257.2692 -848.77411 7798.2959 331011
1303.6322 -848.77411 7798.2959 1280
1403.7517 -882.57202 8108.8213 331012
1470.2039 -893.66107 8210.7041 768
1500.17 -882.57202 8108.8213 1024
1512.5402 -862.14386 7921.1333 2048
1577.8711 -872.2254 8013.7593 3095846
1669.0315 -895.57556 8228.2939 1779475
1717.9509 -895.57556 8228.2939 67584
1738.5258 -881.20844 8096.293 1536
1696.4281 -836.70447 7687.4028 134400
1726.2098 -829.05756 7617.145 68352
1770.0446 -828.3783 7610.9048 595204
1816.729 -829.03333 7616.9224 199426
1896.925 -844.57703 7759.7339 1057288
1974.095 -858.06732 7883.6792 1387529
2054.5042 -872.30719 8014.5107 1914124
2067.8364 -858.06732 7883.6792 2243600
2136.8845 -867.06616 7966.3579 2112269
2184.2468 -867.06616 7966.3579 729604
2502.8203 -972.44226 8934.5234 926467
2233.6265 -849.81409 7807.8506 3363093
2327.2666 -867.414 7969.5532 3166737
2374.6479 -867.414 7969.5532 2112775
2455.0752 -879.24896 8078.29 2770704
2479.832 -871.07477 8003.1875 4283176
2504.6848 -863.24139 7931.2173 1387270
2551.8381 -863.24139 7931.2173 2373651
2748.7083 -912.96899 8388.1006 2560
2984.512 -973.62573 8945.3965 1321476
2935.4192 -940.84473 8644.2148 1848332
2986.8115 -940.84473 8644.2148 3756582
2872.2356 -889.4491 8172.0063 598528
2943.2378 -896.27582 8234.7275 928259
3186.4194 -954.45325 8769.2451 1323016
3446.252 -1015.6647 9331.6387 3559203
3501.731 -1015.6647 9331.6387 925195
3753.4995 -1071.7097 9846.5645 1783058
3754.1145 -1055.4247 9696.9424 3559217
3811.7659 -1055.4247 9696.9424 4414268
3902.5369 -1064.4586 9779.9434 2176792
3401.5601 -914.19116 8399.3291 2503969
3975.5193 -1052.9879 9674.5547 68608
4136.6528 -1080.0411 9923.1113 1536
4233.2227 -1089.7134 10011.978 2437664
4428.563 -1124.1903 10328.742 1253647
4493.0146 -1124.9525 10335.745 67328
4300.6333 -1062.2566 9759.7119 201473
4266.1367 -1039.7081 9552.543 2111258
4322.9287 -1039.7081 9552.543 993801
4123.2363 -978.82068 8993.127 1389580
4176.7031 -978.82068 8993.127 2574109
3950.4709 -914.10114 8398.502 2508312
0 0 0 0
0 0 0 0
0 0 0 0
0 0 0 0
0 0 0 0
0 0 0 0
0 0 0 0
0 0 0 0
0 0 0 0
0 0 0 0
0 0 0 0
0 0 0 0
0 0 0 0
0 0 0 0
0 0 0 0
0 0 0 0
0 0 0 0
851.22144 -160.45876 1474.2495 256
859.98627 -160.45876 1474.2495 512
864.27356 -159.63176 1466.6512 131585
869.21735 -158.94133 1460.3077 526855
877.46881 -158.86339 1459.5917 395269
885.67181 -158.77829 1458.8098 1184785
890.89001 -158.16492 1453.1744 2632231
896.81586 -157.68779 1448.7906 3224368
898.62518 -156.50279 1437.9032 3224368
897.1358 -154.77106 1421.9924 4408642
905.59003 -154.77106 1421.9924 5790295
921.90411 -156.10194 1434.2203 5526866
939.4585 -157.61652 1448.1359 6185566
949.45667 -157.84738 1450.257 6579555
0 0 0 0
0 0 0 0
0 0 0 0
0 0 0 0
0 0 0 0
6618.1299 -1043.4131 9586.583 1536
6961.1436 -1088.1217 9997.3535 1537
7140.3081 -1106.6783 10167.847 198916
7200.7593 -1106.6783 10167.847 1794
7221.7915 -1100.6707 10112.649 661006
7281.9136 -1100.6707 10112.649 925204
7351.7192 -1102.1222 10125.986 136969
7607.6704 -1131.2294 10393.414 1123864
7472.123 -1102.1222 10125.986 3363391
7528.7437 -1101.5983 10121.172 4679508
7505.9272 -1089.5515 10010.49 5007445
7514.9321 -1082.2772 9943.6562 792589
8083.7593 -1155.111 10612.832 1781788
7661.7671 -1086.3323 9980.9121 3888195
7689.2163 -1081.8453 9939.6885 1059608
7716.0571 -1077.3422 9898.3135 2902069
7853.6704 -1088.2562 9998.5898 4612430
7876.8809 -1083.2732 9952.8066 3493950
7888.2764 -1076.7517 9892.8887 3559486
7882.979 -1068.0649 9813.0771 1783330
7880.1675 -1059.8402 9737.5107 2573871
7970.2329 -1064.1357 9776.9766 6717532
8135.7471 -1078.3696 9907.7539 8229483
7947.064 -1045.7886 9608.4082 595978
8087.7959 -1056.7123 9708.7725 1583901
8175.0908 -1060.5488 9744.0215 3426104
8409.873 -1083.3301 9953.3301 3295031
8590.5557 -1098.8729 10096.133 7046003
8661.3984 -1100.2473 10108.76 5664605
8659.5654 -1092.4342 10036.976 5993571
8719.2383 -1092.4342 10036.976 989967
10276.49 -1278.7908 11749.166 3557691
10290.834 -1271.9299 11686.132 397321
10442.707 -1282.0458 11779.072 2373162
9962.7744 -1214.9768 11162.862 3491643
10422.669 -1262.6506 11600.876 4280903
9763.1152 -1174.9741 10795.328 3622717
10363.43 -1239.0753 11384.272 4083524
11314.231 -1343.978 12348.089 1845536
11387.645 -1343.978 12348.089 1779743
10461.06 -1226.7136 11270.696 4344900
11780.669 -1372.6647 12611.653 2106910
12104.824 -1401.5145 12876.718 462343
12181.379 -1401.5145 12876.718 658954
12382.084 -1415.7092 13007.134 527369
12459.415 -1415.7092 13007.134 4738377
10714.057 -1209.8823 11116.056 3882811
10780.145 -1209.8823 11116.056 1316116
0 0 0 0
0 0 0 0
0 0 0 0
0 0 0 0
0 0 0 0
0 0 0 0
-4612.8872 -532.65759 5176.6753 2703381
-4848.834 -563.66351 5478.0088 4283431
-4820.8179 -564.19635 5483.1865 1256705
-4795.7578 -565.08459 5491.8193 3297048
-4777.7563 -566.82251 5508.7095 1913862
-4733.2979 -565.42395 5495.1172 2374413
-4700.6274 -565.42395 5495.1172 1189891
-4643.8564 -562.50458 5466.7451 597760
-4566.5068 -557.03381 5413.5776 268288
-4540.9194 -557.84436 5421.4546 334336
-4502.1362 -557.03381 5413.5776 1650691
-4471.7627 -557.25958 5415.7715 3032340
-4576.9819 -574.50836 5583.4053 267265
-4543.7866 -574.50836 5583.4053 1913349
-4568.937 -581.93976 5655.6274 2571794
-4472.2324 -573.8457 5576.9648 664064
-4540.2324 -586.92236 5704.0513 2374162
-4404.2715 -573.6311 5574.8794 2176784
-4411.27 -578.89911 5626.0771 860673
-4371.1123 -578.01196 5617.4551 334592
-4565.77 -608.40088 5912.792 333312
-4474.6187 -600.8811 5839.7104 4479784
-4439.8999 -600.8811 5839.7104 2440210
-4345.9673 -592.80408 5761.2134 3099156
-4311.7148 -592.80408 5761.2134 1717252
-4313.2529 -597.7641 5809.418 3164445
-4278.7148 -597.7641 5809.418 1387527
-4213.0791 -593.3844 5766.853 1913358
-4222.5029 -599.59106 5827.1733 1123336
-4144.6426 -593.40363 5767.04 2048
-4110.356 -593.40363 5767.04 137216
-4033.7795 -587.24701 5707.2065 2702872
-4072.0315 -597.84467 5810.2007 3032343
-4037.488 -597.84467 5810.2007 2571281
-4033.6335 -602.42804 5854.7446 3072
-4134.2681 -622.83264 6053.0483 793608
-4097.8643 -622.76935 6052.4331 133633
-3962.2698 -607.49689 5904.0068 1280
-3927.1689 -607.49689 5904.0068 1792
-3857.5203 -602.10455 5851.6006 1280
-3825.6577 -602.56549 5856.0806 1280
-3783.688 -601.42847 5845.0298 1280
-3747.801 -601.24603 5843.2573 1536
-3772.9204 -610.9389 5937.458 200706
-3737.6204 -610.9389 5937.458 67072
-3706.6077 -611.6463 5944.333 398592
-3666.5947 -610.86792 5936.7681 68352
-3569.7603 -600.51569 5836.1592 462849
-3636.1245 -617.68341 6003.0054 1319939
-3573.6062 -613.08075 5958.2739 530432
-3603.425 -624.38574 6068.1421 595201
-3502.7588 -613.08075 5958.2739 1792
-3448.5276 -609.75525 5925.9546 1280
-3538.7605 -632.16833 6143.7778 1536
-3389.4827 -611.81628 5945.9849 68864
-3372.46 -615.15936 5978.4746 68864
-3341.7639 -616.05304 5987.1602 2174745
-3394.7488 -632.55853 6147.5703 134912
-3214.3508 -605.46283 5884.2383 134400
-3179.3672 -605.46283 5884.2383 1451279
-3172.7388 -610.92261 5937.2998 925188
-3156.864 -614.70496 5974.0586 398592
-3198.6973 -629.93799 6122.1025 266496
-3172.5925 -631.9884 6142.0298 67584
-3136.0767 -631.9884 6142.0298 990468
-3143.3899 -640.92511 6228.8813 2048
-3124.5483 -644.67841 6265.3579 1280
-2963.2297 -618.77069 6013.5718 133120
-3114.4919 -658.29932 6397.7339 1319176
-2971.5137 -635.84381 6179.4985 2635548
-3049.1455 -660.62323 6420.3188 200448
-2911.4109 -638.77838 6208.0181 1792
-2874.5027 -638.77838 6208.0181 200960
-2818.7407 -634.53418 6166.7705 661507
-2805.2268 -639.81403 6218.0835 134912
-2686.509 -620.91974 6034.4575 1254664
-2731.2903 -639.81403 6218.0835 990983
-2665.5986 -632.99316 6151.7944 793864
-2629.0247 -632.99316 6151.7944 596484
-2594.0186 -633.3761 6155.5156 69632
-2561.4158 -634.36511 6165.1274 1536
-2534.2615 -636.75183 6188.3232 1582613
-2605.8613 -664.38715 6456.8989 594694
-2579.1646 -667.41241 6486.3008 1024
-2485.8042 -653.01721 6346.3994 1024
-2362.6501 -630.23096 6124.9492 1582096
-2324.5791 -629.7821 6120.5874 69376
-2304.5383 -634.28156 6164.3154 134912
-2289.4519 -640.31207 6222.9233 265729
-2272.0491 -645.88214 6277.0566 1056514
-2280.6174 -659.14447 6405.9478 530688
-2252.4617 -662.06299 6434.3115 1847558
-2138.3687 -639.38647 6213.9282 5796137
-2096.6111 -637.92175 6199.6934 2240517
-2059.7522 -637.92175 6199.6934 3162392
-2071.1931 -653.15314 6347.7207 69888
-2055.8833 -660.35754 6417.7368 2304
-1994.4259 -652.73126 6343.6206 2304
-2020.8588 -674.12994 6551.5854 1124352
-1994.9985 -678.58264 6594.8594 2177296
-1955.7904 -678.58264 6594.8594 3954210
-1934.0817 -684.77863 6655.0752 67328
-1951.0354 -705.20795 6853.6191 68096
-1899.6941 -701.29669 6815.6079 1536
-1859.1735 -701.29669 6815.6079 67073
-1873.2444 -722.34808 7020.1968 595459
-1833.6626 -723.19806 7028.4575 1386256
-1791.8765 -723.19806 7028.4575 200960
-1754.21 -724.90039 7045.002 1792
-1724.8893 -730.2193 7096.6938 794112
-1703.7935 -739.37402 7185.6646 1651209
-1650.1239 -734.50049 7138.3013 3362331
-1573.4623 -718.86536 6986.3496 1981447
-1532.1624 -718.97601 6987.4253 3033369
-1490.3906 -718.86536 6986.3496 2770452
-1445.806 -717.35266 6971.6484 2111241
-1416.489 -723.54938 7031.8721 266241
-1378.3004 -725.45355 7050.3779 3162907
-1345.2312 -730.25629 7097.0537 596224
-1328.8892 -744.74438 7237.8574 727808
-1265.2097 -732.78528 7121.6318 1583368
-1240.8154 -743.539 7226.1426 68864
-1197.854 -743.539 7226.1426 3623465
-1160.9747 -747.45477 7264.1987 67584
-1136.1599 -759.74054 7383.5991 1792
-1092.2623 -759.74054 7383.5991 1536
-1028.1459 -745.08813 7241.1978 793606
-982.05194 -742.78644 7218.8291 67328
-950.07751 -751.44202 7302.9487 2044439
-916.18353 -759.33563 7379.6636 1715730
-879.17078 -765.30835 7437.7095 1584145
-850.5907 -779.64307 7577.0229 859142
-796.66962 -771.05481 7493.5571 1280
-737.47125 -756.03894 7347.6245 1536
-689.56281 -751.43506 7302.8813 768
-646.14514 -751.43506 7302.8813 791561
-609.19153 -759.49396 7381.2026 1280
-560.51831 -753.05872 7318.6611 67072
-517.00684 -753.05872 7318.6611 1792
-469.8291 -747.22778 7261.9927 2569502
-426.65454 -747.22778 7261.9927 2048
-382.3721 -745.06909 7241.0132 923914
-339.11142 -744.60614 7236.5137 1280
-296.08832 -744.60614 7236.5137 398336
-250.55835 -737.22992 7164.8276 859395
-215.33553 -763.37128 7418.8843 334080
-167.98573 -748.91571 7278.3965 5632
-125.93499 -756.25 7349.6753 3032351
-82.23912 -756.25 7349.6753 1715982
-38.543251 -756.25 7349.6753 464386
5.1223459 -751.80768 7306.5024 1792
48.150063 -745.43744 7244.5928 2048
90.780136 -741.83331 7209.5659 990982
140.18019 -778.12024 7562.2231 265473
188.84572 -793.69617 7713.5986 1385736
232.97743 -787.85333 7656.8154 67840
278.43546 -787.67267 7655.0591 463363
316.76929 -770.2204 7485.4478 1280
360.57123 -768.72559 7470.9204 2304
402.89218 -764.74756 7432.2598 859141
438.00031 -749.21796 7281.3345 1977622
489.4744 -761.95874 7405.1562 267265
576.03259 -822.70471 7995.5215 397315
627.49335 -827.88336 8045.8501 660995
638.09369 -782.23773 7602.2393 1451532
675.15228 -772.92035 7511.688 1452296
718.63293 -771.65503 7499.3901 2702617
768.51129 -777.00586 7551.3931 794624
813.40643 -777.00586 7551.3931 269056
834.93243 -755.85016 7345.79 3164438
887.14246 -763.1947 7417.168 3296275
931.23962 -763.1947 7417.168 2309640
996.04407 -779.39801 7574.6411 5532469
1111.0432 -831.77759 8083.6968 264704
1168.4608 -838.4928 8148.959 1280
1136.8347 -783.31903 7612.748 1024
1153.1191 -764.11835 7426.1445 1024
1272.6556 -812.23102 7893.7314 1024
1319.5861 -812.23102 7893.7314 1280
1372.4471 -815.7561 7927.9902 67584
1459.0286 -838.42432 8148.293 1584653
1507.4724 -838.42432 8148.293 3493665
1512.5402 -815.05054 7921.1333 2111500
1629.1917 -851.401 8274.4082 1189131
1669.0315 -846.65601 8228.2939 68864
1717.9509 -846.65601 8228.2939 398338
1721.7814 -825.05005 8018.3145 595461
1690.2904 -788.13892 7659.5898 463107
1738.9269 -789.54553 7673.2603 2043161
1771.4442 -783.7486 7616.9224 1780241
1816.729 -783.7486 7616.9224 331010
1870.6111 -787.36731 7652.0918 991237
1959.0701 -805.02264 7823.6763 596736
2011.0284 -807.20801 7844.9146 1781770
2052.0979 -805.02264 7823.6763 993280
2136.8845 -819.70398 7966.3579 3099152
2184.2468 -819.70398 7966.3579 1584393
2474.9114 -909.07263 8834.8945 3072
2252.4775 -810.17468 7873.7466 4349484
2349.4016 -827.83228 8045.353 2178574
2374.6479 -820.03271 7969.5532 1915144
2455.0752 -831.22125 8078.29 2112011
2479.832 -823.49359 8003.1875 1979914
2504.6848 -816.08813 7931.2173 1847815
2574.9944 -823.49359 8003.1875 2966042
2748.7083 -863.09949 8388.1006 596737
2898.835 -894.01947 8688.5986 992000
3023.8455 -916.24628 8904.6123 1518856
3076.7856 -916.24628 8904.6123 1847567
3057.8564 -895.20593 8700.1299 334080
3056.3403 -879.87872 8551.1709 69120
3161.3054 -895.20593 8700.1299 3163929
3599.3884 -1002.8521 9746.2969 4085284
3490.6357 -957.14307 9302.0713 1517325
3696.4634 -997.77368 9696.9424 1122568
3754.1145 -997.77368 9696.9424 1650706
3811.7659 -997.77368 9696.9424 1716499
3902.5369 -1006.3141 9779.9434 1387533
3401.5601 -864.25482 8399.3291 4347700
3707.6394 -928.39301 9022.6611 1792
4019.1516 -992.04272 9641.2461 2048
4195.6489 -1021.0455 9923.1113 1024
4308.5273 -1033.9766 10048.783 1792
4489.9702 -1062.7832 10328.742 200194
4325.3042 -1009.9933 9815.6992 596485
4383.6616 -1009.9933 9815.6992 861191
4442.0186 -1009.9933 9815.6992 927240
4472.7754 -1003.7991 9755.501 401665
4176.7031 -925.35406 8993.127 2309656
0 0 0 0
0 0 0 0
0 0 0 0
0 0 0 0
0 0 0 0
0 0 0 0
0 0 0 0
0 0 0 0
0 0 0 0
0 0 0 0
0 0 0 0
0 0 0 0
0 0 0 0
0 0 0 0
0 0 0 0
0 0 0 0
0 0 0 0
0 0 0 0
851.45502 -151.73555 1474.6539 256
860.97675 -151.86864 1475.9474 256
868.98938 -151.73555 1474.6539 256
869.21735 -150.25938 1460.3077 197634
876.68036 -150.05075 1458.2802 329476
885.67181 -150.10526 1458.8098 1053199
891.75702 -149.67091 1454.5886 2961194
896.95477 -149.09741 1449.015 3684920
892.22595 -146.90044 1427.6636 3684919
897.1358 -146.31689 1421.9924 4606021
903.70013 -146.01155 1419.0249 5000779
912.1366 -146.01155 1419.0249 6382432
940.83447 -149.2252 1450.257 5263951
952.31989 -149.6752 1454.6304 6712424
960.96802 -149.6752 1454.6304 7041132
0 0 0 0
0 0 0 0
0 0 0 0
0 0 0 0
0 0 0 0
6961.1436 -1028.6847 9997.3535 2050
7151.8799 -1047.9231 10184.324 68100
7200.7593 -1046.2277 10167.847 2308
7261.21 -1046.2277 10167.847 792336
7281.9136 -1040.5481 10112.649 2306856
7311.4355 -1036.2112 10070.501 728849
7756.5073 -1090.3601 10596.751 795409
7737.6489 -1078.9456 10485.818 3098675
7731.2539 -1069.4376 10393.414 3296307
7581.6201 -1040.4237 10111.44 4086586
7613.543 -1036.5853 10074.137 4875589
8083.7593 -1092.0148 10612.832 203012
7767.8213 -1041.2086 10119.068 1583897
7827.9824 -1041.2086 10119.068 662797
7829.8379 -1033.5125 10044.273 794128
7899.3643 -1034.7976 10056.763 201990
7912.5732 -1028.7415 9997.9053 1387035
7824.6372 -1009.7234 9813.0771 1979170
7414.4546 -949.71063 9229.8379 1519644
7345.3252 -933.94385 9076.6074 1190676
8008.709 -1010.8655 9824.1758 3690808
8067.1172 -1010.8655 9824.1758 4742983
7946.6812 -988.61627 9607.9453 4611146
8015.5132 -990.06274 9622.0029 1912864
8145.5176 -998.99091 9708.7725 1122067
8409.873 -1024.1548 9953.3301 1978143
8590.5557 -1038.8486 10096.133 1518366
8561.5117 -1028.1525 9992.1816 1781795
8659.5654 -1032.7616 10036.976 4610637
9143.5264 -1083.017 10525.387 2767664
10221.356 -1202.4528 11686.132 2175270
9438.2627 -1102.8324 10717.964 200198
9896.4082 -1148.6105 11162.862 1252884
9833.3154 -1133.6853 11017.81 2041630
9749.2373 -1116.554 10851.317 2633768
9541.5752 -1085.5872 10550.365 2633767
10363.43 -1171.3927 11384.272 1384214
10093.114 -1133.4362 11015.39 1252628
10158.604 -1133.4362 11015.39 1318164
10091.729 -1118.7623 10872.78 2041375
10528.067 -1159.7062 11270.696 1712411
10227.106 -1119.4294 10879.264 1186066
10291.786 -1119.4294 10879.264 1054226
10585.968 -1144.2362 11120.35 3159345
11227.227 -1206.0176 11720.778 3620152
10640.658 -1135.9586 11039.903 2633512
10553.967 -1119.7964 10882.83 5002060
0 0 0 0
0 0 0 0
0 0 0 0
0 0 0 0
0 0 0 0
0 0 0 0
0 0 0 0
-4510.7773 -494.06772 5096.0864 3691301
-4816.2661 -531.09521 5478.0088 1782794
-4788.2192 -531.59723 5483.1865 1717259
-4755.6201 -531.59723 5483.1865 2560
-4691.2104 -528.01678 5446.2559 200448
-4676.3579 -530.00323 5466.7451 69888
-4643.8564 -530.00323 5466.7451 267264
-4566.5068 -524.84863 5413.5776 1648909
-4495.0757 -520.30585 5366.7212 3032343
-4502.1362 -524.84863 5413.5776 3164184
-4460.5151 -523.74072 5402.1499 1715719
-4509.228 -533.30035 5500.7534 1583879
-4595.8955 -547.52136 5647.4365 2304
-4568.937 -548.31549 5655.6274 199424
-4528.7446 -547.52136 5647.4365 2703132
-4488.9385 -546.76251 5639.6094 1321477
-4444.7188 -545.45056 5626.0771 3584
-4548.3237 -562.39716 5800.8735 333056
-4432.5708 -552.27197 5696.437 1321991
-4479.3481 -562.39716 5800.8735 1058051
-4474.6187 -566.16241 5839.7104 660996
-4314.7417 -550.20258 5675.0923 399360
-4289.9307 -551.35016 5686.9292 1387015
-4377.1099 -567.0235 5848.5923 1123586
-4313.2529 -563.22552 5809.418 2242833
-4217.5508 -555.17426 5726.373 2440212
-4205.8457 -558.13885 5756.9517 400128
-4188.7456 -560.43036 5780.5874 926721
-4101.6416 -553.3161 5707.2065 1782029
-4167.9858 -566.95612 5847.8979 266496
-4133.2183 -566.95612 5847.8979 793088
-4011.6538 -554.94916 5724.0508 1518092
-3960.9458 -552.62238 5700.0513 200705
-3927.0574 -552.62238 5700.0513 3584
-4133.8477 -586.78595 6052.4331 1792
-3970.3564 -568.52771 5864.1074 858125
-3935.1995 -568.48535 5863.6704 266498
-3917.3135 -570.95947 5889.1904 2048
-3824.7546 -562.4964 5801.8975 1792
-3805.9646 -564.8269 5825.9355 1280
-3771.3279 -564.8269 5825.9355 1024
-3808.2202 -575.63904 5937.458 2304
-3772.9204 -575.63904 5937.458 2048
-3737.6204 -575.63904 5937.458 333312
-3701.8904 -575.57214 5936.7681 991238
-3666.5947 -575.57214 5936.7681 199169
-3671.814 -581.9939 6003.0054 794115
-3551.8101 -568.49866 5863.8081 991491
-3639.5022 -588.30896 6068.1421 1057289
-3603.425 -588.30896 6068.1421 398592
-3567.3484 -588.30896 6068.1421 595970
-3603.1836 -600.28943 6191.7158 331777
-3566.3721 -600.28943 6191.7158 595205
-3408.0034 -579.61566 5978.4746 529156
-3354.1323 -576.46576 5945.9849 1536
-3318.7817 -576.46576 5945.9849 1779730
-3394.7488 -596.00952 6147.5703 464642
-3214.3508 -570.47937 5884.2383 1650701
-3152.2534 -565.61426 5834.0571 2571543
-3193.7722 -579.43988 5976.6616 925953
-3161.8149 -580.09589 5983.4277 3840
-3165.073 -587.30121 6057.748 2560
-3172.5925 -595.47241 6142.0298 727298
-3172.4812 -602.38483 6213.3286 67840
-3135.5413 -602.38483 6213.3286 1384970
-3124.5483 -607.42908 6265.3579 68608
-3113.4749 -612.57916 6318.4785 2304
-3075.9097 -612.57916 6318.4785 200192
-2971.5137 -599.10498 6179.4985 1319433
-3017.9954 -616.09357 6354.7285 199169
-2911.4109 -601.87 6208.0181 68864
-2855.4036 -597.87097 6166.7705 2048
-2818.7407 -597.87097 6166.7705 1280
-2742.0378 -589.26642 6078.0186 1280
-2705.9023 -589.26642 6078.0186 1280
-2679.9084 -591.50488 6101.1069 2439195
-2654.3679 -593.90619 6125.8755 1189388
-2611.4429 -592.43048 6110.6543 334336
-2581.5278 -593.90619 6125.8755 1386000
-2540.5159 -592.83466 6114.8232 69120
-2534.2615 -599.96051 6188.3232 399106
-2571.4331 -617.72839 6371.5908 2308119
-2533.552 -617.72839 6371.5908 1124355
-2493.8218 -617.27063 6366.8691 1387784
-2402.2717 -603.77466 6227.6641 1913870
-2324.5791 -593.39355 6120.5874 1782284
-2304.5383 -597.633 6164.3154 2176275
-2289.4519 -603.31506 6222.9233 661762
-2263.8748 -606.37378 6254.4731 2560
-2298.9177 -626.04285 6457.3506 1583110
-2260.5269 -626.04285 6457.3506 1189889
-2152.0437 -606.29565 6253.6675 3690522
-2098.3772 -601.56921 6204.916 1520385
-2061.4873 -601.56921 6204.916 2967567
-2024.5973 -601.56921 6204.916 530944
-2032.1405 -615.01672 6343.6206 333312
-1994.4259 -615.01672 6343.6206 3840
-2000.3589 -628.7356 6485.125 3072
-1959.2258 -627.90967 6476.6055 1189639
-1891.683 -618.41681 6378.6914 993026
-1853.7599 -618.41681 6378.6914 3296795
-1957.5713 -666.68713 6876.5786 4085540
-1899.6941 -660.77606 6815.6079 135425
-1836.2488 -652.62842 6731.5684 2242328
-1840.533 -668.72583 6897.6064 3096610
-1811.4613 -673.16162 6943.3594 793856
-1801.2852 -684.98987 7065.3623 68096
-1759.2795 -684.98987 7065.3623 1536
-1712.3254 -683.01593 7045.002 990720
-1692.5631 -692.06128 7138.3013 1714949
-1661.0726 -696.6532 7185.6646 1452805
-1573.7046 -677.43384 6987.4253 1585158
-1557.2722 -688.53595 7101.939 1256704
-1500.1019 -681.74292 7031.8721 1980931
-1491.1398 -697.09747 7190.2466 2703626
-1416.489 -681.74292 7031.8721 1582854
-1382.5728 -685.65588 7072.2324 2243079
-1349.8899 -690.44519 7121.6318 4085281
-1307.5498 -690.44519 7121.6318 2571535
-1265.2097 -690.44519 7121.6318 2816
-1240.8154 -700.57758 7226.1426 332032
-1202.2264 -703.13483 7252.5195 1517069
-1159.1082 -703.13483 7252.5195 1280
-1084.6644 -683.39801 7048.9434 68608
-1043.8287 -684.10077 7056.1914 860162
-1011.8071 -690.8808 7126.1245 1848329
-976.03802 -695.58258 7174.6221 3888161
-950.07751 -708.02393 7302.9487 992516
-908.47357 -709.44061 7317.561 1123331
-863.50134 -708.23718 7305.1479 859650
-820.07025 -708.23718 7305.1479 923910
-805.54321 -734.59558 7577.0229 858374
-732.98047 -708.01746 7302.8813 1253135
-681.40094 -699.63708 7216.4424 133889
-634.67786 -695.45203 7173.2754 594949
-598.81903 -703.42621 7255.5249 989708
-560.78979 -709.89093 7322.2061 67585
-517.25726 -709.89093 7322.2061 1280
-469.8291 -704.05322 7261.9927 528899
-428.58667 -707.24158 7294.8789 199168
-384.55701 -706.03064 7282.3887 1713940
-333.82761 -690.65143 7123.7588 199681
-291.47485 -690.65143 7123.7588 134145
-250.55835 -694.63306 7164.8276 2834209
-215.33553 -719.26398 7418.8843 991492
-171.84444 -721.85254 7445.5845 2637590
-127.57837 -721.85254 7445.5845 1914888
-82.841698 -717.77515 7403.5278 3427868
-38.825665 -717.77515 7403.5278 1386247
5.1442313 -711.39502 7337.7197 1792
48.561535 -708.36847 7306.5024 1536
93.24617 -717.95782 7405.4126 331521
140.18019 -733.16071 7562.2231 331778
181.30064 -717.95782 7405.4126 2701597
226.72029 -722.39441 7451.1738 727556
268.08438 -714.57074 7370.4756 265729
311.71179 -714.13055 7365.936 199937
358.70532 -720.56073 7432.2598 1536
402.89218 -720.56073 7432.2598 1280
445.44867 -717.93298 7405.1562 463620
505.0108 -740.72095 7640.2036 397571
576.03259 -775.16919 7995.5215 264449
604.38898 -751.32709 7749.6016 68864
638.09369 -737.04028 7602.2393 3328
675.15228 -728.26129 7511.688 662017
718.63293 -727.06903 7499.3901 793348
783.64972 -746.5321 7700.1431 531200
794.30835 -714.92139 7374.0928 598016
834.68719 -711.96826 7343.6323 2967066
881.99042 -714.92139 7374.0928 2308874
942.7793 -728.00842 7509.0796 1322240
996.04407 -734.36462 7574.6411 1124608
1077.1742 -759.82697 7837.2734 3952926
1139.967 -770.77917 7950.2407 594436
1100.4908 -714.46387 7369.3735 1024
1144.3038 -714.46387 7369.3735 264705
1266.7277 -761.73584 7856.9629 199936
1303.5177 -755.98169 7797.6108 2304
1349.8767 -755.98169 7797.6108 463107
1413.1615 -765.14606 7892.1372 2900509
1460.0824 -765.14606 7892.1372 1256708
1487.1577 -755.06989 7788.2061 2243596
1656.4529 -815.63062 8412.8633 3822116
1606.723 -767.95538 7921.1143 1254916
1690.3911 -784.93903 8096.293 991234
1700.9094 -767.95538 7921.1143 2373398
1725.2836 -757.97406 7818.1621 265729
1750.229 -748.76099 7723.1328 2571032
1796.1453 -748.76099 7723.1328 1058051
1842.0614 -748.76099 7723.1328 2570263
1888.1512 -748.8299 7723.8438 595971
1946.2738 -753.5542 7772.5732 926209
2011.0284 -760.56775 7844.9146 1057793
2050.4209 -757.88885 7817.2827 71424
2191.9543 -792.24585 8171.6597 1980170
2265.0818 -800.92468 8261.1777 2966547
2392.8743 -828.15424 8542.0391 67840
2240.2908 -759.23297 7831.147 3072
2503.241 -831.07501 8572.165 2108945
2346.1008 -763.36304 7873.7466 69888
2455.0752 -783.1936 8078.29 465152
2538.2324 -794.18524 8191.6641 2966300
2655.0515 -815.09717 8407.3613 2833945
2714.8242 -818.04669 8437.7842 4096
2764.9893 -818.04669 8437.7842 2560
2898.835 -842.36328 8688.5986 2241555
2882.0381 -822.82001 8487.0186 2242066
2932.4958 -822.82001 8487.0186 4608
3005.5012 -829.03961 8551.1709 268800
2951.3518 -800.56116 8257.4287 202496
3161.3054 -843.48126 8700.1299 2967318
3498.0425 -918.30231 9471.875 4941875
3554.3552 -918.30231 9471.875 1453324
3657.4739 -930.20642 9594.6611 466434
3754.1145 -940.12268 9696.9424 330499
3811.7659 -940.12268 9696.9424 794632
3909.4172 -949.84137 9797.1865 265473
3967.6643 -949.84137 9797.1865 3584
3998.2495 -943.315 9729.8701 464132
4056.0962 -943.315 9729.8701 2304
4195.6489 -962.0498 9923.1113 1280
4284.2427 -968.74249 9992.1436 1024
4413.5176 -984.32501 10152.87 792839
4325.3042 -951.63617 9815.6992 3328
4450.9106 -966.23517 9966.2812 268288
4463.5342 -956.24554 9863.2432 861960
4520.7627 -955.94714 9860.165 1258250
0 0 0 0
0 0 0 0
0 0 0 0
0 0 0 0
0 0 0 0
0 0 0 0
0 0 0 0
0 0 0 0
0 0 0 0
0 0 0 0
0 0 0 0
0 0 0 0
0 0 0 0
0 0 0 0
0 0 0 0
0 0 0 0
0 0 0 0
0 0 0 0
0 0 0 0
851.45502 -142.96831 1474.6539 512
860.82983 -143.06932 1475.6957 256
869.75159 -143.09372 1475.9474 256
879.02075 -143.17421 1476.7777 66304
879.43201 -141.82462 1462.8572 197889
886.38452 -141.54604 1459.9838 1184783
891.75702 -141.02298 1454.5886 2500643
896.95477 -140.48262 1449.015 2632229
895.41882 -138.9079 1432.7726 3619124
902.763 -138.72749 1430.9117 4408641
900.39502 -137.07191 1413.8351 4408642
908.16699 -136.97633 1412.8492 6448225
931.61761 -139.2256 1436.0494 6382432
949.45667 -140.60303 1450.257 6382432
960.7655 -140.9973 1454.3239 6120541
0 0 0 0
0 0 0 0
0 0 0 0
0 0 0 0
0 0 0 0
6850.1714 -953.79614 9837.9785 1536
7001.5522 -966.62061 9970.2568 68099
7060.8281 -966.62061 9970.2568 528396
7148.6475 -970.49554 10010.226 265224
7398.9888 -996.18842 10275.235 68868
7586.4692 -1013.0662 10449.322 265734
7756.5073 -1027.3594 10596.751 332039
7737.6489 -1016.6045 10485.818 991250
7799.9897 -1016.6045 10485.818 1386265
7553.6494 -976.69183 10074.137 2176551
7547.2178 -968.18335 9986.376 3689020
7707.6611 -981.04791 10119.068 856845
7767.8213 -981.04791 10119.068 264964
7944.1934 -995.61218 10269.292 512
7982.064 -992.72882 10239.552 768
7899.3643 -975.00732 10056.763 768
7913.1147 -969.36749 9998.5898 2562
7563.0049 -919.57062 9484.957 68098
7291.3628 -879.9809 9076.6074 267012
7345.3252 -879.9809 9076.6074 3297078
8076.8428 -960.56085 9907.7539 6323535
8067.1172 -952.45795 9824.1758 6980447
8042.5088 -942.72711 9723.8057 4414782
8015.5132 -932.85718 9622.0029 5335625
8072.7188 -932.85718 9622.0029 7045986
8409.873 -964.97949 9953.3301 3623996
8625.4043 -982.79498 10137.089 4150341
8687.8096 -983.03693 10139.584 728336
8837.5273 -993.08685 10243.244 1846561
9143.5264 -1020.4407 10525.387 3820866
9220.3613 -1022.0211 10541.688 3820609
9438.2627 -1039.1111 10717.964 5268055
9501.9844 -1039.1111 10717.964 3159600
9565.7061 -1039.1111 10717.964 133379
9550.5039 -1030.5945 10630.119 593928
9333.5371 -1000.5605 10320.332 3160112
9974.877 -1062.329 10957.446 6514781
10040.022 -1062.329 10957.446 2895914
10027.087 -1054.1206 10872.78 790793
10091.729 -1054.1206 10872.78 1317138
10528.067 -1092.6987 11270.696 1580567
10654.827 -1098.8612 11334.259 2699048
11042.312 -1131.6664 11672.63 4475972
11111.709 -1131.6664 11672.63 2042401
11181.105 -1131.6664 11672.63 3884348
10640.658 -1070.3232 11039.903 3358262
10467.956 -1046.4962 10794.139 2371367
0 0 0 0
0 0 0 0
0 0 0 0
0 0 0 0
0 0 0 0
0 0 0 0
0 0 0 0
-4706.856 -483.92969 5317.6079 266753
-4758.9072 -492.58981 5412.769 4608
-4726.7266 -492.58981 5412.769 1518343
-4707.0654 -493.90338 5427.2031 1452552
-4674.7993 -493.90338 5427.2031 135936
-4658.8311 -495.63727 5446.2559 1452806
-4639.1699 -496.99982 5461.228 1057287
-4588.2656 -495.01089 5439.3726 1255686
-4555.9268 -495.01089 5439.3726 3032347
-4503.9609 -492.86307 5415.7715 266240
-4471.7627 -492.86307 5415.7715 266496
-4482.1367 -497.58929 5467.7051 530690
-4543.7866 -508.11859 5583.4053 1280
-4557.4609 -513.39838 5641.4219 1792
-4528.7446 -513.94574 5647.4365 2048
-4490.3813 -513.39838 5641.4219 1024
-4467.2788 -514.60071 5654.6333 1912850
-4532.1758 -526.0351 5780.2788 662785
-4432.5708 -518.40503 5696.437 925955
-4410.9766 -519.85144 5712.3306 793860
-4419.9487 -524.95056 5768.3618 1253895
-4385.6543 -524.95056 5768.3618 2048
-4339.1299 -523.47516 5752.1494 1536
-4360.7231 -530.2594 5826.6968 69376
-4313.2529 -528.68689 5809.418 662530
-4217.5508 -521.12939 5726.373 1781518
-4155.3584 -517.62311 5687.8447 1189889
-4188.7456 -526.06317 5780.5874 729600
-4106.8301 -520.04211 5714.4258 2505745
-4167.9858 -532.18878 5847.8979 2177037
-4061.885 -523.00397 5746.9717 1058562
-4027.718 -523.00397 5746.9717 1979407
-3960.9458 -518.73401 5700.0513 2373659
-3927.0574 -518.73401 5700.0513 1792
-4181.1748 -557.10846 6121.7256 1792
-4036.5515 -542.56134 5961.8755 1024
-3929.8406 -532.89752 5855.6855 1024
-3900.3381 -533.62415 5863.6704 1536
-3817.8586 -527.05048 5791.436 266497
-3815.8271 -531.56396 5841.0327 1536
-3809.1052 -535.50104 5884.2939 67584
-3814.6233 -541.24768 5947.4409 331779
-3739.3572 -535.53241 5884.6392 1024
-3687.198 -533.04974 5857.3584 1280
-3706.6077 -540.96484 5944.333 1280
-3671.2668 -540.96484 5944.333 1318926
-3578.8962 -532.47974 5851.0952 1582863
-3518.5239 -528.63562 5808.8545 1024
-3639.5022 -552.23218 6068.1421 68096
-3639.4846 -557.7583 6128.8657 1319435
-3567.3484 -552.23218 6068.1421 1582608
-3525.8455 -551.38361 6058.8179 67840
-3566.3721 -563.47797 6191.7158 1280
-3502.2339 -559.11536 6143.7778 199168
-3317.2739 -535.16888 5880.6445 1536
-3318.7817 -541.11517 5945.9849 2048
-3436.6016 -566.35797 6223.3623 1978387
-3214.3508 -535.49597 5884.2383 2373650
-3179.3672 -535.49597 5884.2383 1057792
-3164.4824 -538.91876 5921.8496 728832
-3158.2395 -543.90692 5976.6616 1189123
-3205.0918 -558.25659 6134.3413 530944
-3096.0198 -545.46552 5993.7876 1583367
-3154.2629 -562.19775 6177.6479 1648139
-3025.7563 -545.64685 5995.7808 331520
-3098.6013 -565.44482 6213.3286 199936
-3049.7654 -563.2478 6189.187 1792
-2977.1626 -556.5542 6115.6343 1536
-2952.4282 -558.75415 6139.8086 1280
-2937.9976 -562.98364 6186.2842 1385224
-2947.2915 -571.92419 6284.5264 793345
-2782.4895 -546.87708 6009.2988 265216
-2746.7627 -546.87708 6009.2988 596224
-2704.5034 -545.55939 5994.8193 1386246
-2705.9023 -553.13098 6078.0186 2307345
-2679.9084 -555.23212 6101.1069 1781003
-2654.3679 -557.48615 6125.8755 1780496
-2611.4429 -556.10095 6110.6543 2560
-2575.1133 -556.10095 6110.6543 1280
-2483.4043 -543.97046 5977.3599 2304
-2490.2935 -553.39856 6080.9595 132865
-2571.4331 -579.84753 6371.5908 398081
-2533.552 -579.84753 6371.5908 1057029
-2493.8218 -579.41779 6366.8691 2043155
-2443.2786 -576.42383 6333.9702 200192
-2321.2332 -556.20312 6111.7769 793344
-2302.2417 -560.42529 6158.1719 924422
-2267.8899 -560.98438 6164.3154 2701339
-2263.4319 -569.07788 6253.2495 265472
-2298.9177 -587.6521 6457.3506 133888
-2260.5269 -587.6521 6457.3506 529920
-2158.6929 -570.87427 6272.9893 530432
-2101.425 -565.49939 6213.9282 334592
-2064.4814 -565.49939 6213.9282 2769937
-2022.8932 -564.20398 6199.6934 1978379
-2011.5935 -571.46497 6279.48 1847563
-2038.9148 -590.17969 6485.125 1536
-2000.3589 -590.17969 6485.125 1792
-1927.7549 -579.93683 6372.5718 1254921
-1889.868 -579.93683 6372.5718 1585672
-1853.7599 -580.49371 6378.6914 1321476
-1957.5713 -625.80402 6876.5786 4086308
-1922.5492 -627.71765 6897.6064 1256711
-1816.0001 -605.85199 6657.3379 924929
-1852.7413 -631.88141 6943.3594 3097365
-1802.9092 -628.89825 6910.5791 4084260
-1764.1783 -629.73865 6919.814 332032
-1763.8671 -644.66095 7083.7861 1057025
-1712.3254 -641.13141 7045.002 661504
-1679.637 -644.66095 7083.7861 2175755
-1649.3708 -649.32568 7135.0439 1650181
-1539.1959 -621.94769 6834.2036 728832
-1518.6741 -630.29358 6925.9121 1585154
-1516.6941 -647.01465 7109.6494 1585920
-1503.9742 -659.98151 7252.1343 1980164
-1448.3917 -654.34943 7190.2466 3362838
-1373.8881 -639.56659 7027.8076 1389056
-1349.8899 -648.1051 7121.6318 2837261
-1298.48 -643.6095 7072.2324 5141037
-1251.0848 -640.86963 7042.125 4351521
-1198.7721 -635.33374 6981.2949 2047234
-1161.7837 -637.81366 7008.5454 2112003
-1120.1158 -637.81366 7008.5454 5007400
-1079.4446 -638.40289 7015.0205 1980678
-1042.7565 -641.49011 7048.9434 2573327
-1011.8071 -648.51398 7126.1245 598273
-958.44257 -641.15692 7045.2827 2111504
-935.11548 -654.13953 7187.9399 335104
-908.47357 -665.93567 7317.561 2242835
-865.7843 -666.56372 7324.4619 1321733
-822.2384 -666.56372 7324.4619 1979152
-792.15521 -678.08783 7451.0938 1846289
-732.98047 -664.59979 7302.8813 768
-693.01721 -667.92914 7339.4658 463618
-647.05487 -665.53552 7313.1636 67072
-603.57611 -665.53552 7313.1636 1056013
-559.16602 -664.42889 7301.0039 792586
-517.25726 -666.3584 7322.2061 2048
-469.8291 -660.87866 7261.9927 1280
-433.3252 -671.2113 7375.5322 331520
-382.48856 -659.1701 7243.2183 332033
-336.97974 -654.42017 7191.0244 134656
-294.22711 -654.42017 7191.0244 2241816
-259.44287 -675.15662 7418.8843 1321225
-218.79561 -686.00519 7538.0928 1519111
-171.84444 -677.58649 7445.5845 1782027
-125.99426 -669.1731 7353.1348 795904
-82.23912 -668.85828 7349.6753 2177289
-38.543251 -668.85828 7349.6753 2242062
5.0725045 -658.45941 7235.4087 728320
47.67543 -652.79633 7173.1802 2048
93.515625 -675.87817 7426.8125 68608
138.10583 -678.01733 7450.3188 134400
181.30064 -673.9306 7405.4126 1319690
224.44955 -671.30365 7376.5464 1451533
267.91925 -670.33807 7365.936 662018
311.71179 -670.33807 7365.936 1057029
358.25949 -675.5332 7423.022 2109973
403.60275 -677.56671 7445.3672 530435
445.44867 -673.90729 7405.1562 528645
505.0108 -695.29779 7640.2036 198912
579.62463 -732.17096 8045.3804 265472
594.29712 -693.47754 7620.2017 134400
633.37994 -686.73212 7546.0801 2304
683.29114 -691.84283 7602.2393 858626
723.10706 -686.73212 7546.0801 2044685
783.64972 -700.75262 7700.1431 2177290
794.30835 -671.08032 7374.0928 4084772
834.68719 -668.30835 7343.6323 1650944
878.34717 -668.30835 7343.6323 4941100
941.36377 -682.33881 7497.8052 3559697
1028.7256 -711.94916 7823.1753 3099657
1052.6714 -697.00806 7658.9966 3691028
1139.967 -723.51276 7950.2407 2308365
1136.8347 -692.79919 7612.748 465664
1220.0159 -715.02405 7856.9629 1781009
1295.1531 -731.06915 8033.2729 596483
1342.9131 -731.06915 8033.2729 136192
1372.4471 -721.48785 7927.9902 2702877
1413.1615 -718.22504 7892.1372 926723
1475.407 -725.76337 7974.9707 1584649
1546.546 -737.07074 8099.2207 465664
1610.455 -744.35358 8179.2476 465664
1606.723 -720.86212 7921.1143 4084269
1654.9574 -721.3595 7926.5796 991489
1681.3101 -712.55566 7829.8398 2570776
1727.8606 -712.55566 7829.8398 1320199
1785.4501 -716.98865 7878.5508 1254152
1894.0588 -741.15912 8144.1455 1517322
1842.2308 -702.90948 7723.8438 134144
1977.2164 -736.06604 8088.1812 1780496
2025.3029 -736.06604 8088.1812 464640
2094.7888 -743.66302 8171.6597 925956
2042.2117 -708.56464 7785.9844 465664
2191.9543 -743.66302 8171.6597 1388038
2285.4983 -758.58618 8335.6406 2309898
2344.5244 -761.66217 8369.4414 3625755
2240.2908 -712.67462 7831.147 1321992
2444.0417 -761.66217 8369.4414 1650955
2346.1008 -716.55139 7873.7466 2816
2361.4719 -707.13666 7770.2935 860418
2407.6685 -707.13666 7770.2935 1387526
2664.6592 -767.88177 8437.7842 1320965
2795.5227 -790.70715 8688.5986 1649933
2764.9893 -767.88177 8437.7842 2816
2898.835 -790.70715 8688.5986 1386248
2882.0381 -772.36237 8487.0186 2176784
2932.4958 -772.36237 8487.0186 1979657
3005.5012 -778.2005 8551.1709 1650694
3041.8364 -774.50751 8510.5908 1519104
3092.4341 -774.50751 8510.5908 3229724
3294.4119 -811.81055 8920.4912 2304
3528.2429 -855.65662 9402.2891 992004
3610.6682 -861.98938 9471.875 3164452
3887.531 -913.8335 10041.559 529926
3771.5601 -873.16351 9594.6611 1123084
3891.0085 -887.39594 9751.0527 3821108
3967.6643 -891.59436 9797.1865 133888
4006.9541 -887.39594 9751.0527 726790
4086.3418 -892.07098 9802.4238 660745
4224.8364 -909.33643 9992.1436 1024
4284.2427 -909.33643 9992.1436 1024
4387.4004 -918.49579 10092.79 1024
4325.3042 -893.27911 9815.6992 1536
4457.8179 -908.39038 9981.748 793865
4442.0186 -893.27911 9815.6992 1980440
4520.7627 -897.32568 9860.165 1257740
4467.2529 -875.35382 9618.7295 797699
0 0 0 0
0 0 0 0
0 0 0 0
0 0 0 0
0 0 0 0
0 0 0 0
0 0 0 0
0 0 0 0
0 0 0 0
0 0 0 0
0 0 0 0
0 0 0 0
0 0 0 0
0 0 0 0
0 0 0 0
0 0 0 0
0 0 0 0
0 0 0 0
848.61908 -133.75412 1469.7424 256
857.35706 -133.75412 1469.7424 256
868.98938 -134.2011 1474.6539 256
878.37671 -134.2959 1475.6957 256
887.13104 -134.293 1475.6639 855820
886.38452 -132.86603 1459.9838 1776922
890.64276 -132.20964 1452.7711 2961196
892.2713 -131.17926 1441.4489 3553333
894.66602 -130.28004 1431.568 4079677
902.763 -130.22032 1430.9117 4408642
905.09021 -129.33722 1421.2078 5000779
909.81403 -128.80974 1415.4116 6053467
931.61761 -130.68788 1436.0494 5724502
940.15527 -130.68788 1436.0494 6054235
959.90363 -132.23221 1453.0192 6516069
0 0 0 0
0 0 0 0
0 0 0 0
0 0 0 0
0 0 0 0
6864.7749 -897.21533 9858.9521 725259
7029.6196 -910.98199 10010.226 2048
7183.6567 -923.12854 10143.697 512
7243.9644 -923.12854 10143.697 1844768
7304.271 -923.12854 10143.697 923664
7469.7349 -936.30969 10288.536 1517085
7660.271 -952.39386 10465.275 464909
7722.4897 -952.39386 10465.275 2044965
7667.1006 -938.00549 10307.171 2242344
7553.6494 -916.79822 10074.137 2374697
7613.543 -916.79822 10074.137 3427383
7757.6274 -926.85712 10184.667 4479045
7767.8213 -920.88727 10119.068 397320
8246.9688 -970.17688 10660.683 2561
8005.2476 -934.55835 10269.292 1024
7899.3643 -915.2171 10056.763 1280
7506.6138 -863.17981 9484.957 1536
7539.4854 -860.49554 9455.4609 3955272
7569.5913 -857.53772 9422.959 7309165
8205.1094 -922.70496 10139.042 5664853
8058.3452 -899.59161 9885.0635 6848613
8067.1172 -894.05048 9824.1758 6782561
8098.0244 -891.02472 9790.9268 4545343
8039.8394 -878.30914 9651.2041 3163180
8072.7188 -875.65173 9622.0029 2505253
8332.4766 -897.46802 9861.7285 3690042
8625.4043 -922.52716 10137.089 4808269
8679.29 -921.8493 10129.64 4413259
8739.5127 -921.8493 10129.64 2374445
9050.418 -948.11041 10418.207 2966327
9112.3574 -948.11041 10418.207 4611665
9266.375 -957.62616 10522.77 3427391
9235.8994 -948.07581 10417.827 5006166
9565.7061 -975.38977 10717.964 6913649
9359.7725 -948.07581 10417.827 7701880
9377.4668 -943.62378 10368.906 7372145
9754.6973 -975.17261 10715.577 5726293
9735.1826 -966.90698 10624.751 3028269
10027.087 -989.47888 10872.78 2370339
10224.094 -1002.4571 11015.39 2699047
10587.441 -1031.4758 11334.259 2304546
10693.669 -1035.236 11375.577 3423028
11042.312 -1062.2694 11672.63 2830891
11777.433 -1125.9119 12371.959 3292212
11181.105 -1062.2694 11672.63 2305061
10640.658 -1004.6879 11039.903 1713181
10467.956 -982.32208 10794.139 3884349
0 0 0 0
0 0 0 0
0 0 0 0
0 0 0 0
0 0 0 0
0 0 0 0
0 0 0 0
-4706.856 -452.315 5317.6079 1792
-4720.7407 -456.71692 5369.3589 69120
-4680.833 -455.93912 5360.2144 465154
-4669.6597 -457.96869 5384.0752 1189127
-4674.7993 -461.63715 5427.2031 1517581
-4674.6206 -464.82788 5464.7144 1650189
-4647.1973 -465.33511 5470.6782 331523
-4655.3364 -469.43561 5518.8848 1792
-4598.5156 -466.99734 5490.2197 1536
-4540.9854 -464.45166 5460.2915 67840
-4508.0039 -464.39822 5459.6636 1792
-4509.228 -467.89331 5500.7534 332544
-4595.8955 -480.37018 5647.4365 512
-4557.4609 -479.85855 5641.4219 1280
-4573.7324 -485.14215 5703.5376 1280
-4498.1836 -480.69238 5651.2246 1280
-4465.4482 -480.78522 5652.3159 1024
-4478.8994 -485.89005 5712.3306 133888
-4444.938 -485.89005 5712.3306 68096
-4410.9766 -485.89005 5712.3306 397824
-4419.9487 -490.65607 5768.3618 1536
-4373.3276 -489.27704 5752.1494 1280
-4292.1724 -483.98218 5689.9004 1536
-4258.3442 -483.98218 5689.9004 1280
-4251.5957 -487.08453 5726.373 3072
-4217.5508 -487.08453 5726.373 1518089
-4174.7773 -486.06827 5714.4258 1057797
-4228.3188 -496.34125 5835.1992 2899996
-4193.627 -496.34125 5835.1992 2560
-4158.9351 -496.34125 5835.1992 1057799
-4061.0044 -488.73062 5745.7256 1280
-4033.0632 -489.48535 5754.5986 69120
-3998.8503 -489.48535 5754.5986 69888
-4007.7954 -494.81375 5817.2412 134400
-4020.6479 -500.72153 5886.6953 1536
-4015.3425 -504.45184 5930.5508 1647891
-3766.8328 -477.42355 5612.7944 68352
-3917.3135 -500.93375 5889.1904 135168
-3882.3005 -500.93375 5889.1904 1536
-3847.2876 -500.93375 5889.1904 1536
-3845.5037 -505.30002 5940.5225 661253
-3906.6951 -518.09894 6090.9917 2175004
-3739.3572 -500.5466 5884.6392 264450
-3653.9473 -493.73315 5804.5376 1280
-3631.0728 -495.32031 5823.1968 2816
-3596.4524 -495.32031 5823.1968 1024
-3596.0786 -500.08282 5879.1865 198913
-3561.125 -500.08282 5879.1865 593159
-3542.5198 -502.40128 5906.4438 464130
-3507.4043 -502.40128 5906.4438 2304
-3481.1738 -503.68686 5921.5571 1536
-3525.8455 -515.36224 6058.8179 1024
-3566.3721 -526.6665 6191.7158 1383950
-3462.5889 -516.67328 6074.231 529156
-3333.9397 -502.71982 5910.1885 199424
-3318.8369 -505.77304 5946.0835 1450253
-3312.1362 -510.18625 5997.9668 2109968
-3399.6023 -529.35834 6223.3623 531456
-3199.5098 -503.68347 5921.5176 530944
-3164.4824 -503.7117 5921.8496 3840
-3129.0999 -503.68347 5921.5176 1189124
-3205.0918 -521.78625 6134.3413 860160
-3096.0198 -509.83075 5993.7876 268288
-3161.5522 -526.6842 6191.9243 1254407
-3012.4807 -507.76266 5969.4741 1385990
-3086.5618 -526.45142 6189.187 1122820
-3013.522 -520.19501 6115.6343 201216
-2953.5369 -516.06696 6067.1025 793094
-2917.4663 -516.06696 6067.1025 68352
-2905.6865 -520.41748 6118.2495 924421
-2901.2183 -526.20453 6186.2842 398336
-2876.3896 -528.39978 6212.0933 68096
-2846.5022 -529.71088 6227.5068 398336
-2742.0378 -516.99542 6078.0186 1792
-2790.1104 -533.08441 6267.1675 3096606
-2699.5256 -522.75818 6145.7676 1451529
-2742.7358 -538.41321 6329.8149 396802
-2710.1143 -539.41052 6341.5405 1280
-2569.2722 -518.59241 6096.7935 768
-2483.4043 -508.43341 5977.3599 1536
-2447.8672 -508.43341 5977.3599 1536
-2492.8042 -525.39453 6176.7617 2307348
-2489.1067 -532.45911 6259.8159 2110734
-2451.8904 -532.45911 6259.8159 1650183
-2448.3425 -539.8833 6347.0981 1715723
