# .PCD v0.7 - Point Cloud Data file format
VERSION 0.7
FIELDS x y z rgb
SIZE 4 4 4 4
TYPE F F F U
COUNT 1 1 1 1
WIDTH 1306
HEIGHT 1
VIEWPOINT 0 0 0 1 0 0 0
POINTS 1306
DATA ascii
-4817.1084 388.77014 5592.417 925195
-4880.2129 396.60046 5705.0557 266754
-4983.418 407.82208 5866.4771 1280
-4914.1743 404.9899 5825.7363 1536
-4785.2344 397.16284 5713.145 1024
-4772.5039 398.93799 5738.6802 1280
-4789.146 403.21161 5800.1558 1280
-4752.2964 403.01102 5797.27 1536
-4717.8301 403.01102 5797.27 2560
-4637.166 399.03561 5740.0845 399106
-4689.7227 406.55008 5848.1797 397826
-4895.9585 427.59875 6150.9624 4545835
-4692.5664 412.91931 5939.8003 2439700
-4565.3296 404.76929 5822.563 728067
-4752.999 424.62808 6108.2295 1792
-4638.0005 417.54446 6006.3325 2304
-4680.3687 424.62808 6108.2295 1123077
-4742.7773 433.65488 6238.0791 1979404
-4711.5894 434.19849 6245.8989 1321479
-4601.2837 427.40173 6148.1284 2242835
-4584.6157 429.26349 6174.9097 531202
-4600.1885 434.19849 6245.8989 3072
-4460.9673 424.48438 6106.1621 3328
-4416.0527 423.65817 6094.2773 728583
-4379.8208 423.65817 6094.2773 925706
-4501.0366 439.01511 6315.1851 398340
-4262.373 419.2337 6030.6323 2560
-4226.519 419.2337 6030.6323 3328
-4184.4365 418.61063 6021.6689 1321225
-4148.6362 418.61063 6021.6689 2374677
-3997.3838 406.85974 5852.6338 3033373
-4188.1348 430.01776 6185.7598 2507285
-4124.1099 427.19522 6145.1577 1849870
-4090.8374 427.53616 6150.062 1520903
-4051.0405 427.19522 6145.1577 2046480
-4017.71 427.53616 6150.062 1257220
-3841.3491 412.52335 5934.1045 269056
-3806.0696 412.52335 5934.1045 532738
-3709.542 405.82288 5837.7192 5600306
-3739.8784 413.00586 5941.0449 665089
-3667.241 408.84561 5881.2002 1323008
-3669.0249 412.98203 5940.7026 1782531
-3657.1941 415.65155 5979.1035 1913867
-3676.1206 421.90347 6069.0366 1254661
-3586.0989 415.65155 5979.1035 1024
-3564.9077 417.33215 6003.2788 201216
-3481.1477 411.64801 5921.5127 530432
-3531.8181 421.90659 6069.0815 200704
-3384.4233 408.47211 5875.8276 2504220
-3510.7727 428.14059 6158.7568 200962
-3463.6299 426.84329 6140.0952 1024
-3592.8506 447.4841 6437.0112 1582865
-3359.9431 422.98129 6084.541 66817
-3228.6541 410.87701 5910.4224 135168
-3318.6138 426.9722 6141.9497 595461
-3282.0979 426.9722 6141.9497 1024
-3305.1453 434.80798 6254.6665 1536
-3330.6772 443.15268 6374.7041 1280
-3298.8826 443.97424 6386.5225 1536
-3260.9126 443.97424 6386.5225 199168
-3053.7368 420.66537 6051.2266 69376
-2981.8865 415.66464 5979.2915 596228
-2946.3379 415.66464 5979.2915 1650956
-2967.3638 423.74353 6095.5059 269312
-2992.1365 432.56387 6222.3853 3494162
-2894.885 423.74353 6095.5059 2836238
-2856.187 423.37915 6090.2637 1783304
-2806.0862 421.2934 6060.2603 1190658
-2802.5078 426.22885 6131.2568 1716741
-2766.0559 426.22885 6131.2568 663808
-2743.3665 428.37793 6162.1709 333824
-2683.3928 424.68439 6109.0396 398336
-2647.0728 424.68439 6109.0396 1386767
-2636.4692 428.86761 6169.2148 1792
-2599.7915 428.86761 6169.2148 1792
-2490.2278 416.67209 5993.7837 1280
-2545.5107 432.10556 6215.7925 332033
-2578.5186 444.1568 6389.1479 1280
-2530.7563 442.44748 6364.5601 1280
-2492.9175 442.44748 6364.5601 1024
-2448.4082 441.24542 6347.2681 1024
-2336.1963 427.61349 6151.1748 1780242
-2284.5608 424.81219 6110.8779 1979404
-2236.8083 422.65402 6079.833 1585677
-2192.7825 421.14072 6058.0645 2573078
-2156.7656 421.14072 6058.0645 1453831
-2158.5742 428.65216 6166.1157 267776
-2121.915 428.65216 6166.1157 2048
-2070.9124 425.70367 6123.7021 1536
-2035.4061 425.89218 6126.4141 3072
-1976.7285 421.15079 6058.2095 1649679
-1962.5598 425.89218 6126.4141 400128
-1986.2303 439.17972 6317.5532 136192
-1969.1423 443.79343 6383.9214 2835735
-1944.9595 446.95813 6429.4453 2309646
-1824.3857 427.65472 6151.7676 2440211
-1771.5365 423.76157 6095.7651 1255175
-1734.1735 423.48755 6091.8237 332800
-1724.3948 430.08173 6186.6797 266498
-1685.6322 429.57687 6179.4175 662275
-1644.6075 428.46017 6163.354 2048
-1627.7119 433.72205 6239.0454 860676
-1609.981 439.00159 6314.9907 861188
-1520.6438 424.54175 6106.9878 200704
-1514.4965 433.16809 6231.0767 464897
-1480.1837 433.96927 6242.6016 664066
-1448.1698 435.50296 6264.6641 3328
-1460.5269 450.81345 6484.9038 1980946
-1350.0544 428.01309 6156.9224 2374933
-1356.2791 441.96982 6357.6885 598787
-1338.2467 448.59558 6452.9995 203264
-1292.2791 445.9718 6415.2568 1651463
-1254.1385 445.9718 6415.2568 1125377
-1260.3212 462.22745 6649.0928 1979917
-1224.963 463.80731 6671.8188 1057540
-1135.1304 444.177 6389.4385 136448
-1097.1433 444.177 6389.4385 68864
-1032.0968 432.82907 6226.2002 332800
-1018.4715 443.00354 6372.5586 398336
-995.32104 449.66095 6468.3252 1792
-956.86517 449.66095 6468.3252 2048
-902.91602 442.07544 6359.208 1536
-849.22906 433.96082 6242.48 1536
-799.06769 426.98846 6142.1836 200193
-762.55072 426.98846 6142.1836 68352
-732.14563 430.58292 6193.8896 728323
-692.6969 428.95776 6170.5122 3072
-656.01147 428.95776 6170.5122 2048
-623.59558 431.91495 6213.0503 4348972
-588.56744 433.32129 6233.2808 796673
-549.71893 431.91495 6213.0503 4086561
-504.26437 424.7417 6109.8643 3232019
-484.59314 439.85794 6327.3096 1256192
-436.28528 429.33795 6175.9805 4614173
-399.56738 429.33795 6175.9805 4613667
-362.84946 429.33795 6175.9805 661249
-339.10892 446.42212 6421.7344 136192
-303.47983 450.2048 6476.1484 2816
-268.94681 456.94907 6573.1641 2045966
-235.48927 468.12448 6733.9204 1979403
-194.21275 465.15106 6691.1484 861185
-155.07794 467.09659 6719.1348 727553
-115.13081 467.09659 6719.1348 2177798
-73.680244 457.7561 6584.7725 3229972
-34.53194 457.7561 6584.7725 1453829
4.616365 457.7561 6584.7725 1057025
42.703991 446.66193 6425.1841 1255174
79.919098 441.22711 6347.0049 1254405
118.0282 442.63116 6367.2021 529408
160.67886 456.24911 6563.0947 134912
192.89981 440.71671 6339.6626 1913357
227.41196 434.64099 6252.2642 2044688
269.04578 441.97147 6357.7129 2375183
316.42557 455.77237 6556.2368 2308874
355.40424 455.77237 6556.2368 1782023
369.05957 426.5072 6135.2607 4480037
429.01801 451.20422 6490.5249 793091
470.02768 453.54095 6524.1382 464640
508.52649 453.28336 6520.4326 2308874
547.54431 453.4921 6523.4351 1124096
616.4939 476.82376 6859.0591 4284698
657.27289 476.82376 6859.0591 2903048
675.80988 461.63071 6640.5088 5140010
727.52216 469.52539 6754.0723 2967072
782.00909 478.2912 6880.1675 2048
810.79681 471.24863 6778.8613 2048
839.10248 464.60623 6683.311 3328
918.23578 485.43503 6982.9312 202240
951.27991 481.15027 6921.2954 333312
990.02985 479.98718 6904.564 1782027
1008.6678 469.55414 6754.4858 1913354
1064.2317 476.4516 6853.7051 465408
1124.8824 485.03369 6977.1582 1254923
1166.3635 485.03369 6977.1582 67840
1204.6749 483.7608 6958.8477 1792
1251.4128 485.84393 6988.813 925191
1292.3511 485.61392 6985.5044 859141
1279.0154 465.63922 6698.1704 136704
1292.4729 456.33057 6564.2666 3624224
1340.1593 459.29849 6606.96 1057027
1398.8606 465.76498 6699.9795 1320710
1454.1027 470.75345 6771.7383 2505237
1494.3627 470.75345 6771.7383 990210
1535.0624 470.8884 6773.6792 2636054
1574.6838 470.69415 6770.8853 2109456
1619.2371 471.94696 6788.9067 2560
1659.599 471.94696 6788.9067 67328
1695.7494 470.77774 6772.0874 1187848
1729.9829 469.14294 6748.5708 1252873
1739.7064 461.08615 6632.6753 329986
1774.1469 459.79227 6614.0625 67584
1878.2604 476.21957 6850.3682 924166
1917.9054 475.95099 6846.5039 264450
1909.7704 464.08279 6675.7817 1536
1949.4597 464.08279 6675.7817 1536
2006.285 468.08072 6733.2915 134144
2046.3163 468.08072 6733.2915 332800
2017.0015 452.52264 6509.4897 69376
2014.2715 443.40244 6378.2969 398336
2111.543 456.22592 6562.7617 68096
2160.2983 458.29184 6592.479 661504
2189.5779 456.22592 6562.7617 68608
2176.8232 445.62744 6410.3032 1056772
2217.292 446.10184 6417.1274 925701
2255.4436 446.10184 6417.1274 3030301
2396.4648 466.10986 6704.9404 265217
2444.093 467.59549 6726.3115 3072
2533.491 476.89594 6860.0972 924164
2574.2761 476.89594 6860.0972 133632
2615.0613 476.89594 6860.0972 989960
2688.5637 482.77081 6944.6064 1280
2797.7966 494.78683 7117.4556 201216
2849.5105 496.42419 7141.0093 662023
2887.9597 495.73654 7131.1172 1254664
2931.5869 495.9447 7134.1118 3886637
2974.0012 495.9447 7134.1118 265728
3016.4153 495.9447 7134.1118 530432
3065.9761 497.10339 7150.7793 67584
3113.1685 497.85165 7161.543 1054987
3147.1165 496.4903 7141.96 858884
3148.3176 490.06781 7049.5732 3840
3171.9167 487.2547 7009.1069 1254148
3163.1182 479.60229 6899.0283 201472
3161.1238 473.16431 6806.4185 69632
3278.7612 484.56955 6970.481 265728
3344.623 488.13361 7021.7495 333312
3298.0334 475.40024 6838.582 3328
3406.6594 485.07837 6977.8008 2044424
3449.4456 485.26141 6980.4341 1913350
3479.842 483.71793 6958.2305 1716483
3471.0225 476.82346 6859.0542 2638091
3385.1262 459.62381 6611.6396 2835468
3416.313 458.53372 6595.959 3229714
3675.4451 487.71585 7015.7402 2048
3820.3354 501.25375 7210.4819 1124098
3835.0996 497.60721 7158.0264 1913864
3904.9802 501.11362 7208.4663 1848326
3956.9019 502.26431 7225.0186 2112266
3999.8564 502.26431 7225.0186 1717508
4123.8354 512.33038 7369.8184 137984
4197.7769 516.03381 7423.0913 2836243
4125.6797 501.89432 7219.6963 5731391
4292.9028 516.85992 7434.9746 2635283
4337.106 516.85992 7434.9746 1536
4306.0322 507.97958 7307.2324 1536
4349.4761 507.97958 7307.2324 1024
4392.9194 507.97958 7307.2324 924935
4347.7866 497.83725 7161.3359 67584
4484.5718 508.51996 7315.0054 3426088
4424.312 496.86841 7147.3994 3492133
4410.8301 490.64203 7057.8335 2439189
4405.5342 485.43491 6982.9292 397312
4503.6968 491.61847 7071.8789 133120
4545.7407 491.61847 7071.8789 1714188
4587.7852 491.61847 7071.8789 2570263
4597.771 488.21432 7022.9106 858884
4774.7134 502.44016 7227.5483 266752
4824.2896 503.12912 7237.459 2304
4846.5659 500.98404 7206.6021 399616
4953.5835 507.55933 7301.1865 1190656
4867.5093 494.40744 7111.9985 2770956
4916.1064 495.0433 7121.145 3494417
5002.2495 499.41681 7184.0576 5072931
5245.3589 519.25482 7469.4258 4413717
5816.8262 570.99213 8213.6611 4872996
5938.1738 578.05115 8315.2041 2240520
6168.334 595.49847 8566.1816 2701070
7141.2803 683.78223 9836.1348 2043657
7478.168 710.22363 10216.491 3095832
7579.4609 714.04407 10271.447 4608046
7599.6479 710.22363 10216.491 1777427
7655.0239 709.72626 10209.337 855554
7528.9287 692.54431 9962.1758 723203
7505.9097 685.0379 9854.1973 854534
7611.8325 689.32477 9915.8633 985355
7493.125 673.35956 9686.2051 985355
7311.7212 652.04675 9379.623 1116941
7367.4854 652.04675 9379.623 1247501
7376.124 647.90729 9320.0771 1708050
7210.1035 628.60217 9042.375 918532
7265.7412 628.76471 9044.7129 1376772
7311.272 628.05658 9034.5273 2295821
6935.1294 591.40027 8507.2295 2491402
6985.707 591.40027 8507.2295 2622472
7036.2852 591.40027 8507.2295 2884616
7127.5176 594.79285 8556.0322 3014917
6892.1152 571.07288 8214.8223 3342599
6958.165 572.48889 8235.1914 3604744
7139.2202 583.28107 8390.4365 4063237
7189.1035 583.28107 8390.4365 4194565
7294.4175 587.74738 8454.6836 3866885
7357.8423 588.80048 8469.832 4194824
7442.9468 591.56232 8509.5605 3998730
7545.0908 595.63202 8568.1035 3736074
7572.1426 593.75891 8541.1582 3736844
7646.9707 595.63202 8568.1035 3933452
7595.7744 587.72925 8454.4219 4262415
7599.605 584.15997 8403.0791 4328465
7929.686 605.55157 8710.7949 4131856
7700.2954 584.21863 8403.9229 4395286
8033.2622 605.55157 8710.7949 5053732
8060.6016 603.72046 8684.4541 3738129
8358.3047 622.03326 8947.8828 3409166
8222.3271 608.04376 8746.6445 3277836
8146.8604 598.6767 8611.9004 3606288
7987.0527 583.26746 8390.2402 3542289
7886.9307 572.3811 8233.6416 6303289
7274.314 524.66516 7547.252 10119539
7082.3203 507.68585 7303.0068 9331051
0 0 0 0
0 0 0 0
0 0 0 0
0 0 0 0
0 0 0 0
0 0 0 0
-4981.1709 421.83405 5589.9707 1536
-5045.1685 430.12341 5699.8188 1024
-5087.2671 436.64539 5786.2451 1024
-4984.4556 430.73364 5707.9048 3072
-4950.5205 430.73364 5707.9048 1280
-4916.5854 430.73364 5707.9048 1280
-5005.3535 441.5582 5851.3472 133633
-4948.8101 439.62552 5825.7363 595462
-4914.1743 439.62552 5825.7363 662280
-4785.2344 431.12906 5713.145 1386256
-4772.5039 433.05603 5738.6802 531202
-4738.3857 433.05603 5738.6802 135680
-4754.6626 437.69516 5800.1558 463360
-4671.2925 433.16196 5740.0845 1713938
-4637.166 433.16196 5740.0845 1792
-4715.582 443.75259 5880.4268 728577
-4867.7808 461.49646 6115.5615 1451788
-4547.6841 434.39389 5756.4092 266752
-4565.3296 439.38602 5822.563 2304
-4632.9893 449.30469 5954.001 1024
-4608.5498 450.37564 5968.1929 2560
-4645.8491 457.54355 6063.1787 199168
-4699.7231 466.46869 6181.4507 1122057
-4715.7188 471.74521 6251.3735 530435
-4678.5527 471.74521 6251.3735 333313
-4637.3223 471.33209 6245.8989 2816
-4613.355 472.68112 6263.7759 1536
-4576.1152 472.68112 6263.7759 2304
-4416.0527 459.89032 6094.2773 1792
-4316.2065 453.21069 6005.7617 1536
-4501.0366 476.56061 6315.1851 69120
-4154.2319 443.54144 5877.6289 530434
-4150.0518 446.85394 5921.5244 1123849
-4066.9746 441.65527 5852.6338 2309138
-4070.7659 445.88174 5908.6416 2571288
-3997.3838 441.65527 5852.6338 3954219
-4214.1401 469.69226 6224.1689 1388546
-4138.1172 465.30499 6166.0298 202496
-4101.459 465.30499 6166.0298 2177812
-4051.0405 463.72989 6145.1577 2441743
-3862.9204 446.2197 5913.1201 730880
-3827.7654 446.2197 5913.1201 2768667
-3831.2805 450.76947 5973.4116 1257218
-3709.9502 440.57825 5838.3618 3164440
-3878.2642 464.91632 6160.8794 2178061
-3667.241 443.81094 5881.2002 598528
-3662.5825 447.51401 5930.2715 1321730
-3657.1941 451.19901 5979.1035 1452551
-3676.1206 457.9856 6069.0366 1189890
-3500.1755 440.38821 5835.8433 2505494
-3564.9077 453.02335 6003.2788 199937
-3430.7842 440.38821 5835.8433 2048
-3510.6494 455.2439 6032.7046 662273
-3474.7832 455.2439 6032.7046 2636829
-3500.1348 463.34787 6140.0952 1280
-3592.321 480.56354 6368.23 3952680
-3592.8506 485.75394 6437.0112 464129
-3257.6882 445.18182 5899.3667 2636568
-3222.6147 445.18182 5899.3667 66816
-3208.2659 448.07626 5937.7222 67840
-3282.0979 463.48782 6141.9497 727302
-3266.3325 466.45102 6181.2168 2304
-3374.9666 487.44882 6459.4712 332034
-3298.8826 481.94391 6386.5225 1979923
-3260.9126 481.94391 6386.5225 1914893
-3053.7368 456.6416 6051.2266 400641
-3017.7607 456.6416 6051.2266 3427876
-3045.0354 466.32806 6179.5879 69888
-2967.3638 459.98303 6095.5059 3584
-2938.5215 461.14383 6110.8887 264961
-2874.1221 456.68396 6051.7876 3163165
-2838.1426 456.68396 6051.7876 266752
-2756.3162 449.21201 5952.7725 1847305
-2723.4099 449.62222 5958.2085 2816
-2704.6545 452.41028 5995.1548 1255170
-2729.6035 462.68088 6131.2568 5336629
-2683.3928 461.0043 6109.0396 2440982
-2615.7234 455.54465 6036.6899 925958
-2579.8337 455.54465 6036.6899 2048
-2599.7915 465.54529 6169.2148 1536
-2582.4653 469.06018 6215.7925 3328
-2545.5107 469.06018 6215.7925 199169
-2537.5164 474.47525 6287.5508 1792
-2537.3999 481.54739 6381.2681 134400
-2499.4617 481.54739 6381.2681 1536
-2448.4082 478.98166 6347.2681 2560
-2336.1963 464.18396 6151.1748 727302
-2260.5908 456.30466 6046.7617 662787
-2236.8083 458.80032 6079.833 399108
-2233.5229 465.65131 6170.6191 332290
-2196.8369 465.65131 6170.6191 267521
-2106.9099 454.1745 6018.5332 4352
-2107.3196 462.11078 6123.7021 4096
-2144.4294 478.51562 6341.0923 69120
-2131.1711 484.0672 6414.6592 1320456
-1901.0698 439.67053 5826.333 858374
-1980.7725 466.60577 6183.2676 596483
-1966.8396 472.08511 6255.8774 2048
-1919.4307 469.58575 6222.7573 135424
-1882.4347 469.58575 6222.7573 69632
-1843.8213 469.17419 6217.3032 3624743
-1770.3909 459.70517 6091.8237 729088
-1734.1735 459.70517 6091.8237 2048
-1744.1771 472.21912 6257.6533 3328
-1706.9736 472.21912 6257.6533 2241302
-1642.5477 464.52054 6155.6348 1792
-1586.7358 458.96259 6081.9834 2375441
-1572.3148 465.39694 6167.249 3559457
-1535.6488 465.39694 6167.249 1059588
-1514.4965 470.21356 6231.0767 663810
-1485.4149 472.74814 6264.6641 3584
-1440.4055 470.21356 6231.0767 1388549
-1446.3333 484.6123 6421.8828 994054
-1401.3186 482.26013 6390.7129 3363616
-1369.9735 484.6123 6421.8828 4352
-1297.3671 472.08514 6255.8784 335104
-1299.8818 486.96048 6452.9995 3328
-1254.1385 484.1123 6415.2568 2243344
-1208.3978 481.08655 6375.1606 1585675
-1189.2195 488.7822 6477.1401 1453064
-1124.2673 477.54974 6328.2925 2304
-1096.5043 481.88315 6385.7173 68864
-1032.0968 469.84558 6226.2002 2560
-995.08038 469.84558 6226.2002 331264
-995.82892 488.36603 6471.6255 793097
-920.34821 469.48892 6221.4741 200960
-883.35986 469.48892 6221.4741 1280
-850.93011 472.0177 6254.9844 1280
-808.84534 469.17706 6217.3413 1024
-768.97003 467.40732 6193.8896 1024
-734.91772 469.17706 6217.3413 1024
-705.34357 474.1445 6283.168 1280
-692.85541 491.79538 6517.0698 2048
-641.93042 482.6384 6395.7256 1452552
-594.59497 475.19705 6297.1157 3362584
-547.9809 467.37091 6193.4067 3758876
-511.15939 467.37091 6193.4067 2639626
-484.59314 477.47556 6327.3096 4482337
-423.8082 452.72739 5999.3569 3034635
-388.14038 452.72739 5999.3569 2639623
-361.63327 464.49377 6155.2803 2902031
-332.64075 475.35779 6299.2461 2560
-300.92993 484.60114 6421.7344 1650700
-268.98346 496.09601 6574.0601 269312
-240.94041 519.92249 6889.7988 1715978
-194.21275 504.93179 6691.1484 2968335
-154.43202 504.93179 6691.1484 2310664
-115.13081 507.0437 6719.1348 4811303
-73.180588 493.53464 6540.1182 3889949
-34.127159 491.07971 6507.5859 1190659
4.5850592 493.53464 6540.1182 1980170
43.87677 498.17715 6601.6387 2900761
80.173416 480.48596 6367.2021 2110986
118.48436 482.34293 6391.8101 1452808
156.48544 482.34293 6391.8101 398337
194.48653 482.34293 6391.8101 2966547
231.24741 479.7699 6357.7129 1649414
269.04578 479.7699 6357.7129 2571274
309.71503 484.25867 6417.1963 3887643
349.75809 486.89111 6452.0811 3887901
383.29346 480.83939 6371.8857 4941350
426.47693 486.89111 6452.0811 3032596
470.02768 492.32877 6524.1382 2045968
508.52649 492.0491 6520.4326 3624733
555.70123 499.60928 6620.6167 2046468
616.4939 517.60278 6859.0591 2178307
660.28741 519.97668 6890.5171 3955223
687.36737 509.68021 6754.0723 1718016
723.02844 506.53204 6712.354 5073960
762.9353 506.53204 6712.354 7244875
802.84204 506.53204 6712.354 2048
851.099 511.55084 6778.8613 1057802
918.23578 526.9505 6982.9312 334336
959.75128 526.9505 6982.9312 992518
990.02985 521.03674 6904.564 1848331
1020.7149 515.79919 6835.1587 1716743
1072.1289 521.03674 6904.564 1453316
1137.1367 532.25061 7053.166 925701
1179.0697 532.25061 7053.166 398338
1220.2865 531.93835 7049.0283 1536
1255.9247 529.29584 7014.0103 1536
1280.4388 522.28571 6921.1157 134144
1288.7758 509.31891 6749.2847 1536
1328.9021 509.31891 6749.2847 67328
1412.579 525.521 6963.9878 2768412
1398.8606 505.59821 6699.9795 134144
1441.5427 506.5994 6713.2466 4216869
1497.2859 512.01294 6784.9849 1453318
1548.7507 515.7179 6834.0815 464640
1574.6838 510.94897 6770.8853 1385738
1595.9155 504.93027 6691.1279 67328
1635.6962 504.93027 6691.1279 1280
1695.7494 511.03967 6772.0874 198656
1736.0112 511.03967 6772.0874 1976853
1776.2732 511.03967 6772.0874 1450507
1838.2156 517.13892 6852.9126 1792
1878.958 517.13892 6852.9126 857604
1866.3665 502.77151 6662.5215 1792
1958.6097 516.65533 6846.5039 1024
1966.2539 508.11206 6733.2915 660484
2048.6409 518.83911 6875.4419 67072
2046.3163 508.11206 6733.2915 1024
2090.5825 509.14343 6746.959 768
2083.9263 497.96768 6598.8628 1024
2121.1045 497.48593 6592.479 1024
2162.3904 497.96768 6598.8628 1024
2189.5779 495.24341 6562.7617 1280
2099.4734 466.54962 6182.5239 1792
2214.5081 483.64542 6409.0698 1123080
2255.4436 484.25345 6417.1274 2373143
2383.835 503.306 6669.604 1384971
2423.4875 503.306 6669.604 2560
2533.491 517.68109 6860.0972 529666
2587.8562 520.41205 6896.2861 2240536
2615.0613 517.68109 6860.0972 1385483
2700.574 526.39948 6975.6289 1536
2786.6594 534.96405 7089.1235 267264
2860.2822 540.91656 7168.0034 68096
2894.6636 539.3822 7147.6704 3755562
2931.5869 538.35901 7134.1118 3821608
2974.0012 538.35901 7134.1118 2048
3016.4153 538.35901 7134.1118 1385483
3057.2021 538.07251 7130.3159 1055751
3113.1685 540.42902 7161.543 1280
3155.7458 540.42902 7161.543 1280
3189.5776 538.95123 7141.96 200448
3171.9167 528.92578 7009.1069 1280
3123.5195 514.10138 6812.6602 133888
3161.1238 513.63037 6806.4185 133376
3278.7612 526.01099 6970.481 1280
3344.623 529.87982 7021.7495 1536
3305.8948 517.2876 6854.8828 1536
3397.105 525.08655 6958.2305 596480
3438.4734 525.08655 6958.2305 2373905
3430.2434 517.60242 6859.0542 2242315
3352.282 499.89572 6624.4121 2111496
3363.5173 495.74689 6569.4341 662272
3424.4346 498.93185 6611.6396 2505486
3747.9766 539.87408 7154.1895 768
3820.3354 544.12207 7210.4819 597248
3862.1243 543.96997 7208.4663 992001
3881.2014 540.65753 7164.5708 926464
3923.7966 540.65753 7164.5708 136960
3946.7258 537.97681 7129.0474 1519109
4123.8354 556.14606 7369.8184 2046220
4153.8413 554.30322 7345.3979 466176
4125.6797 544.81738 7219.6963 3296283
4028.408 526.49463 6976.8901 4215334
4148.498 536.664 7111.6504 1536
4300.0493 550.65692 7297.0791 1536
4373.9258 554.52283 7348.3086 1280
4453.9355 559.08215 7408.7271 200704
4459.9639 554.35663 7346.106 2816
4509.5752 555.0874 7355.79 133121
4368.8696 532.60284 7057.8335 331010
4410.8301 532.60284 7057.8335 399106
4452.7915 532.60284 7057.8335 1584398
4529.0532 536.66736 7111.6948 1847569
4558.4941 535.15997 7091.7192 1123845
4639.0669 539.62793 7150.9272 1979154
4594.1865 529.55432 7017.4355 3840
4677.8936 534.3504 7080.9912 3072
4853.7231 549.49011 7281.6167 70144
4846.5659 543.82928 7206.6021 3584
4940.3062 549.49011 7281.6167 3584
4830.2896 532.58643 7057.6162 1255937
4916.1064 537.38049 7121.145 4217116
5121.7935 555.0838 7355.7422 4940321
5245.3589 563.66266 7469.4258 4940064
5538.6616 590.1842 7820.8784 3292431
5865.6582 619.82465 8213.6611 4147746
5995.1436 628.27686 8325.666 2171419
6669.2944 693.20288 9186.0391 1315078
7085.561 730.48761 9680.1211 3158304
7143.1123 730.48761 9680.1211 5195576
7411.8335 751.91022 9964.0049 4866613
7500.5894 754.88092 10003.371 4601902
7447.3232 743.62384 9854.1973 3548962
7451.7539 738.25854 9783.0986 3088416
7485.6353 735.87152 9751.4668 1773072
6794.959 662.84137 8783.7012 1839635
6847.1807 662.84137 8783.7012 1708049
6279.625 603.29797 7994.6562 1707537
6166.1196 587.94305 7791.1797 1968912
6212.4404 587.94305 7791.1797 1968653
6463.3657 607.16351 8045.8809 2230541
6511.2012 607.16351 8045.8809 2164492
6935.1294 641.97809 8507.2295 2295563
7124.1074 654.6969 8675.7744 2163463
7036.2852 641.97809 8507.2295 1966338
6790.2861 615.11212 8151.2124 2294531
6680.0918 600.84174 7962.1079 2359552
6940.9551 619.91229 8214.8223 5379096
7193.8862 638.01288 8454.6836 10885925
7244.1514 638.01288 8454.6836 12658997
7257.7729 634.80774 8412.2109 13515074
7357.8423 639.15594 8469.832 12989506
7442.9468 642.15399 8509.5605 10034733
7493.5381 642.15399 8509.5605 4918031
7495.2466 637.9931 8454.4219 4261901
7646.9707 646.57184 8568.1035 3737613
7595.7744 637.9931 8454.4219 1703936
7532.7964 628.54407 8329.207 1179905
7929.686 657.33972 8710.7949 4862513
7700.2954 634.18231 8403.9229 4929077
7980.7544 653.04309 8653.8584 4730927
8032.2041 653.04309 8653.8584 4663339
8192.5693 661.84192 8770.457 4663081
7670.6382 615.7583 8159.7759 3607827
8436.7891 673.00452 8918.3789 3738130
8335.042 660.7356 8755.7959 4000787
8387.0967 660.7356 8755.7959 4855325
7614.6768 596.18396 7900.3848 4394518
7661.647 596.18396 7900.3848 4789789
0 0 0 0
0 0 0 0
0 0 0 0
0 0 0 0
0 0 0 0
0 0 0 0
-4853.9995 443.44986 5447.2563 1024
-4947.9365 455.06796 5589.9707 1536
-4946.8125 458.04111 5626.4922 1536
-4984.4556 464.6687 5707.9048 1792
-4959.8223 465.54181 5718.6299 2048
-4925.8237 465.54181 5718.6299 135168
-4891.8247 465.54181 5718.6299 1122315
-4853.1665 465.09531 5713.145 860419
-4819.2002 465.09531 5713.145 925188
-4770.7017 463.68286 5695.7944 5072933
-4736.8384 463.68286 5695.7944 5599786
-4738.3857 467.17407 5738.6802 4152084
-4728.4302 469.57361 5768.1553 2309889
-4736.8115 473.8425 5820.5938 2968078
-4702.2061 473.8425 5820.5938 3823393
-4715.582 478.71335 5880.4268 729601
-4807.0405 491.64297 6039.2515 137472
-4547.6841 468.61734 5756.4092 3072
-4565.3296 474.00278 5822.563 3584
-4530.7129 474.00278 5822.563 1189386
-4604.5317 485.43466 5962.9897 1781779
-4602.291 488.9631 6006.3325 926469
-4657.271 498.67355 6125.6138 135936
-4624.979 499.1189 6131.0845 3425578
-4707.4453 512.0542 6289.979 398336
-4741.1479 519.84985 6385.7397 1451279
-4703.1836 519.84985 6385.7397 1024
-4576.1152 509.92105 6263.7759 1024
-4486.1514 503.99774 6191.0151 1024
-4379.8208 496.12253 6094.2773 397574
-4412.5366 503.99774 6191.0151 332546
-4210.5581 484.97327 5957.3223 793861
-4220.2373 490.21161 6021.6689 663045
-4113.7578 481.93152 5919.958 2374680
-4070.7659 481.01025 5908.6416 2112274
-4035.6375 481.01025 5908.6416 2046480
-4156.916 499.81619 6139.6504 1454341
-4008.1936 486.20364 5972.436 69632
-4087.575 500.26456 6145.1577 3165218
-4051.0405 500.26456 6145.1577 4864
-3862.9204 481.37488 5913.1201 71680
-3827.7654 481.37488 5913.1201 3034130
-3836.7102 486.97226 5981.8774 2178568
-3801.1465 486.97226 5981.8774 2177804
-3878.2642 501.54443 6160.8794 3072
-3834.1956 500.57306 6148.9473 4864
-3668.1345 483.50296 5939.2612 1792
-3632.824 483.50296 5939.2612 1519108
-3579.9768 481.14609 5910.3096 2769174
-3500.1755 475.08395 5835.8433 3033115
-3529.1038 483.80612 5942.9854 265729
-3466.6282 480.04752 5896.8149 70144
-3463.4062 484.50113 5951.5225 1583370
-3474.7832 491.10999 6032.7046 133120
-3459.6538 494.07135 6069.0815 133888
-3463.6299 499.85245 6140.0952 3493144
-3412.864 497.77237 6114.5439 4019999
-3259.5662 480.5321 5902.7676 1190656
-3222.6147 480.25522 5899.3667 1190145
-3208.2659 483.37766 5937.7222 2373399
-3206.562 488.49603 6000.5952 332802
-3217.8623 495.73291 6089.4917 2304
-3374.9666 525.85217 6459.4712 2177560
-3336.5635 525.85217 6459.4712 3231002
-3269.8677 521.34131 6404.0605 928259
-3091.1753 498.65726 6125.4136 2560
-3099.9028 506.0267 6215.9385 2571799
-3126.6226 516.54645 6345.1611 728832
-3049.9258 510.02908 6265.103 2816
-2938.5215 497.47479 6110.8887 2304
-2864.21 490.96439 6030.916 199680
-2807.3252 487.314 5986.0752 1792
-2756.3162 484.60287 5952.7725 68096
-2723.4099 485.04544 5958.2085 398592
-2704.6545 488.05316 5995.1548 859139
-2760.8794 504.85196 6201.5083 461570
-2724.0098 504.85196 6201.5083 1280
-2615.7234 491.43442 6036.6899 1792
-2579.8337 491.43442 6036.6899 1536
-2553.3386 493.24927 6058.9834 1536
-2563.5205 502.30273 6170.1938 332544
-2545.5107 506.0148 6215.7925 331523
-2552.7104 514.92139 6325.1992 989962
-2530.7563 518.12567 6364.5601 200704
-2494.0938 518.37024 6367.564 200448
-2446.1589 516.24329 6341.4375 464642
-2279.4941 488.60059 6001.8794 1057542
-2253.0098 490.60358 6026.4839 926720
-2217.1807 490.60358 6026.4839 2044692
-2233.5229 502.33734 6170.6191 1321224
-2196.8369 502.33734 6170.6191 71424
-2169.8079 504.58307 6198.2051 68608
-2076.1233 491.138 6033.0488 3840
-2144.4294 516.21521 6341.0923 728582
-2131.1711 522.2041 6414.6592 1716498
-1998.5222 498.62372 6125.002 2900513
-1962.1074 498.62372 6125.002 2816
-1995.6466 516.73706 6347.5029 2560
-1917.7484 506.13779 6217.3032 464130
-1842.2627 495.77109 6089.9609 1536
-1812.7059 497.59647 6112.3833 1024
-1776.366 497.59647 6112.3833 1280
-1734.1735 495.92273 6091.8237 69120
-1766.943 516.0719 6339.332 2373651
-1729.254 516.0719 6339.332 1849870
-1626.7766 496.30594 6096.5308 4021545
-1568.9911 489.58463 6013.9673 1453574
-1533.2363 489.58463 6013.9673 70656
-1534.1874 501.58514 6161.3794 465922
-1473.6398 493.57468 6062.9805 597507
-1485.4149 509.99332 6264.6641 1454341
-1448.1698 509.99332 6264.6641 3427870
-1439.3132 520.2547 6390.7129 69120
-1376.7899 511.14813 6278.8496 203008
-1350.9062 515.51599 6332.5034 334336
-1302.1309 511.14813 6278.8496 67840
-1275.6094 515.51599 6332.5034 1914125
-1236.0509 514.72064 6322.7334 729601
-1204.8507 517.46515 6356.4463 333824
-1189.2195 527.29059 6477.1401 1584649
-1150.7112 527.29059 6477.1401 1913617
-1086.0381 514.88605 6324.7651 1517582
-1032.0968 506.86206 6226.2002 135936
-1044.4574 532.01318 6535.1519 1452047
-955.46027 505.48465 6209.2803 528388
-920.34821 506.47733 6221.4741 1188106
-864.88751 495.88614 6091.374 1122572
-898.492 537.66681 6604.6001 1024
-848.54236 530.98157 6522.48 1536
-782.43488 513.06091 6302.3457 69376
-742.69873 511.49969 6283.168 332290
-707.49646 513.06091 6302.3457 134401
-681.34045 521.72382 6408.7593 1536
-641.93042 520.66278 6395.7256 201216
-594.59497 512.63513 6297.1157 2816
-547.9809 504.19244 6193.4067 728835
-511.15939 504.19244 6193.4067 1059331
-461.02359 490.04016 6019.563 664832
-418.87936 482.71521 5929.585 1321990
-402.43887 506.38699 6220.3643 2902804
-369.17459 511.53806 6283.6392 1981452
-332.64075 512.80859 6299.2461 1652226
-298.56229 518.66699 6371.21 3362843
-268.98346 535.1806 6574.0601 3231259
-235.48927 548.19452 6733.9204 861184
-194.21275 544.71252 6691.1484 1651716
-152.93958 539.44836 6626.4844 1256708
-115.55444 549.00348 6743.8579 1979657
-73.180588 532.41748 6540.1182 1536
-33.529354 520.48914 6393.5928 1781769
4.5850592 532.41748 6540.1182 464640
45.867725 561.81201 6901.1953 2110731
81.894875 529.4704 6503.917 2703122
118.48436 520.34406 6391.8101 2769680
156.45467 520.2417 6390.5527 3493913
194.44829 520.2417 6390.5527 3033110
232.44189 520.2417 6390.5527 1584902
264.11395 508.08075 6241.1704 5137714
302.3143 509.92755 6263.856 266752
347.86703 522.41071 6417.1963 136192
386.01907 522.41071 6417.1963 925699
426.47693 525.25055 6452.0811 1280
473.15219 534.64716 6567.5073 3840
518.46674 541.19086 6647.8887 594433
575.7149 558.38177 6859.0591 1979401
615.30377 557.30389 6845.8184 1254657
656.00409 557.30389 6845.8184 1849603
687.36737 549.83502 6754.0723 3165713
723.44885 546.75659 6716.2573 2047492
763.37891 546.75659 6716.2573 4218393
804.03003 547.24744 6722.2866 2241044
851.099 551.85309 6778.8613 1792
916.36694 567.30896 6968.7188 661765
963.33661 570.58954 7009.0166 2816
999.22888 567.30896 6968.7188 333312
1047.2571 570.9054 7012.8965 794372
1095.9556 574.57782 7058.0083 2177552
1137.1367 574.18365 7053.166 2242321
1187.2587 578.17151 7102.1519 2175509
1214.2244 570.99603 7014.0103 1792
1255.9247 570.99603 7014.0103 1536
1259.3026 554.13312 6806.8687 332546
1303.8053 555.85284 6827.9941 69632
1362.8911 563.49835 6921.9097 3840
1416.4487 568.47687 6983.0654 134912
1445.1964 563.49835 6921.9097 727553
1461.1671 553.95142 6804.6367 464129
1497.2859 552.35156 6784.9849 2816
1534.4292 551.20374 6770.8853 68352
1574.6838 551.20374 6770.8853 2816
1617.5304 552.08832 6781.7515 1451787
1637.8502 545.42816 6699.939 792836
1695.7494 551.30164 6772.0874 2437401
1759.1941 558.66376 6862.5225 66816
1792.6398 556.38129 6834.4854 1280
1833.2727 556.38129 6834.4854 67072
1869.1567 554.97131 6817.165 331009
1866.3665 542.38208 6662.5215 1792
1958.6097 557.35974 6846.5039 1536
2007.7645 559.71552 6875.4419 792583
2048.6409 559.71552 6875.4419 1280
2057.0925 551.02997 6768.75 1024
2094.9077 550.39227 6760.917 1024
2132.0564 549.60687 6751.269 1024
2142.7808 542.16461 6659.8501 1280
2163.2776 537.42017 6601.5698 1536
2167.9119 528.97437 6497.8232 2048
2148.5608 515.07416 6327.0762 1280
2214.5081 521.74915 6409.0698 1536
2307.8479 534.54291 6566.2266 67584
2383.835 542.95868 6669.604 1536
2423.4875 542.95868 6669.604 2048
2533.491 558.46631 6860.0972 1057035
2650.5142 575.00549 7063.2612 2637603
2659.1018 567.87152 6975.6289 1518095
2744.5127 577.11084 7089.1235 990725
2840.9275 588.34961 7227.1782 267264
2883.895 588.34961 7227.1782 1280
2894.6636 581.87708 7147.6704 1280
2901.0969 574.73297 7059.9141 768
2925.0564 571.21521 7016.7021 1280
2957.8855 569.50409 6995.6831 133888
2999.4768 569.50409 6995.6831 67840
3056.6101 572.41467 7031.436 3072
3138.1677 579.75885 7121.6514 727044
3125.7751 569.78192 6999.0962 266496
3144.0825 565.58978 6947.6006 529667
2996.45 532.04242 6535.5107 1318925
3075.5669 539.09961 6622.2007 133889
3255.6968 563.46069 6921.4473 1911058
3344.623 571.6261 7021.7495 792579
3395.8401 573.22473 7041.3872 2560
3397.105 566.45514 6958.2305 1536
3436.5288 566.13483 6954.2954 133632
3449.0432 561.44165 6896.646 2304
3396.865 546.45172 6712.5122 1846796
3385.1262 538.23987 6611.6396 199936
3552.4707 558.36414 6858.8423 3295260
3747.9766 582.40771 7154.1895 595201
3820.3354 586.99042 7210.4819 3328
3927.5129 596.76178 7330.5117 67328
3904.9802 586.82635 7208.4663 595712
3945.9136 586.54047 7204.9546 991233
3988.749 586.54047 7204.9546 399616
4135.3379 601.63513 7390.375 268032
4153.8413 597.97363 7345.3979 335104
4125.6797 587.74048 7219.6963 2442000
4152.0166 585.40204 7190.9707 4937773
4207.5176 587.18121 7212.8257 1536
4302.5332 594.38324 7301.2944 2816
4373.9258 598.21063 7348.3086 134144
4453.9355 603.12909 7408.7271 1280
4459.9639 598.03125 7346.106 529667
4509.5752 598.81964 7355.79 660998
4435.2603 583.29486 7165.0864 1280
4557.2183 593.63239 7292.0708 1792
4515.9365 582.71149 7157.9209 397827
4529.0532 578.94836 7111.6948 595714
4596.5527 582.14221 7150.9272 529409
4653.251 583.92206 7172.791 1536
4681.5811 582.14221 7150.9272 2304
4771.061 587.92963 7222.0195 1536
4845.895 591.82526 7269.8721 134400
4838.9336 585.75067 7195.2529 4352
4940.3062 592.78137 7281.6167 4352
4845.7607 576.38617 7080.2217 1453572
4916.1064 579.71765 7121.145 4282910
5062.2783 591.85754 7270.269 6914361
5442.604 630.93622 7750.3042 5268009
5518.6279 634.37854 7792.5894 5397555
5865.6582 668.65717 8213.6611 5131061
5914.4912 668.65717 8213.6611 6971991
6302.3579 706.67249 8680.6348 6378573
6438.3203 716.05408 8795.876 6246474
6134.5034 676.76746 8313.2861 6705742
6183.9282 676.76746 8313.2861 7035219
7220.313 783.92358 9629.5732 6969170
7332.3491 789.82501 9702.0645 6771793
7203.0088 769.83661 9456.5312 6048326
7259.23 769.83661 9456.5312 7297882
6181.4771 650.50354 7990.6655 8613486
6558.354 684.90027 8413.1885 7100501
6279.625 650.82843 7994.6562 7100245
6163.3521 633.97913 7787.6826 5783873
6209.6519 633.97913 7787.6826 4271147
6224.2817 630.76965 7748.2583 2955290
6155.9561 619.26239 7606.9053 1902602
6393.1567 638.43347 7842.3994 1705738
6455.7817 640.01965 7861.8838 1114626
6585.4175 648.17871 7962.1079 720896
6338.9136 619.46344 7609.375 655360
6245.0571 605.96667 7443.583 983040
6958.165 670.40991 8235.1914 1705222
7503.6836 717.91833 8818.7764 8063501
7554.6211 717.77649 8817.0342 11276830
7607.041 717.77649 8817.0342 13185594
7659.4609 717.77649 8817.0342 13584717
7531.9614 701.0307 8611.332 13520725
7521.3633 695.31799 8541.1582 11214640
7572.1426 695.31799 8541.1582 5309197
7622.6548 695.29364 8540.8584 3934990
7483.2773 678.06348 8329.207 1376256
7317.9399 658.72321 8091.6348 1048576
7003.2676 626.28094 7693.1196 2364179
7604.5522 675.63947 8299.4307 3220515
7633.1934 673.81207 8276.9834 3153952
7682.4019 673.81207 8276.9834 4139307
7546.9868 657.72205 8079.3364 4862517
7595.021 657.72205 8079.3364 3215381
8436.7891 726.02673 8918.3789 3280148
8335.042 712.7912 8755.7959 3673622
8615.3135 732.18658 8994.0449 2294020
7866.2329 664.40106 8161.3799 2753287
7457.8301 626.04468 7690.2173 4724768
0 0 0 0
0 0 0 0
0 0 0 0
0 0 0 0
0 0 0 0
0 0 0 0
-4981.1709 488.30188 5589.9707 1280
-5121.668 505.44708 5786.2451 463622
-5050.0215 501.74652 5743.8818 858379
-5015.8726 501.74652 5743.8818 726793
-5026.73 506.27942 5795.7734 793096
-4965.3213 503.54626 5764.4849 135168
-4891.8247 499.54068 5718.6299 2560
-4902.5635 504.14111 5771.2949 530435
-4996.1001 517.38074 5922.8589 5928496
-4866.3623 507.52258 5810.0049 4284695
-4855.0771 509.96539 5837.9697 3034630
-4762.7231 503.86688 5768.1553 4021014
-4728.4302 503.86688 5768.1553 2573316
-4750.4639 509.91299 5837.3701 2112515
-4676.1646 505.63165 5788.3584 3493916
-4686.0229 510.45425 5843.5664 1980428
-4807.0405 527.54797 6039.2515 596736
-4672.8354 516.67889 5914.8247 1519879
-4637.6699 516.67889 5914.8247 729346
-4602.5049 516.67889 5914.8247 4085802
-4604.5317 520.88629 5962.9897 597250
-4573.0674 521.34082 5968.1929 2770453
-4604.7739 529.06049 6056.5659 1454599
-4547.9468 526.6496 6028.9668 2572824
-4707.4453 549.44983 6289.979 1716237
-4741.1479 557.81488 6385.7397 1057544
-4666.6562 553.48267 6336.1455 1280
-4513.9717 539.73047 6178.7139 1792
-4477.2373 539.73047 6178.7139 1280
-4198.4956 510.31509 5841.9731 1056012
-4245.9761 520.39124 5957.3223 1714966
-4202.9668 519.453 5946.5815 397825
-4148.9536 517.12732 5919.958 267776
-4113.7578 517.12732 5919.958 334594
-4070.7659 516.13879 5908.6416 2901537
-4072.2649 520.8233 5962.2686 3757864
-4056.3542 523.34387 5991.1235 1851148
-4008.1936 521.71149 5972.436 796161
-3972.6858 521.71149 5972.436 2770200
-4064.7998 538.6225 6166.0298 4864
-3859.8152 516.11475 5908.3667 991238
-3827.9192 516.55078 5913.3579 1453832
-3836.7102 522.53619 5981.8774 202496
-3801.1465 522.53619 5981.8774 1058822
-3863.3064 536.09698 6137.1187 729090
-3834.1956 537.13025 6148.9473 268288
-3668.1345 518.81348 5939.2612 1189379
-3656.2368 522.15717 5977.5386 1781263
-3683.7576 531.25116 6081.6445 332800
-3564.4365 519.13879 5942.9854 4096
-3529.1038 519.13879 5942.9854 727044
-3466.6282 515.10571 5896.8149 3491107
-3463.4062 519.88458 5951.5225 200193
-3474.7832 526.97607 6032.7046 1583880
-3438.917 526.97607 6032.7046 3229724
-3437.6279 532.33051 6094.0005 727553
-3401.3975 532.33051 6094.0005 1650185
-3263.134 516.19006 5909.2285 69888
-3228.002 516.19006 5909.2285 267776
-3248.1731 525.13086 6011.5811 133377
-3255.738 532.20996 6092.6206 2372379
-3199.2827 528.86536 6054.332 1792
-3366.0728 562.76855 6442.4487 3295775
-3336.5635 564.25555 6459.4712 3428108
-3269.8677 559.41522 6404.0605 1322752
-3073.8613 532.07751 6091.1045 1652224
-3081.7749 539.80682 6179.5879 1323266
-3087.1736 547.27686 6265.103 4086559
-2935.9207 526.81982 6030.916 4349475
-2900.0654 526.81982 6030.916 663040
-2864.21 526.81982 6030.916 1255427
-2795.907 520.77612 5961.7285 463104
-2756.3162 519.99377 5952.7725 1280
-2772.3804 529.82733 6065.3447 1536
-2736.3201 529.82733 6065.3447 67840
-2737.8792 537.20868 6149.8452 1647379
-2695.9446 536.14038 6137.6152 1792
-2615.7234 527.32422 6036.6899 1792
-2579.8337 527.32422 6036.6899 2767897
-2518.2502 521.99829 5975.7202 2834202
-2517.3164 529.27161 6058.9834 398081
-2526.8372 538.98621 6170.1938 202240
-2552.7104 552.52643 6325.1992 69376
-2515.1052 552.52643 6325.1992 1452040
-2465.2373 549.79163 6293.8916 1848075
-2308.4316 522.75586 5984.3921 3098653
-2271.3955 522.42065 5980.5552 2111500
-2260.5908 528.20404 6046.7617 266496
-2261.9641 537.0658 6148.209 4217128
-2335.8906 563.72809 6453.4331 3584
-2196.8369 539.02338 6170.6191 795136
-2205.6765 550.38342 6300.6665 2560
-2060.4075 523.01685 5987.3799 68864
-2130.0586 550.2027 6298.5977 726789
-2119.7781 557.34552 6380.3667 3328
-1998.5222 535.03857 6125.002 1386001
-2043.912 557.34552 6380.3667 201216
-1995.6466 554.47473 6347.5029 1536
-1917.7484 543.10138 6217.3032 1792
-1842.2627 531.9776 6089.9609 68097
-1806.0562 531.9776 6089.9609 3072
-1776.366 533.93628 6112.3833 397315
-1723.5295 528.87421 6054.4336 924169
-1699.2677 532.55151 6096.5308 1792
-1729.254 553.76099 6339.332 135680
-1670.234 546.77795 6259.3921 3097890
-1605.9508 537.71442 6155.6348 397568
-1549.3546 530.86206 6077.1899 2304
-1539.2111 539.9787 6181.5552 199937
-1463.7494 526.06622 6022.2886 67584
-1465.709 539.9787 6181.5552 199424
-1392.1411 526.06622 6022.2886 1387014
-1391.2269 539.59863 6177.2041 1847561
-1401.3186 558.24927 6390.7129 1792
-1350.9062 553.16449 6332.5034 1057540
-1313.2578 553.16449 6332.5034 3328
-1275.6094 553.16449 6332.5034 1792
-1215.6747 543.20624 6218.5034 1583117
-1204.8507 555.25598 6356.4463 2048
-1167.0598 555.25598 6356.4463 1583116
-1130.5273 555.87476 6363.5298 2304
-1033.3582 525.68927 6017.9731 1792
-1046.3024 551.36444 6311.8965 135168
-1008.7764 551.36444 6311.8965 925190
-964.32153 547.43097 6266.8672 1792
-927.06323 547.43097 6266.8672 266753
-883.35986 543.46576 6221.4741 660230
-884.1358 567.71472 6499.0713 1536
-848.54236 569.75958 6522.48 1792
-808.8302 569.10223 6514.9551 727302
-742.69873 548.85486 6283.168 792071
-719.44232 559.82568 6408.7593 1536
-692.85541 569.28699 6517.0698 1280
-641.93042 558.68713 6395.7256 1280
-603.97864 558.75433 6396.4941 1792
-562.73254 555.578 6360.1328 68353
-531.36072 562.3952 6438.1743 2816
-472.91559 539.39172 6174.8359 1792
-436.20447 539.39172 6174.8359 400384
-407.54227 550.25934 6299.2461 730114
-371.10956 551.77301 6316.5742 1518349
-332.64688 550.26947 6299.3618 268033
-295.1954 550.26947 6299.3618 1280
-260.68365 556.54565 6371.21 1280
-227.59953 568.52179 6508.3105 1452558
-188.90584 568.52179 6508.3105 861952
-150.21211 568.52179 6508.3105 1388805
-113.54327 578.84467 6626.4844 3034132
-73.339493 572.54077 6554.3193 3823648
-35.674782 594.23743 6802.6968 1453573
4.6144047 574.95673 6581.9761 398592
45.867725 602.84155 6901.1953 530432
82.117523 569.68268 6521.5996 1188610
118.84848 560.06104 6411.4536 1321222
156.48544 558.34509 6391.8101 2834198
194.48653 558.34509 6391.8101 1057025
234.65076 563.5401 6451.2812 596736
273.0054 563.5401 6451.2812 662530
309.71503 560.56268 6417.1963 1584390
347.86703 560.56268 6417.1963 2965532
387.82098 563.17938 6447.1514 726535
434.10654 573.69281 6567.5073 1536
474.6517 575.51099 6588.3213 1280
526.30072 589.48895 6748.3379 4940085
566.42151 589.48895 6748.3379 3229975
604.10431 587.11957 6721.2134 2045701
640.56976 583.93445 6684.751 1058816
680.31244 583.93445 6684.751 466688
723.44885 586.68658 6716.2573 2177542
783.53485 602.17725 6893.5903 1914120
825.17981 602.65979 6899.1143 2110479
866.19696 602.65979 6899.1143 1648141
911.87646 605.75696 6934.5698 200448
960.24622 610.29602 6986.5322 1536
1004.1185 611.71875 7002.8193 1188367
1088.8492 636.92865 7291.4165 398592
1095.9556 616.53967 7058.0083 661507
1127.6176 610.95905 6994.1226 529412
1169.1995 610.95905 6994.1226 2048
1206.0739 608.58356 6966.9287 1280
1236.0924 603.02124 6903.2524 68352
1259.3026 594.60181 6806.8687 529409
1303.8053 596.4472 6827.9941 1280
1344.3997 596.4472 6827.9941 991236
1404.0438 604.651 6921.9097 1123333
1392.6467 582.66486 6670.2173 1848077
1441.5427 586.42365 6713.2466 2176531
1481.4548 586.42365 6713.2466 1978901
1514.5544 583.79773 6683.1855 464386
1577.2109 592.40771 6781.7515 662016
1617.5304 592.40771 6781.7515 859396
1651.1273 590.00555 6754.252 1253896
1718.3944 599.46332 6862.5225 595712
1780.7424 606.80615 6946.5811 332032
1809.4613 602.61633 6898.6172 924166
1833.2727 597.01422 6834.4854 134400
1807.2781 575.78711 6591.4819 2560
1909.6865 595.50122 6817.165 1792
2003.0748 611.6416 7001.936 1318670
2038.9407 609.91772 6982.2021 132608
2048.6409 600.59192 6875.4419 198657
2041.5298 586.79877 6717.5415 1024
2105.5977 593.6015 6795.417 1024
2135.103 590.58777 6760.917 1024
2142.7808 581.75928 6659.8501 1024
2162.3904 576.43182 6598.8628 2048
2183.4006 571.66101 6544.2471 134144
2172.8457 558.93738 6398.5898 1280
2309.916 583.97308 6685.1929 1024
2307.8479 573.58093 6566.2266 1450769
2469.863 603.63672 6910.2979 1536
2435.7461 585.55823 6703.3398 1280
2561.5117 605.87933 6935.9712 1280
2743.5527 638.65643 7311.1963 463362
2692.5073 616.99854 7063.2612 768
2807.8862 633.55695 7252.8184 1792
2851.0061 633.55695 7252.8184 134144
2893.6243 633.44708 7251.5605 66560
2924.2898 630.76227 7220.8252 1024
2883.3401 612.93146 7016.7021 1024
2902.7988 608.26746 6963.3101 1024
2933.5691 606.07159 6938.1724 768
3014.8062 614.21851 7031.436 660230
3056.6101 614.21851 7031.436 2560
3138.1677 622.09912 7121.6514 199937
3125.7751 611.39349 6999.0962 398080
3167.3865 611.39349 6999.0962 1845523
2996.45 570.89783 6535.5107 1055751
3127.1978 588.18152 6733.3706 463105
3255.6968 604.6106 6921.4473 2560
3353.9771 615.08777 7041.3872 134144
3398.8101 615.62573 7047.5459 2304
3395.1836 607.47998 6954.2954 199680
3312.4854 585.55267 6703.2759 1536
3321.019 580.08215 6640.6509 1056007
3316.7109 572.5235 6554.1206 266240
3436.7725 586.3595 6712.5122 398848
3639.4883 613.81787 7026.8496 1122819
3743.2944 624.16071 7145.252 2307090
3790.5103 624.94141 7154.1895 201216
3946.0359 643.36365 7365.0835 728320
3971.0952 640.34375 7330.5117 662016
3923.7966 625.84827 7164.5708 728578
3988.749 629.37592 7204.9546 1650185
4135.3379 645.573 7390.375 400128
4256.7891 657.54651 7527.4453 729088
4185.1567 639.75549 7323.7783 2966042
4154.0601 628.4635 7194.5098 133376
4225.6929 632.7851 7243.9824 2048
4268.7603 632.7851 7243.9824 1280
4311.8276 632.7851 7243.9824 2816
4417.6133 641.89832 7348.3086 1280
4492.5552 646.3952 7399.7876 199936
4634.7939 660.39374 7560.04 1121803
4513.8647 636.98578 7292.0708 200448
4557.2183 636.98578 7292.0708 67840
4559.5649 631.30811 7227.0742 792067
4576.2515 627.70337 7185.8076 1516811
4618.9731 627.70337 7185.8076 793090
4661.6948 627.70337 7185.8076 726530
4709.7734 628.41809 7193.9897 595969
4767.2969 630.36884 7216.3218 463872
4853.7231 636.07263 7281.6167 267264
4838.9336 628.52844 7195.2529 1189382
4940.3062 636.07263 7281.6167 203008
4839.5381 617.68591 7071.1299 137728
4887.855 618.48004 7080.2217 2440461
5062.2783 635.0813 7270.269 5795639
5284.2031 657.31018 7524.7402 1453061
5518.6279 680.70764 7792.5894 5595194
5704.6631 697.79669 7988.2202 3747617
5781.5825 701.36646 8029.0864 5589051
5871.2788 706.4151 8086.8818 5982787
5865.7729 700.02032 8013.6763 6575180
5962.1689 705.7915 8079.7437 6705997
5961.0601 700.02032 8013.6763 6771533
6233.353 726.1922 8313.2861 7495256
6629.8721 766.31097 8772.5566 7298134
6682.0278 766.31097 8772.5566 7232087
6791.5762 772.84198 8847.3223 7297624
6788.9771 766.60901 8775.9688 6902868
6813.332 763.49146 8740.2793 6179144
6279.625 698.35889 7994.6562 7033943
6163.3521 680.27905 7787.6826 7495007
6203.7075 679.62787 7780.2275 7692642
6224.2817 676.83527 7748.2583 7626849
6296.2183 679.62787 7780.2275 7956072
6393.1567 685.05878 7842.3994 7429728
6224.1206 662.11682 7579.7656 6508368
6258.2617 660.96326 7566.5596 6179147
6216.8999 651.90881 7462.9067 5455168
6245.0571 650.22089 7443.583 3347990
6678.6074 690.46826 7904.3267 2162688
7503.6836 770.34839 8818.7764 2686976
7556.1143 770.34839 8818.7764 5769731
7712.3486 780.85846 8939.0928 8592661
7857.8652 790.14679 9045.4238 9834506
7690.5342 768.06433 8792.6289 12794932
7299.0049 724.04028 8288.6514 11151910
7348.2837 724.04028 8288.6514 6555919
7223.5801 707.01178 8093.7124 2885126
7271.6997 707.01178 8093.7124 1114112
6957.5298 672.01868 7693.1196 917504
6614.207 634.6853 7265.7354 524288
6755.2451 644.01306 7372.5171 918276
6982.7935 661.41479 7571.7285 918276
7027.8096 661.41479 7571.7285 1246213
7053.022 659.56287 7550.5283 1705481
7479.4409 695.01587 7956.3862 2099210
7719.1509 712.78259 8159.7759 2953493
7767.6631 712.78259 8159.7759 3150615
8673.9688 791.00757 9055.2783 1835267
8727.8047 791.00757 9055.2783 983040
8609.8291 775.53168 8878.1133 4336684
0 0 0 0
0 0 0 0
0 0 0 0
0 0 0 0
0 0 0 0
0 0 0 0
-4853.9995 508.22079 5447.2563 1783305
-4865.3696 512.83276 5496.6895 335617
-4946.8125 524.94324 5626.4922 1387013
-4965.874 530.55359 5686.6265 2242319
-4959.8223 533.53949 5718.6299 531457
-4867.103 527.17914 5650.458 1518850
-4821.9019 525.91321 5636.8887 2242817
-4847.1001 532.36151 5706.0039 4414488
-4868.2515 538.45306 5771.2949 3954450
-4866.3623 542.06464 5810.0049 1321472
-4855.0771 544.67377 5837.9697 1586432
-4811.0962 543.62598 5826.7397 2704906
-4848.6602 551.84406 5914.8228 1191168
-4826.2656 553.30811 5930.5151 1914883
-4702.2061 543.05261 5820.5938 1190912
-4686.0229 545.19592 5843.5664 3822627
-4806.9897 563.44708 6039.188 1980675
-4705.3359 555.68237 5955.9634 3363093
-4637.6699 551.84418 5914.8247 2705419
-4602.5049 551.84418 5914.8247 3363350
-4624.6304 558.7663 5989.0176 2770959
-4589.0239 558.7663 5989.0176 1586688
-4538.1641 556.89447 5968.9551 1849091
-4547.9468 562.49347 6028.9668 2441485
-4598.502 573.26428 6144.4111 1322243
-4704.3262 591.15277 6336.1455 2373650
-4636.3765 587.31702 6295.0327 1058052
-4513.9717 576.46466 6178.7139 2308626
-4477.2373 576.46466 6178.7139 2966298
-4440.5034 576.46466 6178.7139 3822119
-4275.5928 559.68597 5998.8755 1914120
