# .PCD v0.7 - Point Cloud Data file format
VERSION 0.7
FIELDS x y z rgb
SIZE 4 4 4 4
TYPE F F F U
COUNT 1 1 1 1
WIDTH 1361
HEIGHT 1
VIEWPOINT 0 0 0 1 0 0 0
POINTS 1361
DATA ascii
-1373.5576 740.66956 2787.4946 3041315
-1326.3104 723.9267 2724.4832 3370534
-1310.1125 723.9267 2724.4832 2976028
-1297.1592 725.74188 2731.3147 3897644
-1293.4823 732.85895 2758.0996 2844697
-1284.4126 737.06409 2773.9255 2450197
-1264.9087 735.31311 2767.3357 2647320
-1240.2446 730.47668 2749.134 3370275
-1237.0646 738.3338 2778.7041 3107358
-1224.0067 740.42816 2786.5862 4094511
-1222.809 749.85291 2822.0562 5344578
-1194.1985 742.49603 2794.3687 2712344
-1177.5852 742.49603 2794.3687 3238687
-1160.9719 742.49603 2794.3687 2778392
-1146.7338 744.03711 2800.1685 2187025
-1056.0261 695.27692 2616.6604 5081917
0 0 0 0
0 0 0 0
0 0 0 0
0 0 0 0
-1073.9166 763.27655 2872.5757 3173660
-1081.4224 781.0318 2939.397 3042074
-1067.2782 783.47729 2948.6008 4950328
-1038.8636 775.35382 2918.0281 4555058
-1019.5225 773.84125 2912.3357 5607491
-985.61578 761.02997 2864.1208 5343811
0 0 0 0
0 0 0 0
0 0 0 0
0 0 0 0
-816.93829 690.42889 2598.415 4093747
-801.48993 690.42889 2598.415 5080641
-811.99988 713.22961 2684.2251 5475913
-796.04144 713.22961 2684.2251 3962931
-780.08295 713.22961 2684.2251 4160056
-747.65265 697.85486 2626.3625 3567920
-732.03815 697.85486 2626.3625 4752451
-732.77679 713.78406 2686.3118 3435820
-729.89404 726.81708 2735.3611 3896373
-713.63159 726.81708 2735.3611 2449183
-668.85913 697.10321 2623.5337 3172904
-654.93048 698.88422 2630.2363 3567405
-646.90942 707.21057 2661.5725 4093749
-631.08563 707.21057 2661.5725 3764528
-620.74054 713.508 2685.2727 4027700
-623.98053 736.16553 2770.5439 4488250
-602.16571 729.69073 2746.1763 3961651
-582.8609 725.98151 2732.2166 4225333
-569.51215 729.69073 2746.1763 4488505
-553.1626 729.66077 2746.0632 3238694
-542.89893 737.90076 2777.0742 4949055
-533.33417 747.63739 2813.718 5936722
-519.45007 751.7536 2829.2092 5739344
-502.62961 751.7536 2829.2092 5870926
-481.33005 744.82245 2803.124 4489524
-435.82953 698.60187 2629.1738 3173919
-419.98947 698.25452 2627.8667 2516245
-413.25662 713.60663 2685.644 2516503
-397.2897 713.60663 2685.644 1792780
-381.32281 713.60663 2685.644 2318868
-360.30557 703.74237 2648.52 2384405
-348.41135 711.6098 2678.1289 2779163
-336.06186 719.25635 2706.9065 2252819
-325.07462 730.73438 2750.1038 1989904
-302.73343 716.55383 2696.7356 2384406
-287.88199 719.50653 2707.8479 3041826
-271.78308 719.50653 2707.8479 3897137
-251.10101 706.60931 2659.3096 3962417
-235.29068 706.60931 2659.3096 4488506
-223.0031 717.95068 2701.9927 4488506
-206.939 717.95068 2701.9927 3765808
-186.80403 702.63861 2644.366 2976034
-169.33478 695.46057 2617.3516 3108387
-156.71591 708.76617 2667.427 2384663
-137.37856 691.26172 2601.5493 2845212
-125.87431 713.7309 2686.1116 1266180
-109.90462 713.7309 2686.1116 1924110
-94.947754 721.42639 2715.0735 1661193
-76.704147 702.18604 2642.6628 1726730
-62.208408 716.18103 2695.3328 2384660
-46.183903 716.18103 2695.3328 2845467
-29.773355 707.01392 2660.8323 3042335
-14.557967 737.61713 2776.0068 3239460
1.9312376 731.95898 2754.7126 3633708
18.308771 731.95898 2754.7126 3962415
33.828381 713.85486 2686.5781 3370023
49.800835 713.85486 2686.5781 4028207
67.904762 736.98834 2773.6404 3830824
84.622444 738.97601 2781.1211 3107352
101.15698 738.97601 2781.1211 3304728
114.59978 719.56317 2708.0613 2975764
126.44261 696.12457 2619.8506 2844183
146.80014 719.56317 2708.0613 2975004
158.51355 700.18597 2635.1355 3435303
181.1651 728.26471 2740.8093 3040548
207.34149 764.70941 2877.968 3303720
230.81456 786.38727 2959.5525 3829809
241.56213 764.70941 2877.968 3764017
260.24496 769.35815 2895.4636 3829812
277.45932 769.35815 2895.4636 4422208
293.54123 766.40161 2884.3367 4092987
308.0217 759.82098 2859.5706 3237678
311.05588 727.1701 2736.6897 3303471
327.32623 727.1701 2736.6897 3434801
342.29797 724.42169 2726.3462 4158783
369.65353 746.94537 2811.1135 3171887
386.36639 746.94537 2811.1135 4223805
395.54388 732.98157 2758.561 3894839
423.01083 752.67255 2832.6677 4157500
436.50168 746.93976 2811.0925 4354881
455.35574 750.46893 2824.3743 5342033
480.84528 764.29395 2876.4045 5473362
488.93912 750.46893 2824.3743 4618309
507.74332 753.45532 2835.6135 4355391
524.60187 753.45532 2835.6135 4223803
542.99121 755.58563 2843.6309 4815936
559.8974 755.58563 2843.6309 2776609
584.71973 765.95532 2882.6572 3040039
604.56268 769.39752 2895.6118 3566125
605.94867 749.81024 2821.8955 3303208
623.69989 750.98334 2826.3103 3698477
640.50311 750.98334 2826.3103 3435049
657.30627 750.98334 2826.3103 4158772
667.61133 743.74408 2799.0657 3566123
714.23743 776.336 2921.7246 3960881
730.61023 775.27734 2917.7405 4158257
737.14856 764.0741 2875.5771 2842651
746.91638 756.65033 2847.6379 3171615
763.84637 756.65033 2847.6379 3434787
793.77863 769.25079 2895.0596 2975005
816.80945 774.7702 2915.8318 3041055
841.65863 781.74921 2942.0969 3567141
856.56244 779.39447 2933.2351 3106589
874.00134 779.39447 2933.2351 3238175
853.04907 745.82874 2806.9111 3040794
886.97839 760.61389 2862.5547 3765029
903.99713 760.61389 2862.5547 3370015
911.99036 753.16028 2834.5032 3370012
925.10864 750.13281 2823.1094 2974998
945.69415 753.16028 2834.5032 4422187
987.80225 772.92236 2908.8774 4487723
1061.9991 816.68079 3073.5615 4421673
1081.7162 817.7724 3077.6697 3171863
1110.9991 825.93915 3108.405 4224295
1120.7494 819.55524 3084.3792 4224551
1127.8679 811.48328 3054.0007 4750636
1119.4148 792.64124 2983.0889 4027423
1099.2323 766.21088 2883.6189 4224802
1154.8855 792.64124 2983.0889 5474869
1153.2372 779.53876 2933.7783 4422180
1184.475 788.72516 2968.3508 3895577
1208.0038 792.5838 2982.8728 3830038
1228.6172 794.44562 2989.8799 4487967
1246.3928 794.44562 2989.8799 4092696
1264.2439 794.49292 2990.0579 3500560
1282.0205 794.49292 2990.0579 4224284
1314.7181 803.61322 3024.3818 4487455
1282.0314 773.06085 2909.3987 4092697
1350.6797 803.61322 3024.3818 3895574
1345.4408 789.97968 2973.0725 4027160
1349.501 782.08893 2943.3757 4224284
1435.3967 821.21997 3090.6448 4750886
1384.4994 782.08893 2943.3757 4619043
1432.4316 799.06567 3007.2673 4487200
1450.3107 799.06567 3007.2673 4224287
1421.9586 773.9043 2912.573 6263616
1432.203 770.10187 2898.2627 4947496
1423.0605 756.08936 2845.5266 4750117
1450.8064 761.77496 2866.9246 5407539
1480.9449 768.57037 2892.4988 6262593
1582.7219 811.96143 3055.8 4881450
1552.2782 787.30597 2963.01 5013806
1569.894 787.30597 2963.01 4684584
1542.3685 764.91864 2878.7556 4552999
1559.4835 764.91864 2878.7556 3566360
1603.0428 777.74866 2927.041 3500823
1613.6598 774.49207 2914.7849 3566873
1688.7158 801.90424 3017.9502 4488231
1662.2812 781.05286 2939.4763 2843149
1753.5873 815.38239 3068.6748 2908685
1721.9784 792.44037 2982.333 4355877
1739.7092 792.44037 2982.333 4224295
1795.015 809.38312 3046.0969 4092710
1813.1249 809.38312 3046.0969 4290346
1831.2349 809.38312 3046.0969 3829540
1767.2853 773.46912 2910.9351 3895847
1829.668 793.00586 2984.4612 3106073
1847.4113 793.00586 2984.4612 2777108
1865.1548 793.00586 2984.4612 2711315
1866.2158 785.9798 2958.0188 2843158
1883.802 785.9798 2958.0188 3500831
1891.3555 781.83252 2942.4106 3501087
1879.0197 769.61499 2896.4302 3435294
1896.2399 769.61499 2896.4302 3435037
1919.4976 772.04346 2905.5696 3172121
1953.1667 778.5788 2930.1653 3895586
1934.9608 764.50269 2877.1902 2842898
1940.2457 759.87323 2859.7673 3435036
1957.2479 759.87323 2859.7673 3302937
2019.0371 777.11145 2924.6431 3566109
1977.5701 754.65216 2840.1179 3105815
1979.5807 749.02386 2818.936 3500574
1996.3401 749.02386 2818.936 2908181
1980.4926 736.89172 2773.2769 3895332
2068.481 763.27563 2872.5723 3961381
2126.2029 778.15033 2928.553 4619312
2180.9814 791.71509 2979.6035 4816177
2198.6958 791.71509 2979.6035 3105560
2306.4795 823.88831 3100.6868 3040023
2291.4937 812.04504 3056.1147 3302938
2301.7642 809.26782 3045.6631 3105559
2242.8701 782.40649 2944.571 2908434
2220.2012 768.50037 2892.2354 2711313
2368.4705 813.52167 3061.6721 3172374
2414.1082 822.87323 3096.8665 2908946
2432.52 822.87323 3096.8665 2908946
2395.9053 804.39868 3027.3379 2975509
2413.9033 804.39868 3027.3379 2317322
2331.6895 771.25146 2902.5891 2514702
2348.9463 771.25146 2902.5891 3369243
2429.1279 791.7616 2979.7786 2974741
2457.4294 795.18701 2992.6702 2185225
2521.7502 810.13464 3048.9253 2843152
2539.8767 810.13464 3048.9253 2974739
2558.0037 810.13464 3048.9253 2909202
2638.6106 829.78333 3122.8726 3369496
2603.9939 813.17535 3060.3689 3435288
2596.637 805.25146 3030.5471 2777356
2614.6543 805.25146 3030.5471 4422179
2699.6731 825.745 3107.6743 3895579
0 0 0 0
2637.6917 795.89301 2995.3269 4487712
2655.4995 795.89301 2995.3269 4224027
2704.8491 805.28339 3030.6677 4619041
2734.9556 808.85846 3044.1223 4355870
2835.1882 832.98999 3134.9407 4421409
2794.6169 815.70758 3069.8989 3763225
2812.8684 815.70758 3069.8989 4421411
2828.2185 814.87177 3066.7529 4882217
2846.4512 814.87177 3066.7529 4026650
2818.2859 801.67358 3017.0823 4027421
2836.2234 801.67358 3017.0823 4816933
2746.5579 771.45026 2903.3372 4685345
2805.5264 783.0918 2947.1499 5474862
2823.0481 783.0918 2947.1499 5474604
2771.7119 764.10907 2875.7087 4421916
2803.1926 768.05005 2890.5405 4421915
0 0 0 0
0 0 0 0
0 0 0 0
0 0 0 0
0 0 0 0
0 0 0 0
0 0 0 0
0 0 0 0
0 0 0 0
0 0 0 0
0 0 0 0
0 0 0 0
-2041.9031 648.45056 2387.021 3567397
-2130.3853 681.28497 2507.8882 4093482
-2151.1477 692.77325 2550.178 3633186
-2165.4263 702.32172 2585.3269 3962408
-2121.9712 693.14777 2551.5564 4422702
-2106.8013 693.14777 2551.5564 3436064
-2075.1055 687.67114 2531.3962 3304475
-2060.0554 687.67114 2531.3962 3370270
-2052.1208 690.06378 2540.2039 3173404
-2052.8281 695.41937 2559.9185 3370782
-2003.5787 683.80524 2517.1655 3765540
-1956.9812 672.9281 2477.1257 3436320
-1942.254 672.9281 2477.1257 3436319
-1904.8715 665.0188 2448.0105 3962663
-1972.9487 694.08881 2555.0205 3830823
-1952.6556 692.27972 2548.3611 4752181
-1883.6481 673.03638 2477.5242 2909720
-1868.9185 673.03638 2477.5242 4489008
-1902.7339 690.65729 2542.3887 4291628
-1910.5767 699.05737 2573.3103 4028202
-1872.5035 690.65729 2542.3887 3567908
-1818.1687 676.07373 2488.7051 4422960
0 0 0 0
0 0 0 0
0 0 0 0
0 0 0 0
-1858.4557 720.36548 2651.748 4226608
-1842.6903 720.36548 2651.748 4686902
0 0 0 0
0 0 0 0
0 0 0 0
0 0 0 0
0 0 0 0
-1701.7072 701.24841 2581.376 2910748
-1780.8022 740.52081 2725.9421 3568677
-1671.3164 701.37573 2581.8445 3897639
-1646.8995 697.53534 2567.7078 3305501
-1637.2166 699.92206 2576.4934 2910489
-1622.059 699.99133 2576.7483 2515987
-1607.0962 700.14667 2577.3203 2778902
-1600.123 703.81927 2590.8396 4555315
-1614.4663 717.03058 2639.4719 3042075
-1591.9572 713.97339 2628.218 3239454
-1585.8506 718.28485 2644.0889 2976284
-1560.7062 713.97339 2628.218 3239203
-1527.9496 706.05719 2599.0776 3502632
-1487.8368 694.54523 2556.7007 4094513
-1491.4993 703.44159 2589.4492 3700014
-1476.1042 703.44159 2589.4492 3634219
-1464.4077 705.22272 2596.0056 3173410
-1448.9738 705.22272 2596.0056 3436837
-1454.2677 715.41968 2633.542 3502884
-1410.7882 701.58362 2582.6099 3042333
-1391.3824 699.54669 2575.1118 2976284
-1376.0728 699.54669 2575.1118 3568422
-1349.3729 693.69128 2553.5571 3897643
-1350.7955 702.32434 2585.3364 2713882
-1352.5669 711.3396 2618.5227 3371045
-1369.0243 728.37842 2681.2444 3633960
-1357.0743 730.52667 2689.1526 3633961
-1362.713 742.30719 2732.5181 3634218
-1315.8368 725.42053 2670.3562 3041826
-1286.0676 717.66766 2641.8171 2252308
-1258.7596 711.11346 2617.6904 2910492
-1243.1967 711.11346 2617.6904 3108127
-1267.1151 733.98328 2701.8767 3305503
-1263.1873 741.10315 2728.0857 3108124
-1256.5889 746.82104 2749.134 3042076
-1236.1831 744.37543 2740.1313 3174176
-1231.38 751.38519 2765.9353 4357682
-1214.9358 751.38519 2765.9353 4357170
-1222.809 766.63086 2822.0562 3830312
-1210.9465 769.75549 2833.5583 3238176
-1120.389 722.23889 2658.6443 2317586
-1094.9318 715.92859 2635.4153 2514709
-1079.2635 715.92859 2635.4153 3896615
0 0 0 0
0 0 0 0
0 0 0 0
0 0 0 0
0 0 0 0
0 0 0 0
0 0 0 0
-951.7879 714.33038 2629.5322 5278277
-1016.2709 775.46301 2854.5684 5278023
-999.29974 775.46301 2854.5684 5014596
-889.7179 702.35498 2585.4492 5540941
0 0 0 0
0 0 0 0
0 0 0 0
0 0 0 0
-803.61957 694.36914 2556.0525 3632941
-795.05817 700.21271 2577.5632 3106599
-786.99518 706.73346 2601.5669 3961910
-771.52808 706.73346 2601.5669 4027705
-756.06104 706.73346 2601.5669 3632946
-731.74811 698.29199 2570.4929 3237933
-716.46582 698.29199 2570.4929 4093752
-712.58197 709.64337 2612.2788 3304236
-697.71313 710.31726 2614.7595 2844454
-682.16766 710.31726 2614.7595 3370798
-648.04303 690.52032 2541.8845 3041319
-627.98169 685.12085 2522.0085 3961906
-635.77661 710.59149 2615.7688 4027699
-620.2251 710.59149 2615.7688 3303976
-614.44873 722.07886 2658.0552 3172134
-601.57819 725.61578 2671.075 4224821
-585.69788 725.61578 2671.075 5803853
-564.75958 719.1748 2647.365 3895856
-560.01746 733.5802 2700.3931 3962162
-543.96289 733.5802 2700.3931 4685884
-534.2951 742.45538 2733.0635 3962419
-518.04626 742.45538 2733.0635 5475656
-509.97394 754.55328 2777.5972 4160054
-494.21957 755.71417 2781.8706 4489531
-472.0231 746.76373 2748.9231 3700268
-435.61285 713.87793 2627.8667 2910752
-412.61755 701.34753 2581.7407 2647578
-401.32092 708.50195 2608.0771 2779423
-379.90945 697.65686 2568.155 1858319
-367.16013 702.4765 2585.8967 2450200
-352.52893 703.95953 2591.356 2647579
-337.12259 703.95953 2591.356 1923857
-330.73911 723.70276 2664.033 2844961
-318.7663 732.58667 2696.7356 2581791
-297.70087 720.40833 2651.9058 2910756
-273.05389 697.71625 2568.3735 2515999
-253.46919 686.03717 2525.3816 3568174
-240.26393 691.24127 2544.5383 3699504
-226.49895 695.42615 2559.9434 4028724
-213.82362 703.8006 2590.7708 3896625
-200.45656 711.02142 2617.3516 4160308
-181.84308 699.28259 2574.1396 3634218
-166.53911 699.28259 2574.1396 2976541
-151.23512 699.28259 2574.1396 2976540
-136.28331 701.0943 2580.8086 2779674
-121.53413 704.54034 2593.4939 2582295
-107.48522 713.63721 2626.9805 2318867
-91.867088 713.63721 2626.9805 1924109
-73.575233 688.61304 2534.8635 2187537
-58.504768 688.61304 2534.8635 2384659
-44.383156 703.65637 2590.2397 2384660
-28.498407 691.88025 2546.8906 2844698
-13.356434 691.88025 2546.8906 2910745
1.7222202 667.34424 2456.5708 3239710
16.327217 667.34424 2456.5708 2187022
31.806072 686.1972 2525.9707 2515985
48.348896 708.54926 2608.2512 2779413
64.319412 713.69489 2627.1929 3174171
81.352585 726.3172 2673.657 2319119
95.867744 716.00684 2635.7034 2187276
108.97659 699.56586 2575.1821 2121485
123.4345 694.76874 2557.5234 3239712
138.63969 694.76874 2557.5234 2646808
153.10484 691.4267 2545.2209 3106848
174.18016 715.8526 2635.1355 3369510
197.41068 744.3736 2740.1248 2777373
215.91263 752.07568 2768.4768 3698475
232.37199 752.07568 2768.4768 3501355
246.15276 743.97974 2738.6748 2909218
259.97021 736.99243 2712.9539 2909218
272.80521 728.19904 2680.5842 3435051
287.87231 726.00568 2672.5103 3369516
303.76114 726.00568 2672.5103 2843172
305.46341 693.78442 2553.9001 4816448
325.9054 705.16193 2595.782 1789719
360.7403 745.24457 2743.3308 5012805
378.87268 748.8468 2756.5911 4026169
381.28433 722.36639 2659.1138 4223549
401.71155 730.76733 2690.0383 4815432
411.36401 719.67462 2649.2048 4157759
449.08597 756.69629 2785.4858 4684104
468.94507 762.05658 2805.2178 3499573
483.73306 759.09106 2794.3013 3960379
501.90222 761.45209 2802.9924 2776618
494.50009 726.11316 2672.9058 2711079
527.65692 750.67627 2763.3254 4619331
544.85309 751.73505 2767.2231 2908968
560.5144 750.67627 2763.3254 3040296
585.82043 762.22675 2805.844 2711072
593.48242 750.81604 2763.8401 2974243
622.72565 766.58722 2821.8955 3961135
631.55121 757.05566 2786.8088 3172388
646.77142 755.4809 2781.012 2579994
663.3053 755.4809 2781.012 5145669
692.89734 769.992 2834.429 3105571
716.39044 777.19733 2860.9526 3105567
721.41296 764.49493 2814.1936 2711320
732.26105 758.40179 2791.7639 2843420
752.1626 761.74768 2804.0806 3304227
774.3316 767.19495 2824.1326 3106848
809.05328 784.58398 2888.1438 4422451
808.14661 767.41766 2824.9524 2909210
819.6734 762.5166 2806.9111 2711831
789.84943 720.11145 2650.813 3896103
839.94885 750.80664 2763.8054 2975256
856.38049 750.80664 2763.8054 3567393
871.20398 749.4234 2758.7136 2778134
896.64392 757.05487 2786.8059 3172633
916.65424 759.90833 2797.3098 3501342
941.89282 766.91699 2823.1094 3764001
987.80225 790.21649 2908.8774 4027173
1005.0963 790.21649 2908.8774 4290344
1022.3904 790.21649 2908.8774 4948016
1052.5497 799.99469 2944.8723 4355877
1070.0577 799.99469 2944.8723 4224545
1085.6089 798.55518 2939.5735 3962139
1102.1996 797.91388 2937.2126 3829783
1091.3694 777.75134 2862.9919 5408818
1112.1365 780.37982 2872.6677 4290592
1129.2153 780.37982 2872.6677 3567123
1134.2224 772.16156 2842.4153 3566865
1166.1758 782.25995 2879.5886 3566863
1168.0203 772.16156 2842.4153 4158999
1159.9464 755.88788 2782.51 3303690
1176.4893 755.88788 2782.51 4158743
1236.9674 783.72473 2884.9805 4225050
1251.1096 781.84375 2878.0566 3698706
1250.2534 770.76727 2837.2827 3566864
1285.3313 781.84375 2878.0566 4027415
1323.4686 794.46576 2924.5198 4356379
1279.2954 757.99091 2790.2515 4225050
1253.2079 733.02856 2698.3623 3435277
1269.2504 733.02856 2698.3623 4356637
1263.5905 720.65118 2652.7998 3501071
1348.5546 759.62659 2796.2727 4290588
1396.8069 777.22522 2861.0552 3896085
1413.8167 777.22522 2861.0552 4027671
1383.1124 751.30695 2765.6472 4027670
1399.5551 751.30695 2765.6472 3961622
1418.4066 752.58514 2770.3523 4093209
1438.2871 754.37372 2776.9363 4356382
1454.7968 754.37372 2776.9363 4882473
1495.208 766.6286 2822.0479 5145645
1513.6307 767.46259 2825.1179 4487715
1530.4269 767.46259 2825.1179 4487713
1586.5594 786.97455 2896.9436 4158748
1603.7827 786.97455 2896.9436 3632661
1644.8053 798.52881 2939.4763 3698200
1627.0168 781.5885 2877.1169 4948524
1640.947 780.07916 2871.5608 5408820
0 0 0 0
1689.4626 786.77167 2896.1968 3566618
1758.3525 810.5918 2983.8813 3105813
1725.0288 787.28687 2898.0933 4290089
1740.7001 786.58246 2895.5002 4816178
1751.6915 783.79797 2885.2502 3961383
1829.668 810.74927 2984.4612 4553776
1847.4113 810.74927 2984.4612 3369502
1865.1548 810.74927 2984.4612 4027175
1831.6013 788.6615 2903.1536 2645522
1839.4286 784.63788 2888.342 3237658
1854.3928 783.70483 2884.9075 3303708
1871.5444 783.70483 2884.9075 3237659
1855.4971 769.92908 2834.1973 3303709
1858.5819 764.26862 2813.3606 3303708
1877.657 765.22595 2816.8845 3369243
1894.4042 765.22595 2816.8845 3698208
1893.6587 758.2218 2791.1016 3895843
1866.9476 741.03314 2727.8281 3632671
1888.8046 743.2522 2735.9968 3303191
1957.8961 763.86169 2811.8625 2842641
1931.3805 747.13739 2750.2986 2842388
1964.0046 753.37964 2773.2769 3960869
1945.678 740.13617 2724.5261 4224297
1996.9806 753.37964 2773.2769 3368733
2059.5879 770.63611 2836.8 4618800
2129.822 790.44287 2909.7109 3237401
2147.1211 790.44287 2909.7109 3566365
2161.054 789.21356 2905.1858 3237145
2178.3262 789.21356 2905.1858 2645008
2175.0571 781.8299 2878.0059 2513933
2078.375 741.24628 2728.6125 2908948
2094.5977 741.24628 2728.6125 3171864
2188.9094 768.66852 2829.5571 2448652
2386.6731 831.72418 3061.6721 2448395
2293.7031 793.27521 2920.1372 2645773
2283.3062 783.74738 2885.064 3040531
2226.6365 758.59668 2792.4814 3830304
2243.2385 758.59668 2792.4814 2579979
2096.4253 703.74048 2590.5496 2909202
2237.3252 745.56128 2744.4966 4159012
2381.9197 787.99872 2900.7139 3501339
2475.2219 812.97931 2992.6702 2909457
2493.0142 812.97931 2992.6702 2908944
2451.6602 793.82825 2922.1729 2579981
2438.0928 783.88049 2885.554 2908944
2534.4775 809.17578 2978.6689 3369495
2552.1865 809.17578 2978.6689 3303701
2569.8955 809.17578 2978.6689 3763995
2680.0566 838.08667 3085.0933 4356131
0 0 0 0
0 0 0 0
0 0 0 0
2673.3079 813.70105 2995.3269 4487206
2734.9556 826.9566 3044.1223 4750377
2686.6387 807.00708 2970.6855 4421413
2689.9456 802.72339 2954.917 4091937
2707.5134 802.72339 2954.917 4223780
2753.9016 811.21295 2986.1682 4618539
2772.032 811.32336 2986.5742 4947504
2724.7932 792.42163 2916.9949 5145142
2720.2947 786.10999 2893.761 4684334
2737.4988 786.10999 2893.761 5276472
2754.7031 786.10999 2893.761 5144373
2790.0854 791.26526 2912.7383 4946994
2736.2542 771.2121 2838.9204 5209654
2735.0374 766.14337 2820.2617 5275704
0 0 0 0
0 0 0 0
0 0 0 0
0 0 0 0
0 0 0 0
0 0 0 0
0 0 0 0
0 0 0 0
0 0 0 0
0 0 0 0
0 0 0 0
0 0 0 0
-2041.9031 662.64209 2387.021 4159533
-2106.9775 688.54565 2480.3328 3896106
-2037.9473 670.68097 2415.9792 3369763
-2032.9391 673.78168 2427.1489 2843421
-2071.5542 691.48822 2490.9329 5146432
-2061.7056 693.15613 2496.9409 3896621
-2039.4062 690.63171 2487.8474 4686135
-2024.6154 690.63171 2487.8474 3370019
-2009.8243 690.63171 2487.8474 3633446
-1941.7195 672.17572 2421.3638 3436066
-1920.8169 669.90637 2413.189 3436321
-1956.9812 687.65533 2477.1257 3962667
-1943.2802 688.01868 2478.4346 3633445
-1885.5199 672.66919 2423.1414 3765288
-1868.0934 671.58337 2419.23 3304737
-1754.4851 635.63489 2289.7336 3831080
-1740.8721 635.63489 2289.7336 4028203
-1753.6018 645.32916 2324.655 4422960
-1836.2273 681.10352 2453.5242 3699237
-1840.292 688.07727 2478.6455 3699493
-1832.9648 690.86981 2488.7051 3699237
-1704.9357 647.84338 2333.7119 3172893
0 0 0 0
0 0 0 0
0 0 0 0
0 0 0 0
0 0 0 0
0 0 0 0
0 0 0 0
0 0 0 0
0 0 0 0
0 0 0 0
0 0 0 0
-1660.5996 699.28491 2519.0186 3042075
-1655.5604 703.50751 2534.2297 3502626
-1639.5374 703.09741 2532.7524 2450194
-1624.4795 703.09741 2532.7524 2384145
-1631.6337 712.80109 2567.7078 2713366
-1622.0059 715.28729 2576.6638 3107867
-1606.7395 715.31079 2576.7483 3173660
-1591.42 715.31079 2576.7483 3239453
-1546.7443 701.98743 2528.7539 4292144
-1529.5332 700.98981 2525.1602 4621366
-1446.1323 669.33655 2411.1365 4095278
-1505.5198 703.80035 2535.2844 3239969
-1490.4468 703.80035 2535.2844 3042077
-1471.9932 702.18762 2529.4751 2844698
-1467.24 707.14471 2547.3318 3173920
-1452.0955 707.14471 2547.3318 3239713
-1425.5786 701.54828 2527.1719 2910748
-1391.9766 692.30872 2493.8884 2778906
-1325.1412 666.16345 2399.7061 2844954
-1310.4514 665.94855 2398.9319 3173919
-1295.4954 665.59216 2397.6479 3042077
-1281.2406 665.59216 2397.6479 3108127
-1271.536 667.98242 2406.2583 3173663
-1321.333 702.04114 2528.9473 2384405
-1323.5077 711.29022 2562.2651 2778910
-1336.999 726.90747 2618.5227 3568169
-1322.5881 727.54382 2620.8152 3041826
-1307.0066 727.54382 2620.8152 3042083
-1289.1167 726.24341 2616.1306 3568426
-1228.5402 700.56927 2523.6453 3962925
-1210.3635 698.73761 2517.0471 3963181
-1224.8414 715.94733 2579.0413 3305506
-1221.2139 722.87628 2604.0012 3765800
-1205.7323 722.87628 2604.0012 4095022
-1204.2592 731.38391 2634.6482 4292145
-1225.4835 754.08246 2716.4146 3370789
-1223.9001 763.16541 2749.134 4949564
-1141.2662 721.27094 2598.2185 4488246
-1153.499 739.00439 2662.0994 4093234
-1145.8969 744.34705 2681.345 3895853
-1120.389 738.04529 2658.6443 4948795
-1093.525 730.65692 2632.0293 3764519
-1063.6106 720.98621 2597.1929 4093742
-973.58807 669.68518 2412.3923 3502119
-958.54767 669.19781 2410.6367 4094512
-944.21582 669.19781 2410.6367 3173413
-931.41101 670.29688 2414.5957 3765551
0 0 0 0
0 0 0 0
0 0 0 0
-910.88513 698.59369 2516.5288 4816963
-936.1546 729.96368 2629.5322 4816962
-921.12769 730.44458 2631.2644 4948292
-875.69995 706.41803 2544.7141 5409356
-795.56927 653.06006 2352.5039 6988387
-781.58301 653.06006 2352.5039 4554302
-838.52289 713.40302 2569.876 4225079
-826.12903 715.90289 2578.8813 4488765
-803.61957 709.56555 2556.0525 2580512
-795.05817 715.53699 2577.5632 2317342
-779.73383 715.53699 2577.5632 3304237
-767.04041 717.99969 2586.4346 3238704
-731.46625 698.70715 2516.9375 3238704
-701.01862 683.60803 2462.5461 3830840
-715.63879 712.75061 2567.5259 4686405
-693.06488 705.31213 2540.7305 3831097
-685.1095 712.75061 2567.5259 4422981
-681.52051 725.17413 2612.2788 4489031
-641.00073 697.96442 2514.2617 5015372
-625.21301 697.0282 2510.8894 4291647
-609.39014 696.00604 2507.2073 4159545
-594.48407 696.00604 2507.2073 3172391
-592.19995 711.16357 2561.8088 2646305
-595.27728 733.72968 2643.0981 3632943
-576.13397 729.38812 2627.4587 3961909
-547.23499 712.10962 2565.2168 3567148
-527.62189 706.27039 2544.1824 3304233
-498.01587 686.31531 2472.2986 3304233
-505.07819 717.21588 2583.6111 4028726
-502.56647 736.03326 2651.3965 4686654
-480.5097 726.51764 2617.1187 2712608
-464.95016 726.51764 2617.1187 3634221
-435.48648 704.03918 2536.1448 2647328
-422.63428 707.76672 2549.5725 3371057
-402.4144 698.97424 2517.8997 3962938
-387.44476 698.97424 2517.8997 2252575
-372.47516 698.97424 2517.8997 1989397
-361.36859 706.5271 2545.1069 2647838
-344.45389 702.88812 2531.9983 2647584
-330.57925 705.40344 2541.0593 3042088
-317.33011 709.55835 2556.0264 2713126
-312.2189 733.24304 2641.3455 3568178
-293.48703 725.75433 2614.3689 1923608
-263.59821 688.29559 2479.4321 3042088
-249.8022 690.909 2488.8464 3962676
-236.84921 696.33008 2508.3745 3239209
-222.68036 698.66473 2516.7847 3633710
-207.75734 698.79919 2517.269 3567915
-193.5442 701.52759 2527.0974 2910495
-176.39484 693.17676 2497.0154 3173665
-161.54939 693.17676 2497.0154 2910748
-148.76933 702.93579 2532.1702 3305250
-133.71489 702.93579 2532.1702 2384916
-119.86393 710.06519 2557.8523 2713881
-104.94674 712.03247 2564.939 2187537
-91.867088 729.25531 2626.9805 2253330
-73.737762 705.23785 2540.4629 2121488
-62.208408 748.2301 2695.3328 2384916
-44.383156 719.05603 2590.2397 2582295
-27.878201 691.63538 2491.4629 2581525
-12.257425 648.84625 2337.3247 2515730
1.6374702 648.39075 2335.6838 2581780
16.048685 670.31561 2414.6633 2713110
31.429321 692.90875 2496.05 1923594
47.057564 704.71747 2538.5884 2581524
62.55267 709.28131 2555.0286 2252814
77.743027 709.28131 2555.0286 1923594
92.93338 709.28131 2555.0286 2318351
107.24824 703.53809 2534.3398 2318354
121.95582 701.46875 2526.8855 2450197
136.97885 701.46875 2526.8855 2383124
150.26492 693.45288 2498.01 3436071
155.82726 654.44098 2357.4783 4159026
187.65887 723.08875 2604.7668 3566890
204.76491 728.85498 2625.5383 3698221
220.37447 728.85498 2625.5383 2777378
236.16042 729.39984 2627.501 2514205
251.78166 729.39984 2627.501 2843426
265.83899 725.13397 2612.1343 1922067
275.73148 710.60547 2559.7986 2119447
290.95016 710.60547 2559.7986 2908708
303.64801 704.75464 2538.7222 3040295
321.55911 710.98468 2561.1646 3565872
349.28409 737.36938 2656.2095 3236395
365.07599 737.36938 2656.2095 3631157
380.86789 737.36938 2656.2095 4420932
397.09351 738.1756 2659.1138 4486726
411.36401 735.42487 2649.2048 3696954
439.74112 757.16626 2727.5234 3433782
465.64651 773.25671 2785.4858 5341780
482.207 773.25671 2785.4858 4026173
478.60895 742.00427 2672.9058 3763257
481.82532 722.98553 2604.395 2974253
503.81589 732.44507 2638.4707 3369265
520.99768 734.55334 2646.0654 3369263
547.60437 749.43665 2699.6792 2777380
563.65472 749.43665 2699.6792 2974500
579.70502 749.43665 2699.6792 2777376
589.9209 742.09705 2673.24 3106340
605.81409 742.09705 2673.24 2382874
627.55634 749.07886 2698.3904 2317080
651.38409 758.13983 2731.0305 3237926
679.17084 771.25586 2778.2781 3632940
686.44293 761.00604 2741.3552 3369510
696.78809 754.55951 2718.1331 2711834
712.94812 754.55951 2718.1331 2711832
729.10815 754.55951 2718.1331 2777880
747.22681 756.54248 2725.2764 3567652
733.96954 727.34845 2620.1113 2251792
747.19177 725.06311 2611.8789 2778136
765.12415 727.34845 2620.1113 2975771
759.28381 707.39447 2548.2317 4159788
839.94885 767.23822 2763.8054 3304733
850.58142 762.04285 2745.0901 3172889
862.26379 757.96588 2730.4038 3370011
887.60535 765.82471 2758.7136 2909713
914.73645 774.91437 2791.457 3238935
933.28503 776.53912 2797.3098 3041811
965.20441 789.03729 2842.3315 3435800
997.49524 801.40375 2886.8792 3698968
1014.6586 801.40375 2886.8792 3633175
1035.4735 804.23999 2897.0959 3961883
1052.6976 804.23999 2897.0959 4027674
1052.9082 791.45123 2851.0273 3041033
1027.5854 760.17896 2738.376 3567376
1043.8658 760.17896 2738.376 2975238
1106.894 793.69946 2859.1262 3304201
1084.2568 765.70868 2758.2957 3962131
1100.6556 765.70868 2758.2957 3238665
1138.12 780.14844 2810.3115 3238409
1046.4771 706.95148 2546.6357 3765011
1055.9977 703.20917 2533.155 3830292
1090.1964 715.77466 2578.4192 3632913
1177.6307 762.45911 2746.5896 3764499
1193.9601 762.45911 2746.5896 3830036
1161.5105 731.72943 2635.8928 4290586
1160.9574 721.64441 2599.564 4093464
1152.4207 706.92725 2546.5483 3896085
1167.7911 707.06677 2547.0513 3961622
1168.3873 698.37183 2515.7295 4159000
1251.4468 738.5639 2660.5125 4356637
1267.2642 738.5639 2660.5125 3961878
1327.4537 764.10522 2752.5195 4027415
1336.8636 760.15076 2738.2744 3961878
1328.491 746.30182 2688.3867 3566864
1341.5703 744.68994 2682.5801 3830035
1328.7191 728.89124 2625.6689 3961623
1344.3293 728.89124 2625.6689 4422175
1344.6844 720.7149 2596.2153 4816934
1391.5828 737.38684 2656.2725 4816934
1439.5168 754.22742 2716.9368 4948520
1455.6698 754.22742 2716.9368 3961880
1515.833 776.78021 2798.1782 3830294
1532.469 776.78021 2798.1782 3566866
1592.8064 798.69373 2877.1169 3501074
1621.5374 804.46136 2897.8936 3435026
1580.938 776.07385 2795.6338 3829783
1488.8195 723.24963 2605.3464 4159007
0 0 0 0
1463.1821 696.30682 2508.2908 3434777
1706.6813 803.99042 2896.1968 3632414
1723.4855 803.797 2895.5002 4026919
1695.0428 782.71411 2819.5537 4290093
1671.6895 764.37103 2753.4771 4026665
1711.5334 775.00018 2791.7661 3829286
1745.01 782.56964 2819.0334 4026665
1813.6741 805.62518 2902.0859 4619315
1801.635 792.73615 2855.656 3368992
1772.4829 772.62805 2783.2212 3632674
1664.8529 718.99976 2590.0371 2777363
1779.9744 761.67242 2743.7559 3040022
1803.2762 764.63617 2754.4321 2711312
1798.6814 755.8241 2722.6885 2974743
1748.2814 728.09302 2622.7935 2382093
1783.6587 736.25958 2652.2117 3763745
1850.7299 757.25085 2727.8281 3500573
1820.2339 738.30341 2659.574 3369500
1882.6179 757.0307 2727.0352 3697949
1915.0292 763.48871 2750.2986 2974482
1863.7357 736.74823 2653.9719 3829791
1929.4799 756.33423 2724.5261 4027171
1892.6436 735.71832 2650.262 3435036
1995.9191 769.45837 2771.803 3434525
2030.2814 776.29608 2796.4343 4092711
2046.907 776.29608 2796.4343 3368986
2065.2839 776.95496 2798.8079 3697951
2093.2668 781.18823 2814.0571 3303192
2084.2573 771.65845 2779.7283 2974227
2058.6941 756.19812 2724.0359 3500828
2074.8892 756.19812 2724.0359 2711313
2091.0842 756.19812 2724.0359 3369753
2110.8198 757.46863 2728.6125 2711823
2109.3765 751.17767 2705.9507 2053894
0 0 0 0
2014.9988 706.78748 2546.0449 2251017
0 0 0 0
0 0 0 0
0 0 0 0
0 0 0 0
2113.9775 714.66241 2574.4126 3172119
2326.0706 780.71118 2812.3389 3106326
2342.7908 780.71118 2812.3389 2251273
2335.4766 772.75879 2783.6919 2448397
2369.4741 778.49121 2804.3418 2579725
2522.1299 822.85632 2964.1572 2974740
2563.6782 830.60803 2992.0811 3698462
2557.3755 822.85632 2964.1572 3171862
2489.8867 795.65845 2866.1829 3040277
0 0 0 0
0 0 0 0
0 0 0 0
0 0 0 0
2521.8865 779.22003 2806.9673 3631644
2541.1653 780.0152 2809.8318 2315785
2557.8704 780.0152 2809.8318 3368731
2588.1313 784.12219 2824.6262 3237144
2604.9246 784.12219 2824.6262 3763490
2592.9978 775.53247 2793.6836 3039511
2654.3921 788.8418 2841.6277 3039254
2671.2864 788.8418 2841.6277 4552495
2684.1917 787.67126 2837.4109 5407804
2672.4158 779.31793 2807.3198 5144889
2717.9302 787.67126 2837.4109 4026410
2682.0732 772.48523 2782.7065 4157740
2698.6172 772.48523 2782.7065 4157995
0 0 0 0
0 0 0 0
0 0 0 0
0 0 0 0
0 0 0 0
0 0 0 0
0 0 0 0
0 0 0 0
0 0 0 0
0 0 0 0
0 0 0 0
0 0 0 0
0 0 0 0
-1984.321 662.35016 2335.9417 2777374
-1970.4332 662.35016 2335.9417 3501096
-2012.2677 681.21381 2402.469 3369509
-2001.973 682.57385 2407.2654 3172131
-1987.6613 682.57385 2407.2654 3370022
-1910.5927 660.86652 2330.7092 3501865
-1947.8035 678.65961 2393.4609 3370022
-1949.511 684.25348 2413.189 4291381
-1935.1639 684.25348 2413.189 4093745
-1917.4136 683.04108 2408.9133 3304229
-1903.0919 683.04108 2408.9133 4422709
-1942.254 702.38251 2477.1257 3830827
-1823.8286 664.59534 2343.8599 3567653
-1732.8577 636.30762 2244.0962 3699496
-1719.5159 636.30762 2244.0962 3370275
-1740.8721 649.24799 2289.7336 3304737
-1740.929 654.38635 2307.8552 3304481
-1739.7811 659.14984 2324.655 3502116
-1760.6433 672.39545 2371.3687 3436324
-1746.5449 672.39545 2371.3687 3567910
-1695.1772 657.93048 2320.3545 2843931
-1681.382 657.93048 2320.3545 3501861
0 0 0 0
0 0 0 0
0 0 0 0
0 0 0 0
0 0 0 0
0 0 0 0
0 0 0 0
0 0 0 0
0 0 0 0
0 0 0 0
-1503.8448 646.83746 2281.2322 2844697
-1620.4482 703.33429 2480.4822 2516246
-1630.647 714.26117 2519.0186 2187276
-1535.2421 678.70496 2393.6208 2252815
-1521.0114 678.70496 2393.6208 2449938
-1569.3478 706.88733 2493.0129 3502628
-1587.8793 722.05389 2546.5017 3239454
-1539.4324 706.76245 2492.5725 3371298
-1457.048 675.44128 2382.1106 3305250
-1445.03 676.44507 2385.6509 4489780
-1428.7233 675.44128 2382.1106 3305249
-1415.7073 675.98859 2384.041 4357938
-1417.0059 683.45117 2410.3596 2318355
-1423.5656 693.62982 2446.2571 2318611
-1409.0219 693.62982 2446.2571 3107870
-1419.4938 706.07288 2490.1406 2910748
-1404.6892 706.07288 2490.1406 2384147
-1339.4081 680.43042 2399.7061 2252819
-1304.5869 669.87622 2362.4841 2121233
-1305.7566 677.77399 2390.3376 2120976
-1291.5455 677.77399 2390.3376 3765802
-1277.3342 677.77399 2390.3376 2778652
-1256.7709 674.36554 2378.3169 3304995
-1301.3239 706.21765 2490.6511 3633961
-1280.2538 702.77991 2478.5271 3437097
-1245.2217 691.50861 2438.7761 3962927
-1250.7827 702.77991 2478.5271 3435813
-1304.3408 741.60962 2615.4697 4291123
-1243.5439 715.57306 2523.6453 4291378
-1205.7949 702.32489 2476.9224 4225840
-1193.6139 703.82556 2482.2148 4028205
-1187.1523 708.77856 2499.6829 4357169
-1180.4344 713.70215 2517.0471 4751671
-1184.4954 725.35278 2558.136 4554294
-1179.9426 731.9632 2581.4492 4422452
-1172.1605 736.71808 2598.2185 3370021
-1164.3195 741.56244 2615.3035 3962417
-1131.3004 730.28485 2575.5303 4487992
-1115.9882 730.28485 2575.5303 3896370
-1124.8213 746.30505 2632.0293 4816957
-1074.6632 723.08508 2550.1384 4224820
-990.23358 675.8111 2383.4148 4883008
-987.93054 684.02753 2412.3923 2185751
-972.87958 683.52979 2410.6367 4027954
-960.12195 684.65228 2414.5957 4160055
-945.76654 684.65228 2414.5957 3633199
-951.07257 699.10492 2465.5664 3764786
0 0 0 0
0 0 0 0
0 0 0 0
-873.44446 684.22552 2413.0906 4750914
-877.99805 699.2785 2466.1785 5540428
-880.96216 713.55518 2516.5288 4027189
-867.58136 714.85767 2521.1223 5672272
-852.10889 714.45209 2519.6919 6461786
-844.2655 720.54309 2541.1733 5738320
-838.52289 728.68164 2569.876 6132565
-823.24426 728.68164 2569.876 6067542
-799.77173 721.29181 2543.814 3830579
-784.64807 721.29181 2543.814 2909224
-769.52441 721.29181 2543.814 3370031
-748.01599 715.18732 2522.2849 2580004
-731.46625 713.67108 2516.9375 3172398
-695.69452 692.94543 2443.8435 4159549
-700.7785 712.89795 2514.2109 5343567
-666.63586 692.94543 2443.8435 4094017
-666.78052 708.53845 2498.8359 6001758
-651.92426 708.53845 2498.8359 5080910
-633.56702 704.64471 2485.1038 4883528
-602.94489 686.59851 2421.4595 3765301
-600.68829 700.76056 2471.4055 2646049
-585.99512 700.76056 2471.4055 2712098
-571.89832 701.49219 2473.9856 2712612
-551.01074 693.71283 2446.5498 1922583
-550.90833 712.38928 2512.417 2580512
-521.91992 693.71283 2446.5498 2909475
-511.32529 699.11462 2465.6006 2777634
-491.23596 691.47034 2438.6411 2711586
-498.8403 723.52863 2551.7026 3501358
-489.44522 732.16833 2582.1726 3698994
-469.16055 724.55005 2555.3049 2975784
-450.17508 718.49554 2533.9524 2712613
-432.07938 713.49109 2516.3027 3042094
-414.77002 709.4726 2502.1306 4817997
-402.4144 713.94391 2517.8997 2515495
-385.01828 709.4726 2502.1306 2647336
-372.47516 713.94391 2517.8997 2844458
-358.34421 715.61871 2523.8064 2844458
-342.81488 714.52527 2519.9502 2514981
-322.73395 703.41156 2480.7549 2778410
-305.88452 698.61389 2463.8347 3436340
-296.71725 711.76141 2510.2026 3041582
-278.77774 704.14441 2483.3394 4752456
-262.92212 701.23334 2473.0728 3699511
-248.8573 703.0365 2479.4321 3567923
-235.92049 708.45416 2498.5388 3896884
-220.20842 705.70593 2488.8464 3436587
-207.00851 711.19244 2508.196 2515739
-187.57291 694.44458 2449.1304 2581273
-169.18886 679.09851 2395.0088 1923343
-152.33847 667.65356 2354.6453 2121232
-138.33945 667.65356 2354.6453 1528839
-124.11588 666.44781 2350.3931 1265924
-114.80074 694.63599 2449.8057 2121233
-104.22343 722.26929 2547.2612 2187026
-89.697464 727.28174 2564.939 2121489
-72.623726 709.45862 2502.0813 2384916
-57.576965 707.35559 2494.6643 2911003
-42.457985 702.59784 2477.885 2253073
-27.672907 701.24567 2473.1162 1923596
-12.563849 679.31024 2395.7556 2449938
1.6836503 680.95465 2401.5549 3436833
15.923018 679.31024 2395.7556 1923594
30.404531 684.67151 2414.6633 2713369
45.708088 699.16809 2465.7891 2581526
60.278023 698.1272 2462.1182 2515733
73.64991 686.32874 2420.5081 2055183
88.040504 686.32874 2420.5081 1923341
103.42572 692.99316 2444.0117 1857552
120.56219 708.3042 2498.01 2318617
134.78438 705.01324 2486.4036 2646557
142.37967 671.1355 2366.9253 3304233
155.82726 668.45679 2357.4783 1790996
176.94218 696.39685 2456.0156 4224829
190.79037 693.65729 2446.354 2909228
212.94925 719.38086 2537.0745 3369521
229.06033 722.62225 2548.5061 3238192
244.21193 722.62225 2548.5061 3303983
256.4895 714.61487 2520.2661 2185246
271.56046 714.84467 2521.0764 3172398
288.24301 719.07074 2535.9807 2843175
303.3201 719.07074 2535.9807 2118684
321.55911 726.21155 2561.1646 3828535
345.36749 744.71594 2626.4248 5012554
356.72858 735.94031 2595.4756 4091710
379.86349 751.17517 2649.2048 3301938
395.61377 751.17517 2649.2048 4223297
407.7323 744.54333 2625.8162 4552006
412.43436 725.35724 2558.1516 3696698
444.40588 753.78949 2658.425 3696956
456.66333 747.97876 2637.9321 4025922
466.34146 738.46942 2604.395 3631675
476.51981 730.33801 2575.7175 2381864
491.83319 730.33801 2575.7175 2974253
515.09332 741.78204 2616.0779 3106093
530.64661 741.78204 2616.0779 2251039
550.06708 747.034 2634.6001 3171883
562.3338 742.54871 2618.7817 3040552
556.50348 715.05219 2521.8083 1921812
571.49634 715.05219 2521.8083 2646046
594.19836 724.45123 2554.9565 2909218
617.60626 734.22095 2589.4116 3501099
665.33551 771.72589 2721.6821 3501355
655.05634 741.76312 2616.011 3303975
673.02197 744.43176 2625.4226 3238180
688.6308 744.43176 2625.4226 2646041
704.23969 744.43176 2625.4226 2580502
713.12567 737.47925 2600.9031 2646551
721.26019 730.06128 2574.7417 2449429
717.42615 711.08875 2507.8303 2909721
730.51062 709.31641 2501.5798 3107101
747.24567 711.08875 2507.8303 3304479
774.43378 722.54443 2548.2317 2449680
822.50238 752.66821 2654.4707 3567904
838.28406 752.66821 2654.4707 2975766
854.06561 752.66821 2654.4707 3041303
889.5531 769.71954 2714.6062 3041300
868.47473 738.08966 2603.0557 3304728
911.90112 761.42798 2685.364 3238934
957.61859 785.84338 2771.4709 2974736
968.04443 780.96143 2754.2537 3106833
984.41919 780.96143 2754.2537 2843402
1035.7629 808.24927 2850.4907 3172621
1011.3051 776.45941 2738.376 3106826
960.56561 725.81812 2559.7771 3041289
975.78412 725.81812 2559.7771 3172616
991.00275 725.81812 2559.7771 2909700
1028.1844 741.66077 2615.6501 3238665
1040.926 739.66461 2608.6101 3106823
1025.8771 718.26953 2533.155 2909444
1029.9084 710.6593 2506.3157 2975495
1043.6221 709.85181 2503.468 3304203
1058.5059 709.85181 2503.468 3041032
1081.2208 715.03064 2521.7324 4027415
1130.047 737.09961 2599.564 4159000
1145.5022 737.09961 2599.564 3961878
1109.7712 704.6012 2484.9504 3896086
1112.4829 697.04352 2458.2964 3632913
1152.5803 712.80267 2513.875 4487965
1167.526 712.80267 2513.875 3764499
1182.4717 712.80267 2513.875 3764244
1263.5905 752.19446 2652.7998 3698449
1287.5203 756.99103 2669.7161 3764242
1295.5564 752.43994 2653.6655 3961878
1298.141 744.87024 2626.9692 3830549
1313.759 744.87024 2626.9692 4093464
1312.09 735.18408 2592.8083 3303692
1289.6769 714.23456 2518.9248 3764499
1274.6116 697.78851 2460.9238 3830294
1357.2914 734.61932 2590.8167 3895830
1385.2609 741.34436 2614.5342 3698966
1416.6014 749.70428 2644.0176 4225311
1434.1829 750.67883 2647.4546 3764760
1491.7594 772.33929 2723.8455 3567125
1476.7161 756.34027 2667.4209 3763991
1492.5747 756.34027 2667.4209 3435283
1415.7885 709.88739 2503.5935 3435285
1383.4723 686.46686 2420.9951 3566360
1397.8658 686.46686 2420.9951 4092962
1463.1821 711.2193 2508.2908 2711312
1480.3583 712.30847 2512.1321 2776849
1512.9751 720.73138 2541.8374 3237145
1569.0186 740.03693 2609.9233 3763492
1584.5352 740.03693 2609.9233 3632163
1663.6395 769.44672 2713.644 3434019
1728.1311 791.59802 2791.7661 4223791
1710.6523 776.13721 2737.2397 4157999
1753.3865 788.02936 2779.1804 3960619
1727.5918 769.18793 2712.7314 4750390
1664.8529 734.39825 2590.0371 4487214
1693.9476 740.38458 2611.1494 3237147
1782.4943 772.01123 2722.6885 3566367
1725.0522 740.40887 2611.2349 3039767
1731.4664 736.53357 2597.5676 2711059
1753.6616 739.38025 2607.6074 4092709
1828.0746 764.00031 2694.436 3500572
1844.0938 764.00031 2694.436 3106070
1860.113 764.00031 2694.436 3566621
1856.0944 755.84052 2665.6584 2579724
1863.7357 752.52679 2653.9719 3434776
1929.4799 772.53229 2724.5261 3303446
1916.1411 760.80469 2683.1658 3106070
1961.8761 772.53229 2724.5261 3434522
2003.5209 782.47046 2759.5754 4158244
2007.5143 777.66199 2742.6172 4026405
2019.4453 775.98096 2736.6887 4092197
2035.7157 775.98096 2736.6887 4553006
2004.3348 757.96118 2673.1375 5079350
1997.9037 749.58563 2643.5991 3895333
2013.6206 749.58563 2643.5991 2974741
2084.3394 769.90186 2715.2493 4882992
2093.2891 767.26526 2705.9507 4356138
2076.2212 755.20532 2663.4185 3171862
0 0 0 0
1979.7723 709.30359 2501.5347 3566876
0 0 0 0
0 0 0 0
0 0 0 0
0 0 0 0
0 0 0 0
0 0 0 0
2093.7659 712.66901 2513.4036 2908950
2192.8008 741.08923 2613.6343 3435293
2257.5229 757.59448 2671.8442 3172121
2304.8237 768.0636 2708.7661 3172121
2455.8062 812.69867 2866.1829 3237657
2373.3184 779.98895 2750.8237 3566622
0 0 0 0
0 0 0 0
0 0 0 0
0 0 0 0
0 0 0 0
2348.03 741.03912 2613.4578 3302938
2453.2446 769.15509 2712.6157 3039767
2469.3718 769.15509 2712.6157 3237145
2466.5378 763.28741 2691.9219 3368474
2482.542 763.28741 2691.9219 4223784
2441.2314 745.7782 2630.1711 3236634
2573.0464 781.04376 2754.5439 3105049
2618.4512 789.79956 2785.4233 4157739
2641.6572 791.7915 2792.4485 4223278
2643.3669 787.35571 2776.8047 4025900
2588.1284 766.11761 2701.9033 3894314
2506.7495 737.45142 2600.8047 3696935
2526.2322 738.62677 2604.95 3894314
0 0 0 0
0 0 0 0
0 0 0 0
0 0 0 0
0 0 0 0
0 0 0 0
0 0 0 0
0 0 0 0
0 0 0 0
0 0 0 0
0 0 0 0
0 0 0 0
0 0 0 0
-1952.6658 665.45013 2298.677 4092721
-1938.2512 665.19336 2297.79 4224821
-1924.5902 665.19336 2297.79 3040548
-1910.9293 665.19336 2297.79 3106599
-1947.2854 682.72968 2358.366 3304233
-1892.8052 668.44165 2309.0105 3238440
-1879.0775 668.44165 2309.0105 3238439
-1867.3181 669.14697 2311.447 3698988
-1861.11 671.86676 2320.842 3896624
-1847.3119 671.86676 2320.842 3106849
-1836.4225 672.93262 2324.5239 3436070
-1818.4716 671.40735 2319.2551 3370020
-1744.3357 648.95605 2241.7012 3501863
-1692.5669 634.54431 2191.9185 3172897
-1658.0261 626.41797 2163.8474 4028205
-1725.9723 657.18781 2270.1362 2581015
-1712.4756 657.18781 2270.1362 2515736
-1699.7991 657.505 2271.2319 2844187
-1679.4768 654.84613 2262.0474 2778137
-1683.5314 661.72583 2285.812 2778138
-1668.9862 661.34729 2284.5044 3107102
0 0 0 0
0 0 0 0
0 0 0 0
0 0 0 0
-1546.9407 638.9859 2207.261 2975514
-1548.3644 645.04596 2228.1943 2910235
-1535.1172 645.04596 2228.1943 3173150
-1506.2755 638.43622 2205.3623 2712597
-1441.444 616.32208 2128.9731 2909977
-1439.0305 620.74097 2144.2371 2646806
-1426.2823 620.74097 2144.2371 2910491
-1503.8448 660.39996 2281.2322 2515732
-1520.0161 673.57617 2326.7468 2713111
-1506.183 673.57617 2326.7468 3634212
-1490.2548 672.63055 2323.4805 2713366
-1466.441 668.07477 2307.7434 2515987
-1452.7208 668.07477 2307.7434 2778902
-1548.0256 718.69104 2482.5881 3173663
-1502.6331 704.33246 2432.9888 3766056
-1446.5205 684.62103 2364.8994 3239457
-1432.4606 684.62103 2364.8994 3042334
-1408.923 680.04651 2349.0974 4357940
-1406.6155 685.7301 2368.7305 3765547
-1392.5328 685.7301 2368.7305 3041823
-1360.6835 676.89191 2338.2004 2910238
-1360.3931 683.73267 2361.8308 2910238
-1391.2454 706.53174 2440.5859 2976542
-1339.4376 687.39075 2374.4668 2778907
-1324.1006 686.75793 2372.2808 1857548
-1281.066 671.59119 2319.8901 1594377
-1267.2737 671.59119 2319.8901 1528840
-1279.5181 685.5412 2368.0779 3634471
-1265.4392 685.5412 2368.0779 2581529
-1243.3705 681.164 2352.9578 3304996
-1216.7239 674.15082 2328.7319 3041824
-1202.8789 674.15082 2328.7319 3173668
-1165.6962 660.91888 2283.0247 3371048
-1158.8931 664.80261 2296.4402 3501866
-1145.24 664.80261 2296.4402 3567658
-1134.9127 666.75647 2303.1895 4422966
-1121.2197 666.75647 2303.1895 3633193
-1191.5043 717.31293 2477.8276 3633449
-1178.8564 718.58301 2482.2148 5344069
-1162.0415 717.31293 2477.8276 4685370
-1150.0952 719.0542 2483.8425 4093746
-1138.9767 721.36505 2491.825 5212229
-1146.9097 735.96198 2542.2473 4159542
-1051.3102 683.62561 2361.4609 4290873
0 0 0 0
-1020.5707 681.84821 2355.321 4356407
-1006.5676 681.84821 2355.321 4488249
-983.6449 675.72076 2334.155 4290613
-956.65491 666.58398 2302.5935 4817215
-946.56586 669.12921 2311.3855 4027955
-941.32111 675.22424 2332.4399 3567405
-938.18097 683.03387 2359.4167 3435819
-924.15356 683.03387 2359.4167 4488508
-904.56506 678.86029 2345 4027957
-838.63336 639.23193 2208.1108 4291131
-929.64099 719.86951 2486.6587 4290619
-916.18597 720.91504 2490.2705 6000979
-900.07324 719.86951 2486.6587 6987618
-859.09802 698.57202 2413.0906 6658139
-857.0426 708.73633 2448.2012 6066003
-850.20056 715.22491 2470.615 6460760
-852.10889 729.43231 2519.6919 6724443
-845.44189 736.67609 2544.7141 6790236
-827.46716 734.15137 2535.9929 7053919
-812.39008 734.15137 2535.9929 6001487
-791.18201 728.50629 2516.4929 6133074
-766.66986 719.54248 2485.5291 5541453
-751.89276 719.54248 2485.5291 4357182
-737.1156 719.54248 2485.5291 3764534
-712.77478 710.01587 2452.6211 4357185
-693.82135 705.56982 2437.2632 5870427
-676.71503 702.85272 2427.8774 5409875
-646.08673 685.66675 2368.5117 4620359
-632.00531 685.66675 2368.5117 5278290
-621.77063 689.93536 2383.2566 3239465
-607.6015 689.93536 2383.2566 4028728
-590.6615 686.71387 2372.1287 3107626
-583.70947 695.23102 2401.5496 3106856
-574.15247 700.99475 2421.4595 3172394
-564.23071 706.59833 2440.8159 2712099
-537.82343 691.3075 2387.9966 2646051
-536.46533 708.25824 2446.5498 2580514
-515.72687 699.85413 2417.5193 2185756
-505.73434 705.96875 2438.6411 2778405
-481.04868 691.32831 2388.0684 3172138
-497.3522 736.49561 2544.0906 4554309
-482.27179 736.56415 2544.3274 2580262
-461.99963 728.45123 2516.3027 3699000
-447.03949 728.45123 2516.3027 2843950
-431.23666 727.03046 2511.395 3041584
-411.10156 717.94196 2480.0005 3633466
-396.54239 718.27734 2481.1589 1988898
-381.61298 717.94196 2480.0005 4949839
-370.02435 724.11743 2501.3325 3502137
-355.15323 724.11743 2501.3325 2909999
-342.81488 729.50708 2519.9502 3238453
-322.73395 718.16034 2480.7549 4356935
-301.38641 702.77338 2427.6033 3830337
-286.95361 702.77338 2427.6033 4422730
-272.52084 702.77338 2427.6033 4751693
-261.54111 712.1759 2460.0828 3304498
-247.10362 712.71936 2461.96 3633715
-235.00531 720.50281 2488.8464 3436848
-220.20842 720.50281 2488.8464 3107624
-200.19308 702.19855 2425.6177 2712351
-183.10146 692.1037 2390.7468 1134086
-166.33749 681.65253 2354.6453 1068035
-151.6006 678.35089 2343.2402 1462790
-137.66939 678.35089 2343.2402 1002755
-121.86243 668.06781 2307.7192 1529097
-106.65636 658.88757 2276.0078 2055441
-92.979477 657.85889 2272.4543 1858318
-87.49929 724.33423 2502.0813 1924110
-72.408447 722.18701 2494.6643 2647832
-56.79081 712.32629 2460.6021 2581783
-42.37627 715.94897 2473.1162 2713112
