# .PCD v0.7 - Point Cloud Data file format
VERSION 0.7
FIELDS x y z rgb
SIZE 4 4 4 4
TYPE F F F U
COUNT 1 1 1 1
WIDTH 1277
HEIGHT 1
VIEWPOINT 0 0 0 1 0 0 0
POINTS 1277
DATA ascii
-3999.1655 1017.1405 6177.8984 8613989
-3668.5796 941.7088 5719.7422 8416608
-3680.2566 953.54498 5791.6328 8942439
-3803.8579 994.87787 6042.6802 7034184
-3863.3579 1020.0739 6195.7153 6639169
-3896.314 1038.6788 6308.7178 8152408
-3935.5256 1059.3293 6434.1445 8745314
-3772.303 1025.3608 6227.8271 7692626
-3683.916 1011.2619 6142.1934 7693396
-3669.7212 1017.451 6179.7842 7891032
-3811.5264 1067.4543 6483.4946 6049598
-3803.4551 1076.0763 6535.8623 6247237
-3645.4871 1042.0297 6329.0703 4734768
-3576.5942 1032.9999 6274.2246 4537391
-3533.8682 1031.4166 6264.6089 4406064
-3501.9905 1032.9999 6274.2246 3879720
-3387.147 1009.8808 6133.8042 3287325
-3350.6797 1009.8808 6133.8042 4077608
-3314.2124 1009.8808 6133.8042 4867124
-3207.844 988.34399 6002.9946 5656381
-3077.9292 958.98633 5824.6821 7432535
-3021.8079 952.21387 5783.5479 6905937
-2987.4231 952.21387 5783.5479 7497817
-2955.3489 952.95892 5788.0732 7235158
-2931.6006 956.43793 5809.2036 7629659
-2886.5256 952.95892 5788.0732 6511178
-2896.4902 967.78613 5878.1304 5195575
-2878.2327 973.43066 5912.4141 5787969
-2901.1362 993.30768 6033.1431 6709074
-2930.6528 1015.975 6170.8193 5919045
-2935.3291 1030.4962 6259.0186 8221801
-2901.2019 1031.593 6265.6802 7365720
-2863.9507 1031.593 6265.6802 6641481
-2854.9043 1041.8862 6328.1992 6706758
-2762.4023 1021.5908 6204.9292 8284764
-2666.7415 999.56207 6071.1309 7297355
-2513.3823 955.00531 5800.5024 8020819
-2469.6104 951.42761 5778.7725 7888463
-2444.4111 955.00531 5800.5024 7362634
-2371.2322 939.67194 5707.3706 8087388
-2362.532 949.81592 5768.9829 6903629
-2506.509 1022.5443 6210.7202 7693918
-2272.3555 940.88049 5714.7114 7759197
-2296.2085 965.18817 5862.3511 8548196
-2261.3552 965.18817 5862.3511 9731441
-2226.502 965.18817 5862.3511 8942696
-2135.542 940.47919 5712.2739 7758936
-2101.5811 940.47919 5712.2739 7628122
-2067.6199 940.47919 5712.2739 7233622
-2080.2781 962.03864 5843.2212 8023910
-1984.6632 933.40833 5669.3267 8024431
-2111.6428 1010.2859 6136.2656 8156535
-2024.4492 985.59698 5986.3101 7762549
-1988.8589 985.59698 5986.3101 7828602
-1897.7789 957.5976 5816.2476 8487557
-1824.1255 937.5152 5694.2715 8882056
-1779.3196 931.78015 5659.4375 7761773
-1745.6727 931.78015 5659.4375 8879482
-1694.8923 922.45508 5602.7993 8286571
-1661.5822 922.45508 5602.7993 8221035
-1656.0043 938.1662 5698.2251 6904661
-1622.1268 938.1662 5698.2251 7299675
-1530.7771 904.21783 5492.0298 8418669
-1498.1254 904.21783 5492.0298 7826277
-1546.6381 954.29736 5796.2021 7892327
-1554.5959 981.06622 5958.791 7365982
-1414.1876 913.2699 5547.0103 7563618
-1362.1112 900.64221 5470.3125 6773848
-1329.5886 900.64221 5470.3125 6971485
-1331.8511 924.79578 5617.0161 4735035
-1298.4563 924.79578 5617.0161 6248528
-1238.6969 905.5224 5499.9536 6051914
-1198.0502 899.55469 5463.707 7961185
-1173.2994 905.5224 5499.9536 8356453
-1150.6288 913.48376 5548.3091 8356711
-1117.6425 913.48376 5548.3091 7830881
-1095.5237 922.63611 5603.8989 5923911
-1069.9214 929.33691 5644.5981 5794376
-1019.257 913.9978 5551.4316 6980185
-962.12079 891.63428 5415.6001 7704675
-924.96295 886.87787 5386.7109 7376738
-834.18573 828.52496 5032.2871 6324049
-857.11389 882.96527 5362.9463 6324561
-839.72906 898.47919 5457.1743 6192715
-814.34668 906.33893 5504.9131 6850132
-781.61847 906.33893 5504.9131 7178071
-732.82465 886.89569 5386.8188 7308889
-671.07013 849.27295 5158.3062 7110487
-676.29834 896.87628 5447.439 8294249
-646.22192 900.09393 5466.9824 7175769
-607.75403 891.3454 5413.8452 5399614
-580.31958 898.70508 5458.5464 7570783
-547.867 898.70508 5458.5464 6256718
-533.7973 930.75842 5653.2319 6257999
-476.56412 886.80005 5386.2378 5863495
-449.49017 896.672 5446.1982 5995594
-427.13742 918.22601 5577.1128 6258511
-384.53564 896.21484 5443.4214 5798474
-352.173 896.21484 5443.4214 6455894
-319.81033 896.21484 5443.4214 6456409
-289.86832 903.7619 5489.2607 5995601
-253.16354 889.46381 5402.417 6654048
-221.04466 889.46381 5402.417 5930580
-190.10683 895.02411 5436.1895 5865555
-159.45636 904.49243 5493.6978 5536846
-126.40726 901.72791 5476.9067 5603149
-92.457787 888.39368 5395.917 5274699
-56.307934 828.51324 5032.2163 4617792
-26.390007 828.51324 5032.2163 4683327
3.6454659 856.11841 5199.8843 5209671
34.663807 858.68427 5215.4688 5275207
68.143295 891.008 5411.7959 5143877
97.100365 862.43005 5238.2197 4748862
126.67933 851.91418 5174.3486 4485432
157.44228 851.91418 5174.3486 4814396
184.90797 836.98907 5083.6968 4353842
217.10414 844.66211 5130.3008 3827496
255.37033 871.15143 5291.1914 5274943
286.82794 871.15143 5291.1914 4617009
309.53378 847.19781 5145.7021 4879415
340.12643 847.19781 5145.7021 4880186
399.79745 913.65015 5549.3198 5143360
434.99203 918.29944 5577.5586 4420153
465.78195 913.65015 5549.3198 6196051
477.66638 874.98499 5314.4761 7445605
503.87744 865.73285 5258.2803 6918489
535.64465 866.55035 5263.2451 7510879
565.15558 863.82867 5246.7148 6853202
597.82043 865.96051 5259.6631 6985302
613.39398 844.3537 5128.4277 6590801
659.34668 864.63074 5251.5864 5670211
688.48511 862.02179 5235.7402 4749621
710.07239 850.59302 5166.3242 5210174
737.67432 847.01831 5144.6123 4420917
764.77063 843.17072 5121.2427 5013054
753.7066 799.15625 4853.9077 4289327
788.76794 805.49127 4892.3857 4684081
820.43457 808.03235 4907.8193 5670715
900.05829 856.00891 5199.2188 4881712
930.96912 856.00891 5199.2188 4157989
927.94421 825.80847 5015.7876 3960356
988.96722 852.71216 5179.1953 4354859
1019.759 852.71216 5179.1953 5078838
1047.7777 850.46136 5165.5244 4683824
1052.5702 830.02325 5041.3877 4091430
1102.4529 845.28918 5134.1094 4487212
1109.0845 827.46362 5025.8413 3237146
1135.1453 824.68909 5008.9888 5605694
1183.7726 838.03186 5090.0303 3302939
1207.6959 833.65662 5063.4556 4027175
1244.2959 838.03186 5090.0303 4158761
1297.506 853.12067 5181.6763 3567138
1345.0396 863.86383 5246.9277 4225067
1376.234 863.86383 5246.9277 4619824
1376.8157 845.07391 5132.8022 3961382
1360.687 817.06482 4962.6807 4619313
1440.0859 846.38953 5140.793 5737028
1431.6178 823.92603 5004.3545 5605699
1413.5697 796.97601 4840.6655 5013307
1442.3489 796.97601 4840.6655 5671238
1471.1279 796.97601 4840.6655 5342532
1507.1284 800.81311 4863.9712 5145153
1482.5255 772.91034 4694.4956 4421689
1510.4357 772.91034 4694.4956 4553015
1520.0381 763.71204 4638.627 5605958
1553.6198 766.67474 4656.6221 4881719
1603.344 777.36023 4721.5234 4421164
1628.4143 775.93054 4712.8398 4487213
1656.4335 775.93054 4712.8398 4816176
1665.9818 767.42212 4661.1611 4420905
1752.5454 794.08807 4823.125 4749870
1700.9326 758.29498 4605.7251 4750126
1728.3149 758.29498 4605.7251 4816175
1755.8302 758.35242 4606.0737 5474105
1783.2145 758.35242 4606.0737 6526793
1815.0043 760.19751 4617.2808 5934398
1886.5507 778.3913 4727.7861 5013553
1820.3893 740.06671 4495.0103 5671481
1847.1133 740.06671 4495.0103 5474101
1852.459 731.62335 4443.7271 6395203
1929.2423 751.2348 4562.8433 6263873
1936.2837 743.52197 4515.9966 5671479
1963.1326 743.52197 4515.9966 5539893
1966.101 734.59943 4461.8032 4421414
1973.0811 727.39337 4418.0352 5079347
1974.031 718.18286 4362.0923 5276471
2035.0442 730.77979 4438.6035 4947250
2102.8682 745.46863 4527.8203 5013302
2127.7366 744.75079 4523.4604 5342266
2334.446 806.90448 4900.9692 5473853
2217.6536 757.08539 4598.3784 4880946
2269.4009 765.31689 4648.3745 4946740
2309.3591 769.42236 4673.3105 3762981
2324.6729 765.31689 4648.3745 4617778
2370.7993 771.33276 4684.9136 3697190
2314.522 744.27899 4520.5947 3696422
2294.207 729.27795 4429.4814 5604676
2329.4417 732.07495 4446.4702 5736262
2368.324 735.94281 4469.9624 4683060
2394.8992 735.94281 4469.9624 5209662
2421.4744 735.94281 4469.9624 4814906
2445.5535 735.19244 4465.4048 4814906
2447.9348 728.00531 4421.752 4486197
2486.5955 731.64569 4443.8628 5735494
2533.5029 737.61041 4480.0913 5209663
2560.1382 737.61041 4480.0913 5801541
2558.5583 729.56488 4431.2246 4683317
2665.9207 752.43134 4570.1104 5867077
2693.0913 752.43134 4570.1104 4551986
2682.7603 742.05835 4507.1069 4420914
2628.4097 719.83496 4372.127 4157996
2722.9441 738.42218 4485.022 4158253
2749.6086 738.42218 4485.022 5802822
2781.1121 739.70911 4492.8384 6000199
2555.6335 673.27081 4089.3062 4881460
2617.6301 683.10516 4149.0376 5670462
2642.2974 683.10516 4149.0376 4683822
2655 680.04059 4130.4243 7118163
2679.5566 680.04059 4130.4243 4946993
2704.113 680.04059 4130.4243 5802045
2726.3301 679.45752 4126.8828 5604919
2813.9636 695.0426 4221.5435 4354849
2870.8237 702.81836 4268.7715 4355363
2896.2026 702.81836 4268.7715 4224289
2967.6777 713.90723 4336.123 5540149
2994.708 714.20557 4337.9351 4750633
3017.9456 713.60193 4334.269 4882220
3043.7141 713.60193 4334.269 5145135
3069.4827 713.60193 4334.269 4816170
3050.2551 703.22833 4271.2617 5276722
3006.8616 687.50049 4175.7344 4882219
3014.5955 683.62451 4152.1924 5276978
3058.7471 688.00287 4178.7856 5408820
3192.4778 712.29749 4326.3457 4750633
3269.6648 723.68854 4395.5327 4750638
3291.1526 722.66858 4389.3379 4750128
3198.3291 696.76184 4231.9854 4684081
3223.4895 696.76184 4231.9854 4946999
3248.6494 696.76184 4231.9854 5012025
3289.9937 700.20618 4252.9058 5209403
3365.2222 710.75458 4316.9746 4814646
3495.4814 732.67816 4450.1338 4748854
3414.9961 710.4306 4315.0068 4157746
3442.3291 710.77734 4317.1128 6723415
3563.0381 730.25659 4435.4258 4617521
3589.408 730.25659 4435.4258 5209660
3171.1062 640.44904 3889.9534 4617268
3326.8701 667.04291 4051.479 5406527
3350.957 667.04291 4051.479 5077561
3375.0442 667.04291 4051.479 5012282
3481.7158 683.24915 4149.9126 4749111
3421.9089 666.78772 4049.9292 6854232
3445.9871 666.78772 4049.9292 5735496
3482.8755 669.24933 4064.8804 5407045
3507.0425 669.24933 4064.8804 5736268
3580.8215 678.6521 4121.9907 5999440
3648.8911 686.85223 4171.7969 5802061
3703.7852 692.47827 4205.9683 4946751
3809.9607 707.55243 4297.5254 5670475
3835.5105 707.55243 4297.5254 5406788
3806.1006 697.48083 4236.3525 6393683
3744.4526 681.67279 4140.3379 4880443
3638.1238 657.99023 3996.4951 5012029
3519.9868 632.49323 3841.6316 5472580
3574.3113 638.11414 3875.772 5406784
3452.0444 612.33856 3719.2163 4288817
3606.0901 635.59259 3860.4563 4355123
3667.7756 642.37653 3901.6604 3960365
3651.9927 635.59259 3860.4563 4289073
3520.7388 608.9223 3698.4666 4355122
3449.9492 592.97559 3601.6096 4683573
3594.8245 614.06543 3729.7048 4947002
3816.9314 648.00842 3935.8677 5144124
0 0 0 0
0 0 0 0
0 0 0 0
0 0 0 0
0 0 0 0
0 0 0 0
0 0 0 0
-4867.6919 938.11188 5499.313 4996405
-5231.2686 1014.9987 5950.0317 5128761
-5260.0576 1027.5327 6023.5078 5260859
-5224.2461 1027.5327 6023.5078 5261115
-5188.4346 1027.5327 6023.5078 5591106
-5058.8267 1008.8279 5913.8579 4603955
-4935.5645 991.13568 5810.144 4011819
-4901.022 991.13568 5810.144 3682086
-4993.2139 1016.9473 5961.4546 7102809
-4957.7715 1016.9473 5961.4546 6180937
-4922.3291 1016.9473 5961.4546 7496026
-5059.165 1052.798 6171.6152 7167061
-5022.4731 1052.798 6171.6152 5718845
-5064.9185 1069.5085 6269.5747 7757916
-4960.8784 1055.3058 6186.3164 8744811
-4855.9355 1040.6974 6100.6802 8679786
-4597.7734 992.78485 5819.812 7890271
-4627.9331 1006.8744 5902.4062 5850432
-4641.1694 1017.4691 5964.5137 4994868
-4424.9854 977.54468 5730.4722 4994867
-4390.916 977.54468 5730.4722 6574154
-4496.9683 1008.9837 5914.771 6969169
-4480.6855 1013.2537 5939.8022 7231828
-4445.3721 1013.2537 5939.8022 6508361
-4410.0581 1013.2537 5939.8022 6047554
-4600.042 1065.4359 6245.7002 5324086
-4410.4995 1029.8483 6037.0815 6771532
-4386.5625 1032.6627 6053.5801 8218978
-4350.5728 1032.6627 6053.5801 8679270
-4345.751 1040.1227 6097.3115 8153183
-4340.3364 1047.5651 6140.9395 8547683
-4314.4722 1050.1561 6156.1284 8481891
-4284.8022 1051.8573 6166.1011 8613221
-4085.3538 1011.5501 5929.8154 7231824
-4341.3735 1084.2987 6356.2754 8679527
-4030.3291 1015.4514 5952.6855 9074285
-4086.5869 1038.7469 6089.2466 8679527
-4050.3848 1038.7469 6089.2466 7033932
-4240.5322 1097.3193 6432.604 8218719
-3888.366 1015.3464 5952.0703 6179394
-3781.844 996.60071 5842.1807 8153182
-3691.7617 981.87988 5755.8857 6639944
-3789.5107 1017.3076 5963.5664 6968909
-3900.1934 1056.9092 6195.7153 5850431
-3863.3579 1056.9092 6195.7153 6112831
-3664.054 1012.0342 5932.6538 7494995
-3857.207 1075.7397 6306.1025 7232334
-3720.4329 1047.7789 6142.1934 6377023
-3683.916 1047.7789 6142.1934 7232335
-3594.8772 1032.6913 6053.7471 5325107
-3547.1624 1029.2893 6033.8052 6246981
-3594.3225 1053.6294 6176.4888 7168342
-3557.6013 1053.6294 6176.4888 7432028
-3575.2273 1069.8927 6271.8262 6379854
-3533.8682 1068.6615 6264.6089 6051147
-3499.3232 1069.4867 6269.4458 5656387
-3271.8516 1010.7312 5925.0156 6905684
-3140.4893 980.70978 5749.0264 7497564
-3128.5303 987.72516 5790.1514 8550251
-3072.0835 980.69495 5748.9395 7826270
-3037.9045 980.69495 5748.9395 8221286
-3000.3914 979.60638 5742.5581 8418921
-2966.2505 979.60638 5742.5581 8089443
-2932.1094 979.60638 5742.5581 8024164
-2908.4075 983.13519 5763.2446 6181961
-2882.4568 985.97888 5779.9146 6576977
-2879.2278 996.75732 5843.0986 6840662
-2844.489 996.75732 5843.0986 6578261
-2809.7502 996.75732 5843.0986 6051659
-2784.0913 1000.0187 5862.2173 7170139
-2799.1858 1018.1865 5968.7192 7235673
-2763.7 1018.1865 5968.7192 6249031
-2752.8967 1027.3982 6022.7192 6051395
-2738.9304 1035.6566 6071.1309 5852735
-2659.1858 1018.9311 5973.0835 6773325
-2565.594 996.37506 5840.8579 8088672
-2494.166 981.9256 5756.1538 7693913
-2419.7544 965.88336 5662.1123 7430998
-2366.8887 958.11005 5616.5444 7101520
-2333.3887 958.06561 5616.2842 8351331
-2299.9983 958.06561 5616.2842 8811879
-2179.1238 921.08722 5399.5127 9601394
-2170.9993 931.37366 5459.8125 8680294
-2151.0396 936.81775 5491.7266 8089184
-2118.3899 936.81775 5491.7266 8089441
-2075.1135 932.04492 5463.7476 7761245
-2058.0725 939.09125 5505.0542 8222310
-2053.2271 952.02002 5580.8442 8551786
-1999.0948 942.14539 5522.958 8289640
-1966.2594 942.14539 5522.958 8290666
-1909.1034 930.29419 5453.4849 7370333
-1912.3043 947.95319 5557.0039 8095339
-1879.2665 947.95319 5557.0039 6648917
-1880.6753 965.64001 5660.686 7965803
-1847.0209 965.64001 5660.686 6979677
-1813.3666 965.64001 5660.686 7703141
-1742.1046 945.2348 5541.0684 7900518
-1719.4952 950.94977 5574.5703 7242586
-1686.3528 950.94977 5574.5703 6914646
-1641.235 944.06134 5534.1895 7639393
-1608.3326 944.06134 5534.1895 7443040
-1563.4287 936.86951 5492.0298 7049052
-1525.0699 933.37659 5471.5542 7509861
-1492.54 933.37659 5471.5542 7444327
-1467.8074 938.36139 5500.7754 6918752
-1447.166 946.24847 5547.0103 6853215
-1374.8768 919.94513 5392.8179 6525018
-1339.9594 917.98889 5381.3496 6656859
-1301.7449 913.62274 5355.7549 6459480
-1275.9722 917.98889 5381.3496 6854236
-1251.2876 923.38257 5412.9678 6788442
-1219.106 923.38257 5412.9678 6591318
-1143.3403 889.47571 5214.2026 6328657
-1147.7075 917.7569 5379.9897 6854741
-1064.2197 875.3927 5131.6465 5802306
-1033.1237 874.89563 5128.7324 5670972
-1002.6319 874.89563 5128.7324 4815918
-1040.5043 936.4212 5489.4019 4290341
-989.01398 918.90344 5386.7109 4947759
-924.35626 887.56989 5203.0303 5408312
-869.36121 863.66602 5062.9033 5605434
-826.52655 850.56134 4986.082 5013038
-778.65204 831.10242 4872.0122 4816427
-804.68964 892.07892 5229.4624 5013806
-793.34546 914.84949 5362.9463 4816940
-764.93561 919.02374 5387.416 5013810
-688.91956 863.86725 5064.083 5013042
-658.81219 863.86725 5064.083 5999684
-628.70477 863.86725 5064.083 5341241
-586.06714 845.78424 4958.0781 4486701
-556.58997 845.78424 4958.0781 4683568
-569.92175 914.47363 5360.7432 4749618
-538.0506 914.47363 5360.7432 5144376
-490.57205 886.27686 5195.4507 5275450
-459.68362 886.27686 5195.4507 5077815
-444.54147 918.82269 5386.2378 5143867
-402.37946 896.23901 5253.8496 5406784
-370.49252 894.66608 5244.6289 5603910
-335.46643 884.5271 5185.1934 5406534
-296.95984 862.23041 5054.4878 5998412
-266.90952 862.23041 5054.4878 5603909
-235.51779 857.34747 5025.8633 5011516
-201.47043 839.97351 4924.0156 5143873
-171.8419 838.24725 4913.896 4288312
-138.77437 815.60217 4781.1479 4420414
-110.34911 815.60217 4781.1479 4617540
-85.371895 849.92944 4982.3784 4815428
-55.4021 844.62146 4951.2622 4355391
-25.491528 829.2049 4860.8882 3697459
3.4078071 829.2049 4860.8882 3763508
31.818195 816.6554 4787.3223 4289851
62.906658 852.23834 4995.9131 3960887
95.068893 874.87811 5128.6294 3894582
122.31084 852.23834 4995.9131 3631666
152.22925 853.45105 5003.022 3893812
179.32834 841.0448 4930.2954 5538633
213.42978 860.35144 5043.4731 4814650
243.41463 860.35144 5043.4731 4880443
260.4653 819.64941 4804.873 4288307
288.30243 817.58148 4792.751 4617276
316.79666 817.58148 4792.751 3433260
357.90878 847.45825 4967.8916 4354619
387.44431 847.45825 4967.8916 3960116
416.9798 847.45825 4967.8916 3959859
464.58444 881.75232 5168.9272 7248995
495.31512 881.75232 5168.9272 7445858
517.8797 868.06433 5088.6865 6721878
539.53375 854.44537 5008.8511 6919511
569.31281 854.44537 5008.8511 7775335
599.0918 854.44537 5008.8511 6196815
643.88391 874.84363 5128.4277 6197071
679.35712 881.30829 5166.3242 4618295
707.0882 877.60455 5144.6123 5144383
716.55981 852.48474 4997.3574 6526549
724.84869 828.01404 4853.9077 3960624
736.51337 809.12579 4743.1826 4026414
767.70044 812.28687 4761.7129 5210943
798.41205 814.73785 4776.0811 4289583
826.80719 814.73785 4776.0811 3960871
876.88324 835.39301 4897.1636 5474368
905.99829 835.39301 4897.1636 4750387
972.06201 868.40143 5090.6631 4684597
1002.3274 868.40143 5090.6631 4750393
1022.5977 859.99573 5041.3877 4750395
1016.0764 830.17871 4866.5972 5605448
1045.0096 830.17871 4866.5972 5079360
1052.0759 813.27509 4767.5059 4619067
1080.42 813.27509 4767.5059 4619582
1102.1757 808.44238 4739.1763 4619581
1159.571 829.34058 4861.6841 5080385
1228.9078 857.55548 5027.0825 3304228
1272.411 866.83124 5081.458 3567143
1302.6218 866.83124 5081.458 4487987
1250.1812 813.07745 4766.3477 5869386
1319.3615 839.05164 4918.6113 5079100
1302.5847 810.42029 4750.771 4158255
1299.3573 791.25507 4638.4224 5605701
1326.934 791.25507 4638.4224 4947515
1344.4772 785.39386 4604.0635 5276737
1407.3989 805.74603 4723.3701 5342274
1417.0004 795.37292 4662.5615 4487222
1444.7206 795.37292 4662.5615 3236645
1416.6492 765.23578 4485.8945 5276743
1486.9692 788.37872 4621.561 4487739
1506.9215 784.46185 4598.5996 4225079
1541.9221 788.37872 4621.561 4553528
1548.755 778.00848 4560.7695 5145920
1549.6005 765.03918 4484.7422 3895596
1576.2634 765.03918 4484.7422 4290354
1592.3845 760.00769 4455.2471 6263632
1638.2004 769.08173 4508.4399 4750391
1633.2008 754.3913 4422.3232 4684086
1670.77 759.51788 4452.3755 6131533
1685.7845 754.3913 4422.3232 4881980
1702.7026 750.2608 4398.1099 5868876
1691.9657 734.25403 4304.2764 6328401
1741.4932 744.48724 4364.2646 5999690
1767.4398 744.48724 4364.2646 6065482
1793.3867 744.48724 4364.2646 6526288
1830.549 749.07678 4391.1689 5342271
1856.6558 749.07678 4391.1689 5276477
1882.688 749.04718 4390.9951 4289583
1923.4148 754.78479 4424.6299 3829803
1934.8994 749.04718 4390.9951 4487222
1922.8389 734.46875 4305.5352 3960879
1960.808 739.13226 4332.873 5144640
2005.2527 746.08411 4373.6255 4749626
2033.934 747.06805 4379.3936 5670472
2059.9705 747.06805 4379.3936 4486454
2151.2065 770.41803 4516.2734 4552247
2178.0569 770.41803 4516.2734 5275971
2225.0835 777.46783 4557.6001 5473096
2252.1799 777.46783 4557.6001 4354615
2239.5344 763.9118 4478.1333 5078338
2248.3972 757.92468 4443.0361 4683318
2240.3118 746.42969 4375.6514 6394192
2255.1206 742.73907 4354.0166 5275197
2204.7495 717.90833 4208.4561 5143868
2299.4265 740.33539 4339.9258 4682805
2256.8303 718.55792 4212.2642 6327629
2351.0305 740.33539 4339.9258 4485171
2214.249 689.69379 4043.0596 7709285
2322.6479 715.6886 4195.4438 4815679
2381.7534 726.10345 4256.4966 5933907
2407.0596 726.10345 4256.4966 6657374
2516.3865 751.18512 4403.5283 6591067
2542.5667 751.18512 4403.5283 5603912
2528.7119 739.4776 4334.8975 5472834
2576.4229 745.82849 4372.127 4486457
2564.1338 734.85712 4307.8115 6065236
2539.0181 720.46301 4223.4316 5539152
2548.9019 716.18488 4198.353 4289086
2482.5112 690.76624 4049.3462 5144396
2406.2896 663.12653 3887.3193 5933655
2372.6653 647.64014 3796.5361 4157242
2610.5415 705.85565 4137.8018 6525788
2608.8984 698.82599 4096.5933 6262614
2579.3584 684.52301 4012.7476 6328660
2625.3435 690.34167 4046.8572 5802056
2649.4033 690.34167 4046.8572 5670727
2719.6455 702.26685 4116.7642 5999691
2750.8657 703.99298 4126.8828 6262862
2743.0955 695.79852 4078.8462 4618037
2767.3455 695.79852 4078.8462 5408063
2680.9465 668.21967 3917.1755 7447138
2833.7786 700.22992 4104.8232 5144634
2905.6887 711.86847 4173.0498 5210682
2930.4988 711.86847 4173.0498 5671228
2849.0107 686.26367 4022.9517 4750380
2784.7419 665.19836 3899.4646 4486953
2807.9255 665.19836 3899.4646 4881968
2987.7207 701.99591 4115.1758 5539642
3027.9763 705.67578 4136.7476 4684334
3063.9673 708.31049 4152.1924 4355626
3149.3528 722.23053 4233.793 3829283
2952.5911 671.73889 3937.8057 4289834
3107.5742 701.43707 4111.8999 4816436
3169.9656 709.93512 4161.7163 4157994
3156.4668 701.43707 4111.8999 5539647
3219.4507 709.93512 4161.7163 5013303
3067.7776 671.32965 3935.4067 4026411
3302.364 717.19489 4204.2739 4420913
3327.3594 717.19489 4204.2739 4486705
3383.8271 723.92804 4243.7441 4815159
3467.9597 736.4361 4317.0679 3894058
3559.3472 750.28979 4398.2798 3762216
3171.1062 663.57587 3889.9534 4354609
3202.2002 665.23096 3899.6555 4814903
3293.4568 679.27069 3981.9583 4814646
3256.0488 666.76257 3908.6343 3893544
3279.2866 666.76257 3908.6343 3564579
3252.7209 656.70746 3849.6899 4288302
3275.6084 656.70746 3849.6899 4090922
3419.9434 680.88678 3991.4319 5472577
3443.6736 680.88678 3991.4319 4946233
3461.6057 679.74829 3984.7578 4222511
3485.2961 679.74829 3984.7578 5077566
3506.3123 679.23022 3981.7207 3959599
3533.1235 679.83417 3985.2612 4025136
3526.0056 673.94507 3950.7385 5604168
3719.8374 706.28827 4140.3379 5077824
3590.9558 677.33527 3970.6125 5274946
3497.1472 655.33282 3841.6316 3894319
3374.5916 628.26385 3682.9504 3828269
3309.8486 612.23792 3589.0044 4025905
3331.1863 612.23792 3589.0044 3039006
3474.156 634.45032 3719.2163 3894570
3506.8232 636.36566 3730.4443 3631909
3496.9651 630.58881 3696.5793 3105564
3518.9426 630.58881 3696.5793 2973978
3449.9492 614.38818 3601.6096 4092205
3485.198 616.8371 3615.9653 3697704
3531.4465 621.19073 3641.4871 3696935
0 0 0 0
0 0 0 0
0 0 0 0
0 0 0 0
0 0 0 0
0 0 0 0
0 0 0 0
-4785.0933 954.33356 5405.9971 6377802
-5370.9307 1078.4156 6108.8828 5062712
-5334.6118 1078.4156 6108.8828 5523263
-5202.1978 1058.8564 5998.0864 5523263
-5188.4346 1063.3441 6023.5078 5654591
-5058.8267 1043.9874 5913.8579 4272938
-4871.374 1012.3389 5734.5791 5457212
-4967.4199 1039.5742 5888.8584 5391163
-5068.3281 1068.2212 6051.1343 5720384
-4897.3979 1039.5742 5888.8584 6180680
-4711.2783 1007.2673 5705.8501 6838611
-4827.1455 1039.5247 5888.5776 6377547
-4792.1367 1039.5247 5888.5776 6377033
-5064.9185 1106.783 6269.5747 6969427
-4960.8784 1092.0852 6186.3164 6311240
-4924.0991 1092.0852 6186.3164 4995124
-4565.2539 1020.1187 5778.6494 6508108
-4530.8984 1020.1187 5778.6494 5126199
-4384.1333 994.61676 5634.1885 5258041
-4350.6367 994.61676 5634.1885 6113349
-4317.1396 994.61676 5634.1885 5784896
-4417.3774 1025.6685 5810.0869 6048068
-4452.3403 1041.9341 5902.2266 6771792
-4417.25 1041.9341 5902.2266 5850689
-4505.2358 1071.1976 6067.9946 5653311
-4469.1597 1071.1976 6067.9946 7034964
-4388.7759 1060.4912 6007.3462 6706256
-4418.2515 1076.3729 6097.3115 6443339
-4436.5508 1089.7722 6173.2144 7824734
-4345.751 1076.3729 6097.3115 6705999
-4081.8328 1019.5088 5775.1943 8021859
-4156.1694 1046.8817 5930.2534 5718847
-4285.5068 1088.6956 6167.1152 5784385
-4085.3538 1046.8044 5929.8154 6573132
-4065.7195 1050.8418 5952.6855 4665133
-4009.9189 1045.5201 5922.54 4204837
-3938.5325 1036.0044 5868.6367 6771788
-3903.6418 1036.0044 5868.6367 6377030
-4181.6479 1119.7944 6343.2803 6574668
-4101.7231 1108.3877 6278.665 6574925
-3781.844 1031.3341 5842.1807 7233111
-3747.1106 1031.3341 5842.1807 5127992
-3789.5107 1052.7626 5963.5664 6838610
-3739.2498 1048.6106 5940.0464 5720128
-3699.325 1047.3055 5932.6538 6903375
-3649.3616 1043.1061 5908.8652 6574663
-3623.4773 1045.7744 5923.9805 7956316
-3588.2576 1045.7744 5923.9805 6442822
-3639.1289 1071.1138 6067.52 6377542
-3415.082 1015.233 5750.9731 7825244
-3400.3894 1021.0882 5784.1411 7430742
-3511.2896 1065.162 6033.8052 7035984
-3557.6013 1090.3503 6176.4888 6049858
-3188.8843 987.53723 5594.0854 3287327
-3285.9746 1028.3293 5825.1597 7761248
-3380.5173 1069.1844 6056.5908 6840658
-3155.2974 1008.6967 5713.9468 7038295
-3121.3264 1008.6967 5713.9468 6380620
-3106.3096 1014.8893 5749.0264 6709842
-3072.0835 1014.874 5748.9395 6315339
-3018.8179 1008.4977 5712.8193 6710352
-2960.3269 1000.2108 5665.877 5262650
-2918.4905 997.42505 5650.0967 6183495
-2921.6375 1010.127 5722.0488 7367768
-2887.6182 1010.127 5722.0488 7367510
-2853.5989 1010.127 5722.0488 7367509
-2771.041 992.73767 5623.5439 8026207
-2737.6072 992.73767 5623.5439 10066301
-2704.1738 992.73767 5623.5439 7435606
-2706.417 1005.999 5698.6655 8423780
-2679.5586 1008.6421 5713.6377 6648906
-2624.3909 1000.5601 5667.8555 7439447
-2558.9895 988.31537 5598.4937 7374680
-2476.0964 968.9035 5488.5312 7835231
-2461.1294 975.90765 5528.2075 6980691
-2428.2625 975.90765 5528.2075 7703899
-2345.1501 955.43707 5412.248 7178581
-2271.7021 938.3891 5315.6768 6981457
-2291.9104 960.09314 5438.6235 7705693
-2187.8306 929.60846 5265.9375 7443032
-2179.1506 939.36255 5321.1909 7772252
-2125.5281 929.74512 5266.7114 6916943
-2094.2161 929.74512 5266.7114 7114577
-2110.6785 951.27686 5388.6821 6391879
-2078.6411 951.27686 5388.6821 6918736
-2046.6039 951.27686 5388.6821 7051092
-1896.2493 895.40747 5072.1997 6722384
-1908.0851 915.55621 5186.3359 6788432
-1877.4957 915.6756 5187.0122 7051602
-1864.7421 924.64301 5237.8096 6262596
-1887.8284 951.98816 5392.7114 5934396
-1855.7672 951.98816 5392.7114 5934907
-1783.6027 931.05389 5274.1255 5869372
-1719.3347 913.56635 5175.0635 5804349
-1675.4882 906.48987 5134.978 5737787
-1604.762 884.33844 5009.4966 6198594
-1644.8622 923.57709 5231.7715 4882733
-1683.2919 963.37244 5457.1997 6264135
-1650.8474 963.37244 5457.1997 6330185
-1618.4027 963.37244 5457.1997 5803586
-1555.2013 944.68958 5351.3672 5803329
-1479.312 917.35822 5196.5435 6066502
-1488.3619 942.65735 5339.855 6000452
-1469.6188 951.07288 5387.5264 6461004
-1452.2771 960.79053 5442.5737 6461003
-1405.5581 951.07288 5387.5264 5868610
-1358.5142 940.67688 5328.6367 5737025
-1326.8339 940.67688 5328.6367 6527055
-1272.0707 923.91168 5233.667 5408573
-1240.9552 923.91168 5233.667 5540156
-1202.2122 918.08685 5200.6714 5408312
-1133.1807 888.21381 5031.4497 5737532
-1088.3452 876.20044 4963.3979 5539641
-1060.3125 877.42194 4970.3169 6263625
-1030.7626 877.42194 4970.3169 5671487
-1006.2676 881.85181 4995.4111 5868866
-972.54272 878.21655 4974.8184 5868863
-942.96613 878.21655 4974.8184 6330182
-929.56201 893.76642 5062.9033 6790476
-873.61786 868.08624 4917.4336 4619307
-856.17017 880.20496 4986.082 6198337
-807.61749 860.06793 4872.0122 5540149
-774.54498 855.53143 4846.3145 5474613
-749.66687 860.04535 4871.8843 6132288
-720.70221 860.04535 4871.8843 4881456
-730.61285 908.37952 5145.6821 5275961
-643.86652 835.5116 4732.9087 5735747
-615.72803 835.5116 4732.9087 4353843
-602.5625 856.80219 4853.5127 5668683
-581.45801 868.37787 4919.0854 5668687
-556.12982 874.53772 4953.979 6260824
-515.90131 856.64478 4852.6211 5997396
-481.63788 847.12378 4798.6875 6589531
-449.10986 839.64819 4756.3413 6194516
-419.19675 836.3855 4737.8584 6589787
-385.59515 824.76312 4672.0215 6524250
-371.68881 856.7334 4853.123 5669456
-342.83563 856.7334 4853.123 5669456
-313.98248 856.7334 4853.123 5537614
-284.90469 856.05859 4849.3003 5669456
-249.39505 833.7298 4722.8149 5143625
-230.27087 867.46179 4913.896 5407312
-188.92216 815.10846 4617.3311 4814920
-159.5246 805.28369 4561.6768 4485955
-132.0594 803.18695 4549.7993 5013069
-103.67841 793.00519 4492.123 4355139
-82.538239 850.35706 4817.0034 4157502
-54.361134 857.63531 4858.2319 5538898
-25.261387 850.35706 4817.0034 4025914
3.2842782 826.99896 4684.687 2973225
31.088078 825.72485 4677.4697 3696692
58.896935 825.72485 4677.4697 4025656
90.517242 862.02246 4883.084 4617793
119.54854 862.02246 4883.084 3894071
150.01636 870.35681 4930.2954 3630901
172.37073 836.58856 4739.0088 3894330
200.54546 836.58856 4739.0088 3170352
231.899 848.21564 4804.873 4223038
255.9126 833.38959 4720.8882 2775592
283.97961 833.38959 4720.8882 3630901
312.90863 835.69189 4733.9297 3170350
340.64685 834.69629 4728.29 3959866
364.87598 825.90961 4678.5161 4091707
383.04147 805.6145 4563.5508 3828532
409.3812 804.0592 4554.7407 3565102
429.60275 791.4259 4483.1768 3631148
456.2565 791.4259 4483.1768 3959598
501.33871 821.62769 4654.2607 5275455
536.9469 833.95551 4724.0938 5735749
590.74884 871.91064 4939.0977 5867334
624.63348 878.26642 4975.1011 5275454
657.13843 882.19543 4997.3574 4750137
671.66772 862.69629 4886.9009 5407553
683.06836 840.96222 4763.7847 5342019
705.42694 833.91272 4723.8511 3500842
721.09265 819.79388 4643.8726 3895854
743.69635 814.31317 4612.8262 4224306
772.93201 816.22577 4623.6602 4224304
800.4209 816.22577 4623.6602 4553009
816.6452 805.12012 4560.75 5210423
876.33014 836.19849 4736.7993 5735998
957.76453 885.44897 5015.7876 5275446
949.48694 851.2912 4822.2949 4683312
978.15686 851.2912 4822.2949 5078589
998.034 843.85675 4780.1812 2907935
1013.7398 833.40472 4720.9736 5473863
1028.2469 822.55695 4659.5244 4684091
1042.9076 812.39783 4601.9766 4815931
1068.6881 811.19904 4595.1855 3697964
1122.3362 830.68573 4705.5713 3368738
1156.3933 835.07721 4730.4478 4684848
1177.7451 830.30298 4703.4033 7053397
1196.4047 823.89618 4667.1108 4816179
1224.152 823.89618 4667.1108 4750644
1233.1343 811.54663 4597.1548 6592595
1252.9486 806.70685 4569.7383 5145150
1272.9812 802.20996 4544.2651 6724436
1299.998 802.20996 4544.2651 6395473
1316.139 795.63525 4507.0215 6921562
1342.9346 795.63525 4507.0215 7316577
1369.7301 795.63525 4507.0215 6592598
1389.9792 791.9057 4485.8945 6000464
1399.9281 782.55859 4432.9463 6461015
1425.2961 782.01703 4429.8784 5540167
1441.1111 776.34875 4397.7695 4224304
1465.3566 775.34314 4392.0732 5342786
1482.6523 770.75995 4366.1108 5934924
1483.8126 758.09076 4294.3438 5935180
1534.5679 770.75995 4366.1108 5737030
1537.8081 759.53955 4302.5508 6131532
1564.0377 759.85522 4304.3389 5605187
1589.6281 759.85522 4304.3389 6065993
1649.7993 776.12317 4396.4917 4749876
1650.9579 764.55505 4330.9619 7184219
1666.3755 759.84418 4304.2764 5275967
1667.6084 748.90564 4242.313 6131533
1692.8301 748.90564 4242.313 6262609
1728.5774 753.49377 4268.3032 4881213
1753.9537 753.49377 4268.3032 5999691
1724.9402 730.4613 4137.8315 4289329
1749.5406 730.4613 4137.8315 4815674
1786.8359 735.68799 4167.4395 5605192
1788.6906 726.37946 4114.7095 2776350
1907.879 764.32806 4329.6763 4881723
1892.9175 748.23895 4238.5366 6198091
1948.4364 760.06641 4305.5352 5341764
1914.3424 737.08319 4175.3428 4486197
1939.166 737.08319 4175.3428 5933646
1995.3688 748.8598 4242.0532 4486712
2115.7144 784.11456 4441.7607 4947265
2142.1218 784.11456 4441.7607 5867854
2100.0107 759.33911 4301.4155 5933647
2033.7368 726.52789 4115.5503 7249763
2084.2827 735.73309 4167.6948 7315557
2109.0608 735.73309 4167.6948 7183710
2133.8389 735.73309 4167.6948 6131021
2146.3535 731.55322 4144.0171 6196300
2054.7568 692.38617 3922.1479 6920023
2101.5869 700.22003 3966.5244 5670212
2125.1692 700.22003 3966.5244 7117400
2189.5298 713.50867 4041.8003 8104294
2142.1941 690.50513 3911.4927 7512152
2165.4492 690.50513 3911.4927 5933373
2245.7051 708.48816 4013.3608 4946736
2375.415 741.53107 4200.5386 5670203
2424.658 749.02844 4243.0088 5670204
2449.8838 749.02844 4243.0088 5868355
2384.887 721.72479 4088.3423 4289068
2447.8066 733.29224 4153.8682 4289072
2466.2397 731.43488 4143.3467 4421174
2503.3872 735.10968 4164.1631 3894316
2496.063 725.78125 4111.3208 3894316
2474.147 712.43225 4035.7026 4289330
2498.1404 712.43225 4035.7026 3434020
2429.4009 686.23773 3887.3193 4815418
2579.9456 721.89496 4089.3062 6262867
2539.0818 703.82837 3986.9646 6459991
2562.7854 703.82837 3986.9646 6196567
2495.2732 679.00696 3846.3591 5999188
2695.1702 726.74219 4116.7642 5933398
2719.6455 726.74219 4116.7642 5209933
2718.8457 720.04846 4078.8462 6328416
2626.6777 689.48938 3905.739 6065244
2674.7141 695.94623 3942.3149 5406803
2680.9465 691.5083 3917.1755 5801559
2721.5903 695.94623 3942.3149 6920294
2801.1758 710.18121 4022.9517 4814914
2765.6851 695.24701 3938.3538 5407306
2746.2671 684.57001 3877.8721 5802062
2769.3223 684.57001 3877.8721 5209927
2754.4353 675.26831 3825.1809 5143878
2777.177 675.26831 3825.1809 5275977
2866.9238 691.42816 3916.7214 5341514
2890.2097 691.42816 3916.7214 5538893
2913.4956 691.42816 3916.7214 5867858
2924.1108 688.44501 3899.8225 6788959
2900.4038 677.49152 3837.7749 5801807
2969.0203 688.1062 3897.9036 6328408
2992.1943 688.1062 3897.9036 4946754
3015.3684 688.1062 3897.9036 5538120
3006.4717 680.84344 3856.7625 6656856
3117.0945 700.55206 3968.4055 4223283
3140.6877 700.55206 3968.4055 5078847
3245.1643 718.45917 4069.8435 4815673
3342.7661 734.59039 4161.2217 4091697
3367.5056 734.59039 4161.2217 4946495
3169.2764 686.30646 3887.7085 4815167
3174.0176 682.35675 3865.335 4354615
3164.8074 675.48608 3826.4146 4946752
3219.9788 682.35675 3865.335 4157236
3220.7817 677.69037 3838.9014 5867853
3163.0063 660.85083 3743.5103 3762734
3208.446 665.66064 3770.7568 3960112
3268.8367 673.48419 3815.0745 3828270
3291.5183 673.48419 3815.0745 4157234
3314.2 673.48419 3815.0745 3104550
3482.6396 702.90265 3981.7207 4617785
3479.0293 697.43329 3950.7385 3302695
3339.3877 664.95038 3766.7329 3368232
3361.7822 664.95038 3766.7329 3500074
3362.8701 660.76392 3743.0181 3894574
3320.5586 648.16113 3671.6272 4289332
3256.7227 631.54883 3577.5242 3632169
3213.9822 619.21649 3507.665 3171616
3160.4146 604.97064 3426.9668 3106078
3225.2671 613.43011 3474.8872 3237406
3245.926 613.43011 3474.8872 3303453
3319.4907 623.36523 3531.1665 3500832
3352.7253 625.64941 3544.1057 3369247
3478.4788 645.06226 3654.073 3566881
3394.8665 625.64941 3544.1057 3895590
3312.2178 606.65259 3436.4946 3434526
3332.6489 606.65259 3436.4946 4289834
0 0 0 0
0 0 0 0
0 0 0 0
0 0 0 0
0 0 0 0
0 0 0 0
0 0 0 0
0 0 0 0
-5137.1162 1066.2065 5842.9429 5325883
-5237.8584 1094.5168 5998.0864 4799540
-5054.999 1063.547 5828.3677 5326910
-5020.3481 1063.547 5828.3677 5852228
-4752.6963 1013.8434 5555.9863 5786435
-4797.8335 1030.6351 5648.0068 5786179
-4858.5225 1051.0277 5759.7612 6378571
-4824.2788 1051.0277 5759.7612 6246985
-4661.4512 1022.8138 5605.145 7693662
-4660.8647 1030.0488 5644.7939 5719870
-4652.4819 1035.6533 5675.5073 8482662
-4808.5527 1078.2147 5908.7495 7627608
-4742.6831 1071.2711 5870.6978 7232341
-4869.3613 1108.0396 6072.1929 4798000
-4655.356 1067.2545 5848.6855 9536122
-4514.4551 1042.741 5714.3486 6707024
-4379.7705 1019.3024 5585.9028 6246474
-4346.5605 1019.3024 5585.9028 5917252
-4313.3511 1019.3024 5585.9028 6772816
-4292.7764 1022.3115 5602.3926 6707024
-4253.8643 1020.9664 5595.021 7036247
-4382.835 1060.2111 5810.0869 6773075
-4349.7651 1060.5701 5812.0547 5984073
-4315.2109 1060.5701 5812.0547 6774357
-4220.5298 1045.6732 5730.4175 6182224
-4358.9712 1088.762 5966.5493 8024424
-4350.2217 1095.4917 6003.4287 5063742
-4314.5298 1095.4917 6003.4287 3813420
-4024.5168 1030.379 5646.6035 5326146
-3984.1941 1028.6357 5637.0503 5523782
-4043.5374 1052.8129 5769.5439 4141872
-4014.1445 1054.1019 5776.6079 5260867
-3959.7 1048.7778 5747.4316 6050636
-3852.8179 1029.3514 5640.9727 6051148
-3723.4006 1003.5104 5499.3604 6775125
-3670.9155 998.12958 5469.8726 5788229
-3643.145 999.4325 5477.0127 6906968
-3639.6042 1007.4659 5521.0366 5591619
-3610.4995 1008.5047 5526.7295 5591621
-3647.4922 1028.1951 5634.6348 6118220
-3730.9331 1061.465 5816.9585 6448212
-3696.3496 1061.465 5816.9585 6777432
-3687.3735 1068.8879 5857.6372 6448979
-3652.5483 1068.8879 5857.6372 6054475
-3557.4629 1051.0836 5760.0674 6449743
-3473.9243 1036.3778 5679.478 6384205
-3379.418 1018.0793 5579.1997 5528895
-3353.729 1020.3554 5591.6729 6647889
-3271.5974 1005.3327 5509.3467 5727812
-3238.843 1005.3327 5509.3467 6715731
-3255.4011 1020.7957 5594.0854 6190669
-3222.1423 1020.7957 5594.0854 6126155
-3152.603 1009.1816 5530.4395 6521936
-3101.3818 1003.2485 5497.9253 4812599
-3144.8787 1028.1554 5634.4175 4812853
-3137.3645 1036.7416 5681.4717 4353326
-3103.5864 1036.7416 5681.4717 5011767
-3072.2087 1037.5524 5685.9141 5274680
-2982.3311 1018.4044 5580.981 5209142
-2908.8027 1004.4714 5504.6265 5077810
-2860.6289 999.07642 5475.0615 5473082
-2801.8552 989.81268 5424.2949 5275189
-2769.6062 989.81268 5424.2949 5341496
-2768.9456 1001.2347 5486.8896 5407031
-2736.3245 1001.2347 5486.8896 5011760
-2659.52 984.8728 5397.2241 6196034
-2639.0222 989.21729 5421.0322 5801535
-2643.0549 1002.9779 5496.4424 6261833
-2618.4304 1006.0723 5513.3999 5209658
-2605.9238 1013.9601 5556.626 6262346
-2541.3582 1001.5344 5488.5312 6131015
-2344.0991 935.8114 5128.3618 6525774
-2313.6096 935.8114 5128.3618 5999430
-2283.1201 935.8114 5128.3618 5736515
-2361.1143 980.87897 5375.3374 6262602
-2302.469 969.64008 5313.7466 6723664
-2250.4456 960.91589 5265.9375 6789969
-2144.3516 928.53235 5088.4712 6526540
-2017.5839 886.14191 4856.1665 5671231
-2056.418 916.31042 5021.4937 5474364
-2085.5969 943.00232 5167.7686 6000451
-2064.1426 947.25616 5191.0801 5408315
-2062.9041 961.05719 5266.7114 6000709
-2002.4177 947.25616 5191.0801 6592845
-2003.224 962.47174 5274.4634 6592589
-1878.7579 917.02557 5025.4126 6263880
-1838.7511 912.00153 4997.8804 6066501
-1807.0468 910.99799 4992.3809 5277242
-1835.2588 940.67133 5154.9946 6264389
-1804.6108 940.67133 5154.9946 5869886
-1777.4049 942.49652 5164.9966 5541689
-1685.1384 909.27997 4982.9658 5607482
-1655.5133 909.27997 4982.9658 5410103
-1614.2941 902.79602 4947.4331 5278261
-1564.8558 891.38953 4884.9238 5344311
-1564.506 908.04254 4976.1846 5738814
-1566.0425 926.45367 5077.0796 5278264
-1582.6533 954.68146 5231.7715 5278266
-1539.0502 946.99066 5189.6255 5409852
-1464.4326 919.5116 5039.0366 5804613
-1406.3615 901.49121 4940.2822 5672770
-1368.1354 895.69409 4908.5137 5738306
-1344.9537 899.70844 4930.5127 4620080
-1309.7704 895.69409 4908.5137 5803586
-1317.9165 921.80322 5051.5947 5212218
-1304.9591 934.02509 5118.5723 4882998
-1236.0322 905.81415 4963.9727 5343292
-1203.47 903.52417 4951.4238 6001738
-1131.2461 870.59625 4770.9746 5606723
-1102.8813 870.59625 4770.9746 6462290
-1106.0155 896.11743 4910.8335 6001486
-1079.1243 898.03571 4921.3457 6790489
-1049.8656 898.03571 4921.3457 6132298
-1013.3645 891.66321 4886.4238 5935174
-974.67676 882.93359 4838.5845 5013815
-950.28778 887.02002 4860.9785 6395466
-921.388 887.02002 4860.9785 5145400
-857.09131 851.84003 4668.188 5277242
-828.86462 851.35419 4665.5254 5408828
-793.65277 843.41168 4621.9995 6724944
-795.79694 876.02118 4800.7036 5474620
-770.24243 879.4317 4819.3936 5606207
-738.71387 876.02118 4800.7036 5079867
-709.5965 875.31085 4796.811 5013053
-662.0484 850.85413 4662.7852 6789212
-624.24469 837.33051 4588.6738 5012290
-589.77216 827.2431 4533.394 5866832
-543.7356 799.19275 4379.6743 6393180
-535.7403 827.04657 4532.3169 4945479
-502.56586 816.92212 4476.8335 5998167
-490.4162 841.75232 4612.9058 5997908
-475.53253 864.55334 4737.8584 5866323
-441.1481 852.53955 4672.0215 7577192
-396.18109 817.08569 4477.73 7248227
-368.57996 814.91949 4465.8589 5735245
-340.73441 811.83447 4448.9526 7577449
-320.29007 827.34857 4533.9717 7314534
-306.14175 863.4718 4731.9316 4946497
-277.47348 861.80823 4722.8149 7775079
-240.26091 830.24438 4549.8413 7644517
-208.18411 810.67029 4442.5728 5275713
-182.42043 813.56311 4458.4258 4025907
-158.98477 829.58734 4546.2402 3302441
-129.96304 817.05725 4477.5742 4289594
-102.19471 807.98163 4427.8384 4618303
-76.746132 817.31219 4478.9712 5670736
-51.421646 838.58167 4595.5308 3960119
-24.56749 854.85077 4684.687 3894326
3.2217736 838.58167 4595.5308 3828533
30.962084 850.07446 4658.5127 3762740
57.227581 829.34143 4544.8931 5473357
84.248238 829.34143 4544.8931 4749633
111.23762 829.10834 4543.6157 3696947
148.77457 892.22156 4889.4839 3762742
166.9838 837.73773 4590.9058 4091451
194.80241 839.9989 4603.2974 4222780
223.0269 843.23767 4621.0459 3565107
248.73245 837.28674 4588.4341 3894329
273.97604 831.11072 4554.5889 4091451
305.26144 842.72516 4618.2373 4354621
331.93057 840.73029 4607.3052 6394461
355.90988 832.74603 4563.5508 6328412
369.36185 803.0061 4400.5718 4289084
395.52444 803.0061 4400.5718 3696945
421.68707 803.0061 4400.5718 2973219
454.61166 815.13037 4467.0146 4881468
489.37115 829.02478 4543.1577 4684086
516.38147 829.02478 4543.1577 6394705
565.03296 862.04156 4724.0938 5736518
594.60724 864.20453 4735.9473 5341503
642.61377 891.75024 4886.9009 4289328
649.25775 861.99725 4723.8511 5013307
672.71143 856.10394 4691.5547 5079358
693.48358 847.40302 4643.8726 4684601
694.89276 816.61377 4475.144 4289843
721.49878 816.61377 4475.144 4487479
760.0235 829.62408 4546.4419 5210687
787.05341 829.62408 4546.4419 5341759
791.9292 807.04712 4422.7173 3762983
840.62604 829.14368 4543.8091 5209915
867.64026 829.14368 4543.8091 5933382
878.31085 813.99683 4460.8027 6262348
899.25189 808.97729 4433.2949 5867340
918.77692 803.0061 4400.5718 5867085
951.96625 808.97729 4433.2949 6131282
984.83704 814.3634 4462.8115 6065233
1001.4733 806.39478 4419.1426 5868109
1044.8824 819.84015 4492.8247 6460244
1071.5935 819.84015 4492.8247 5342276
1112.913 830.74469 4552.583 5605446
1096.5641 799.10645 4379.2017 5934410
1161.6558 826.90796 4531.5571 5539653
1188.5972 826.90796 4531.5571 5803082
1200.568 816.72388 4475.7471 6131792
1227.1776 816.72388 4475.7471 5670731
1235.5195 804.8241 4410.5352 6394454
1261.7413 804.8241 4410.5352 5407302
1304.8911 815.4021 4468.5034 6394196
1310.0988 802.32166 4396.8213 6394451
1335.0591 801.6131 4392.9385 7249758
1349.5487 794.76556 4355.4126 5802311
1388.8192 802.49469 4397.7695 4289330
1413.1324 801.45526 4392.0732 4552759
1396.5161 777.66156 4261.6812 5013310
1421.853 777.66156 4261.6812 5999952
1446.4989 777.29022 4259.646 5670987
1471.7919 777.2735 4259.5542 5342277
1489.3479 773.24036 4237.4521 5078849
1514.5406 773.24036 4237.4521 6328918
1561.9865 784.41559 4298.6938 6394455
1569.2371 775.3703 4249.1245 4749373
1603.7354 779.86157 4273.7373 6262869
1629.1439 779.86157 4273.7373 6197077
1619.3534 763.27069 4182.8174 6131029
1644.2213 763.27069 4182.8174 5999701
1588.7521 726.53265 3981.4883 6460253
1583.2081 713.36884 3909.3489 6920806
1621.3563 719.98816 3945.6235 6525792
1656.1329 724.94269 3972.7751 7117928
1679.7522 724.94269 3972.7751 6788962
1696.0701 721.83533 3955.7463 6328665
1711.2623 718.34045 3936.5938 5604939
1790.8683 741.61407 4064.1362 4420918
1758.0707 718.34045 3936.5938 6460750
1854.7014 747.86743 4098.4053 7183963
1806.4009 718.94611 3939.9131 4618037
1807.298 710.09528 3891.4092 6657365
1989.2875 771.72089 4229.125 6262863
2020.5889 774.07996 4242.0532 5933642
2074.4377 784.91229 4301.4155 6328659
1969.9031 736.28247 4034.9182 4026160
1946.6682 718.84424 3939.3547 6920538
2010.519 733.59637 4020.1982 5538631
2009.9353 724.76727 3971.8137 7381090
2036.4843 725.81354 3977.5474 6131022
2031.4385 715.70441 3922.1479 5604163
2034.9714 708.81287 3884.3816 7380831
2072.5112 713.78821 3911.647 5736004
2095.7671 713.78821 3911.647 5209657
2148.7512 723.80212 3966.5244 6130757
2121.3335 706.80945 3873.4026 5933889
2156.1672 710.70062 3894.7266 7052111
2223.0188 724.95044 3972.8174 5868348
2269.5657 732.34869 4013.3608 5933883
2270.2576 724.95044 3972.8174 5934395
2360.5806 746.03113 4088.3423 4816169
2337.4626 731.19611 4007.0444 4487204
2361.2856 731.19611 4007.0444 4224545
2385.1086 731.19611 4007.0444 4882223
2471.6199 750.22424 4111.3208 4026661
2408.0952 723.78442 3966.4275 3632162
2431.6768 723.78442 3966.4275 3961129
2406.2896 709.34894 3887.3193 3434531
2415.6543 705.33514 3865.3232 3829291
2447.5574 707.91589 3879.4661 5670469
2477.7488 709.95801 3890.6572 5473348
2447.208 694.7215 3807.1592 5275465
2462.4299 692.63641 3795.7324 7446892
2492.4773 694.7215 3807.1592 6328156
2519.2969 695.87744 3813.4939 6657377
2584.2158 707.44275 3876.873 6130523
2592.8367 703.52783 3855.4189 7775348
2630.4165 707.47021 3877.0239 8038520
2653.4666 707.47021 3877.0239 6788453
2651.4709 700.8501 3840.7446 5275472
2674.3052 700.8501 3840.7446 5735764
2699.6157 701.49359 3844.271 6130522
2699.821 695.65741 3812.2878 6130519
2675.1741 683.56805 3746.0369 6064982
2697.4453 683.56805 3746.0369 5143622
2752.2642 691.74854 3790.8667 4749120
2791.616 695.94019 3813.8379 4551741
2814.2903 695.94019 3813.8379 4551742
2795.6956 685.81641 3758.3582 4946757
2818.04 685.81641 3758.3582 4815171
2881.9431 695.85077 3813.3479 5407052
2904.6145 695.85077 3813.3479 6393950
2904.1392 690.34851 3783.1948 5341005
2926.6313 690.34851 3783.1948 5867092
2857.064 668.79871 3665.0991 5867348
3017.2495 700.95001 3841.292 5275468
3040.0872 700.95001 3841.292 5406796
3039.9692 695.69666 3812.5029 5472846
3062.6357 695.69666 3812.5029 4156985
3003.9214 677.34631 3711.9409 5472844
3045.6738 681.75238 3736.0869 4420156
3106.3943 690.30981 3782.9827 4880965
3117.8162 687.8678 3769.5999 4683330
3120.1382 683.46722 3745.4841 4814916
3109.408 676.2901 3706.1528 4420411
3131.4419 676.2901 3706.1528 4025653
3156.3984 676.91687 3709.5876 4354615
3221.8003 686.1485 3760.1782 3039010
3116.0005 659.04333 3611.6384 4025649
3094.5171 650.02032 3562.1912 3433512
3290.5388 686.4975 3762.0906 3434280
3312.9053 686.4975 3762.0906 3763498
3301.3806 679.52161 3723.8621 3434274
3200.0598 654.27911 3585.53 3829799
3221.3767 654.27911 3585.53 3500833
3235.4536 652.81824 3577.5242 3500577
3081.8005 617.75464 3385.3713 3172123
3140.0403 625.34491 3426.9668 3830054
3080.0693 609.44708 3339.845 3172379
3099.9255 609.44708 3339.845 2975257
3215.4756 628.14075 3442.2886 3172380
3241.325 629.18591 3448.0161 3435806
3261.8242 629.18591 3448.0161 4685359
3330.7534 638.46936 3498.8904 3632672
3351.3254 638.4256 3498.6506 4422186
3251.8748 615.65912 3373.8877 4356137
3290.4756 619.14801 3393.0073 4027428
0 0 0 0
0 0 0 0
0 0 0 0
0 0 0 0
0 0 0 0
0 0 0 0
0 0 0 0
0 0 0 0
-4315.3926 924.83942 4908.3164 6185548
-4778.2148 1030.9994 5471.73 5857096
-4546.731 987.77698 5242.3394 6054474
-4515.564 987.77698 5242.3394 5528388
-4407.0801 970.74646 5151.9546 6186317
-4386.6797 973.0155 5163.9971 6516052
-4572.5322 1021.3881 5420.7207 6319185
-4690.0244 1055.0692 5599.4731 6056527
-4643.668 1052.1089 5583.7622 6385490
-4623.4438 1055.0692 5599.4731 5990990
-4610.6992 1059.7919 5624.5371 6649433
-4577.2598 1059.7919 5624.5371 6386261
-4543.8203 1059.7919 5624.5371 5465412
-4499.2573 1057.1781 5610.6655 7504736
-4424.5488 1047.3893 5558.7139 6584403
-4299.8584 1025.5322 5442.7144 6913878
-4020.1519 966.09149 5127.25 7441246
-4228.6064 1023.9498 5434.3159 7507039
-4196.2979 1023.9498 5434.3159 6520148
-4163.9893 1023.9498 5434.3159 6388307
-3887.4705 963.42731 5113.1108 6322772
-3998.5801 998.77368 5300.7012 6257238
-3979.6196 1001.9343 5317.4751 6258008
-3990.6931 1012.7676 5374.9697 6850404
-3916.3918 1001.9343 5317.4751 6324062
-3954.7576 1019.9829 5413.2627 6126424
-3929.0435 1021.665 5422.1904 6192731
-3971.3286 1041.2032 5525.8833 6390622
-3897.0986 1030.2644 5467.8291 6720096
-3927.8289 1047.123 5557.3018 6457690
-3901.373 1048.8932 5566.6958 6128980
-3803.0439 1031.205 5472.8208 5536584
-3770.5066 1031.205 5472.8208 4878397
-3688.8606 1017.6572 5400.9199 5141314
-3527.4309 981.66821 5209.9185 5207109
-3496.4565 981.66821 5209.9185 4944196
