# .PCD v0.7 - Point Cloud Data file format
VERSION 0.7
FIELDS x y z rgb
SIZE 4 4 4 4
TYPE F F F U
COUNT 1 1 1 1
WIDTH 1256
HEIGHT 1
VIEWPOINT 0 0 0 1 0 0 0
POINTS 1256
DATA ascii
2947.6963 -1576.9912 4628.5869 2702893
3136.7373 -1662.6051 4879.8701 333575
3177.5659 -1668.8108 4898.0845 991250
3195.3745 -1662.9241 4880.8062 1583646
3224.3921 -1662.9241 4880.8062 134403
3234.5186 -1653.2681 4852.4653 1319957
3284.4199 -1663.9332 4883.7686 3821372
3201.136 -1607.5293 4718.2188 1715992
3325.5259 -1655.4882 4858.9814 1585433
3335.4426 -1646.1251 4831.5005 4216642
3389.1147 -1658.3325 4867.3296 3756094
3396.9883 -1648.1127 4837.334 663054
3424.1106 -1647.3252 4835.0225 1386263
3421.7786 -1632.4984 4791.5044 3227445
3443.5483 -1629.3201 4782.1763 1648414
3372.3362 -1582.5597 4644.9312 1121559
3399.9517 -1582.5597 4644.9312 265226
3476.8232 -1605.3021 4711.6816 264972
3469.6333 -1589.1787 4664.3579 1055514
3497.3643 -1589.1787 4664.3579 1384222
3583.7739 -1615.6322 4742.001 66820
3555.877 -1590.5433 4668.3633 2309
3583.6316 -1590.5433 4668.3633 133894
3532.7625 -1555.9155 4566.728 4608329
3566.8147 -1558.9319 4575.5815 2371878
3610.116 -1565.9148 4596.0767 1516314
3610.5737 -1554.3484 4562.1284 1281
3615.5742 -1544.8955 4534.3838 1538
3560.541 -1510.1208 4432.3174 256
3586.8923 -1510.1208 4432.3174 770
3603.7241 -1506.1422 4420.6396 768
3630.0061 -1506.1422 4420.6396 858132
3592.375 -1479.8143 4343.3657 2305834
3637.3228 -1487.6365 4366.3242 200457
3655.3601 -1484.4194 4356.8818 594958
3681.2629 -1484.4194 4356.8818 134662
3748.7012 -1501.0509 4405.6968 463116
3774.8943 -1501.0509 4405.6968 595214
3801.0874 -1501.0509 4405.6968 1912354
3808.634 -1493.7379 4384.2324 794642
3850.9106 -1500.0526 4402.7666 2965809
4003.2283 -1548.8572 4546.0117 5136969
3898.228 -1498.118 4397.0884 2703397
3924.3696 -1498.118 4397.0884 2111517
3950.512 -1498.118 4397.0884 2835240
3993.4509 -1504.446 4415.6616 1189904
4061.0315 -1519.9139 4461.061 4151093
4087.554 -1519.9139 4461.061 2637080
4114.0762 -1519.9139 4461.061 2834204
4101.7544 -1505.6554 4419.2109 2900508
4078.8462 -1487.7168 4366.5601 2045199
4139.4341 -1500.267 4403.3955 4018987
4175.2832 -1503.7495 4413.6172 4216616
4199.46 -1503.011 4411.4497 5993029
4200.2119 -1493.9497 4384.854 3296545
4134.5874 -1461.537 4289.7202 4414003
4148.2788 -1457.3871 4277.54 4939588
0 0 0 0
0 0 0 0
0 0 0 0
0 0 0 0
0 0 0 0
-6492.3955 -2422.873 7237.6089 67334
-6493.4131 -2439.4204 7287.0391 2312
-6566.811 -2483.5647 7418.9067 2055
-6451.8955 -2456.6042 7338.3701 264970
-6408.2676 -2456.6042 7338.3701 1541
-6218.8765 -2400.3435 7170.3081 1541
-6321.6924 -2456.8694 7339.1621 1796
-6299.1748 -2465.1328 7363.8472 1253149
-6090.7427 -2400.2466 7170.0186 924183
-5993.4663 -2378.5586 7105.2329 133384
-6282.334 -2510.8955 7500.5493 1543
-6123.4805 -2464.9019 7363.1567 134157
-6079.7041 -2464.9019 7363.1567 200207
-6051.5488 -2471.2808 7382.2119 1286
-5821.4629 -2394.688 7153.4136 772
-5739.5918 -2378.3853 7104.7144 1028
-5637.4653 -2353.385 7030.0342 1283
-5541.0142 -2330.3987 6961.3687 199178
-5483.1206 -2323.4043 6940.4751 134411
-5417.9937 -2313.2156 6910.0391 68873
-5376.9116 -2313.2156 6910.0391 2823
-5372.2114 -2328.9878 6957.1548 2566
-5416.3613 -2366.3474 7068.7549 200459
-5389.0752 -2372.8372 7088.1411 133126
-5321.8032 -2361.6848 7054.8267 3082
-5288.459 -2365.531 7066.3159 1026
-5250.4966 -2367.3564 7071.769 770
-5215.5967 -2370.6035 7081.4688 768
-5016.8306 -2298.8162 6867.0259 201486
-5040.0127 -2328.387 6955.3594 69385
-4998.6611 -2328.387 6955.3594 265736
-4995.6279 -2346.3845 7009.1221 1451550
-5022.2539 -2378.7329 7105.7524 70150
-4998.8218 -2387.719 7132.5967 4357
-4901.1265 -2361.0837 7053.0312 3586
-4794.1782 -2329.4924 6958.6616 1584413
-4565.2676 -2237.5737 6684.082 1978912
-4525.5293 -2237.5737 6684.082 1124115
-4674.6685 -2331.7888 6965.521 926220
-4576.9292 -2303.4409 6880.8403 3033133
-4401.3589 -2235.0581 6676.5674 2111779
-4411.8052 -2260.7517 6753.3193 71175
-4461.7046 -2307.3196 6892.4272 859924
-4289.0801 -2238.6086 6687.1738 1280
-4149.0015 -2185.7581 6529.2979 1517344
-4167.6973 -2216.3438 6620.6636 728338
-4131.2456 -2217.906 6625.3306 860943
-4163.4038 -2256.6865 6741.1763 2835496
-4129.2676 -2259.9387 6750.8906 3889722
-4089.1311 -2259.9387 6750.8906 4284991
-4038.3638 -2254.0044 6733.1641 1589276
-3949.3154 -2226.3716 6650.6187 2509358
-3846.1841 -2190.1602 6542.4482 3560512
-3763.8743 -2165.1863 6467.8467 467474
-3780.4309 -2197.1577 6563.3516 267530
-3709.0217 -2178.1377 6506.5347 1584674
-3670.3389 -2178.1377 6506.5347 465165
-3620.1123 -2171.2146 6485.854 1189403
-3469.4648 -2103.2646 6282.874 68868
-3473.6519 -2128.7217 6358.9189 2506541
-3523.866 -2183.2551 6521.8218 2769968
-3428.7405 -2147.9534 6416.3687 2242598
-3446.3176 -2183.2551 6521.8218 268554
-3376.4712 -2163.3464 6462.3506 1255195
-3262.8564 -2114.6143 6316.7773 200967
-3299.6301 -2163.3464 6462.3506 5730637
-3392.4944 -2250.4351 6722.502 3099690
-3342.3901 -2243.6304 6702.1748 2639144
-3171.5298 -2154.6245 6436.2959 2572841
-3132.5095 -2154.1052 6434.7451 2177578
-3094.2532 -2154.1052 6434.7451 727567
-2982.1147 -2102.0276 6279.1782 730383
-2964.9414 -2116.4165 6322.1611 2440741
-3025.4563 -2187.3423 6534.0303 4941386
-3068.9578 -2247.6526 6714.1899 4218683
-2985.1775 -2215.1052 6616.9639 2903084
-2945.8381 -2215.1052 6616.9639 2837037
-2892.3796 -2204.345 6584.8213 1981220
-2853.231 -2204.345 6584.8213 1717539
-2896.1538 -2268.6338 6776.8647 2573106
-2855.8638 -2268.6338 6776.8647 927258
-2891.353 -2329.6929 6959.2607 466195
-2708.3831 -2213.947 6613.5044 1123612
-2643.3884 -2192.6494 6549.8843 1452576
-2803.1152 -2359.9053 7049.5107 2506032
-2725.5984 -2329.4744 6958.6079 2111530
-2677.134 -2323.3184 6940.2188 2637617
-2530.2256 -2230.1987 6662.0518 332041
-2415.3677 -2162.8169 6460.7686 200456
-2341.6228 -2130.666 6364.7275 529164
-2232.5918 -2064.8247 6168.0464 1319964
-2195.9209 -2064.8247 6168.0464 729111
-2128.3066 -2035.2345 6079.6543 2440242
-2110.4014 -2052.978 6132.6577 2636855
-2082.5522 -2061.5022 6158.1211 793878
-2133.4456 -2149.6729 6421.5049 727059
-2095.2678 -2149.6729 6421.5049 265222
-1930.1233 -2016.9915 6025.1587 528650
-1957.2964 -2084.0659 6225.5234 2505263
-1922.5977 -2086.5769 6233.0244 662547
-1901.8885 -2104.668 6287.0659 1537
-1877.7184 -2119.5776 6331.604 2821
-1837.1261 -2116.1804 6321.4561 134661
-1789.3179 -2104.1558 6285.5361 2637102
-1751.9487 -2104.1558 6285.5361 2374951
-1669.0455 -2048.2759 6118.6113 3231028
-1638.0424 -2055.0173 6138.75 5205074
-1571.2355 -2016.1251 6022.5703 3758655
-1500.1744 -1969.8324 5884.2852 2310699
-1488.1078 -2000.6428 5976.3218 1585953
-1452.577 -2000.6428 5976.3218 1190425
-1394.6433 -1969.0138 5881.8394 1124888
-1347.1349 -1950.8549 5827.5952 2704175
-1316.9873 -1957.5421 5847.5718 466700
-1290.678 -1970.4521 5886.1362 729614
-1247.4563 -1957.5421 5847.5718 1321237
-1196.168 -1930.8707 5767.8984 3360561
-1157.9824 -1924.3997 5748.5684 1914135
-1118.9707 -1916.1205 5723.8369 1189644
-1108.4484 -1957.6371 5847.8555 3491889
-1077.8787 -1965.2903 5870.7168 3032873
-1038.9141 -1957.6371 5847.8555 2506530
-978.40332 -1907.4485 5697.9321 1782552
-940.16821 -1898.6449 5671.6338 1190418
-908.52679 -1902.9976 5684.6362 530440
-869.88593 -1892.459 5653.1553 3098665
-858.77234 -1943.3666 5805.2266 4612415
-815.96979 -1923.8239 5746.8481 3494189
-767.68457 -1889.0815 5643.0659 3954491
-763.77618 -1965.3545 5870.9087 1717021
-728.87201 -1965.3545 5870.9087 5335637
-693.96783 -1965.3545 5870.9087 2506284
-652.35559 -1945.3508 5811.1538 6059614
-605.92841 -1907.9487 5699.4258 4152127
-558.75256 -1863.6183 5567.002 2309667
-528.76764 -1874.6527 5599.9644 1584662
-496.5549 -1878.7416 5612.1782 2572325
-463.18896 -1878.7416 5612.1782 2900523
-422.03568 -1844.7034 5510.4995 1058578
-393.69836 -1865.6687 5573.127 398855
-363.59714 -1881.3601 5620.0005 4216129
-336.03436 -1914.691 5719.5669 2439463
-299.6134 -1899.3715 5673.8042 1189654
-261.13324 -1865.4546 5572.4878 463625
-226.68929 -1854.7042 5540.374 991505
-194.09534 -1858.0078 5550.2427 3492662
-165.01518 -1903.191 5685.2139 1320468
-131.89317 -1913.0276 5714.5977 399111
-96.166435 -1878.8014 5612.3569 795407
-62.604877 -1872.9813 5594.9717 1124374
-29.432388 -1878.8014 5612.3569 1979939
3.9224486 -1872.9813 5594.9717 861712
36.285904 -1827.6399 5459.5273 2572587
69.920677 -1858.9147 5552.9517 3756604
102.93452 -1858.9147 5552.9517 991761
136.25703 -1863.1354 5565.5596 2175781
167.00722 -1837.4061 5488.7012 68868
199.30582 -1834.3389 5479.5386 2818
230.12549 -1820.4343 5438.0029 1792
259.56561 -1800.3865 5378.1162 4085816
303.51559 -1874.3409 5599.0332 1653016
348.39359 -1938.8414 5791.709 533508
372.14029 -1884.7186 5630.0332 1059088
396.8027 -1843.7833 5507.7515 268807
426.96298 -1832.6884 5474.6084 729362
448.31589 -1788.0382 5341.229 465166
480.07095 -1788.0382 5341.229 133380
517.61505 -1808.2618 5401.6411 464653
551.93121 -1815.5046 5423.2769 331527
581.77771 -1808.057 5401.0298 68866
616.41699 -1815.5046 5423.2769 4479043
641.16125 -1794.5168 5360.5825 2175262
684.64355 -1825.4785 5453.0713 1057550
690.88873 -1758.8435 5254.019 992271
726.77606 -1770.1711 5287.8569 2304
732.55762 -1710.2726 5108.9277 5268813
772.26599 -1731.1974 5171.4346 3164460
793.3056 -1710.2726 5108.9277 2046234
847.88177 -1760.5255 5259.043 3230754
898.28046 -1798.8384 5373.4917 3560228
942.19525 -1821.9814 5442.6245 1981713
974.55316 -1821.9814 5442.6245 3363112
993.68701 -1798.0529 5371.145 2573853
993.5683 -1741.8618 5203.291 731907
928.14771 -1578.0377 4713.916 3363368
1039.0625 -1714.8357 5122.5586 1847574
1073.4005 -1721.0615 5141.1562 400904
1120.7428 -1747.2162 5219.2856 532240
1169.1853 -1773.6304 5298.1899 399885
1243.3884 -1836.7118 5486.627 2111788
1296.0051 -1865.4961 5572.6113 3163963
1329.1359 -1865.4961 5572.6113 4611151
1322.2507 -1810.698 5408.9189 597261
1289.0488 -1723.3196 5147.9019 1387032
1276.7766 -1667.3258 4980.6372 1782044
1298.5876 -1657.3706 4950.8989 1716249
1298.3213 -1620.3038 4840.1733 861196
1327.0974 -1620.3038 4840.1733 1980446
1418.7513 -1695.4446 5064.6333 2769963
1468.8165 -1718.795 5134.3857 2570535
1486.2733 -1703.8136 5089.6338 201219
1465.6769 -1646.6777 4918.957 333061
1498.7982 -1650.948 4931.7134 1649178
1506.7537 -1627.8657 4862.7617 1123601
1532.7852 -1624.814 4853.6455 2636583
1573.4835 -1637.1349 4890.4512 464134
1619.8447 -1654.7941 4943.2021 2768169
1649.2334 -1654.7941 4943.2021 2570787
1683.1898 -1659.2969 4956.6533 1254928
1717.6526 -1664.1353 4971.1064 1584144
1747.2072 -1664.1353 4971.1064 3427370
1772.7393 -1660.3678 4959.8521 3229479
1767.3511 -1628.2371 4863.8711 2835233
1807.1539 -1638.1046 4893.3477 531970
1839.8898 -1641.3547 4903.0566 727812
1875.1744 -1646.7423 4919.1499 199936
1904.4202 -1646.7423 4919.1499 333568
1933.6659 -1646.7423 4919.1499 2638876
2004.7109 -1681.8088 5023.9009 3362852
2042.4285 -1688.297 5043.2822 599552
2072.4121 -1688.297 5043.2822 796930
2122.0828 -1704.1063 5090.5078 3296802
2037.1377 -1612.8899 4818.0264 4810806
2157.0413 -1684.1416 5030.8696 2837783
2180.3848 -1679.085 5015.7642 5797705
2222.5308 -1688.4489 5043.7358 3956016
2146.9021 -1609.2817 4807.2476 5797197
2276.3301 -1683.8821 5030.0942 1979670
2289.864 -1671.9287 4994.3872 1056522
2265.1394 -1632.7048 4877.2173 2768166
2353.2004 -1674.7401 5002.7852 859148
2423.4314 -1703.1953 5087.7866 1254675
2453.6797 -1703.1953 5087.7866 2110495
2391.5503 -1639.8533 4898.5708 1847322
2420.6736 -1639.8533 4898.5708 3689524
2470.6584 -1653.8176 4940.2852 268290
2500.0298 -1653.8176 4940.2852 2636838
2551.4084 -1668.2067 4983.2681 2044957
2578.7454 -1666.7264 4978.8467 2769195
2547.3887 -1627.775 4862.4907 4020278
2595.9353 -1640.1825 4899.5547 4021047
2551.6067 -1594.2849 4762.4492 2769692
2579.9207 -1594.2849 4762.4492 3888172
2608.6819 -1594.5582 4763.2656 3426851
2632.8474 -1592.0468 4755.7632 926210
2657.5378 -1589.9027 4749.3584 2374679
2645.5642 -1566.0995 4678.2539 1980175
2607.2322 -1527.3506 4562.5029 2835742
2717.3401 -1575.4622 4706.2222 2046227
2746.9729 -1576.411 4709.0562 1519374
2798.0454 -1589.5199 4748.2153 1716754
2754.1526 -1548.9578 4627.0479 2506527
2799.4448 -1558.8601 4656.6284 1387537
2971.4844 -1638.4564 4894.3984 398083
2910.0854 -1589.0404 4746.7832 265987
2937.3491 -1588.5228 4745.2368 2045722
2912.7668 -1560.2434 4660.7603 4546617
2940.2856 -1560.1421 4660.458 3691564
2909.645 -1529.4711 4568.8374 3230761
3007.4722 -1566.2725 4678.7705 3427126
3177.5659 -1639.6903 4898.0845 4479816
3207.2432 -1639.9751 4898.9351 926737
3254.3105 -1649.0668 4926.0938 1914145
3255.3848 -1634.8981 4883.7686 2374440
3326.2039 -1655.6969 4945.8989 2177317
3313.4553 -1634.8981 4883.7686 2308391
3289.8254 -1609.1381 4806.8184 1978659
3285.4329 -1593.1501 4759.0596 69634
3391.6501 -1630.6138 4870.9707 2045472
3396.9883 -1619.3534 4837.334 3032875
3424.1106 -1618.5796 4835.0225 4020026
3431.4683 -1608.5537 4805.0732 4218176
3460.0361 -1608.5537 4805.0732 2769196
3442.9902 -1587.522 4742.2471 1584411
3448.811 -1577.2898 4711.6816 990227
3481.7048 -1579.5044 4718.2969 398090
3469.6333 -1561.4476 4664.3579 989718
3485.8965 -1556.3279 4649.064 265484
3529.2886 -1563.3052 4669.9067 66820
3557.0525 -1563.3052 4669.9067 1539
3501.1921 -1526.8375 4560.9702 1187609
3528.8909 -1527.0895 4561.7231 1253400
3556.0115 -1527.0895 4561.7231 1517084
3583.4507 -1527.2252 4562.1284 2109479
3610.5737 -1527.2252 4562.1284 2174504
3694.6084 -1551.1187 4633.5029 1516573
3605.6711 -1502.5764 4488.4976 1538
3579.583 -1480.7458 4423.2852 2307
3603.7241 -1479.8602 4420.6396 512
3630.0061 -1479.8602 4420.6396 514
3638.1123 -1472.5038 4398.6646 770
3637.3228 -1461.6775 4366.3242 133125
3663.2817 -1461.6775 4366.3242 923666
3681.2629 -1458.5165 4356.8818 1581340
3723.7983 -1465.0604 4376.4297 925204
3749.8174 -1465.0604 4376.4297 925205
3801.0874 -1474.8579 4405.6968 135172
3805.8335 -1466.5934 4381.0088 2504487
3868.2786 -1480.5243 4422.6235 2768427
4010.0479 -1524.4224 4553.7559 3558454
3903.2617 -1473.877 4402.7666 1123344
4049.8906 -1519.0571 4537.729 1782809
3922.7712 -1461.6399 4366.2119 4151868
3978.9519 -1472.8268 4399.6294 5861969
4062.418 -1493.9016 4462.584 5137732
4087.554 -1493.3917 4461.061 2439452
4114.0762 -1493.3917 4461.061 1913363
4146.9941 -1495.6985 4467.9517 1847057
4078.8462 -1461.7563 4366.5601 2241814
4104.8066 -1461.7563 4366.5601 3031328
4173.2329 -1476.7837 4411.4497 4347951
4199.46 -1476.7837 4411.4497 5926984
4169.0308 -1456.9834 4352.3022 5401151
4122.8477 -1431.9559 4277.54 5730122
4148.2788 -1431.9559 4277.54 2901283
0 0 0 0
0 0 0 0
0 0 0 0
0 0 0 0
0 0 0 0
-6515.3999 -2388.2764 7263.2544 133384
-6701.7847 -2472.9873 7520.8784 513
-6660.2373 -2474.1636 7524.4561 769
-6451.8955 -2412.9756 7338.3701 68362
-6408.959 -2413.2361 7339.1621 199949
-6365.3257 -2413.2361 7339.1621 2313
-6321.6924 -2413.2361 7339.1621 1799
-6191.6533 -2380.0225 7238.1523 514
-6089.2202 -2357.0295 7168.2266 514
-5993.4663 -2336.3162 7105.2329 772
-6167.2559 -2421.1257 7363.1567 2057
-6123.4805 -2421.1257 7363.1567 2058
-6079.7041 -2421.1257 7363.1567 1544
-6102.6045 -2447.8711 7444.4946 259
-6058.3452 -2447.8711 7444.4946 1031
-5833.709 -2374.4536 7221.2168 514
-5688.105 -2332.3538 7093.1826 769
-5747.8447 -2374.4536 7221.2168 1541
-5575.103 -2320.4253 7056.9053 858388
-5457.4536 -2288.6816 6960.3657 1056024
-5411.0225 -2286.5476 6953.8765 200201
-5369.6797 -2286.5476 6953.8765 463886
-5328.3374 -2286.5476 6953.8765 530191
-5253.1191 -2271.8972 6909.3213 1582623
-5212.0415 -2271.8972 6909.3213 793874
-5212.4473 -2290.1235 6964.751 265224
-5246.4688 -2323.5291 7066.3442 1714465
-5215.5967 -2328.5022 7081.4688 924694
-5016.8306 -2257.99 6867.0259 134151
-4976.0039 -2257.99 6867.0259 1795
-5037.2993 -2304.7134 7009.1221 2050
-5042.1416 -2326.1724 7074.3828 2308
-5000.0825 -2326.1724 7074.3828 596239
-4943.0591 -2319.1514 7053.0312 135688
-4830.0439 -2285.5161 6950.7388 267017
-4788.7197 -2285.5161 6950.7388 1319960
-4720.9219 -2272.7708 6911.9775 4099
-4679.8281 -2272.7708 6911.9775 1518617
-4674.6685 -2290.3767 6965.521 3032111
-4492.1064 -2220.6013 6753.3193 1321747
-4401.3589 -2195.364 6676.5674 1453080
-4545.4653 -2287.8765 6957.9175 1518619
-4461.7046 -2266.3423 6892.4272 70150
-4348.6543 -2229.3936 6780.0581 134918
-4218.5889 -2182.948 6638.8081 1583648
-4270.3076 -2230.5801 6783.667 530958
-4171.8647 -2199.9358 6690.4712 201734
-4236.541 -2255.5471 6859.5967 2242342
-4209.8975 -2263.1475 6882.7114 3361075
-4001.999 -2172.5027 6607.041 1453848
-3988.8552 -2186.8315 6650.6187 2637609
-3949.3154 -2186.8315 6650.6187 1190164
-3868.8508 -2163.9417 6581.0049 729360
-3753.1772 -2120.6892 6449.4653 728848
-3812.2822 -2176.3198 6618.6499 1517085
-3676.4895 -2120.6892 6449.4653 1913892
-3670.3389 -2139.4546 6506.5347 532239
-3560.0322 -2097.2603 6378.2134 71434
-3469.4648 -2065.9111 6282.874 991768
-3606.7495 -2171.0322 6602.5693 1188628
-3567.4954 -2171.0322 6602.5693 859150
-3521.3799 -2166.8103 6589.729 4019518
-3478.4702 -2164.488 6582.667 2964782
-3300.4116 -2077.0591 6316.7773 135945
-3262.8564 -2077.0591 6316.7773 3843
-3330.5664 -2144.8486 6522.9395 1583134
-3392.4944 -2210.468 6722.502 332295
-3342.3901 -2203.7842 6702.1748 1255960
-3171.5298 -2116.3589 6436.2959 663056
-3088.0198 -2085.7983 6343.355 992789
-3094.2532 -2115.8489 6434.7451 2110757
-2982.1147 -2064.696 6279.1782 4865
-3082.0742 -2160.9556 6571.9243 1388053
-2993.1538 -2125.5564 6464.2671 3888694
-2941.8311 -2116.283 6436.0649 4680002
-2874.1072 -2094.811 6370.7642 2574631
-2837.2014 -2095.5276 6372.9438 2244898
-2829.8506 -2118.3882 6442.4673 1849631
-2826.2732 -2144.7393 6522.6069 1453336
-2812.8855 -2164.2754 6582.0205 2573103
-2795.2361 -2181.0376 6632.998 2836021
-2891.353 -2288.3181 6959.2607 730647
-2740.1821 -2200.1602 6691.1533 861720
-2669.064 -2174.6279 6613.5044 3428418
-2766.9692 -2288.1035 6958.6079 2178350
-2725.5984 -2288.1035 6958.6079 729111
-2677.134 -2282.0569 6940.2188 69901
-2499.3999 -2163.9031 6580.8882 200977
-2452.4512 -2157.022 6559.9614 1543
-2282.2949 -2039.8018 6203.4697 199694
-2150.2461 -1953.3489 5940.5479 595991
-2114.928 -1953.3489 5940.5479 662035
-2079.6096 -1953.3489 5940.5479 2373413
-2092.1614 -1999.0892 6079.6543 4346167
-2043.9913 -1987.3973 6044.0967 5137469
-2102.8367 -2081.2012 6329.374 2572571
-2065.2068 -2081.2012 6329.374 6192209
-1932.7258 -1983.8417 6033.2832 5008194
-1862.943 -1948.373 5925.4155 3757365
-1827.7146 -1948.373 5925.4155 2899765
-1849.8271 -2010.7006 6114.9668 2372654
-1877.7184 -2081.9346 6331.604 2565
-1840.0753 -2081.9346 6331.604 595986
-1789.3179 -2066.7866 6285.5361 2043942
-1711.0355 -2018.5209 6138.75 70404
-1655.7633 -1995.8887 6069.9204 401418
-1619.676 -1995.8887 6069.9204 3165493
-1526.7898 -1924.3015 5852.209 5601113
-1518.33 -1958.2649 5955.4985 2443056
-1488.1078 -1965.1118 5976.3218 2047531
-1452.577 -1965.1118 5976.3218 1981225
-1419.1511 -1968.0311 5985.1997 1322782
-1354.7479 -1927.0375 5860.5293 1585184
-1323.8518 -1932.7988 5878.0513 1058584
-1286.9574 -1929.8781 5869.1685 70661
-1241.6416 -1913.8142 5820.3149 68866
-1199.0188 -1901.099 5781.645 2505509
-1164.6453 -1901.099 5781.645 1322256
-1129.1444 -1899.2028 5775.8784 2770215
-1108.4484 -1922.87 5847.8555 3757366
-1077.8787 -1930.3873 5870.7168 2244127
-1038.9141 -1922.87 5847.8555 2307873
-983.72797 -1883.769 5728.9409 1846814
-940.69196 -1865.9645 5674.7935 1024
-894.49109 -1840.3237 5596.8149 1280
-861.03912 -1839.9449 5595.6626 1024
-850.13635 -1889.6571 5746.8481 2374183
-815.96979 -1889.6571 5746.8481 1914909
-807.21484 -1951.0785 5933.6436 4416068
-792.98822 -2004.2839 6095.4521 4810063
-782.57251 -2072.6785 6303.4546 7771004
-729.69794 -2029.8429 6173.1826 1323033
-652.35559 -1910.8019 5811.1538 6257244
-605.92841 -1874.064 5699.4258 1125393
-560.06836 -1834.8317 5580.1118 2770475
-528.76764 -1841.3594 5599.9644 3427894
-495.47424 -1841.3594 5599.9644 67330
-463.18896 -1845.3756 5612.1782 1320726
-430.42209 -1847.9476 5620.0005 1649434
-397.00961 -1847.9476 5620.0005 926223
-367.00638 -1865.2748 5672.6958 1847325
-333.28061 -1865.2748 5672.6958 1781275
-305.46442 -1902.0724 5784.6055 3230255
-261.13324 -1832.3247 5572.4878 6124889
-224.76466 -1806.2982 5493.3354 1124879
-193.75023 -1821.7651 5540.374 2309406
-163.08621 -1847.5383 5618.7559 4611906
-133.64809 -1904.0546 5790.6333 2046234
-96.166435 -1845.4343 5612.3569 3296300
-62.604877 -1839.7177 5594.9717 2901545
-29.037613 -1820.6815 5537.0786 1255443
3.9224486 -1839.7177 5594.9717 2439974
37.348457 -1847.7496 5619.3979 2110497
70.07943 -1830.0466 5565.5596 1387544
103.16823 -1830.0466 5565.5596 1453596
137.81229 -1850.9349 5629.0854 1978915
169.38435 -1830.4629 5566.8257 1793
199.63908 -1804.7743 5488.7012 135942
225.5284 -1752.3838 5329.3706 2768422
264.82748 -1804.2612 5487.1406 5204811
302.18912 -1833.0072 5574.5635 1915931
338.66818 -1851.2466 5630.0332 861707
372.14029 -1851.2466 5630.0332 727050
403.60666 -1842.092 5602.1924 1650716
435.24213 -1835.0464 5580.7651 2049
463.78613 -1816.8882 5525.542 267529
492.05911 -1800.1404 5474.6084 529932
517.61505 -1776.1475 5401.6411 859409
551.93121 -1783.2617 5423.2769 1583644
583.73596 -1781.9241 5419.209 1057300
619.33044 -1791.6901 5448.9092 199683
655.16486 -1801.1448 5477.6631 2307620
687.73108 -1801.1448 5477.6631 1715995
706.40277 -1766.4008 5371.999 1452309
744.19452 -1780.4052 5414.5894 529417
738.39795 -1693.2916 5149.6587 331268
769.0141 -1693.2916 5149.6587 397571
790.69702 -1674.3745 5092.1279 333825
847.88177 -1729.2589 5259.043 3296293
898.28046 -1766.8916 5373.4917 3757355
942.19525 -1789.6235 5442.6245 1520393
961.9809 -1766.5364 5372.4116 3230505
986.9895 -1754.2161 5334.9429 598278
993.5683 -1710.9268 5203.291 4608
928.14771 -1550.0123 4713.916 2968104
1058.6827 -1716.1862 5219.2856 1912346
1089.7128 -1716.1862 5219.2856 3584
1121.3409 -1717.1019 5222.0708 333575
1168.4775 -1741.0764 5294.9824 662797
1221.6195 -1772.5067 5390.5688 2901288
1272.3552 -1798.9279 5470.9209 6323034
1314.0359 -1811.5485 5509.3027 2111265
1295.4954 -1742.5524 5299.4712 728845
1287.0952 -1690.1486 5140.1001 1124115
1305.0452 -1673.9747 5090.9116 860943
1335.3121 -1673.9747 5090.9116 1584665
1313.3049 -1609.8951 4896.0327 1386258
1369.5911 -1642.4885 4995.1558 1254674
1401.4658 -1645.0438 5002.9272 3072
1456.014 -1673.5544 5089.6338 135426
1486.2733 -1673.5544 5089.6338 1583640
1439.9298 -1589.02 4832.5469 1714969
1468.6606 -1589.02 4832.5469 1517845
1515.3334 -1608.0599 4890.4512 1715224
1544.4084 -1608.0599 4890.4512 1189136
1582.9326 -1617.7168 4919.8193 1320721
1623.4558 -1629.0287 4954.2217 2900007
1653.7212 -1629.8282 4956.6533 4611382
1685.4595 -1632.0259 4963.3369 3230751
1718.038 -1634.9475 4972.2217 3823139
1775.5995 -1661.1429 5051.8877 3889188
1776.7618 -1634.5807 4971.1064 3231261
1784.4242 -1614.7699 4910.8579 3692585
1810.7396 -1612.205 4903.0566 1455371
1839.8898 -1612.205 4903.0566 5600584
1865.3387 -1609.0123 4893.3477 3758128
1883.2942 -1599.5533 4864.5811 530946
1913.9421 -1600.9977 4868.9736 2178584
1958.5966 -1613.9408 4908.3359 994314
1959.6953 -1591.1395 4838.9927 2968608
1988.4642 -1591.1395 4838.9927 2442516
2017.2335 -1591.1395 4838.9927 5403196
2034.8837 -1582.4927 4812.6953 6652747
2119.1951 -1625.2076 4942.6011 2704663
2148.5803 -1625.2076 4942.6011 3033371
2197.9338 -1640.1082 4987.9165 3164450
2171.2783 -1598.6488 4861.8296 6849628
2259.2854 -1641.592 4992.4297 3362347
2236.1431 -1603.7084 4877.2173 1914137
2247.7764 -1591.4154 4839.8315 2834215
2292.0288 -1602.2355 4872.7378 1188624
2382.9434 -1644.9972 5002.7852 1517589
2412.6863 -1644.9972 5002.7852 1386258
2391.5503 -1610.7297 4898.5708 2570533
2420.6736 -1610.7297 4898.5708 793867
2469.8271 -1623.8994 4938.6226 4545603
2499.1885 -1623.8994 4938.6226 4084542
2529.4014 -1624.4463 4940.2852 1252626
2636.0117 -1673.4818 5089.4126 1519894
2552.0935 -1601.8191 4871.4712 4021044
2530.6318 -1570.5258 4776.3018 3561261
2556.7588 -1569.1328 4772.0654 3099424
2580.2947 -1566.1979 4763.1396 2506519
2608.613 -1566.1979 4763.1396 3821868
2602.439 -1545.7113 4700.8359 3755309
2630.3867 -1545.7113 4700.8359 597760
2608.5103 -1516.7406 4612.7295 2373912
2607.2322 -1500.2252 4562.5029 661511
2718.9763 -1548.4143 4709.0562 1452562
2767.9377 -1560.2318 4744.9956 794632
2795.3521 -1559.7876 4743.6445 2048
2764.8718 -1527.3701 4645.0562 3622708
2822.311 -1543.6821 4694.6646 134145
2988.8513 -1618.7637 4923.0034 794120
2910.0854 -1560.8195 4746.7832 6585691
2932.1165 -1557.5316 4736.7837 4349238
2903.9443 -1527.8921 4646.6436 4283958
2931.5701 -1527.8921 4646.6436 3427880
2909.0828 -1502.0178 4567.9546 1713677
3148.9922 -1610.8496 4898.9351 3840
3195.7366 -1619.7798 4926.0938 1280
3207.2432 -1610.8496 4898.9351 2048
3225.1184 -1605.2499 4881.9053 1583903
3294.6877 -1625.2507 4942.7319 1847331
3343.7371 -1634.8647 4971.9702 1188628
3313.4553 -1605.8625 4883.7686 3842
3334.1262 -1601.8441 4871.5474 134916
3285.4329 -1564.8562 4759.0596 3426358
3313.7268 -1564.8562 4759.0596 1452312
3302.0808 -1546.155 4702.1851 2176805
3302.3079 -1533.2804 4663.0308 727819
3324.2229 -1530.6061 4654.8975 1189654
3437.678 -1569.7769 4774.0239 2702380
3466.0608 -1569.7769 4774.0239 2571051
3460.2849 -1554.4319 4727.3569 201222
3488.3901 -1554.4319 4727.3569 2371880
3504.8357 -1549.2776 4711.6816 1451037
3497.3643 -1533.7168 4664.3579 2437417
3507.3081 -1525.9779 4640.8223 1319447
3508.291 -1514.4915 4605.8896 661774
3501.1921 -1499.7213 4560.9702 2899250
3528.8909 -1499.9689 4561.7231 859923
3554.094 -1499.1599 4559.2632 925972
3573.9744 -1496.135 4550.064 793872
3586.3967 -1490.0571 4531.5796 1055761
3620.8462 -1493.1532 4540.9956 1714719
3647.8438 -1493.1532 4540.9956 2108965
3632.3567 -1475.891 4488.4976 660750
3603.7241 -1453.5782 4420.6396 1795
3645.8052 -1459.9048 4439.8799 1538
3641.0166 -1447.5071 4402.1758 67846
3637.3228 -1435.7185 4366.3242 594959
3663.2817 -1435.7185 4366.3242 1319450
3700.5386 -1440.1151 4379.6953 2437675
3748.7012 -1448.6648 4405.6968 2241320
3753.741 -1440.547 4381.0088 331525
3801.0874 -1448.6648 4405.6968 2964782
3878.603 -1468.0909 4464.7759 2175776
3953.47 -1486.2572 4520.0234 1452310
4010.0479 -1497.349 4553.7559 2505508
3961.6726 -1469.3656 4468.6523 3624246
3988.2402 -1469.3656 4468.6523 3756086
3922.7712 -1435.6815 4366.2119 3886903
3880.3943 -1410.8362 4290.6519 1650193
4009.1716 -1448.1375 4404.0928 925448
4015.3523 -1440.959 4382.2617 2702113
4115.4805 -1467.3702 4462.584 2241818
4077.9817 -1444.6865 4393.5981 2176281
4036.1343 -1420.7609 4320.835 1452045
4061.8228 -1420.7609 4320.835 2374168
4183.6548 -1454.1791 4422.4668 3953965
4209.9478 -1454.1791 4422.4668 2572312
4169.0308 -1431.1078 4352.3022 5072447
4122.8477 -1406.5248 4277.54 5466178
4148.2788 -1406.5248 4277.54 3623975
0 0 0 0
0 0 0 0
0 0 0 0
0 0 0 0
0 0 0 0
-6515.3999 -2345.0942 7263.2544 2569
-6623.7046 -2399.9824 7433.2554 66823
-6491.9771 -2368.0527 7334.3623 593938
-6478.897 -2379.2625 7369.0811 773
-6523.1543 -2411.8245 7469.9321 67850
-6427.6968 -2392.8215 7411.0757 515
-6275.4932 -2352.2856 7285.5278 259
-6206.8594 -2342.729 7255.9287 771
-6089.2202 -2314.4126 7168.2266 516
-6022.2617 -2305.0952 7139.3696 259
-6102.7793 -2352.4951 7286.1768 257
-6059.4609 -2352.4951 7286.1768 528913
-6063.7251 -2371.1013 7343.8042 398097
-6102.6045 -2403.6113 7444.4946 1516065
-6058.3452 -2403.6113 7444.4946 660756
-5838.2617 -2333.3411 7226.8525 134922
-5688.105 -2290.1829 7093.1826 2051
-5544.9194 -2249.208 6966.2749 1253399
-5575.103 -2278.47 7056.9053 1912350
-5535.4087 -2279.4009 7059.7886 1584663
-5493.436 -2279.4009 7059.7886 2045725
-5237.2339 -2189.8259 6782.3555 1584659
-5127.8916 -2160.7429 6692.2798 1321999
-5086.1689 -2159.9214 6689.7349 2572066
-5046.397 -2159.9214 6689.7349 2769191
-4957.2686 -2138.6287 6623.7866 1847837
-4960.9702 -2157.3638 6681.813 662797
-5204.4575 -2281.5176 7066.3442 135942
-4940.8896 -2183.6018 6763.0781 399371
-4900.6812 -2183.6018 6763.0781 70150
-5021.4604 -2255.9265 6987.0835 2504493
-4995.6279 -2263.0422 7009.1221 1846819
-4938.3799 -2255.9265 6987.0835 794385
-4898.9844 -2256.9143 6990.1431 1584159
-4897.605 -2275.583 7047.9634 992021
-4855.7031 -2275.583 7047.9634 1452571
-4799.2505 -2268.7048 7026.6602 69890
-4756.376 -2268.1804 7025.0361 2505514
-4577.4219 -2202.1797 6820.6182 794381
-4536.8711 -2202.1797 6820.6182 2439976
-4451.9561 -2180.4509 6753.3193 2505768
-4545.4653 -2246.5098 6957.9175 334089
-4368.7969 -2179.0256 6748.9043 595979
-4417.4517 -2223.7161 6887.3203 464909
-4376.5044 -2223.7161 6887.3203 859667
-4318.1055 -2214.7649 6859.5967 4101
-4245.6104 -2198.3442 6808.7388 925972
-4224.667 -2208.5571 6840.3706 3097654
-4064.1582 -2145.2983 6644.4443 1716765
-3963.2898 -2112.5884 6543.1343 1321750
-4022.8674 -2165.6016 6707.3271 992786
-3982.9905 -2165.6016 6707.3271 1585435
-3916.8921 -2151.2002 6662.7236 266501
-3753.1772 -2082.3452 6449.4653 5336138
-3714.8335 -2082.3452 6449.4653 1783583
-3545.8135 -2008.3311 6220.2271 1188371
-3604.5056 -2063.0908 6389.8301 926739
-3484.7595 -2015.7975 6243.353 663825
-3447.6409 -2015.7975 6243.353 266502
-3465.3923 -2048.2288 6343.7988 201478
-3567.4954 -2131.7783 6602.5693 3032875
-3521.3799 -2127.6323 6589.729 4612671
-3482.2019 -2127.6323 6589.729 3362352
-3368.4773 -2081.5659 6447.0513 1585182
-3312.0547 -2070.2563 6412.0234 333577
-3330.5664 -2106.0681 6522.9395 860435
-3392.4944 -2170.501 6722.502 2438953
-3348.6572 -2167.9954 6714.7417 530700
-3170.7659 -2077.5925 6434.7451 4354
-3088.0198 -2048.0854 6343.355 2637356
-3160.2183 -2121.8838 6571.9243 1782046
-3121.1462 -2121.8838 6571.9243 4086337
-3118.7251 -2147.1165 6650.0752 4085310
-3009.0291 -2098.1943 6498.5527 2177314
-2941.8311 -2078.0188 6436.0649 1586718
-2879.1235 -2060.5251 6381.8838 532240
-2841.1814 -2060.5251 6381.8838 927765
-2803.2395 -2060.5251 6381.8838 1322521
-2854.5774 -2127.051 6587.9282 5204819
-2834.6711 -2141.6028 6632.998 2310182
-2776.2432 -2127.051 6587.9282 2704939
-2757.8516 -2143.196 6637.9331 4416064
-2718.3872 -2143.196 6637.9331 4351296
-2632.8647 -2106.3489 6523.8091 3891521
-2707.8899 -2198.761 6810.0298 3561279
-2723.7246 -2245.188 6953.8242 1257247
-2634.7759 -2205.3411 6830.4092 861465
-2560.0823 -2176.365 6740.6641 2110249
-2376.3699 -2052.3149 6356.4546 2964532
-2269.2625 -1991.4832 6168.0464 2042660
-2119.1562 -1890.2982 5854.6548 2109220
-2085.0037 -1890.8922 5856.4946 396036
-2050.1853 -1890.8922 5856.4946 8033127
-2092.1614 -1962.944 6079.6543 3493415
-2082.5522 -1988.2787 6158.1211 2835233
-2095.304 -2036.2511 6306.7017 1783056
-2084.8767 -2063.0354 6389.6582 4546873
-2046.8883 -2063.0354 6389.6582 2771489
-1890.873 -1941.8276 6014.2524 5469259
-1855.1167 -1941.8276 6014.2524 5072977
-1854.5106 -1979.3442 6130.4492 1584419
-1882.6421 -2049.6516 6348.2061 530193
-1916.0157 -2128.6597 6592.9106 2504753
-1813.8044 -2057.1895 6371.5522 1781540
-1730.621 -2004.7117 6209.0176 466705
-1655.7633 -1959.8011 6069.9204 1124631
-1619.676 -1959.8011 6069.9204 3560251
-1526.2228 -1888.8069 5850.0361 2244391
-1502.9358 -1903.3623 5895.1167 3955010
-1482.9229 -1922.8578 5955.4985 1059351
-1432.8397 -1903.3623 5895.1167 467726
-1419.1511 -1932.4473 5985.1997 2704176
-1360.4733 -1900.1915 5885.2964 1585437
-1326.6675 -1901.8888 5890.5532 1519643
-1288.9052 -1897.8523 5878.0513 2111268
-1253.9585 -1897.8523 5878.0513 1650972
-1199.0188 -1866.7255 5781.645 1190419
-1172.4349 -1879.2109 5820.3149 2374182
-1129.9801 -1866.2437 5780.1528 531723
-1108.4484 -1888.103 5847.8555 2560
-1051.1151 -1848.4196 5724.9478 529931
-1038.9141 -1888.103 5847.8555 68867
-983.72797 -1849.709 5728.9409 530447
-949.66785 -1849.709 5728.9409 791823
-897.47192 -1813.0709 5615.4658 2306
-861.03912 -1806.6772 5595.6626 596237
-827.7713 -1806.6772 5595.6626 331782
-801.23419 -1821.9824 5643.0659 1188881
-829.22736 -1968.0447 6095.4521 2638121
-805.00128 -1997.859 6187.793 4348741
-798.76617 -2077.3169 6433.8911 4611664
-745.09668 -2035.2028 6303.4546 1649184
-692.9967 -1993.1416 6173.1826 4348747
-610.68085 -1854.6121 5744.1274 137992
-578.30334 -1860.3156 5761.792 2045480
-527.61664 -1804.1304 5587.7749 70406
-493.3515 -1800.3198 5575.9727 3584
-454.79712 -1779.1804 5510.4995 2702634
-428.3187 -1805.668 5592.5371 3492149
-401.55896 -1835.328 5684.4004 2242339
-369.00497 -1841.5231 5703.5874 531467
-333.28061 -1831.549 5672.6958 3097394
-305.46442 -1867.6813 5784.6055 399367
-258.12762 -1778.4862 5508.3491 4152129
-224.00383 -1767.6349 5474.7402 3362099
-191.45497 -1767.6349 5474.7402 332549
-160.68129 -1787.3815 5535.8994 4809033
-131.49274 -1839.476 5697.2476 334852
-95.879066 -1806.6525 5595.5859 3296810
-62.652683 -1807.8335 5599.2441 5600331
-28.904696 -1779.5789 5511.7334 5403210
3.9254441 -1807.8335 5599.2441 1517845
38.218697 -1856.6157 5750.333 2177573
71.554794 -1834.7885 5682.7295 2835247
104.3458 -1817.4684 5629.0854 1453853
137.81229 -1817.4684 5629.0854 1321750
169.47058 -1798.2814 5569.6592 3887930
200.61894 -1780.8403 5515.6401 4096
225.5284 -1720.6992 5329.3706 6390365
264.82748 -1771.6385 5487.1406 3364396
297.45004 -1771.6385 5487.1406 4942659
331.95407 -1781.7371 5518.418 2244891
364.7626 -1781.7371 5518.418 4021045
412.85178 -1850.218 5730.5181 2178845
446.9213 -1850.218 5730.5181 993292
468.42133 -1801.8673 5580.7651 2176799
501.50931 -1801.5396 5579.7505 3032112
517.61505 -1744.0333 5401.6411 1123348
549.72931 -1744.0333 5401.6411 529163
581.77771 -1743.8358 5401.0298 333578
619.33044 -1759.2948 5448.9092 859918
652.21759 -1760.6227 5453.022 2506279
684.64355 -1760.6387 5453.0713 2966825
706.40277 -1734.4626 5371.999 3164205
726.77606 -1707.2958 5287.8569 531719
738.39795 -1662.6755 5149.6587 598278
769.0141 -1662.6755 5149.6587 2308895
799.63025 -1662.6755 5149.6587 3296812
861.06683 -1724.3973 5340.8242 3954483
892.81952 -1724.3973 5340.8242 1979930
920.69781 -1717.1713 5318.4438 2308892
952.31744 -1717.1713 5318.4438 1650454
986.9895 -1722.4984 5334.9429 2816
969.41943 -1639.1593 5076.8242 992013
950.72858 -1559.0153 4828.6011 2308128
1033.5343 -1645.126 5095.3042 2044954
1063.8271 -1645.126 5095.3042 2505504
1107.3789 -1665.0618 5157.0498 1519376
1168.4775 -1709.5962 5294.9824 3493928
1206.2594 -1718.5745 5322.79 4941628
1216.906 -1689.422 5232.4985 5534023
1241.2867 -1680.3143 5204.29 1188107
1272.2277 -1680.3143 5204.29 1585174
1287.0952 -1659.5894 5140.1001 2769194
1315.156 -1656.4423 5130.353 1124111
1298.5876 -1598.5016 4950.8989 1384725
1342.3658 -1615.7667 5004.3726 2835238
1341.4418 -1579.6429 4892.4897 3032617
1401.4658 -1615.3002 5002.9272 1650454
1456.014 -1643.2952 5089.6338 1253903
1486.2733 -1643.2952 5089.6338 2702373
1420.9338 -1539.7056 4768.7949 1517589
1465.6935 -1557.137 4822.7837 2110237
1518.4379 -1582.2197 4900.4702 2439460
1550.6646 -1585.381 4910.2612 1452565
1582.9326 -1588.4669 4919.8193 1518100
1623.4558 -1599.5746 4954.2217 860422
1653.7212 -1600.3597 4956.6533 2440730
1685.4595 -1602.5175 4963.3369 4283438
1736.6479 -1622.776 5026.0815 3165208
1766.5294 -1622.776 5026.0815 1914636
1788.9227 -1616.0116 5005.1309 2506776
1803.0822 -1602.1522 4962.2056 1453329
1807.1539 -1579.92 4893.3477 334081
1836.2465 -1579.92 4893.3477 1648663
1865.3387 -1579.92 4893.3477 1536
1883.2942 -1570.6322 4864.5811 332293
1929.415 -1584.7593 4908.3359 1584151
1958.5966 -1584.7593 4908.3359 598788
1958.431 -1561.3625 4835.8711 2901534
1988.4642 -1562.3705 4838.9927 4349742
2008.4934 -1555.601 4818.0264 3165209
2034.8837 -1553.8798 4812.6953 3954726
2109.3843 -1588.4346 4919.7192 5271099
2138.6333 -1588.4346 4919.7192 1058312
2197.9338 -1610.4536 4987.9165 1650453
2171.2783 -1569.7438 4861.8296 530696
2257.2429 -1610.4536 4987.9165 4353
2243.627 -1579.9823 4893.54 70401
2247.7764 -1562.6411 4839.8315 2504994
2302.8494 -1580.6929 4895.7412 5005889
2382.9434 -1615.2543 5002.7852 4742976
2397.1428 -1604.8481 4970.5557 1057549
2373.2542 -1569.5067 4861.0952 990731
2391.3293 -1562.4336 4839.1885 925194
2437.9119 -1573.9333 4874.8057 2506019
2497.3271 -1593.3503 4934.9443 2440736
2529.4014 -1595.0747 4940.2852 2967844
2530.9185 -1577.7112 4886.5063 3691821
2552.0935 -1572.8568 4871.4712 1915667
2581.0557 -1572.8568 4871.4712 4745278
2531.2388 -1525.3826 4724.4336 2968098
2557.8596 -1524.5081 4721.7251 3888945
2551.5974 -1504.2668 4659.0337 3032611
2561.6331 -1493.9652 4627.1274 462341
2558.1255 -1476.068 4571.6958 2045205
2569.9565 -1467.3047 4544.5537 2307868
2596.9753 -1467.3047 4544.5537 2307868
2744.9353 -1534.9336 4754.0151 794120
2767.9377 -1532.0215 4744.9956 1582870
2858.2583 -1566.0519 4850.395 68096
2794.4001 -1515.771 4694.6646 859912
2851.7566 -1531.5852 4743.6445 662789
2834.3452 -1507.3275 4668.5132 2901030
2910.0854 -1532.5986 4746.7832 3098922
2932.1165 -1529.3701 4736.7837 2901800
2903.9443 -1500.2665 4646.6436 399621
2931.5701 -1500.2665 4646.6436 2507808
2909.645 -1475.145 4568.8374 5929553
3148.9922 -1581.724 4898.9351 398341
3178.1177 -1581.724 4898.9351 1280
3160.4028 -1558.6238 4827.3887 2818
3135.4736 -1532.4132 4746.209 2048
3296.7988 -1596.8873 4945.8989 1255445
3343.7371 -1605.3051 4971.9702 3690296
3360.7725 -1599.3447 4953.5103 2309664
3352.667 -1581.6279 4898.6372 4348991
3318.4031 -1551.9822 4806.8184 1913625
3313.7268 -1536.5623 4759.0596 135680
3302.0808 -1518.1992 4702.1851 2703651
3302.3079 -1505.5574 4663.0308 2637343
3330.031 -1505.5574 4663.0308 2703391
3437.678 -1541.3938 4774.0239 3426859
3401.7249 -1512.7828 4685.4097 3689776
3429.5806 -1512.7828 4685.4097 2044698
3476.1655 -1520.9777 4710.7905 3030826
3504.1726 -1520.9777 4710.7905 2306594
3479.717 -1498.387 4640.8223 990737
3507.3081 -1498.387 4640.8223 464908
3508.8279 -1487.3358 4606.5947 1385754
3535.6741 -1487.1082 4605.8896 595983
3571.0005 -1490.4235 4616.1577 3331
3554.094 -1472.0538 4559.2632 70152
3539.3066 -1454.8336 4505.9282 990996
3541.2056 -1444.6793 4474.4785 2241577
3592.8848 -1454.8336 4505.9282 1912356
3640.2798 -1463.1156 4531.5796 1319449
3682.8967 -1469.3696 4550.9497 332044
3605.8809 -1428.1505 4423.2852 198662
3631.5098 -1427.8877 4422.4712 768
3638.2458 -1420.2532 4398.8257 512
3600.6331 -1395.5391 4322.2808 1713955
3674.5 -1414.0765 4379.6953 199686
3700.5386 -1414.0765 4379.6953 1122327
3720.165 -1411.6436 4372.1597 1518367
3746.1589 -1411.6436 4372.1597 1782049
3779.7874 -1414.5007 4381.0088 3032114
3805.8335 -1414.5007 4381.0088 1979168
3990.2974 -1472.9789 4562.1284 1519130
3980.343 -1459.3845 4520.0234 1190163
3961.6726 -1442.7982 4468.6523 1715991
4029.4192 -1457.6952 4514.7915 1058316
3956.7578 -1421.937 4404.0405 4807744
3913.1936 -1397.0366 4326.9189 2241564
4026.7583 -1428.1913 4423.4116 2636580
4053.0566 -1428.1913 4423.4116 2175257
4041.4058 -1414.9052 4382.2617 1649426
4067.4595 -1414.9052 4382.2617 1649425
4012.9534 -1387.0599 4296.019 2373403
4038.4946 -1387.0599 4296.019 1650190
4086.2932 -1394.6566 4319.5474 4150575
4209.0293 -1427.5747 4421.502 4413748
4182.5093 -1409.7754 4366.3735 3295518
4160.5186 -1393.7126 4316.624 6651213
4044.4927 -1346.5398 4170.5195 5927747
0 0 0 0
0 0 0 0
0 0 0 0
0 0 0 0
0 0 0 0
-6515.3999 -2301.9121 7263.2544 2312
-6671.2568 -2372.7021 7486.6196 771
-6547.3179 -2344.2627 7396.8838 989720
-6503.3408 -2344.2627 7396.8838 594705
-6523.1543 -2367.4136 7469.9321 1799
-6458.5811 -2360.0461 7446.6851 1798
-6275.4932 -2308.9712 7285.5278 133641
-6206.8594 -2299.5903 7255.9287 331791
-6089.2202 -2271.7952 7168.2266 1539
-6057.9692 -2276.0659 7181.7012 2309
-5979.8159 -2262.6499 7139.3696 2240296
-6059.4609 -2309.1768 7286.1768 924436
-6016.1421 -2309.1768 7286.1768 858644
-6102.6045 -2359.3518 7444.4946 68102
-6058.3452 -2359.3518 7444.4946 1541
-5838.2617 -2290.3755 7226.8525 2822
-5795.2959 -2290.3755 7226.8525 463117
-5667.6587 -2256.6621 7120.4766 595470
-5579.6831 -2238.3521 7062.7026 3843
-5535.4087 -2237.4285 7059.7886 1517587
-5411.0225 -2203.8623 6953.8765 2176541
-5361.3105 -2200.4272 6943.0376 2243358
-5192.8218 -2147.8115 6777.0186 1388049
-5030.9561 -2097.1338 6617.1147 1650711
-4991.6157 -2097.1338 6617.1147 1387031
-4957.2686 -2099.2485 6623.7866 1386774
-5057.8613 -2158.9971 6812.313 464905
-5204.4575 -2239.5063 7066.3442 266504
-4940.8896 -2143.3933 6763.0781 662030
-4770.4414 -2086.4307 6583.3433 3845
-5021.4604 -2214.3865 6987.0835 596496
-5053.3906 -2247.0562 7090.166 793874
-4940.5425 -2215.3562 6990.1431 596494
-4966.5542 -2245.9116 7086.5552 398859
-4897.605 -2233.6809 7047.9634 268297
-4841.0259 -2226.9294 7026.6602 135941
-4774.7422 -2215.5571 6990.7769 1452570
-4563.978 -2136.3552 6740.8701 2637356
-4577.4219 -2161.6292 6820.6182 1321240
-4628.1987 -2205.1428 6957.9175 3072
-4496.3208 -2161.6292 6820.6182 3842
-4408.9209 -2138.9014 6748.9043 1057813
-4284.3247 -2097.5449 6618.4116 1847074
-4417.4517 -2182.769 6887.3203 4100
-4579.2378 -2283.8813 7206.3623 1385243
-4335.5576 -2182.769 6887.3203 1794
-4245.6104 -2157.8645 6808.7388 1024
-4194.647 -2152.4844 6791.7637 4101
-4002.1904 -2073.6875 6543.1343 464650
-3911.5334 -2046.6074 6457.688 662544
-3873.1409 -2046.6074 6457.688 333833
-3811.6997 -2034.3066 6418.875 268806
-3916.8921 -2111.5884 6662.7236 3427895
-3877.28 -2111.5884 6662.7236 2177826
-3714.8335 -2044.0013 6449.4653 2770470
-3557.3914 -1977.787 6240.5376 5270084
-3604.5056 -2025.1016 6389.8301 2178843
-3471.8516 -1971.3499 6220.2271 1125132
-3646.0037 -2092.5239 6602.5693 4414265
-3465.3923 -2010.5129 6343.7988 3692077
-3427.6768 -2010.5129 6343.7988 4350775
-3389.9609 -2010.5129 6343.7988 3692847
-3368.8096 -2020.4473 6375.1445 2705702
-3368.4773 -2043.2363 6447.0513 730638
-3330.1482 -2043.2363 6447.0513 4611659
-3437.1626 -2133.4519 6731.709 1650978
-3397.1406 -2133.4519 6731.709 201225
-3348.6572 -2128.0742 6714.7417 729110
-3174.7288 -2041.885 6442.7876 136458
-3120.8252 -2031.7296 6410.7437 333838
-3138.3857 -2068.4229 6526.5225 465423
-3099.584 -2068.4229 6526.5225 1452830
-3082.0742 -2082.8118 6571.9243 1123608
-2980.0952 -2039.7546 6436.0649 266505
-2904.9585 -2014.1884 6355.396 1387552
-2874.1072 -2019.0591 6370.7642 728080
-2841.1814 -2022.5831 6381.8838 1189916
-2798.3552 -2019.0591 6370.7642 1280
-2874.1062 -2102.1677 6632.998 4349256
-2840.9497 -2106.8237 6647.6895 2048026
-2776.2432 -2087.8838 6587.9282 4482874
-2734.6216 -2086.0117 6582.0205 5864778
-2670.6484 -2066.7871 6521.3613 5931084
-2483.7009 -1950.4259 6154.2051 4220215
-2557.0085 -2038.0167 6430.5815 5272138
-2555.2932 -2067.563 6523.8091 994830
-2522.272 -2072.2991 6538.7529 2771748
-2483.397 -2072.2991 6538.7529 4350003
-2339.0671 -1982.9012 6256.6748 4217651
-2227.4302 -1918.7771 6054.3433 860679
-2191.4355 -1918.7771 6054.3433 1518608
-2155.4407 -1918.7771 6054.3433 5795413
-2086.7773 -1889.2014 5961.0225 4151348
-2170.2942 -1998.756 6306.7017 1650961
-2143.7554 -2009.0237 6339.0996 1453838
-2115.5679 -2018.0861 6367.6943 3756847
-2084.8767 -2025.0471 6389.6582 3559980
-2046.8883 -2025.0471 6389.6582 1847572
-1896.8563 -1912.1025 6033.2832 2372382
-1856.3433 -1907.3315 6018.229 663053
-1854.5106 -1942.8971 6130.4492 1386010
-1882.6421 -2011.9097 6348.2061 1056535
-1893.1989 -2064.5806 6514.3989 2109736
-1781.0219 -1982.812 6256.3936 1583390
-1730.621 -1967.7974 6209.0176 3331
-1706.6299 -1982.812 6256.3936 2769456
-1619.676 -1923.7139 6069.9204 3099704
-1643.2612 -1996.2028 6298.646 3363901
-1560.86 -1940.3202 6122.3184 1650461
-1524.4611 -1940.3202 6122.3184 1783587
-1454.7347 -1896.8638 5985.1997 70661
-1422.887 -1901.8572 6000.9556 991763
-1373.7021 -1883.3386 5942.5234 3230006
-1325.4835 -1865.2018 5885.2964 1717537
-1286.9574 -1860.0905 5869.1685 2506537
-1241.6416 -1844.6075 5820.3149 2045474
-1199.0188 -1832.3521 5781.645 531721
-1167.8358 -1837.3717 5797.4839 1650204
-1133.3682 -1837.3717 5797.4839 1320984
-1095.6155 -1831.879 5780.1528 136710
-1044.1801 -1802.4122 5687.1758 1188888
-1024.6985 -1827.9766 5767.8389 1649184
-990.40723 -1827.9766 5767.8389 1792
-939.1405 -1795.5219 5665.4341 397063
-898.57458 -1781.8722 5622.3652 1715225
-855.46826 -1761.9354 5559.459 4348475
-827.61285 -1773.0697 5594.5908 5731404
-800.42236 -1786.6208 5637.3486 2770972
-829.22736 -1931.8057 6095.4521 4678971
-805.00128 -1961.0707 6187.793 4612938
-802.15125 -2047.7072 6461.1577 6586220
-760.51489 -2039.0654 6433.8911 2309676
-673.9046 -1902.5403 6003.1113 993303
-609.42706 -1816.7241 5732.3345 70149
-575.34674 -1816.7241 5732.3345 135431
-541.26648 -1816.7241 5732.3345 399880
-508.16708 -1820.2382 5743.4219 595467
-464.39111 -1783.2599 5626.7441 4085047
-433.13953 -1792.3677 5655.4819 2702112
-399.83652 -1793.8051 5660.0176 3952693
-369.00497 -1807.6135 5703.5874 1715221
-339.8555 -1833.2903 5784.6055 2833705
-305.46442 -1833.2903 5784.6055 267523
-264.84995 -1791.2013 5651.8013 1781275
-231.24843 -1791.2013 5651.8013 663818
-198.25153 -1796.6808 5669.0908 3954752
-160.68129 -1754.4689 5535.8994 267011
-129.14638 -1773.3851 5595.5859 3493938
-96.645767 -1787.5659 5640.3311 3361836
-65.23526 -1847.6921 5830.0479 2506786
-29.363623 -1774.5444 5599.2441 3888702
4.0085492 -1812.1132 5717.7852 7111538
38.289665 -1825.8125 5761.0107 331787
71.757858 -1806.1143 5698.8564 1452317
104.45999 -1785.9542 5635.2456 464911
137.81229 -1784.002 5629.0854 3360827
169.47058 -1765.1682 5569.6592 464905
200.61894 -1748.0482 5515.6401 3840
229.45811 -1718.4449 5422.2324 4677701
261.69479 -1718.4449 5422.2324 1717787
292.57922 -1710.5391 5397.2871 4608
330.07263 -1739.016 5487.1406 530696
360.57202 -1728.8361 5455.0195 6850895
397.68375 -1749.424 5519.981 2639889
432.71616 -1758.4232 5548.377 1848593
468.33615 -1768.3663 5579.7505 2506271
501.50931 -1768.3663 5579.7505 1255951
517.58295 -1711.8129 5401.3062 3821880
542.57153 -1689.6288 5331.3086 3229744
570.50549 -1678.5598 5296.3823 2439975
618.97803 -1725.9169 5445.8091 992273
652.21759 -1728.2029 5453.022 992528
684.63733 -1728.2029 5453.022 2045470
706.40277 -1702.5247 5371.999 663303
733.6214 -1691.6422 5337.6616 3559474
765.35529 -1691.6422 5337.6616 730118
772.26776 -1638.9645 5171.4468 4941378
807.31549 -1647.7449 5199.1519 1849106
849.08405 -1669.0894 5266.5 3296554
881.36176 -1670.9225 5272.2842 3296042
912.70697 -1670.9225 5272.2842 3032614
944.05212 -1670.9225 5272.2842 1453074
977.48541 -1674.4995 5283.5708 399107
959.24902 -1592.0959 5023.562 992780
969.56683 -1560.6301 4924.2773 2045977
1029.7858 -1608.9762 5076.8242 4875841
1063.8271 -1614.8329 5095.3042 2704670
1101.1376 -1625.1902 5127.9844 4086321
1154.6888 -1658.3134 5232.4985 4283699
1183.2712 -1654.7805 5221.3516 2178837
1210.3284 -1649.3497 5204.2153 3297065
1235.131 -1641.1938 5178.4814 4480576
1266.5348 -1641.9929 5181.0024 465927
1287.0952 -1629.0299 5140.1001 597002
1296.491 -1602.8651 5057.542 266245
1284.1967 -1551.6787 4896.0327 2966061
1385.3315 -1636.7786 5164.5498 333059
1372.1182 -1586.0143 5004.3726 728840
1370.5289 -1550.5558 4892.4897 2702631
1432.6508 -1587.153 5007.9653 1254927
1490.3783 -1617.491 5103.6909 2504996
1442.1542 -1533.9243 4840.0122 1057549
1470.9294 -1533.9243 4840.0122 2505506
1524.4332 -1559.2173 4919.8193 3097387
1581.8724 -1587.5073 5009.083 1715737
1594.0016 -1570.1204 4954.2217 530693
1626.4427 -1573.0092 4963.3369 2176033
1652.91 -1570.1204 4954.2217 200705
1656.8036 -1546.2651 4878.9512 1650703
1718.038 -1575.825 4972.2217 4216882
1747.5991 -1575.825 4972.2217 2439706
1788.9227 -1586.2546 5005.1309 2768163
1818.6796 -1586.2546 5005.1309 2304
1789.3665 -1535.5631 4845.1831 68866
1789.957 -1511.7333 4769.9927 1649179
1822.9606 -1515.595 4782.1772 333062
1858.3481 -1521.2894 4800.145 2571047
1912.2153 -1541.7108 4864.5811 269061
1979.3474 -1572.0591 4960.3389 530950
1959.6953 -1533.6013 4838.9927 4348980
1998.4752 -1541.3221 4863.3545 3428898
2017.2335 -1533.6013 4838.9927 3494946
2056.3032 -1541.3221 4863.3545 4679478
2091.679 -1546.0984 4878.4253 2770718
2138.6333 -1559.1854 4919.7192 2308632
2197.9338 -1580.799 4987.9165 136193
2189.0269 -1553.4342 4901.5718 2833449
2240.1978 -1568.8619 4950.2515 3229490
2243.627 -1550.8887 4893.54 2374691
2269.5852 -1548.7493 4886.7896 663561
2280.811 -1536.7377 4848.8892 3229740
2305.0906 -1533.7113 4839.3398 2834212
2333.8618 -1533.7113 4839.3398 3689522
2336.3352 -1516.6399 4785.4746 2702370
