# .PCD v0.7 - Point Cloud Data file format
VERSION 0.7
FIELDS x y z rgb
SIZE 4 4 4 4
TYPE F F F U
COUNT 1 1 1 1
WIDTH 1276
HEIGHT 1
VIEWPOINT 0 0 0 1 0 0 0
POINTS 1276
DATA ascii
-5015.7559 -562.17914 8362.7705 399363
-4870.3091 -551.34229 8201.5654 267523
-4821.5488 -551.34229 8201.5654 925196
-4750.0278 -548.71307 8162.4541 3842
-4873.3867 -568.77405 8460.874 3329
-4672.5664 -551.0238 8196.8281 1024
-4623.834 -551.0238 8196.8281 1280
-4466.0146 -537.88538 8001.3862 1024
-4465.812 -543.65179 8087.1646 133893
-4524.811 -556.82916 8283.1865 1024
-4526.5156 -563.16815 8377.4834 768
-4373.3154 -550.16132 8183.9976 768
-4281.2266 -544.63599 8101.8052 768
-4337.6455 -558.09229 8301.9766 199174
-4288.2876 -558.09229 8301.9766 199944
-4013.824 -528.45514 7861.1045 768
-3927.4565 -523.17584 7782.5723 1024
-3920.3511 -528.45514 7861.1045 792078
-3879.5698 -529.26752 7873.1899 858383
-3766.4868 -520.11566 7737.0498 727309
-3781.5037 -528.64551 7863.9365 661771
-3734.7502 -528.64551 7863.9365 398087
-3561.4949 -510.51242 7594.1953 266757
-3560.9136 -516.98297 7690.4492 3072
-3515.1919 -516.98297 7690.4492 1536
-3425.2156 -510.38867 7592.355 924689
-3369.0654 -508.72598 7567.6211 1280
-3285.8408 -502.87466 7480.5791 1280
-3215.865 -498.91827 7421.7251 398855
-3166.2249 -498.0506 7408.8184 1057039
-3085.0732 -492.13174 7320.7715 1386771
-2975.5811 -481.45789 7161.9907 662793
-2933.001 -481.45789 7161.9907 663050
-2906.7764 -484.18216 7202.5166 4096
-2850.6787 -481.93765 7169.1274 2304
-2802.8325 -481.04111 7155.791 466434
-2747.8665 -478.87616 7123.5859 5120
-2735.9351 -484.26056 7203.6826 1322251
-2627.2407 -472.41678 7027.499 730113
-2594.4744 -474.06381 7051.9995 135681
-2552.5481 -474.06381 7051.9995 1190411
-2555.9888 -482.63007 7179.4282 598276
-2513.3049 -482.63007 7179.4282 795402
-2400.1948 -468.87247 6974.7749 925962
-2358.728 -468.87247 6974.7749 201475
-2322.2219 -469.87625 6989.707 1280
-2321.0935 -478.20535 7113.6074 1024
-2239.1106 -469.87625 6989.707 1280
-2185.1208 -467.21768 6950.1592 1536
-2151.8391 -468.96964 6976.2207 1188625
-2126.001 -472.44464 7027.9136 597001
-2063.1423 -467.6673 6956.8472 662282
-2021.782 -467.6673 6956.8472 2816
-1961.2074 -463.12994 6889.3511 2048
-1897.7806 -457.71115 6808.7432 1280
-1833.9128 -451.94742 6723.0044 531207
-1787.6357 -450.35849 6699.3682 1783063
-1747.8062 -450.35849 6699.3682 1125387
-1761.5841 -464.49371 6909.6387 4096
-1718.0626 -463.83453 6899.8325 1321490
-1638.7428 -453.242 6742.2617 399108
-1565.9457 -443.96756 6604.2983 201730
-1547.6195 -450.05649 6694.8755 67841
-1490.4553 -444.87448 6617.7896 134657
-1420.8335 -435.59225 6479.7104 768
-1396.0546 -439.92346 6544.1401 399365
-1357.1478 -439.92346 6544.1401 729608
-1328.2504 -443.26379 6593.8296 1783064
-1300.5194 -447.20834 6652.5073 2639137
-1249.7054 -443.2139 6593.0874 2835748
-1210.5077 -443.2139 6593.0874 70657
-1142.9807 -432.49432 6433.627 1792
-1100.8213 -430.96371 6410.8584 1792
-1048.1559 -425.06274 6323.0776 3584
-996.20355 -419.02277 6233.2285 397574
-943.56586 -412.21649 6131.9814 1848855
-907.02661 -412.17886 6131.4214 3033384
-872.8252 -413.24481 6147.2788 1190413
-817.00134 -403.71936 6005.5815 1536
-781.29645 -403.71936 6005.5815 1792
-764.62842 -414.02731 6158.9189 200967
-728.99213 -414.58478 6167.2114 1280
-660.3053 -395.4097 5881.9692 1280
-623.70789 -394.38058 5866.6611 1792
-591.21265 -395.97714 5890.4106 398850
-559.96613 -398.66376 5930.3755 1650966
-530.77942 -403.2764 5998.9917 3691817
-483.57327 -393.8765 5859.1626 5072956
-439.70251 -385.94489 5741.1748 1519630
-439.32333 -418.06534 6218.9863 531461
-411.33969 -427.40643 6357.9414 2374939
-363.22916 -415.60876 6182.4434 1585678
-314.89828 -400.87405 5963.2554 1455630
-279.44507 -400.87405 5963.2554 3888689
-243.45805 -399.99707 5950.2095 266754
-209.70634 -403.11871 5996.6465 5632
-172.23033 -398.89362 5933.7954 795655
-137.00117 -399.03607 5935.9146 3557938
-105.34669 -413.30167 6148.124 1582102
-65.320213 -392.42972 5837.6401 530184
-31.250914 -400.59644 5959.1255 1386007
4.0925756 -392.42972 5837.6401 5731401
39.606403 -400.59644 5959.1255 1324040
74.715012 -398.88776 5933.708 796677
106.47456 -386.12973 5743.9243 2442525
140.53899 -385.89688 5740.4604 600322
170.73849 -377.21619 5611.3296 600069
201.82146 -373.0061 5548.7017 2968601
234.61934 -372.70312 5544.1948 4745263
267.58109 -372.70312 5544.1948 1587719
296.77454 -368.02997 5474.6787 2770712
329.323 -368.02997 5474.6787 1190920
358.26233 -364.35938 5420.0767 1321227
390.05875 -363.96054 5414.1436 136960
431.55707 -371.98514 5533.5146 1387024
454.87854 -364.315 5419.4165 399107
487.09848 -364.315 5419.4165 201986
519.31842 -364.315 5419.4165 333829
551.29913 -364.15698 5417.0659 1386517
595.78375 -371.81992 5531.0566 2048
639.42651 -378.18332 5625.7163 3843
672.87299 -378.18332 5625.7163 2049
692.39459 -370.72757 5514.8071 133636
735.35394 -375.92783 5592.1646 1518105
771.3399 -377.26749 5612.0928 333061
803.21967 -376.57095 5601.7314 2560
813.4245 -366.17267 5447.0503 1280
831.43048 -359.94794 5354.4536 1792
824.63348 -343.84042 5114.8442 199427
843.9054 -339.36176 5048.2212 2304
867.23395 -336.76602 5009.6079 4096
893.90326 -335.59686 4992.2158 3492647
923.58337 -335.59686 4992.2158 135936
966.65283 -340.31058 5062.3354 1058822
987.6554 -337.20554 5016.146 2704656
1003.9511 -332.72266 4949.46 2441994
1033.377 -332.72266 4949.46 4613421
1078.2699 -337.56473 5021.4893 1058566
1139.6193 -347.15906 5164.2109 2178313
1158.9049 -343.77237 5113.8315 5403961
1187.6219 -343.285 5106.5815 1653260
1207.7885 -340.41193 5063.8433 1388042
1214.9495 -334.10226 4969.9829 70401
1232.215 -330.80487 4920.9321 992781
1278.5085 -335.27267 4987.3936 1453588
1325.8182 -339.7984 5054.7163 269825
1357.4185 -340.18643 5060.4888 1980441
1409.1526 -345.49414 5139.4438 794378
1432.0809 -343.66382 5112.2168 860941
1403.4911 -329.80344 4906.0347 1536
1450.5621 -333.92484 4967.3433 1024
1480.0944 -333.92484 4967.3433 1024
1515.5494 -335.23495 4986.832 512
1584.0518 -343.66449 5112.2271 768
1614.4456 -343.66449 5112.2271 132098
1627.8523 -340.11536 5059.4316 3227441
1587.4374 -325.65378 4844.3062 67072
1600.9388 -322.57111 4798.4497 133377
1579.1254 -312.60547 4650.2046 2570789
1606.7722 -312.60547 4650.2046 397314
1634.4191 -312.60547 4650.2046 3840
1680.0145 -315.98132 4700.4224 201219
1707.9597 -315.98132 4700.4224 135426
1693.8934 -308.33408 4586.6646 2816
1721.1624 -308.33408 4586.6646 1792
1745.9041 -307.8884 4580.0347 69889
1757.6166 -305.19397 4539.9536 4096
1773.7532 -303.33768 4512.3398 1584657
1800.5803 -303.33768 4512.3398 2304
1860.9258 -308.90149 4595.1055 1914893
1845.8837 -301.97156 4492.0181 3164702
1872.5901 -301.97156 4492.0181 2768409
1883.3544 -299.43695 4454.314 1585674
1900.0907 -297.90887 4431.5835 2176282
1915.1349 -296.16101 4405.5825 793862
1941.9622 -296.25787 4407.0234 69376
1955.5314 -294.35648 4378.7388 67073
1986.7845 -295.13193 4390.2744 1024
2012.886 -295.13193 4390.2744 1280
2043.8971 -295.84259 4400.8462 1536
2070.0613 -295.84259 4400.8462 200195
2096.2258 -295.84259 4400.8462 2044189
2075.2236 -289.26807 4303.0454 1386768
2088.3459 -287.55228 4277.5225 4608
2150.4119 -292.53601 4351.6582 1255692
2176.2837 -292.53601 4351.6582 2045972
2186.4231 -290.44611 4320.5698 2507287
2223.3669 -291.92407 4342.5557 3165216
2246.033 -291.51508 4336.4712 2440470
2227.8516 -285.87384 4252.5542 860928
2246.3032 -285.00711 4239.6611 2242328
2215.592 -277.99115 4135.2944 990217
2271.2495 -281.84698 4192.6523 1280
2387.0068 -292.99612 4358.5029 1280
2409.4856 -292.57916 4352.3003 2048
2424.3254 -291.25336 4332.5781 397827
2364.3364 -281.06015 4180.9478 2507024
2431.655 -286.05527 4255.2534 1389060
2425.6699 -282.41299 4201.0723 4021288
2449.5183 -282.28299 4199.1382 1058307
2452.4915 -279.77417 4161.8184 3034138
2477.2346 -279.77417 4161.8184 1189381
2501.9778 -279.77417 4161.8184 3493413
2488.9128 -275.58786 4099.5439 596737
2513.2859 -275.58786 4099.5439 3328
2537.6589 -275.58786 4099.5439 2816
2570.8481 -276.53622 4113.6514 1058314
2604.5469 -277.52097 4128.3003 1650195
2567.3792 -271.00684 4031.3982 2374174
2624.0479 -274.42673 4082.2715 3229483
2648.3181 -274.42673 4082.2715 531205
2673.6763 -274.53845 4083.9333 69632
2697.9565 -274.53845 4083.9333 1280
2658.4302 -268.10355 3988.2102 1280
2682.1411 -268.10355 3988.2102 1280
2705.8523 -268.10355 3988.2102 1779227
2757.7668 -270.87375 4029.4187 661002
2766.1807 -269.36032 4006.9055 397572
2805.25 -270.83237 4028.803 266500
2771.1638 -265.27646 3946.1555 2816
2779.7761 -263.86697 3925.1885 1536
2788.3818 -262.48035 3904.5613 1319442
2796.9009 -261.10849 3884.1543 662281
2843.1802 -263.2554 3916.0911 70656
2866.4624 -263.2554 3916.0911 400131
2842.906 -258.98843 3852.6167 1123850
2850.2998 -257.58667 3831.7646 3097382
2868.208 -257.14981 3825.2661 1024
2912.5862 -259.07431 3853.8943 727301
2944.5242 -259.87085 3865.7437 332801
2958.4109 -259.07431 3853.8943 1648919
3038.9202 -264.07941 3928.3481 1978396
3046.9119 -262.75452 3908.6399 728585
3040.5166 -260.21838 3870.9133 3840
2970.8306 -252.34441 3753.783 1792
2993.1477 -252.34441 3753.783 1123336
3032.3574 -253.75803 3774.8113 3298582
3054.7998 -253.75803 3774.8113 4022051
3154.9683 -260.16754 3870.157 3955741
3209.1631 -262.72058 3908.135 6191681
3195.8904 -259.75336 3863.9956 3428890
3157.0356 -254.76405 3789.7766 2902550
3179.5669 -254.76405 3789.7766 2441740
3216.0471 -255.87387 3806.2856 2837010
3226.0864 -254.87915 3791.4888 2640142
3291.9646 -258.27924 3842.0671 6389828
3317.5022 -258.48926 3845.1914 1981958
3403.5161 -263.37628 3917.8892 4218658
3367.8682 -258.84625 3850.5017 4218149
3390.7605 -258.84625 3850.5017 5007666
3430.4268 -260.11816 3869.4224 3362843
3453.4316 -260.11816 3869.4224 3033370
3461.3755 -258.99127 3852.6589 2966814
3354.9429 -249.37741 3709.647 1058822
3406.3914 -251.548 3741.9358 1518351
3399.0527 -249.37741 3709.647 134656
3424.5999 -249.63197 3713.4336 135936
3444.0269 -249.44 3710.5781 794627
3514.8379 -252.94836 3762.7673 3163939
3502.7217 -250.48219 3726.0813 2835740
3532.875 -251.05075 3734.5391 861957
3555.0781 -251.05075 3734.5391 1783565
3535.8748 -248.14491 3691.3127 6323536
3441.6123 -240.03983 3570.7444 5731399
3462.8416 -240.03983 3570.7444 4941878
0 0 0 0
0 0 0 0
0 0 0 0
-9010.1602 -607.45435 9912.9688 69634
-9048.792 -614.07556 10021.02 859409
-9095.4912 -621.33551 10139.494 1583131
-9019.6582 -620.26617 10122.043 595980
-8907.4424 -616.66364 10063.254 398344
-8847.6143 -616.66364 10063.254 859152
-8906.5283 -624.99615 10199.231 333065
-8845.8916 -624.99615 10199.231 991251
-8594.9297 -611.45624 9978.2754 728589
-8535.6064 -611.45624 9978.2754 859918
-8730.542 -629.79785 10277.59 860687
-8651.0166 -628.45947 10255.749 992530
-8497.8428 -621.71399 10145.67 1123091
-8270.7236 -609.4234 9945.1016 1452059
-8336.4189 -618.68701 10096.273 265991
-8467.3154 -632.95905 10329.177 1024
-8117.0713 -611.21002 9974.2578 1024
-8057.7715 -611.21002 9974.2578 1024
-8008.4224 -611.9704 9986.666 1024
-7968.3281 -613.45465 10010.887 66562
-8022.3989 -622.26526 10154.666 726542
-7916.4404 -618.70251 10096.526 768
-7864.6958 -619.35474 10107.17 768
-7769.605 -616.57709 10061.842 1281
-7511.4409 -600.7149 9802.9893 1024
-7147.7168 -576.09668 9401.2471 1024
-7090.709 -576.0061 9399.7695 1024
-7008.7896 -573.87433 9364.9814 1024
-6901.5713 -569.62048 9295.5625 1024
-6897.4346 -573.87433 9364.9814 1024
-7105.9897 -596.03772 9726.6621 68100
-7048.1616 -596.03772 9726.6621 768
-6847.1772 -583.83124 9527.4668 768
-6709.0269 -576.82355 9413.1084 1024
-6545.293 -567.47974 9260.6289 1384981
-6221.0078 -543.93958 8876.4795 858892
-6068.4409 -535.1394 8732.8701 266756
-6016.5215 -535.1394 8732.8701 398342
-6093.3765 -546.69293 8921.4111 134405
-6056.3716 -548.14423 8945.0947 2560
-5904.5181 -539.13458 8798.0674 2049
-5844.4194 -538.41675 8786.3535 1024
-5745.5449 -534.08154 8715.6074 1024
-5693.5874 -534.0683 8715.3916 1024
-5574.1025 -527.66254 8610.8564 1024
-5421.6377 -517.98706 8452.9639 1024
-5412.1982 -521.9231 8517.1953 1024
-5485.4858 -533.98657 8714.0576 1024
-5433.6782 -533.98657 8714.0576 1024
-5235.6089 -519.47449 8477.2373 199172
-5219.0093 -522.86078 8532.4971 661514
-5168.2812 -522.86078 8532.4971 1280
-4931.0195 -503.80261 8221.4893 200706
-4882.1401 -503.80261 8221.4893 133890
-4839.9497 -504.49973 8232.8662 1536
-4740.9102 -499.22491 8146.7871 1280
-4844.4404 -515.39221 8410.6191 68867
-4794.437 -515.39221 8410.6191 134917
-4785.1108 -519.81104 8482.7295 1024
-4671.5454 -512.87982 8369.6191 1024
-4626.1284 -513.36176 8377.4834 1024
-4576.3223 -513.36176 8377.4834 768
-4526.5156 -513.36176 8377.4834 769
-4373.3154 -501.50513 8183.9976 1026
-4281.2266 -496.46851 8101.8052 858387
-4059.0024 -476.0545 7768.6719 1648666
-4081.9705 -484.25861 7902.5537 859662
-3944.6487 -473.41663 7725.6245 1057043
-3878.8542 -471.00461 7686.2632 1280
-3893.7568 -478.45087 7807.7778 2306
-3851.6794 -478.99081 7816.5894 1024
-3805.2078 -478.99081 7816.5894 1792
-3781.5037 -481.89221 7863.9365 67585
-3759.2998 -485.05984 7915.6289 3229481
-3561.4949 -465.36279 7594.1953 1321995
-3582.7649 -474.15298 7737.6411 993032
-3536.7625 -474.15298 7737.6411 926215
-3425.2156 -465.25003 7592.355 531458
-3380.0769 -465.25003 7592.355 2045718
-3285.8408 -458.40057 7480.5791 1914130
-3215.865 -454.79407 7421.7251 1058825
-3166.2249 -454.00314 7408.8184 927241
-3110.082 -452.24426 7380.1157 1387024
-3045.0645 -449.12619 7329.2324 794633
-3001.4902 -449.12619 7329.2324 861449
-2917.1433 -442.93536 7228.2046 400644
-2845.3757 -438.49796 7155.791 2177565
-2802.8325 -438.49796 7155.791 663814
-2735.9692 -434.63446 7092.7437 2836005
-2693.801 -434.63446 7092.7437 664836
-2607.4436 -427.39133 6974.5439 1453840
-2597.0303 -432.56345 7058.9468 202241
-2561.0913 -433.58405 7075.6021 68352
-2555.9888 -439.94638 7179.4282 70656
-2513.3049 -439.94638 7179.4282 69377
-2431.1877 -432.92444 7064.8379 596488
-2394.7925 -433.94043 7081.418 595978
-2357.2749 -434.78583 7095.2134 2304
-2335.7393 -438.66354 7158.4932 768
-2272.9087 -434.78583 7095.2134 768
-2193.3147 -427.49408 6976.2207 1280
-2180.9819 -433.28372 7070.7012 398854
-2153.0786 -436.14688 7117.4243 1715733
-2084.218 -430.66174 7027.9136 2045718
-2021.782 -426.30688 6956.8472 2966565
-1961.2074 -422.17084 6889.3511 68352
-1920.2482 -422.17084 6889.3511 1649941
-1833.9128 -411.97733 6723.0044 2816
-1793.9426 -411.97733 6723.0044 1792
-1748.3252 -410.65082 6701.3579 1387284
-1724.7992 -414.57239 6765.3535 726538
-1654.5007 -407.17065 6644.5649 3328
-1605.2101 -404.70312 6604.2983 727306
-1555.4744 -401.99695 6560.1367 2816
-1547.6195 -410.2536 6694.8755 1058574
-1523.312 -414.4697 6763.6772 2177052
-1450.3562 -405.31903 6614.3486 1453586
-1411.0321 -405.31903 6614.3486 465668
-1357.1478 -401.01672 6544.1401 2304
-1394.2167 -424.12891 6921.3052 2966305
-1284.8821 -402.75574 6572.5186 3297061
-1245.8066 -402.75574 6572.5186 861448
-1221.4174 -407.65732 6652.5073 267521
-1151.3368 -397.12686 6480.6616 1280
-1112.8074 -397.12686 6480.6616 1536
-1075.3425 -397.52036 6487.0835 2816
-1012.4743 -388.20294 6335.0337 1978400
-943.56586 -375.76016 6131.9814 399111
-887.26721 -367.54071 5997.8491 1280
-851.60828 -367.54071 5997.8491 3073
-813.39325 -366.38928 5979.0591 1715227
-781.29645 -368.01453 6005.5815 1793
-764.62842 -377.41086 6158.9189 1792
-728.0119 -377.41086 6158.9189 1024
-666.56952 -363.85916 5937.7705 1536
-626.23279 -360.957 5890.4106 1536
-591.21265 -360.957 5890.4106 464902
-559.96613 -363.40601 5930.3755 1254672
-527.72076 -365.49228 5964.4214 6191177
-498.25607 -369.94382 6037.0654 1122316
-439.70251 -351.81201 5741.1748 2304
-436.74185 -378.85242 6182.4434 2048
-406.62616 -385.14218 6285.0854 2770207
-369.25955 -385.14218 6285.0854 2310934
-316.16425 -366.88989 5987.229 2376220
-279.44507 -365.42084 5963.2554 1387793
-243.45805 -364.6214 5950.2095 3072
-212.41739 -372.21756 6074.1699 135427
-174.05461 -367.46698 5996.6465 1912095
-140.19212 -372.21756 6074.1699 266500
-100.45806 -359.2663 5862.8203 331270
-65.320213 -357.7233 5837.6401 134913
-31.250914 -365.16776 5959.1255 1914646
4.0925756 -357.7233 5837.6401 5140541
39.608589 -365.1879 5959.4541 1851409
74.140106 -360.81232 5888.0498 2772768
107.02579 -353.8027 5773.6606 2311705
140.84816 -352.54208 5753.0889 2114074
170.73849 -343.85529 5611.3296 135681
202.50221 -341.1644 5567.4175 6062919
229.01134 -331.62067 5411.6748 2311184
260.90292 -331.26224 5405.8252 1587465
293.04208 -331.26224 5405.8252 1323782
329.323 -335.48148 5474.6787 2902299
355.05441 -329.16153 5371.5444 2309143
385.65948 -328.03006 5353.0801 265986
421.95413 -331.5416 5410.3843 794121
448.36304 -327.33826 5341.791 925707
482.31223 -328.83194 5366.1655 200449
527.03192 -337.02774 5499.9121 2504995
562.90009 -338.93622 5531.0566 1123088
595.78375 -338.93622 5531.0566 2048
629.76617 -339.52863 5540.7236 1649946
670.53845 -343.5408 5606.1978 200964
701.27374 -342.2742 5585.5283 69633
734.48126 -342.2742 5585.5283 728078
769.91583 -343.26712 5601.7314 201223
800.65186 -342.16971 5583.8232 69123
830.97955 -340.99216 5564.6069 1024
831.43048 -328.11423 5354.4536 1024
824.63348 -313.43127 5114.8442 768
843.9054 -309.34869 5048.2212 1280
867.23395 -306.98251 5009.6079 1123853
903.93152 -309.34869 5048.2212 266752
935.89905 -309.99603 5058.7852 3954735
963.76678 -309.28741 5047.2212 862977
974.22351 -303.20282 4947.9277 4088101
1003.6403 -303.20282 4947.9277 3825698
1025.6914 -301.04099 4912.6489 663040
1062.803 -303.29672 4949.46 2572567
1118.3557 -310.55179 5067.8545 4218157
1110.137 -300.18228 4898.6357 2704413
1170.3857 -308.38339 5032.4688 927750
1170.3337 -300.68311 4906.8086 334082
1199.5061 -300.68311 4906.8086 135681
1240.3207 -303.5322 4953.3027 2177311
1278.5085 -305.62125 4987.3936 860937
1296.6787 -302.9389 4943.6211 3840
1378.5972 -314.93869 5139.4438 2816
1393.5574 -311.45322 5082.5649 1792
1421.6603 -310.99069 5075.0171 858896
1451.8326 -310.99069 5075.0171 1024
1445.6798 -303.36804 4950.624 1024
1461.8265 -300.63568 4906.0347 1024
1501.396 -302.733 4940.2607 1024
1530.7671 -302.733 4940.2607 1536
1529.739 -296.83423 4843.9995 2438176
1558.6366 -296.85303 4844.3062 1122571
1585.9939 -296.5831 4839.9014 3165217
1600.9388 -294.043 4798.4497 3429411
1577.0699 -284.58783 4644.1519 2179599
1599.0062 -283.58145 4627.729 3099933
1626.5194 -283.58145 4627.729 2243351
1667.8522 -285.95081 4666.394 333827
1695.5952 -285.95081 4666.394 2560
1759.3444 -291.92526 4763.8906 2048
1728.0297 -282.18649 4604.9648 1536
1728.3246 -277.83286 4533.9185 2816
1744.2419 -276.08569 4505.4067 1123602
1757.3243 -273.94946 4470.5459 530439
1800.5803 -276.51056 4512.3398 137472
1836.8706 -277.94244 4535.707 1650957
1832.1531 -273.21768 4458.604 531716
1842.6802 -270.86859 4420.2695 3362335
1864.6306 -270.24115 4410.0303 3099164
1888.9424 -269.9686 4405.5825 861954
1915.1349 -269.9686 4405.5825 1979151
1983.8538 -275.88248 4502.0908 926467
1999.4924 -274.35565 4477.1743 2307356
1994.3643 -270.05688 4407.0234 134145
2012.886 -269.03055 4390.2744 1536
2043.0929 -269.57224 4399.1143 1792
2069.2468 -269.57224 4399.1143 1649431
2096.2258 -269.67834 4400.8462 1716504
2085.1233 -264.94312 4323.5723 1650708
2124.54 -266.66418 4351.6582 598021
2162.7202 -268.19049 4376.5659 2308891
2188.74 -268.19049 4376.5659 1256972
2210.9607 -267.73041 4369.0581 2046229
2223.3669 -266.10638 4342.5557 2375191
2235.1299 -264.44354 4315.4199 3822891
2271.8147 -265.73352 4336.4712 2243352
2297.5962 -265.73352 4336.4712 795139
2299.5229 -263.00516 4291.9473 69120
2325.0398 -263.00516 4291.9473 1024
2383.6099 -266.70352 4352.3003 1792
2386.7256 -264.18427 4311.189 69120
2412.3569 -264.18427 4311.189 1716752
2366.1069 -256.39511 4184.0786 926984
2408.321 -258.25439 4214.4199 468225
2433.3767 -258.25439 4214.4199 2704662
2425.4124 -254.78564 4157.814 2771223
2452.4915 -255.03102 4161.8184 3429407
2474.8511 -254.78564 4157.814 5402682
2472.4578 -252.022 4112.7144 5336632
2492.0991 -251.53653 4104.792 2770199
2516.5032 -251.53653 4104.792 2505750
2528.7468 -250.3327 4085.147 333313
2519.4355 -247.03825 4031.3853 2048
2543.4033 -247.03825 4031.3853 134145
2534.8628 -243.91025 3980.3396 134657
2581.4521 -246.09573 4016.0046 2304
2649.3962 -250.25835 4083.9333 990731
2730.0767 -255.53745 4170.0825 1253901
2710.5474 -251.42624 4102.9922 529669
2669.7739 -245.43538 4005.228 2635811
2732.5977 -248.99005 4063.2363 1024
2771.061 -250.2822 4084.3228 1024
2742.3584 -245.53816 4006.9055 133890
2741.4822 -243.34584 3971.1292 200706
2807.342 -247.06412 4031.8076 265987
2804.5703 -244.73058 3993.7266 1536
2827.1853 -244.6329 3992.1328 133890
2792.4644 -239.61694 3910.2781 1024
2860.6968 -243.44514 3972.75 67073
2822.9983 -238.26976 3888.2935 68609
2866.4624 -239.97318 3916.0911 596996
2858.5137 -237.37965 3873.7678 1320972
2881.5442 -237.37965 3873.7678 991499
2888.7156 -236.08354 3852.6167 726535
2911.7756 -236.09613 3852.822 332801
2934.6816 -236.09613 3852.822 727047
2957.5879 -236.09613 3852.822 2048
2993.614 -237.13539 3869.782 1024
3017.5027 -237.20474 3870.9133 135168
3048.8362 -237.85379 3881.5054 1280
3023.8655 -234.13356 3820.7952 1848847
3008.1409 -231.17937 3772.5862 2442003
3035.0657 -231.52231 3778.1826 2311436
3054.7998 -231.3157 3774.8113 2048264
3077.9021 -231.36534 3775.6211 4548909
3177.9775 -237.15839 3870.157 4548394
3128.8101 -231.81088 3782.8918 5403962
3151.3003 -231.81088 3782.8918 5995071
3071.0303 -224.30534 3660.4099 796928
3246.2798 -235.43706 3842.0671 4746036
3213.3955 -231.42372 3776.5737 4810283
3235.8481 -231.42372 3776.5737 5073711
3258.3008 -231.42372 3776.5737 4021023
3381.438 -238.52596 3892.4741 2178572
3352.5576 -234.8813 3832.9973 3164952
3390.7605 -235.95393 3850.5017 2572310
3430.4268 -237.11337 3869.4224 1190408
3453.4316 -237.11337 3869.4224 729859
3461.7007 -236.10832 3853.021 1913104
3384.1445 -229.30115 3741.9358 1913108
3406.3914 -229.30115 3741.9358 1913110
3399.0527 -227.32253 3709.647 70912
3441.3232 -228.66579 3731.5674 397568
3407.8933 -224.99402 3671.6482 1255946
3400.1467 -223.05382 3639.9863 4545340
3467.3477 -226.02371 3688.4519 2044945
3429.313 -222.13947 3625.0654 1255692
3543.3115 -228.09047 3722.1787 135680
3508.4763 -224.44629 3662.71 2966811
3530.0105 -224.43091 3662.4592 2440979
3551.7852 -224.43091 3662.4592 2836246
0 0 0 0
0 0 0 0
0 0 0 0
0 0 0 0
-9048.792 -554.4978 10021.02 859662
-9088.7041 -560.6347 10131.928 464904
-8992.6445 -558.41034 10091.728 135684
-8907.4424 -556.83478 10063.254 465161
-8860.7539 -557.66174 10078.199 2373158
-8906.5283 -564.35889 10199.231 1453081
-8845.8916 -564.35889 10199.231 992273
-8511.7061 -546.78644 9881.6572 268293
-8452.957 -546.78644 9881.6572 399621
-8762.292 -570.76282 10314.965 464904
-8558.1611 -561.39514 10145.67 991249
-8422.2168 -556.39905 10055.379 794131
-8270.7236 -550.297 9945.1016 2817
-8450.8467 -566.33026 10234.858 2306
-8297.9395 -560.11621 10122.558 2049
-8055.8657 -547.74866 9899.0479 1024
-7997.0132 -547.74866 9899.0479 768
-7993.8223 -551.58948 9968.459 768
-7949.0488 -552.59692 9986.666 256
-7894.1973 -552.91364 9992.3896 67846
-7743.3569 -546.46112 9875.7783 266249
-7775.3823 -552.91364 9992.3896 1537
-7700.1772 -551.78162 9971.9316 1024
-7542.3096 -544.6626 9843.2754 1024
-7212.6499 -524.92932 9486.6514 1024
-7115.0244 -521.90546 9432.0029 1024
-6925.4873 -512.0379 9253.6748 1024
-6817.6445 -508.10089 9182.5234 1024
-6771.8491 -508.76181 9194.4678 1024
-6932.1338 -525.04205 9488.6885 1024
-6875.7212 -525.04205 9488.6885 3329
-6764.9902 -520.85999 9413.1084 1024
-6709.0269 -520.85999 9413.1084 1517076
-6653.063 -520.85999 9413.1084 925453
-6055.7139 -478.116 8640.6289 201986
-6004.3428 -478.116 8640.6289 69889
-5952.9717 -478.116 8640.6289 332806
-6127.7744 -496.43939 8971.7734 768
-6114.623 -499.72382 9031.1309 2305
-5919.9688 -488.10144 8821.0889 1024
-5795.5845 -482.11697 8712.9355 1024
-5743.7837 -482.11697 8712.9355 1024
-5693.5874 -482.25287 8715.3916 1024
-5578.6372 -476.8562 8617.8613 1281
-5439.6221 -469.28336 8481.0029 1024
-5422.3882 -472.17331 8533.2314 1024
-5431.4126 -477.42599 8628.1592 1024
-5380.1162 -477.42599 8628.1592 768
-5269.8335 -472.14127 8532.6523 793100
-5199.7705 -470.39227 8501.0439 990478
-5149.2295 -470.39227 8501.0439 68096
-5029.853 -464.04169 8386.2744 3328
-4957.7803 -461.97177 8348.8662 1536
-4930.1353 -464.04169 8386.2744 69634
-4894.4438 -465.38876 8410.6191 3585
-4844.4404 -465.38876 8410.6191 1536
-4794.437 -465.38876 8410.6191 1536
-4785.1108 -469.37888 8482.7295 2049
-4671.5454 -463.12009 8369.6191 1280
-4674.8813 -468.44043 8465.7695 67843
-4598.25 -465.77643 8417.625 768
-4548.2046 -465.77643 8417.625 512
-4632.3833 -479.67499 8668.8037 3622199
-4580.8447 -479.67499 8668.8037 2899757
-4128.9536 -437.27573 7902.5537 465416
-4122.7056 -441.63943 7981.415 925967
-4075.2534 -441.63943 7981.415 134659
-3940.1763 -432.03143 7807.7778 135686
-3922.1821 -435.18536 7864.7764 3331
-3864.3457 -433.94135 7842.2944 2561
-3805.2078 -432.51904 7816.5894 1280
-3758.7358 -432.51904 7816.5894 530696
-3719.8442 -433.40225 7832.5508 1451797
-3584.9509 -422.98068 7644.2104 1452049
-3599.1128 -430.10419 7772.9478 926213
-3581.1941 -433.52933 7834.8477 595970
-3483.6553 -427.27911 7721.8926 3164704
-3366.8264 -418.46442 7562.5908 1783564
-3296.0835 -415.21671 7503.8975 1520138
-3146.8882 -401.86139 7262.5371 1388044
-3047.0063 -394.51947 7129.8525 794374
-3063.1492 -402.20496 7268.7461 464390
-3045.0645 -405.55188 7329.2324 68097
-3001.4902 -405.55188 7329.2324 71168
-3000.5847 -411.4021 7434.959 2304
-2845.3757 -395.95474 7155.791 2176797
-2802.8325 -395.95474 7155.791 532738
-2748.1355 -394.21133 7124.2832 203264
-2701.146 -393.53622 7112.083 2572062
-2589.7051 -383.30029 6927.0962 532482
-2603.0432 -391.5004 7075.2905 1388047
-2561.0913 -391.51761 7075.6021 2816
-2555.9888 -397.2627 7179.4282 597512
-2495.6785 -394.47656 7129.0767 2816
-2431.8325 -391.02563 7066.7109 70145
-2374.5693 -388.53052 7021.6182 661770
-2357.2749 -392.60278 7095.2134 1280
-2335.7393 -396.10425 7158.4932 661769
-2281.3909 -394.0679 7121.6914 661257
-2193.3147 -386.01852 6976.2207 265732
-2167.7839 -388.87888 7027.9136 859404
-2126.001 -388.87888 7027.9136 2373410
-2084.218 -388.87888 7027.9136 133889
-2023.8573 -385.34161 6963.9878 2834474
-1924.5197 -374.08051 6760.4741 1518612
-1884.3268 -374.08051 6760.4741 266243
-1826.5273 -370.50903 6695.9297 1320464
-1786.7181 -370.50903 6695.9297 661769
-1748.3252 -370.80939 6701.3579 2048
-1708.4836 -370.80939 6701.3579 268544
-1654.5007 -367.66687 6644.5649 2637594
-1614.9969 -367.66687 6644.5649 3757088
-1555.4744 -362.99515 6560.1367 3296792
-1486.7621 -355.88339 6431.6113 1585416
-1490.4553 -366.18527 6617.7896 2304
-1450.3562 -365.99487 6614.3486 333572
-1411.0321 -365.99487 6614.3486 465158
-1371.7079 -365.99487 6614.3486 2048
-1334.0421 -366.45041 6622.5811 4416310
-1283.9607 -363.41946 6567.8052 1520909
-1245.8066 -363.68027 6572.5186 664583
-1205.8658 -363.41946 6567.8052 200707
-1151.3368 -358.5975 6480.6616 2816
-1112.8074 -358.5975 6480.6616 1024
-1056.1886 -352.55917 6371.5352 1024
-1001.7499 -346.82642 6267.9316 512
-954.83344 -343.35562 6205.2065 768
-907.02661 -339.27283 6131.4214 1024
-843.17212 -328.59415 5938.4336 67843
-787.51343 -320.31567 5788.8228 67329
-777.84601 -330.8421 5979.0591 728331
-764.62842 -340.79437 6158.9189 1189899
-695.27521 -325.46979 5881.9692 2637850
-660.3053 -325.46979 5881.9692 1255174
-627.55865 -326.62698 5902.8823 3229474
-592.46442 -326.62698 5902.8823 397062
-559.96613 -328.14825 5930.3755 729608
-527.72076 -330.03217 5964.4214 793866
-500.93362 -335.84692 6069.5078 267524
-466.11703 -336.76324 6086.0674 2048
-429.93362 -336.76324 6086.0674 2560
-387.77411 -331.65198 5993.6958 1254930
-352.13992 -331.65198 5993.6958 1124879
-316.16425 -331.29419 5987.229 401414
-280.56851 -331.29419 5987.229 595721
-238.26109 -322.2175 5823.1934 2304
-212.02992 -335.49185 6063.0903 133892
-169.02008 -322.2175 5823.1934 1024
-135.31416 -324.41019 5862.8203 133635
-100.45806 -324.41019 5862.8203 859916
-66.402527 -328.36905 5934.3657 1848347
-30.613821 -323.01688 5837.6401 3824941
4.0925756 -323.01688 5837.6401 5075522
38.603943 -321.39319 5808.2964 1719571
73.13588 -321.39319 5808.2964 729864
107.02579 -319.47668 5773.6606 3759406
140.84816 -318.33838 5753.0889 1522185
171.31934 -311.55063 5630.4189 3232291
202.50221 -308.06454 5567.4175 1389576
229.01134 -299.44678 5411.6748 2442517
261.18524 -299.44678 5411.6748 1849865
294.86444 -300.98328 5439.4429 1454853
330.6535 -304.15686 5496.7969 2112017
363.3335 -304.15686 5496.7969 1189895
384.84616 -295.57983 5341.791 3954224
416.60461 -295.57983 5341.791 267780
448.36304 -295.57983 5341.791 661769
483.7377 -297.80612 5382.0249 992525
527.03192 -304.32922 5499.9121 2044954
562.90009 -306.05258 5531.0566 1321741
596.82501 -306.58749 5540.7236 3164197
628.66736 -306.05258 5531.0566 398082
660.51373 -305.57266 5522.3838 3822642
693.34583 -305.57266 5522.3838 924938
719.2912 -302.67477 5470.0122 68097
751.81201 -302.67477 5470.0122 201733
791.25415 -305.34573 5518.2827 2241572
820.23438 -303.92752 5492.6523 2048
837.98596 -298.61655 5396.6714 1848346
816.13306 -280.10464 5062.1196 2176283
839.89178 -278.00708 5024.2119 1519886
869.76208 -278.00708 5024.2119 1059335
903.93152 -279.3356 5048.2212 3098659
940.9668 -281.43588 5086.1782 5120
921.43256 -267.01266 4825.5181 334848
956.26587 -268.73941 4856.7241 2046482
1003.6403 -273.78601 4947.9277 5929029
1014.0151 -268.73941 4856.7241 2046222
1065.6213 -274.59708 4962.5854 861698
1103.4351 -276.68073 5000.2412 532225
1110.137 -271.05853 4898.6357 1717262
1156.6073 -275.18573 4973.2236 3626024
1186.1746 -275.18573 4973.2236 4744248
1215.048 -275.02869 4970.3857 3230499
1244.5983 -275.02869 4970.3857 268032
1312.7491 -283.36075 5120.9644 201218
1296.6787 -273.5477 4943.6211 2816
1363.3401 -281.23596 5082.5649 2560
1372.2516 -276.93622 5004.8589 2048
1421.6603 -280.81833 5075.0171 1648408
1451.8326 -280.81833 5075.0171 66817
1479.082 -280.26447 5065.0078 1024
1475.1127 -273.93521 4950.624 1024
1488.2008 -270.95932 4896.8428 768
1482.3118 -264.70868 4783.8799 1024
1499.7418 -262.7793 4749.0117 68609
1527.976 -262.7793 4749.0117 2109981
1556.2101 -262.7793 4749.0117 1124360
1575.9517 -261.37079 4723.5566 1585418
1584.5865 -258.20181 4666.2861 4876601
1612.3289 -258.20181 4666.2861 2178837
1626.5194 -256.06833 4627.729 1124873
1661.5812 -257.23694 4648.8486 1452560
1685.2726 -256.63583 4637.9854 333827
1715.5314 -257.03812 4645.2554 2304
1743.1487 -257.03812 4645.2554 69121
1755.4075 -254.80869 4604.9648 3840
1773.9265 -253.54253 4582.0825 136193
1770.8566 -249.2757 4504.9712 2901033
1797.6398 -249.2757 4504.9712 1387280
1831.8313 -250.28789 4523.2637 663301
1832.1531 -246.71004 4458.604 2560
1842.6802 -244.58887 4420.2695 1517586
1868.3262 -244.50591 4418.7705 664835
1907.989 -246.23422 4450.0049 5205310
1958.5554 -249.30315 4505.4673 3888423
1983.8538 -249.11632 4502.0908 202241
2010.6199 -249.11632 4502.0908 662787
2034.3134 -248.7406 4495.3008 68608
2024.5382 -244.3354 4415.689 1189388
2026.3142 -241.4192 4362.9868 1978395
2035.9076 -239.49637 4328.2368 398341
2061.6404 -239.49637 4328.2368 331780
2075.2236 -238.10245 4303.0454 1536
2160.6248 -244.88216 4425.5703 2044439
2193.519 -245.61928 4438.8916 2177303
2227.9944 -246.51384 4455.0581 3033121
2210.9607 -241.75516 4369.0581 2570781
2223.3669 -240.2887 4342.5557 399872
2226.5483 -237.87038 4298.8516 3328
2252.1062 -237.87038 4298.8516 1453328
2316.1643 -241.89119 4371.5166 1914134
2328.0417 -240.4337 4345.1763 993545
2346.1997 -239.64969 4331.0078 401152
2367.4939 -239.19962 4322.8735 2968099
2386.7256 -238.55305 4311.189 4350515
2412.3569 -238.55305 4311.189 1322248
2314.0999 -226.43079 4092.1123 3165730
2390.9824 -231.51959 4184.0786 1519627
2385.7371 -228.63301 4131.9116 204033
2410.3025 -228.63301 4131.9116 1322507
2452.4915 -230.28784 4161.8184 1388551
2477.2346 -230.28784 4161.8184 796672
2472.5503 -227.57928 4112.8682 1981454
2516.4819 -229.35468 4144.9536 993543
2541.125 -229.35468 4144.9536 5204797
2540.9075 -227.13239 4104.792 4743484
2529.2012 -223.93518 4047.0112 1781777
2595.8403 -227.66959 4114.5 2560
2581.8464 -224.32826 4054.1152 332544
2605.9492 -224.32826 4054.1152 134913
2649.3962 -225.97821 4083.9333 859143
2730.0767 -230.74515 4170.0825 199937
2697.9565 -225.97821 4083.9333 1122315
2718.2947 -225.651 4078.0198 858889
2746.7786 -225.99977 4084.3228 265730
2771.061 -225.99977 4084.3228 768
2795.3435 -225.99977 4084.3228 1280
2741.4822 -219.73637 3971.1292 768
2822.8638 -224.32738 4054.0991 768
2800.002 -220.6268 3987.2214 768
2823.7073 -220.6268 3987.2214 768
2849.9653 -220.82462 3990.7964 1024
2873.6917 -220.82462 3990.7964 1280
2811.0789 -214.24432 3871.876 792075
2868.8662 -216.87263 3919.3752 1781018
2888.0107 -216.5609 3913.7415 768
2915.4697 -216.87263 3919.3752 662279
2923.1516 -215.71994 3898.5432 1386258
2921.5413 -213.90501 3865.7437 1451540
2955.1584 -214.67755 3879.7051 3584
2970.6069 -214.12846 3869.782 1280
3001.2903 -214.67755 3879.7051 2048
3041.6477 -215.90494 3901.8867 132609
3048.8362 -214.77718 3881.5054 6191946
3041.8672 -212.67647 3843.5413 1913868
3064.7183 -212.67647 3843.5413 1191427
3069.2969 -211.41786 3820.7952 2179082
3052.999 -208.75029 3772.5862 201984
3081.4038 -209.15591 3779.9165 5337398
3106.3196 -209.32054 3782.8918 4811053
3082.9404 -206.2518 3727.4331 3626782
3105.1011 -206.2518 3727.4331 2837008
3071.0303 -202.54318 3660.4099 994049
3223.3916 -211.09598 3814.978 3626779
3237.5522 -210.54189 3804.9641 6390083
3235.8481 -208.97093 3776.5737 4812076
3282.7954 -210.54189 3804.9641 7311181
3312.2312 -210.97591 3812.8083 7639634
3338.8843 -211.22803 3817.3643 3229715
3361.5796 -211.22803 3817.3643 1911818
3427.4988 -213.92581 3866.1194 1253380
3362.1189 -208.44728 3767.1104 3328
3448.5542 -212.39136 3838.3884 1536
3471.3748 -212.39136 3838.3884 1536
3472.9458 -211.09975 3815.0461 1715728
3442.7698 -207.9077 3757.3586 2900515
3465.1084 -207.9077 3757.3586 2834460
3487.4468 -207.9077 3757.3586 4940348
3507.5217 -207.77362 3754.9353 2702874
3499.0527 -205.96107 3722.1787 3427622
3521.1821 -205.96107 3722.1787 860677
3543.3115 -205.96107 3722.1787 2176529
3508.4763 -202.67046 3662.71 3492902
3530.0105 -202.65659 3662.4592 69376
3551.7852 -202.65659 3662.4592 269056
0 0 0 0
0 0 0 0
0 0 0 0
0 0 0 0
-9048.792 -494.92004 10021.02 267525
-9088.7041 -500.39758 10131.928 464906
-8945.4434 -495.79614 10038.758 267526
-8809.0107 -491.51376 9952.0498 1536
-8860.7539 -497.74405 10078.199 2834220
-8906.5283 -503.72159 10199.231 2110496
-8768.7617 -499.32953 10110.302 925968
-8708.6523 -499.32953 10110.302 860174
-8724.9541 -503.74112 10199.626 2816
-8786.4082 -510.8396 10343.354 1792
-8528.5293 -499.34137 10110.541 596495
-8497.8428 -501.07632 10145.67 2305
-8371.2266 -497.13916 10065.951 1536
-8450.8467 -505.48117 10234.858 1792
-8120.605 -489.25079 9906.2295 768
-7989.1924 -484.84976 9817.1191 768
-7952.4922 -486.17429 9843.9375 768
-7928.1733 -488.28101 9886.5938 1024
-7903.2793 -490.38345 9929.1641 1027
-7802.0718 -487.74689 9875.7783 68614
-7704.6987 -485.31177 9826.4736 2564
-7646.2773 -485.31177 9826.4736 2564
-7587.8569 -485.31177 9826.4736 1024
-7358.8892 -474.31918 9603.8984 1024
-7171.1006 -465.82959 9432.0029 768
-7057.7007 -462.07651 9356.0117 512
-6871.0249 -453.42822 9180.9033 768
-6801.8311 -452.45636 9161.2246 768
-6707.793 -449.8027 9107.4951 768
-6865.2568 -464.10812 9397.1475 1024
-6875.7212 -468.62918 9488.6885 3072
-6815.1001 -468.34 9482.833 1253649
-6367.0469 -441.19919 8933.293 991501
-6313.936 -441.19919 8933.293 1123085
-6004.6353 -423.14557 8567.7471 135682
-6004.3428 -426.74506 8640.6289 333061
-5952.9717 -426.74506 8640.6289 2560
-6168.3164 -446.03122 9031.1309 68867
-6159.3564 -449.29431 9097.2002 768
-5934.1382 -436.70038 8842.2021 1024
-5765.8335 -428.10718 8668.209 768
-5714.2988 -428.10718 8668.209 199428
-5662.7637 -428.10718 8668.209 397064
-5576.0781 -425.42535 8613.9082 1792
-5511.5566 -424.40048 8593.1572 1024
-5485.7764 -426.36755 8632.9854 1024
-5526.4185 -433.58301 8779.082 1024
-5464.2881 -432.79596 8763.1465 923917
-5269.8335 -421.41229 8532.6523 530695
-5071.1963 -409.46957 8290.8389 991246
-4939.6411 -402.76208 8155.0273 1536
-4940.8857 -406.85693 8237.9395 1280
-4891.9087 -406.85693 8237.9395 3328
-4908.144 -412.33542 8348.8662 1280
-4837.6294 -410.56351 8312.9893 1536
-4739.8979 -406.42133 8229.1191 2048
-4771.0649 -413.36038 8369.6191 332296
-4721.3052 -413.36038 8369.6191 69379
-4671.5454 -413.36038 8369.6191 265476
-4743.8506 -424.27756 8590.667 200707
-4634.7422 -419.03061 8484.4287 530186
-4569.5669 -417.6839 8457.1611 595977
-4521.793 -417.91553 8461.8506 1188627
-4471.4849 -417.91553 8461.8506 1452056
-4128.9536 -390.29285 7902.5537 925710
-4122.7056 -394.18765 7981.415 67073
-4015.699 -388.42709 7864.7764 1122322
-3940.1763 -385.61206 7807.7778 267014
-3893.7568 -385.61206 7807.7778 1536
-3823.197 -383.1925 7758.7876 1280
-3776.4226 -383.12692 7757.46 1024
-3703.0754 -380.33051 7700.8389 1792
-3766.3804 -391.6749 7930.5371 924939
-3673.2776 -386.83554 7832.5508 201472
-3627.7747 -386.94897 7834.8477 69632
-3581.1941 -386.94897 7834.8477 1978901
-3534.614 -386.94897 7834.8477 993030
-3366.8264 -373.50272 7562.5908 992774
-3321.8645 -373.50272 7562.5908 861191
-3146.8882 -358.68359 7262.5371 4352
-3047.0063 -352.13055 7129.8525 334081
-3063.1492 -358.99023 7268.7461 531461
-3045.0645 -361.97754 7329.2324 267522
-3009.5381 -362.94812 7348.8843 860171
-3000.5847 -367.19919 7434.959 1584661
-2864.4812 -355.78461 7203.8394 1716501
-2785.7126 -351.25293 7112.083 532992
-2735.9692 -350.29779 7092.7437 1453583
-2693.801 -350.29779 7092.7437 3296808
-2584.7219 -341.45847 6913.7671 532737
-2603.1577 -349.4512 7075.6021 68353
-2564.8032 -349.95767 7085.8569 399878
-2547.5286 -353.40536 7155.665 1280
-2495.6785 -352.09222 7129.0767 1280
-2416.3149 -346.78503 7021.6182 768
-2374.5693 -346.78503 7021.6182 1280
-2344.9124 -348.58206 7058.0034 1280
-2361.5076 -357.4454 7237.4663 2438435
-2344.1846 -361.40854 7317.7114 333826
-2292.0676 -360.05585 7290.3218 925965
-2248.7246 -360.05585 7290.3218 398086
-2206.0566 -360.16602 7292.5532 1792
-2145.6873 -357.3327 7235.1851 2304
-2079.2346 -353.34973 7154.5381 512
-1962.7688 -340.52347 6894.8359 768
-1900.4229 -336.73972 6818.2227 199683
-1827.6033 -330.89468 6699.874 1977882
-1786.7181 -330.69986 6695.9297 463366
-1731.9471 -327.86749 6638.5806 2304
-1694.0046 -328.16306 6644.5649 3072
-1654.5007 -328.16306 6644.5649 530947
-1614.9969 -328.16306 6644.5649 992007
-1555.4744 -323.99332 6560.1367 2310674
-1522.7114 -325.3262 6587.125 3165730
-1478.2537 -324.16498 6563.6128 862977
-1439.2311 -324.16498 6563.6128 1586187
-1411.0321 -326.67072 6614.3486 1389835
-1409.6031 -335.69543 6797.0791 1982226
-1369.1926 -335.69543 6797.0791 3100711
-1275.7859 -322.30679 6525.9888 1389328
-1244.9133 -324.37204 6567.8052 268291
-1202.1382 -323.36929 6547.502 529671
-1161.2242 -322.81686 6536.3164 66817
-1112.8074 -320.06818 6480.6616 512
-1056.1886 -314.67862 6371.5352 768
-1006.1317 -310.91589 6295.3486 768
-968.02014 -310.69638 6290.9038 67074
-909.92542 -303.7876 6151.0166 133892
-851.53638 -296.19791 5997.3423 1024
-778.51361 -282.6322 5722.6675 1792
-773.61841 -293.69 5946.563 925705
-723.25751 -287.72006 5825.6851 6323775
-723.21057 -302.17175 6118.2998 5667630
-686.83557 -302.17175 6118.2998 2904080
-633.2019 -294.15427 5955.9629 2510092
-593.37103 -291.97879 5911.915 4417584
-558.22302 -291.97879 5911.915 1519889
-527.72076 -294.57199 5964.4214 3328
-500.93362 -299.76202 6069.5078 4608
-464.84872 -299.76202 6069.5078 728588
-423.89267 -296.35645 6000.5527 1913630
-386.06732 -294.71487 5967.3145 729865
-352.13992 -296.01779 5993.6958 2243358
-319.76593 -299.06699 6055.4346 2636838
-281.09814 -296.25665 5998.5317 2767401
-240.87875 -290.75668 5887.1699 1024
-207.8829 -293.58835 5944.5044 768
-170.87701 -290.75668 5887.1699 512
-137.19945 -293.58835 5944.5044 925457
-101.68398 -293.08762 5934.3657 729356
-67.544792 -298.12936 6036.4497 728842
-31.656418 -298.12936 6036.4497 4745020
4.2319541 -298.12936 6036.4497 2639901
38.213757 -283.96182 5749.5894 1718032
73.13588 -286.86127 5808.2964 3429667
107.02579 -285.15067 5773.6606 335872
141.35181 -285.15067 5773.6606 400896
172.09769 -279.3396 5655.9995 4219945
205.72418 -279.3396 5655.9995 2969626
230.91238 -269.49152 5456.5977 1124363
262.07831 -268.18671 5430.1782 137472
294.36221 -268.18671 5430.1782 3840
327.09814 -268.55783 5437.6929 2638619
367.60226 -274.66641 5561.3784 2112785
382.625 -262.29874 5310.9604 4152366
410.98166 -260.26062 5269.6929 2046488
446.66309 -262.82117 5321.5381 2816
483.7377 -265.8085 5382.0249 1189647
527.03192 -271.63074 5499.9121 2242842
563.88385 -273.64633 5540.7236 333056
596.93536 -273.69696 5541.7485 1717257
629.76617 -273.64633 5540.7236 5139512
656.4621 -271.06754 5488.5088 2178573
680.88879 -267.84033 5423.1655 2441748
713.13104 -267.84033 5423.1655 2309654
751.81201 -270.15402 5470.0122 2637857
787.57898 -271.27219 5492.6523 331782
809.15009 -267.60632 5418.4268 3328
812.19238 -258.32788 5230.5591 2770463
816.13306 -250.00894 5062.1196 3297824
837.27466 -247.36357 5008.5566 1651468
870.24475 -248.27444 5027 3955244
904.58209 -249.50197 5051.8545 993797
943.26617 -251.81096 5098.6064 202752
965.56915 -249.73932 5056.6602 2048
960.41418 -240.90535 4877.7925 2048
1003.6403 -244.36922 4947.9277 201988
1031.0878 -243.90337 4938.4956 203010
1060.4485 -243.90337 4938.4956 2560
1103.4351 -246.95288 5000.2412 663302
1110.5593 -242.02684 4900.5 1914638
1139.6942 -242.02684 4900.5 3328
1171.7883 -242.6396 4912.9072 5534020
1215.048 -245.47838 4970.3857 861191
1246.0133 -245.75746 4976.0366 2703392
1312.7491 -252.91518 5120.9644 1280
1300.4435 -244.86539 4957.9741 2304
1342.4963 -247.18094 5004.8589 2560
1349.1295 -243.01602 4920.5283 726796
1440.2582 -253.92484 5141.4077 265732
1453.937 -251.00923 5082.373 134915
1479.082 -250.15158 5065.0078 595207
1454.0688 -241.01434 4879.999 1188111
1477.9794 -240.18515 4863.21 200707
1482.3118 -236.2672 4783.8799 530695
1499.7418 -234.5451 4749.0117 1254675
1516.2576 -232.74631 4712.5903 1452561
1556.2101 -234.5451 4749.0117 992778
1611.8947 -238.60857 4831.2876 71424
1604.7733 -233.3954 4725.7324 663046
1629.0552 -232.85023 4714.6943 200448
1630.304 -229.08698 4638.4966 465156
1657.8812 -229.08698 4638.4966 333571
1689.2198 -229.59824 4648.8486 464902
1720.8928 -230.13776 4659.7725 267266
1743.6991 -229.49318 4646.7217 398341
1758.5802 -227.84196 4613.2881 133633
1773.9265 -226.30077 4582.0825 4608
1801.1681 -226.30077 4582.0825 1188881
1804.9393 -223.39583 4523.2637 2505254
1831.8313 -223.39583 4523.2637 2560
1832.1531 -220.20241 4458.604 2304
1857.2758 -220.03833 4455.2817 1536
1868.3262 -218.23509 4418.7705 465667
1889.9884 -217.70425 4408.022 333571
1916.1953 -217.70425 4408.022 4218158
1952.8181 -218.87164 4431.6592 1256968
1979.6447 -218.92465 4432.7324 1321998
2005.9985 -218.92465 4432.7324 3328
2024.5382 -218.08292 4415.689 201984
2017.2632 -214.51758 4343.499 201217
2035.9076 -213.76381 4328.2368 464133
2061.6404 -213.76381 4328.2368 1122063
2085.1233 -213.53343 4323.5723 2304
2160.8967 -218.5984 4426.127 1650961
2193.519 -219.22884 4438.8916 3362597
2213.5259 -218.5984 4426.127 4679219
2193.6704 -214.09244 4334.8911 2901787
2219.4426 -214.09244 4334.8911 1519372
2226.5483 -212.31252 4298.8516 1321229
2290.1743 -215.90129 4371.5166 134912
2333.8389 -217.54883 4404.8755 4864
2356.6599 -217.23845 4398.5908 1782548
2362.5327 -215.38972 4361.1582 861703
2367.4939 -213.49892 4322.8735 730112
2386.7256 -212.92183 4311.189 3427109
2376.2834 -209.73785 4246.7207 4086573
2361.3728 -206.23062 4175.707 1781522
2390.9824 -206.64407 4184.0786 4864
2419.8281 -206.98367 4190.9546 465921
2460.9446 -208.35526 4218.7261 1451790
2486.0125 -208.3541 4218.7026 2816
2511.0938 -208.3541 4218.7026 71424
2482.3853 -203.93512 4129.228 3362335
2506.9348 -203.93512 4129.228 2243598
2473.1423 -199.23512 4034.064 1059333
2505.1406 -199.87457 4047.0112 2637079
2529.2012 -199.87457 4047.0112 2636316
2621.116 -205.18633 4154.5625 4096
2581.8464 -200.22543 4054.1152 200449
2605.9492 -200.22543 4054.1152 661767
2622.7427 -199.66895 4042.8479 1280
2730.0767 -205.95285 4170.0825 3584
2658.948 -198.78185 4024.8857 859401
2721.8892 -201.67236 4083.4124 990476
2772.6323 -203.61597 4122.7661 267267
2770.907 -201.70612 4084.0957 199426
2732.7947 -197.20367 3992.9314 200195
2756.5334 -197.20367 3992.9314 1121297
2790.9465 -197.96077 4008.2607 265990
2800.002 -196.92166 3987.2214 1024
2804.5686 -195.58696 3960.1968 768
2805.3657 -194.01381 3928.344 512
2828.7209 -194.01381 3928.344 512
2835.1577 -192.86293 3905.0413 1024
2864.7427 -193.29262 3913.7415 1024
2879.686 -192.73544 3902.46 199940
2930.5227 -194.57028 3939.6113 595211
2946.571 -194.08459 3929.7773 1537
2931.2708 -191.55792 3878.6177 1536
2942.2969 -190.77768 3862.8196 2049
2970.6069 -191.12154 3869.782 1792
2993.614 -191.12154 3869.782 1792
3021.9353 -191.45824 3876.5994 2375453
3060.1831 -192.41397 3895.9509 3823658
3041.8672 -189.82556 3843.5413 4154154
3068.9685 -190.08881 3848.8716 4878130
3040.4709 -186.92993 3784.9114 3824672
3052.999 -186.32121 3772.5862 4417066
3046.5193 -184.56981 3737.124 5206581
3041.9182 -182.95676 3704.4634 4877103
3058.6138 -182.63858 3698.021 4876332
3080.5994 -182.63858 3698.021 732160
3105.2798 -182.7972 3701.2327 5143607
3129.7483 -182.94121 3704.1487 6784584
3237.5522 -187.9203 3804.9641 2047238
3235.8481 -186.51816 3776.5737 5732916
3282.7954 -187.9203 3804.9641 5139754
3304.8955 -187.89067 3804.364 5862965
3264.2817 -184.32025 3732.071 5862457
3303.1423 -185.25531 3751.0039 1518089
3339.7227 -186.05078 3767.1104 70656
3347.7439 -185.25531 3751.0039 2816
3374.8247 -185.51805 3756.324 2243096
3445.6228 -188.16478 3809.9141 2374421
3468.2739 -188.16478 3809.9141 5072703
3442.7698 -185.56915 3757.3586 1320974
3479.3196 -186.33022 3772.7683 2900254
3501.7495 -186.33022 3772.7683 2045202
3492.6299 -184.66211 3738.9929 1452809
3489.3953 -183.32431 3711.9055 861697
3505.8772 -183.03262 3705.9998 2967068
3527.9104 -183.03262 3705.9998 3822633
3423.3809 -176.50716 3573.8735 1257222
3503.197 -179.50827 3634.6394 2573073
3551.7852 -180.88225 3662.4592 2901786
0 0 0 0
0 0 0 0
0 0 0 0
0 0 0 0
-9064.8096 -436.11292 10038.758 3845
-9088.7041 -440.16049 10131.928 68868
-8945.4434 -436.11292 10038.758 135687
-8744.5332 -429.18146 9879.2051 1536
-8691.6445 -429.47034 9885.8545 727822
-8828.8701 -439.22101 10110.302 1846813
-8740.918 -437.82635 10078.199 662540
-8708.6523 -439.22101 10110.302 135683
-8594.1211 -436.45709 10046.681 4354
-8588.6387 -439.23135 10110.541 2818
-8521.6992 -438.87961 10102.444 2818
-8461.6377 -438.87961 10102.444 68869
-8371.2266 -437.29425 10065.951 3335
-8401.4189 -442.03149 10174.996 768
-8097.5874 -429.13568 9878.1504 1024
-7904.3555 -421.95551 9712.8721 1024
-7952.4922 -427.64935 9843.9375 1024
-7931.2271 -429.66791 9890.4023 1024
-7903.2793 -431.35181 9929.1641 256
-7802.0718 -429.03259 9875.7783 463374
-7704.6987 -426.89069 9826.4736 768
-7659.3521 -427.62061 9843.2754 1024
-7574.0986 -426.11667 9808.6572 1024
-7393.8887 -419.20563 9649.5742 768
-7172.6274 -409.84097 9434.0117 768
-7004.665 -403.3981 9285.7051 768
-6864.4756 -398.46506 9172.1523 768
-6801.9766 -397.99881 9161.4209 768
-6747.5098 -397.99881 9161.4209 768
-6865.2568 -408.23947 9397.1475 768
-6809.3882 -408.23947 9397.1475 2048
-6635.6826 -401.11642 9233.1836 463878
-6347.4966 -386.89667 8905.8633 3584
-6294.5483 -386.89667 8905.8633 793867
-6029.3262 -373.73843 8602.9775 333060
-6024.272 -376.62003 8669.3086 333318
-6172.6992 -389.22937 8959.5596 2816
-6156.5532 -391.59048 9013.9092 2306
-6159.3564 -395.20889 9097.2002 1024
-6133.9404 -397.0647 9139.9189 1024
-5765.8335 -376.57227 8668.209 661518
-5771.3828 -380.33411 8754.8018 68611
-5719.333 -380.33411 8754.8018 1024
-5578.6372 -374.38501 8617.8613 1024
-5527.4014 -374.38501 8617.8613 1280
-5485.7764 -375.04205 8632.9854 1280
-5431.4126 -374.83237 8628.1592 200195
