# .PCD v0.7 - Point Cloud Data file format
VERSION 0.7
FIELDS x y z rgb
SIZE 4 4 4 4
TYPE F F F U
COUNT 1 1 1 1
WIDTH 1274
HEIGHT 1
VIEWPOINT 0 0 0 1 0 0 0
POINTS 1274
DATA ascii
977.92786 -928.89893 4554.1978 1792
996.68439 -921.20947 4516.498 794894
1021.9313 -919.76495 4509.416 2770473
1048.0714 -919.17767 4506.5366 1191947
1053.0234 -900.50055 4414.9668 3560490
1062.2642 -886.3103 4345.3945 1321486
1075.015 -875.65283 4293.1436 2507795
1098.7301 -874.21368 4286.0874 1257222
1114.1915 -866.42151 4247.8838 928005
1144.6671 -870.39117 4267.3467 1323273
1152.6844 -857.48212 4204.0562 926471
1183.9413 -862.04193 4226.4121 1717522
1209.0684 -862.04193 4226.4121 2441245
1234.1957 -862.04193 4226.4121 400131
1257.5685 -860.84113 4220.5244 2374686
1288.824 -864.97754 4240.8047 1386770
1412.2051 -929.59778 4557.624 662029
1522.8405 -983.55286 4822.1548 1024
1493.8055 -946.97247 4642.8086 1280
1470.7023 -915.41144 4488.0713 2049
1444.7638 -883.24188 4330.3511 1536
1410.7645 -847.35718 4154.416 1385239
1430.5496 -844.45636 4140.1938 729612
1452.2062 -842.73987 4131.7778 1453330
1461.3035 -833.91315 4088.5027 2703654
1500.4318 -842.23267 4129.291 2177306
1524.9816 -842.23267 4129.291 1057803
1497.0925 -813.72998 3989.5486 4096
1520.8115 -813.72998 3989.5486 1536
1544.5304 -813.72998 3989.5486 1536
1556.0435 -807.39655 3958.4973 991761
1591.2651 -813.37054 3987.7861 465671
1613.6392 -812.69836 3984.491 200450
1637.328 -812.69836 3984.491 1057038
1658.5269 -811.47998 3978.5173 68865
1682.1801 -811.47998 3978.5173 334082
1713.541 -815.14655 3996.4937 927241
1750.1874 -821.19275 4026.137 1586191
1742.2531 -806.44061 3953.8101 3165222
1754.7853 -801.42853 3929.2373 662789
1778.2582 -801.47925 3929.4858 200192
1813.0676 -806.57184 3954.4536 926469
1824.6191 -801.31982 3928.7043 2176281
1824.0012 -790.92377 3877.7344 859659
1822.1185 -780.24561 3825.3816 399876
1900.8192 -803.91168 3941.4116 597255
1929.3759 -806.05237 3951.907 1783319
1939.1449 -800.3869 3924.1301 467203
1962.4749 -800.3869 3924.1301 1124365
2017.13 -813.01251 3986.0312 135169
2021.9214 -805.48059 3949.1035 2177054
2045.3998 -805.48059 3949.1035 398854
2068.5813 -805.36505 3948.5369 1517846
2095.0632 -806.52246 3954.2114 69890
2142.1511 -815.49878 3998.2205 397575
2165.9216 -815.49878 3998.2205 332042
2102.3987 -782.9884 3838.8291 1025
2106.4807 -776.08374 3804.9768 768
2087.4165 -760.88879 3730.4792 771
2109.5955 -760.88879 3730.4792 770
2158.0452 -770.26569 3776.4521 770
2205.6279 -779.14313 3819.9763 770
2204.7725 -770.9032 3779.5776 259
2220.0044 -768.39764 3767.2935 260
2221.5149 -761.2403 3732.2026 515
2229.7551 -756.50775 3709 513
2202.9929 -740.10876 3628.5989 768
2216.7927 -737.52258 3615.9194 768
2237.7161 -737.33325 3614.9915 1024
2210.4414 -721.41742 3536.9595 1280
2209.7722 -714.40283 3502.5681 398345
2316.1873 -741.81549 3636.9668 726542
2337.8101 -741.81549 3636.9668 768
2379.1958 -748.02905 3667.4307 1024
2402.6497 -748.54315 3669.9512 512
2414.0845 -745.33704 3654.2322 1024
2391.6331 -731.81934 3587.9575 1280
2389.9014 -724.82458 3553.6641 990738
2445.5586 -735.20526 3604.5583 134659
2466.9888 -735.20526 3604.5583 1792
2501.8936 -739.18634 3624.0767 793869
2504.4863 -733.63446 3596.8567 2816
2540.7 -737.94153 3617.9736 1189395
2577.9448 -742.47333 3640.1921 4096
2612.2273 -746.08368 3657.8928 1715992
2632.8792 -745.77338 3656.3716 200962
2624.551 -737.32678 3614.9595 2244121
2646.043 -737.32678 3614.9595 2507034
2687.7078 -742.90271 3642.2971 4086066
2716.5208 -744.8656 3651.9207 1388556
2738.2324 -744.8656 3651.9207 2507037
2762.5583 -745.57104 3655.3796 1125128
2783.0979 -745.25177 3653.814 4019507
2806.0227 -745.57104 3655.3796 1322507
2761.9834 -728.22955 3570.3579 1388041
2850.3245 -745.7901 3656.4536 1585423
2850.7432 -740.25397 3629.3108 4611642
2905.8403 -748.8927 3671.6648 5530435
2941.2913 -752.37714 3688.7483 512
2989.6868 -759.09668 3721.6929 4
3044.8706 -767.42853 3762.542 5
3203.1494 -801.43329 3929.2605 6
3276.3367 -813.80969 3989.9395 7
3242.0557 -799.5061 3919.8118 7
3227.8179 -790.31409 3874.7454 7
3247.1694 -789.41821 3870.3533 6
3257.0491 -786.24847 3854.8125 4
3225.6428 -773.22632 3790.9675 67332
3180.2883 -757.06451 3711.7295 199173
3175.4534 -750.70465 3680.5483 3425331
3159.1724 -741.74426 3636.6174 2833448
3117.2361 -726.92316 3563.9526 2109723
3095.6682 -717.01984 3515.3989 1254160
3116.5681 -717.01984 3515.3989 1451028
3115.5281 -712.0058 3490.8159 200195
3263.1545 -740.80859 3632.0303 792590
3165.7441 -713.96967 3500.4446 1515801
3186.5552 -713.96967 3500.4446 529419
3224.6614 -717.81964 3519.3203 1024
3245.5847 -717.81964 3519.3203 1280
3220.0649 -707.61365 3469.2825 1024
3220.9902 -703.31201 3448.1924 199682
3282.8438 -712.28448 3492.1824 331780
3247.2073 -700.12457 3432.5649 3030061
3323.2991 -712.05554 3491.0598 1319444
3267.2886 -695.70966 3410.9194 768
3142.5457 -665.02032 3260.4561 2816
3158.4329 -664.28491 3256.8503 398085
0 0 0 0
0 0 0 0
0 0 0 0
0 0 0 0
0 0 0 0
-6549.5894 -1445.8179 7301.3672 2305
-6512.4697 -1447.2155 7308.4253 793874
-6699.2803 -1498.7283 7568.5645 2048
-6669.77 -1502.2164 7586.1797 3585
-6487.5308 -1471.119 7429.1377 1056788
-6486.7046 -1481.0146 7479.1108 2048
-6442.2388 -1481.0146 7479.1108 1536
-6397.7734 -1481.0146 7479.1108 398342
-6167.9902 -1437.8153 7260.9546 662283
-6141.7852 -1441.7975 7281.0645 267779
-6126.7339 -1448.4731 7314.7764 267012
-6050.3745 -1440.6462 7275.251 1583383
-6518.876 -1563.377 7895.0391 69634
-6039.4526 -1458.9048 7367.4561 3329
-5995.6509 -1458.9048 7367.4561 1024
-6078.9272 -1490.0538 7524.7588 3589
-6034.1909 -1490.0538 7524.7588 3075
-5989.4541 -1490.0538 7524.7588 2049
-6049.3843 -1516.2888 7657.2451 529419
-5864.2266 -1481.024 7479.1587 200456
-5834.5474 -1484.7871 7498.1616 1538
-5789.9688 -1484.7871 7498.1616 1024
-5750.8711 -1486.2035 7505.3145 1024
-5556.0342 -1447.0796 7307.7393 1794
-5547.981 -1456.3705 7354.6582 1024
-5481.7251 -1450.4092 7324.5532 768
-5474.2148 -1460.0203 7373.0894 68099
-5403.3516 -1452.7534 7336.3921 266763
-5321.4653 -1442.3806 7284.0093 266760
-5313.2207 -1451.9619 7332.3945 3846
-5269.6279 -1451.9619 7332.3945 925203
-5226.0347 -1451.9619 7332.3945 68356
-5104.5303 -1430.1335 7222.1616 662285
-4823.2793 -1362.7991 6882.123 3584
-4770.9956 -1359.5597 6865.7642 399107
-4730.1768 -1359.5597 6865.7642 531206
-4622.6562 -1340.2212 6768.105 1189391
-4582.4175 -1340.2212 6768.105 266754
-4524.8359 -1335.1039 6742.2627 1518355
-4530.0693 -1348.595 6810.3926 925964
-4486.5264 -1347.6776 6805.7603 1280
-4433.603 -1343.9005 6786.6855 3072
-4388.1621 -1342.3429 6778.8193 134658
-4317.9961 -1333.1228 6732.2583 859403
-4277.9712 -1333.1228 6732.2583 1058574
-4122.979 -1296.9578 6549.625 1848345
-4037.5317 -1282.1885 6475.04 2111264
-3901.4854 -1250.9113 6317.0908 202756
-3812.0115 -1234.1036 6232.2124 70402
-3785.5203 -1237.5563 6249.6484 728335
-3793.0464 -1252.3085 6324.1465 69124
-3835.6616 -1279.057 6459.2266 2306
-3834.502 -1291.6016 6522.5767 2307
-3727.3699 -1268.3424 6405.1177 1280
-3717.1384 -1277.9165 6453.4668 266248
-3731.0791 -1296.0872 6545.2285 1320218
-3677.7302 -1291.0197 6519.6377 135682
-3631.2278 -1288.2733 6505.7686 2110495
-3539.9734 -1269.4198 6410.5586 1320721
-3464.2561 -1255.7881 6341.7188 1651218
-3460.0642 -1268.0697 6403.7407 1914135
-3421.9927 -1268.0697 6403.7407 3231016
-3411.2544 -1278.3126 6455.4673 1849616
-3277.3582 -1242.1119 6272.6543 1455370
-3200.2561 -1226.8506 6195.585 1719053
-3163.4216 -1226.8506 6195.585 2377750
-3104.8564 -1218.3237 6152.5239 3232806
-3058.5491 -1214.4607 6133.0156 3758896
-3034.0571 -1219.2711 6157.3086 402693
-3015.8032 -1226.7366 6195.0088 5376
-2960.8433 -1219.2711 6157.3086 465927
-2877.5981 -1199.8252 6059.1064 69632
-2841.575 -1199.8252 6059.1064 1054477
-2822.197 -1206.9436 6095.0547 1913118
-2873.2734 -1244.7698 6286.0762 465415
-2842.0752 -1247.4797 6299.7617 465929
-2737.8994 -1217.8024 6149.8911 67329
-2681.1135 -1208.6854 6103.8506 1188881
-2588.4641 -1182.9288 5973.7798 269056
-2445.1682 -1132.9879 5721.5791 4020528
-2579.4563 -1212.0735 6120.96 729349
-2542.1355 -1211.6301 6118.7212 2442013
-2496.7744 -1207.2863 6096.7847 138496
-2333.3916 -1144.9055 5781.7627 2705443
-2422.6533 -1206.4761 6092.6934 2704679
-2355.5669 -1190.8727 6013.8965 1389845
-2319.8127 -1190.8727 6013.8965 269830
-2258.8904 -1177.7505 5947.6299 2113319
-2256.5295 -1195.2296 6035.8984 1060376
-2252.1038 -1212.1621 6121.4077 4415559
-2203.6763 -1205.5786 6088.1611 2639661
-2096.407 -1166.0466 5888.5249 1915683
-2061.3979 -1166.0466 5888.5249 135427
-2072.1187 -1192.3607 6021.4111 1792
-2054.7791 -1203.1697 6075.9961 793872
-2030.1658 -1210.0299 6110.6406 1792
-1984.1306 -1204.1398 6080.895 2835242
-1861.1819 -1150.4868 5809.9482 2245152
-1824.6061 -1149.2058 5803.479 3628084
-1822.3101 -1169.8821 5907.894 4680772
-1769.2172 -1158.1196 5848.4941 3166766
-1734.4462 -1158.1196 5848.4941 139010
-1794.8051 -1222.939 6175.8311 3560506
-1711.0193 -1190.1978 6010.4878 1191960
-1652.4089 -1173.9453 5928.4131 70403
-1578.6234 -1145.9684 5787.1299 992532
-1545.078 -1146.6071 5790.3555 466188
-1491.4993 -1132.0693 5716.9399 136452
-1456.1216 -1130.9906 5711.4922 2561
-1457.2773 -1158.9139 5852.5049 2304
-1388.2087 -1130.9906 5711.4922 1847068
-1394.3281 -1164.4594 5880.5098 2560
-1343.5225 -1150.8868 5811.9683 69377
-1258.3652 -1106.3948 5587.2837 70657
-1218.2509 -1100.1667 5555.8325 68609
-1203.7655 -1117.3815 5642.7666 3888184
-1170.2177 -1117.3815 5642.7666 464899
-1176.193 -1156.2339 5838.9712 1980439
-1090.8674 -1104.9685 5580.0811 3822896
-1046.3489 -1093.1182 5520.2368 399362
-1005.78 -1084.76 5478.0283 4613687
-963.45282 -1073.8826 5423.0977 1981208
-931.211 -1073.8826 5423.0977 1058831
-881.94165 -1053.5421 5320.3779 1584410
-850.71423 -1054.0422 5322.9043 2305
-831.5976 -1070.1663 5404.3301 135171
-799.46735 -1070.1663 5404.3301 4613189
-774.74268 -1080.4944 5456.4873 2969133
-742.30237 -1080.4944 5456.4873 728844
-685.54742 -1043.4847 5269.5889 2304
-652.39563 -1040.5776 5254.9077 528906
-621.15369 -1040.5776 5254.9077 4099
-586.43457 -1034.4438 5223.9321 1058069
-518.22107 -965.23761 4874.4414 1454102
-484.37701 -955.64099 4825.9785 3757618
-454.81812 -953.82257 4816.7954 3363876
-426.18097 -953.82257 4816.7954 4022061
-397.38037 -953.43054 4814.8159 3561250
-366.79343 -948.35895 4789.2041 3956009
-335.2977 -939.88617 4746.417 3034652
-304.47952 -931.93018 4706.2393 2836762
-284.42786 -958.65186 4841.1836 3560231
-259.14493 -971.77393 4907.4497 1191178
-225.68991 -953.69281 4816.1401 5534791
-199.07553 -963.46368 4865.4829 2638879
-168.85352 -956.12866 4828.4414 399364
-141.22223 -963.46368 4865.4829 69120
-111.44065 -956.12866 4828.4414 528391
-83.669319 -966.93524 4883.0142 134914
-54.638439 -966.93524 4883.0142 396807
-25.006252 -944.23004 4768.353 1792
3.2771378 -925.64545 4674.5015 1024
31.170233 -928.68097 4689.8306 3625253
59.052582 -928.68097 4689.8306 3429146
86.387276 -922.83063 4660.2866 3165724
116.66978 -943.66467 4765.498 2048013
141.33942 -919.82874 4645.127 4811828
169.72978 -924.04156 4666.4014 4088874
197.47284 -924.04156 4666.4014 3891499
226.28874 -928.4433 4688.6304 3298087
254.16394 -928.4433 4688.6304 2245399
282.03918 -928.4433 4688.6304 796166
308.34619 -923.74536 4664.9058 597767
336.72943 -925.52936 4673.915 2178076
364.51715 -925.52936 4673.915 2046742
392.3049 -925.52936 4673.915 1783315
429.45966 -946.16644 4778.1318 4152373
457.86697 -946.16644 4778.1318 531972
471.45071 -917.32355 4632.4756 266241
498.95148 -917.2489 4632.0986 4355
528.85992 -921.37665 4652.9438 1536
556.73279 -921.72406 4654.6982 661775
587.42169 -926.48004 4678.7158 1024
611.67316 -921.11182 4651.6064 768
624.77948 -900.1507 4545.7529 768
651.80524 -900.1507 4545.7529 1024
680.66254 -902.57935 4558.0176 1792
706.43933 -900.89349 4549.5044 464385
747.20068 -917.73669 4634.562 4942141
786.01068 -931.07025 4701.8965 3627553
807.50696 -923.68335 4664.5928 4745520
835.23926 -923.68335 4664.5928 3757860
851.44293 -911.34363 4602.2773 69888
897.14679 -930.36481 4698.334 2442268
924.36957 -929.65063 4694.7275 3100716
930.14661 -908.04236 4585.6055 2706469
957.4093 -908.04236 4585.6055 4218173
977.92786 -901.82294 4554.1978 4608
1002.3518 -899.44324 4542.1802 4609
1021.9313 -892.95526 4509.416 993303
1048.0714 -892.38507 4506.5366 3429942
1061.9905 -881.69714 4452.5625 3629104
1071.0634 -867.60339 4381.3892 2378265
1081.3615 -855.14783 4318.4888 2442773
1098.7301 -848.73169 4286.0874 2048017
1117.2482 -843.4743 4259.5376 3165989
1142.5723 -843.4743 4259.5376 1323018
1152.6844 -832.48785 4204.0562 1059848
1176.6133 -831.73468 4200.2529 269312
1209.0684 -836.91479 4226.4121 2704415
1234.1957 -836.91479 4226.4121 2375961
1254.9446 -834.00513 4211.7183 2243866
1263.0056 -822.9422 4155.8506 2506022
1521.4194 -972.2973 4910.0928 1189142
1587.589 -995.48383 5027.1846 1024
1589.8295 -978.46808 4941.2549 1280
1503.9364 -908.81158 4589.4902 2562
1472.0785 -873.70862 4412.2207 399116
1410.7645 -822.65808 4154.416 597005
1430.5496 -819.8418 4140.1938 464903
1452.2062 -818.17529 4131.7778 3584
1476.7709 -818.17529 4131.7778 793610
1518.0515 -827.28503 4177.7817 332290
1484.2046 -795.81854 4018.8765 2048
1497.0925 -790.01099 3989.5486 768
1520.8115 -790.01099 3989.5486 1024
1549.2601 -792.43018 4001.7654 1024
1557.6307 -784.6618 3962.5352 2048
1577.0891 -782.62726 3952.2605 530951
1600.5863 -782.62726 3952.2605 2176031
1630.3354 -785.63983 3967.4741 595718
1658.5269 -787.8266 3978.5173 1189646
1682.1801 -787.8266 3978.5173 531458
1720.307 -794.51111 4012.2739 69120
1750.1874 -797.25623 4026.137 2178319
1744.5029 -783.94513 3958.916 2771733
1765.5188 -782.82733 3953.2712 4022567
1789.5573 -783.06152 3954.4536 4022316
1815.9802 -784.31952 3960.8066 925962
1839.5284 -784.31952 3960.8066 1323026
1824.0012 -767.86951 3877.7344 529159
1817.8206 -755.71582 3816.3582 1584151
1855.9688 -762.06329 3848.4128 1388048
1929.3759 -782.55719 3951.907 1124364
1958.6991 -784.89258 3963.7007 266242
2004.4182 -793.66467 4007.9993 1387793
2017.13 -789.31445 3986.0312 2177054
2030.7267 -785.40765 3966.3018 992013
2048.0454 -783.01349 3954.2114 1716248
2071.5542 -783.01349 3954.2114 926476
2106.4133 -787.25555 3975.6335 333573
2142.1511 -791.72827 3998.2205 530185
2162.5869 -790.50928 3992.0647 768
2134.6599 -771.83014 3897.7354 397323
2125.2217 -760.16553 3838.8291 512
2131.9226 -754.46008 3810.0168 512
2135.5933 -747.81366 3776.4521 768
2158.0452 -747.81366 3776.4521 264200
2205.6279 -756.43231 3819.9763 132357
2204.7725 -748.43256 3779.5776 260
2203.7654 -740.54315 3739.7363 260
2220.3054 -738.64893 3730.1707 260
2212.6179 -728.81201 3680.4941 258
2205.8821 -719.47797 3633.3574 512
2224.5659 -718.53571 3628.5989 660240
2237.9128 -715.90411 3615.3096 768
2259.4067 -715.90411 3615.3096 1280
2238.7405 -702.67133 3548.4839 1792
2267.9414 -705.19122 3561.2095 2700588
2333.75 -718.94196 3630.6504 1253653
2355.3352 -718.94196 3630.6504 134404
2385.2505 -721.46155 3643.3745 134148
2406.9114 -721.46155 3643.3745 1280
2368.5916 -703.64301 3553.3909 199940
2379.8003 -700.7229 3538.6445 1123091
2400.8386 -700.7229 3538.6445 265989
2455.135 -710.34552 3587.2385 68353
2488.4189 -713.77521 3604.5583 1978144
2523.4395 -717.6402 3624.0767 3328
2566.2693 -723.64178 3654.3845 464902
2589.4028 -724.03528 3656.3716 1280
2612.2273 -724.33649 3657.8928 663047
2636.0525 -724.9079 3660.7786 2816
2624.551 -715.83484 3614.9595 466946
2637.3135 -713.47314 3603.0332 466946
2696.7974 -723.68744 3654.615 3757105
2716.5208 -723.15387 3651.9207 4284217
2738.2324 -723.15387 3651.9207 3954993
2756.0879 -722.14343 3646.8179 4481593
2783.0979 -723.52881 3653.814 3165733
2804.8208 -723.52881 3653.814 5073216
2818.2083 -721.39508 3643.0388 1188105
2839.8674 -721.39508 3643.0388 3888685
2877.4072 -725.39874 3663.2571 4810044
2905.8403 -727.0636 3671.6648 5727303
3011.2366 -747.81689 3776.4688 256
3033.6887 -747.81689 3776.4688 1
3056.1409 -747.81689 3776.4688 65794
3203.1494 -778.07275 3929.2605 4
3226.5103 -778.07275 3929.2605 4
3201.1489 -766.4079 3870.3533 6
3193.7285 -759.17432 3833.8235 7
3210.6677 -757.7926 3826.8459 6
3208.9031 -752.04694 3797.8303 769
3171.3354 -738.04938 3727.1426 1024
3193.4946 -738.04938 3727.1426 990483
3175.4534 -728.82275 3680.5483 595978
3141.3784 -716.06757 3616.1348 332038
3114.6941 -705.15894 3561.0464 1715481
3135.8657 -705.15894 3561.0464 1847067
3116.5681 -696.11981 3515.3989 1781018
3103.7759 -688.64435 3477.6479 859917
3185.9097 -702.19006 3546.0537 2372385
3165.7441 -693.15857 3500.4446 1319440
3128.2417 -680.47382 3436.387 1780244
3144.2986 -679.52875 3431.6143 2635808
3245.5847 -696.8963 3519.3203 3885621
3280.324 -699.84387 3534.2053 2899240
3220.9902 -682.81158 3448.1924 1187599
3202.6914 -674.63861 3406.9189 726535
3247.2073 -679.71704 3432.5649 924938
3323.2991 -691.30017 3491.0598 398083
3288.0227 -679.71704 3432.5649 924685
3142.5457 -645.63599 3260.4561 858893
3121.0906 -637.297 3218.3442 727563
0 0 0 0
0 0 0 0
0 0 0 0
0 0 0 0
0 0 0 0
-6434.606 -1377.7888 7173.186 1536
-6506.1802 -1402.4092 7301.3672 727823
-6696.7041 -1453.172 7565.6543 463369
-6444.9321 -1407.9951 7330.4492 1254679
-6401.3501 -1407.9951 7330.4492 859665
-6486.7046 -1436.5492 7479.1108 1536
-6464.7188 -1441.5619 7505.2085 398599
-6420.0981 -1441.5619 7505.2085 1057041
-6217.7139 -1405.89 7319.4893 69121
-6170.2222 -1404.9847 7314.7764 3840
-6130.6812 -1405.89 7319.4893 597001
-6055.209 -1398.5095 7281.0645 1649433
-6518.876 -1516.4386 7895.0391 69377
-6001.7378 -1406.2662 7321.4482 2048
-5958.2095 -1406.2662 7321.4482 2562
-6066.479 -1442.3574 7509.3496 200454
-6021.834 -1442.3574 7509.3496 2561
-5977.189 -1442.3574 7509.3496 1280
-5957.5171 -1448.4291 7540.9609 2307
-5864.2266 -1436.5585 7479.1587 2821
-5830.1099 -1439.113 7492.4585 2306
-5789.9688 -1440.2085 7498.1616 463629
-5679.5107 -1423.6943 7412.1841 134151
-5556.0342 -1403.6331 7307.7393 67332
-5582.3936 -1421.4072 7400.2769 1281
-5538.397 -1421.4072 7400.2769 1536
-5518.9858 -1427.7676 7433.3906 133894
-5430.3794 -1416.1852 7373.0894 69126
-5308.2139 -1395.5912 7265.8706 200712
-5265.0161 -1395.5912 7265.8706 69637
-5222.6973 -1395.826 7267.0933 1582876
-5179.4922 -1395.826 7267.0933 2110243
-5082.583 -1381.2314 7191.1094 399366
-4874.9854 -1336.0537 6955.9004 4096
-4770.9956 -1318.7407 6865.7642 4096
-4608.4546 -1284.8055 6689.0869 3840
-4568.686 -1284.8055 6689.0869 2110493
-4568.0566 -1295.9089 6746.8945 267266
-4527.9448 -1295.9089 6746.8945 464645
-4526.9883 -1307.2156 6805.7603 4608
-4486.5264 -1307.2156 6805.7603 3584
-4446.0122 -1307.2003 6805.6812 1254929
-4388.1621 -1302.0409 6778.8193 2111003
-4303.0518 -1288.6223 6708.9585 2440480
-4260.8862 -1287.9333 6705.3716 926986
-4221.021 -1287.9333 6705.3716 1518614
-4037.5317 -1243.6925 6475.04 663306
-3852.8889 -1198.2411 6238.4062 2816
-3635.5972 -1141.6537 5943.7949 2304
-3785.5203 -1200.4005 6249.6484 135431
-3717.835 -1190.6234 6198.7466 266504
-3835.6616 -1240.6552 6459.2266 1024
-3834.502 -1252.823 6522.5767 68614
-3795.7236 -1252.823 6522.5767 1024
-3750.5283 -1250.6833 6511.4365 264454
-3731.0791 -1257.174 6545.2285 398343
-3673.1038 -1250.6833 6511.4365 333314
-3631.2278 -1249.5947 6505.7686 1321232
-3539.9734 -1231.3073 6410.5586 5007423
-3464.2561 -1218.0848 6341.7188 2442005
-3424.9854 -1217.5275 6338.8174 2968093
-3387.2988 -1217.5275 6338.8174 2178325
-3349.613 -1217.5275 6338.8174 2816
-3277.3582 -1204.8193 6272.6543 4086576
-3240.0652 -1204.8193 6272.6543 1653004
-3186.2102 -1198.5889 6240.2168 862983
-3104.8564 -1181.7452 6152.5239 2047254
-3049.1184 -1174.366 6114.1055 599300
-3052.6343 -1189.9055 6195.0088 796427
-3015.8032 -1189.9055 6195.0088 400388
-2960.8433 -1182.6643 6157.3086 1649431
-2877.5981 -1163.8021 6059.1064 1125134
-2882.7043 -1180.6471 6146.8066 1914653
-2822.197 -1170.7069 6095.0547 1783583
-2785.9602 -1170.7069 6095.0547 1389594
-2749.7236 -1170.7069 6095.0547 665614
-2671.5156 -1152.5989 6000.7788 861709
-2635.8394 -1152.5989 6000.7788 1256208
-2603.4514 -1154.0565 6008.3677 2048
-2517.4558 -1131.4611 5890.729 2112024
-2576.9866 -1174.5569 6115.0991 1322767
-2540.6306 -1174.5569 6115.0991 138240
-2504.2747 -1174.5569 6115.0991 532745
-2357.2749 -1121.8983 5840.9424 531723
-2422.0149 -1169.9448 6091.0874 1188628
-2302.062 -1128.8809 5877.2959 2048
-2319.8127 -1155.1184 6013.8965 69894
-2249.8794 -1137.8331 5923.9038 1792
-2214.6602 -1137.8331 5923.9038 729869
-2179.5674 -1137.899 5924.2476 1190674
-2131.416 -1131.0376 5888.5249 1849632
-2077.2493 -1120.7019 5834.7134 2835759
-2050.4407 -1125.0256 5857.2246 3585
-2102.8247 -1173.7004 6110.6406 2560
-1983.2178 -1126.4017 5864.3887 597259
-1998.1979 -1155.219 6014.4199 2770472
-1962.4406 -1155.219 6014.4199 2640678
-1882.3191 -1128.6188 5875.9312 532995
-1812.7195 -1107.4406 5765.6714 6194260
-1803.9879 -1123.3488 5848.4941 3826740
-1758.126 -1116.3066 5811.8306 2575394
-1734.4462 -1123.3488 5848.4941 1981976
-1746.7534 -1154.4637 6010.4878 2970140
-1711.0193 -1154.4637 6010.4878 4614454
-1652.4089 -1138.6992 5928.4131 4220214
-1578.6234 -1111.5623 5787.1299 2113566
-1534.528 -1104.5878 5750.8184 993036
-1491.4993 -1098.0806 5716.9399 71681
-1455.3251 -1096.4341 5708.3682 5271362
-1434.3773 -1106.4545 5760.5371 6983252
-1384.7734 -1094.3195 5697.3589 2245648
-1378.3197 -1116.5303 5812.9951 1651982
-1334.3181 -1108.6853 5772.1514 662532
-1251.282 -1067.1359 5555.8325 1255439
-1211.2222 -1060.979 5523.7778 990986
-1203.7655 -1083.8337 5642.7666 2967332
-1170.2177 -1083.8337 5642.7666 533760
-1165.3453 -1111.1763 5785.1201 4416047
-1090.8674 -1071.7933 5580.0811 4679469
-1051.2925 -1065.3082 5546.3174 4482349
-1024.5172 -1071.7933 5580.0811 3100699
-1013.1953 -1095.42 5703.0889 4087082
-943.12244 -1054.9647 5492.4663 1783310
-903.25385 -1046.6056 5448.9458 3362850
-850.71423 -1022.3961 5322.9043 530435
-831.5976 -1038.036 5404.3301 531463
-799.46735 -1038.036 5404.3301 2638886
-799.81848 -1081.9761 5633.0952 795404
-752.30585 -1062.178 5530.0205 71681
-684.995 -1011.34 5265.3423 1782297
-651.24335 -1007.553 5245.6265 4744257
-620.0567 -1007.553 5245.6265 334599
-584.08466 -999.36536 5202.999 926994
-518.22107 -936.25769 4874.4414 729617
-473.62735 -906.37756 4718.8765 202500
-454.81812 -925.18536 4816.7954 3164198
-426.18097 -925.18536 4816.7954 5140279
-397.38037 -924.80511 4814.8159 3034906
-366.79343 -919.8858 4789.2041 2704922
-336.81055 -915.78088 4767.8325 2639135
-309.52527 -918.9303 4784.2295 1520654
-284.42786 -929.86975 4841.1836 4415792
-258.37662 -939.8031 4892.8999 3034403
-228.1427 -935.11298 4868.4814 2376731
-199.59424 -936.97205 4878.1606 2573599
-166.26462 -913.20294 4754.4111 2705443
-142.12595 -940.5174 4896.6187 1057804
-113.01419 -940.5174 4896.6187 5666882
-83.929359 -940.81927 4898.1904 1519376
-54.638439 -937.90436 4883.0142 2439712
-25.260843 -925.20544 4816.8999 136960
3.2771378 -897.85425 4674.5015 3822634
31.28829 -904.21039 4707.5933 2836246
59.052582 -900.79858 4689.8306 3429150
86.237816 -893.57526 4652.2236 5797701
117.62585 -922.83319 4804.5493 1651472
141.55534 -893.57526 4652.2236 664837
168.47523 -889.67346 4631.9097 1125902
198.86331 -902.60956 4699.2588 200448
226.28874 -900.56812 4688.6304 4086064
254.16394 -900.56812 4688.6304 1584912
282.03918 -900.56812 4688.6304 1253135
306.08389 -889.43726 4630.6797 134913
353.06024 -941.28052 4900.5918 2703401
382.19562 -941.28052 4900.5918 200707
402.77304 -921.69678 4798.6328 69120
423.70471 -905.46075 4714.103 266500
451.73135 -905.46075 4714.103 1650964
471.36667 -889.62347 4631.6494 1914137
498.90311 -889.62347 4631.6494 199681
528.85992 -893.71356 4652.9438 1122319
558.11737 -896.27405 4666.2744 67841
587.42169 -898.66376 4678.7158 1537
615.23798 -898.66376 4678.7158 1384985
627.33539 -876.69678 4564.3491 596491
663.39563 -888.6507 4626.585 1280
684.40442 -880.29352 4583.0747 5665607
711.65204 -880.29352 4583.0747 4218916
753.45374 -897.63251 4673.3472 1521923
788.0318 -905.43842 4713.9868 3627550
807.50696 -895.95105 4664.5928 3627807
837.25366 -898.11194 4675.8428 4417582
865.05286 -898.11194 4675.8428 2772506
912.40875 -917.78387 4778.2607 2772253
921.98975 -899.41766 4682.6411 3824433
933.07001 -883.54779 4600.0176 927755
960.4184 -883.54779 4600.0176 1255954
999.87244 -894.37616 4656.3936 663566
1002.3518 -872.43866 4542.1802 4614
1021.9313 -866.14551 4509.416 795926
1029.4253 -850.19293 4426.3618 1783074
1059.6002 -853.30054 4442.541 1850398
1079.2716 -848.00421 4414.9668 797193
1081.3615 -829.47314 4318.4888 3232552
1107.0361 -829.47314 4318.4888 861703
1142.0421 -836.30652 4354.0649 731399
1137.0953 -814.22827 4239.1191 200960
1162.2981 -814.22827 4239.1191 5139522
1176.6133 -806.763 4200.2529 3494690
1194.4633 -801.98145 4175.3584 1191936
1238.3986 -814.552 4240.8047 3099932
1254.9446 -808.96527 4211.7183 4810820
1288.824 -814.552 4240.8047 3230510
1494.1714 -926.21472 4822.1548 924945
1522.8405 -926.21472 4822.1548 266247
1491.9144 -890.638 4636.9312 1024
1509.5664 -884.82581 4606.6714 67842
1515.4916 -872.4696 4542.3413 990737
1428.4408 -807.95691 4206.4688 596233
1435.4637 -797.95892 4154.416 2110496
1452.2062 -793.61066 4131.7778 202241
1476.7709 -793.61066 4131.7778 268802
1518.0515 -802.44696 4177.7817 4547376
1484.2046 -771.92517 4018.8765 3494176
1485.2004 -760.20502 3957.8579 2769944
1520.8115 -766.29205 3989.5486 728582
1571.7018 -779.77258 4059.7324 662024
1595.8379 -779.77258 4059.7324 4610
1581.1891 -761.10345 3962.5352 68608
1590.5236 -754.35724 3927.4126 69888
1656.1473 -774.11713 4030.2883 1518097
1653.9231 -762.05206 3967.4741 2638102
1682.1801 -764.17322 3978.5173 1717766
1713.541 -767.62598 3996.4937 2178063
1747.5002 -772.13251 4019.9556 1585930
1768.0153 -770.65704 4012.2739 1190914
1768.0398 -760.40833 3958.916 1125380
1791.5765 -760.40833 3958.916 1059078
1861.5433 -779.85913 4060.1833 1914646
1839.5284 -760.77142 3960.8066 400390
1844.9165 -753.35596 3922.1995 203265
1876.1632 -756.55292 3938.8438 69888
1899.5807 -756.55292 3938.8438 5797197
1929.3759 -759.06201 3951.907 3888180
1958.6991 -761.32733 3963.7007 4096
2004.4182 -769.83594 4007.9993 2560
2017.13 -765.61646 3986.0312 1792
2036.9351 -764.15594 3978.4275 595208
2052.9348 -761.31787 3963.6516 728843
2071.2126 -759.37946 3953.5596 1450774
2100.0647 -761.31787 3963.6516 463879
2105.1365 -754.68799 3929.1345 1280
2148.9355 -761.935 3966.8647 529932
2142.4321 -751.38287 3911.927 1057043
2146.8145 -744.83411 3877.8323 1846303
2146.2471 -736.72565 3835.6169 398344
2156.0439 -732.30774 3812.6162 256
2164.6821 -727.59235 3788.0664 2436650
2187.5571 -727.71008 3788.6792 660239
2217.2451 -730.06873 3800.959 513
2227.2432 -725.96191 3779.5776 258
2190.7363 -706.93042 3680.4941 259
2186.8677 -698.70325 3637.6609 259
2205.8821 -697.87665 3633.3574 260
2216.2239 -694.349 3614.9915 259
2237.7161 -694.349 3614.9915 257
2259.4067 -694.41016 3615.3096 512
2280.9009 -694.41016 3615.3096 1024
2326.9529 -701.81696 3653.8716 198660
2349.9382 -702.19397 3655.8347 462857
2375.8611 -703.43396 3662.2903 1024
2397.6343 -703.43396 3662.2903 768
2406.9114 -699.80072 3643.3745 768
2400.2871 -691.65021 3600.9407 1537
2412.4807 -689.01837 3587.2385 1024
2433.8079 -689.01837 3587.2385 3329
2466.9888 -692.34509 3604.5583 859660
2490.9805 -693.0578 3608.269 858636
2544.543 -701.91547 3654.3845 1386003
2601.8291 -711.6416 3705.0217 133890
2598.3354 -704.71979 3668.9849 134657
2620.1487 -704.71979 3668.9849 1583637
2644.2256 -705.32367 3672.1287 1978393
2624.551 -694.3429 3614.9595 1190157
2638.3342 -692.32001 3604.4277 2560
2671.5188 -695.37988 3620.3584 464133
2693.043 -695.37988 3620.3584 5401929
2721.9448 -697.26984 3630.198 1321999
2743.5273 -697.26984 3630.198 3584
2819.6982 -711.03522 3701.8647 136961
2728.7688 -682.77655 3554.7417 4875327
2810.4089 -697.79974 3632.9568 3427880
2839.8674 -699.73621 3643.0388 2045977
2884.0112 -705.23456 3671.6648 3492910
3008.4338 -730.13354 3801.2966 1649175
3052.3777 -735.27509 3828.0649 1056782
3053.6333 -730.13354 3801.2966 527882
3056.1516 -725.36725 3776.4817 197635
3078.6038 -725.36725 3776.4817 1
3159.8831 -739.1275 3848.1218 66053
3170.9353 -736.38116 3833.8235 3
3187.9158 -735.04095 3826.8459 4
3208.6748 -734.58478 3824.4707 4
3152.3906 -716.62097 3730.946 514
3171.2725 -715.8761 3727.0681 768
3180.2883 -712.92993 3711.7295 1794
3175.4534 -706.94086 3680.5483 2049
3147.7742 -695.98273 3623.4968 67842
3126.2678 -686.52917 3574.2788 1516569
3147.5181 -686.52917 3574.2788 463879
3146.9915 -681.8111 3549.7153 201988
3103.7759 -667.96881 3477.6479 4353
3124.4514 -667.96881 3477.6479 1912346
3165.7441 -672.34741 3500.4446 3425840
3186.5552 -672.34741 3500.4446 2176539
3224.6614 -675.97296 3519.3203 1651220
3256.6956 -678.28717 3531.3684 795142
3287.613 -680.34045 3542.0586 5664589
3229.9058 -664.14441 3457.7371 5006146
3282.8438 -670.7605 3492.1824 2176025
3302.5437 -670.54486 3491.0598 661764
3243.8484 -654.51404 3407.5984 1319696
3264.1077 -654.51404 3407.5984 398342
3171.8472 -632.091 3290.8574 1024
3121.0906 -618.16302 3218.3442 1024
0 0 0 0
0 0 0 0
0 0 0 0
0 0 0 0
0 0 0 0
-6492.4961 -1347.1541 7237.7207 1792
-6564.4175 -1371.165 7366.7222 331271
-6520.6201 -1371.165 7366.7222 1452056
-6444.9321 -1364.4135 7330.4492 1913118
-6410.9863 -1366.4673 7341.4834 3328
-6502.791 -1395.5361 7497.6582 202499
-6464.7188 -1396.9414 7505.2085 333574
-6420.0981 -1396.9414 7505.2085 201220
-6213.7104 -1361.4963 7314.7764 1792
-6170.2222 -1361.4963 7314.7764 1536
-6237.4849 -1386.1078 7447.0034 597002
-6193.21 -1386.1078 7447.0034 793357
-6310.377 -1422.5001 7642.5254 3329
-6163.7764 -1399.5303 7519.1177 1280
-5905.2158 -1350.6176 7256.3291 1024
-6066.479 -1397.7122 7509.3496 1024
-6021.834 -1397.7122 7509.3496 3075
-5988.8169 -1400.4313 7523.9585 2049
-5887.0376 -1386.991 7451.7485 2820
-5842.7349 -1386.991 7451.7485 2563
-5798.4321 -1386.991 7451.7485 1280
-5789.9688 -1395.6298 7498.1616 1794
-5679.5107 -1379.6268 7412.1841 200457
-5537.3765 -1355.6189 7283.1987 512
-5541.564 -1367.3362 7346.1514 768
-5538.397 -1377.4105 7400.2769 1024
-5494.3999 -1377.4105 7400.2769 1280
-5474.792 -1383.574 7433.3906 3076
-5271.9995 -1343.167 7216.3003 134406
-5229.0962 -1343.167 7216.3003 68869
-5193.0352 -1344.939 7225.8203 859154
-5147.4683 -1344.2579 7222.1616 596236
-5025.8223 -1323.5306 7110.8018 68609
-4972.0669 -1320.4819 7094.4219 1280
-4515.9077 -1209.5961 6498.6768 2560
-4477.2715 -1209.5961 6498.6768 1056783
-4568.686 -1245.0371 6689.0869 1188624
-4559.8457 -1253.5393 6734.7666 4096
-4527.9448 -1255.7968 6746.8945 465667
-4526.5098 -1266.6195 6805.041 265474
-4486.5264 -1266.7534 6805.7603 1058059
-4428.4639 -1261.7389 6778.8193 1782296
-4343.4004 -1248.8685 6709.6719 1848089
-4054.1184 -1176.4957 6320.8418 1519126
-4260.8862 -1248.0681 6705.3716 68353
-4221.021 -1248.0681 6705.3716 1792
-4123.1245 -1230.7458 6612.3062 1024
-3972.5149 -1197.204 6432.0986 3587
-3635.5972 -1106.3162 5943.7949 134660
-3802.5347 -1168.4728 6277.7378 67843
-3717.835 -1153.7701 6198.7466 464653
-3827.0957 -1199.5684 6444.8018 134405
-3720.6938 -1178.0116 6328.9858 265478
-3753.1338 -1200.4225 6449.3906 2305
-3750.5283 -1211.9709 6511.4365 1536
-3711.8159 -1211.9709 6511.4365 69889
-3673.1038 -1211.9709 6511.4365 3163947
-3542.2229 -1181.2354 6346.3057 3561010
-3404.4236 -1147.5057 6165.0903 2114590
-3433.8721 -1170.0287 6286.0972 930313
-3396.4993 -1170.0287 6286.0972 798726
-3359.127 -1170.0287 6286.0972 732166
-3266.7759 -1150.6636 6182.0562 1257993
-3331.8279 -1186.931 6376.9062 2112532
-3303.8984 -1190.5283 6396.2334 1454092
-3186.2102 -1161.489 6240.2168 1191947
-3149.1104 -1161.489 6240.2168 1717781
-3049.1184 -1138.016 6114.1055 466180
-3052.6343 -1153.0745 6195.0088 332804
-3015.8032 -1153.0745 6195.0088 729355
-3051.8975 -1181.3018 6346.6626 2048
-3014.1648 -1181.3018 6346.6626 4547394
-2976.4319 -1181.3018 6346.6626 3627060
-2774.8599 -1115.4414 5992.8213 1719576
-2748.6206 -1119.265 6013.3638 664074
-2697.6067 -1112.9679 5979.5322 2114079
-2719.8374 -1137.1252 6109.3198 3167531
-2626.5068 -1112.9679 5979.5322 2903846
-2585.8533 -1110.7756 5967.7544 1520402
-2539.0637 -1105.85 5941.2905 1521167
-2532.0083 -1118.335 6008.3677 1320974
-2540.6306 -1138.2009 6115.0991 1388559
-2506.6748 -1139.2919 6120.96 1322002
-2460.5273 -1134.7921 6096.7847 2305
-2422.0149 -1133.7316 6091.0874 2048
-2302.062 -1093.9387 5877.2959 465672
-2319.8127 -1119.3641 6013.8965 1520153
-2249.8794 -1102.6138 5923.9038 2508071
-2191.8696 -1091.2671 5862.9424 597513
-2157.0127 -1091.2671 5862.9424 3035440
-2120.0864 -1090.2029 5857.2246 465673
-2077.2493 -1086.0128 5834.7134 398345
-2050.4407 -1090.2029 5857.2246 596237
-2021.9817 -1093.6449 5875.7173 67585
-1983.2178 -1091.5363 5864.3887 1792
-1948.3524 -1091.5363 5864.3887 1536
-1955.2656 -1115.3687 5992.4307 2375460
-1882.3191 -1093.6847 5875.9312 201986
-1812.7195 -1073.1621 5765.6714 2904360
-1821.3489 -1099.054 5904.7778 3694384
-1769.2172 -1088.5779 5848.4941 2114836
-1742.557 -1093.6685 5875.8438 333826
-1746.7534 -1118.7296 6010.4878 4088610
-1690.3083 -1105.1881 5937.7344 5733184
-1621.074 -1082.5281 5815.9912 2837795
-1568.2886 -1070.1044 5749.2437 995085
-1529.3964 -1066.818 5731.5869 1782809
-1481.6479 -1057.0635 5679.1802 70144
-1462.4396 -1067.6903 5736.2739 662021
-1428.3357 -1067.6903 5736.2739 3163683
-1360.9014 -1042.1659 5599.1416 2704920
-1325.9819 -1040.8856 5592.2632 992516
-1294.4495 -1042.2666 5599.6826 5666101
-1244.0625 -1028.1385 5523.7778 4219170
-1211.2222 -1028.1385 5523.7778 3890725
-1196.5382 -1043.98 5608.8877 2180881
-1154.0752 -1035.7977 5564.9277 1982991
-1120.9901 -1035.7977 5564.9277 2180372
-1081.9744 -1030.1511 5534.5908 3167005
-1049.0697 -1030.1511 5534.5908 1850894
-1031.3669 -1045.5623 5617.3887 5008950
-1005.9616 -1053.9351 5662.3721 4812337
-958.7467 -1039.2467 5583.4575 4614447
-910.67694 -1022.545 5493.7256 3232797
-878.52948 -1023.1439 5496.9438 1521930
-845.84869 -1023.1439 5496.9438 3824683
-831.44495 -1046.1405 5620.4956 2047767
-799.81848 -1048.4857 5633.0952 2310690
-744.23572 -1018.259 5470.6987 1125648
-684.995 -980.03601 5265.3423 266500
-614.17554 -920.79303 4947.0532 2572580
-620.0567 -976.36633 5245.6265 729353
-551.42981 -914.28931 4912.1113 1125138
-522.10504 -914.0777 4910.9746 1585691
-482.37723 -894.54889 4806.0537 1980957
-460.74509 -908.23157 4879.5654 2310687
-431.73474 -908.23157 4879.5654 4612918
-408.88675 -922.12909 4954.2314 2506008
-369.12402 -897.07666 4819.6348 1454856
-340.46994 -897.07666 4819.6348 2046481
-309.84711 -891.41266 4789.2041 2638875
-285.9353 -905.86328 4866.8418 1519882
-257.08716 -906.16846 4868.4814 2638878
-222.79721 -884.93665 4754.4111 730119
-197.67915 -899.25818 4831.355 2816
-166.17424 -884.45557 4751.8267 1519123
-141.59019 -907.97003 4878.1606 1255183
-114.08617 -920.05066 4943.0649 2374686
-83.952454 -911.9491 4899.5386 2769439
-53.898651 -896.56769 4816.8999 2374939
-25.260843 -896.56769 4816.8999 330497
3.2594688 -865.37213 4649.2988 5072956
31.06835 -870.06305 4674.5015 1520136
59.052582 -872.91626 4689.8306 2440981
89.061462 -894.2688 4804.5493 2901788
117.62585 -894.2688 4804.5493 3757868
141.55534 -865.9165 4652.2236 1388810
167.99803 -859.69354 4618.79 993032
201.08575 -884.44629 4751.7769 4153126
229.02243 -883.23547 4745.2715 4285222
255.84991 -878.48175 4719.7319 4877108
283.91006 -878.48175 4719.7319 1320972
311.97015 -878.48175 4719.7319 2816
354.80179 -916.64447 4924.7651 1254423
384.0809 -916.64447 4924.7651 200710
405.20764 -898.56628 4827.6382 68098
431.30225 -893.1676 4798.6328 134918
457.86697 -889.35175 4778.1318 727310
466.22644 -852.68604 4581.1416 662028
493.46262 -852.68604 4581.1416 1536
531.94525 -871.10309 4680.0894 859917
561.86737 -874.36755 4697.6274 859663
587.59418 -871.10309 4680.0894 332041
618.79382 -875.88062 4705.7568 1254166
635.88928 -861.14441 4626.585 3584
686.93561 -891.70135 4790.7554 659982
702.30353 -875.35541 4702.9351 3363608
730.26379 -875.35541 4702.9351 4416296
753.45374 -869.84821 4673.3472 2903064
786.01068 -875.16205 4701.8965 2179597
807.50696 -868.21875 4664.5928 1718796
835.23926 -868.21875 4664.5928 1189898
865.05286 -870.31274 4675.8428 1059851
906.41528 -883.53357 4746.873 1455372
934.27905 -883.19531 4745.0562 3034662
933.07001 -856.1994 4600.0176 3099946
960.4184 -856.1994 4600.0176 137220
999.87244 -866.69263 4656.3936 1321758
1002.3518 -845.4342 4542.1802 1254431
1021.5634 -839.03363 4507.7925 1057561
1033.1881 -826.88837 4442.541 1388311
1059.6002 -826.88837 4442.541 1980954
1081.1598 -823.19366 4422.6909 334592
1093.0062 -812.45435 4364.9927 1980696
1120.0995 -813.28363 4369.4482 203777
1152.8389 -818.08203 4395.228 1388307
1137.0953 -789.02557 4239.1191 135936
1162.2981 -789.02557 4239.1191 1519635
1182.5409 -785.72992 4221.4131 266754
1194.4633 -777.15778 4175.3584 3230765
1261.0087 -803.75061 4318.2314 1257236
1320.0959 -824.62347 4430.3726 265987
1449.3394 -887.64667 4768.9712 2833710
1494.4589 -897.71838 4823.0825 200708
1514.5344 -892.65027 4795.8535 134149
1491.9144 -863.07013 4636.9312 2818
1509.5664 -857.43787 4606.6714 3586
1527.6606 -852.25305 4578.8154 2176287
1418.7487 -777.63593 4177.9272 1058825
1437.1088 -774.14587 4159.1768 5731904
1439.0496 -762.07874 4094.3447 1191174
1463.3915 -762.07874 4094.3447 664064
1487.7335 -762.07874 4094.3447 2243091
1502.9128 -757.46075 4069.5342 1322247
1509.059 -748.50861 4021.4377 1979405
1543.4291 -753.6167 4048.8816 2571542
1556.8761 -748.50861 4021.4377 68608
1591.5725 -753.6167 4048.8816 2177044
1582.7356 -738.26648 3966.4111 3032096
1590.5236 -731.00775 3927.4126 2572061
1656.1473 -750.15594 4030.2883 135680
1644.4739 -734.24536 3944.8071 5402682
1677.9716 -738.66718 3968.5637 2048266
1702.4929 -739.06958 3970.7258 2837272
1747.5002 -748.23267 4019.9556 2507286
1749.7069 -739.06958 3970.7258 664833
1765.5188 -735.82074 3953.2712 1125129
1794.1802 -737.94226 3964.6692 2505760
1861.5433 -755.72028 4060.1833 2560
1849.0834 -741.05261 3981.3799 2560
1852.7456 -733.13538 3938.8438 858894
1876.1632 -733.13538 3938.8438 2048
1899.5807 -733.13538 3938.8438 596232
1932.4688 -736.74597 3958.2419 2372898
1909.658 -719.29022 3864.4592 1792
2004.4182 -746.00732 4007.9993 3840
1983.045 -729.38159 3918.6763 792332
2049.9341 -745.22882 4003.8169 1188626
2059.1409 -739.98303 3975.6335 2816
2076.5 -737.75287 3963.6516 1536
2106.4133 -739.98303 3975.6335 1280
2102.9099 -730.55475 3924.979 333318
2126.2451 -730.55475 3924.979 792587
2142.4321 -728.12537 3911.927 464903
2131.1179 -716.50208 3849.4795 1715990
2154.0042 -716.50208 3849.4795 1386515
2163.2939 -712.02698 3825.4365 793610
2164.6821 -705.07129 3788.0664 1792
2166.6641 -698.45026 3752.4944 2307
2210.0818 -705.18536 3788.6792 1581339
2189.8171 -691.66998 3716.0667 265737
2186.719 -683.7926 3673.7446 134152
2186.8677 -677.07635 3637.6609 66306
2182.7141 -669.17255 3595.197 1282
2201.1821 -668.2901 3590.4561 512
2222.5283 -668.2901 3590.4561 67331
2259.4067 -672.91608 3615.3096 1024
2280.9009 -672.91608 3615.3096 68357
2326.9529 -680.09363 3653.8716 768
2348.6763 -680.09363 3653.8716 768
2355.3352 -675.77148 3630.6504 768
2385.2505 -678.13983 3643.3745 512
2406.9114 -678.13983 3643.3745 768
2400.2871 -670.24164 3600.9407 1024
2412.4807 -667.69128 3587.2385 1280
2443.1045 -670.24164 3600.9407 1536
2469.5286 -671.60565 3608.269 3822138
2526.4614 -681.17181 3659.6641 3886388
2617.6924 -699.74298 3759.4395 398341
2640.0435 -699.74298 3759.4395 2304
2634.4917 -692.40942 3720.0393 1792
2636.6116 -687.19751 3692.0381 1280
2644.2256 -683.49182 3672.1287 1452050
2651.3503 -679.72144 3651.8718 1781524
2642.9851 -672.07343 3610.782 663813
2668.5125 -673.0976 3616.2844 3840
2685.9194 -672.07343 3610.782 134912
2721.9448 -675.68732 3630.198 530693
2755.2239 -678.56799 3645.6748 466438
2821.9114 -689.56738 3704.7703 269570
2728.7688 -661.64264 3554.7417 5072708
2810.4089 -676.20074 3632.9568 3691310
2832.0081 -676.20074 3632.9568 3559468
2923.1313 -692.67554 3721.469 4282934
3014.3992 -708.93671 3808.834 395523
3195.6658 -745.96381 4007.7659 1319694
3206.7761 -743.01733 3991.9355 4016697
3230.5093 -743.01733 3991.9355 2766630
3211.5342 -733.26611 3939.5459 2634790
3159.8831 -716.24939 3848.1218 3029294
3151.4338 -709.1994 3810.2451 67331
3173.4531 -709.0578 3809.4846 67332
3192.3176 -708.21832 3804.9744 513
3152.3906 -694.43951 3730.946 1028
3171.3354 -693.73157 3727.1426 768
3193.4946 -693.73157 3727.1426 768
3194.5266 -689.17377 3702.6553 1024
3216.54 -689.17377 3702.6553 1024
3169.3169 -674.44 3623.4968 1024
3190.7466 -674.41614 3623.3687 1024
3196.24 -671.04675 3605.2664 1024
3177.1206 -662.58929 3559.8276 2305
3122.2104 -646.82892 3475.1536 1516057
3137.1167 -645.64471 3468.791 1024
3152.3716 -644.54706 3462.894 727054
3172.9595 -644.54706 3462.894 201220
3161.3408 -638.04688 3427.9709 3584
3209.3486 -643.58722 3457.7371 1280
3310.322 -659.61078 3543.8254 2437668
3331.3911 -659.61078 3543.8254 858123
3222.9465 -634.12848 3406.9189 68097
3234.9685 -632.51874 3398.2705 134660
3255.1721 -632.51874 3398.2705 1121813
3268.0415 -631.10236 3390.6609 1024
3214.2063 -616.90082 3314.3616 3076
0 0 0 0
0 0 0 0
0 0 0 0
0 0 0 0
0 0 0 0
-6492.4961 -1304.1238 7237.7207 1451546
-6564.4175 -1327.3678 7366.7222 990995
-6520.6201 -1327.3678 7366.7222 201732
-6444.9321 -1320.832 7330.4492 1792
-6410.9863 -1322.8202 7341.4834 3841
-6502.791 -1350.9604 7497.6582 200451
-6400.1685 -1338.818 7430.269 727566
-6420.0981 -1352.3209 7505.2085 2817
-6360.208 -1349.0822 7487.2339 2048
-6281.7598 -1341.8333 7447.0034 134659
-6271.1816 -1349.0822 7487.2339 990735
-6240.4824 -1352.0753 7503.8457 464905
-6248.127 -1363.4789 7567.1343 134659
-6163.7764 -1354.8271 7519.1177 1280
-6119.0732 -1354.8271 7519.1177 1024
-5932.5391 -1323.193 7343.5527 768
-5912.5557 -1328.5128 7373.0771 792591
-5868.7202 -1328.5128 7373.0771 1792
-5887.0376 -1342.6882 7451.7485 2048
-5842.7349 -1342.6882 7451.7485 2563
-5769.3931 -1335.9639 7414.4292 68357
-5723.5781 -1335.5593 7412.1841 2307
-5677 -1334.9689 7408.9072 1280
-5585.2388 -1323.6613 7346.1514 1024
-5499.5386 -1313.623 7290.4404 2306
-5499.4341 -1324.0333 7348.2158 2307
-5494.3999 -1333.4138 7400.2769 3078
-5474.792 -1339.3805 7433.3906 768
-5179.4517 -1277.4386 7089.6216 1024
-5123.6455 -1274.0427 7070.7749 397834
-5081.6079 -1274.0427 7070.7749 69380
-5068.0981 -1281.255 7110.8018 1780512
-5082.583 -1295.7251 7191.1094 2561
-4972.0669 -1278.3036 7094.4219 1792
-4515.9077 -1170.9596 6498.6768 1280
-4477.2715 -1170.9596 6498.6768 1517079
-4573.7031 -1206.592 6696.4326 1320979
-4552.6191 -1211.5762 6724.0933 333060
-4527.9448 -1215.6846 6746.8945 3328
-4526.5098 -1226.1616 6805.041 991757
-4606.0786 -1258.9681 6987.1128 925963
-4480.3022 -1235.7347 6858.1704 2816
-4338.3979 -1207.5852 6701.9438 1254928
-4096.1611 -1150.7275 6386.3911 1781015
-4215.7368 -1195.4003 6634.3193 464646
-4223.2788 -1208.8491 6708.9585 69377
-4158.3423 -1201.6105 6668.7852 663050
-3972.5149 -1158.9633 6432.0986 794382
-3772.314 -1111.2529 6167.312 1584410
-3802.5347 -1131.1499 6277.7378 1189653
-3717.835 -1116.917 6198.7466 1189140
-3825.8879 -1160.8857 6442.7681 267780
-3644.1282 -1116.917 6198.7466 331525
-3753.1338 -1162.0791 6449.3906 661771
-3714.7905 -1162.0791 6449.3906 2637094
-3655.9136 -1155.5886 6413.3696 201730
-3706.0728 -1183.7897 6569.8818 1123087
-3542.2229 -1143.5048 6346.3057 3954487
-3404.4236 -1110.8525 6165.0903 2705189
-3474.1914 -1145.9554 6359.9067 5120
-3424.9854 -1142.1555 6338.8174 6144
-3383.7151 -1140.9469 6332.1104 1784592
-3346.0688 -1140.9469 6332.1104 2969377
-3195.1116 -1101.8702 6115.2397 2707226
-3158.7546 -1101.8702 6115.2397 3956786
-3095.8857 -1092.5144 6063.3154 6144
-3134.9583 -1119.3362 6212.1733 861960
-3033.0271 -1095.8521 6081.8389 1980443
-3067.8618 -1121.8116 6225.9121 4096
-3030.8472 -1121.8116 6225.9121 924687
-2993.8325 -1121.8116 6225.9121 993295
-3006.8259 -1140.7848 6331.21 6785617
-2969.1851 -1140.7848 6331.21 5338939
-2759.7739 -1073.9418 5960.2402 2247188
-2739.231 -1079.8124 5992.8213 3562539
-2680.8875 -1070.7402 5942.4722 272640
-2662.0566 -1077.418 5979.5322 2246680
-2617.5657 -1073.7502 5959.1772 4219446
-2584.7834 -1074.8508 5965.2852 1126152
-2550.3733 -1075.2958 5967.7544 467715
-2513.8528 -1074.8508 5965.2852 2836769
-2528.707 -1096.674 6086.4004 729604
-2504.2747 -1101.845 6115.0991 1980440
-2453.6685 -1095.4828 6079.79 1519123
-2431.9575 -1102.0239 6116.0923 332804
-2312.2212 -1063.67 5903.2329 1536
-2301.1599 -1074.897 5965.541 1189907
-2189.0991 -1038.5591 5763.8701 2177311
-2154.7703 -1038.5295 5763.707 4020283
-2146.113 -1051.072 5833.3159 2111260
-2120.0864 -1055.38 5857.2246 2304
-2085.2634 -1055.38 5857.2246 1280
-2022.277 -1040.8839 5776.7729 333058
-2021.9817 -1058.7122 5875.7173 2373408
-1995.4783 -1063.2034 5900.6431 1123599
-2016.0881 -1093.4067 6068.2681 201986
-1980.0106 -1093.4067 6068.2681 332806
-1918.6377 -1079.1788 5989.3052 134913
-1856.4543 -1063.9484 5904.7778 1454357
-1821.3489 -1063.9484 5904.7778 1389583
-1777.4905 -1058.7349 5875.8438 2640667
-1729.0029 -1050.4998 5830.1396 6063427
-1694.3409 -1050.4998 5830.1396 5077300
-1655.8735 -1048.0909 5816.771 3760166
-1621.074 -1047.9504 5815.9912 1455117
-1574.5168 -1040.0376 5772.0757 399875
-1534.1078 -1035.9235 5749.2437 4096
-1481.6479 -1023.2992 5679.1802 1650962
-1465.1898 -1035.5305 5747.062 3296552
-1428.3357 -1033.5867 5736.2739 595976
-1372.9095 -1017.7796 5648.5474 69120
-1325.9819 -1007.6381 5592.2632 6127418
-1292.7344 -1007.6381 5592.2632 4549147
-1235.3966 -988.36511 5485.3003 3562774
-1227.8868 -1008.9919 5599.7769 5009966
-1195.4169 -1009.6866 5603.6318 1062148
-1146.9965 -996.56244 5530.7944 2641947
-1109.6188 -992.5412 5508.4771 3562531
-1052.5967 -970.16931 5384.3159 3825699
-1026.8831 -976.15582 5417.5405 4549421
-1031.3669 -1012.1653 5617.3887 1851405
-1013.1953 -1027.6072 5703.0889 1062146
-972.29724 -1020.2706 5662.3721 1983759
-910.67694 -989.88318 5493.7256 3496743
-886.92255 -999.92548 5549.459 4154929
-853.9295 -999.92548 5549.459 3562283
-820.9364 -999.92548 5549.459 2310942
-780.71063 -990.74701 5498.5195 467205
-744.23572 -985.73413 5470.6987 1191185
-684.995 -948.73212 5265.3423 663305
-633.29559 -919.13123 5101.061 3954487
-602.96838 -919.13123 5101.061 3954240
-529.48846 -849.86798 4716.6587 137220
-526.86029 -892.93994 4955.7026 4152129
-492.90799 -884.88062 4910.9746 1652251
-460.74509 -879.22119 4879.5654 1718041
-430.96558 -877.65472 4870.8721 1718040
-405.92285 -886.2041 4918.3198 2376224
-373.93939 -879.75153 4882.5088 2442526
-343.80475 -876.92853 4866.8418 2968867
-309.52527 -862.04315 4784.2295 5469253
-285.9353 -876.92853 4866.8418 3099173
-253.32622 -864.39105 4797.2603 2639134
-224.80519 -864.39105 4797.2603 730887
-197.67915 -870.53442 4831.355 2375709
-166.17424 -856.20459 4751.8267 1585939
-139.5782 -866.47797 4808.8423 2046742
-114.08617 -890.66278 4943.0649 3954477
-84.018234 -883.51172 4903.3774 993795
-53.898651 -867.92981 4816.8999 2968088
-25.637484 -880.87073 4888.7202 6192962
3.2961173 -847.14996 4701.5742 4219684
30.900845 -837.73077 4649.2988 6061891
58.385784 -835.49219 4636.875 2047245
88.863747 -863.78259 4793.8833 1981200
117.36472 -863.78259 4793.8833 3035165
142.61398 -844.52679 4687.0161 3298842
168.47523 -834.59753 4631.9097 1851657
200.81046 -855.02344 4745.2715 4285740
224.87778 -839.55005 4659.3955 3561256
252.57918 -839.55005 4659.3955 1517841
287.63449 -861.57782 4781.6475 332803
316.06271 -861.57782 4781.6475 134658
350.51413 -876.64191 4865.251 1188370
381.76633 -882.01801 4895.0874 67585
405.20764 -869.86475 4827.6382 925713
431.30225 -864.63837 4798.6328 1280
451.73135 -849.40741 4714.103 1280
466.28497 -825.55353 4581.7168 1280
493.52457 -825.55353 4581.7168 3072
520.76416 -825.55353 4581.7168 3097903
575.58002 -867.09656 4812.2754 991760
600.10938 -861.23981 4779.771 528649
631.0976 -864.76282 4799.3237 1780511
635.88928 -833.638 4626.585 68865
686.93561 -863.21899 4790.7554 3584
690.90192 -833.638 4626.585 1912854
730.26379 -847.39508 4702.9351 2243861
754.17358 -842.86835 4677.812 267008
769.77838 -829.71191 4604.7954 4352
797.15515 -829.71191 4604.7954 993034
