# .PCD v0.7 - Point Cloud Data file format
VERSION 0.7
FIELDS x y z rgb
SIZE 4 4 4 4
TYPE F F F U
COUNT 1 1 1 1
WIDTH 1295
HEIGHT 1
VIEWPOINT 0 0 0 1 0 0 0
POINTS 1295
DATA ascii
2132.0483 -108.67539 3444.2874 1536
2123.2073 -107.19519 3397.3748 1536
2143.4058 -107.19519 3397.3748 68353
2128.7747 -105.46957 3342.6843 529926
2148.6477 -105.46957 3342.6843 1280
2163.355 -105.21831 3334.7209 2048
2164.4954 -104.31777 3306.1797 2304
2181.9702 -104.21358 3302.8779 2304
2183.8281 -103.37204 3276.2063 2244127
2206.1094 -103.50356 3280.3745 2639904
2224.6787 -103.46014 3278.9988 4746557
2244.1733 -103.46014 3278.9988 3298087
2263.668 -103.46014 3278.9988 2375707
2298.8438 -104.17074 3301.5198 2373916
2329.6829 -104.67444 3317.4839 793607
2366.844 -105.45137 3342.1072 1024
2377.4541 -105.04224 3329.1409 512
2399.8208 -105.15502 3332.7151 256
2458.5022 -106.84418 3386.25 256
2478.6345 -106.84418 3386.25 512
2484.1638 -106.21977 3366.4607 256
2504.1785 -106.21977 3366.4607 1281
2532.8242 -106.58299 3377.9722 1280
2556.8411 -106.74722 3383.1772 134145
2551.0659 -105.67479 3349.1885 1385485
2536.2161 -104.24599 3303.9048 3951922
2552.4136 -104.10547 3299.4514 67840
2554.6772 -103.40311 3277.1912 2816
2574.1609 -103.40311 3277.1912 726792
2617.9001 -104.37012 3307.8391 265731
2606.4878 -103.14033 3268.8628 134658
2620.1946 -102.91537 3261.7329 397830
2662.1414 -103.79476 3289.6038 1280
2718.1433 -105.20534 3334.3098 1792
2693.7214 -103.50523 3280.4277 256
2709.1885 -103.35126 3275.5479 256
2710.5864 -102.66661 3253.8489 257
2732.4502 -102.76134 3256.8511 258
2741.175 -102.36407 3244.2605 258
2744.2078 -101.76129 3225.1565 258
2752.0486 -101.34393 3211.9287 258
2758.7791 -100.89172 3197.5967 258
2743.6689 -99.65242 3158.3193 256
2677.9705 -96.605057 3061.738 256
2696.1736 -96.605057 3061.738 256
2728.53 -97.108795 3077.7031 512
2788.8013 -98.592674 3124.7324 512
2789.4487 -97.962997 3104.7756 512
2736.7739 -95.481262 3026.1213 512
2790.1895 -96.709091 3065.0352 512
2828.7271 -97.408661 3087.2068 512
2827.0242 -96.722435 3065.458 768
2837.4746 -96.458138 3057.0815 1538
2855.6497 -96.458138 3057.0815 67844
2892.092 -97.071251 3076.5134 2052
2913.8186 -97.18586 3080.1455 1538
2927.5227 -97.033112 3075.3047 1794
2932.9768 -96.610527 3061.9114 331273
2998.8594 -98.171341 3111.3787 1793
3038.3069 -98.852943 3132.981 396298
0 0 0 0
0 0 0 0
0 0 0 0
0 0 0 0
0 0 0 0
0 0 0 0
-6385.7061 -183.50465 7166.1685 2819
-6556.0815 -189.66612 7406.7847 1792
-6561.186 -191.09735 7462.6763 1280
-6528.7778 -191.44803 7476.3711 1280
-6528.6514 -192.75665 7527.4751 1280
-6485.7891 -192.81287 7529.6699 1024
-6441.0229 -192.81287 7529.6699 1280
-6356.1987 -191.60533 7482.5142 1280
-6294.0352 -191.06866 7461.5562 1280
-6244.8711 -190.92184 7455.8223 1792
-6259.7651 -192.74532 7527.0322 332296
-6215.0146 -192.74532 7527.0322 1024
-6235.251 -194.77536 7606.3086 134919
-6107.9351 -192.19217 7505.4307 1280
-5978.7471 -189.51163 7400.751 1280
-5931.8398 -189.41878 7397.125 1280
-5887.0879 -189.39388 7396.1528 1280
-5744.5898 -186.20035 7271.4399 1280
-5669.3955 -185.15643 7230.6738 1024
-5583.647 -183.74928 7175.7217 1024
-5540.9858 -183.74928 7175.7217 1024
-5498.3237 -183.74928 7175.7217 768
-5437.4556 -183.13608 7151.7749 1024
-5394.936 -183.13608 7151.7749 68097
-5360.8369 -183.42416 7163.0254 1517076
-5298.6719 -182.7489 7136.6553 2044699
-5275.6646 -183.42416 7163.0254 267522
-5249.8857 -184.01329 7186.0317 135937
-5207.1631 -184.01329 7186.0317 1649687
-5056.0293 -180.15053 7035.1841 267268
-5126.6836 -184.19171 7192.9995 1792
-5110.7104 -185.16238 7230.9058 1792
-4976.5205 -181.83014 7100.7759 2818
-4926.0532 -181.52608 7088.9019 2048
-4798.9575 -178.36864 6965.5986 1280
-4788.8467 -179.54219 7011.4277 1280
-4754.7119 -179.82773 7022.5786 1024
-4801.7305 -183.21483 7154.8506 1024
-4759.1929 -183.21483 7154.8506 1024
-4732.2998 -183.82254 7178.5825 67073
-4626.2153 -181.33717 7081.5249 2110240
-4661.3135 -184.39102 7200.7827 1715993
-4516.6714 -180.32545 7042.0156 1453847
-4434.9136 -178.71794 6979.2393 4866
-4393.4204 -178.71794 6979.2393 3584
-4361.2554 -179.10104 6994.2002 201480
-4319.6733 -179.10104 6994.2002 1536
-4268.8643 -178.71478 6979.1162 1792
-4145.2358 -175.24245 6843.5151 1792
-3838.4407 -163.88104 6399.833 861192
-3789.3572 -163.4052 6381.2505 663811
-3624.9814 -157.8978 6166.1772 467200
-3675.2979 -161.72502 6315.6367 3072
-3722.3955 -165.48817 6462.5942 2836505
-3753.8247 -168.62595 6585.1299 1915404
-3644.8308 -165.45544 6461.3164 1059840
-3529.8127 -161.94101 6324.0718 796160
-3477.9612 -161.28004 6298.2603 137216
-3440.5161 -161.28004 6298.2603 531204
-3320.8894 -157.38525 6146.1616 136704
-3284.3489 -157.38525 6146.1616 728837
-3247.8081 -157.38525 6146.1616 136448
-3257.9717 -159.67424 6235.5503 5376
-3225.7761 -159.91599 6244.9907 1321231
-3188.6479 -159.91599 6244.9907 1454091
-3168.9861 -160.80226 6279.6021 1586953
-3010.6328 -154.58824 6036.9336 4219943
-2849.1729 -148.06282 5782.105 3759395
-2789.0562 -146.70883 5729.2295 665091
-2838.1636 -151.13777 5902.1865 466437
-2803.0735 -151.13777 5902.1865 2048
-2785.6924 -152.10471 5939.9473 1536
-2721.9968 -150.53516 5878.6538 1280
-2687.0466 -150.53516 5878.6538 1280
-2719.8525 -154.38104 6028.8423 1792
-2684.0093 -154.38104 6028.8423 134146
-2606.906 -151.97568 5934.9087 2242594
-2582.8796 -152.64102 5960.8911 267523
-2567.5562 -153.84634 6007.9614 3584
-2531.8372 -153.84634 6007.9614 2304
-2459.4119 -151.58398 5919.6123 135684
-2419.4177 -151.28381 5907.8901 1280
-2356.4312 -149.51593 5838.8516 1189392
-2321.2234 -149.4841 5837.6084 5376
-2238.1475 -146.32187 5714.1177 1783821
-2270.6709 -150.7361 5886.501 1848337
-2164.9058 -145.96471 5700.1694 5865274
-2131.0166 -145.96471 5700.1694 2971149
-2151.4165 -149.74332 5847.731 3168785
-2070.0837 -146.44894 5719.0806 4944427
-2047.9413 -147.30194 5752.3911 1259008
-2007.4886 -146.84456 5734.5293 4549668
-1944.8779 -144.72252 5651.6602 3562267
-1878.7472 -142.25932 5555.4683 1719047
-1858.4215 -143.23843 5593.7041 1455369
-1841.8367 -144.54677 5644.7974 1454602
-1808.2769 -144.54677 5644.7974 664579
-1779.4473 -144.93205 5659.8433 1915666
-1752.5688 -145.49416 5681.7944 796419
-1718.7891 -145.49416 5681.7944 2179354
-1693.4958 -146.22696 5710.4111 1718548
-1604.5612 -141.3821 5521.2114 5376
-1557.0248 -140.05879 5469.5342 1124113
-1524.507 -140.05879 5469.5342 4608
-1491.989 -140.05879 5469.5342 67329
-1452.222 -139.36313 5442.3672 6719032
-1406.179 -138.01976 5389.9058 7379006
-1314.6844 -132.04852 5156.7192 6985273
-1284.0262 -132.04852 5156.7192 2839051
-1267.8077 -133.56981 5216.1279 3892251
-1236.7964 -133.56981 5216.1279 2049801
-1142.5988 -126.5704 4942.7891 666114
-1126.5496 -128.08681 5002.0073 6721606
-1122.7148 -131.11183 5120.1401 2905617
-1067.073 -128.08681 5002.0073 1652997
-1024.6836 -126.52468 4941.0039 1522949
-987.18329 -125.49187 4900.6709 1193221
-976.31494 -127.88468 4994.1143 1719562
-921.09631 -124.43607 4859.4399 995842
-917.25305 -127.92943 4995.8618 731905
-865.07684 -124.69002 4869.3574 1849350
-862.81189 -128.66946 5024.7612 3759908
-793.15472 -122.52385 4784.7646 3234075
-755.22931 -121.00514 4725.4565 3037213
-730.40881 -121.54991 4746.731 2906135
-711.27124 -123.12222 4808.1318 2643481
-701.79712 -126.56898 4942.7339 3499048
-672.41119 -126.56898 4942.7339 4156721
-646.82092 -127.3161 4971.9102 1721864
-615.07349 -126.86478 4954.2856 4550446
-586.23285 -126.9978 4959.48 2510863
-559.85535 -127.70675 4987.1655 2181895
-534.34338 -128.70349 5026.0898 3037205
-503.67029 -128.50151 5018.2026 1720588
-473.83572 -128.50151 5018.2026 3103267
-444.0011 -128.50151 5018.2026 1521677
-411.94495 -127.81226 4991.2856 2313753
-382.27036 -127.81226 4991.2856 4749112
-357.84137 -129.71373 5065.5415 1788941
-327.72531 -129.71373 5065.5415 4419888
-293.41452 -127.88544 4994.144 5603136
-255.39774 -123.84834 4836.4883 996868
-217.38223 -118.78759 4638.8574 600067
-195.00812 -122.04524 4766.0742 601090
-160.04025 -117.18881 4576.4224 2180634
-136.17938 -120.14185 4691.7432 3694385
-106.00481 -117.61128 4592.9204 3431212
-77.679924 -116.08887 4533.4678 1523220
-49.396938 -113.04459 4414.5835 930314
-22.99872 -112.30098 4385.5439 601094
3.0278993 -110.59668 4318.9883 1850392
28.705488 -110.59668 4318.9883 3840
55.465172 -112.7973 4404.9263 267778
81.406441 -112.45575 4391.5884 2310426
106.43299 -111.32334 4347.3657 928520
128.97023 -108.53851 4238.6133 271105
158.1256 -111.32334 4347.3657 3561259
181.19565 -109.6434 4281.7612 3692587
206.02122 -109.30878 4268.6938 1718285
232.65346 -109.901 4291.8208 2639390
267.4704 -113.8603 4446.4385 3298083
293.0726 -113.53755 4433.8345 3232797
310.89767 -110.50382 4315.3618 5339714
337.84683 -110.9284 4331.9424 3628331
367.30276 -112.0576 4376.04 2639392
394.75153 -112.46559 4391.9722 464646
416.08392 -111.18848 4342.0991 1280
448.41095 -112.82702 4406.0869 768
476.37393 -113.24722 4422.4961 768
504.4664 -113.65263 4438.3281 1024
531.8537 -113.86676 4446.6904 794124
556.01489 -113.40263 4428.5654 3328
561.41626 -109.32729 4269.4165 532488
586.79913 -109.32729 4269.4165 533253
608.68457 -108.70269 4245.0249 72960
616.85425 -105.77591 4130.729 3231019
634.98413 -104.71579 4089.3293 860938
662.24811 -105.18461 4107.6377 3328
686.66913 -105.18461 4107.6377 595463
705.53668 -104.36314 4075.5579 6586452
741.24817 -106.00504 4139.6772 1187338
753.99731 -104.36314 4075.5579 1792
758.37341 -101.70061 3971.5818 1792
770.57544 -100.21667 3913.6313 398851
824.64197 -104.1048 4065.4692 531973
842.513 -103.33221 4035.2983 1190159
870.44177 -103.8018 4053.6367 729609
911.67908 -105.79039 4131.2944 1058063
936.68396 -105.84048 4133.2505 69377
961.25732 -105.84048 4133.2505 1536
961.89166 -103.27035 4032.8826 1280
964.20062 -101.00064 3944.2468 1280
1000.7809 -102.34343 3996.6848 1280
1021.8594 -102.07542 3986.219 1536
1045.5586 -102.07542 3986.219 68096
1069.2577 -102.07542 3986.219 2176800
1116.5542 -104.27927 4072.2825 2048
1163.052 -106.31656 4151.8423 333571
1193.5925 -106.84081 4172.3149 2573087
1218.3982 -106.84081 4172.3149 2244120
1236.5137 -106.26586 4149.8623 731141
1204.386 -101.47999 3962.9661 136192
1231.2383 -101.75198 3973.5881 2902054
1254.8624 -101.75198 3973.5881 3840
1305.6959 -103.91753 4058.1562 1387278
1305.8605 -102.04502 3985.0317 2441755
1320.4532 -101.34663 3957.7583 666116
1338.4521 -100.92955 3941.4705 533762
1354.3949 -100.37444 3919.7922 3692844
1384.4603 -100.86703 3939.0291 666113
1407.879 -100.86703 3939.0291 796933
1431.2976 -100.86703 3939.0291 1783826
1429.5936 -99.125076 3871.0029 1981718
1446.4847 -98.707253 3854.6858 1456145
1455.1313 -97.748619 3817.2498 2639901
1477.2312 -97.709282 3815.7136 4021042
1492.0002 -97.193581 3795.5747 3756846
1506.0599 -96.647728 3774.2581 2560
1528.499 -96.647728 3774.2581 1188881
1547.1249 -96.41011 3764.9788 397061
1569.5087 -96.41011 3764.9788 69888
1591.8927 -96.41011 3764.9788 597509
1598.3607 -95.459579 3727.8586 201986
1608.9 -94.774857 3701.1191 3584
1612.5646 -93.709099 3659.4995 1792
1634.3213 -93.709099 3659.4995 1792
1693.5194 -95.827721 3742.2354 199427
1690.4938 -94.416122 3687.1101 1024
1663.5847 -91.723824 3581.9712 1280
1684.8807 -91.723824 3581.9712 768
1687.1143 -90.699043 3541.9517 330756
1708.1721 -90.699043 3541.9517 2048
1706.9502 -89.530449 3496.3162 768
1722.2236 -89.244766 3485.1597 1122574
1738.9882 -89.042213 3477.2498 860165
1768.3948 -89.484146 3494.5078 268544
1801.1433 -90.082947 3517.8923 2046482
1831.7626 -90.562744 3536.6289 3560230
1852.7888 -90.562744 3536.6289 531204
1881.85 -90.951073 3551.7939 794629
1896.4054 -90.637489 3539.5481 991244
1917.4489 -90.637489 3539.5481 3072
1953.3553 -91.332428 3566.6865 2816
1980.3405 -91.599792 3577.1274 266499
2001.9502 -91.615471 3577.74 462342
2023.2209 -91.615471 3577.74 2304
2030.8182 -91.002762 3553.8125 1536
1988.5146 -88.189583 3443.9531 2560
1994.1914 -87.53997 3418.5847 3328
2005.1655 -87.133659 3402.7173 1451280
2049.4094 -88.16674 3443.061 1913109
2038.8215 -86.843834 3391.3992 794376
2119.4238 -89.393044 3490.9502 925959
2152.9924 -89.928261 3511.8516 859401
2132.0483 -88.198143 3444.2874 1536
2101.2517 -86.097229 3362.2432 1024
2128.4092 -86.388168 3373.6047 1280
2138.5161 -85.988083 3357.9807 1280
2164.7302 -86.237068 3367.7041 464903
2178.4443 -85.988083 3357.9807 2241569
2164.4954 -84.661613 3306.1797 465413
2181.9702 -84.577057 3302.8779 135681
2177.061 -83.634117 3266.0544 3072
2206.1094 -84.000816 3280.3745 398338
2225.6121 -84.000816 3280.3745 2371871
2250.9878 -84.220558 3288.9558 68864
2289.9067 -84.938858 3317.0066 2048
2365.2942 -86.986069 3396.9539 266240
2385.4902 -86.986069 3396.9539 199937
2366.844 -85.581612 3342.1072 1120527
2369.1294 -84.95108 3317.4839 512
2406.5837 -85.581612 3342.1072 512
2458.5022 -86.711975 3386.25 512
2484.0303 -86.900742 3393.6216 512
2485.4187 -86.248772 3368.1611 132867
2512.7412 -86.5 3377.9722 1536
2532.8242 -86.5 3377.9722 68864
2531.1541 -85.762939 3349.1885 1320459
2528.9907 -85.020805 3320.207 597506
2531.7913 -84.45575 3298.1406 3624485
2551.3994 -84.45575 3298.1406 3426850
2554.6772 -83.919296 3277.1912 465921
2574.1609 -83.919296 3277.1912 2109973
2581.0662 -83.512306 3261.2974 135169
2600.4553 -83.512306 3261.2974 529926
2625.9221 -83.706032 3268.8628 1187343
2677.2319 -84.714653 3308.2512 2048
2722.876 -85.530594 3340.1152 768
2737.9668 -85.381935 3334.3098 768
2713.2246 -84.002182 3280.4277 512
2723.3733 -83.71463 3269.1987 256
2735.9094 -83.504021 3260.9741 257
2751.8132 -83.398445 3256.8511 258
2752.3245 -82.831108 3234.6956 258
2756.6665 -82.386139 3217.3186 258
2758.7791 -81.881111 3197.5967 258
2767.5544 -81.579414 3185.8147 256
2707.8188 -79.276031 3095.8638 256
2710.2324 -78.810989 3077.7031 256
2763.6604 -79.825699 3117.3291 512
2792.8596 -80.131714 3129.2798 512
2807.3787 -80.015274 3124.7324 512
2731.9783 -77.35434 3020.8186 512
2749.9377 -77.35434 3020.8186 512
2828.7271 -79.054352 3087.2068 512
2849.519 -79.122032 3089.8499 768
2867.8889 -79.122032 3089.8499 1282
2903.7788 -79.60231 3108.6057 462602
2912.3906 -79.333458 3098.1064 133894
2940.6064 -79.59864 3108.4624 265991
2928.6733 -78.780525 3076.5134 265480
2878.0332 -76.937813 3004.5522 857873
2954.9802 -78.507553 3065.8533 132612
3054.8892 -80.664352 3150.0801 256
0 0 0 0
0 0 0 0
0 0 0 0
0 0 0 0
0 0 0 0
0 0 0 0
-6405.5112 -141.33679 7188.3945 1024
-6467.8423 -143.67067 7307.0957 1024
-6512.0464 -145.63074 7406.7847 1024
-6569.0146 -147.90488 7522.4482 768
-6663.6099 -151.06322 7683.0811 1024
-6565.3286 -149.86247 7622.0117 1024
-6520.0137 -149.86247 7622.0117 1024
-6356.1987 -147.11971 7482.5142 1280
-6273.375 -146.22609 7437.064 1280
-6189.0415 -145.28433 7389.1665 69124
-6155.8833 -145.53902 7402.1201 135173
-6280.4731 -149.55373 7606.3086 1280
-6243.7231 -149.75694 7616.6436 201477
-6155.835 -148.72757 7564.29 1280
-6001.6294 -146.06902 7429.0757 1280
-5935.3462 -145.52679 7401.498 1280
-5891.3423 -145.52679 7401.498 1280
-5728.1455 -142.56035 7250.625 1536
-5658.3901 -141.89211 7216.6377 1280
-5598.8218 -141.47105 7195.2231 1280
-5560.4541 -141.58334 7200.9341 1024
-5527.6406 -141.83989 7213.9824 1024
-5495.5264 -142.11853 7228.1538 1536
-5452.5527 -142.11853 7228.1538 661770
-5352.417 -140.61678 7151.7749 464391
-5318.2505 -140.83798 7163.0254 768
-5275.6646 -140.83798 7163.0254 2816
-5264.8779 -141.6938 7206.5527 135170
-5222.0332 -141.6938 7206.5527 1280
-5178.5459 -141.67624 7205.6592 1792
-5126.6836 -141.42732 7192.9995 1280
-5095.9438 -141.76184 7210.0127 2049
-5053.0781 -141.76184 7210.0127 1024
-4937.9795 -139.71803 7106.0645 1536
-4895.7314 -139.71803 7106.0645 1280
-4862.5566 -139.9792 7119.3477 1024
-4820.2847 -139.98079 7119.4282 265223
-4812.8149 -141.002 7171.3677 1024
-4710.4189 -139.23553 7081.5249 67841
-4668.3169 -139.23553 7081.5249 1320981
-4626.2153 -139.23553 7081.5249 2373924
-4566.3931 -138.6973 7054.1499 136451
-4516.6714 -138.45871 7042.0156 398599
-4438.6533 -137.34013 6985.1245 2048
-4397.125 -137.34013 6985.1245 2818
-4289.564 -135.25801 6879.2275 1280
-4310.3574 -137.222 6979.1162 1024
-4288 -137.83711 7010.4009 1536
-4215.2285 -136.82784 6959.0688 1280
-3827.2957 -125.46688 6381.2505 1452309
-3789.3572 -125.46688 6381.2505 69888
-3712.8459 -124.1768 6315.6367 400899
-3675.2979 -124.1768 6315.6367 4608
-3722.3955 -127.06625 6462.5942 2309404
-3683.9739 -127.06625 6462.5942 598018
-3644.8308 -127.04112 6461.3164 2304
-3533.791 -124.48278 6331.1992 401156
-3485.6636 -124.10939 6312.2085 1123854
-3440.5417 -123.83607 6298.3071 4608
-3403.0967 -123.83607 6298.3071 1792
-3365.6514 -123.83607 6298.3071 3072
-3323.1055 -123.64628 6288.6543 398856
-3269.7593 -123.04575 6258.1113 68097
-3262.0137 -124.16715 6315.146 1792
-3224.4685 -124.16715 6315.146 794373
-3186.9233 -124.16715 6315.146 2376219
-3100.7305 -122.24917 6217.5977 2837281
-2849.1729 -113.6866 5782.105 1981974
-2911.5522 -117.59446 5980.8589 3072
-2875.9946 -117.59446 5980.8589 267524
-2821.0068 -116.79007 5939.9473 201988
-2785.6924 -116.79007 5939.9473 2560
-2688.0544 -114.14362 5805.3491 70147
-2661.9905 -114.50713 5823.8369 68355
-2627.3662 -114.50713 5823.8369 135938
-2668.6348 -117.85889 5994.3081 598024
-2583.8062 -115.65701 5882.3198 1453586
-2554.6565 -115.92119 5895.7563 1387793
-2550.8037 -117.3566 5968.7612 3840
-2515.3179 -117.3566 5968.7612 1792
-2436.7769 -115.31905 5865.1313 1536
-2419.4177 -116.15977 5907.8901 3585
-2384.2937 -116.15977 5907.8901 4608
-2310.083 -114.22704 5809.5918 1715731
-2219.9055 -111.43414 5667.5449 1782030
-2204.1753 -112.34985 5714.1177 4746275
-2235.6741 -115.73922 5886.501 1193731
-2159.6104 -113.57942 5776.6538 4747306
-2151.4165 -114.97692 5847.731 2575630
-2070.0837 -112.44743 5719.0806 204288
-2036.082 -112.44743 5719.0806 1653513
-2002.0807 -112.44743 5719.0806 1453577
-1965.7407 -112.31384 5712.2856 1915917
-1891.6777 -109.9823 5593.7041 532736
-1873.7212 -110.88773 5639.7544 2705426
-1841.8367 -110.98689 5644.7974 1719048
-1808.2769 -110.98689 5644.7974 2573846
-1779.4473 -111.28272 5659.8433 664836
-1752.5688 -111.71431 5681.7944 862215
-1718.7891 -111.71431 5681.7944 135168
-1685.0092 -111.71431 5681.7944 1024
-1604.5612 -108.55696 5521.2114 1536
-1557.0248 -107.5409 5469.5342 1024
-1524.507 -107.5409 5469.5342 1280
-1491.989 -107.5409 5469.5342 856836
-1438.2234 -105.97526 5389.9058 6916920
-1378.0013 -103.85169 5281.9009 5536545
-1346.599 -103.85169 5281.9009 5142048
-1290.6177 -101.91086 5183.1904 1522433
-1263.4772 -102.20815 5198.3105 2377225
-1184.756 -98.243134 4996.6499 2837774
-1142.5988 -97.184135 4942.7891 6721597
-1126.5496 -98.34848 5002.0073 2247429
-1098.0408 -98.458717 5007.6143 2839568
-1067.073 -98.34848 5002.0073 865280
-1019.3815 -96.646355 4915.4375 996610
-990.15784 -96.646355 4915.4375 2115085
-958.04742 -96.356018 4900.6709 2904345
-917.87054 -95.210732 4842.4214 204544
-950.00226 -101.73472 5174.2319 1983499
-907.59869 -100.44635 5108.7051 2837780
-874.19696 -100.09951 5091.0649 202754
-824.35291 -97.777542 4972.9697 2115083
-758.62939 -93.329285 4746.731 268545
-737.633 -94.252373 4793.6792 2574103
-732.10083 -97.305038 4948.938 466688
-702.67798 -97.305038 4948.938 3072
-668.62042 -96.635178 4914.8687 729860
-646.82092 -97.756714 4971.9102 1323271
-595.00677 -94.232193 4792.6528 859912
-587.41809 -97.70945 4969.5068 2838552
-564.4762 -98.865997 5028.3281 1983755
-528.12854 -97.6726 4967.6318 336641
-497.69434 -97.496239 4958.6626 532993
-468.90317 -97.639809 4965.9644 1720332
-444.0011 -98.666908 5018.2026 598274
-411.94495 -98.137665 4991.2856 5011252
-390.84714 -100.33953 5103.2725 2050316
-360.50677 -100.33953 5103.2725 2510865
-323.26965 -98.243576 4996.6719 4813108
-290.43008 -97.195091 4943.3462 3234081
-260.36591 -96.943909 4930.5708 3167268
-223.36102 -93.716843 4766.4424 666119
-195.00812 -93.709602 4766.0742 269313
-166.67249 -93.709602 4766.0742 2969634
-138.33685 -93.709602 4766.0742 2969633
-108.28565 -92.248123 4691.7432 1653265
-77.724312 -89.18708 4536.0586 2047257
-50.610954 -88.931892 4523.0796 2816
-23.319258 -87.429466 4446.666 3072
3.1174097 -87.429466 4446.666 3166500
29.276661 -86.608788 4404.9263 4022823
55.465172 -86.608788 4404.9263 2376720
81.07502 -85.99501 4373.7095 3364378
107.07795 -85.99501 4373.7095 333314
128.97023 -83.338776 4238.6133 1915922
160.80119 -86.923378 4420.9263 2112536
186.62004 -86.707428 4409.9429 1254924
210.86388 -85.903046 4369.0322 1651984
242.46185 -87.94249 4472.7583 1059079
267.4704 -87.424995 4446.4385 1190411
293.0726 -87.17717 4433.8345 463619
310.95773 -84.864174 4316.1953 3584
337.84683 -85.17379 4331.9424 1536
367.30276 -86.040833 4376.04 2561
393.31955 -86.040833 4376.04 66817
416.08392 -85.373497 4342.0991 1024
445.33563 -86.03746 4375.8687 768
471.45245 -86.055908 4376.8066 1280
503.86057 -87.160728 4432.998 1024
531.8537 -87.429947 4446.6904 3328
556.01489 -87.073578 4428.5654 1792
582.34393 -87.073578 4428.5654 2835753
603.65381 -86.35556 4392.0474 598535
629.76575 -86.35556 4392.0474 4608
649.03082 -85.454071 4346.1973 1536
669.14215 -84.728775 4309.3086 200452
662.24811 -80.763557 4107.6377 2560
686.66913 -80.763557 4107.6377 2816
711.09015 -80.763557 4107.6377 1280
741.24817 -81.393517 4139.6772 2049
750.94989 -79.808937 4059.0854 1792
761.00061 -78.358963 3985.3401 1792
792.48193 -79.136604 4024.8909 3295534
822.30658 -79.708076 4053.9561 1321743
846.40845 -79.708076 4053.9561 2048
879.45093 -80.526718 4095.592 1716755
910.87891 -81.157394 4127.6685 2177306
928.53284 -80.559952 4097.2822 134913
954.04645 -80.657516 4102.2446 135425
978.36218 -80.651482 4101.9375 1792
995.17188 -80.042023 4070.9404 1280
1004.4636 -78.871193 4011.3921 1536
1024.5422 -78.582024 3996.6848 1536
1048.3037 -78.582024 3996.6848 1792
1076.3667 -78.897324 4012.7212 860688
1116.5542 -80.068413 4072.2825 3586
1140.765 -80.068413 4072.2825 267525
1165.2516 -80.087364 4073.2463 134659
1189.4683 -80.087364 4073.2463 1792
1181.5634 -77.967773 3965.4438 2048
1205.139 -77.967773 3965.4438 70400
1243.1129 -78.881401 4011.9111 1454350
1258.4763 -78.352905 3985.0317 1717520
1290.8168 -78.881401 4011.9111 1849107
1305.8605 -78.352905 3985.0317 467456
1320.4532 -77.816658 3957.7583 1520396
1340.0448 -77.588623 3946.1604 994821
1392.4971 -79.238342 4030.0649 1850386
1387.5559 -77.621582 3947.8367 1784341
1411.027 -77.621582 3947.8367 1718293
1434.4979 -77.621582 3947.8367 2048
1430.3743 -76.152458 3873.1169 768
1448.6661 -75.904358 3860.4988 265986
1464.1622 -75.519814 3840.9407 1024
1473.4338 -74.830948 3805.9048 1280
1488.8199 -74.468758 3787.4839 1536
1497.5258 -73.7882 3752.8708 333060
1510.5736 -73.338432 3729.9956 200961
1532.7494 -73.338432 3729.9956 2176031
1554.9253 -73.338432 3729.9956 1189135
1603.8674 -74.583115 3793.3003 1024
1609.7239 -73.817497 3754.3608 662027
1627.3706 -73.606094 3743.6086 1280
1630.9043 -72.770668 3701.1191 1280
1671.2709 -73.579086 3742.2354 68866
1697.0719 -73.733437 3750.0852 529672
1703.5305 -73.054291 3715.5442 1280
1712.4148 -72.495224 3687.1101 199683
1712.649 -71.58873 3641.0056 768
1732.6638 -71.521362 3637.5791 768
1732.3195 -70.625626 3592.0217 198402
1706.9502 -68.743874 3496.3162 133378
1722.2236 -68.524521 3485.1597 2304
1729.0692 -67.979034 3457.4163 728583
1763.6641 -68.524521 3485.1597 2244117
1790.5308 -68.760559 3497.1646 3297568
1831.7626 -69.536499 3536.6289 2376210
1852.7888 -69.536499 3536.6289 2309657
1881.85 -69.834671 3551.7939 2242588
1902.9663 -69.834671 3551.7939 399362
1924.0826 -69.834671 3551.7939 1536
1952.4487 -70.094933 3565.0312 792590
1980.3405 -70.332771 3577.1274 1024
2008.9175 -70.58963 3590.1914 1280
2009.6898 -69.874359 3553.8125 1280
2044.176 -70.333954 3577.1877 1024
2042.8478 -69.564514 3538.054 596230
2036.7102 -68.648651 3491.4731 466691
2028.9396 -67.696785 3443.061 2638365
2049.4094 -67.696785 3443.061 2902043
2057.7278 -67.299355 3422.8477 4283694
2108.9116 -68.297935 3473.6355 531459
2129.5635 -68.297935 3473.6355 662277
2111.2056 -67.058853 3410.616 1056523
2124.6113 -66.842682 3399.6213 661512
2128.4092 -66.331146 3373.6047 1280
2150.6172 -66.39756 3376.9824 67585
2213.2732 -67.699966 3443.2229 201473
2189.6118 -66.362419 3375.1951 2901538
2164.4954 -65.005455 3306.1797 3954733
2184.1514 -65.005455 3306.1797 3823656
2201.1379 -64.926704 3302.1746 3887916
2206.1094 -64.49807 3280.3745 3295782
2231.4341 -64.666801 3288.9558 198657
2289.8843 -65.784218 3345.7881 68097
2331.0884 -66.39122 3376.6599 1280
2378.8201 -67.172173 3416.3792 67329
2414.4231 -67.600311 3438.1545 1120016
2421.0718 -67.217392 3418.6792 0
2374.5732 -65.377586 3325.1064 256
2409.3325 -65.786911 3345.9246 2
2463.8542 -66.724709 3393.6216 256
2486.1643 -66.782043 3396.5371 512
2549.6428 -67.935379 3455.1958 528137
2534.2856 -66.986481 3406.9351 397316
2520.3884 -66.090919 3361.3867 662791
2528.6313 -65.785454 3345.8506 729095
2548.5232 -65.785454 3345.8506 1387534
2538.3748 -65.016006 3306.7168 532992
2551.3994 -64.847389 3298.1406 597252
2554.6772 -64.435486 3277.1912 2901023
2574.1609 -64.435486 3277.1912 3887410
2574.9585 -63.971249 3253.5801 2636831
2590.0491 -63.866379 3248.2466 793092
2657.5635 -65.046181 3308.2512 1280
2689.1946 -65.33683 3323.0334 512
2726.4226 -65.758224 3344.4661 768
2737.9668 -65.55854 3334.3098 512
2713.5874 -64.507744 3280.8665 256
2709.1963 -63.943722 3252.1802 256
2742.5625 -64.272545 3268.9041 256
2761.9971 -64.272545 3268.9041 257
2761.8047 -63.819008 3245.8374 2
2761.5017 -63.369236 3222.9617 2
2758.7791 -62.87051 3197.5967 2
2767.5544 -62.638855 3185.8147 2
2707.8188 -60.870262 3095.8638 2
2707.248 -60.446556 3074.3142 256
2725.5256 -60.446556 3074.3142 256
2782.1938 -61.292309 3117.3291 256
2734.5352 -59.843727 3043.6543 256
2672.4092 -58.099674 2954.9517 256
2668.6633 -57.639328 2931.5383 512
2769.8103 -59.435783 3022.9062 512
2827.0242 -60.27243 3065.458 512
2885.2974 -61.120789 3108.6057 1539
2930.4824 -61.682861 3137.1926 1282
2949.1338 -61.682861 3137.1926 768
2940.6064 -61.117973 3108.4624 512
2911.0728 -60.12627 3058.0244 512
2912.5234 -59.782867 3040.5588 256
2939.9885 -59.974377 3050.2991 1540
3054.8892 -61.936249 3150.0801 770
0 0 0 0
0 0 0 0
0 0 0 0
0 0 0 0
0 0 0 0
0 0 0 0
-6405.5112 -98.599785 7188.3945 1280
-6427.001 -99.595062 7260.9551 1280
-6480.562 -101.10415 7370.9751 768
-6494.0312 -102.00404 7436.5815 529932
-6595.7349 -104.31172 7604.8223 2049
-6550.5225 -104.31172 7604.8223 1280
-6505.3096 -104.31172 7604.8223 1536
-6356.1987 -102.63409 7482.5142 661774
-6468.4287 -105.1824 7668.2988 399116
-6301.6279 -103.19742 7523.5845 4098
-6232.2026 -102.79012 7493.8896 530699
-6187.6494 -102.79012 7493.8896 3072
-6234.8506 -104.32541 7605.8198 68866
-6155.835 -103.75577 7564.29 3585
-6021.4434 -102.23751 7453.6025 1536
-5944.3374 -101.67661 7412.71 1280
-5887.8618 -101.46284 7397.125 1280
-5747.6816 -99.792557 7275.353 1280
-5685.0386 -99.453369 7250.625 1280
-5605.313 -98.807869 7203.5649 1280
-5562.4858 -98.807869 7203.5649 1280
-5661.2583 -101.34266 7388.3633 1280
-5553.2456 -100.18646 7304.0713 1536
-5452.5527 -99.145142 7228.1538 133889
-5346.0312 -97.980453 7143.2422 661257
-5318.2505 -98.251808 7163.0254 69377
-5256.2427 -97.890099 7136.6553 2560
-5185.2427 -97.353683 7097.5479 135683
-5222.0332 -98.848846 7206.5527 3840
-5179.188 -98.848846 7206.5527 2304
-5135.7065 -98.836594 7205.6592 2816
-5044.6045 -97.899979 7137.3755 2304
-5053.0781 -98.896301 7210.0127 3331
-4947.21 -97.652695 7119.3477 1253910
-4904.8833 -97.652695 7119.3477 3073
-4889.6187 -98.196175 7158.9697 332808
-4855.4507 -98.366234 7171.3677 69121
-4812.8149 -98.366234 7171.3677 201731
-4789.7764 -98.77034 7200.8291 202757
-4743.4141 -98.696449 7195.4424 860942
-4668.7788 -98.02758 7146.6782 531977
-4622.9478 -97.956764 7141.5156 597770
-4519.4487 -96.651367 7046.3457 68097
-4438.6533 -95.81163 6985.1245 1584410
-4397.125 -95.81163 6985.1245 1123604
-4410.5259 -97.01992 7073.2153 69893
-4321.2935 -95.972099 6996.8237 1280
-4288 -96.158325 7010.4009 1280
-4239.2939 -95.999184 6998.7988 1386518
-3858.3276 -88.238258 6432.9902 663563
-3974.4846 -91.804741 6693.0034 466182
-3951.6912 -92.201347 6721.918 2816
-3853.3552 -90.825485 6621.6113 1914389
-3740.0222 -89.064079 6493.1963 1454096
-3683.9739 -88.644325 6462.5942 1782548
-3644.0112 -88.606857 6459.8628 794887
-3523.1912 -86.581558 6312.2085 2560
-3491.0298 -86.714851 6321.9263 70400
-3440.5417 -86.390877 6298.3071 926219
-3389.5552 -86.047119 6273.2451 793867
-3352.259 -86.047119 6273.2451 3328
-3323.1055 -86.258476 6288.6543 1536
-3285.7175 -86.258476 6288.6543 1280
-3266.5994 -86.743614 6324.0234 3072
-3240.0857 -87.041389 6345.7324 1792
-3252.2683 -88.397949 6444.6323 67841
-3100.7305 -85.283821 6217.5977 1321237
-3000.1328 -83.51255 6088.4629 2048
-2911.5522 -82.036591 5980.8589 531722
-2908.4492 -82.962349 6048.3511 663050
-2821.0068 -81.475426 5939.9473 992017
-2799.5461 -81.880623 5969.4878 4352
-2751.2854 -81.502319 5941.9077 4097
-2755.6956 -82.694756 6028.8423 793611
-2677.4753 -81.406319 5934.9087 3584
-2668.6348 -82.221069 5994.3081 333828
-2583.8062 -80.684982 5882.3198 1123598
-2554.6565 -80.869278 5895.7563 68096
-2550.8037 -81.870651 5968.7612 2560
-2524.2603 -82.16172 5989.9814 333573
-2488.6482 -82.16172 5989.9814 2111518
-2409.9351 -80.718102 5884.7349 2836009
-2374.9487 -80.718102 5884.7349 70912
-2253.6006 -77.739014 5667.5449 796933
-2219.9055 -77.739014 5667.5449 3495461
-2270.6709 -80.742332 5886.501 3102487
-2241.2534 -80.94384 5901.1919 3496471
-2147.4321 -78.788788 5744.0781 3826200
-2125.2666 -79.235611 5776.6538 201217
-2095.7947 -79.420212 5790.1128 2113550
-2046.933 -78.86396 5749.5591 69632
-1999.7018 -78.352699 5712.2856 4812589
-1968.7124 -78.471146 5720.9209 4285989
-1907.2511 -77.357826 5639.7544 4219684
-1873.7212 -77.357826 5639.7544 2180112
-1849.436 -77.746452 5668.0874 2706453
-1815.7375 -77.746452 5668.0874 1190918
-1797.2136 -78.408478 5716.3521 796166
-1756.5308 -78.110649 5694.6392 331780
-1718.7891 -77.934464 5681.7944 3328
-1660.1165 -76.783134 5597.8569 1536
-1626.8357 -76.783134 5597.8569 3030315
-1606.0017 -77.382874 5641.5806 268288
-1547.7998 -76.169266 5553.103 1717005
-1491.989 -75.022987 5469.5342 6456379
-1438.2234 -73.930763 5389.9058 3496213
-1378.0013 -72.449318 5281.9009 4616222
-1342.6118 -72.234802 5266.2617 2905869
-1302.9434 -71.77433 5232.6914 2313480
-1263.4772 -71.30275 5198.3105 3168273
-1227.3046 -70.998047 5176.0967 3365652
-1196.5312 -70.998047 5176.0967 5603117
-1134.7202 -69.107765 5038.2856 2971149
-1098.2179 -68.698143 5008.4224 2641415
-1068.269 -68.687057 5007.6143 3366424
-1019.3815 -67.422714 4915.4375 335105
-990.15784 -67.422714 4915.4375 2970390
-977.14734 -68.560287 4998.3721 2509847
-917.87054 -66.421188 4842.4214 466945
-920.04425 -68.734383 5011.0645 2115341
-865.07684 -66.790657 4869.3574 4155175
-862.81189 -68.922256 5024.7612 1522690
-824.35291 -68.211853 4972.9697 403712
-764.83197 -65.640968 4785.54 3495714
-737.633 -65.752609 4793.6792 397059
-711.27124 -65.950851 4808.1318 664579
-690.45703 -66.701614 4862.8662 664582
-651.99408 -65.738533 4792.6528 69888
-623.50043 -65.738533 4792.6528 201217
-595.00677 -65.738533 4792.6528 3957800
-582.94788 -67.64563 4931.6895 2049806
-555.79437 -67.910385 4950.9907 272384
-527.17499 -68.01561 4958.6626 1127174
-497.69434 -68.01561 4958.6626 1325322
-468.90317 -68.115768 4965.9644 1390858
-444.0011 -68.832298 5018.2026 599810
-411.94495 -68.463081 4991.2856 4221482
-390.84714 -69.999153 5103.2725 3431966
-353.30154 -68.600136 5001.2769 1523207
-319.8721 -67.816643 4944.1572 666627
-290.43008 -67.805519 4943.3462 862472
-260.36591 -67.630295 4930.5708 1784339
-231.05226 -67.630295 4930.5708 4352
-195.16756 -65.427414 4769.9707 2179092
-165.06749 -64.744438 4720.1782 1520907
-136.78134 -64.638885 4712.4829 533762
-108.15543 -64.277008 4686.1006 730884
-78.078377 -62.502384 4556.7222 135425
-50.987396 -62.502384 4556.7222 598026
-23.896416 -62.502384 4556.7222 729099
3.2010705 -62.629639 4565.9995 2560
29.721273 -61.337856 4471.8223 1792
55.439205 -60.391987 4402.8638 4219429
81.406441 -60.237328 4391.5884 6128438
108.77663 -60.943806 4443.0942 1520908
136.209 -61.402229 4476.5156 269824
163.61401 -61.700489 4498.2598 796423
187.08482 -60.639736 4420.9263 861705
212.83836 -60.489086 4409.9429 792841
245.60843 -62.146881 4530.8042 3165226
271.53116 -61.915634 4513.9448 532487
292.74155 -60.7481 4428.8262 862218
314.43088 -59.864449 4364.4038 2310174
340.37848 -59.864449 4364.4038 2968106
366.32608 -59.864449 4364.4038 1979678
394.75153 -60.242588 4391.9722 1057044
420.86301 -60.242588 4391.9722 1280
445.43112 -60.034573 4376.8066 768
471.45245 -60.034573 4376.8066 1280
503.86057 -60.805321 4432.998 1536
528.86829 -60.650768 4421.7305 2043683
554.64282 -60.594624 4417.6372 2048
581.96069 -60.704544 4425.6509 1024
608.26105 -60.703411 4425.5684 1024
638.90033 -61.117432 4455.7524 1024
657.27203 -60.371689 4401.3843 1536
683.43945 -60.371689 4401.3843 1280
675.9306 -57.506592 4192.5049 67843
695.96057 -57.104885 4163.2188 1024
716.63666 -56.781979 4139.6772 1024
740.41876 -56.718445 4135.0449 1280
737.30664 -54.665012 3985.3401 2560
761.00061 -54.665012 3985.3401 398341
786.30255 -54.777031 3993.5068 1058317
822.30658 -55.606182 4053.9561 663047
846.40845 -55.606182 4053.9561 465667
879.45093 -56.177284 4095.592 463364
904.17334 -56.200466 4097.2822 1536
928.53284 -56.200466 4097.2822 68864
957.10529 -56.448948 4115.3975 1189137
978.43536 -56.268536 4102.2446 267012
1001.8508 -56.213902 4098.2617 465161
1012.4275 -55.458595 4043.1963 267525
1038.3136 -55.557487 4050.4058 530696
1080.1986 -56.488556 4118.2852 728075
1106.2664 -56.569519 4124.188 399110
1116.5542 -55.857555 4072.2825 1792
1134.4395 -55.547829 4049.7017 1978396
1158.5161 -55.547829 4049.7017 596232
1171.0724 -55.006706 4010.2515 596231
1181.5634 -54.392101 3965.4438 992525
1204.386 -54.358116 3962.9661 1783061
1243.1129 -55.029472 4011.9111 531459
1266.9648 -55.029472 4011.9111 200706
1305.6959 -55.663795 4058.1562 69888
1305.8605 -54.660778 3985.0317 530950
1340.3002 -55.102634 4017.2449 70912
1368.5372 -55.278477 4030.0649 993544
1399.7289 -55.565563 4050.9949 993290
1423.8132 -55.565563 4050.9949 1058317
1420.9303 -54.530651 3975.5444 3072
1434.4979 -54.150593 3947.8367 2560
1430.3743 -53.125702 3873.1169 1280
1440.1307 -52.640633 3837.7532 1024
1450.0996 -52.178341 3804.0498 1024
1473.4338 -52.203781 3805.9048 1024
1495.3318 -52.178341 3804.0498 1536
1497.5258 -51.476337 3752.8708 134145
1519.8375 -51.476337 3752.8708 2242080
1541.0403 -51.439316 3750.1716 1387539
1563.3361 -51.439316 3750.1716 2304
1614.9115 -52.389172 3819.4207 662282
1614.3857 -51.645912 3765.2336 1517079
1632.0447 -51.496777 3754.3608 1536
1654.3652 -51.496777 3754.3608 1280
1648.1465 -50.620235 3690.4565 1024
1693.5194 -51.33046 3742.2354 1024
1673.6157 -50.069393 3650.2974 1280
1712.4148 -50.574333 3687.1101 1024
1717.0198 -50.069393 3650.2974 768
1732.6638 -49.894943 3637.5791 768
1714.6211 -48.766678 3555.3237 2048
1723.6503 -48.426498 3530.5227 1911320
1725.5281 -47.896 3491.8467 2636827
1742.217 -47.78434 3483.7063 2178837
1763.6641 -47.804272 3485.1597 2244627
1783.6401 -47.78434 3483.7063 2244629
1831.7626 -48.510254 3536.6289 200450
1852.7888 -48.510254 3536.6289 768
1882.7852 -48.742474 3553.5588 768
1906.9863 -48.821178 3559.2971 1280
1928.1475 -48.821178 3559.2971 1024
1934.4883 -48.450008 3532.2366 67585
1980.3405 -49.065754 3577.1274 2048
2008.9175 -49.244946 3590.1914 1280
2029.4291 -49.224731 3588.718 463876
2050.7651 -49.224731 3588.718 2440989
2073.667 -49.261936 3591.4304 596741
1995.0043 -46.91021 3419.978 4548403
2028.9396 -47.226826 3443.061 5205820
2049.4094 -47.226826 3443.061 3494692
2069.8794 -47.226826 3443.061 664068
2108.9116 -47.646202 3473.6355 2045720
2129.5635 -47.646202 3473.6355 1255182
2111.2056 -46.781792 3410.616 1122319
2131.4824 -46.781792 3410.616 331523
2135.3875 -46.42585 3384.6658 768
2155.5103 -46.42585 3384.6658 768
2213.2732 -47.229046 3443.2229 1280
2189.6118 -46.295944 3375.1951 595462
2156.2363 -45.176254 3293.5645 3163685
2175.8174 -45.176254 3293.5645 1648654
2208.5334 -45.446533 3313.2693 4217393
2233.5845 -45.555714 3321.2288 2767129
2253.3301 -45.555714 3321.2288 1280
2320.6296 -46.508759 3390.7104 1280
2331.188 -46.318016 3376.8042 330243
2378.8201 -46.860844 3416.3792 768
2385.4902 -46.594398 3396.9539 0
2385.5786 -46.204948 3368.5613 0
2393.8538 -45.979229 3352.1052 65536
2413.783 -45.979229 3352.1052 1
2468.4453 -46.635429 3399.9453 65537
2543.6028 -47.665031 3475.0083 256
2485.4187 -46.199459 3368.1611 512
2534.2856 -46.731304 3406.9351 768
2499.5581 -45.725483 3333.606 1121294
2510.9802 -45.573078 3322.4949 2560
2548.5232 -45.893436 3345.8506 2816
2556.125 -45.673828 3329.8401 1280
2572.0706 -45.605545 3324.8618 1536
2595.7188 -45.673828 3329.8401 1280
2595.5229 -45.324711 3304.3875 1846295
2596.2739 -44.997238 3280.5132 4016694
2626.7083 -45.185272 3294.2219 66816
2669.4382 -45.580467 3323.0334 768
2689.1946 -45.580467 3323.0334 512
2707.217 -45.551292 3320.9067 512
2748.2737 -45.907307 3346.8616 256
2768.1716 -45.907307 3346.8616 0
2749.8496 -45.277988 3300.9814 256
2754.7227 -45.036804 3283.3979 256
2766.8091 -44.916115 3274.5991 256
2786.2773 -44.916115 3274.5991 2
2869.0984 -45.930305 3348.5383 258
2775.7944 -44.130424 3217.3186 2
2771.7358 -43.764324 3190.6282 256
2747.5955 -43.088272 3141.3406 256
2703.1963 -42.105789 3069.7129 256
2666.9773 -41.263054 3008.2734 256
2678.3193 -41.162495 3000.9421 256
2721.272 -41.545868 3028.8921 256
2674.6558 -40.565739 2957.4358 256
2692.2385 -40.565739 2957.4358 256
2775.4087 -41.547573 3029.0164 256
2797.3091 -41.605465 3033.2368 513
2862.3662 -42.300381 3083.8997 514
2927.2461 -42.983856 3133.728 514
2949.1338 -43.031376 3137.1926 514
2940.6064 -42.637299 3108.4624 514
2924.5762 -42.140034 3072.2095 513
2929.2537 -41.945461 3058.0244 256
2939.9885 -41.8395 3050.2991 461321
2997.0134 -42.389557 3090.4009 527370
0 0 0 0
0 0 0 0
0 0 0 0
0 0 0 0
0 0 0 0
0 0 0 0
-6405.5112 -55.862774 7188.3945 1024
-6397.4287 -56.16703 7227.5454 1024
-6449.2861 -57.005203 7335.4019 1024
-6604.022 -58.770325 7562.5366 134662
-6582.1611 -58.977318 7589.1719 1280
-6537.0415 -58.977318 7589.1719 1280
-6505.3096 -59.098942 7604.8223 2304
-6514.0186 -59.592232 7668.2988 1648921
-6346.3579 -58.467621 7523.5845 3328
-6393.625 -59.32119 7633.4214 4353
-6256.8979 -58.467621 7523.5845 135685
-6280.0698 -59.106693 7605.8198 2816
-6215.3394 -58.921719 7582.0181 3330
-6129.1831 -58.529442 7531.54 331527
-6021.4434 -57.923771 7453.6025 1280
-5957.4614 -57.73317 7429.0757 1280
-5890.6899 -57.512486 7400.6782 1280
-5778.3643 -56.840374 7314.1914 1280
-5734.8794 -56.840374 7314.1914 2048
-5661.1733 -56.538551 7275.353 1280
-5728.1855 -57.64827 7418.1509 1280
-5704.96 -57.860004 7445.397 1536
-5553.2456 -56.761726 7304.0713 1280
-5509.8208 -56.761726 7304.0713 1583382
-5352.873 -55.582932 7152.3843 728330
-5443.9404 -56.981209 7332.314 201218
-5284.1123 -55.754761 7174.4956 1536
-5264.8779 -56.003887 7206.5527 1792
-5241.604 -56.213779 7233.5615 3586
-5197.7524 -56.204628 7232.3843 1280
-5128.7915 -55.921543 7195.957 1536
-5044.6045 -55.466293 7137.3755 1792
-5019.2783 -55.655987 7161.7852 69125
-4976.6997 -55.655987 7161.7852 3073
-4934.1206 -55.655987 7161.7852 2048
-4932.8398 -56.125877 7222.25 69123
-4923.8916 -56.516014 7272.4526 727823
-4816.7139 -55.7756 7177.1768 70147
-4774.0435 -55.7756 7177.1768 1280
-4743.4141 -55.917549 7195.4424 70401
-4668.7788 -55.538589 7146.6782 3328
-4581.2158 -54.997475 7077.0483 268292
-4519.4487 -54.758881 7046.3457 465927
-4438.5488 -54.28183 6984.9595 267780
-4404.4897 -54.374035 6996.8237 2816
-4362.8916 -54.374035 6996.8237 1280
-4313.0176 -54.269901 6983.4238 332554
-4280.9038 -54.389381 6998.7988 1024
-4239.2939 -54.389381 6998.7988 662283
-3932.0701 -50.947819 6555.9404 136194
-3974.4846 -52.01297 6693.0034 2304
-3900.592 -51.562191 6634.9971 1981204
-3672.9702 -49.049278 6311.6372 1849362
-3740.0222 -50.46022 6493.1963 1322255
-3682.4165 -50.201176 6459.8628 70400
-3644.0112 -50.201176 6459.8628 4608
-3523.1912 -49.053719 6312.2085 4096
-3491.0298 -49.129238 6321.9263 1536
-3553.6619 -50.554955 6505.3867 2048
-3525.4797 -50.705887 6524.8086 2304
-3390.884 -49.312634 6345.5259 268036
-3323.1055 -48.870674 6288.6543 3072
-3272.5994 -48.675556 6263.5464 3072
-3262.0137 -49.07655 6315.146 3328
-3229.0015 -49.145535 6324.0234 1280
-3186.9233 -49.07655 6315.146 1536
-3100.7305 -48.318478 6217.5977 1280
-3000.1328 -47.314938 6088.4629 1792
-2911.5522 -46.478722 5980.8589 2304
-2875.9946 -46.478722 5980.8589 1792
-2814.8018 -46.059254 5926.8818 1792
-2733.9084 -45.3027 5829.5288 1536
-2751.2854 -46.176022 5941.9077 3096880
-2783.0938 -47.317432 6088.7837 67585
-2735.5127 -47.121372 6063.5547 1792
-2668.6348 -46.583237 5994.3081 135170
-2602.8394 -46.049686 5925.6509 4608
-2553.6663 -45.799614 5893.4717 2048
-2518.6279 -45.799614 5893.4717 2816
-2483.5896 -45.799614 5893.4717 2179613
-2483.436 -46.452126 5977.4365 2247448
-2396.6648 -45.479897 5852.3306 1852946
-2343.0579 -45.11763 5805.7144 3627309
-2253.6006 -44.04388 5667.5449 135936
-2219.9055 -44.04388 5667.5449 1388042
-2247.7705 -45.284088 5827.1343 1717515
-2241.2534 -45.859612 5901.1919 3694367
-2169.7844 -45.103275 5803.8672 2575632
-2155.5447 -45.531349 5858.9517 3167000
-2120.7114 -45.531349 5858.9517 4352
-2061.3706 -44.996387 5790.1128 204800
-2026.9468 -44.996387 5790.1128 400129
-1979.2136 -44.695827 5751.437 2114061
-1934.6998 -44.458679 5720.9209 3101722
-1873.7212 -43.827915 5639.7544 4153641
-1851.7446 -44.103085 5675.1631 1915919
-1818.0043 -44.103085 5675.1631 863234
-1797.2136 -44.423172 5716.3521 2966822
-1763.2284 -44.423172 5716.3521 2304
-1722.6747 -44.254436 5694.6392 861450
-1659.2449 -43.479485 5594.9185 1385744
-1626.8357 -43.502319 5597.8569 859913
-1626.536 -44.402672 5713.7139 1717513
-1587.5673 -44.26329 5695.7783 2179344
-1495.1454 -42.595013 5481.1055 4220710
-1420.587 -41.372643 5323.8115 2378760
-1373.9213 -40.925411 5266.2617 6919232
-1340.7865 -40.86977 5259.1021 3299860
-1302.9434 -40.664528 5232.6914 1195008
-1263.4772 -40.397346 5198.3105 1851652
-1210.0857 -39.66037 5103.4766 5405753
-1196.5312 -40.224716 5176.0967 2181380
-1134.7202 -39.153755 5038.2856 1125121
-1098.2179 -38.92168 5008.4224 1193731
-1068.4415 -38.92168 5008.4224 271360
-1038.665 -38.92168 5008.4224 1720841
-947.29333 -36.54541 4702.6455 2509841
-979.6286 -38.942211 5011.0645 403202
-949.83643 -38.942211 5011.0645 73216
-908.56726 -38.456432 4948.5547 860679
-879.14679 -38.456432 4948.5547 1587720
-831.76373 -37.643494 4843.9463 2048782
-788.45038 -36.963032 4756.3848 1784844
-766.13275 -37.252857 4793.6792 2816
-755.3208 -38.146149 4908.6274 795145
-726.13763 -38.146149 4908.6274 531716
-697.84064 -38.194649 4914.8687 2560
-663.91541 -37.92588 4880.2837 595208
-627.48151 -37.482689 4823.2539 6326851
-598.83795 -37.484695 4823.5122 2774537
-577.66467 -37.978027 4886.9941 2905868
-548.61017 -37.978027 4886.9941 3299863
-523.07458 -38.235256 4920.0942 1456647
-493.82327 -38.235256 4920.0942 1127686
-460.66791 -37.913948 4878.748 465666
-434.12415 -38.130169 4906.5713 3562020
-405.10898 -38.14484 4908.459 2049550
-390.84714 -39.658779 5103.2725 3233820
-353.30154 -38.86615 5001.2769 1390855
-319.81964 -38.415955 4943.3462 401152
-285.66367 -37.785488 4862.2183 928265
-260.36591 -38.316673 4930.5708 139264
-231.31938 -38.36097 4936.271 3168036
-194.99535 -37.035904 4765.7622 1918738
-165.06749 -36.681664 4720.1782 1720334
-136.78134 -36.621861 4712.4829 1654545
-108.35226 -36.483116 4694.6294 1061130
-79.338875 -35.983086 4630.2856 599304
-50.987396 -35.411404 4556.7222 72194
-23.975662 -35.528839 4571.8335 3328
3.2051604 -35.528839 4571.8335 268039
30.284231 -35.409866 4556.5239 3584
57.203339 -35.304516 4542.9678 135426
84.212547 -35.304516 4542.9678 993803
109.59486 -34.788101 4476.5156 1652501
136.87061 -34.957077 4498.2598 1849881
163.61401 -34.957077 4498.2598 665346
189.23428 -34.750824 4471.7192 3098922
212.25229 -34.176376 4397.7993 2704416
238.39842 -34.176376 4397.7993 1782036
261.55438 -33.790081 4348.0908 530183
292.74155 -34.417496 4428.8262 595207
317.60916 -34.259682 4408.519 68353
343.81903 -34.259682 4408.519 1537
374.03702 -34.630783 4456.272 2436902
400.64749 -34.640873 4457.5703 768
420.29175 -34.084766 4386.0107 768
445.43112 -34.013237 4376.8066 512
472.58176 -34.094715 4387.291 768
500.35083 -34.209946 4402.1191 1280
528.06183 -34.309952 4414.9878 662026
550.46039 -34.071667 4384.3252 662538
583.41907 -34.479008 4436.7417 1536
612.40961 -34.626743 4455.7524 1280
644.00684 -34.903503 4491.3657 1280
665.6394 -34.639675 4457.416 1794
699.41406 -35.003716 4504.2612 1024
702.03693 -33.839348 4354.4307 768
716.11792 -33.290459 4283.7998 768
730.67639 -32.800705 4220.7783 1024
747.53674 -32.443375 4174.7974 1024
750.94989 -31.544149 4059.0854 1536
762.56 -31.034521 3993.5068 134913
798.38873 -31.511551 4054.8909 1519119
822.30658 -31.504286 4053.9561 269568
854.39124 -31.801411 4092.1899 2704926
879.45093 -31.82785 4095.592 2573339
909.1662 -32.016811 4119.9072 137216
932.63812 -31.981762 4115.3975 1914137
966.61682 -32.299591 4156.2954 399365
981.57251 -31.981762 4115.3975 1536
1002.7493 -31.877163 4101.9375 1280
1014.2328 -31.476696 4050.4058 1024
1055.7144 -32.004204 4118.2852 2304
1080.1986 -32.004204 4118.2852 203011
1112.8165 -32.239845 4148.6074 927498
1116.7087 -31.651085 4072.8459 1848598
1126.0902 -31.239605 4019.8967 203008
1153.759 -31.341997 4033.073 1718028
1171.0724 -31.164646 4010.2515 2375191
1194.9146 -31.164646 4010.2515 729093
1218.8688 -31.167519 4010.6208 3584
1244.134 -31.203157 4015.2068 3165222
1267.4437 -31.189327 4013.4275 3033891
1304.0734 -31.497736 4053.1133 269569
1328.1703 -31.497736 4053.1133 4864
1352.2671 -31.497736 4053.1133 1585170
1368.5372 -31.318623 4030.0649 1518611
1399.7289 -31.481274 4050.9949 860427
1423.8132 -31.481274 4050.9949 2816
1432.1215 -31.138258 4006.8557 1536
1444.5659 -30.89493 3975.5444 1024
1417.3142 -29.82412 3837.7532 1024
1426.6488 -29.544918 3801.8257 1024
1445.5355 -29.469162 3792.0771 1024
1472.7157 -29.562202 3804.0498 768
1481.561 -29.289959 3769.0176 1024
1523.3563 -29.667534 3817.6035 1280
1542.6213 -29.601683 3809.1299 768
1559.4163 -29.491018 3794.8899 2816
1569.9133 -29.266115 3765.9492 134913
1604.5396 -29.491018 3794.8899 464390
1637.6191 -29.681654 3819.4207 530440
1642.3435 -29.360174 3778.0527 858381
1659.1565 -29.260551 3765.2336 1024
1648.1465 -28.679441 3690.4565 68096
1670.0874 -28.679441 3690.4565 67329
1709.0197 -28.967443 3727.5164 134146
1734.8303 -29.028513 3735.3745 397316
1711.0374 -28.268518 3637.5791 67329
1732.6638 -28.268518 3637.5791 265985
1714.6211 -27.629293 3555.3237 1584658
1733.3833 -27.591486 3550.4587 3033122
1749.5066 -27.513088 3540.3706 5205056
1742.217 -27.072737 3483.7063 795907
1762.1926 -27.061432 3482.252 4151602
1782.8955 -27.061432 3482.252 859655
1839.624 -27.601965 3551.8071 1536
1874.7826 -27.810265 3578.6111 768
1896.0585 -27.810265 3578.6111 768
1932.9705 -28.037062 3607.7952 1024
1954.4198 -28.037062 3607.7952 1024
1934.4883 -27.449875 3532.2366 1280
1955.4884 -27.449875 3532.2366 1536
2006.9275 -27.87262 3586.635 1536
2029.5818 -27.890909 3588.9883 4415537
2061.6589 -28.036957 3607.7817 2575125
2073.667 -27.909885 3591.4304 3100701
2026.9186 -27.002649 3474.6877 6850388
2047.5765 -27.002649 3474.6877 1650445
2057.2817 -26.859653 3456.2869 135680
2077.8303 -26.859653 3456.2869 68352
2079.8723 -26.622765 3425.8042 1253900
2098.4607 -26.600214 3422.9023 2240285
2111.2056 -26.504732 3410.616 768
2185.4663 -27.176016 3496.9963 1024
2206.2568 -27.176016 3496.9963 512
2194.4695 -26.778477 3445.8411 512
2213.2732 -26.758131 3443.2229 512
2199.74 -26.350794 3390.8071 768
2209.6785 -26.229467 3375.1951 461574
2201.7354 -25.899981 3332.7966 2765353
2221.5496 -25.899981 3332.7966 512
2253.3333 -26.038286 3350.594 768
2278.8384 -26.102261 3358.8259 132866
2326.498 -26.416674 3399.2847 768
2345.2888 -26.400702 3397.2295 1186066
2365.4861 -26.400702 3397.2295 659722
2467.7097 -27.308428 3514.0352 263683
