# .PCD v0.7 - Point Cloud Data file format
VERSION 0.7
FIELDS x y z rgb
SIZE 4 4 4 4
TYPE F F F U
COUNT 1 1 1 1
WIDTH 1329
HEIGHT 1
VIEWPOINT 0 0 0 1 0 0 0
POINTS 1329
DATA ascii
418.00787 288.54532 1752.5638 5608552
440.20798 296.47955 1800.7548 4029264
469.43454 308.65698 1874.7179 5016415
482.09891 309.63235 1880.6421 4884570
493.27985 309.63235 1880.6421 6133867
488.04721 299.55786 1819.4518 6988919
498.86432 299.55786 1819.4518 4489039
514.98511 302.67499 1838.3846 5542238
531.37042 305.81482 1857.4551 1659937
556.26007 313.62155 1904.8717 4423755
558.72156 308.72397 1875.1249 5476187
581.56311 315.05887 1913.6016 2120743
593.84161 315.5379 1916.5112 3568700
593.37683 309.35526 1878.9591 5278804
604.54779 309.35526 1878.9591 4424008
613.78534 308.38388 1873.0592 4423754
631.336 311.54941 1892.286 4489548
616.44672 298.8761 1815.3108 1724959
622.27972 296.51288 1800.9573 3766336
0 0 0 0
0 0 0 0
0 0 0 0
652.77252 291.01337 1767.5543 5080399
663.28113 291.01337 1767.5543 4883020
635.91809 274.6564 1668.2056 6593637
645.83606 274.6564 1668.2056 5146957
0 0 0 0
0 0 0 0
678.01978 275.64426 1674.2056 6594405
733.40338 293.84628 1784.7609 4029247
744.01422 293.84628 1784.7609 4029255
744.34436 289.84299 1760.4458 4226626
785.05109 301.45514 1830.9753 3634227
784.00812 296.93726 1803.5348 6659423
794.73065 296.93726 1803.5348 5606222
802.03821 295.67834 1795.8883 4161341
804.41351 292.65802 1777.5436 4293186
803.85114 288.66113 1753.2673 3043121
814.27478 288.66113 1753.2673 4227661
818.54608 286.50769 1740.1877 4884048
824.08636 284.84662 1730.0988 6923627
830.4165 283.49612 1721.8962 3173420
835.98865 281.92294 1712.3409 2450205
846.16901 281.92294 1712.3409 5081672
893.22162 294.06183 1786.0701 3305514
903.84021 294.06183 1786.0701 3765049
908.93402 292.28522 1775.2792 3238707
919.48859 292.28522 1775.2792 6395997
930.14142 292.31607 1775.4667 2252321
957.01031 297.38535 1806.2565 2844456
948.96954 291.61447 1771.2053 2119966
937.79053 285.01654 1731.1307 2713133
936.25977 281.46231 1709.5431 5607258
943.54059 280.60492 1704.3356 2318632
956.58722 281.46231 1709.5431 3238968
978.1601 284.784 1729.7184 3107639
1020.4177 293.99612 1785.6709 3435575
1047.7446 298.76111 1814.6124 2120745
1065.1898 300.63989 1826.0239 2450223
1085.7603 303.354 1842.5088 3699777
1096.7145 303.354 1842.5088 4225867
1105.7491 302.82831 1839.3157 3238963
1074.0643 291.27036 1769.1152 4292681
1057.3002 283.94363 1724.6143 539916
1067.5535 283.94363 1724.6143 2779440
1077.8068 283.94363 1724.6143 1068311
1081.5328 282.2403 1714.2684 1331739
1085.3046 280.58051 1704.1871 2648113
1137.6766 291.39975 1769.901 1595681
1148.1992 291.39975 1769.901 3239735
1152.7859 289.90695 1760.8342 5344855
1163.2545 289.90695 1760.8342 2382890
1148.0754 283.57202 1722.3571 4357455
1194.5498 292.44275 1776.236 934937
1206.0789 292.67783 1777.6639 3239232
1216.6475 292.67783 1777.6639 3565880
1216.026 290.00909 1761.4546 1793063
1193.4237 282.18848 1713.9537 344587
1216.9475 285.31464 1732.9414 1463327
1194.8008 277.77066 1687.1208 739089
1221.8108 281.6853 1710.8975 1264922
1235.9219 282.58597 1716.368 3239226
1268.1401 287.57812 1746.6893 2121258
1256.4076 282.60333 1716.4734 2515759
1244.91 277.76111 1687.0629 2844469
1265.6719 280.13644 1701.49 1063444
1275.7876 280.13644 1701.49 6265199
1285.2465 279.99329 1700.6206 3500353
1295.3571 279.99329 1700.6206 6067823
1305.4678 279.99329 1700.6206 7315831
1340.3376 285.26276 1732.6263 4552273
1365.9082 288.48779 1752.2145 3961931
1399.0946 293.26031 1781.2019 2052136
1355.7866 282.04785 1713.0997 2251569
1365.9716 282.04785 1713.0997 2383412
1362.5042 279.24979 1696.1049 3765064
1372.588 279.24979 1696.1049 3501892
0 0 0 0
1314.4276 263.54492 1600.7167 2251572
1323.9443 263.54492 1600.7167 4225873
1371.5255 271.06796 1646.41 2843449
1381.3138 271.06796 1646.41 4554063
0 0 0 0
1336.5311 258.61462 1570.771 4356425
1433.6794 275.48758 1673.254 2645547
1443.6273 275.48758 1673.254 2382891
1446.5292 274.15219 1665.1429 5079894
1480.0536 278.59918 1692.1531 3829826
1475.7262 275.90921 1675.8147 4619085
1480.609 274.9657 1670.0841 4290376
1490.5381 274.9657 1670.0841 6461544
1497.6427 274.44809 1666.9403 2252330
1530.6613 278.65491 1692.4916 4686415
1545.0563 279.43854 1697.2511 6067809
1555.147 279.43854 1697.2511 5673307
1540.2037 274.9693 1670.106 5409622
1555.3457 275.89395 1675.722 4422983
1530.2114 269.70792 1638.1495 6330466
1520.6365 266.32523 1617.6036 5343827
1510.0133 262.80261 1596.208 5606486
1532.2549 265.00803 1609.6034 4685385
1541.8245 265.00803 1609.6034 5343058
1518.6764 259.41925 1575.6582 5869146
1531.907 260.07507 1579.6415 6066781
0 0 0 0
0 0 0 0
0 0 0 0
0 0 0 0
0 0 0 0
0 0 0 0
0 0 0 0
0 0 0 0
0 0 0 0
0 0 0 0
0 0 0 0
0 0 0 0
-1812.5483 361.45721 2118.9011 6922618
-1977.9991 397.21198 2328.4995 3305800
-1910.0474 386.26968 2264.3545 4160596
-1915.6248 390.14737 2287.0859 3042883
-1883.123 386.26968 2264.3545 8831129
-1889.0795 390.28156 2287.8726 5673320
-1882.8307 391.81174 2296.8425 4489304
-1869.1753 391.81174 2296.8425 3502924
-1855.5199 391.81174 2296.8425 4423514
-1857.2081 395.07568 2315.9763 4620639
-1871.6326 401.11798 2351.397 2975556
-1824.0461 393.86142 2308.8579 4423774
-1810.3192 393.86142 2308.8579 3502671
-1796.5925 393.86142 2308.8579 4686945
-1784.7729 394.28275 2311.3279 3107657
-1771.0315 394.28275 2311.3279 2778949
-1784.1931 400.31894 2346.7129 3239500
-1768.7887 399.99048 2344.7874 2449984
-1730.8022 394.50958 2312.6577 1528626
-1717.0529 394.50958 2312.6577 2318398
-1694.2198 392.4057 2300.3245 3370828
-1684.472 393.32294 2305.7014 2383933
-1691.644 398.23837 2334.5164 1527852
-1684.9326 399.93979 2344.4902 4094807
-1670.994 399.93979 2344.4902 1989176
-1606.2871 387.68661 2272.6606 2318396
-1593.8198 387.94083 2274.1509 5278824
-1590.9492 390.55518 2289.4766 3700048
-1599.0619 395.9342 2321.009 3173702
-1548.4172 386.73163 2267.0625 2713408
-1571.464 395.9342 2321.009 3963988
-1530.7535 389.09378 2280.9097 3635535
-1517.193 389.09378 2280.9097 2977862
-1489.5823 385.45807 2259.5967 2122295
-1476.1483 385.45807 2259.5967 3306312
-1462.7144 385.45807 2259.5967 4226901
-1420.2416 377.73474 2214.3218 3174726
-1425.5516 382.6944 2243.3958 5082721
-1360.7511 368.74847 2161.6433 5346145
-1347.8995 368.74847 2161.6433 6728308
-1324.2677 365.7709 2144.1885 4688978
-1359.5132 379.15579 2222.6521 2649140
-1316.3932 370.73352 2173.2798 6004837
-1284.1393 365.23477 2141.0457 2846773
-1271.4103 365.23477 2141.0457 4557392
-1250.0703 362.73615 2126.3984 5017944
-1258.0836 368.79102 2161.8926 5084251
-1252.5026 370.9447 2174.5178 1397789
-1214.7238 363.50809 2130.9236 3637062
-1182.2212 357.51031 2095.7639 3176509
-1169.7612 357.51031 2095.7639 4558158
-1171.7942 361.98737 2122.009 5150295
-1168.2648 364.82489 2138.6428 5348444
-1153.969 364.32574 2135.7168 4624464
-1153.376 368.18985 2158.3687 4691026
-1127.1077 363.85239 2132.9419 3506238
-1111.2023 362.79959 2126.7703 4163143
-1099.5149 363.1156 2128.6228 6993012
-1091.5809 364.69299 2137.8696 4032835
-1098.9036 371.46475 2177.5664 3835966
-1124.2844 384.57498 2254.4199 4888142
-1061.0924 367.33859 2153.3784 5743449
-1058.2631 370.83334 2173.865 4033599
-1045.3387 370.83334 2173.865 4099393
-1007.6868 361.95135 2121.7979 4296515
-995.07208 361.95135 2121.7979 7651443
-1007.5449 371.19391 2175.9788 5941340
-967.3924 361.03687 2116.437 4362823
-972.60333 367.76511 2155.8787 5085778
-959.78595 367.76511 2155.8787 4362312
-946.96869 367.76511 2155.8787 5217107
-934.89929 368.05954 2157.6047 3769401
-911.77911 363.95108 2133.5205 6795375
-899.09479 363.95108 2133.5205 4953423
-870.47626 357.40866 2095.1682 4229696
-841.41064 350.49005 2054.6106 2584872
-813.47681 343.84607 2015.6626 4953162
-791.60876 339.60559 1990.8046 4296004
-768.50769 334.69937 1962.0438 7256690
-801.50092 354.44861 2077.8159 2782507
-782.08447 351.27612 2059.2185 3703095
-769.84186 351.27612 2059.2185 4360770
-761.79065 353.21954 2070.6111 4689735
-745.45062 351.32043 2059.4783 4886859
-737.16992 353.21954 2070.6111 5281360
-724.58667 353.08658 2069.8315 4755273
-726.85333 360.3103 2112.1777 5347156
-716.97278 361.66061 2120.0935 5281365
-705.72089 362.35513 2124.1648 4426057
-682.46301 356.79813 2091.5891 6136931
-667.01709 355.19479 2082.1902 2715951
-662.33228 359.36963 2106.6636 3571776
-649.80756 359.36963 2106.6636 4427343
-627.96338 354.11429 2075.8562 4229705
-615.62183 354.11429 2075.8562 2321449
-594.28461 348.83401 2044.9026 4557892
-578.95312 346.93204 2033.7529 5938777
-566.86188 346.93204 2033.7529 3898682
-527.4151 329.82492 1933.4692 5674584
-533.51331 341.07217 1999.4017 5740121
-521.62628 341.07217 1999.4017 6135648
-510.96198 341.89026 2004.1976 4030018
-513.50403 351.79495 2062.26 5544286
-480.14862 336.98975 1975.4703 2649897
-467.10022 336.05182 1969.972 7321204
-465.98883 343.87454 2015.8296 2321442
-464.7287 351.99759 2063.4478 3900474
-452.46091 351.99759 2063.4478 2650658
-440.19315 351.99759 2063.4478 4229694
-432.96259 356.14102 2087.7371 4164158
-420.55042 356.14102 2087.7371 2584614
-396.67047 346.13425 2029.0763 1663769
-382.98483 344.67432 2020.5181 1926428
-367.47678 341.42657 2001.4795 4162109
-354.37656 340.27353 1994.7201 3964732
-347.02026 344.74692 2020.9435 3438135
-337.45029 347.26309 2035.6937 3174966
-325.34753 347.26309 2035.6937 4096838
-316.43311 350.7977 2056.4141 2714930
-302.38126 348.69214 2044.071 2780463
-286.89999 344.69293 2020.6272 3833407
-281.24152 352.66144 2067.3394 3636026
-268.77991 352.43759 2066.0271 1527064
-251.17508 345.12527 2023.1616 737548
-232.31963 335.27264 1965.4043 2386473
-223.7135 339.95105 1992.8297 3044406
-211.86559 339.95105 1992.8297 1991464
-197.7515 336.09949 1970.2515 1465122
-185.47505 335.08279 1964.2914 3635268
0 0 0 0
0 0 0 0
0 0 0 0
0 0 0 0
-124.30844 327.76511 1921.3944 5871973
-112.58806 326.90228 1916.3364 4885333
-98.417358 317.92966 1863.7379 4950863
-86.695595 315.59506 1850.0522 4424518
-77.980202 325.11621 1905.8662 2977322
-66.73922 325.55487 1908.4377 3766835
-53.031849 311.6778 1827.0889 3832631
-43.673191 322.79324 1892.2488 4753733
-32.896015 327.49994 1919.8401 2715187
-21.41865 326.53369 1914.1757 4554821
-10.038342 326.53369 1914.1757 5805141
1.3419648 326.53369 1914.1757 6133338
12.707083 326.14386 1911.8904 6396765
23.962631 324.63773 1903.0613 6792035
35.276859 324.63773 1903.0613 4555587
45.233112 315.17557 1847.5933 6658913
56.217564 315.17557 1847.5933 7447662
65.957329 309.33798 1813.3727 7710321
82.25589 331.57968 1943.7559 8303486
94.18325 332.89166 1951.4469 7251056
105.89964 333.25195 1953.5588 5146194
118.22658 335.27246 1965.4033 4883538
130.10176 335.76364 1968.2826 5804897
142.47516 337.35339 1977.6019 5607515
151.50288 331.38278 1942.6016 5935966
158.34418 321.81433 1886.5103 5737295
169.56 321.81433 1886.5103 8039535
186.85371 332.63409 1949.9369 7973742
198.44664 332.63409 1949.9369 7974510
209.28926 331.44586 1942.9714 6657880
224.1385 336.39523 1971.9851 6459989
233.98523 333.71777 1956.2897 7841385
247.61606 336.43539 1972.2206 7643750
257.6011 334.17767 1958.9856 7183972
265.55887 329.59912 1932.1456 6526300
270.6796 322.02509 1887.7457 6067034
281.90277 322.02509 1887.7457 7713145
294.04233 323.0318 1893.6472 7910786
318.00034 336.46912 1972.4183 6858356
332.77591 339.58044 1990.6572 6003305
344.14474 339.12109 1987.9644 3832138
355.70102 338.87082 1986.4972 6989686
365.31104 336.84201 1974.6041 5936742
359.45224 321.12033 1882.442 4883797
358.37299 310.48898 1820.1199 6857587
0 0 0 0
0 0 0 0
0 0 0 0
398.52808 308.06995 1805.9392 4424016
403.293 303.57465 1779.5873 4555860
407.58835 298.96481 1752.5638 6792822
409.21249 292.67422 1715.6879 5147997
438.15332 305.75174 1792.3497 2648371
456.03165 310.672 1821.1926 5016664
460.14642 306.20499 1795.0067 5279838
459.13257 298.60498 1750.4547 4818518
469.53949 298.60498 1750.4547 6331241
487.6857 303.4201 1778.6813 2186539
511.63583 311.56516 1826.4285 4752467
522.65161 311.65884 1826.9778 6725997
542.41345 316.85788 1857.4551 5081680
553.45654 316.85788 1857.4551 6594662
563.89905 316.52075 1855.4789 4555085
582.20587 320.52618 1878.9591 7449976
593.37683 320.52618 1878.9591 7253101
603.06519 319.74014 1874.3512 8766342
588.45544 306.33368 1795.7611 2647085
624.9212 319.51974 1873.0592 4491862
608.88562 305.8703 1793.0448 2056493
605.75073 299.05972 1753.1202 4030540
612.41235 297.23422 1742.4189 3043386
616.89148 294.4278 1725.9675 3832388
620.91541 291.49954 1708.8018 2976568
631.07471 291.49954 1708.8018 6133341
628.49023 285.70633 1674.8413 5146448
635.82471 284.53256 1667.9606 6790245
645.74121 284.53256 1667.9606 3566649
655.65771 284.53256 1667.9606 8371077
657.48492 281.07443 1647.6886 5145422
676.47534 284.94736 1670.3921 7317105
687.97339 285.5979 1674.2056 3437635
707.45752 289.49786 1697.0676 6529136
707.03644 285.25729 1672.209 6134119
732.8277 291.56317 1709.1748 3371069
766.12219 300.64102 1762.39 4094277
788.5946 305.28439 1789.6101 4489543
785.56934 300.06476 1759.0118 5541973
796.02716 300.06476 1759.0118 4949832
803.92145 299.11096 1753.4208 5673300
814.34607 299.11096 1753.4208 3304495
824.77063 299.11096 1753.4208 6988647
837.1709 299.81854 1757.5685 6528351
831.77911 294.21527 1724.7216 936201
818.91962 286.13919 1677.3788 2845478
818.06036 282.39999 1655.4592 4885067
835.05096 284.83835 1669.7532 4421682
865.30469 291.69037 1709.9203 6987874
887.96338 295.85269 1734.3204 3896639
877.38953 288.97412 1693.9974 4686658
890.94287 290.10794 1700.644 4620863
939.88489 302.61023 1773.9338 5673292
948.96954 302.14478 1771.2053 7187300
930.47266 293.00418 1717.6221 3370543
938.12891 292.20819 1712.9559 4356932
943.54059 290.73767 1704.3356 6922862
954.13922 290.87973 1705.1683 4556114
964.27698 290.87973 1705.1683 2317603
988.44379 295.06766 1729.7184 4028733
1017.459 300.60178 1762.16 4488780
1027.9355 300.60178 1762.16 3699777
1050.2513 304.02905 1782.251 3633468
1090.1025 312.41333 1831.4005 5541206
1065.1515 302.24371 1771.7853 1132556
1043.3344 293.15384 1718.4993 2581284
1046.062 291.06992 1706.2832 1397013
1055.3596 290.83655 1704.9153 1989407
1071.3411 292.43207 1714.2684 3765820
1081.5328 292.43207 1714.2684 870413
1085.3046 290.71237 1704.1871 3239475
1104.2102 293.0408 1717.8368 2778925
1114.4233 293.0408 1717.8368 3700287
1124.6362 293.0408 1717.8368 2646317
1111.8564 287.10361 1683.0323 3106870
1113.9128 285.06912 1671.106 5606234
1143.892 290.15335 1700.9103 7053937
1178.379 296.28192 1736.8365 999959
1214.7816 302.78146 1774.9376 1462560
1199.0309 296.28192 1736.8365 1856805
1188.2181 291.10309 1706.4778 1330973
1178.1455 286.19177 1677.687 3699777
1188.1199 286.19177 1677.687 278025
1204.8312 287.80106 1687.1208 1595171
1231.9827 291.85703 1710.8975 3372093
1246.1261 292.79025 1716.368 1726501
1204.8013 280.78128 1645.9701 3568960
1213.1527 280.44971 1644.0264 2253613
1240.7887 284.5459 1668.0387 5410912
1250.7057 284.5459 1668.0387 9750941
1276.577 288.14713 1689.1494 5804131
1295.3571 290.10394 1700.6206 5607012
1305.4678 290.10394 1700.6206 3040053
1338.6666 295.19525 1730.4663 3896394
1350.6385 295.56372 1732.6263 3830599
1361.5906 295.70508 1733.4552 3501634
1328.2137 286.28952 1678.26 1462049
1365.9716 292.23273 1713.0997 2316332
1349.0952 286.48618 1679.4128 6000741
1359.0798 286.48618 1679.4128 5738082
0 0 0 0
1353.9343 281.26883 1648.8281 4487504
1361.7371 280.85632 1646.41 6396270
1373.5398 281.26883 1648.8281 4619603
1403.6564 285.39911 1673.0404 4751700
1367.725 276.13657 1618.7423 5475679
1377.3488 276.13657 1618.7423 4422478
1418.0592 282.32568 1655.0236 2711860
1427.8988 282.32568 1655.0236 2383151
1446.5292 284.05191 1665.1429 4553550
1474.0959 287.49756 1685.3417 3698239
1465.8282 283.95496 1664.5747 5803359
1475.7246 283.95496 1664.5747 5671770
1490.5381 284.89481 1670.0841 3500852
1497.6427 284.35852 1666.9403 3764283
1507.5531 284.35852 1666.9403 5080394
1507.4624 282.48441 1655.954 5738329
1501.73 279.58426 1638.9531 5737816
1507.3643 278.82407 1634.4967 4093508
1488.0128 273.48148 1603.178 6330731
1519.7941 277.54474 1626.9972 5474135
1515.2456 274.96405 1611.869 5211218
1505.1334 271.41254 1591.0496 4881480
1502.5942 269.26245 1578.4454 4816458
1514.1842 269.65524 1580.748 5408596
1490.6119 263.81992 1546.5408 5343058
1489.3369 261.97827 1535.7449 5869146
0 0 0 0
0 0 0 0
0 0 0 0
0 0 0 0
0 0 0 0
0 0 0 0
0 0 0 0
0 0 0 0
0 0 0 0
0 0 0 0
0 0 0 0
0 0 0 0
-1812.5483 374.05466 2118.9011 7186047
-1854.5366 385.39832 2183.1594 4752476
-1894.8065 396.5423 2246.2864 4620634
-1883.9038 397.05908 2249.2139 5805166
-1870.5315 397.05908 2249.2139 6725500
-1872.5482 400.34924 2267.8516 4160087
-1831.8722 394.49319 2234.679 4685917
-1818.5863 394.49319 2234.679 6001777
-1850.3868 404.34543 2290.4888 5212003
-1836.7692 404.34543 2290.4888 5672813
-1796.9674 398.53821 2257.5925 6133364
-1757.0143 392.60974 2224.0098 7054979
-1774.917 399.61746 2263.7063 3765587
-1761.4587 399.61746 2263.7063 2317626
-1748.0002 399.61746 2263.7063 4621666
-1731.2999 398.87057 2259.4753 2713156
-1782.729 413.93091 2344.7874 3436879
-1768.7887 413.93091 2344.7874 1660468
-1730.8022 408.25897 2312.6577 1463088
-1715.236 407.827 2310.2107 2910534
-1688.5696 404.72748 2292.6528 3436619
-1581.9944 382.26855 2165.4302 2449724
-1569.1202 382.26855 2165.4302 5937007
-1578.3263 387.69217 2196.1533 5673836
-1619.7987 401.19821 2272.6606 5410155
-1553.5521 388.02673 2198.0483 5871733
-1579.4371 397.83844 2253.6287 2516032
-1574.0024 399.86157 2265.0891 3700561
-1577.3376 404.16675 2289.4766 4424025
-1507.8662 389.72897 2207.6912 1990194
-1520.26 396.38272 2245.3823 3897676
0 0 0 0
0 0 0 0
-1297.0145 347.32471 1967.4843 2780218
-1366.1919 369.17902 2091.2822 3371843
-1372.2074 374.21011 2119.7817 2911549
-1367.3319 376.33691 2131.8293 4227410
-1354.6576 376.33691 2131.8293 1397797
-1320.9064 370.42627 2098.3474 5806684
-1316.3545 372.66943 2111.0542 5609821
-1303.8037 372.66943 2111.0542 3373371
-1305.7867 376.86407 2134.8154 2188585
-1293.0947 376.86407 2134.8154 4887381
-1255.9347 369.66232 2094.02 2584628
-1183.8052 351.92072 1993.5193 3176762
-1231.0356 369.66232 2094.02 4361292
-1232.7943 373.97247 2118.4355 5940069
-1196.0909 366.5835 2076.5793 6597484
-1148.8123 355.76547 2015.2987 2386739
-1131.3198 354.04083 2005.5292 3966026
-1119.3964 354.04083 2005.5292 3242560
-1148.6531 367.20551 2080.1028 6203757
-1146.8091 370.60602 2099.3657 5480032
-1134.3278 370.60602 2099.3657 3243838
-1139.7886 376.53333 2132.9419 4889175
-1117.4623 373.31104 2114.6887 4954455
-1101.7626 372.25443 2108.7034 5084499
-1089.2257 372.25443 2108.7034 6466150
-1086.8596 375.77084 2128.6228 5216337
-1074.2045 375.77084 2128.6228 5019725
-1071.6581 379.34927 2148.8933 3572789
-1045.3929 374.51663 2121.5181 2321950
-1032.7799 374.51663 2121.5181 4756291
-1033.7666 379.50925 2149.7996 3703348
-1007.4892 374.49258 2121.3818 2848296
-994.87701 374.49258 2121.3818 5875034
-975.1618 371.78458 2106.0417 5480534
-961.73236 371.43372 2104.0542 5217618
-945.63556 370.02985 2096.1018 3901244
-925.29639 366.90625 2078.4077 3770172
-920.71173 370.02985 2096.1018 3703865
-920.08691 374.85239 2123.4199 4822092
-895.02692 369.71548 2094.321 5742682
-858.26166 359.53027 2036.6251 3439928
-820.08807 348.45514 1973.8878 6400869
-825.46045 355.82971 2015.6626 4821324
-803.44464 351.44147 1990.8046 5347925
-774.47601 343.83524 1947.7177 4755273
-762.89624 343.83524 1947.7177 3176496
-753.23846 344.71481 1952.7001 3373875
-757.70801 352.18839 1995.0356 3307826
-764.30505 360.90427 2044.4083 4096833
-752.15051 360.90427 2044.4083 2714925
-739.99591 360.90427 2044.4083 4886350
-727.77979 360.87375 2044.2355 2912561
-722.29803 364.23819 2063.2939 3702335
-719.14404 368.91299 2089.7751 6202213
-714.29584 372.86777 2112.1777 5609821
-705.72089 374.98386 2124.1648 3899202
-682.46301 369.23322 2091.5891 6136163
-662.77612 365.23694 2068.9514 2978865
-645.21918 362.28546 2052.2324 3110450
-639.27051 365.86383 2072.5027 2452518
-625.2702 364.88422 2066.9534 2780974
-614.62726 365.86383 2072.5027 4952662
-593.4126 360.46182 2041.902 4952150
-570.40692 353.72354 2003.7317 3767873
-555.98706 352.13565 1994.7368 5741923
-524.42474 339.38467 1922.5067 4031304
-512.99487 339.38467 1922.5067 3110203
-507.71246 343.54434 1946.0699 4754766
-503.63803 348.7345 1975.4703 4557644
-491.61566 348.53763 1974.3551 4228683
-477.82922 347.0499 1965.9276 4557906
-466.1412 347.0499 1965.9276 2518323
-452.12198 345.26956 1955.8427 3834182
-454.00418 355.85922 2015.8296 4031822
-447.23871 360.06107 2039.6318 4820827
-439.3252 363.54712 2059.3792 3703625
-425.21182 361.95547 2050.363 1597988
-414.83801 363.54712 2059.3792 2650157
-395.12613 356.80313 2021.1768 1530393
-376.42566 350.57809 1985.9138 3636284
-364.61887 350.57809 1985.9138 5542998
-352.81204 350.57809 1985.9138 4228167
-342.51736 352.13269 1994.7201 4096066
-335.00519 356.76196 2020.9435 3372087
-323.57831 357.41168 2024.6238 4425035
-313.69138 359.87823 2038.5962 3701326
-297.62274 355.1662 2011.9039 1793320
-286.89999 356.70615 2020.6272 5012805
-278.77902 361.75687 2049.238 3765308
-254.91025 345.90024 1959.4153 3109430
-242.08301 344.22525 1949.927 5215833
-232.04935 346.55386 1963.1177 4293704
-220.37807 346.55386 1963.1177 2912309
-205.89116 341.87857 1936.6337 1662754
-194.37733 341.87857 1936.6337 2911798
-169.8685 317.58331 1799.0088 5149275
-150.74826 300.77438 1703.7916 2911287
0 0 0 0
0 0 0 0
0 0 0 0
-119.91269 327.19406 1853.4507 2517557
-109.4978 329.0101 1863.7379 4096331
-98.417358 329.0101 1863.7379 4159809
-86.695595 326.59415 1850.0522 6265953
-75.696518 326.59415 1850.0522 3174449
-64.697441 326.59415 1850.0522 2319910
-53.031849 322.54037 1827.0889 3504441
-43.673191 334.04318 1892.2488 5016656
-32.896015 338.91394 1919.8401 2121254
-21.39122 337.48126 1911.7244 3831611
-10.011936 337.02512 1909.1405 5016143
1.3303087 334.97891 1897.5493 3437361
12.527724 332.74664 1884.9043 5015623
23.962631 335.95193 1903.0613 4818759
35.276859 335.95193 1903.0613 3041832
44.779152 322.88669 1829.0508 4752963
55.664822 322.95316 1829.4274 6592602
65.957329 320.11902 1813.3727 7448429
78.359482 326.88174 1851.6814 6593380
90.668503 331.6377 1878.6223 7514740
101.83743 331.6377 1878.6223 8436099
110.33605 323.80112 1834.2308 5014860
124.91409 333.61075 1889.7992 8041591
131.60045 322.46417 1826.6575 5606741
143.28732 324.33585 1837.2599 5409618
154.21034 324.33585 1837.2599 6987876
168.45239 330.85471 1874.1871 7842411
180.43095 332.39484 1882.9113 7907947
196.19156 340.31534 1927.7784 7579495
207.65274 340.31534 1927.7784 4421946
220.84077 342.99738 1942.9714 6000722
232.39227 342.99738 1942.9714 6856032
245.61592 345.34848 1956.2897 7842157
253.166 339.87039 1925.2579 6329943
255.41185 328.05334 1858.3182 6461270
260.78656 321.06836 1818.7505 6925946
277.5083 328.05334 1858.3182 5938017
290.06711 329.77072 1868.0466 7449974
306.00226 335.05838 1897.9995 5936744
329.72693 348.19571 1972.4183 7779199
343.68988 350.47623 1985.3368 4818516
350.98727 346.03384 1960.1721 5081433
321.79715 307.06042 1739.3999 6858101
336.06454 310.69016 1759.9612 4489553
346.52802 310.69016 1759.9612 5410911
335.24905 291.7677 1652.7715 5740389
363.17273 307.06949 1739.4513 6003564
0 0 0 0
376.42609 301.12604 1705.7834 6069354
394.3812 307.21271 1740.2627 4621911
399.01224 302.87448 1715.6879 6398575
409.21249 302.87448 1715.6879 5148250
428.42734 309.38428 1752.5638 1991213
449.47461 316.8768 1795.0067 3964747
456.42755 314.31583 1780.4996 3306053
452.24255 304.37469 1724.1863 4752985
458.2229 301.56427 1708.2661 5739110
476.70602 306.9256 1738.6362 5279581
497.995 313.82755 1777.7336 5214043
508.56412 313.82755 1777.7336 6135649
525.69098 317.79184 1800.1901 5345621
538.18048 318.85049 1806.187 5871712
549.83447 319.38242 1809.2002 4819023
572.93976 326.418 1849.0546 5345623
571.2113 319.30661 1808.7708 5213265
577.77917 317.01001 1795.7611 6003290
574.79187 309.64923 1754.0647 4491606
595.90399 315.30215 1786.0867 4425553
595.32794 309.48248 1753.1202 5280094
602.05316 307.59338 1742.4189 5148508
612.41235 307.59338 1742.4189 4226893
616.89148 304.68915 1725.9675 5345373
627.11462 304.67059 1725.8623 4094792
627.00305 299.71259 1697.7767 6002527
630.70648 296.70633 1680.7473 2910000
640.69897 296.70633 1680.7473 4488262
650.69147 296.70633 1680.7473 6461796
662.48853 297.51669 1685.3378 5935196
657.48492 290.87039 1647.6886 6066782
670.17108 292.13025 1654.8252 6330724
680.00952 292.13025 1654.8252 4620365
697.09467 295.19904 1672.209 4620365
705.04791 294.3688 1667.506 6200167
733.10138 301.8374 1709.8132 5344342
743.26672 301.8374 1709.8132 2975794
788.5946 315.92413 1789.6101 4489544
754.43707 298.21649 1689.3019 6463334
769.73792 300.26736 1700.9196 6264667
800.28705 308.13617 1745.4937 6989418
808.2002 307.19949 1740.1877 6725735
821.04193 308.13617 1745.4937 6724444
837.1709 310.26776 1757.5685 4554046
831.77911 304.46921 1724.7216 2582310
830.93152 300.45505 1701.9825 3832381
818.06036 292.24216 1655.4592 1595411
827.90247 292.24216 1655.4592 11395753
837.74469 292.24216 1655.4592 6330460
852.88086 294.0675 1665.7992 5211725
870.58051 296.72464 1680.8511 5474895
890.23242 299.97934 1699.288 1068049
901.05365 300.21875 1700.644 6725229
920.26093 303.21591 1717.6221 4555333
930.47266 303.21591 1717.6221 3173421
938.12891 302.39218 1712.9559 5410637
930.74615 296.79065 1681.2249 3041833
954.13922 301.01743 1705.1683 3436855
964.27698 301.01743 1705.1683 7909750
988.44379 305.35132 1729.7184 4619845
940.09052 287.42368 1628.1639 5014865
0 0 0 0
0 0 0 0
0 0 0 0
982.92664 288.63245 1635.0114 5670987
1021.683 297.0752 1682.8368 4750139
1031.6879 297.0752 1682.8368 3632687
1045.048 298.03198 1688.2568 5870430
1055.0851 298.03198 1688.2568 7580528
1065.1222 298.03198 1688.2568 4488771
1072.2653 297.22977 1683.7125 2844460
1082.2755 297.22977 1683.7125 2779434
1079.4243 293.73001 1663.8873 5081687
1095.771 295.47043 1673.7462 6725994
1099.2089 293.73001 1663.8873 5475667
1107.4644 293.29654 1661.4319 6198884
1123.848 295.0043 1671.106 5146453
1142.6613 297.31433 1684.1915 1001751
1170.7979 301.98901 1710.6721 2646832
1178.0728 301.2486 1706.4778 2317867
1174.9012 297.87234 1687.3525 1791781
1164.349 292.69788 1658.0406 1528865
1188.1199 296.16608 1677.687 5080657
1204.8312 297.83145 1687.1208 3436603
1219.8529 299.05515 1694.0526 1132309
1200.0642 291.79462 1652.924 5015898
1209.8912 291.79462 1652.924 4949592
1213.1527 290.22391 1644.0264 6462830
1232.6543 292.53238 1657.1033 4291406
1215.7391 286.23041 1621.4045 1857064
1271.1288 296.91693 1681.9403 7580542
1295.3571 300.2146 1700.6206 5080151
1305.4678 300.2146 1700.6206 4948823
1314.5581 299.98178 1699.3016 4619345
1324.6609 299.98178 1699.3016 4948568
1306.7847 293.6936 1663.6812 5409375
1316.5874 293.67392 1663.5697 1856553
1338.8369 296.41016 1679.0696 5673062
1349.1141 296.47488 1679.4363 4948309
1362.3881 297.19241 1683.5009 6987894
1320.7611 286.01068 1620.1599 1460002
1355.5653 291.42218 1650.8142 6462066
1363.7371 291.07156 1648.8281 5803877
1375.1943 291.42218 1650.8142 5146973
1381.3138 290.64468 1646.41 3895623
1375.0516 287.29123 1627.4137 5540704
1393.9249 289.19952 1638.2236 5934948
1386.9727 285.76044 1618.7423 3763778
1394.3329 285.29727 1616.1187 5605983
1403.9412 285.29727 1616.1187 3500607
1373.2809 277.16986 1570.0793 3894595
1382.6155 277.16986 1570.0793 4948305
1449.7401 288.67725 1635.265 4882254
1480.7429 292.88647 1659.109 5868633
1469.1843 288.67725 1635.265 7119719
1472.8607 287.49713 1628.5801 4355898
1487.9292 288.5416 1634.4967 3369519
1494.1825 287.87418 1630.7159 5014601
1498.9565 286.93219 1625.3799 4685383
1478.1475 281.13647 1592.5491 7448692
1505.6626 284.54709 1611.869 4486981
1495.6742 280.87177 1591.0496 5868634
1492.7485 278.56064 1577.9578 4487238
1487.0413 275.76254 1562.1074 4750924
1495.5341 275.61615 1561.2782 3040047
1480.2064 271.1087 1535.7449 2579753
1489.083 271.0625 1535.4832 4619845
0 0 0 0
0 0 0 0
0 0 0 0
0 0 0 0
0 0 0 0
0 0 0 0
0 0 0 0
0 0 0 0
0 0 0 0
0 0 0 0
0 0 0 0
0 0 0 0
-1767.0073 376.93735 2065.6628 6067821
-1833.9733 393.96057 2158.9524 4094033
-1841.557 398.37781 2183.1594 5344615
-1828.5775 398.37781 2183.1594 4094550
-1798.7848 394.68869 2162.9424 5344360
-1785.9255 394.68869 2162.9424 4160601
-1829.3633 407.22049 2231.6184 4950118
-1816.0956 407.22049 2231.6184 5212263
-1791.4392 404.64801 2217.5208 4422747
-1791.0077 407.5498 2233.4231 5343851
-1770.2367 405.83209 2224.0098 5080936
-1680.3225 388.11795 2126.9341 5607537
-1673.2295 389.41013 2134.0154 4949864
-1672.9287 392.31485 2149.9336 6463616
-1742.09 411.67914 2256.0522 3568724
-1691.6077 402.85117 2207.6738 2976329
-1740.3981 417.71149 2289.1104 3107915
-1742.7058 421.56186 2310.2107 2515264
-1715.8306 418.35794 2292.6528 2844742
-1700.3073 417.8927 2290.1033 4029273
-1546.1746 383.07831 2099.3162 4160857
-1515.8483 378.621 2074.8896 4226649
-1514.3777 381.35712 2089.8838 4422998
-1540.7517 391.20847 2143.8704 7383425
-1528.0057 391.20847 2143.8704 3435847
-1534.1255 396.07919 2170.5625 9357474
-1503.1 391.36105 2144.7065 2513465
-1514.2418 397.63522 2179.0898 1922866
-1501.2866 397.63522 2179.0898 3568202
-1466.4071 391.77777 2146.9902 2909503
0 0 0 0
0 0 0 0
0 0 0 0
-1253.5131 346.98047 1901.4956 6134892
-1282.0024 358.09604 1962.4102 4490067
-1270.3353 358.09604 1962.4102 3832650
-1246.3593 354.59402 1943.2189 4687958
-1234.8063 354.59402 1943.2189 476948
-1209.5819 350.63104 1921.5011 5215059
-1258.5896 368.31583 2018.4159 5675613
-1292.1458 381.77579 2092.1782 4492366
-1304.5341 389.1824 2132.7673 4031560
-1261.1746 379.93991 2082.1174 5347673
-1255.9347 382.11188 2094.02 3636283
-1186.6116 364.63513 1998.2454 3373882
-1182.192 366.95093 2010.936 4492622
-1179.1753 369.75385 2026.2965 3505216
-1167.1284 369.75385 2026.2965 4228939
-1143.3209 365.98917 2005.6656 5216092
-1136.8308 367.74701 2015.2987 5018970
-1126.887 368.41321 2018.9496 5215834
-1129.0945 373.10913 2044.6838 5676899
-1128.9156 377.11014 2066.6099 4755794
-1105.7979 373.45218 2046.5638 4887379
-1116.8901 381.39487 2090.0908 5545310
-1104.464 381.39487 2090.0908 5347930
-1092.6552 381.6105 2091.2725 3110969
-1051.9407 371.61954 2036.5208 6795119
-1063.4214 380.04968 2082.719 6663530
-1044.1711 377.56628 2069.1096 6269024
-1031.8698 377.56628 2069.1096 5611092
-1018.0086 376.98868 2065.9443 2387236
-1006.7827 377.3848 2068.115 5413712
-1010.0998 383.30942 2100.5828 4624453
-992.32214 381.27719 2089.4458 6466401
-970.49805 377.61899 2069.3984 5874263
-931.46283 367.08401 2011.6655 4426818
-930.64362 371.53162 2036.0389 6071643
-918.53882 371.53162 2036.0389 2848556
-879.45001 360.47137 1975.4274 4361024
-867.70557 360.47137 1975.4274 4558662
-873.04108 367.66425 2014.8453 4361028
-844.77734 360.71082 1976.7395 4887115
-810.92035 351.13916 1924.2856 3834428
-814.25256 357.62744 1959.8423 4097598
-802.60077 357.62744 1959.8423 3900475
-791.8374 358.02917 1962.0438 5150542
-774.47601 355.41495 1947.7177 5742936
-759.01355 353.60611 1937.8049 4426821
-735.69714 348.02609 1907.2257 3242550
-726.00067 348.81528 1911.5505 4295497
-741.18518 361.77399 1982.5659 5479002
-729.39825 361.77399 1982.5659 6333799
-717.61133 361.77399 1982.5659 6728300
-696.9317 357.21594 1957.5873 873236
-706.59052 368.31735 2018.4243 3701824
-705.54688 374.1272 2050.2629 6135652
-693.35748 374.1272 2050.2629 5280345
-689.52014 378.71448 2075.4019 3569988
-677.18127 378.71448 2075.4019 4360274
-662.77612 377.53741 2068.9514 4030792
-642.97522 373.18417 2045.0951 4228682
-633.01807 374.48657 2052.2324 6201955
-598.08344 360.77332 1977.0822 2188070
-612.98157 377.17282 2066.9534 5543262
-574.57483 360.77332 1977.0822 6595438
-567.84631 363.9949 1994.7368 5214555
-555.35669 363.58221 1992.4752 5741668
-524.42474 350.81451 1922.5067 3307327
-509.28061 348.27451 1908.587 3241788
0 0 0 0
-497.93103 356.39441 1953.0851 6464363
-489.51721 358.73785 1965.9276 4360530
-469.3428 352.36655 1931.012 3373122
-463.10788 356.40344 1953.1346 2845753
-446.38199 352.36655 1931.012 3044157
-443.58176 359.39944 1969.5531 3768138
-431.87225 359.39944 1969.5531 4952411
-423.80786 362.51746 1986.6401 5215582
-412.31482 362.7973 1988.1738 2518327
-411.61655 372.87244 2043.3867 4360275
-389.38287 363.45868 1991.7983 6268012
-372.73224 358.82925 1966.4283 3175476
-361.04129 358.82925 1966.4283 4687944
-349.35031 358.82925 1966.4283 4292162
-340.57449 361.92715 1983.4053 4752201
-331.0336 364.40506 1996.9845 5343567
-317.85544 362.91446 1988.8159 4686662
-304.8566 361.52133 1981.1813 5344858
-287.61801 354.78635 1944.2727 1657887
-281.18481 361.3743 1980.3755 3832649
-266.55951 357.54953 1959.4153 3437633
-252.14774 353.67468 1938.1808 5804642
-238.84749 351.0625 1923.8656 5146704
-227.93622 351.87549 1928.3209 6724965
-210.83771 342.71725 1878.1326 2651708
-196.03943 336.48282 1843.9672 2646326
-180.32869 327.85092 1796.6632 6464113
-169.8685 328.27893 1799.0088 2647865
-159.1729 328.27893 1799.0088 5147998
-148.85274 329.10901 1803.5579 2977083
-136.11978 324.31927 1777.3094 2780473
-125.55318 324.31927 1777.3094 4096588
-119.09978 335.92059 1840.886 1069596
-109.4978 340.09055 1863.7379 4688212
-98.91082 341.79572 1873.0825 6135143
-88.336189 343.98169 1885.0619 2187557
-75.696518 337.5932 1850.0522 3109672
-63.194908 329.75293 1807.0865 6464117
-52.74213 331.58148 1817.1073 5278798
-42.801571 338.40186 1854.4838 4161093
-32.759705 348.87628 1911.8849 2188070
-21.39122 348.84698 1911.7244 1462808
-9.9511499 346.26038 1897.5493 6265185
1.3210759 343.85718 1884.3796 3370541
12.208732 335.19489 1836.9092 6858848
23.165348 335.71198 1839.7428 3765809
34.846794 343.03259 1879.8607 3633714
44.779152 333.76093 1829.0508 6593372
55.664822 333.82962 1829.4274 6857060
65.957329 330.89999 1813.3727 5277515
78.359482 337.8905 1851.6814 8172409
90.668503 342.80661 1878.6223 9356942
101.31947 341.06302 1869.0673 5277517
108.75465 329.90897 1807.9417 9160079
119.54343 330.01956 1808.5477 7580020
129.73816 328.6073 1800.8083 5211729
140.44447 328.6073 1800.8083 5804635
153.61478 333.96411 1830.1643 7975288
169.23651 343.58923 1882.9113 6001239
181.0381 344.74545 1889.2473 7580014
192.05586 344.36111 1887.1412 7053668
203.9462 345.49744 1893.3683 7777136
218.22849 350.35501 1919.9884 7381863
229.64334 350.35501 1919.9884 8960640
241.99968 351.72333 1927.4869 6789982
0 0 0 0
249.97354 331.88135 1818.7505 7054697
260.78656 331.88135 1818.7505 7516022
277.5083 339.10156 1858.3182 4422720
290.06711 340.87677 1868.0466 7977604
303.59695 343.62009 1883.0803 7911045
317.28641 346.34253 1897.9995 5806698
328.57056 346.34253 1897.9995 4951646
0 0 0 0
0 0 0 0
0 0 0 0
342.48969 317.41101 1739.4513 4621910
340.28613 306.12531 1677.6042 4227665
351.23682 306.9791 1682.2831 5873003
354.90143 301.59387 1652.7715 5346403
371.28558 307.01669 1682.4891 6991485
386.56744 311.26736 1705.7834 5939567
396.70883 311.26736 1705.7834 5281380
406.7619 311.19986 1705.4135 4688983
419.08359 312.82901 1714.3414 932883
441.12729 321.46561 1761.671 3767115
444.77264 316.60501 1735.0343 3240517
448.06677 311.7204 1708.2661 4358741
457.88007 311.48718 1706.988 5016152
468.37903 311.7204 1708.2661 1068056
496.89795 323.68204 1773.8174 4621387
507.44382 323.68204 1773.8174 5476436
517.98962 323.68204 1773.8174 4950596
536.39362 328.49448 1800.1901 5871443
547.1947 328.55359 1800.514 4292415
544.31659 320.55463 1756.6787 5871961
553.2951 319.70782 1752.0382 6331744
563.71149 319.70782 1752.0382 4949579
574.79187 320.07764 1754.0647 2844973
585.22028 320.07764 1754.0647 5673305
565.75903 304.01611 1666.0457 5410136
581.05109 306.86102 1681.6362 5344857
593.2749 308.01675 1687.9697 4556118
611.97388 312.43988 1712.2089 4095569
613.34583 308.01675 1687.9697 3437383
617.35315 305.03824 1671.647 5016155
627.0639 304.92752 1671.0403 5476190
635.82471 304.36554 1667.9606 4686672
645.97253 304.47458 1668.5581 4094021
657.71283 305.31958 1673.1888 5739357
648.90021 296.74057 1626.1748 5344597
658.5683 296.74057 1626.1748 6923628
677.0769 300.66635 1647.6886 5344338
689.8479 301.96863 1654.8252 4488002
653.65717 282.10352 1545.9619 6527589
707.51294 301.11243 1650.1332 6527330
726.47931 304.95584 1671.1954 4555344
741.3501 306.99948 1682.3949 2976811
751.81354 307.1879 1683.4275 6660962
762.36652 307.40747 1684.6307 6002781
757.09473 301.32309 1651.2876 5081418
781.14325 306.91458 1681.9296 8568705
821.04193 318.51358 1745.4937 6330458
837.1709 320.71698 1757.5685 5080912
831.77911 314.72314 1724.7216 3765307
818.91962 306.08417 1677.3788 9161101
807.56036 298.207 1634.2111 4158256
817.27625 298.207 1634.2111 6856548
826.992 298.207 1634.2111 5080398
848.29816 302.33783 1656.8484 8501892
862.59424 303.90408 1665.4318 3499316
879.10443 306.20602 1678.0466 2713390
888.38342 305.96582 1676.7303 3962941
914.08728 311.32501 1706.0994 4883786
917.38507 309.01913 1693.4629 5345360
927.45319 309.01913 1693.4629 4291128
928.95319 306.19498 1677.9861 3370805
940.74158 306.78598 1681.2249 3042097
946.50476 305.42032 1673.741 7251564
944.36713 301.56018 1652.5869 3960380
0 0 0 0
0 0 0 0
0 0 0 0
0 0 0 0
960.75 291.62167 1598.1226 5342799
980.26202 294.63052 1614.6115 4684609
994.93768 296.14148 1622.8917 5342022
1004.5862 296.14148 1622.8917 5081438
0 0 0 0
1015.2822 293.65375 1609.2585 6395226
1040.9283 298.2608 1634.5059 7381604
1047.6248 297.40314 1629.8058 6000211
1057.3143 297.40314 1629.8058 2712615
1067.004 297.40314 1629.8058 2515237
1091.1385 301.39313 1651.6714 2054430
1100.9583 301.39313 1651.6714 4685645
1106.6685 300.27805 1645.5607 2449197
1117.6326 300.59567 1647.3011 2249259
1126.2518 300.28256 1645.5853 6658414
1141.9761 301.85284 1654.1907 1390866
1174.0476 307.68045 1686.1266 2317613
1174.7153 305.24908 1672.8025 2383150
1184.6606 305.24908 1672.8025 7646581
1184.064 302.55539 1658.0406 2908974
1184.0544 300.05493 1644.338 3699262
1185.5436 297.97214 1632.9238 5212249
1204.8013 300.35275 1645.9701 6790254
1174.1976 290.36496 1591.2356 7185012
1218.4709 298.905 1638.0361 5014100
1215.7391 295.87012 1621.4045 2121771
1267.2218 305.97321 1676.7706 5607265
1282.0496 307.13721 1683.1497 4882260
1294.9447 307.82382 1686.9124 5408860
1302.0631 307.13721 1683.1497 5803361
1303.937 305.23343 1672.7167 5672288
1294.8583 300.814 1648.4977 5474909
1302.9655 300.42349 1646.3577 2448176
1326.4779 303.5643 1663.5697 5408347
1349.0952 306.45532 1679.4128 4487248
1359.0988 306.45963 1679.4363 4092747
1320.7611 295.64301 1620.1599 2974008
1330.3934 295.64301 1620.1599 4487761
1340.0258 295.64301 1620.1599 6856565
1358.2529 297.5257 1630.4773 3895880
1344.2036 292.36163 1602.1777 4619859
1367.725 295.38431 1618.7423 5146460
1377.3488 295.38431 1618.7423 5738339
1384.7246 294.90555 1616.1187 7975554
1375.3053 290.88116 1594.0646 6461544
1392.6755 292.53915 1603.1504 5868893
1368.6731 285.54309 1564.8113 6855276
1377.9763 285.54309 1564.8113 7250032
1443.928 297.203 1628.709 2908205
1453.6111 297.203 1628.709 6789480
1416.8484 287.76962 1577.0128 5802834
1415.3373 285.57297 1564.975 2643231
1432.3076 287.10965 1573.3961 2843172
1455.525 289.87048 1588.526 4225088
1468.6794 290.60461 1592.5491 8567428
1473.1639 289.62485 1587.1798 6000986
1463.0588 285.8075 1566.2601 4750919
1464.629 284.30472 1558.0248 7711094
1473.8048 284.2879 1557.9326 9815442
1479.4294 283.59058 1554.1113 3894325
1488.6691 283.59058 1554.1113 4486974
1479.9541 280.19138 1535.4832 4815940
1450.8551 272.99826 1496.064 3631669
0 0 0 0
0 0 0 0
0 0 0 0
0 0 0 0
0 0 0 0
0 0 0 0
0 0 0 0
0 0 0 0
0 0 0 0
0 0 0 0
0 0 0 0
0 0 0 0
-1755.9963 386.79288 2052.7908 2449979
-1804.8859 400.34418 2124.7104 3568463
-1801.577 402.42679 2135.7632 4555357
-1788.8793 402.42679 2135.7632 4292187
-1776.1816 402.42679 2135.7632 4555361
-1762.9843 402.31274 2135.158 4489313
-1817.8068 417.83179 2217.5208 4554849
-1816.0956 420.48813 2231.6184 4686692
-1784.8385 416.29224 2209.3501 5475952
-1756.0438 412.61282 2189.8225 5147243
-1692.7889 400.72086 2126.7095 3436627
-1647.3466 392.89828 2085.1934 3173713
-1650.2301 396.57047 2104.6824 3305298
-1667.7234 403.83636 2143.2441 6857861
-1663.437 405.89966 2154.1946 3699800
-1650.6298 405.89966 2154.1946 4949097
-1682.5922 416.9949 2213.0793 3962715
-1669.4349 416.9949 2213.0793 3436627
-1627.5439 409.7608 2174.6863 3831384
-1550.7158 393.54434 2088.6223 5015912
-1519.7451 388.79785 2063.4316 3370315
-1515.8483 390.95682 2074.8896 5475433
-1514.3777 393.78201 2089.8838 4950116
-1501.9526 393.78201 2089.8838 4423259
-1516.0087 400.78275 2127.0378 7515273
-1508.9778 402.27963 2134.9822 4685918
-1461.4205 392.90631 2085.2361 7054466
-1428.8401 387.43359 2056.1912 5409640
-1416.6154 387.43359 2056.1912 4423253
-1351.02 372.71002 1978.0502 5279072
0 0 0 0
-1288.902 361.87326 1920.5371 5214295
-1280.3743 362.69199 1924.8823 5016401
-1266.0658 361.87326 1920.5371 5345624
-1242.2083 358.2854 1901.4956 7582585
-1188.3298 345.89331 1835.7283 7779715
-1233.2921 362.30823 1922.8457 6004330
-1196.1257 354.67737 1882.3472 7649154
-1141.4684 341.66696 1813.2981 5873253
-1205.252 364.19849 1932.8777 4361290
-1231.1154 375.59491 1993.3608 3900993
-1221.1118 376.16406 1996.3813 3374388
-1204.5691 374.71021 1988.6655 4098622
-1192.746 374.71021 1988.6655 4822855
-1180.9229 374.71021 1988.6655 5019982
-1179.351 377.99585 2006.1031 1532955
-1170.2366 378.90646 2010.936 5348186
-1160.7938 379.72852 2015.2987 2913589
-1143.3209 377.91342 2005.6656 4492364
-1131.3967 377.91342 2005.6656 5084757
-1140.641 385.05951 2043.5914 4887121
-1141.2023 389.3967 2066.6099 5676125
-1127.4817 388.9021 2063.9849 5676125
-1064.8943 371.35547 1970.8612 6926192
-1053.177 371.35547 1970.8612 3834178
-1045.0272 372.62756 1977.6125 5676126
-1036.9606 373.95859 1984.6765 3307578
-1030.114 375.76529 1994.2651 5412951
-1033.6266 381.43689 2024.3655 4623691
-1014.8537 378.9213 2011.0146 6991980
-1030.2911 389.2713 2065.9443 3900475
-1006.2816 384.78705 2042.1455 5676374
-977.16083 378.21503 2007.2662 5084239
-965.22711 378.21503 2007.2662 5150545
-953.29333 378.21503 2007.2662 5610586
-919.29572 369.35031 1960.2195 4426567
-905.28223 368.3902 1955.1239 6203234
-893.65857 368.3902 1955.1239 3505717
-898.75067 375.37177 1992.1766 4361028
-879.45001 372.21582 1975.4274 5217106
-864.56287 370.86771 1968.2726 4164164
-841.97638 366.13458 1943.1528 3505976
-830.42383 366.13458 1943.1528 4623944
-818.87122 366.13458 1943.1528 4098111
-814.25256 369.27924 1959.8423 3111215
-790.82495 363.86115 1931.0874 3966266
-776.42828 362.49982 1923.8624 5084748
-765.65912 362.81668 1925.5442 6400867
-753.70258 362.57202 1924.2456 3374402
-742.26239 362.57202 1924.2456 4953177
-724.35815 359.36505 1907.2257 2979128
-735.71094 370.80188 1967.9232 4952916
-715.36542 366.37399 1944.4235 4952665
-703.8053 366.37399 1944.4235 4491601
-692.24518 366.37399 1944.4235 1925674
-688.88232 370.78613 1967.8396 4755028
-677.18292 370.78613 1967.8396 5609569
-656.14337 365.58206 1940.2206 3767623
-644.60828 365.58206 1940.2206 3043902
-633.07312 365.58206 1940.2206 3768140
-643.13885 378.28748 2007.6509 4162898
-631.20282 378.28748 2007.6509 4886363
-628.51404 383.93631 2037.6305 5741924
-589.57764 367.22964 1948.9646 3767878
-586.3291 372.52762 1977.0822 2780726
-562.83612 364.91681 1936.6899 3898440
-551.32196 364.91681 1936.6899 4754521
-550.91071 372.42252 1976.5243 3503942
-539.15973 372.42252 1976.5243 5215069
-502.14197 354.58075 1881.8342 2780472
0 0 0 0
-489.34879 361.66315 1919.4221 4950613
-480.70911 363.76062 1930.5538 4424271
-466.52582 361.66315 1919.4221 4556631
-460.16803 365.67917 1940.736 3964752
-445.7117 363.3006 1928.1124 3767374
-434.2485 363.3006 1928.1124 3767375
-427.27957 367.16251 1948.6083 4754777
-416.37836 367.76648 1951.8137 4162636
-402.32028 365.53683 1939.9805 5280602
-391.84973 366.53128 1945.2583 6267239
-378.90033 365.19705 1938.1772 1990181
-367.37729 365.19705 1938.1772 2451499
-354.6319 363.94257 1931.5194 3963710
-343.57608 364.39606 1933.9263 6791779
-329.53888 361.60947 1919.1371 8830595
-328.32083 373.19418 1980.6196 2119454
-316.63525 373.30002 1981.1813 5740374
-304.77014 373.19418 1980.6196 6528870
-287.7146 366.4686 1944.9257 3831621
-278.61041 369.73181 1962.244 3568451
-263.67078 365.19772 1938.1808 1923625
-248.55022 359.98724 1910.5277 3437118
-226.41144 343.62613 1823.6958 6857590
-225.83298 359.98724 1910.5277 2910254
-210.27827 352.94431 1873.1493 6069099
-194.48004 344.68198 1829.2994 3041855
-179.21408 336.44009 1785.5581 5146457
-169.64702 338.53256 1796.6632 6133607
-158.42459 337.38095 1790.5514 3832903
-148.38248 338.75806 1797.86 3965001
-136.22034 335.1333 1778.6226 3043382
-125.9168 335.85574 1782.4568 5017170
-116.34666 338.84695 1798.3318 4358985
-106.38161 341.17703 1810.698 4359500
-97.210632 346.86514 1840.886 2056230
-85.312973 343.03293 1820.5476 3701050
-74.489311 343.03293 1820.5476 2055709
-63.145935 340.2327 1805.6862 7450230
-51.920895 337.0535 1788.8135 4489541
-41.2859 337.0535 1788.8135 3437365
-32.946365 362.29556 1922.7784 5213774
-21.39122 360.21274 1911.7244 2253345
-9.7210855 349.27563 1853.6791 6592870
1.3011676 349.70966 1855.9824 5935703
12.208732 346.11581 1836.9092 3765809
22.713362 339.88617 1803.847 6594909
34.103134 346.64975 1839.7428 6857570
43.993057 338.58508 1796.942 6002264
54.67638 338.58508 1796.942 6528352
64.797775 335.67413 1781.4929 6922597
77.542976 345.26373 1832.3868 8107129
90.207344 352.17517 1869.0673 8633731
99.331078 345.26373 1832.3868 4882247
106.72766 334.30847 1774.245 5673047
118.11517 336.70047 1786.9399 7120239
130.29575 340.77188 1808.5477 5673563
142.40224 344.04355 1825.9111 6200163
154.0607 345.84598 1835.4771 8502915
165.13336 346.18188 1837.2599 5541716
180.43095 354.78366 1882.9113 5672788
187.29362 346.76367 1840.3474 7778163
198.235 346.76367 1840.3474 5936218
214.49503 355.58072 1887.1412 6725477
228.10294 359.34317 1907.1094 7053160
236.47697 354.89453 1883.4996 7973746
0 0 0 0
248.36836 340.49374 1807.0715 7316844
0 0 0 0
274.60306 346.48407 1838.8635 4030022
0 0 0 0
0 0 0 0
0 0 0 0
0 0 0 0
0 0 0 0
0 0 0 0
325.21579 320.91187 1703.1465 7188858
329.49402 315.31604 1673.4482 5741667
336.19275 312.29669 1657.424 5083483
349.39224 315.31604 1673.4482 4754007
349.59314 306.76212 1628.0509 2450482
365.3093 311.91675 1655.4075 6200684
377.88721 314.19162 1667.4807 5609063
389.3689 315.46204 1674.2231 6660976
395.90765 312.76422 1659.9053 5674337
405.77625 312.76422 1659.9053 5017442
433.2551 326.01559 1730.233 4425304
441.99179 324.87625 1724.1863 1726250
449.0816 322.60553 1712.1351 2779449
454.17941 319.03619 1693.1919 4817749
467.2608 321.10806 1704.1877 3238459
482.80829 324.75076 1723.5204 3371068
493.05511 324.75076 1723.5204 3371573
504.61456 325.59775 1728.0154 5739859
521.30432 329.65515 1749.5488 6002517
525.16162 325.59775 1728.0154 3568435
535.46094 325.61343 1728.0986 3897659
545.73499 325.61343 1728.0986 3897919
551.70343 323.09198 1714.7168 4293448
558.19324 320.96176 1703.4114 4030020
568.3205 320.96176 1703.4114 5411680
571.05328 316.85883 1681.6362 3372348
581.05109 316.85883 1681.6362 2121771
590.41827 316.52075 1679.842 1924909
603.31036 318.05222 1687.9697 2517046
613.34583 318.05222 1687.9697 3042877
607.88336 310.14511 1646.005 5607266
622.96027 312.80182 1660.1047 3435582
632.3703 312.57455 1658.8987 5802839
642.69989 312.80182 1660.1047 3963457
652.09552 312.57455 1658.8987 4883789
635.96069 300.29865 1593.7478 3502135
642.87579 299.10748 1587.426 8304772
643.35358 294.99905 1565.6218 7318131
645.89716 291.94156 1549.395 5277262
653.65717 291.29471 1545.9619 6921057
707.51294 310.92294 1650.1332 6723933
723.32721 313.52527 1663.9443 6987360
727.13391 310.92294 1650.1332 6067031
743.11249 313.52527 1663.9443 8172664
747.27734 311.14047 1651.2876 6791522
740.74213 304.4201 1615.6212 7186276
750.34747 304.4201 1615.6212 6923358
794.9032 318.4205 1689.9242 5738574
804.95038 318.4205 1689.9242 4620352
820.71594 320.65469 1701.7817 8107124
814.10571 314.19873 1667.5186 8764797
822.16895 313.49307 1663.7734 6001485
818.65515 308.44238 1636.9684 6066510
826.992 307.92285 1634.2111 6066514
832.32812 306.311 1625.6566 5145670
850.46045 309.39139 1642.0049 2513951
877.26904 315.52234 1674.5432 4358207
