# .PCD v0.7 - Point Cloud Data file format
VERSION 0.7
FIELDS x y z rgb
SIZE 4 4 4 4
TYPE F F F U
COUNT 1 1 1 1
WIDTH 1326
HEIGHT 1
VIEWPOINT 0 0 0 1 0 0 0
POINTS 1326
DATA ascii
-477.74179 -137.40918 2782.2273 135424
-471.0452 -140.34222 2841.615 2560
-454.15103 -140.34222 2841.615 1792
-432.63544 -138.85895 2811.5818 1536
-415.43524 -138.69716 2808.3062 1536
-406.1593 -141.27821 2860.5667 662023
-389.24918 -141.31334 2861.2776 926215
-372.57373 -141.44077 2863.8577 2048
-358.6203 -142.66324 2888.6101 4350255
-340.73236 -142.36476 2882.5667 3626528
-319.98615 -140.77719 2850.4219 1718282
-302.16589 -140.37132 2842.2039 1454603
-287.05823 -141.25212 2860.0383 993545
-273.08157 -142.83543 2892.0967 4608
-255.92682 -142.85753 2892.5439 1981448
-238.56314 -142.75777 2890.5242 1850632
-218.96175 -141.19951 2858.9729 3956259
-205.45459 -143.63965 2908.3801 70144
-185.37007 -141.50723 2865.2039 664580
-166.90443 -140.30414 2840.8435 3840
-148.65199 -139.02953 2815.0356 268034
-135.45917 -142.76395 2890.6492 2111763
-118.27346 -142.76395 2890.6492 862727
-101.08774 -142.76395 2890.6492 797955
-84.352547 -143.53052 2906.1707 2047511
-67.943108 -145.38911 2943.803 336899
-50.768085 -146.33078 2962.8696 140544
-33.153 -146.33078 2962.8696 3299613
-15.578301 -146.71112 2970.5708 3826209
2.0557313 -144.82053 2932.2903 3496476
19.81287 -147.22707 2981.0176 1587462
37.535851 -147.22707 2981.0176 2375448
55.26693 -147.24866 2981.4546 2304
72.776566 -146.81303 2972.634 1792
90.718086 -147.24866 2981.4546 1280
109.41696 -148.57024 3008.2136 1024
127.1901 -148.44008 3005.5781 768
144.89478 -148.27193 3002.1733 768
162.15186 -147.73285 2991.2585 768
179.93571 -147.73285 2991.2585 768
198.39598 -148.23825 3001.4917 768
218.28224 -149.63779 3029.8291 768
236.29541 -149.63779 3029.8291 1024
255.58954 -150.39149 3045.0901 1536
273.69345 -150.39149 3045.0901 1280
288.9263 -148.91177 3015.1292 1536
306.85208 -148.91177 3015.1292 2048
326.7291 -149.80641 3033.2434 2048
343.26974 -149.15775 3020.1094 1280
361.22513 -149.15775 3020.1094 1536
379.18051 -149.15775 3020.1094 1024
402.2298 -151.07094 3058.8472 1280
421.52396 -151.46924 3066.9119 1280
439.75757 -151.46924 3066.9119 1792
461.78082 -152.72255 3092.2888 3584
475.45645 -151.22484 3061.9631 1057551
499.9064 -153.13809 3100.7026 68609
529.34436 -156.38895 3166.5249 1977373
533.49426 -152.202 3081.7485 1024
524.41901 -144.64532 2928.7429 1024
554.54633 -148.0397 2997.4717 768
595.13965 -153.9297 3116.7307 1024
618.6803 -155.1866 3142.1799 768
638.49347 -155.46222 3147.7607 1024
664.57086 -157.20396 3183.0271 1024
682.27032 -156.92232 3177.3245 1280
685.84912 -153.49559 3107.9409 1024
700.00397 -152.55353 3088.8665 1024
719.9848 -152.89685 3095.8179 1024
738.73553 -152.96834 3097.2651 1024
757.14966 -152.96834 3097.2651 512
762.96606 -150.48363 3046.9556 512
799.96637 -154.12207 3120.626 512
819.18976 -154.24832 3123.1821 512
844.16498 -155.42796 3147.0674 768
877.64642 -158.0887 3200.9412 1024
886.60052 -156.31218 3164.9705 1280
895.66937 -154.6293 3130.8962 2560
914.28339 -154.6293 3130.8962 2816
928.11194 -153.83611 3114.8357 268545
955.92438 -155.34644 3145.4165 862216
978.59521 -155.97929 3158.2305 2309662
1024.7529 -160.26146 3244.9346 69121
1062.1626 -163.04251 3301.2446 2816
1083.295 -163.26942 3305.8394 1792
1099.7314 -162.79311 3296.1948 1536
1114.2994 -162.06174 3281.3862 69121
1135.1559 -162.25435 3285.2864 4352
1158.0731 -162.73006 3294.9182 202242
1180.7439 -163.15588 3303.54 269314
1198.5737 -162.90976 3298.5569 2702117
1206.77 -161.38329 3267.6492 2175262
1234.0408 -162.41562 3288.5515 1536
1265.7159 -163.98639 3320.356 2816
1284.5323 -163.86852 3317.9692 2048
1295.8042 -162.80627 3296.4614 1024
1340.9037 -165.96254 3360.3687 1536
1365.7922 -166.56136 3372.4932 1024
1380.8604 -165.96254 3360.3687 3328
1398.2053 -165.65054 3354.0515 332291
1419.4719 -165.80542 3357.1873 397573
1460.6603 -168.25073 3406.6995 1280
1480.9141 -168.25073 3406.6995 1280
1495.7556 -167.64413 3394.4172 1280
1508.0582 -166.7729 3376.7769 3072
1515.7765 -165.42426 3349.4697 2304
1554.2141 -167.41966 3389.8723 1280
1607.8741 -170.98276 3462.0168 1792
1628.4567 -170.98276 3462.0168 2304
1632.974 -169.31699 3428.2888 334852
1653.3561 -169.31699 3428.2888 1716504
1685.2103 -170.47751 3451.7869 1980187
1679.8066 -167.88643 3399.323 1321997
1728.5787 -170.70709 3456.4353 5632
1752.8849 -171.07375 3463.8591 3584
1801.6805 -173.79417 3518.9417 71424
1743.3878 -166.24075 3366.0017 2244375
1767.6331 -166.63982 3374.0823 3627298
1806.7946 -168.42039 3410.1348 3430942
1827.0687 -168.42039 3410.1348 2245902
1837.0726 -167.48405 3391.176 2968597
1868.2329 -168.47592 3411.259 531972
1886.9349 -168.33507 3408.407 138240
1888.542 -166.68835 3375.0649 1718030
1922.4581 -167.89798 3399.5571 1126152
1934.5293 -167.19446 3385.3125 1654030
1954.6559 -167.19446 3385.3125 2837531
1984.661 -168.03082 3402.2468 1127938
2004.8883 -168.03082 3402.2468 3035680
2027.4982 -168.22853 3406.2498 1190919
2047.7493 -168.22853 3406.2498 1654027
2122.1038 -172.62973 3495.3645 3429921
2159.9675 -174.00594 3523.2292 4219181
2199.926 -175.52283 3553.9429 3822633
2255.7756 -178.26665 3609.4993 512
2337.9624 -183.02049 3705.7539 1024
2359.9941 -183.02049 3705.7539 256
2445.1821 -187.87306 3804.0076 512
2467.7983 -187.87306 3804.0076 256
2448.4001 -184.7036 3739.833 256
2453.3489 -183.41133 3713.6675 256
2475.6753 -183.42967 3714.0388 256
2490.019 -182.86147 3702.5342 256
2508.4255 -182.59897 3697.219 512
2526.531 -182.31931 3691.5566 512
2545.2573 -182.08887 3686.8906 512
2598.3699 -184.30136 3731.6887 768
2620.5557 -184.30136 3731.6887 768
2632.0933 -183.55876 3716.6526 768
2639.3855 -182.53493 3695.9224 768
2661.3589 -182.53493 3695.9224 768
2700.8342 -183.72552 3720.0291 1024
2722.9509 -183.72552 3720.0291 768
2745.0674 -183.72552 3720.0291 512
2764.1023 -183.5209 3715.8862 768
2799.4648 -184.39502 3733.585 1024
2757.5432 -180.20486 3648.7437 1024
2779.2358 -180.20486 3648.7437 1024
2851.6917 -183.47081 3714.8718 67073
2939.0674 -187.6391 3799.2705 768
2953.6985 -187.13501 3789.0637 1024
2925.0488 -183.91721 3723.9104 1024
2916.5391 -182.00453 3685.1831 1024
2984.4099 -184.85133 3742.8245 768
3013.8203 -185.29143 3751.7354 1024
3054.4878 -186.41206 3774.4258 1280
3127.4302 -189.47169 3836.3762 1280
3144.6338 -189.13461 3829.5513 1024
3145.3184 -187.81593 3802.8511 2304
3147.2327 -186.58904 3778.0088 1024
3146.6555 -185.23285 3750.5493 1024
3175.2405 -185.60033 3757.9897 1024
3226.5376 -187.28098 3792.019 1024
3209.4683 -184.99759 3745.7856 1024
3193.2759 -182.79587 3701.2056 768
3215.2805 -182.79587 3701.2056 768
3306.7515 -186.71832 3780.6267 512
3355.78 -188.20746 3810.7783 256
3340.3804 -186.08743 3767.8525 512
3366.4146 -186.2885 3771.9236 512
3371.4697 -185.33363 3752.5898 512
3394.5234 -185.37425 3753.4124 512
3416.8389 -185.37425 3753.4124 512
3432.9587 -185.04033 3746.6511 1024
3455.2336 -185.04033 3746.6511 768
3475.3259 -184.92419 3744.2996 768
3431.262 -181.41748 3673.2964 768
3509.7446 -184.39339 3733.552 1024
3569.5793 -186.35837 3773.3384 1024
3592.0127 -186.35837 3773.3384 1281
3633.1775 -187.32413 3792.8928 2818
3649.7559 -187.01814 3786.6975 595468
3672.269 -187.01814 3786.6975 67841
0 0 0 0
0 0 0 0
0 0 0 0
0 0 0 0
0 0 0 0
0 0 0 0
0 0 0 0
0 0 0 0
0 0 0 0
0 0 0 0
-2141.4502 -107.26371 2469.0725 1794
-2146.8301 -108.27538 2492.3601 1280
-2142.9448 -108.8306 2505.1404 1024
-2110.9312 -107.95507 2484.9868 768
-2096.157 -107.95507 2484.9868 768
-2135.7759 -110.77625 2549.9268 512
-2111.0183 -110.27489 2538.3862 256
-2095.9268 -110.27489 2538.3862 512
-2105.1975 -111.56598 2568.1052 768
-2103.438 -112.2871 2584.7046 768
-2097.0222 -112.76845 2595.7847 1024
-2096.8083 -113.59292 2614.7627 1024
-2081.9873 -113.63246 2615.6731 661259
-2073.6174 -114.02734 2624.7625 1280
-2047.9366 -113.46906 2611.9119 1792
-2040.2712 -113.90806 2622.0171 595464
-2015.874 -113.4125 2610.6099 2046239
-1986.3151 -112.61658 2592.2891 1059600
-1970.9032 -112.61658 2592.2891 862220
-1946.5073 -112.0992 2580.3794 730376
-1908.0544 -110.75762 2549.4978 6912
-1877.9514 -109.88313 2529.3682 6400
-1851.6185 -109.21689 2514.0322 992268
-1829.905 -108.8145 2504.7698 398853
-1829.8962 -109.70676 2525.3083 2560
-1816.2301 -109.78822 2527.1833 2304
-1797.6259 -109.57003 2522.1611 69376
-1769.7042 -108.77548 2503.8718 5376
-1754.818 -108.77548 2503.8718 332545
-1736.3646 -108.55249 2498.7385 6127676
-1723.1919 -108.65862 2501.1814 7444569
-1708.3217 -108.65862 2501.1814 2773022
-1696.5142 -108.85512 2505.7048 2816
-1722.2073 -111.48262 2566.1865 2560
-1706.5955 -111.45943 2565.6526 1792
-1691.6938 -111.48262 2566.1865 2304
-1675.72 -111.43493 2565.0886 136704
-1660.6013 -111.44376 2565.292 333826
-1656.186 -112.1777 2582.1865 67328
-1647.3416 -112.62259 2592.427 3584
-1659.7792 -114.5446 2636.6692 70912
-1642.9437 -114.46379 2634.8093 1255953
-1637.8337 -115.20622 2651.8989 596998
-1635.0123 -116.12562 2673.0623 2048
-1621.1624 -116.2721 2676.4341 202241
-1600.8221 -115.95135 2669.0508 597255
-1584.9537 -115.95135 2669.0508 135169
-1585.1927 -117.14163 2696.4495 2048
-1543.5986 -115.23329 2652.522 1792
-1527.8286 -115.23329 2652.522 1536
-1512.0586 -115.23329 2652.522 3584
-1505.6523 -115.95441 2669.1213 1792
-1476.9803 -114.95789 2646.1826 2304
-1480.3019 -116.45686 2680.6873 663560
-1477.2533 -117.4819 2704.282 2509340
-1443.6515 -116.07291 2671.8489 2314010
-1427.7665 -116.07291 2671.8489 2642976
-1420.6716 -116.79555 2688.4832 2181657
-1392.7401 -115.80212 2665.6157 2179349
-1379.0715 -115.98541 2669.835 1190919
-1370.1333 -116.57543 2683.4165 928003
-1379.3674 -118.74374 2733.3281 2309910
-1368.3857 -119.20271 2743.8928 3099424
-1345.0056 -118.57967 2729.5513 862467
-1355.8556 -120.99609 2785.1743 3692568
-1354.6274 -122.3811 2817.0552 6326073
-1332.4722 -121.88648 2805.6699 4944679
-1321.1311 -122.3811 2817.0552 137472
-1322.3849 -124.07008 2855.9338 3891998
-1294.6145 -123.04448 2832.3254 2181130
-1272.9198 -122.57688 2821.562 3035922
-1265.2957 -123.46985 2842.1169 1391364
-1259.3 -124.54804 2866.9355 3297820
-1240.6537 -124.38746 2863.2393 2115089
-1223.631 -124.38746 2863.2393 1981453
-1209.6 -124.69586 2870.3384 2048
-1189.2462 -124.35199 2862.4226 1792
-1172.2283 -124.35199 2862.4226 2242074
-1129.2614 -121.55871 2798.125 1520910
-1108.8894 -121.15051 2788.7288 1325578
-1092.3097 -121.15051 2788.7288 467457
-1078.4225 -121.45374 2795.709 2905124
-1055.2173 -120.70066 2778.3738 864262
-1032.4445 -119.97384 2761.6433 2560
-1007.4356 -118.9595 2738.2947 2560
-978.16547 -117.40041 2702.4065 398594
-967.81952 -118.09846 2718.4746 2507547
-955.724 -118.60313 2730.0913 4352
-948.68854 -119.76401 2756.8132 1521167
-932.29852 -119.76401 2756.8132 1127687
-911.47461 -119.18423 2743.4675 2179351
-888.87384 -118.34675 2724.1897 1387792
-872.67767 -118.34675 2724.1897 2304
-876.15863 -121.06567 2786.7759 1536
-858.46149 -120.90666 2783.1157 1518603
-841.91516 -120.90666 2783.1157 1124358
-816.48413 -119.60517 2753.1572 1280
-803.17542 -120.06254 2763.6851 1585419
-787.54883 -120.18526 2766.5103 599296
-782.74457 -122.00002 2808.2837 1518603
-767.15338 -122.17599 2812.334 3690533
-756.69702 -123.19578 2835.8083 1792
-739.8374 -123.19578 2835.8083 1024
-719.35693 -122.5788 2821.6062 4096
-701.95679 -122.46977 2819.0964 1792
-682.43585 -121.97635 2807.7385 2304
-663.89026 -121.63688 2799.9243 3328
-631.74316 -118.72381 2732.8691 2560
-627.69446 -121.0769 2787.0342 992522
-608.48834 -120.55456 2775.0107 1914387
-591.66711 -120.48876 2773.4963 1323018
-575.49194 -120.55456 2775.0107 70656
-562.57501 -121.32692 2792.7896 4096
-542.41864 -120.53747 2774.6174 5376
-526.07452 -120.57224 2775.418 334338
-514.88226 -121.82829 2804.3303 3328
-498.93652 -122.00602 2808.4214 1125390
-482.07996 -121.9656 2807.4912 6144
-471.0452 -123.44804 2841.615 70656
-454.15103 -123.44804 2841.615 2048
-435.02371 -122.81757 2827.1025 1792
-415.91977 -122.1433 2811.5818 69121
-404.52542 -123.77144 2849.0593 1792
-389.60016 -124.41432 2863.8577 1792
-373.7814 -124.8176 2873.1406 2175513
-357.83456 -125.21469 2882.281 334848
-337.04514 -123.87196 2851.3733 335104
-318.01883 -123.06931 2832.8972 1386251
-302.16589 -123.47362 2842.2039 2241047
-285.70023 -123.66061 2846.5083 3072
-275.96741 -126.96885 2922.6597 199682
-255.88724 -125.64111 2892.0967 2310163
-238.56314 -125.5728 2890.5242 1852428
-220.27783 -124.94865 2876.1572 2180879
-204.15463 -125.54908 2889.9783 468992
-186.9729 -125.54908 2889.9783 1324041
-168.33565 -124.47281 2865.2039 6656
-150.10847 -123.49157 2842.6169 4352
-135.86197 -125.95164 2899.2446 268802
-118.62515 -125.95164 2899.2446 3362594
-102.12141 -126.86231 2920.207 203008
-84.759956 -126.86231 2920.207 600579
-67.943108 -127.88738 2943.803 1654032
-50.768085 -128.7157 2962.8696 863751
-33.153 -128.7157 2962.8696 1257224
-15.597202 -129.20682 2974.1748 1128451
2.0850949 -129.20682 2974.1748 797953
20.024523 -130.88753 3012.8623 2706971
37.588688 -129.68639 2985.2139 2310937
55.33662 -129.68639 2985.2139 598276
72.992508 -129.52309 2981.4546 1536
90.718086 -129.52309 2981.4546 1280
110.47064 -131.94406 3037.1826 1024
129.27765 -132.71411 3054.9082 1024
144.89478 -130.42316 3002.1733 1024
162.15186 -129.94899 2991.2585 768
179.93571 -129.94899 2991.2585 1024
198.25209 -130.29897 2999.3147 768
219.63689 -132.44145 3048.6318 1024
240.57057 -134.00601 3084.646 2049
262.03104 -135.62158 3121.8342 2560
279.64322 -135.16338 3111.2869 1280
293.38461 -133.00717 3061.6541 1024
310.85931 -132.69656 3054.5039 1792
329.0192 -132.69656 3054.5039 1536
347.66257 -132.88138 3058.7581 2561
366.91489 -133.26897 3067.6799 136453
385.15308 -133.26897 3067.6799 728079
402.24686 -132.89087 3058.9768 1280
426.6752 -134.86382 3104.3914 2304
439.04797 -133.02061 3061.9631 1536
457.25223 -133.02061 3061.9631 1781530
475.07108 -132.9128 3059.4814 69889
496.85052 -133.88014 3081.7485 466692
524.10193 -136.2007 3135.1648 1716759
557.81488 -139.98338 3222.2373 1057296
576.97192 -139.98338 3222.2373 1024
557.61841 -130.94029 3014.0771 768
595.49274 -135.48019 3118.5798 768
619.77917 -136.74791 3147.7607 768
641.45239 -137.38162 3162.3481 1024
664.57086 -138.27997 3183.0271 1024
680.25555 -137.62462 3167.9417 1024
692.35846 -136.29947 3137.4382 1024
708.71515 -135.85927 3127.3057 1024
725.69244 -135.55753 3120.3599 1024
742.49097 -135.23825 3113.0105 1024
757.65698 -134.64439 3099.3406 512
781.84875 -135.64462 3122.3647 512
800.62158 -135.68013 3123.1821 512
825.45471 -136.71779 3147.0674 512
849.3927 -137.56447 3166.5569 768
887.88385 -140.68028 3238.2788 1024
889.7793 -137.98851 3176.3181 1280
906.48358 -137.65749 3168.6982 1792
916.02454 -136.27428 3136.8586 2816
926.18823 -135.03706 3108.3796 1849369
944.66852 -135.03706 3108.3796 3033642
995.74103 -139.60666 3213.5654 661000
1042.5358 -143.41568 3301.2446 137728
1063.3679 -143.57843 3304.991 201475
1083.0171 -143.57843 3304.991 2560
1098.8538 -143.08205 3293.5645 2560
1114.2994 -142.55298 3281.3862 69635
1135.1559 -142.72243 3285.2864 400904
1166.8862 -144.23018 3319.9932 1650968
1186.6245 -144.23018 3319.9932 2243105
1206.3628 -144.23018 3319.9932 70145
1225.6381 -144.17572 3318.7395 1280
1249.778 -144.68614 3330.4888 1024
1269.5786 -144.68614 3330.4888 1280
1289.3793 -144.68614 3330.4888 1792
1298.0649 -143.45775 3302.2126 595462
1333.1736 -145.14262 3340.9966 1122832
1374.4979 -147.44481 3393.9897 1188624
1373.9678 -145.25552 3343.5952 793608
1398.2053 -145.70978 3354.0515 200961
1418.1461 -145.70978 3354.0515 2304
1464.4135 -148.37724 3415.4531 2560
1475.3459 -147.44051 3393.8909 1280
1495.7556 -147.46338 3394.4172 1280
1515.9364 -147.46338 3394.4172 135424
1523.6575 -146.26729 3366.8845 1792
1554.2141 -147.26593 3389.8723 1280
1607.8741 -150.40012 3462.0168 1792
1628.4567 -150.40012 3462.0168 2816
1646.7935 -150.19525 3457.3015 1024
1655.4376 -149.12236 3432.605 2637861
1685.2103 -149.95569 3451.7869 2374945
1679.8066 -147.6765 3399.323 335616
1726.2539 -149.95569 3451.7869 71936
1740.3456 -149.40366 3439.0801 4864
1760.7919 -149.40366 3439.0801 203521
1756.9762 -147.36867 3392.2371 1454352
1767.6331 -146.57997 3374.0823 203265
1796.7496 -147.32257 3391.176 1915916
1816.911 -147.32257 3391.176 2376971
1835.2268 -147.17455 3387.7686 3627035
1855.3679 -147.17455 3387.7686 1060869
1889.5089 -148.27312 3413.0564 1192193
1907.1989 -148.07114 3408.407 137728
1926.9697 -148.03326 3407.5352 2048014
1942.6694 -147.68668 3399.5571 2838306
1972.4408 -148.40598 3416.1145 4022056
1984.661 -147.80353 3402.2468 2113556
2004.8883 -147.80353 3402.2468 2560
2025.1156 -147.80353 3402.2468 3072
2061.0884 -148.94136 3428.4382 2244887
2129.6646 -152.38985 3507.8181 4154673
2212.8567 -156.80717 3609.4993 5799498
2234.3162 -156.80717 3609.4993 3758377
2282.1638 -158.64151 3651.7234 134146
2365.9111 -162.91328 3750.0542 4480834
2399.8799 -163.70959 3768.3843 3952960
2452.5322 -165.75392 3815.4419 768
2500.2742 -167.43195 3854.0679 512
2479.7266 -164.54799 3787.6829 512
2456.2292 -161.52194 3718.0273 512
2487.0725 -162.09148 3731.1372 512
2506.3091 -161.90118 3726.7568 512
2513.6287 -160.95114 3704.8882 512
2534.0442 -160.84888 3702.5342 512
2548.4785 -160.37198 3691.5566 512
2588.4626 -161.49731 3717.4604 768
2611.4285 -161.55081 3718.6917 512
2633.5371 -161.55081 3718.6917 512
2655.6458 -161.55081 3718.6917 512
2699.6904 -162.87422 3749.155 512
2728.0923 -163.23993 3757.5732 256
2771.7593 -164.50572 3786.71 256
2780.7151 -163.70757 3768.3376 256
2796.7766 -163.33716 3759.8113 256
2817.6523 -163.25159 3757.8413 256
2803.824 -161.17242 3709.9817 512
2788.0459 -159.01453 3660.3098 512
2851.6917 -161.38486 3714.8718 512
2873.7776 -161.38486 3714.8718 768
2882.6379 -160.64781 3697.9058 768
2904.623 -160.64781 3697.9058 768
2916.5391 -160.09509 3685.1831 768
2990.0222 -162.90498 3749.863 768
3017.2488 -163.17174 3756.0034 768
3079.2437 -165.30103 3805.0168 768
3126.3848 -166.60767 3835.0942 768
3138.207 -166.02686 3821.7246 768
3148.7847 -165.38902 3807.0422 768
3167.927 -165.20694 3802.8511 768
3180.6169 -164.69333 3791.0283 768
3244.2773 -166.80763 3839.697 512
3267.1055 -166.80763 3839.697 512
3289.9333 -166.80763 3839.697 512
3285.5886 -165.43938 3808.2017 512
3302.6819 -165.16197 3801.8159 512
3295.5786 -163.68649 3767.8525 512
3368.8887 -166.19801 3825.6643 512
3386.4336 -165.94321 3819.7991 512
3409.1433 -165.94321 3819.7991 512
3388.8398 -163.86336 3771.9236 512
3394.5234 -163.05917 3753.4124 512
3416.8389 -163.05917 3753.4124 512
3430.8042 -162.66328 3744.2996 512
3474.9932 -163.69626 3768.0771 768
3503.0586 -163.96133 3774.179 1024
3431.262 -159.5787 3673.2964 1024
3501.8291 -161.8306 3725.1321 2304
3552.6404 -163.14694 3755.4326 793104
3574.9675 -163.14694 3755.4326 990227
3633.1775 -164.77432 3792.8928 133122
3774.4216 -170.12422 3916.0405 1024
3655.9004 -163.77191 3769.8186 769
0 0 0 0
0 0 0 0
0 0 0 0
0 0 0 0
0 0 0 0
0 0 0 0
0 0 0 0
0 0 0 0
0 0 0 0
0 0 0 0
-2141.4502 -92.584389 2469.0725 398858
-2148.877 -93.546722 2494.7366 792848
-2134.0449 -93.546722 2494.7366 1024
-2110.9312 -93.181129 2484.9868 1024
-2107.8538 -93.70108 2498.853 768
-2130.3433 -95.373016 2543.4407 512
-2119.7324 -95.576393 2548.8645 512
-2105.4556 -95.616226 2549.9268 512
-2111.385 -96.58091 2575.6533 768
-2115.2974 -97.466751 2599.2773 1024
-2097.0222 -97.335793 2595.7847 1280
-2084.3904 -97.466751 2599.2773 768
-2081.2629 -98.047417 2614.7627 397574
-2102.2405 -99.780952 2660.9932 1024
-2089.3933 -99.923141 2664.7852 2048
-2082.5305 -100.3559 2676.3259 333059
-2024.6826 -98.31945 2622.0171 2639399
-2009.094 -98.31945 2622.0171 2244383
-1971.3287 -97.2257 2592.8486 205569
-1955.9136 -97.2257 2592.8486 862990
-1931.1663 -96.758125 2580.3794 5120
-1890.9851 -95.503586 2546.9229 4352
-1869.9695 -95.204559 2538.9482 1792
-1849.9811 -94.953384 2532.2498 1792
-1835.3171 -94.973618 2532.7893 134656
-1820.259 -94.973618 2532.7893 3584
-1805.2009 -94.973618 2532.7893 3840
-1778.6844 -94.365707 2516.5774 4352
-1765.5288 -94.462341 2519.1545 70400
-1744.8844 -94.156525 2510.999 398853
-1723.1919 -93.788391 2501.1814 2048
-1708.3217 -93.788391 2501.1814 1792
-1740.6787 -96.403969 2570.9346 1792
-1728.5577 -96.580757 2575.6492 1792
-1713.2449 -96.580757 2575.6492 1792
-1698.025 -96.586052 2575.7903 2048
-1682.7111 -96.586052 2575.7903 3840
-1660.6013 -96.192383 2565.292 69376
-1665.1432 -97.349564 2596.1519 1321997
-1665.6063 -98.287704 2621.1707 1190923
-1659.7792 -98.868866 2636.6692 927754
-1644.1034 -98.868866 2636.6692 598788
-1650.173 -100.18913 2671.8782 729605
-1637.0746 -100.35995 2676.4341 664325
-1624.791 -100.58459 2682.4246 729353
-1603.2281 -100.23351 2673.0623 993037
-1608.3925 -101.56314 2708.5212 2048
-1593.3441 -101.63041 2710.3152 2048
-1576.0846 -101.55657 2708.3459 1536
-1559.9827 -101.55657 2708.3459 1280
-1531.0895 -100.71515 2685.9067 1280
-1515.121 -100.71515 2685.9067 1024
-1487.9397 -99.961868 2665.8176 1280
-1501.068 -101.92956 2718.2927 1536
-1484.907 -101.92956 2718.2927 3840
-1449.7042 -100.60808 2683.051 71168
-1433.7527 -100.60808 2683.051 1257738
-1433.8572 -101.74741 2713.4353 3232294
-1392.7401 -99.954292 2665.6157 400388
-1379.0715 -100.11251 2669.835 2560
-1395.6179 -102.49335 2733.3281 2304
-1376.0306 -102.24541 2726.7161 2816
-1359.8196 -102.24541 2726.7161 401920
-1360.8267 -103.55567 2761.6584 2574101
-1348.015 -103.83352 2769.0684 2509840
-1332.9885 -103.94553 2772.0554 2048273
-1322.8202 -104.44392 2785.3467 596227
-1306.2605 -104.44392 2785.3467 206336
-1322.3849 -107.09077 2855.9338 2245648
-1305.4056 -107.09077 2855.9338 2508311
-1272.9198 -105.8019 2821.562 200448
-1265.2957 -106.57267 2842.1169 2304
-1248.4469 -106.5768 2842.2271 2048
-1240.3656 -107.33977 2862.5742 2507284
-1229.1227 -107.84656 2876.0896 3100702
-1210.8306 -107.74042 2873.2588 465153
-1192.5349 -107.63091 2870.3384 2816
-1175.47 -107.63091 2870.3384 1189641
-1135.7913 -105.52979 2814.3052 2048535
-1108.8894 -104.57073 2788.7288 2970401
-1089.116 -104.26499 2780.575 864519
-1072.5846 -104.26499 2780.575 6912
-1057.4987 -104.40768 2784.3804 70144
-1040.9447 -104.40768 2784.3804 465925
-1024.3938 -104.40798 2784.3884 1792
-997.45618 -103.33229 2755.7014 2816
-971.9552 -102.37197 2730.0913 532226
-963.29535 -103.18297 2751.7192 2770720
-948.68854 -103.37398 2756.8132 2560
-932.29852 -103.37398 2756.8132 1654538
-918.88428 -103.70984 2765.77 1126665
-888.87384 -102.15068 2724.1897 994565
-874.04425 -102.31063 2728.4556 134400
-878.20782 -104.74191 2793.2935 2304
-849.22076 -103.23689 2753.1572 2048
-841.91516 -104.36026 2783.1157 528903
-818.55975 -103.49933 2760.156 4351023
-804.82782 -103.84486 2769.3708 1192456
-788.36316 -103.84486 2769.3708 71680
-780.78003 -105.03971 2801.2356 5632
-761.93134 -104.73804 2793.1904 858886
-754.1507 -105.97828 2826.2656 4612657
-737.34778 -105.97828 2826.2656 3429151
-716.96582 -105.45188 2812.2273 1536
-699.12866 -105.28356 2807.7385 1059077
-681.0448 -105.06895 2802.0154 2045461
-663.89026 -104.99055 2799.9243 4864
-634.37372 -102.90285 2744.249 4352
-618.05841 -102.90285 2744.249 1256717
-608.48834 -104.05634 2775.0107 1521421
-591.99011 -104.05634 2775.0107 5075780
-575.49194 -104.05634 2775.0107 4549438
-558.35919 -103.93822 2771.8606 1126668
-539.55017 -103.4914 2759.9446 927754
-527.41986 -104.33777 2782.5159 993547
-514.88226 -105.15576 2804.3303 3328
-501.31729 -105.81167 2821.8223 1980185
-486.4003 -106.21775 2832.6519 861450
-470.17542 -106.35709 2836.3679 992267
-455.24988 -106.81166 2848.4905 2560
-438.40231 -106.83299 2849.0593 2048
-421.4639 -106.83299 2849.0593 1792
-407.20242 -107.53997 2867.9133 4096
-389.60016 -107.38789 2863.8577 2304
-373.7814 -107.73598 2873.1406 2304
-357.87003 -108.08943 2882.5667 198658
-340.69858 -108.07873 2882.281 768
-320.09296 -106.91975 2851.3733 3625255
-300.33685 -105.93081 2824.9998 3888171
-285.00226 -106.47657 2839.5542 267008
-279.35919 -110.93977 2958.5806 137473
-255.74811 -108.38783 2890.5242 2836510
-240.75546 -109.38388 2917.0872 796421
-222.27893 -108.82884 2902.2854 337152
-205.02403 -108.82884 2902.2854 1258506
-186.9729 -108.36736 2889.9783 665093
-169.18758 -107.9821 2879.7043 1389070
-151.09268 -107.29029 2861.2549 1257479
-135.78497 -108.65321 2897.6016 2178569
-118.62515 -108.71483 2899.2446 2704655
-102.12141 -109.50087 2920.207 4942889
-84.759956 -109.50087 2920.207 66817
-67.943108 -110.38566 2943.803 2311960
-50.467098 -110.44193 2945.3037 1523469
-33.153 -111.10061 2962.8696 2445851
-15.633706 -111.78554 2981.1355 3696426
2.1121836 -112.9734 3012.814 6392394
20.035492 -113.0371 3014.5127 1914378
37.606567 -111.99171 2986.6338 2816
55.33662 -111.93847 2985.2139 3072
73.119308 -111.99171 2986.6338 1280
92.41375 -113.88717 3037.1826 1280
111.11537 -114.55183 3054.9082 1024
129.94766 -115.14552 3070.7407 1280
146.89325 -114.1271 3043.5811 68097
164.98819 -114.1271 3043.5811 1280
182.06915 -113.49503 3026.7249 1536
201.58655 -114.35883 3049.761 1280
222.90594 -116.01797 3094.0076 1911833
244.57358 -117.5916 3135.9736 333312
263.21783 -117.5916 3135.9736 2043928
280.17209 -116.88654 3117.1709 530435
297.90976 -116.57555 3108.8772 727814
315.97827 -116.42276 3104.8027 2816
334.43716 -116.42276 3104.8027 266756
353.14621 -116.50529 3107.0034 1846812
373.88272 -117.21523 3125.9363 68609
389.73999 -116.40069 3104.2139 134401
408.21875 -116.40734 3104.3914 1792
427.69324 -116.68509 3111.7983 664069
446.19376 -116.68509 3111.7983 597508
460.83142 -115.71513 3085.9312 466945
479.17816 -115.71513 3085.9312 1322508
501.46198 -116.63082 3110.3513 1258253
519.95386 -116.63082 3110.3513 1323278
557.81488 -120.82629 3222.2373 2111004
578.56689 -121.16029 3231.1448 1536
596.12903 -120.82629 3222.2373 1024
593.66254 -116.57996 3108.9951 768
620.17267 -118.10853 3149.7593 512
639.32251 -118.18685 3151.8479 512
661.42126 -118.79033 3167.9417 512
679.75586 -118.70306 3165.6145 512
693.38123 -117.82031 3142.073 512
709.60773 -117.41425 3131.2441 512
727.30786 -117.26657 3127.3057 512
745.90057 -117.26657 3127.3057 512
764.2937 -117.23595 3126.4893 512
783.47632 -117.32503 3128.8645 512
806.74457 -118.00758 3147.0674 512
830.56671 -118.7384 3166.5569 512
855.79236 -119.63302 3190.4148 1024
887.88385 -121.4278 3238.2788 1024
891.93311 -119.39273 3184.0068 1024
908.66345 -119.10442 3176.3181 1024
916.02454 -117.62479 3136.8586 1280
934.67401 -117.62479 3136.8586 1792
944.66852 -116.55689 3108.3796 2048
1011.2401 -122.37675 3263.5857 136194
1038.3846 -123.29597 3288.0999 1321747
1057.9333 -123.29597 3288.0999 794635
1079.2727 -123.50089 3293.5645 267780
1093.8726 -122.94104 3278.6343 3072
1113.365 -122.94104 3278.6343 1536
1135.1559 -123.19048 3285.2864 1280
1169.7078 -124.79292 3328.0208 1792
1189.3024 -124.77283 3327.4854 1055502
1232.2665 -127.16505 3391.282 1280
1252.4286 -127.16505 3391.282 1280
1263.7937 -126.286 3367.8391 1280
1276.6116 -125.57729 3348.9385 1280
1303.8392 -126.286 3367.8391 1536
1316.4324 -125.57729 3348.9385 200961
1332.8877 -125.2526 3340.28 3954996
1353.0107 -125.27707 3340.9324 2574109
1372.6055 -125.2526 3340.28 1388814
1407.2609 -126.58356 3375.7742 2768676
1437.625 -127.49651 3400.1211 67840
1453.5249 -127.11916 3390.0579 265729
1473.6798 -127.11916 3390.0579 1280
1495.5236 -127.26289 3393.8909 67585
1507.385 -126.56463 3375.2695 1536
1523.6575 -126.25021 3366.8845 1536
1555.3322 -127.20364 3392.311 1536
1596.6172 -128.90857 3437.7786 1280
1626.6356 -129.67227 3458.145 1792
1646.7935 -129.64064 3457.3015 1536
1667.3479 -129.64064 3457.3015 2702888
1675.8453 -128.71458 3432.605 992782
1685.9155 -127.93014 3411.6853 71424
1711.7924 -128.34952 3422.8696 3072
1732.1422 -128.34952 3422.8696 1792
1752.4921 -128.34952 3422.8696 2048
1756.9762 -127.20088 3392.2371 530436
1767.6331 -126.52011 3374.0823 1519882
1787.5033 -126.5067 3373.7246 927234
1800.947 -126.0438 3361.3799 927494
1811.7013 -125.40491 3344.3416 9216347
1855.3679 -127.03332 3387.7686 1517572
1906.6063 -129.1396 3443.9399 3494432
1909.8004 -127.98154 3413.0564 2048
1956.3259 -129.72108 3459.447 2048
1976.8933 -129.72108 3459.447 1792
1944.8116 -126.3019 3368.2629 727815
2011.0494 -129.27249 3447.4839 3072
2010.4878 -127.93253 3411.749 4096
2040.7054 -128.55833 3428.4382 928262
2061.0884 -128.55833 3428.4382 1455118
2246.2012 -138.73256 3699.7681 3232295
2268.1973 -138.73256 3699.7681 4613689
2274.6016 -137.78806 3674.5796 4613433
2297.5957 -137.8569 3676.416 1979163
2365.9111 -140.61818 3750.0542 1792
2399.8799 -141.30551 3768.3843 1280
2473.8684 -144.31473 3848.635 397829
2501.4153 -144.5844 3855.8269 768
2522.2666 -144.46568 3852.6609 768
2502.2454 -142.02916 3787.6829 512
2493.7815 -140.28624 3741.2021 512
2511.2727 -140.02133 3734.1372 512
2528.4658 -139.74458 3726.7568 512
2547.1277 -139.5531 3721.6504 512
2557.6819 -138.92455 3704.8882 768
2580.1309 -138.9473 3705.4949 768
2602.1611 -138.9473 3705.4949 768
2633.5371 -139.44215 3718.6917 768
2677.4009 -140.58446 3749.155 512
2705.7524 -140.90012 3757.5732 512
2753.5283 -142.21385 3792.6082 256
2776.0767 -142.21385 3792.6082 256
2787.8594 -141.66679 3778.0193 256
2805.2017 -141.40875 3771.1377 256
2819.1294 -140.98404 3759.8113 256
2803.824 -139.11554 3709.9817 256
2799.292 -137.80659 3675.0742 512
2825.8955 -138.03883 3681.2676 512
2848.5981 -138.07841 3682.323 768
2881.6396 -138.61472 3696.6252 768
2945.4341 -140.61099 3749.863 768
2955.6794 -140.04013 3734.6389 768
2994.9185 -140.84125 3756.0034 768
3022.717 -141.0965 3762.8105 512
3093.9099 -143.3587 3823.1399 768
3121.8665 -143.59912 3829.5513 768
3139.7085 -143.37421 3823.5532 768
3162.4407 -143.37421 3823.5532 512
3181.136 -143.19249 3818.7073 67585
3204.0837 -143.20341 3818.9985 330757
3326.7139 -147.63805 3937.2629 512
3351.5032 -147.69891 3938.886 512
3358.6567 -146.98715 3919.9043 256
3357.9368 -145.94296 3892.0576 256
3308.2292 -142.79855 3808.2017 256
3359.6797 -144.03368 3841.1399 512
3382.5164 -144.03368 3841.1399 512
3390.1077 -143.38884 3823.9434 512
3412.842 -143.38884 3823.9434 512
3412.9343 -142.44383 3798.7415 512
3415.5525 -141.61598 3776.6643 512
3416.8389 -140.74409 3753.4124 512
3430.488 -140.38945 3743.9546 512
3480.6204 -141.52278 3774.179 768
3545.8938 -143.25331 3820.3289 1024
3546.1353 -142.35124 3796.2725 67586
3568.7051 -142.35124 3796.2725 266504
3591.2751 -142.35124 3796.2725 595468
3623.6658 -142.7381 3806.5891 857616
3646.2971 -142.7381 3806.5891 768
3689.2957 -143.53049 3827.7207 512
3682.0242 -142.3694 3796.7566 256
0 0 0 0
0 0 0 0
0 0 0 0
0 0 0 0
0 0 0 0
0 0 0 0
0 0 0 0
0 0 0 0
0 0 0 0
0 0 0 0
-2060.719 -74.968094 2375.99 1388050
-2111.9326 -77.361526 2451.8462 530953
-2134.0449 -78.714821 2494.7366 1536
-2122.8025 -78.848145 2498.9619 1280
-2115.8076 -79.14222 2508.2822 1024
-2125.7419 -80.078217 2537.9473 512
-2119.7324 -80.422684 2548.8645 512
-2119.1838 -80.980797 2566.553 512
-2134.1636 -82.144691 2603.4407 512
-2131.9883 -82.660469 2619.7874 768
-2099.9817 -82.018715 2599.448 1024
-2084.5271 -82.018715 2599.448 1024
-2074.4146 -82.230469 2606.1592 528902
-2087.2173 -83.360603 2641.9771 397827
-2078.573 -83.644836 2650.9851 1792
-2084.1704 -84.510887 2678.4333 1536
-2068.2463 -84.510887 2678.4333 330755
-2052.3223 -84.510887 2678.4333 3072
-2008.895 -83.369492 2642.2588 3328
-1993.1859 -83.369492 2642.2588 1280
-1977.4771 -83.369492 2642.2588 1280
-1927.3867 -81.908386 2595.9514 1280
-1921.1147 -82.30088 2608.3906 1024
-1905.6072 -82.30088 2608.3906 1024
-1882.2853 -81.960617 2597.6067 768
-1854.033 -81.39827 2579.7839 1024
-1843.6277 -81.616615 2586.7041 1280
-1828.2489 -81.616615 2586.7041 1024
-1787.4208 -80.470863 2550.3914 1536
-1817.536 -82.526749 2615.5493 1536
-1756.3907 -80.438591 2549.3687 1536
-1753.239 -80.993187 2566.9456 2304
-1755.2323 -81.797279 2592.4299 1280
-1739.8196 -81.797279 2592.4299 1024
-1721.0914 -81.640007 2587.4456 1024
-1715.6003 -82.113464 2602.4509 1536
-1690.1553 -81.631798 2587.1853 1280
-1680.578 -81.914711 2596.1519 4282930
-1675.3387 -82.416267 2612.0479 2178070
-1652.3702 -82.046883 2600.3408 1058056
-1688.2155 -84.618446 2681.8423 2048
-1672.2711 -84.618446 2681.8423 1280
-1656.3269 -84.618446 2681.8423 662791
-1641.5835 -84.680397 2683.8057 1388300
-1625.6277 -84.680397 2683.8057 2572575
-1581.8892 -83.218849 2637.4841 68096
-1618.4653 -85.995445 2725.4839 2048
-1602.2616 -85.995445 2725.4839 1792
-1577.2305 -85.516838 2710.3152 265473
-1554.5979 -85.159729 2698.9973 1536
-1532.4143 -84.820023 2688.2307 1536
-1522.5054 -85.159729 2698.9973 1280
-1508.2347 -85.260101 2702.1785 1280
-1501.068 -85.768547 2718.2927 1024
-1487.3992 -85.912491 2722.855 1536
-1466.1213 -85.61528 2713.4353 2304
-1449.0571 -85.560257 2711.6912 2304
-1433.8572 -85.61528 2713.4353 70145
-1456.0002 -87.926697 2786.6917 1913625
-1437.7545 -87.824188 2783.4429 2304
-1422.4711 -87.902351 2785.9202 2816
-1393.3792 -87.119011 2761.0935 399620
-1376.9637 -87.119011 2761.0935 2112532
-1372.1335 -87.860847 2784.6047 2113296
-1355.5784 -87.860847 2784.6047 3101983
-1332.9885 -87.464882 2772.0554 4153392
-1335.3091 -88.713989 2811.6436 1257991
-1310.8057 -88.190056 2795.0383 3072
-1294.1885 -88.190056 2795.0383 2904087
-1304.1611 -90.025543 2853.2114 3955492
-1290.48 -90.255081 2860.4861 4864
-1273.4735 -90.255081 2860.4861 2816
-1254.9829 -90.148468 2857.1072 1454604
-1241.7535 -90.422035 2865.7773 927492
-1229.1227 -90.747414 2876.0896 2705691
-1210.8306 -90.658089 2873.2588 2816
-1193.7483 -90.658089 2873.2588 2113814
-1166.6493 -89.886345 2848.7996 2641187
-1150.8253 -89.973351 2851.5571 995593
-1133.7365 -89.962593 2851.2161 1522448
-1116.4838 -89.938316 2850.4468 1259788
-1095.6965 -89.624168 2840.4902 1786386
-1071.7999 -89.041885 2822.0356 1060872
-1054.9504 -89.035828 2821.8438 5632
-1038.1738 -89.035828 2821.8438 5120
-1018.6183 -88.793594 2814.1665 465923
-989.24701 -87.673332 2778.6619 3840
-965.04828 -86.981224 2756.7266 6400
-936.50146 -85.866539 2721.3984 5376
-920.32196 -85.866539 2721.3984 2046229
-919.8299 -87.356369 2768.6162 2304
-903.36969 -87.356369 2768.6162 2816
-886.90948 -87.356369 2768.6162 1536
-878.20782 -88.134995 2793.2935 1792
-859.802 -87.950981 2787.4614 1792
-834.63245 -87.054268 2759.0415 2304
-832.57288 -88.58033 2807.4077 663556
-822.38519 -89.286385 2829.7849 3758881
-811.53595 -89.948593 2850.7725 2378252
-790.65997 -89.504021 2836.6824 3035922
-767.31274 -88.754211 2812.9185 2904084
-745.32501 -88.131744 2793.1904 2180361
-716.02313 -86.596329 2744.5278 1060867
-710.65442 -87.951302 2787.4714 3168796
-694.08209 -87.951302 2787.4714 1589511
-677.50983 -87.951302 2787.4714 1390090
-659.16394 -87.715279 2779.9912 467968
-640.3739 -87.406509 2770.2053 991753
-619.72119 -86.820473 2751.6318 927494
-603.38947 -86.824432 2751.7573 3072
-587.02948 -86.824432 2751.7573 72192
-566.80908 -86.237083 2733.1423 2048
-550.55981 -86.237083 2733.1423 135424
-544.14886 -87.824989 2783.4683 1781523
-530.70331 -88.341507 2799.8384 1792
-515.41608 -88.574982 2807.238 269312
-505.50873 -89.779556 2845.415 335361
-498.7865 -91.652832 2904.7854 531461
-476.22821 -90.646194 2872.8818 794120
-457.06775 -90.235481 2859.865 2304
-443.54224 -90.948479 2882.4622 3328
-424.25296 -90.489433 2867.9133 1792
-409.44766 -90.988365 2883.7263 1792
-391.22134 -90.737465 2875.7744 728844
-372.75943 -90.406502 2865.2852 3840
-359.77576 -91.436119 2897.917 1190670
-342.54681 -91.436119 2897.917 927240
-324.45905 -91.194725 2890.2664 2178582
-306.14441 -90.859001 2879.6262 4876338
-285.75092 -89.829979 2847.0132 599556
-272.43683 -91.037025 2885.2686 467970
-259.3656 -92.492897 2931.4099 1060614
-241.93755 -92.492897 2931.4099 798976
-224.2047 -92.367317 2927.4299 3429670
-206.064 -92.038445 2917.0068 2560
-188.72157 -92.038445 2917.0068 1455886
-170.87012 -91.76506 2908.3425 5666110
-153.57921 -91.76506 2908.3425 1916427
-137.19731 -92.377121 2927.7405 2442758
-116.94286 -90.180702 2858.1287 4878893
-100.76268 -90.913506 2881.3538 3762207
-83.292374 -90.54406 2869.6448 4616237
-68.034767 -93.009232 2947.7744 3233568
-50.542664 -93.070427 2949.7139 337156
-32.958473 -92.937004 2945.4851 1453839
-15.633706 -94.061859 2981.1355 1792
2.0723157 -93.267075 2955.9463 1536
19.880978 -94.381454 2991.2646 512
37.838943 -94.817627 3005.0884 1024
56.554764 -96.263992 3050.9285 768
75.284012 -97.025192 3075.0535 1024
94.702499 -98.203644 3112.4026 1280
113.32222 -98.303932 3115.5813 1280
131.77519 -98.251724 3113.9265 1536
149.75937 -97.905907 3102.9661 1536
168.20735 -97.905907 3102.9661 1792
188.68044 -98.968109 3136.6311 1280
206.87982 -98.753891 3129.8418 1280
225.92935 -98.947357 3135.9736 1024
244.87793 -99.070496 3139.876 133378
263.21783 -98.947357 3135.9736 1280
280.93866 -98.623199 3125.6997 1024
298.79236 -98.383026 3118.0876 1387538
317.33026 -98.383026 3118.0876 1520147
340.76682 -99.817947 3163.5652 2441250
360.95023 -100.19968 3175.6636 2048
378.49097 -99.846329 3164.4648 1536
397.3046 -99.846329 3164.4648 2044954
410.47095 -98.491272 3121.5186 1388302
428.43637 -98.355164 3117.2051 201729
446.72882 -98.302322 3115.53 729861
460.83142 -97.368408 3085.9312 3328
488.32156 -99.226334 3144.8152 993542
505.64243 -98.957069 3136.281 2444304
522.86432 -98.688255 3127.7615 3628066
541.45972 -98.688255 3127.7615 1056775
581.32501 -102.43625 3246.5483 1536
600.62665 -102.43625 3246.5483 1024
589.08002 -97.338921 3084.9966 512
618.77197 -99.157883 3142.6455 256
638.9801 -99.394974 3150.1599 512
660.45068 -99.809357 3163.293 512
680.43616 -99.982567 3168.7827 512
694.70966 -99.329742 3148.0925 512
712.06177 -99.139816 3142.073 512
732.14215 -99.329742 3148.0925 512
751.68597 -99.439217 3151.562 768
773.68469 -99.860214 3164.905 512
806.88391 -101.67256 3222.3442 512
820.7287 -101.01862 3201.6187 768
839.76312 -101.01862 3201.6187 512
857.19189 -100.82973 3195.6323 1024
877.96191 -101.03355 3202.0918 1024
902.78625 -101.68536 3222.75 1024
921.94641 -101.68536 3222.75 1024
948.12653 -102.44387 3246.7896 1280
971.80701 -102.9074 3261.4807 1280
1007.8772 -104.63911 3316.3645 136964
1027.5939 -104.63911 3316.3645 69121
1038.3846 -103.7473 3288.0999 1058063
1057.5046 -103.70528 3286.7678 2304
1081.202 -104.10549 3299.4521 202242
1100.7292 -104.0971 3299.1858 267012
1124.785 -104.50975 3312.2642 2048
1145.4412 -104.59774 3315.0532 68352
1172.7787 -105.28259 3336.7583 1536
1200.4443 -105.9736 3358.6587 267011
1239.449 -107.62663 3411.0486 200194
1260.3314 -107.67813 3412.6807 1280
1279.9683 -107.62326 3410.9419 1024
1292.5276 -106.9843 3390.6909 1024
1326.0347 -108.0722 3425.1704 1024
1344.2976 -107.90359 3419.8264 2816
1340.8643 -106.02444 3360.2698 1536
1353.0107 -105.41429 3340.9324 463109
1419.5906 -109.0014 3454.6196 768
1424.0793 -107.78661 3416.1189 768
1460.6678 -109.0014 3454.6196 1024
1462.6797 -107.63801 3411.4094 1024
1482.9614 -107.63801 3411.4094 768
1493.8346 -106.96432 3390.0579 1024
1511.4587 -106.78552 3384.3911 1024
1527.452 -106.49771 3375.2695 1024
1563.5234 -107.59912 3410.1768 1024
1585.4287 -107.70991 3413.688 1280
1608.9857 -107.9287 3420.6223 1792
1629.3223 -107.9287 3420.6223 1280
1667.7548 -109.11263 3458.145 1280
1680.1914 -108.58765 3441.5066 1280
1688.5265 -107.81342 3416.9688 200963
1722.6056 -108.68182 3444.4915 1280
1738.1643 -108.3751 3434.77 1280
1756.5769 -108.25134 3430.8477 1280
1751.78 -106.71653 3382.2046 1792
1763.069 -106.18538 3365.3704 925956
1769.7197 -105.38993 3340.1599 2638349
1776.6266 -104.6272 3315.9868 5071651
1796.3409 -104.6272 3315.9868 4673559
1842.5372 -106.15288 3364.3406 5138472
1929.394 -109.96318 3485.1018 3164439
1950.1139 -109.96318 3485.1018 860672
2003.9059 -111.80845 3543.5845 1792
1985.5645 -109.63249 3474.6211 2048
1934.3966 -105.70749 3350.2249 267267
2050.3608 -110.90257 3514.8743 1980185
2011.2336 -107.68866 3413.0146 136706
2112.5232 -111.98228 3549.0938 138497
2051.8162 -107.68866 3413.0146 666119
2183.7637 -113.49149 3596.926 3759416
2281.1511 -117.40309 3720.8975 6321486
2305.0515 -117.49376 3723.771 396545
2409.5342 -121.65108 3855.5305 1024
2432.4563 -121.65108 3855.5305 512
2449.2944 -121.34965 3845.9771 768
2473.8684 -121.4335 3848.635 256
2501.1826 -121.64912 3855.4683 0
2517.2927 -121.32082 3845.0635 256
2540.1526 -121.32082 3845.0635 256
2573.3088 -121.8082 3860.5103 256
2560.5583 -120.13316 3807.4226 512
2544.1848 -118.31898 3749.925 512
2561.1028 -118.07113 3742.0698 512
2588.7734 -118.31898 3749.925 512
2585.6228 -117.16595 3713.3821 512
2607.7 -117.16595 3713.3821 256
2644.9641 -117.84259 3734.8269 512
2675.3069 -118.20216 3746.2229 256
2702.9805 -118.43884 3753.7239 256
2747.821 -119.41769 3784.7471 256
2766.0962 -119.23552 3778.9731 256
2781.3242 -118.92598 3769.1631 256
2809.4055 -119.1666 3776.7891 256
2820.9426 -118.7072 3762.2292 256
2821.6362 -117.80232 3733.5505 256
2843.833 -117.80232 3733.5505 256
2886.6943 -118.65169 3760.4697 256
2910.866 -118.7257 3762.8152 512
2936.5046 -118.85797 3767.0073 512
2964.0881 -119.06635 3773.6116 512
2986.5232 -119.06635 3773.6116 512
3093.793 -122.4233 3880.0046 512
3116.8606 -122.4233 3880.0046 725002
3124.3464 -121.81577 3860.75 132609
3149.0381 -121.88306 3862.8828 512
3169.4326 -121.78426 3859.7515 512
3196.1738 -121.92899 3864.3381 512
3238.3127 -122.65485 3887.3435 512
3277.2139 -123.24869 3906.1638 198148
3281.6494 -122.54708 3883.928 256
3304.7405 -122.54708 3883.928 256
3327.8315 -122.54708 3883.928 0
3326.8777 -121.66774 3856.0583 256
3351.5203 -121.73009 3858.0349 256
3385.29 -122.1209 3870.4204 256
3386.9604 -121.35625 3846.1863 256
3408.9604 -121.32541 3845.209 256
3431.8213 -121.32541 3845.209 512
3591.8127 -126.14132 3997.8413 512
3562.1621 -124.27763 3938.7747 512
3530.8711 -122.38142 3878.6775 512
3553.9309 -122.38142 3878.6775 512
3573.8633 -122.27441 3875.2861 512
3575.5142 -121.54732 3852.2419 1537
3558.2886 -120.19187 3809.2832 1281
3609.478 -121.14987 3839.6455 791823
3638.6794 -121.36245 3846.3828 1054226
3718.6746 -123.25594 3906.394 256
3684.415 -121.36245 3846.3828 256
3634.5574 -118.9817 3770.9287 256
3636.7639 -118.32407 3750.0862 2
0 0 0 0
0 0 0 0
0 0 0 0
0 0 0 0
0 0 0 0
0 0 0 0
0 0 0 0
0 0 0 0
0 0 0 0
0 0 0 0
0 0 0 0
-2084.0796 -61.956589 2419.51 529673
-2121.8782 -63.518696 2480.5132 1280
-2122.8025 -63.991119 2498.9619 1024
-2137.1455 -64.877541 2533.5784 1024
-2133.9065 -65.239029 2547.6951 512
-2133.3091 -65.687019 2565.1899 512
-2122.6326 -65.828888 2570.73 512
-2147.0554 -67.069221 2619.1672 512
-2145.9587 -67.524704 2636.9543 768
-2130.2815 -67.524704 2636.9543 1280
-2089.9089 -66.73613 2606.1592 512
-2074.4146 -66.73613 2606.1592 1581846
-2087.2173 -67.65332 2641.9771 200960
-2078.1509 -67.870209 2650.4468 2816
-2084.1704 -68.586853 2678.4333 2816
-2079.3696 -68.955727 2692.8384 1280
-2053.1089 -68.613144 2679.46 1280
-2031.0182 -68.405655 2671.3569 1280
-2015.1361 -68.405655 2671.3569 1024
-1981.4449 -67.796295 2647.5605 1280
-1991.1709 -68.674622 2681.8606 1280
-1982.7882 -68.937531 2692.1277 1024
-1966.7828 -68.937531 2692.1277 1024
-1960.8109 -69.292107 2705.9744 1024
-1952.7933 -69.579651 2717.2036 1280
-1931.0619 -69.379288 2709.3789 1280
-1883.8862 -68.253693 2665.4229 1792
-1852.2474 -67.676682 2642.8894 768
-1836.5345 -67.676682 2642.8894 1024
-1809.9135 -67.27124 2627.0562 1024
-1794.295 -67.27124 2627.0562 1280
-1737.9778 -65.731979 2566.9456 1280
-1755.0277 -66.964844 2615.0911 1280
-1721.0914 -66.256927 2587.4456 1792
-1715.6003 -66.641174 2602.4509 2304
-1689.9658 -66.242836 2586.8953 1386765
-1690.1592 -66.858879 2610.9526 399616
-1675.3387 -66.886917 2612.0479 70656
-1652.3702 -66.587135 2600.3408 3097885
-1671.6481 -68.000206 2655.5237 2900761
-1647.3826 -67.652061 2641.928 2304
-1640.0723 -68.000206 2655.5237 266498
-1643.5734 -68.807724 2687.0586 2308891
-1639.7413 -69.321098 2707.1067 2309146
-1581.8892 -67.538269 2637.4841 399104
-1607.5524 -69.321098 2707.1067 332801
-1591.6266 -69.328445 2707.3936 136960
-1578.1035 -69.441673 2711.8152 200960
-1558.5989 -69.291313 2705.9436 1536
-1545.8585 -69.441673 2711.8152 1536
-1530.0334 -69.455177 2712.3425 1536
-1513.9078 -69.455177 2712.3425 1536
-1503.5873 -69.724365 2722.855 1280
-1491.4503 -69.914268 2730.271 1792
-1471.2109 -69.724365 2722.855 1792
-1455.6033 -69.752174 2723.9412 1792
-1439.4087 -69.752174 2723.9412 1792
-1464.4091 -71.771156 2802.7856 727304
-1439.158 -71.345421 2786.1602 1792
-1427.7283 -71.602943 2796.2166 4096
-1405.908 -71.339279 2785.9202 4352
-1394.4796 -71.602943 2796.2166 135427
-1398.3018 -72.665482 2837.7104 1792
-1370.5352 -72.092354 2815.3289 1536
-1356.9639 -72.260979 2821.9141 2560
-1340.1868 -72.260979 2821.9141 2304
-1336.1367 -72.955902 2849.052 532740
-1311.4512 -72.527458 2832.3203 531713
-1303.4192 -73.020836 2851.5879 136704
-1286.4656 -73.020836 2851.5879 5120
-1271.9692 -73.16217 2857.1072 3957033
-1254.9829 -73.16217 2857.1072 4614964
-1241.7535 -73.384193 2865.7773 138753
-1236.03 -74.062141 2892.2524 600069
-1214.4658 -73.796661 2881.885 7936
-1197.3323 -73.796661 2881.885 203520
-1167.4434 -72.999092 2850.7385 3233579
-1150.8253 -73.02005 2851.5571 1127691
-1133.8721 -73.02005 2851.5571 139264
-1116.5011 -72.992744 2850.4907 72192
-1099.5541 -72.992744 2850.4907 600066
-1082.5905 -72.991623 2850.4468 2573850
-1065.7719 -73.000397 2850.7896 1323529
-1042.9659 -72.592728 2834.8694 402689
-1021.3972 -72.259178 2821.8438 2245649
-993.39709 -71.45192 2790.3188 2575380
-973.9621 -71.243759 2782.1897 3168795
-942.12677 -70.105667 2737.7454 4022827
-936.30133 -70.897034 2768.6497 398339
-919.841 -70.897034 2768.6497 2560
-911.80237 -71.557976 2794.4604 1792
-886.90948 -70.896179 2768.6162 1792
-867.43903 -70.651001 2759.0415 332544
-859.802 -71.378754 2787.4614 3072
-843.22968 -71.378754 2787.4614 69376
-835.46216 -72.139 2817.1506 69376
-825.18848 -72.709534 2839.4309 1847317
-811.98151 -73.040039 2852.3376 3840
-794.58728 -72.999962 2850.7725 270592
-773.79517 -72.639153 2836.6824 1123337
-745.34058 -71.526947 2793.2488 2304
-716.02313 -70.279343 2744.5278 397829
-722.06439 -72.525032 2832.2258 1792
-705.22601 -72.525032 2832.2258 3072
-684.76501 -72.143372 2817.3213 70912
-668.01526 -72.143372 2817.3213 5632
-642.63611 -71.187454 2779.9912 3072
-619.74945 -70.46447 2751.7573 663557
-608.14728 -71.020096 2773.4553 2178327
-587.00275 -70.461258 2751.6318 1717775
-566.53009 -69.953339 2731.7969 1585680
-548.52094 -69.728607 2723.0208 1536
-544.14886 -71.276497 2783.4683 794374
-532.1059 -71.88517 2807.238 134144
-515.41608 -71.88517 2807.238 2560
-508.84332 -73.343414 2864.1851 729608
-497.85757 -74.244545 2899.3755 1125644
-481.90897 -74.443657 2907.1514 2178077
-464.62512 -74.443657 2907.1514 2048
-448.05075 -74.561722 2911.762 1792
-429.44412 -74.337486 2903.0051 1536
-409.9437 -73.933273 2887.22 1280
-394.97418 -74.346596 2903.3608 1280
-381.22394 -75.037689 2930.3491 1280
-359.77576 -74.207191 2897.917 1792
-340.48413 -73.760338 2880.4666 67328
-323.26459 -73.738815 2879.6262 1585163
-306.14441 -73.738815 2879.6262 399106
-289.39981 -73.834633 2883.3679 72192
-272.73444 -73.964012 2888.4204 205056
-259.3656 -75.06485 2931.4099 1587212
-241.93755 -75.06485 2931.4099 863750
-225.19337 -75.293503 2940.3391 2376727
-201.34216 -72.984413 2850.1655 2245651
-184.46976 -73.013153 2851.2878 2640148
-166.31499 -72.488792 2830.8105 929538
-153.57921 -74.474159 2908.3425 1916936
-137.70079 -75.246002 2938.4844 2969629
-120.23068 -75.246002 2938.4844 268289
-102.76057 -75.246002 2938.4844 531970
-83.632233 -73.783058 2881.3538 1651221
-68.079536 -75.533562 2949.7139 68864
-50.542664 -75.533562 2949.7139 1280
-32.895382 -75.280884 2939.8464 1024
-15.446748 -75.42527 2945.4851 768
2.0723157 -75.693153 2955.9463 512
20.161612 -77.67878 3033.4885 768
38.719913 -78.743141 3075.0535 768
57.505554 -79.438805 3102.2205 1024
76.198402 -79.699547 3112.4026 1024
94.799225 -79.780937 3115.5813 1024
113.33938 -79.79303 3116.0532 332548
131.86577 -79.793373 3116.0669 1536
150.39166 -79.793373 3116.0669 1280
171.04234 -80.797089 3155.2637 990222
190.47623 -81.084419 3166.4844 1792
207.60565 -80.427307 3140.823 68865
226.21049 -80.403053 3139.876 1280
246.1844 -80.832024 3156.6279 1024
264.79218 -80.783432 3154.7302 1280
283.54791 -80.783432 3154.7302 1536
302.30365 -80.783432 3154.7302 1057291
