# .PCD v0.7 - Point Cloud Data file format
VERSION 0.7
FIELDS x y z rgb
SIZE 4 4 4 4
TYPE F F F U
COUNT 1 1 1 1
WIDTH 1305
HEIGHT 1
VIEWPOINT 0 0 0 1 0 0 0
POINTS 1305
DATA ascii
4165.2778 -910.18665 5223.7812 4022559
4286.752 -929.79816 5336.3364 5403427
4374.9243 -941.95142 5406.0869 7311178
4619.355 -987.32556 5666.5005 4743476
4789.4053 -1016.2599 5832.562 3031840
4856.2993 -1023.0471 5871.5151 4609340
5188.1021 -1085.1459 6227.9146 726284
5515.7734 -1145.5065 6574.3384 331274
6389.7065 -1317.666 7562.4043 67848
7054.3848 -1444.5695 8290.7334 331024
7103.6758 -1444.5695 8290.7334 857624
6959.9087 -1405.5807 8066.9673 792089
6854.0386 -1374.7266 7889.8887 594200
6811.2192 -1356.8522 7787.3032 791835
7223.2124 -1429.21 8202.582 857629
7271.979 -1429.21 8202.582 726043
7328.1309 -1430.6517 8210.8564 660250
7501.6318 -1454.8326 8349.6367 1317923
7529.6831 -1450.6732 8325.7646 1120803
7579.1821 -1450.6732 8325.7646 1055264
7257.0317 -1380.0002 7920.1553 1121058
7295.2915 -1378.3323 7910.583 1055265
7342.3223 -1378.3323 7910.583 594457
7215.8394 -1345.967 7724.8306 1449765
7593.1987 -1407.3981 8077.3979 1383972
7641.2212 -1407.3981 8077.3979 1449765
7689.2432 -1407.3981 8077.3979 1778733
7605.3428 -1383.4015 7939.6758 2765884
7455.4736 -1347.7753 7735.2085 2634552
7360.4253 -1322.4354 7589.7773 1713708
0 0 0 0
0 0 0 0
0 0 0 0
0 0 0 0
0 0 0 0
0 0 0 0
0 0 0 0
0 0 0 0
0 0 0 0
0 0 0 0
0 0 0 0
0 0 0 0
0 0 0 0
-1533.5345 -303.81668 1805.276 1024
-1550.2389 -309.29074 1837.8027 133123
-1532.7994 -307.98206 1830.0266 265223
-1516.116 -306.80765 1823.0482 1537
-1505.2775 -306.80765 1823.0482 1536
-1532.4178 -314.60471 1869.3783 331016
-1490.0377 -308.13889 1830.9584 2108453
0 0 0 0
0 0 0 0
0 0 0 0
0 0 0 0
0 0 0 0
-1482.436 -320.62073 1905.1255 768
-1471.1095 -320.62073 1905.1255 1024
-1469.6555 -322.78909 1918.0098 1055757
-1451.4227 -321.27731 1909.0269 3886130
-1438.3147 -320.88501 1906.6959 1847319
-1409.774 -317.01617 1883.7073 1536
-1398.575 -317.01617 1883.7073 3840
-1407.0908 -321.52106 1910.4753 3584
-1409.0721 -324.59402 1928.7346 1536
-1397.8846 -324.65891 1929.1202 1792
-1379.9216 -323.13821 1920.0844 1536
-1368.5062 -323.13821 1920.0844 1536
-1349.8622 -321.41699 1909.8569 1536
-1338.5076 -321.41699 1909.8569 2560
-1327.3743 -321.47061 1910.1754 465161
-1316.8333 -321.66983 1911.3593 3072
-1310.4639 -322.90042 1918.6714 3072
-1299.0569 -322.90042 1918.6714 1792
-1302.9485 -326.73682 1941.4673 2048
-1293.4268 -327.24808 1944.5051 4546867
-1284.6388 -327.9559 1948.7111 2771213
-1267.0718 -326.41504 1939.5552 3100434
-1260.1255 -327.60703 1946.6379 2639630
-1253.3296 -328.86057 1954.0865 72448
-1243.624 -329.36694 1957.0955 202752
-1240.8093 -331.72516 1971.1079 530945
-1234.0074 -333.05219 1978.9932 2045457
-1223.3375 -333.35077 1980.7673 1518097
-1233.5468 -339.3999 2016.7111 2560
-1213.9833 -337.29562 2004.2076 1280
-1202.0677 -337.29562 2004.2076 464385
-1195.3462 -338.76767 2012.9545 267520
-1183.3787 -338.76767 2012.9545 2505503
-1169.7145 -338.27701 2010.0389 133889
-1162.3978 -339.63086 2018.0835 1792
-1149.4156 -339.3403 2016.3571 3426091
-1162.8071 -346.91199 2061.3479 1280
-1156.5966 -348.73459 2072.1777 1536
-1144.2628 -348.73032 2072.1523 1024
-1128.3829 -347.63345 2065.6348 1536
-1119.561 -348.71075 2072.0361 727816
-1107.553 -348.80862 2072.6177 991753
-1102.2776 -351.05289 2085.9531 2177304
-1097.5654 -353.52972 2100.6704 2111768
-1082.2283 -352.60175 2095.1565 3230245
-1069.772 -352.60175 2095.1565 1124618
-1059.2163 -353.23557 2098.9226 2048
-1065.9673 -359.72488 2137.4819 133122
-1063.3052 -363.15591 2157.8691 399108
-1043.8506 -360.86545 2144.2593 1792
-1037.6469 -363.15591 2157.8691 729346
-1018.6428 -360.96771 2144.8669 4612661
-1016.671 -364.83618 2167.8533 3231776
-1002.7668 -364.46701 2165.6597 1718032
-989.89136 -364.46701 2165.6597 6400
-992.29944 -370.1684 2199.5374 727814
-1001.1272 -378.44882 2248.7395 1536
-987.75775 -378.44882 2248.7395 768
-961.25452 -373.34766 2218.4285 768
-958.32983 -377.38986 2242.447 768
-944.99792 -377.38986 2242.447 512
-915.78009 -370.95499 2204.2112 768
-902.67554 -370.95499 2204.2112 68608
-888.43719 -370.48227 2201.4023 202240
-890.60669 -376.93982 2239.7729 5120
-883.59875 -379.65018 2255.8779 1188364
-877.20197 -382.71072 2274.0637 4219441
-872.81403 -386.75729 2298.1084 1718030
-860.15369 -387.20856 2300.7898 1259530
-846.47479 -387.20856 2300.7898 1193992
-831.41309 -386.56558 2296.9692 600066
-824.40594 -389.70862 2315.6453 3168289
-817.43823 -392.97742 2335.0684 1391877
-803.55554 -392.97742 2335.0684 1062915
-789.62067 -392.95142 2334.9138 4550201
-775.73901 -392.95142 2334.9138 399363
-765.19543 -394.67316 2345.1445 3840
-749.55835 -393.78296 2339.8547 330756
-733.21545 -392.48123 2332.1199 1792
-719.35028 -392.48123 2332.1199 1536
-711.55524 -395.85812 2352.1855 5632
-700.46387 -397.49988 2361.9407 70400
-686.6087 -397.60834 2362.585 1192713
-666.1875 -393.83954 2340.1909 1587220
-658.44879 -397.56754 2362.3428 3496491
-643.58014 -397.05933 2359.3228 1784849
-632.82031 -399.11978 2371.5662 731908
-622.75238 -401.72055 2387.0198 1454352
-612.29803 -404.18747 2401.6782 1057292
-602.38647 -407.13907 2419.2168 1536
-588.0036 -407.13907 2419.2168 1024
-579.99268 -411.66174 2446.0903 1024
-565.44995 -411.66174 2446.0903 134403
-550.55347 -411.39734 2444.5193 529929
-538.06281 -412.96512 2453.835 68353
-523.47406 -412.96512 2453.835 3329
-511.30438 -414.92822 2465.4998 1536
-496.6463 -414.92822 2465.4998 67585
-483.69318 -416.39597 2474.2209 1280
-467.71777 -415.2724 2467.5449 1536
-451.69977 -414.03699 2460.2041 68864
-433.37024 -410.52924 2439.3608 1978135
-418.86752 -410.52924 2439.3608 793605
-399.03314 -405.11618 2407.1968 3296800
-385.32413 -405.75058 2410.9663 727557
-379.3367 -414.87903 2465.2075 138240
-365.59406 -415.91858 2471.3843 2508828
-357.05783 -423.21616 2514.7466 3036190
-342.10696 -423.21616 2514.7466 1652236
-328.27469 -424.66321 2523.345 768
-313.27271 -424.66321 2523.345 333316
-304.98343 -434.22046 2580.134 1024
-283.02786 -424.30212 2521.1992 1536
-268.03864 -424.30212 2521.1992 4096
-255.55618 -428.50537 2546.175 2048
-241.88274 -431.1152 2561.6826 3232282
-227.55966 -432.84009 2571.9319 1326080
-212.26883 -432.84009 2571.9319 4155938
-198.49832 -436.18091 2591.7832 5603640
-183.24931 -436.5618 2594.0461 4287525
-168.81946 -439.14349 2609.3865 2313230
-153.30594 -439.14349 2609.3865 1260036
-142.83621 -455.21802 2704.9014 1917452
-125.13899 -449.4151 2670.4204 2642196
-110.51334 -454.55954 2700.9888 925954
-93.485764 -449.89417 2673.2671 667649
-79.452469 -460.67889 2737.3499 4483623
-62.053169 -452.47571 2688.6067 2904850
-47.139118 -462.98962 2751.0801 864259
-31.217278 -469.51855 2789.875 4352819
-14.735579 -472.88443 2809.875 6523727
2.0323484 -487.87302 2898.937 1127941
19.332708 -489.52832 2908.7729 4222244
37.759258 -504.67261 2998.76 3630104
55.587719 -504.67261 2998.76 5471788
74.167542 -509.83759 3029.4502 3037462
92.917427 -513.92474 3053.7361 3695399
111.26179 -514.79944 3058.9336 3298344
130.00677 -517.02161 3072.1377 2704928
149.97809 -522.97253 3107.498 1716504
168.20772 -522.21094 3102.9727 1280
186.65575 -522.21094 3102.9727 1536
205.10379 -522.21094 3102.9727 1280
227.22127 -530.78265 3153.9058 198915
245.49976 -529.76331 3147.8489 860176
264.3678 -530.0705 3149.6741 531210
281.16992 -526.46881 3128.2727 2702118
300.45792 -527.67975 3135.4685 3493684
319.09912 -527.67975 3135.4685 529160
338.92432 -529.5296 3146.46 598278
355.46475 -526.32227 3127.4021 3584
372.44211 -524.04852 3113.8916 1848852
384.75827 -515.74219 3064.5352 2244888
409.72388 -524.37604 3115.8374 1060613
430.81583 -527.51971 3134.5173 1848336
453.05283 -531.7467 3159.6343 71936
471.83774 -531.7467 3159.6343 1190660
490.61761 -531.74127 3159.6018 4284713
511.16513 -533.58142 3170.5359 1915658
535.58881 -539.19287 3203.8792 1455109
560.81818 -545.20215 3239.5862 1058568
582.75043 -547.71344 3254.5085 3840
610.08093 -554.97412 3297.6511 1124614
629.6864 -554.97412 3297.6511 2114569
656.16992 -560.85303 3332.5837 1719560
681.29291 -565.25861 3358.7612 3168791
714.71198 -576.10028 3423.1826 3430690
748.11487 -586.32904 3483.9617 4810805
768.828 -586.32904 3483.9617 5138749
809.58936 -601.21722 3572.4275 4809022
841.11548 -608.66132 3616.6599 1536
870.72559 -614.38232 3650.6543 768
894.31952 -615.68329 3658.3848 67846
921.12744 -619.08264 3678.5833 768
950.43475 -623.96515 3707.5952 768
965.96539 -619.78687 3682.7678 1024
987.86047 -619.78687 3682.7678 1536
1002.5372 -615.3562 3656.4409 2817
1011.4318 -607.63989 3610.5908 1057042
1032.8977 -607.63989 3610.5908 1650201
1058.4728 -610.00806 3624.6621 202755
1095.0751 -618.50995 3675.1807 927246
1136.7163 -629.4696 3740.3025 3098924
1147.2609 -623.1189 3702.5669 1388304
1157.8165 -617.01324 3666.2871 2176284
1166.063 -609.92542 3624.1711 2177821
1219.0175 -626.05566 3720.0168 1256720
1266.6489 -638.92596 3796.4922 1388307
1297.6012 -643.07953 3821.1729 665869
1328.507 -647.0675 3844.8694 4023100
1355.7263 -649.15546 3857.2759 4088888
1374.3033 -647.10455 3845.0896 4944449
1389.2892 -643.45764 3823.4192 929799
1412.0205 -643.45764 3823.4192 4483123
1433.5316 -642.91034 3820.1675 5009470
1451.0848 -640.63287 3806.6348 1587980
1478.9556 -642.91034 3820.1675 3626798
1486.2281 -636.30029 3780.8906 4941130
1568.0859 -661.34363 3929.698 3328
1616.0135 -671.5517 3990.354 1536
1611.2551 -659.8869 3921.0417 1536
1639.9319 -662.0528 3933.9116 200197
1663.3202 -662.0528 3933.9116 398600
1663.7432 -653.03876 3880.3503 4866
1685.2 -652.41425 3876.6394 2304
1693.7355 -646.87177 3843.7061 69634
1716.5874 -646.87177 3843.7061 3072
1753.2537 -652.00909 3874.2322 464136
1775.4933 -651.71771 3872.501 1385749
1820.498 -659.68317 3919.8313 2043166
1904.3741 -681.35461 4048.603 133635
1964.8182 -694.2063 4124.9673 1024
1966.7947 -686.33795 4078.2141 1536
1986.8732 -684.90137 4069.6777 2048
1948.1797 -663.48352 3942.4131 2816
1955.8777 -658.18646 3910.9382 68866
1970.2191 -655.22339 3893.3313 2176803
2002.3809 -658.18646 3910.9382 3072
2025.5028 -658.14441 3910.688 1453579
2048.7529 -658.14441 3910.688 2901786
2054.6316 -652.62659 3877.9014 1913620
2077.687 -652.62659 3877.9014 2045464
2105.4502 -654.08923 3886.592 1783821
2129.5476 -654.39362 3888.4009 2178324
2169.0581 -659.37695 3918.0117 1389579
2192.3518 -659.37695 3918.0117 3758642
2263.5925 -673.64594 4002.7981 1844502
2275.5549 -670.1604 3982.0872 1280
2293.9775 -668.62958 3972.991 1280
2317.5981 -668.62958 3972.991 1792
2291.7197 -654.49323 3888.9927 4677705
2368.8535 -669.76465 3979.7354 2046753
2384.5156 -667.52551 3966.4307 3328
2402.2441 -665.90302 3956.7898 270852
2422.2847 -664.94678 3951.1077 1718553
2441.8396 -663.87671 3944.7495 2837549
2484.1479 -668.95441 3974.9211 1390105
2507.78 -668.95441 3974.9211 2311456
2576.3069 -680.81842 4045.4167 3562289
2587.1611 -677.36328 4024.8865 5997141
2661.9424 -690.55511 4103.2725 4482620
2729.7717 -701.72046 4169.6167 665606
2754.561 -701.72046 4169.6167 1324810
2808.8696 -709.17328 4213.9014 5142332
2833.9224 -709.17328 4213.9014 5535801
2841.5559 -704.85242 4188.2266 5733436
2866.4561 -704.85242 4188.2266 3758636
3040.0342 -741.09692 4403.5913 2904613
3099.9443 -749.24933 4452.0327 3430955
3162.5896 -757.91919 4503.5488 7243356
3246.5481 -771.50824 4584.2949 1280
3494.3252 -823.47668 4893.0913 1189133
3443.1655 -804.72101 4781.645 2242588
3471.594 -804.72101 4781.645 2110489
3435.6755 -789.92657 4693.7363 1123340
3463.5813 -789.92657 4693.7363 2176282
3580.2136 -810.00043 4813.0151 4608
3619.2217 -812.33319 4826.8765 335106
3674.1895 -818.18329 4861.6377 1717270
3703.0935 -818.18329 4861.6377 4086843
3796.1304 -832.24359 4945.1836 4154939
3872.564 -842.47559 5005.9824 2180890
3902.3262 -842.47559 5005.9824 4088629
3955.5479 -847.50201 5035.8491 2640154
4220.1353 -897.39905 5332.3374 1653512
4270.0332 -901.23962 5355.1577 1653509
4301.8711 -901.23962 5355.1577 2113801
4374.9243 -909.81067 5406.0869 5994813
4590.123 -947.60193 5630.6421 5270576
4789.4053 -981.58374 5832.562 5005881
4867.3525 -990.38843 5884.8789 4345924
5288.5801 -1068.4181 6348.5303 67587
6048.1851 -1213.2178 7208.9287 133897
6340.5303 -1262.9104 7504.2021 396817
6619.3486 -1309.2333 7779.4526 68364
6782.5869 -1332.2115 7915.9888 594965
6829.6494 -1332.2115 7915.9888 1187103
6826.3457 -1322.4541 7858.0107 726041
6811.2192 -1310.5546 7787.3032 1516326
7230.499 -1381.8358 8210.8564 792347
7254.291 -1377.0856 8182.6304 1516070
7328.1309 -1381.8358 8210.8564 792349
7443.1348 -1394.2343 8284.5273 397590
7492.3892 -1394.2343 8284.5273 1252387
7471.5166 -1381.27 8207.4941 1055007
7248.2612 -1331.3018 7910.583 462872
7295.2915 -1331.3018 7910.583 1121057
7342.3223 -1331.3018 7910.583 1515559
7495.7778 -1350.4758 8024.5151 1713451
7698.8813 -1378.2955 8189.8198 1252387
7747.5723 -1378.2955 8189.8198 858142
7689.2432 -1359.3756 8077.3979 1055776
7631.4634 -1340.787 7966.9443 530460
8424.4805 -1470.9839 8740.5732 1451818
8476.4453 -1470.9839 8740.5732 2899777
0 0 0 0
0 0 0 0
0 0 0 0
0 0 0 0
0 0 0 0
0 0 0 0
0 0 0 0
0 0 0 0
0 0 0 0
0 0 0 0
0 0 0 0
0 0 0 0
0 0 0 0
-1554.5596 -297.10205 1830.0266 201222
-1562.7402 -300.77054 1852.623 201737
-1552.3622 -300.89386 1853.3827 70148
-1541.8719 -300.9971 1854.0184 1536
-1531.5665 -301.13809 1854.887 1716758
-1532.4178 -303.49072 1869.3783 3230762
-1517.6289 -302.7576 1864.8624 1190415
-1479.1522 -297.2533 1830.9584 202242
0 0 0 0
0 0 0 0
-1515.6168 -311.45767 1918.4514 512
-1504.2111 -311.45767 1918.4514 512
-1501.7152 -313.31662 1929.9019 768
-1480.9557 -311.36435 1917.8766 67072
-1469.6555 -311.38599 1918.0098 768
-1456.6641 -311.04681 1915.9207 1024
-1445.2734 -311.04681 1915.9207 1792
-1433.0763 -310.87186 1914.8431 1280
-1434.1403 -313.59387 1931.6095 1536
-1422.6564 -313.59387 1931.6095 1280
-1415.1041 -314.46759 1936.9912 1536
-1397.6052 -313.12714 1928.7346 1792
-1378.2207 -311.33853 1917.7175 1536
-1368.5062 -311.72278 1920.0844 1536
-1349.8622 -310.06238 1909.8569 1536
-1338.5076 -310.06238 1909.8569 1536
-1331.0249 -310.96698 1915.429 135171
-1319.7273 -310.98825 1915.5599 399367
-1312.9833 -312.09219 1922.3599 2816
-1301.5543 -312.09219 1922.3599 2816
-1302.9485 -315.19427 1941.4673 2045974
-1303.7483 -318.20663 1960.0223 3957031
-1284.6388 -316.37027 1948.7111 3891234
-1279.5864 -317.9939 1958.7118 3168534
-1261.4675 -316.37027 1948.7111 1454349
-1253.3296 -317.24298 1954.0865 1126149
-1246.2729 -318.40823 1961.264 663811
-1230.0945 -317.24298 1954.0865 1452555
-1234.7455 -321.4787 1980.1769 924680
-1225.964 -322.26498 1985.02 1792
-1233.5468 -327.40997 2016.7111 2816
-1214.7877 -325.59567 2005.5358 1792
-1205.9398 -326.42819 2010.6636 67840
-1195.3462 -326.80011 2012.9545 398339
-1183.3787 -326.80011 2012.9545 858633
-1165.4532 -325.13797 2002.7164 1792
-1162.3978 -327.63278 2018.0835 2816
-1149.4156 -327.35251 2016.3571 3162666
-1172.179 -337.35391 2077.9617 1280
-1156.5824 -336.4108 2072.1523 135168
-1144.2628 -336.4108 2072.1523 1536
-1131.8799 -336.39194 2072.0361 1280
-1119.561 -336.39194 2072.0361 1451536
-1098.7332 -333.80679 2056.1128 1780498
-1102.1423 -338.60977 2085.6973 5376
-1089.876 -338.65134 2085.9531 2243859
-1082.2283 -340.14548 2095.1565 5533762
-1083.1715 -344.40601 2121.3997 1783824
-1078.675 -347.01697 2137.4819 465408
-1075.2737 -350.0466 2156.1433 68096
-1068.6467 -352.08664 2168.7092 133377
-1050.4761 -350.32678 2157.8691 2048
-1043.7478 -352.38654 2170.5564 2304
-1030.9003 -352.40604 2170.6765 464388
-1017.9951 -352.40604 2170.6765 69376
-1002.7668 -351.59158 2165.6597 530434
-987.43134 -350.7178 2160.2776 268032
-989.52777 -356.09412 2193.3936 265984
-1001.1272 -365.07947 2248.7395 1280
-987.75775 -365.07947 2248.7395 1024
-961.25452 -360.15851 2218.4285 512
-944.32477 -358.73752 2209.6758 1280
-939.1925 -361.82138 2228.6711 528901
-910.12506 -355.64056 2190.5999 2816
-923.96545 -366.29041 2256.1985 2048
-903.92279 -363.62375 2239.7729 2308376
-892.64539 -364.45609 2244.8999 2046229
-883.59875 -366.23837 2255.8779 467457
-877.20197 -369.1908 2274.0637 3072
-868.48224 -371.24271 2286.7026 71424
-860.66217 -373.75058 2302.1501 3495973
-856.24426 -377.84076 2327.344 5798978
-838.17303 -375.9415 2315.6453 3328
-828.57086 -377.84076 2327.344 200704
-815.43451 -378.16556 2329.3447 399104
-803.55554 -379.09479 2335.0684 3627047
-802.43475 -385.22131 2372.8052 2574359
-779.13794 -380.73065 2345.1445 68096
-773.15381 -384.69043 2369.5352 1911829
-756.89771 -383.5914 2362.7656 594949
-735.64722 -379.87186 2339.8547 1280
-725.53967 -381.87375 2352.1855 1536
-713.16071 -382.73535 2357.4927 67584
-704.51782 -385.67679 2375.6106 1792
-690.39417 -385.67679 2375.6106 2304
-666.1875 -379.92645 2340.1909 795398
-657.60699 -383.03247 2359.3228 2047512
-643.33374 -382.8858 2358.4194 4153398
-636.94391 -387.52902 2387.0198 795654
-622.75238 -387.52902 2387.0198 269059
-618.31494 -393.74036 2425.2791 136448
-609.06464 -397.11032 2446.0366 67840
-597.43719 -399.05734 2458.0295 1024
-582.82355 -399.05734 2458.0295 1024
-570.59351 -400.73141 2468.3408 1280
-553.08972 -398.69223 2455.7805 660234
-538.06281 -398.37637 2453.835 859150
-523.47406 -398.37637 2453.835 68097
-508.55283 -398.11609 2452.2317 1792
-494.98972 -398.935 2457.2759 2048
-482.38803 -400.6022 2467.5449 1536
-466.32635 -399.4104 2460.2041 135680
-452.40897 -400.03754 2464.0669 67584
-434.16946 -396.7569 2443.8596 2560
-418.953 -396.10733 2439.8584 859144
-399.03314 -390.80475 2407.1968 1536
-390.95737 -397.13901 2446.2134 2304
-379.3367 -400.22272 2465.2075 1587471
-365.59406 -401.22546 2471.3843 3562538
-354.67905 -405.54535 2497.9929 5468991
-341.95837 -408.08795 2513.6543 4548647
-327.31961 -408.46933 2516.0034 5337407
-315.38785 -412.42712 2540.3818 2304
-300.64667 -412.92444 2543.4451 2048
-285.52518 -412.92444 2543.4451 2048
-269.54886 -411.61908 2535.4045 69376
-255.55618 -413.36765 2546.175 2560
-242.45847 -416.87515 2567.7798 2304
-227.19231 -416.87515 2567.7798 2971414
-211.92613 -416.87515 2567.7798 4288285
-198.11121 -419.95148 2586.7285 4748835
-182.841 -420.20108 2588.2661 4288810
-168.57529 -423.01718 2605.6123 3038492
-153.30594 -423.62991 2609.3865 1587983
-138.88699 -426.99515 2630.1147 3499554
-125.13899 -433.5387 2670.4204 1394435
-110.71827 -439.31454 2705.9973 6327884
-93.386215 -433.5387 2670.4204 2641940
-78.898857 -441.30807 2718.2766 338176
-63.178162 -444.40457 2737.3499 7182162
-47.613136 -451.12488 2778.7441 6853458
-31.217278 -452.93198 2789.875 4682292
-14.663184 -453.93781 2796.0703 5735232
1.9949778 -461.98404 2845.6318 3760162
19.232845 -469.79556 2893.7478 335872
37.278713 -480.64832 2960.5962 665858
54.631123 -478.46616 2947.155 1792
72.416748 -480.21658 2957.937 402944
92.917427 -495.76941 3053.7361 3760679
111.26179 -496.61322 3058.9336 5668926
130.00677 -498.75687 3072.1377 3759132
148.98224 -501.14777 3086.8645 4219955
167.33452 -501.14777 3086.8645 4350016
179.67618 -484.92584 2986.9441 858382
208.05388 -511.00876 3147.604 1280
227.46858 -512.58911 3157.3386 461830
242.62001 -505.05386 3110.9243 1280
261.39603 -505.59683 3114.2688 1450771
278.62183 -503.26776 3099.9229 1280
297.05173 -503.26776 3099.9229 1536
316.45761 -504.82468 3109.5129 3584
336.87149 -507.729 3127.4021 2504479
350.04349 -499.9855 3079.7056 2836256
368.35321 -499.9855 3079.7056 1389830
384.75827 -497.52261 3064.5352 1981965
409.72388 -505.85144 3115.8374 2245648
430.91165 -508.99734 3135.2146 1127426
449.55133 -508.99734 3135.2146 2641170
471.83774 -512.96179 3159.6343 1654018
487.61203 -509.81418 3140.2458 5799729
509.40231 -512.95654 3159.6018 5272374
530.36389 -515.07068 3172.6238 1849863
560.81818 -525.94189 3239.5862 1255944
580.07837 -525.94189 3239.5862 5338174
610.76428 -535.96826 3301.3447 2312462
636.35675 -541.03992 3332.5837 1786122
653.52173 -538.85638 3319.134 2115085
679.604 -543.93805 3350.4351 2772760
699.52332 -543.93805 3350.4351 2707226
730.13922 -552.02533 3400.2493 2509338
752.68713 -553.74133 3410.8191 2771228
777.35809 -556.88812 3430.2024 3359780
839.48297 -586.01965 3609.6404 1024
866.70209 -589.93958 3633.7854 768
888.30603 -589.93958 3633.7854 512
924.91083 -599.66541 3693.6926 768
954.32825 -604.38824 3722.7837 512
965.96539 -597.89172 3682.7678 1024
978.61426 -592.29559 3648.2979 768
1002.5372 -593.61768 3656.4409 1254168
1015.3735 -588.45837 3624.6621 1792
1036.9231 -588.45837 3624.6621 465416
1078.9906 -599.8653 3694.9241 925710
1100.958 -599.8653 3694.9241 69888
1130.7283 -604.03363 3720.5994 1059084
1140.5239 -597.57629 3680.8247 3034663
1144.5162 -588.37872 3624.1711 4811072
1164.2463 -587.46204 3618.5251 2244125
1241.0957 -614.87738 3787.3921 269056
1273.8495 -619.85858 3818.0745 3072
1320.5803 -631.34753 3888.8418 1716757
1344.4154 -631.68341 3890.9104 730117
1370.0057 -632.8186 3897.9031 3296803
1378.6589 -626.2229 3857.2759 1651979
1395.1919 -623.36359 3839.6638 1127428
1412.6593 -621.00714 3825.1489 2178582
1434.2816 -620.52289 3822.1663 2836771
1451.0848 -618.00134 3806.6348 336131
1478.9556 -620.19836 3820.1675 1916445
1487.031 -614.15344 3782.9331 5139276
1564.6317 -636.57513 3921.0417 926733
1591.449 -637.98053 3929.698 1536
1592.7872 -629.27887 3876.0996 1280
1635.5022 -636.93945 3923.2856 1280
1677.2074 -643.99689 3966.7563 1024
1709.9702 -647.47266 3988.1655 1280
1685.2 -629.36652 3876.6394 1792
1714.6973 -631.7428 3891.2761 3332
1716.5874 -624.01984 3843.7061 69637
1771.3412 -635.46454 3914.2009 199940
1824.3362 -645.98975 3979.0315 1450521
1847.9926 -645.98975 3979.0315 659468
1874.5873 -647.00378 3985.2778 2305
1940.8334 -661.50726 4074.6133 200197
1927.871 -648.98877 3997.5044 595469
1962.4 -652.56775 4019.5496 398090
1951.265 -641.05847 3948.657 464651
1959.5862 -636.13885 3918.354 3072
1981.046 -635.54987 3914.7261 1124629
2008.1667 -636.76953 3922.239 993550
2025.5028 -634.89429 3910.688 1520916
2039.2039 -631.93506 3892.4604 467715
2062.3455 -631.93506 3892.4604 927751
2069.7546 -627.16779 3863.0962 4087341
2092.7219 -627.16779 3863.0962 4087079
2129.5476 -631.27594 3888.4009 3493930
2192.6438 -642.99982 3960.615 136448
2216.1907 -642.99982 3960.615 595463
2286.2839 -656.36267 4042.9246 512
2330.3887 -662.06409 4078.043 512
2297.0994 -645.8869 3978.3982 768
2320.7522 -645.8869 3978.3982 1280
2276.5361 -627.18896 3863.2266 136970
2412.7559 -658.07837 4053.4924 2045991
2387.7502 -644.8175 3971.811 5635
2402.2441 -642.37885 3956.7898 205320
2422.2847 -641.45636 3951.1077 600075
2460.5161 -645.32245 3974.9211 6062167
2484.1479 -645.32245 3974.9211 4417594
2530.9199 -651.27698 4011.5986 1917214
2576.3069 -656.76727 4045.4167 2377249
2587.1611 -653.4342 4024.8865 3561266
2611.0903 -653.4342 4024.8865 2967593
2680.4011 -664.68799 4094.2051 993286
2727.2041 -670.20795 4128.2061 203009
2808.8696 -684.12048 4213.9014 1324810
2845.8176 -686.992 4231.5889 5272378
2858.9753 -684.12048 4213.9014 6324809
2883.0132 -683.87976 4212.4185 860680
3040.0342 -714.91638 4403.5913 3100958
3099.9443 -722.78076 4452.0327 4219188
3359.2708 -776.61401 4783.6235 8033390
3295.8621 -755.55823 4653.9287 67841
3464.6179 -787.63245 4851.4927 70913
3443.1655 -776.29285 4781.645 1848345
3471.594 -776.29285 4781.645 2572580
3435.6755 -762.02094 4693.7363 6718050
3618.7056 -796.14978 4903.9561 2243101
3647.8608 -796.14978 4903.9561 334340
3612.479 -782.17615 4817.8838 201986
3703.0505 -795.47937 4899.8262 1585685
3766.73 -802.84302 4945.1836 796682
3882.8601 -821.18555 5058.1655 1060874
3969.0215 -832.95654 5130.6704 4416571
3999.5244 -832.95654 5130.6704 6127702
4192.8472 -866.60931 5337.9575 2048276
4269.9556 -875.91693 5395.2886 666881
4322.7471 -880.13452 5421.2676 2179855
4342.7832 -877.67004 5406.0869 3891236
4424.5674 -887.62903 5467.4307 5929791
4501.2178 -896.42059 5521.583 6981451
4821.3916 -953.23157 5871.5151 6190146
4867.3525 -955.40112 5884.8789 1383440
5476.687 -1067.3339 6574.3384 133382
6168.144 -1193.5714 7351.9097 2055
6291.6865 -1208.9109 7446.395 133645
6619.3486 -1262.9823 7779.4526 923419
6732.9097 -1275.7362 7858.0107 1318177
6800.6465 -1279.6912 7882.3721 1450278
6826.3457 -1275.7362 7858.0107 989729
6704.8818 -1244.5193 7665.7275 857886
7011.5015 -1292.6456 7962.1665 791837
7058.8394 -1292.6456 7962.1665 134163
7302.939 -1328.4376 8182.6304 462614
7351.5869 -1328.4376 8182.6304 726043
7675.6206 -1377.8728 8487.1309 2041903
7858.4014 -1401.4713 8632.4883 1910828
7928.8022 -1404.8517 8653.3096 1055520
7980.248 -1404.8517 8653.3096 1976878
7448.0698 -1302.7678 8024.5151 2568758
7495.7778 -1302.7678 8024.5151 1450791
7698.8813 -1329.6049 8189.8198 1385254
8070.1177 -1384.9587 8530.7773 1451048
7766.479 -1324.5254 8158.5322 1386278
7814.9839 -1324.5254 8158.5322 200206
8424.4805 -1419.0188 8740.5732 4877668
8476.4453 -1419.0188 8740.5732 5931120
0 0 0 0
0 0 0 0
0 0 0 0
0 0 0 0
0 0 0 0
0 0 0 0
0 0 0 0
0 0 0 0
0 0 0 0
0 0 0 0
0 0 0 0
0 0 0 0
0 0 0 0
-1551.9906 -285.74902 1827.0024 69632
-1555.6699 -288.44522 1844.2411 267011
-1552.8947 -289.97443 1854.0184 135168
-1545.3186 -290.62259 1858.1627 68353
-1534.2712 -290.62259 1858.1627 1280
-1528.7161 -291.67044 1864.8624 2505245
-1531.631 -294.36148 1882.0681 2899747
-1506.5417 -291.67044 1864.8624 1846807
-1526.7758 -297.77927 1903.9204 794121
-1515.4564 -297.77927 1903.9204 1024
-1515.6168 -300.05194 1918.4514 1024
-1505.799 -300.36871 1920.4767 1024
-1501.7152 -301.84283 1929.9019 726284
-1488.8099 -301.55289 1928.048 529927
-1477.3472 -301.55289 1928.048 200450
-1468.028 -301.99384 1930.8673 135425
-1463.4249 -303.41962 1939.9833 2048
-1437.4703 -300.40591 1920.7145 1280
-1440.3574 -303.41962 1939.9833 1536
-1427.6349 -303.16711 1938.369 69888
-1416.1107 -303.16711 1938.369 1280
-1397.6052 -301.66028 1928.7346 2048
-1382.324 -300.83017 1923.427 1536
-1370.8887 -300.83017 1923.427 1280
-1368.7002 -302.87637 1936.51 1280
-1344.5433 -300.05475 1918.4692 1280
-1333.1376 -300.05475 1918.4692 1280
-1321.7317 -300.05475 1918.4692 1536
-1312.9833 -300.66324 1922.3599 2816
-1301.5543 -300.66324 1922.3599 1536
-1307.7344 -304.76703 1948.5984 1792
-1307.9796 -307.54871 1966.3837 67328
-1292.0955 -306.55377 1960.0223 3693092
-1280.4425 -306.55377 1960.0223 3694372
-1261.4675 -304.78464 1948.7111 734976
-1254.0547 -305.80222 1955.2172 2771999
-1251.4639 -308.02563 1969.433 1718799
-1234.6127 -306.74799 1961.264 1257223
-1236.7024 -310.19684 1983.3152 399108
-1231.8882 -311.96375 1994.6122 2560
-1234.4884 -315.66089 2018.2507 1792
-1235.0057 -318.89276 2038.9144 2048
-1217.2035 -317.41147 2029.4435 3072
-1201.9644 -316.57562 2024.0994 69120
-1186.7239 -315.72253 2018.6448 1536
-1165.4532 -313.23126 2002.7164 1792
-1175.8137 -319.27765 2041.3754 1280
-1154.0903 -316.64728 2024.5576 2767910
-1172.7841 -325.1676 2079.0342 1536
-1156.5824 -324.09128 2072.1523 2560
-1145.3979 -324.41272 2074.2078 1792
-1134.4086 -324.79712 2076.6653 1280
-1125.2709 -325.72586 2082.6035 925448
-1105.0253 -323.42422 2067.8875 2374429
-1098.8848 -325.24557 2079.5327 661255
-1093.6376 -327.37576 2093.1526 1256456
-1087.1189 -329.17001 2104.6245 2770199
-1083.1715 -331.7937 2121.3997 5930302
-1078.675 -334.30902 2137.4819 5273393
-1065.9673 -334.30902 2137.4819 7179850
-1068.6467 -339.19305 2168.7092 1123339
-1059.6987 -340.46069 2176.8142 70402
-1046.757 -340.46069 2176.8142 3072
-1033.8153 -340.46069 2176.8142 530439
-1024.701 -341.73721 2184.9758 2112284
-1003.7825 -339.0592 2167.8533 1849619
-989.89136 -338.71613 2165.6597 730882
-978.0387 -339.07071 2167.9268 3426339
-989.24213 -347.53467 2222.0432 200449
-979.12 -348.63443 2229.0747 1792
-945.94653 -341.44385 2183.1001 2572064
-938.70837 -343.54492 2196.5337 4020778
-936.50165 -347.57257 2222.2856 1653000
-912.59039 -343.54492 2196.5337 1850892
-898.6839 -343.22125 2194.4644 3693866
-908.67236 -352.14832 2251.5415 2378264
-896.12439 -352.47794 2253.6492 3101991
-887.81567 -354.51041 2266.644 335363
-877.20197 -355.67084 2274.0637 468227
-863.68201 -355.67084 2274.0637 401414
-860.66217 -360.06366 2302.1501 271620
-852.28888 -362.32257 2316.593 798470
-838.51611 -362.32257 2316.593 3497773
-825.9267 -362.84244 2319.917 3365924
-812.13409 -362.84244 2319.917 2049549
-803.3429 -365.11551 2334.4504 3233818
-789.46393 -365.11551 2334.4504 2444049
-775.34778 -365.00385 2333.7363 4878121
-758.33917 -363.50165 2324.1318 1453829
-744.52161 -363.50165 2324.1318 267264
-739.48926 -367.87207 2352.075 1581842
-725.53967 -367.88937 2352.1855 2304
-722.42706 -373.51031 2388.1245 1536
-708.229 -373.51031 2388.1245 1536
-686.6087 -369.51587 2362.585 2304
-672.26306 -369.35138 2361.5332 1536
-664.06299 -372.6283 2382.4851 1536
-643.33374 -368.86435 2358.4194 2304
-631.93427 -370.40118 2368.2456 2048
-618.7207 -370.92056 2371.5662 135680
-618.31494 -379.32141 2425.2791 200705
-609.06464 -382.56796 2446.0366 1280
-597.43719 -384.4437 2458.0295 768
-582.82355 -384.4437 2458.0295 1024
-568.96448 -384.95425 2461.2939 462598
-554.24487 -384.8942 2460.9099 68352
-539.61414 -384.8942 2460.9099 200704
-524.98334 -384.8942 2460.9099 1253643
-511.44943 -385.72147 2466.1992 857610
-496.78723 -385.72147 2466.1992 1536
-482.38803 -385.93195 2467.5449 265986
-466.32635 -384.78381 2460.2041 134144
-452.40897 -385.38797 2464.0669 1792
-435.08261 -383.03137 2448.9995 1792
-420.52264 -383.03137 2448.9995 728580
-399.56836 -376.99826 2410.4255 1650194
-393.22433 -384.81409 2460.3977 2560
-380.28714 -386.53241 2471.3843 400648
-365.59406 -386.53241 2471.3843 136450
-354.67905 -390.69409 2497.9929 3584
-341.95837 -393.14362 2513.6543 1255693
-328.25211 -394.63205 2523.1711 2560
-315.38785 -397.32388 2540.3818 795146
-300.64667 -397.80295 2543.4451 860172
-289.32236 -403.09332 2577.2703 69888
-274.26141 -403.47827 2579.7314 1792
-254.47517 -396.54538 2535.4045 2048
-241.53996 -400.08755 2558.0522 2816
-227.19231 -401.60898 2567.7798 3072
-211.92613 -401.60898 2567.7798 1852420
-195.791 -399.83447 2556.4338 1458435
-182.73238 -404.5726 2586.7285 3695136
-168.81946 -408.11642 2609.3865 1124616
-154.1261 -410.29977 2623.3464 69376
-139.00128 -411.69687 2632.2791 205568
-123.31807 -411.58478 2631.5625 1853454
-110.51334 -422.4433 2700.9888 1919243
-92.254059 -412.59888 2638.0461 4156447
-78.338905 -422.12985 2698.9846 3036435
-62.292694 -422.12985 2698.9846 3958048
-47.80386 -436.3454 2789.875 6918480
-31.217278 -436.3454 2789.875 994307
-14.892173 -444.14368 2839.7354 5010487
2.0023842 -446.71823 2856.196 403200
18.983265 -446.71823 2856.196 1324813
37.278713 -463.04675 2960.5962 1522446
54.631123 -460.94449 2947.155 404224
72.416748 -462.6308 2957.937 1589256
90.002502 -462.6308 2957.937 2840085
111.01111 -477.34909 3052.0417 5406005
129.15636 -477.34909 3052.0417 5076280
147.76428 -478.84851 3061.6287 5010493
167.33452 -482.79547 3086.8645 135425
179.67618 -467.1676 2986.9441 8167530
206.69324 -489.07578 3127.019 7574116
224.12471 -486.5585 3110.9243 860673
242.62001 -486.5585 3110.9243 1255438
257.92221 -480.60855 3072.8818 2241818
278.62183 -484.83786 3099.9229 2043667
297.05173 -484.83786 3099.9229 200960
313.96774 -482.51132 3085.0474 795397
331.7338 -481.67581 3079.7056 2375700
348.78824 -479.94852 3068.6616 2442768
368.35321 -481.67581 3079.7056 3100696
385.46701 -480.186 3070.1802 797696
407.10297 -484.20966 3095.9062 1521930
425.509 -484.20966 3095.9062 927748
444.01328 -484.3168 3096.5913 861448
462.42334 -484.3168 3096.5913 2444813
487.61203 -491.1445 3140.2458 1194496
506.28171 -491.1445 3140.2458 6917182
529.82605 -495.70532 3169.4065 2441491
563.40143 -509.01553 3254.5085 729602
582.75043 -509.01553 3254.5085 136192
609.87939 -515.59283 3296.5618 1126919
625.88507 -512.6496 3277.7437 3036193
646.28619 -513.37567 3282.3857 5010746
673.61005 -519.39703 3320.8848 2510096
696.21527 -521.54071 3334.5911 3168029
716.04034 -521.54071 3334.5911 2640409
772.21771 -547.30524 3499.3223 5930049
793.02222 -547.30524 3499.3223 6718539
773.73346 -520.34222 3326.9282 6979412
860.9433 -564.55933 3609.6404 768
882.40363 -564.55933 3609.6404 768
924.91083 -577.70532 3693.6926 66818
935.23401 -570.60547 3648.2979 660749
956.92413 -570.60547 3648.2979 463883
977.15924 -569.75708 3642.8735 2817
998.81714 -569.75708 3642.8735 69379
1015.3735 -566.90875 3624.6621 1451800
1058.8002 -578.86938 3701.1353 332293
1078.9906 -577.89795 3694.9241 5120
1101.8715 -578.3775 3697.99 664074
1123.8572 -578.3775 3697.99 335363
1141.0304 -575.94843 3682.4592 1981468
1142.7333 -565.94891 3618.5251 1849368
1188.4348 -577.70703 3693.7036 1783576
1241.9907 -592.78748 3790.1235 401412
1270.6139 -595.64227 3808.3762 3033643
1320.5803 -608.22736 3888.8418 1980700
1343.7007 -608.22736 3888.8418 531717
1355.7263 -603.29028 3857.2759 664070
1374.3033 -601.38434 3845.0896 4812861
1395.1919 -600.53571 3839.6638 996360
1414.927 -599.22589 3831.2893 1325585
1434.2816 -597.79901 3822.1663 4220213
1451.1055 -595.37836 3806.6887 1456910
1497.8904 -605.13599 3869.0767 3364653
1518.0851 -604.01874 3861.9331 3034922
1568.0859 -614.61737 3929.698 1847835
1597.2988 -616.87653 3944.1423 3841
1612.1772 -613.61444 3923.2856 1536
1645.7573 -617.46191 3947.8855 1280
1669.8821 -617.70367 3949.4312 1280
1693.3624 -617.70367 3949.4312 2560
1691.5626 -608.60809 3891.2761 1280
1689.6669 -599.72388 3834.4729 2305
1730.2202 -605.94232 3874.2322 199685
1762.469 -609.12732 3894.5959 528906
1837.9779 -626.98682 4008.7852 1252372
1875.7001 -631.66406 4038.6902 133123
1874.5873 -623.31024 3985.2778 512
1898.2808 -623.31024 3985.2778 1024
1921.9744 -623.31024 3985.2778 1280
1956.9662 -626.92975 4008.4199 727566
1968.2473 -622.95758 3983.0232 1254932
1974.741 -617.58258 3948.657 1190676
1981.046 -612.2757 3914.7261 1519381
2008.1667 -613.45074 3922.239 2967337
2025.5028 -611.64417 3910.688 70145
2024.4812 -604.39795 3864.3577 928267
2115.3528 -624.44073 3992.5059 1718291
2062.0786 -601.95978 3848.769 3298085
2084.9607 -601.95978 3848.769 6061905
2145.7644 -612.78961 3918.0117 2309658
2192.6438 -619.45288 3960.615 2111261
2216.1907 -619.45288 3960.615 68608
2278.041 -630.04657 4028.3481 768
2315.5344 -633.75342 4052.0491 512
2303.1072 -623.86157 3988.803 768
2342.2773 -628.00549 4015.2981 1792
2366.1494 -628.00549 4015.2981 1780768
2390.0215 -628.00549 4015.2981 268551
2387.7502 -621.20398 3971.811 4864
2442.158 -629.13702 4022.5327 532488
2424.8569 -618.62207 3955.3032 2772013
2448.3723 -618.62207 3955.3032 269059
2471.8877 -618.62207 3955.3032 4351549
2518.0396 -624.23376 3991.1829 3362595
2599.2561 -638.35223 4081.4524 4284722
2623.5215 -638.35223 4081.4524 4745016
2663.9126 -642.23999 4106.3096 4022834
2680.4011 -640.3468 4094.2051 1587468
2727.0962 -645.63904 4128.0425 2838815
2776.0056 -651.35645 4164.5981 4154672
2879.5002 -669.66742 4281.6733 7903600
2911.5552 -671.18872 4291.3999 530180
3013.8535 -688.73578 4403.5913 1257740
3055.1536 -692.16125 4425.4927 2376478
3211.5447 -721.37994 4612.3091 5337421
3250.926 -724.0437 4629.3403 1913879
3295.8621 -727.88934 4653.9287 3361328
3431.9124 -751.62604 4805.6948 2304
3460.4834 -751.62604 4805.6948 1978652
3640.3184 -784.21191 5014.04 1912861
3640.4348 -777.86713 4973.4731 1536
3670.0032 -777.86713 4973.4731 1388053
3699.572 -777.86713 4973.4731 861962
3612.479 -753.53247 4817.8838 5008202
3737.3293 -773.44257 4945.1836 2441244
3852.7878 -791.11328 5058.1655 3232811
3895.6567 -793.72046 5074.8354 2838566
3973.9001 -803.4397 5136.9775 3298859
4008.7744 -804.3092 5142.5366 2377756
4224.5483 -841.18591 5378.3164 4417334
4250.6572 -840.02649 5370.9033 5076031
4302.0322 -843.84039 5395.2886 2049808
4317.8364 -840.67218 5375.0317 4944697
4425.2144 -855.24872 5468.2305 5271604
4457.7241 -855.24872 5468.2305 5534775
4453.4736 -848.24695 5423.4629 6322750
4581.6523 -866.38812 5539.4526 5730870
5085.5894 -954.81903 6104.856 1251850
6081.9858 -1133.8007 7249.2163 2307
6340.5303 -1173.6813 7504.2021 463120
6610.043 -1215.0209 7768.5166 1976618
6708.3657 -1224.538 7829.3657 264716
6754.9136 -1224.538 7829.3657 2239280
6826.3457 -1229.0181 7858.0107 528662
6695.105 -1197.196 7654.5493 397076
6740.6133 -1197.196 7654.5493 594455
6889.0586 -1215.356 7770.6587 528406
6935.2573 -1215.356 7770.6587 397076
7031.9204 -1224.1411 7826.8286 1187105
7558.8691 -1307.2236 8358.0361 1517607
7608.5601 -1307.2236 8358.0361 3887950
7928.8022 -1353.4054 8653.3096 3822670
7817.79 -1325.8534 8477.1494 2441786
7448.0698 -1255.0598 8024.5151 2046256
7396.6064 -1238.455 7918.3477 3164228
7367.5146 -1225.7823 7837.3228 2900031
8040.2754 -1329.307 8499.2314 1452327
7659.7622 -1258.4872 8046.4287 728348
7707.6006 -1258.4872 8046.4287 1386278
7303.1255 -1185.0896 7577.144 530196
7256.2778 -1170.2689 7482.3848 2565
0 0 0 0
0 0 0 0
0 0 0 0
0 0 0 0
0 0 0 0
0 0 0 0
0 0 0 0
0 0 0 0
0 0 0 0
0 0 0 0
0 0 0 0
0 0 0 0
0 0 0 0
-1535.2372 -271.91965 1807.2804 201731
-1547.8837 -276.09189 1835.0106 768
-1576.8937 -283.26279 1882.671 3328
-1571.9338 -284.39047 1890.1663 268034
-1554.5076 -283.26279 1882.671 2768420
-1542.8203 -283.17209 1882.0681 1189898
-1538.8977 -284.51556 1890.9976 3888171
-1529.7406 -284.90396 1893.579 3559711
-1526.7758 -286.4599 1903.9204 4283180
-1517.6415 -286.87296 1906.6656 3756074
-1514.5798 -288.44873 1917.1388 595973
-1503.7604 -288.55972 1917.8766 268032
-1492.358 -288.55972 1917.8766 2702626
-1485.8911 -289.52136 1924.2679 1518354
-1490.5591 -292.68439 1945.2905 1123341
-1481.318 -293.14432 1948.3475 596230
-1461.1322 -291.42856 1936.9438 3328
-1442.2881 -289.95523 1927.1517 2304
-1430.8307 -289.95523 1927.1517 1536
-1422.0858 -290.5094 1930.8348 1280
-1423.4028 -293.14478 1948.3505 199169
-1411.8193 -293.14478 1948.3505 2048
-1400.2358 -293.14478 1948.3505 1536
-1370.8887 -289.39484 1923.427 1280
-1375.5908 -292.83011 1946.2592 1516821
-1352.33 -290.32056 1929.5796 133122
-1340.8582 -290.32056 1929.5796 1024
-1328.417 -290.10886 1928.1727 1024
-1316.9535 -290.10886 1928.1727 768
-1311.5438 -291.45419 1937.1143 768
-1307.7344 -293.18207 1948.5984 1024
-1305.7368 -295.35071 1963.0118 1024
-1286.123 -293.53778 1950.9626 2568997
-1282.3955 -295.35071 1963.0118 1280
-1267.3 -294.55466 1957.7211 1280
-1258.8147 -295.29449 1962.6384 726538
-1269.7841 -300.65457 1998.2635 1024
-1248.4938 -298.40549 1983.3152 1792
-1243.0867 -299.94595 1993.5537 2048
-1234.5239 -300.74731 1998.8799 134913
-1234.4884 -303.66183 2018.2507 1536
-1239.7349 -307.94553 2046.7219 530180
-1222.7668 -306.74149 2038.7194 4352
-1205.1378 -305.34586 2029.4435 662277
-1187.1727 -303.83597 2019.4082 992011
-1175.1667 -303.83597 2019.4082 3584
-1168.2773 -305.17249 2028.2911 2560
-1156.2185 -305.17249 2028.2911 4281392
-1172.179 -312.64578 2077.9617 924426
-1156.0652 -311.63232 2071.2258 1280
-1149.9265 -313.31488 2082.4087 1792
-1137.546 -313.31488 2082.4087 528645
-1125.1655 -313.31488 2082.4087 727812
-1084.1323 -305.24747 2028.7897 136448
-1098.8848 -312.88217 2079.5327 3955244
-1094.1022 -315.06519 2094.0417 1191177
-1085.27 -316.1189 2101.0452 4352300
-1072.7787 -316.1189 2101.0452 1390601
-1076.8918 -321.06943 2133.9482 2378768
-1062.728 -320.62381 2130.9866 2312210
-1046.6332 -319.57788 2124.0349 3494695
-1059.6987 -327.51895 2176.8142 134144
-1046.757 -327.51895 2176.8142 4864
-1037.094 -328.55768 2183.718 3072
-1024.701 -328.74692 2184.9758 269057
-1013.9075 -329.46072 2189.72 1717012
-990.92761 -326.18176 2167.9268 927752
-978.0387 -326.18176 2167.9268 729349
-973.49072 -329.00067 2186.6624 793605
-976.03143 -334.32401 2222.0432 2372887
-945.94653 -328.46472 2183.1001 1536
-932.96747 -328.46472 2183.1001 1320716
-924.77734 -330.17456 2194.4644 2308376
-901.22327 -326.36942 2169.1741 3691817
-898.6839 -330.17456 2194.4644 2837023
-909.52289 -339.07938 2253.6492 72704
-896.12439 -339.07938 2253.6492 2376718
-887.81567 -341.03458 2266.644 2641426
-860.28119 -335.55099 2230.1982 5075001
-858.86432 -340.24234 2261.3787 664071
-862.72852 -347.20831 2307.6772 72704
-852.28888 -348.54977 2316.593 2311200
-843.9292 -350.79984 2331.5479 864262
-828.57086 -350.16736 2327.344 270592
-812.13409 -349.0499 2319.917 2178327
-801.15991 -350.2821 2328.1067 927748
-789.80292 -351.38736 2335.4526 138496
-775.91797 -351.38736 2335.4526 662276
-758.33917 -349.68405 2324.1318 2048
-744.52161 -349.68405 2324.1318 2967071
-743.1051 -355.61871 2363.5757 134400
-726.85876 -354.5484 2356.4622 1847573
-726.26605 -361.22165 2400.8149 1536
-708.229 -359.31226 2388.1245 1792
-697.71899 -361.22165 2400.8149 331780
-672.26306 -355.31137 2361.5332 3072
-664.06299 -358.46378 2382.4851 1792
-652.33044 -359.80518 2391.4006 2048
-637.95813 -359.71793 2390.8208 71168
-623.74402 -359.71793 2390.8208 465668
-618.31494 -364.90247 2425.2791 135424
-609.06464 -368.0256 2446.0366 200192
-592.02002 -366.47665 2435.7417 4806708
-577.53888 -366.47665 2435.7417 396035
-565.73047 -368.21628 2447.304 1536
-555.91852 -371.38144 2468.3408 398084
-539.61414 -370.2634 2460.9099 860426
-525.0199 -370.28918 2461.0813 992521
-510.38806 -370.28918 2461.0813 1190155
-495.75629 -370.28918 2461.0813 597250
-480.6326 -369.91064 2458.5654 399363
-465.65598 -369.62506 2456.6672 1536
-453.14685 -371.34305 2468.0857 1792
-435.08261 -368.47137 2448.9995 1536
-420.53839 -368.4852 2449.0913 860169
-410.43906 -372.53442 2476.0039 399620
-393.22433 -370.18634 2460.3977 596486
-378.66568 -370.25388 2460.8467 3072
-364.03525 -370.25388 2460.8467 1256718
-355.22684 -376.42331 2501.8511 1585682
-342.52341 -378.8241 2517.8076 3296298
-327.55432 -378.8241 2517.8076 2048
-313.7164 -380.19495 2526.9187 531461
-300.64667 -382.68146 2543.4451 3328
-288.60281 -386.80637 2570.8606 68865
-274.26141 -388.14105 2579.7314 2816
-256.23236 -384.10587 2552.9121 268034
-242.13615 -385.82925 2564.3665 3584
-227.19231 -386.3428 2567.7798 5632
-214.07263 -390.25592 2593.7876 798466
-196.40617 -385.84424 2564.4661 3299612
-181.38829 -386.33112 2567.7019 4156701
-167.45303 -389.42517 2588.2661 4814628
-154.03885 -394.4798 2621.8613 5997368
-138.96686 -395.94919 2631.6272 4096
-123.31807 -395.93942 2631.5625 7424
-107.88729 -396.72852 2636.8071 864775
-94.986961 -408.673 2716.1946 4748582
-78.838432 -408.673 2716.1946 4747816
-62.689899 -408.673 2716.1946 5602870
-48.00983 -421.56738 2801.8955 5208370
-31.39213 -422.10992 2805.5015 5471287
-14.892173 -427.26068 2839.7354 7970651
2.0016937 -429.58914 2855.2112 202752
18.983265 -429.73737 2856.196 1786384
36.747505 -439.09778 2918.4089 3495722
54.631123 -443.42282 2947.155 3036707
72.416748 -445.04504 2957.937 2708247
90.002502 -445.04504 2957.937 667905
109.27374 -452.01715 3004.2761 4221986
129.15636 -459.20386 3052.0417 4747816
146.23405 -455.87585 3029.9226 5536319
167.33452 -464.44324 3086.8645 4154927
183.7729 -459.65619 3055.0479 5274175
204.53864 -465.58041 3094.4226 3892260
219.84221 -459.11966 3051.4819 3562520
237.9841 -459.11966 3051.4819 4944431
257.92221 -462.33945 3072.8818 6260293
276.19138 -462.33945 3072.8818 4219690
294.46051 -462.33945 3072.8818 729858
315.81317 -466.89813 3103.1807 267777
334.26245 -466.89813 3103.1807 401408
350.04349 -463.36612 3079.7056 4608
365.41608 -459.67136 3055.1489 2506266
385.46701 -461.93295 3070.1802 794630
407.10297 -465.80365 3095.9062 599040
421.6481 -461.57712 3067.8152 863232
443.05551 -464.90176 3089.9121 2508814
462.39792 -465.8811 3096.4211 996352
487.61203 -472.47488 3140.2458 3628312
505.90408 -472.1225 3137.9038 1916426
520.92554 -468.85153 3116.1638 2903062
557.69305 -484.70529 3221.5339 2375694
579.11597 -486.61273 3234.2112 202496
615.43396 -500.5112 3326.5857 598274
622.95837 -490.85645 3262.4167 2113292
642.35437 -490.85645 3262.4167 6061634
665.80084 -493.86093 3282.3857 4548905
692.9881 -499.39001 3319.134 1916420
713.09723 -499.65344 3320.8848 4482347
760.72699 -518.66638 3447.2517 5206330
781.22186 -518.66638 3447.2517 3561247
773.73346 -500.56271 3326.9282 6915924
798.41028 -503.65207 3347.4612 988931
870.31268 -535.65729 3560.1802 768
920.86426 -553.3139 3677.5325 1516570
959.12512 -562.93768 3741.4958 464396
978.125 -561.07666 3729.1267 792848
991.63385 -556.21814 3696.8352 68867
1013.6125 -556.21814 3696.8352 134915
1053.5543 -565.86609 3760.9592 1518616
1075.9142 -565.86609 3760.9592 2308642
1080.8044 -556.86517 3701.1353 795404
1101.8715 -556.39191 3697.99 400644
1125.1251 -557.01965 3702.1624 137728
1147.0282 -556.96759 3701.8162 1848600
1162.6494 -553.9245 3681.5908 2177820
1208.7845 -565.26312 3756.9517 2177820
1234.34 -566.74127 3766.7759 861192
1270.6139 -573.00043 3808.3762 267008
1312.9758 -581.73773 3866.4478 1536
1335.9629 -581.73773 3866.4478 598277
1349.5361 -577.70782 3839.6638 335618
1351.9958 -569.13367 3782.6768 1389326
1389.5408 -575.36786 3824.1113 73472
1438.9136 -586.22009 3896.2393 139264
1462.0778 -586.22009 3896.2393 4417841
1485.2419 -586.22009 3896.2393 4484140
1504.1921 -584.58234 3885.354 6654280
1518.0851 -581.05841 3861.9331 4218919
1541.0454 -581.05841 3861.9331 3164961
1597.2988 -593.42749 3944.1423 397829
1620.7477 -593.42749 3944.1423 1536
1645.7573 -593.99066 3947.8855 1280
1669.3522 -594.03473 3948.1782 1280
1684.2225 -591.01587 3928.1138 1280
1691.5626 -585.47333 3891.2761 1280
1714.6973 -585.47333 3891.2761 398857
1746.4932 -588.39124 3910.6697 2832426
1765.819 -587.08655 3901.9983 3621429
1830.0222 -600.54279 3991.4333 1645846
1855.9962 -601.26965 3996.2644 512
1860.7438 -595.18854 3955.8472 256
1831.0486 -578.3797 3844.1294 1024
1853.903 -578.3797 3844.1294 133380
1956.9662 -603.09857 4008.4199 2109987
1969.4694 -599.64948 3985.4958 1649948
1991.9276 -599.2774 3983.0232 531210
1981.046 -589.00159 3914.7261 2304
2001.1713 -588.07617 3908.5757 2304
2024.3538 -588.06018 3908.4692 663565
2024.4812 -581.42322 3864.3577 466953
2108.9531 -598.88684 3980.4272 928780
2055.0557 -577.10559 3835.6611 4021562
2084.9607 -579.07782 3848.769 3756594
2169.0969 -595.90594 3960.615 1320976
2192.6438 -595.90594 3960.615 512
2216.1907 -595.90594 3960.615 512
2257.5396 -600.64227 3992.0947 512
2301.9905 -606.09686 4028.3481 256
2303.1072 -600.14703 3988.803 768
2342.2773 -604.13342 4015.2981 68611
2366.1494 -604.13342 4015.2981 135944
2390.0215 -604.13342 4015.2981 201732
2367.4873 -592.51917 3938.1055 137476
2442.158 -605.22192 4022.5327 1388307
2424.8569 -595.10669 3955.3032 1060363
2534.6162 -616.06934 4094.6287 3298600
2466.1279 -593.72009 3946.0869 4155177
2541.3381 -606.0614 4028.1121 2904854
2615.6636 -617.96326 4107.2163 6060865
2639.4995 -617.82684 4106.3096 399618
2663.9126 -617.82684 4106.3096 2574109
2680.4011 -616.00562 4094.2051 1587983
2727.0962 -621.09674 4128.0425 2904612
2776.0056 -626.5968 4164.5981 6454870
2879.5002 -644.21167 4281.6733 6126420
3022.2419 -670.22137 4454.5435 1849877
3086.9954 -678.63452 4510.4604 2508067
3139.4021 -684.21179 4547.5293 2508325
3223.4033 -696.52094 4629.3403 2639399
3250.926 -696.52094 4629.3403 1717017
3310.7954 -703.39319 4675.0156 3624761
3431.9124 -723.05487 4805.6948 3584
3509.2864 -733.25208 4873.4692 265476
3640.3184 -754.4021 5014.04 768
3648.8535 -750.02899 4984.9751 1536
3670.0032 -748.29846 4973.4731 4096
3708.1277 -750.02899 4984.9751 3585
3677.0164 -737.83905 4903.9561 4613955
3822.7158 -761.04108 5058.1655 2706212
3861.2632 -762.71521 5069.2925 4022070
3895.6567 -763.54919 5074.8354 2114588
3973.9001 -772.89899 5136.9775 3430701
4110.7046 -793.40894 5273.2944 3759665
4224.5483 -809.21033 5378.3164 601605
4269.9556 -811.76392 5395.2886 4154416
4327.1421 -816.50195 5426.7793 3760168
4418.6172 -827.59192 5500.4878 3693603
4451.3188 -827.59192 5500.4878 6982221
4479.7891 -826.81097 5495.2969 5929530
4512.4604 -826.81097 5495.2969 6060092
4548.231 -827.37482 5499.0449 6388804
4697.147 -848.36621 5638.561 2700067
6081.9858 -1090.7021 7249.2163 1792
6468.9829 -1151.9406 7656.23 133894
6610.043 -1168.8348 7768.5166 330764
6560.02 -1151.9406 7656.23 133645
6241.3159 -1088.4237 7234.0737 1449762
7424.2524 -1285.8555 8546.2793 791578
6695.105 -1151.6876 7654.5493 528662
6719.0303 -1147.9999 7630.0396 265744
6764.3926 -1147.9999 7630.0396 595222
6895.6904 -1162.4869 7726.3257 924956
6941.625 -1162.4869 7726.3257 596248
7465.8643 -1242.0599 8255.1982 1714983
7608.5601 -1257.5327 8358.0361 3096894
7928.8022 -1301.959 8653.3096 1123102
7817.79 -1275.4543 8477.1494 70155
7868.1885 -1275.4543 8477.1494 1649701
8053.9644 -1297.2595 8622.0752 3624003
7367.5146 -1179.1874 7837.3228 2900795
