# .PCD v0.7 - Point Cloud Data file format
VERSION 0.7
FIELDS x y z rgb
SIZE 4 4 4 4
TYPE F F F U
COUNT 1 1 1 1
WIDTH 1292
HEIGHT 1
VIEWPOINT 0 0 0 1 0 0 0
POINTS 1292
DATA ascii
-586.85919 -237.134 2605.7209 4284700
-586.64398 -243.4742 2675.3894 4087586
-571.59229 -243.83862 2679.3938 927234
-560.42816 -245.92987 2702.3735 3164441
-544.36182 -245.92987 2702.3735 662274
-521.10217 -242.58131 2665.5781 794115
-503.57895 -241.77682 2656.738 267520
-491.81586 -243.77531 2678.6982 465664
-483.12735 -247.48253 2719.4346 598017
-466.95956 -247.48253 2719.4346 2837520
-452.57544 -248.46178 2730.1948 3098640
-436.7204 -248.67628 2732.552 4613421
-410.66782 -242.87637 2668.8203 3072
-408.41861 -251.25378 2760.8745 3099671
-398.75879 -255.58292 2808.4448 2377223
-375.21463 -251.0025 2758.1133 2311689
-358.81689 -251.0025 2758.1133 3560977
-345.86172 -253.52599 2785.8425 3757588
-338.61655 -260.69943 2864.667 1586437
-327.28287 -265.31827 2915.4207 401152
-310.72543 -265.98215 2922.7156 2046727
-300.46637 -272.43549 2993.6274 2047240
-280.17462 -270.03195 2967.2163 3232020
-266.29324 -273.89886 3009.7078 4614423
-251.78487 -277.63153 3050.7236 4086789
-235.99585 -280.422 3081.3865 8034870
-221.02956 -284.74207 3128.8569 4876063
-202.42764 -284.74207 3128.8569 3955485
-185.81914 -287.82986 3162.7866 5468720
-167.71309 -289.03204 3175.9968 7243599
-156.26311 -303.46552 3334.5974 1536
-137.88553 -306.68515 3369.9758 858887
-116.65292 -303.5697 3335.7422 1582867
-97.769928 -306.54495 3368.4353 2899750
-76.145523 -300.24353 3299.1929 1122318
-56.733761 -301.32092 3311.0317 1319184
-37.117226 -301.87778 3317.1509 199681
-17.44512 -302.73297 3326.5479 1536
2.3321321 -302.73297 3326.5479 1187595
22.355234 -306.09924 3363.5381 67840
42.580032 -307.74442 3381.6157 68352
63.394165 -311.2276 3419.8901 729602
83.025223 -308.62131 3391.2512 4021040
104.66467 -313.04037 3439.8096 4944698
123.34909 -308.62131 3391.2512 3957283
147.93776 -318.14105 3495.8579 4679977
170.06468 -320.67349 3523.6855 2309906
191.01396 -320.67349 3523.6855 1783305
212.99622 -322.23624 3540.8574 2506774
234.43291 -322.76675 3546.687 1915652
263.16373 -332.42349 3652.7988 4547884
282.93805 -330.15671 3627.8906 1192193
306.29388 -332.09424 3649.1812 1653767
334.43631 -338.62198 3720.9102 3035665
358.14465 -340.12866 3737.4663 5864502
379.267 -339.14685 3726.678 7377476
401.42316 -339.14685 3726.678 6258484
429.98114 -344.27264 3783.0022 5007913
463.88739 -352.95816 3878.4421 461829
489.72464 -354.97238 3900.5752 768
517.69916 -358.2836 3936.96 768
549.41071 -363.78275 3997.3867 512
562.59918 -357.0697 3923.6211 1024
585.92621 -357.0697 3923.6211 266497
617.63263 -361.98065 3977.5847 4411191
636.61176 -359.34534 3948.627 5068601
658.75244 -358.61859 3940.6409 329730
697.75385 -366.80533 4030.6001 512
723.16022 -367.53891 4038.6609 768
763.17383 -375.41071 4125.1592 1536
762.34174 -363.32562 3992.3635 1713944
772.1842 -356.90414 3921.802 1714199
795.50043 -356.90414 3921.802 1122317
825.8833 -359.98441 3955.6489 1536
860.81659 -364.82254 4008.8123 68864
862.74792 -355.79022 3909.562 1254923
884.46472 -355.17719 3902.8257 466689
909.2348 -355.79022 3909.562 2704662
936.06641 -357.15933 3924.6062 5928261
976.96149 -363.69727 3996.4475 1322506
1039.5049 -377.79251 4151.3315 2560
1064.1857 -377.79251 4151.3315 1024
1073.0712 -372.31216 4091.1113 512
1097.3939 -372.31216 4091.1113 1536
1121.5011 -372.2406 4090.325 68608
1139.5803 -370.21375 4068.0532 794120
1163.766 -370.21375 4068.0532 926985
1181.2759 -368.1333 4045.1924 532993
1210.6986 -369.77435 4063.2246 599297
1236.9814 -370.41089 4070.2192 1718536
1270.5835 -373.17273 4100.5674 2376713
1312.2194 -378.14563 4155.2119 4877091
1336.9232 -378.14563 4155.2119 6390584
1397.9901 -388.24423 4266.1792 3363863
1466.1985 -399.93088 4394.5967 2838029
1500.9418 -402.23993 4419.9692 2639626
1534.0347 -404.03488 4439.6929 6586947
1566.4974 -405.60593 4456.9561 1649931
1613.9519 -410.94186 4515.5894 2573580
1708.6321 -427.93097 4702.2725 4678189
1841.0345 -453.66867 4985.0884 1188870
1926.5985 -467.23166 5134.124 69632
1957.1223 -467.23166 5134.124 2966045
2002.5652 -470.73868 5172.6602 1056773
2068.4016 -478.8609 5261.9106 1453573
2143.5271 -488.85971 5371.7812 3032859
2193.5334 -492.9202 5416.3994 2572820
2225.7354 -492.9202 5416.3994 1256963
2273.2859 -496.27087 5453.2178 3560219
2330.1445 -501.53076 5511.0156 4876330
2512.6584 -533.31525 5860.2759 1324289
2579.4104 -539.99573 5933.6841 2771461
2637.208 -544.64679 5984.791 5402913
2702.8887 -550.78027 6052.188 7244350
2738.8706 -550.78027 6052.188 5860904
2937.6787 -583.09955 6407.3257 529156
3314.2415 -649.42236 7136.106 1975831
3575.9248 -691.84259 7602.2358 1516054
4133.0625 -789.65259 8677.0107 1186834
4337.5464 -818.50452 8994.0469 1515800
4959.3682 -924.44733 10158.188 1778720
5019.7617 -924.44733 10158.188 1450267
5017.6748 -913.0777 10033.254 1713695
5059.561 -909.88312 9998.1504 2239526
4999.2695 -888.60089 9764.293 2041891
5090.4717 -894.42572 9828.2988 1384474
5162.0635 -896.71167 9853.418 858386
5221.3135 -896.82654 9854.6797 1187865
5285.3164 -897.74615 9864.7852 1057047
5338.0127 -896.74622 9853.7969 2768433
5396.5962 -896.74622 9853.7969 3493691
5599.4888 -920.46832 10114.465 2376237
5659.3452 -920.4234 10113.971 4152646
5659.2505 -910.73138 10007.472 5600347
5670.6045 -903.06445 9923.2246 5337942
5328.8315 -839.89764 9229.123 7706472
4890.7339 -762.99103 8384.043 5993791
5548.6865 -856.9032 9415.9863 1537
5604.667 -856.9032 9415.9863 1517084
5694.0498 -861.95953 9471.5479 596240
6133.1846 -919.34357 10102.105 4349776
6194.0371 -919.46118 10103.398 4612684
6254.105 -919.46118 10103.398 2704169
6118.2002 -890.92401 9789.8203 5337418
6123.9858 -883.36304 9706.7373 5469772
5836.2524 -833.99927 9164.3096 4021562
6196.4688 -877.28424 9639.9414 7641453
6253.7812 -877.28424 9639.9414 8036470
6347.772 -882.38281 9695.9668 6655074
6498.6494 -895.22607 9837.0938 5338450
6965.8599 -951.02826 10450.27 7970425
7027.9893 -951.02826 10450.27 8168568
6841.6206 -917.69604 10084.002 8694904
6930.0923 -921.48834 10125.673 8825459
6999.4355 -922.69354 10138.917 10206850
7117.207 -930.20782 10221.486 8624484
7522.0181 -974.79285 10711.404 11452818
8806.2988 -1131.6447 12434.952 2303268
9463.1826 -1205.9329 13251.262 5527124
10426.593 -1317.734 14479.775 4803916
11771.633 -1475.5403 16213.812 329737
11882.568 -1477.348 16233.676 593166
11978.461 -1477.2714 16232.834 658962
12074.97 -1477.2714 16232.834 593679
12166.667 -1476.6874 16226.417 462863
12196.275 -1468.6361 16137.946 462605
12291.897 -1468.5975 16137.522 1318683
12387.21 -1468.5229 16136.703 1648417
12483.521 -1468.5668 16137.185 1715233
12579.46 -1468.5668 16137.185 2043940
12675.4 -1468.5668 16137.185 4543816
12771.73 -1468.6116 16137.677 5990230
12867.262 -1468.5647 16137.161 5595986
12963.202 -1468.5647 16137.161 4541506
13059.235 -1468.5752 16137.276 7171688
13156.59 -1468.733 16139.012 5786957
13253.883 -1468.8818 16140.646 5522502
13349.843 -1468.8817 16140.646 6508883
13445.11 -1468.8059 16139.812 6574162
13540.942 -1468.7925 16139.665 5982538
13635.454 -1468.6371 16137.958 6311245
13729.692 -1468.4547 16135.953 6969690
13825.626 -1468.4547 16135.953 5522244
13921.559 -1468.4547 16135.953 5522758
14017.188 -1468.4231 16135.605 5523786
11618.521 -1208.8683 13283.517 5261128
10766.066 -1112.6105 12225.799 4735554
11433.519 -1173.6641 12896.679 4472895
13110.544 -1336.8475 14689.803 2828840
13552.558 -1372.7739 15084.576 2894892
13642.239 -1372.7739 15084.576 3223856
14396.736 -1439.2352 15814.878 3684408
14490.76 -1439.2352 15814.878 2302754
14880.626 -1468.4291 16135.672 1710617
14976.558 -1468.4291 16135.672 3355699
15072.365 -1468.4171 16135.54 1645084
15168.296 -1468.4171 16135.54 2237475
14699.338 -1414.0748 15538.406 3619128
15360.741 -1468.473 16136.155 3290676
15456.488 -1468.4552 16135.959 1909024
14363.495 -1356.1973 14902.425 2501161
15648.058 -1468.4275 16135.654 3948607
0 0 0 0
0 0 0 0
0 0 0 0
0 0 0 0
0 0 0 0
0 0 0 0
0 0 0 0
0 0 0 0
0 0 0 0
0 0 0 0
0 0 0 0
0 0 0 0
0 0 0 0
0 0 0 0
0 0 0 0
-1322.3903 -134.29393 1578.8167 136192
-1344.5856 -137.52411 1616.792 201984
-1343.0769 -138.35892 1626.6064 333312
-1344.4025 -139.49992 1640.0205 3584
-1329.6351 -138.97556 1633.8557 991494
-1329.0266 -139.93423 1645.1265 662272
-1320.6017 -140.07803 1646.8171 795392
-1315.6404 -140.59415 1652.8846 1584645
-1323.022 -142.44693 1674.6669 3361305
-1323.8231 -143.61397 1688.387 3032854
-1313.7852 -143.61397 1688.387 3229720
-1313.4675 -144.68469 1700.9749 464896
-1303.0713 -144.65324 1700.6051 1320452
-1306.4047 -146.1573 1718.2876 530688
-1297.5175 -146.30711 1720.0487 2242574
-1297.2745 -147.44176 1733.3881 3952682
-1286.9691 -147.44176 1733.3881 1319175
-1279.4631 -147.76508 1737.1892 595715
-1279.7445 -149.00032 1751.7113 1024
-1262.3384 -148.1796 1742.0625 1280
-1250.1681 -147.965 1739.5396 462085
-1256.1229 -149.90991 1762.4048 2174489
-1245.6449 -149.90991 1762.4048 463362
-1249.9426 -151.70322 1783.4877 199680
-1239.1514 -151.68022 1783.2172 2816
-1221.2054 -150.77348 1772.5573 1056259
-1203.1229 -149.83395 1761.5117 2636817
-1185.6021 -148.94846 1751.1016 2572042
-1192.4532 -151.13634 1776.8231 1191680
-1187.6442 -151.87222 1785.4745 1652738
-1174.1721 -151.50357 1781.1406 4153110
-1173.4298 -152.78571 1796.2139 1389317
-1167.7656 -153.44466 1803.9607 926980
-1167.6987 -154.85812 1820.5781 1322500
-1156.8749 -154.85812 1820.5781 1254922
-1145.6271 -154.80084 1819.9045 3328
-1138.4476 -155.29742 1825.7428 67072
-1149.1259 -158.26302 1860.6075 200192
-1148.8 -159.75601 1878.1598 1280
-1134.9108 -159.3736 1873.6639 768
-1120.3395 -158.8869 1867.9421 768
-1117.9894 -160.14104 1882.6862 512
-1110.6318 -160.69597 1889.2103 512
-1103.694 -161.32362 1896.5892 512
-1095.6439 -161.79997 1902.1895 768
-1090.942 -162.78587 1913.7802 768
-1084.3818 -163.51234 1922.3207 768
-1081.7167 -164.84787 1938.0217 768
-1078.1913 -166.07964 1952.5029 1024
-1063.3667 -165.5788 1946.615 1280
-1040.6089 -163.81804 1925.9148 1280
-1035.869 -164.88615 1938.4719 68608
-1017.7087 -163.81804 1925.9148 67840
-1035.5582 -168.588 1981.9924 331265
-1021.3698 -168.19199 1977.3365 1280
-1009.614 -168.19199 1977.3365 1536
-997.85809 -168.19199 1977.3365 2304
-991.58008 -169.12627 1988.3206 1792
-985.38947 -170.09821 1999.7471 989963
-971.44238 -169.73862 1995.5195 2304
-961.07117 -170.00267 1998.6238 1536
-953.89758 -170.84602 2008.5387 1536
-945.94617 -171.56967 2017.0463 1792
-931.66003 -171.14824 2012.0916 3558431
-909.91864 -169.32843 1990.6973 4612904
-897.77539 -169.27037 1990.0146 2771468
-893.82306 -170.77573 2007.7123 994819
-883.50989 -171.09006 2011.4077 2375945
-871.55151 -171.09006 2011.4077 6127664
-866.80255 -172.52501 2028.2775 400896
-855.9342 -172.76524 2031.1019 270336
-843.8587 -172.76524 2031.1019 1256965
-825.8302 -171.52878 2016.5654 6323506
-816.23657 -172.03365 2022.5009 2113283
-818.74286 -175.14198 2059.0437 4351256
-808.49237 -175.57436 2064.127 4681256
-799.9826 -176.40395 2073.8799 3034120
-799.43652 -179.04301 2104.906 2179333
-807.07794 -183.62892 2158.8198 1455106
-794.24323 -183.62892 2158.8198 7640650
-775.0116 -182.12569 2141.1472 6061614
-762.28192 -182.12569 2141.1472 6258991
-751.39551 -182.57359 2146.4128 6654261
-760.83179 -188.06026 2210.9165 4481563
-774.4931 -194.80252 2290.1814 1323264
-774.57678 -198.30992 2331.4158 2311940
-761.68024 -198.56131 2334.3713 4284959
-749.56262 -199.02887 2339.8682 926977
-762.09949 -206.18433 2423.9907 334336
-745.66235 -205.62567 2417.4231 4352
-721.57092 -202.89282 2385.2944 926980
-716.91791 -205.62567 2417.4231 730113
-697.96564 -204.28517 2401.6636 3954469
-695.0238 -207.67256 2441.4873 661761
-689.67584 -210.47021 2474.3774 2308876
-665.99316 -207.67256 2441.4873 6981967
-666.16577 -212.35466 2496.532 3300127
-651.32318 -212.35466 2496.532 3495196
-651.96881 -217.52213 2557.283 4746531
-637.86487 -217.89784 2561.7 3760148
-628.45038 -219.93306 2585.6267 5996071
-604.25909 -216.76935 2548.4329 6719796
-600.15472 -220.83414 2596.2202 2970891
-585.14551 -220.99503 2598.1118 5206812
-583.38208 -226.30293 2660.5137 4942868
-571.59229 -227.90887 2679.3938 2304
-561.03448 -230.11221 2705.2971 3494181
-544.95074 -230.11221 2705.2971 3297055
-521.10217 -226.7337 2665.5781 1123082
-506.33368 -227.21794 2671.271 665089
-497.517 -230.49094 2709.7498 3494174
-483.53088 -231.50795 2721.7061 3033627
-467.34961 -231.50795 2721.7061 3362333
-449.28293 -230.5405 2710.3323 69376
-436.34366 -232.23 2730.1948 134400
-410.66782 -227.00949 2668.8203 5204283
-411.04959 -236.35239 2778.6594 335872
-390.39792 -233.87717 2749.5596 1388549
-375.21463 -234.60475 2758.1133 4482089
-361.23538 -236.186 2776.7034 1057028
-351.66559 -240.93983 2832.5913 1850120
-339.12274 -244.03246 2868.9495 4744998
-327.28287 -247.98529 2915.4207 862720
-314.99649 -252.02299 2962.8896 797184
-297.75815 -252.34236 2966.6445 3494934
-280.12061 -252.34236 2966.6445 2442754
-262.7515 -252.60043 2969.6782 2180096
-246.442 -253.9877 2985.9875 4350988
-228.68947 -253.9877 2985.9875 6390569
-220.01253 -264.91553 3114.46 7706170
-201.49619 -264.91553 3114.46 3296781
-186.52911 -270.05408 3174.8708 6979402
-170.35229 -274.40106 3225.9758 593668
-156.26311 -283.64041 3334.5974 594946
-136.48483 -283.73779 3335.7422 2048
-117.6422 -286.14407 3364.0315 2048
-96.637451 -283.19986 3329.4185 2966044
-76.791679 -283.01025 3327.1892 2835996
-56.516495 -280.55737 3298.3521 2045206
-36.927208 -280.71191 3300.1689 1125898
-17.26071 -279.96463 3291.3833 2045465
2.3216224 -281.68054 3311.5566 1280
22.475384 -287.63977 3381.6157 465153
42.673676 -288.27237 3389.0527 1320717
63.394165 -290.89539 3419.8901 1255181
83.394196 -289.74133 3406.3225 2560
104.65597 -292.5654 3439.5237 200961
125.10489 -292.5654 3439.5237 2113553
147.92152 -297.32452 3495.4739 4548141
166.65654 -293.71771 3453.0703 335104
189.68611 -297.64066 3499.1904 2442250
212.99622 -301.18484 3540.8574 4153374
234.43291 -301.68073 3546.687 2902800
263.3577 -310.93558 3655.4912 1125379
285.09061 -310.93558 3655.4912 2440722
306.29388 -310.39883 3649.1812 2376463
327.98929 -310.39883 3649.1812 927490
356.41095 -316.36945 3719.374 4088088
378.52365 -316.36945 3719.374 6258993
399.92676 -315.80908 3712.7861 5271077
422.00031 -315.80908 3712.7861 7243849
444.07382 -315.80908 3712.7861 462337
490.46362 -332.28302 3906.4609 1056261
524.51532 -339.28632 3988.7947 768
541.10553 -334.87729 3936.96 1024
562.59918 -333.74268 3923.6211 2048
584.9953 -333.21243 3917.3875 1056264
626.55957 -343.2229 4035.0747 3425564
641.50317 -338.45032 3978.9663 5596979
655.13525 -333.34985 3919.0029 2436628
697.54822 -342.74124 4029.4121 1054217
721.50415 -342.74124 4029.4121 330498
745.46014 -342.74124 4029.4121 1280
788.63171 -351.30093 4130.0435 330245
813.18597 -351.30093 4130.0435 768
822.896 -345.07611 4056.8618 67329
843.00848 -343.44379 4037.6714 2304
849.40082 -336.46698 3955.6489 68352
858.48761 -330.90466 3890.2563 1121803
884.46472 -331.97382 3902.8257 1188360
909.2348 -332.54681 3909.562 2109975
935.59302 -333.65762 3922.6211 926211
969.40021 -337.3063 3965.5168 1451021
1031.6183 -350.43268 4119.8359 989706
1056.1118 -350.43268 4119.8359 1024
1073.0712 -347.98938 4091.1113 198658
1091.5679 -346.14188 4069.3916 67073
1115.7615 -346.14188 4069.3916 331778
1142.6985 -346.97488 4079.1846 69376
1163.766 -346.02805 4068.0532 136448
1181.2759 -344.08353 4045.1924 401664
1204.2325 -343.77148 4041.5239 1652235
1228.2606 -343.77148 4041.5239 1850375
1285.2218 -352.8121 4147.8096 2114312
1312.2194 -353.44177 4155.2119 2181124
1336.9232 -353.44177 4155.2119 7772234
1426.9591 -370.40021 4354.5825 1058816
1466.7675 -373.94882 4396.3018 1587201
1513.5017 -379.10809 4456.9561 3627035
1539.9996 -379.10809 4456.9561 6850892
1580.1968 -382.42346 4495.9331 5600569
1655.3995 -393.95932 4631.5537 2968342
1735.9561 -406.37097 4777.4702 4284205
1846.0206 -425.17932 4998.5894 4612914
1936.6165 -438.97867 5160.8203 333056
1967.299 -438.97867 5160.8203 992007
1997.9813 -438.97867 5160.8203 201217
2068.4016 -447.57742 5261.9106 203520
2143.5271 -456.92297 5371.7812 1255948
2213.8574 -464.98691 5466.5845 6783562
2257.2546 -467.24252 5493.1025 3955744
2310.5374 -471.4509 5542.5776 3825182
2354.979 -473.76227 5569.7515 3759386
2523.6453 -500.6539 5885.9004 5601330
2558.6384 -500.6539 5885.9004 4154136
2637.208 -509.06552 5984.791 5995567
2702.8887 -514.79828 6052.188 5599011
2724.551 -512.10675 6020.5454 6980409
2935.1018 -544.5282 6401.7051 5926453
3314.2415 -606.99622 7136.106 1252369
3684.4197 -666.26465 7832.8906 2239774
4616.2563 -824.35211 9691.4346 858126
4673.8745 -824.35211 9691.4346 594698
4959.3682 -864.05408 10158.188 660495
5019.7617 -864.05408 10158.188 2568747
5017.6748 -853.42725 10033.254 2569257
4758.3828 -799.81744 9402.9951 2043683
4789.2915 -795.66498 9354.1758 2240293
5016.1787 -823.79279 9684.8594 1516827
5086.4526 -825.85394 9709.0908 2306857
5084.9155 -816.34021 9597.2432 1518624
5201.8989 -825.85394 9709.0908 1058326
5338.0127 -838.16266 9853.7969 5075028
5353.8584 -831.52484 9775.7607 3562296
5419.5356 -832.68604 9789.4121 6391642
5598.0488 -850.9751 10004.426 5206593
5567.9697 -837.50421 9846.0566 8496244
5433.6694 -808.80029 9508.6016 5535816
5224.6187 -769.67554 9048.6338 2574366
4890.7339 -713.14557 8384.043 5007677
5548.6865 -800.92255 9415.9863 1319178
5604.4121 -800.88605 9415.5576 662796
5660.6479 -800.92255 9415.9863 202503
6320.9062 -885.58423 10411.306 7773037
6356.27 -881.90271 10368.024 7971436
6128.7227 -842.16455 9900.8457 7576420
6066.2769 -825.65381 9706.7373 7970915
5850.1787 -788.73822 9272.7432 9286508
6140.4346 -820.14276 9641.9482 3823401
6208.9639 -821.62555 9659.3799 3430953
6255.083 -820.14276 9641.9482 3562023
6326.8032 -822.01324 9663.9375 7970411
6561.7383 -844.86499 9932.5928 5930075
6748.9917 -861.22449 10124.922 5995867
7031.7559 -889.37488 10455.87 7246186
6869.3828 -861.22449 10124.922 8034929
6873.8979 -854.30438 10043.566 8627062
6933.6094 -854.30438 10043.566 5203001
7059.7139 -862.41492 10138.917 5926721
7344.1006 -889.56012 10458.048 1449999
7670.5522 -921.302 10831.219 1647129
8880.2285 -1057.7153 12434.952 1844257
10426.593 -1231.6477 14479.775 5924707
11771.633 -1379.1447 16213.812 1184531
11880.413 -1380.5839 16230.731 396299
11977.348 -1380.6342 16231.324 593169
12074.97 -1380.7627 16232.834 396300
12171.446 -1380.759 16232.791 397327
12196.354 -1372.7002 16138.049 463374
12292.949 -1372.7729 16138.903 2566
12388.977 -1372.7814 16139.003 331273
12484.927 -1372.7814 16139.003 2306859
12580.329 -1372.7216 16138.3 1781542
12675.788 -1372.6686 16137.678 6123368
12772.085 -1372.7068 16138.126 7700863
12868.025 -1372.7063 16138.12 8292489
12963.974 -1372.7064 16138.122 8027525
13059.919 -1372.7064 16138.122 8618379
13156.076 -1372.7285 16138.382 8287618
13252.541 -1372.7821 16139.012 6905449
13348.731 -1372.8068 16139.301 7233130
13443.266 -1372.662 16137.599 7627117
13539.208 -1372.662 16137.599 7232872
13635.075 -1372.6544 16137.51 7364716
13729.692 -1372.522 16135.953 7430509
13825.626 -1372.522 16135.953 6575200
13921.559 -1372.522 16135.953 5983319
14017.188 -1372.4924 16135.605 4799814
10693.381 -1039.9248 12225.799 4602691
11189.582 -1080.8333 12706.737 3617079
11840.03 -1135.9924 13355.212 3354935
12365.36 -1178.4923 13854.857 1052947
13197.879 -1249.5127 14689.803 1447190
13805.393 -1298.4369 15264.978 3092274
14689.812 -1372.5958 16136.822 2039584
14785.408 -1372.5642 16136.449 8223875
14881.344 -1372.5642 16136.449 7631994
14977.273 -1372.5637 16136.444 5131604
15072.365 -1372.4868 16135.54 2631468
15168.296 -1372.4868 16135.54 1381913
14732.154 -1324.6455 15573.097 2829359
15361.278 -1372.587 16136.719 1184534
15456.676 -1372.5392 16136.155 1579548
15552.289 -1372.5109 16135.822 2435368
15648.176 -1372.5068 16135.776 2566954
0 0 0 0
0 0 0 0
0 0 0 0
0 0 0 0
0 0 0 0
0 0 0 0
0 0 0 0
0 0 0 0
0 0 0 0
0 0 0 0
0 0 0 0
0 0 0 0
0 0 0 0
0 0 0 0
0 0 0 0
-1322.3903 -124.90743 1578.8167 1792
-1344.5856 -127.91183 1616.792 1254668
-1334.9733 -127.91183 1616.792 1188104
-1344.8278 -129.79059 1640.5393 794372
-1335.0743 -129.79059 1640.5393 268032
-1329.0266 -130.1535 1645.1265 991748
-1318.8717 -130.11658 1644.6598 662530
-1309.4651 -130.1535 1645.1265 2308108
-1323.022 -132.49057 1674.6669 2308873
-1326.1829 -133.81413 1691.3965 3229976
-1323.5802 -134.57191 1700.9749 2440709
-1316.3132 -134.86348 1704.6602 4611878
-1308.0637 -135.05814 1707.1205 4743472
-1307.7437 -136.08095 1720.0487 727808
-1297.5175 -136.08095 1720.0487 202752
-1300.0173 -137.42621 1737.0529 662529
-1289.8104 -137.43906 1737.2151 2242573
-1279.9661 -137.49101 1737.8719 2111244
-1279.7445 -138.58591 1751.7113 4018982
-1269.3047 -138.58313 1751.6761 1122569
-1250.1681 -137.62296 1739.5396 2043663
-1242.1158 -137.87711 1742.7521 1024
-1252.9867 -140.25374 1772.7925 1280
-1250.1128 -141.11909 1783.7305 659206
-1239.1514 -141.07848 1783.2172 1056262
-1220.3053 -140.13176 1771.2506 528384
-1203.1229 -139.36127 1761.5117 1451524
-1185.6021 -138.53767 1751.1016 2112516
-1185.7428 -139.78154 1766.824 2770948
-1187.6442 -141.25708 1785.4745 1915145
-1177.8873 -141.36008 1786.7764 5665328
-1173.2852 -142.0892 1795.9926 1792
-1163.4872 -142.19672 1797.3514 729600
-1167.6987 -144.03429 1820.5781 2176782
-1164.2363 -144.95079 1832.1628 1650439
-1148.2947 -144.31625 1824.1422 1584651
-1149.7858 -145.88141 1843.9257 662786
-1149.1259 -147.20119 1860.6075 1792
-1155.2866 -149.42882 1888.7644 2560
-1153.0027 -150.59718 1903.5326 768
-1132.8281 -149.42882 1888.7644 512
-1123.2539 -149.64931 1891.5515 512
-1114.6257 -150.00157 1896.004 512
-1103.928 -150.07968 1896.9913 512
-1092.6498 -150.07968 1896.9913 512
-1090.942 -151.40793 1913.7802 512
-1093.2388 -153.32579 1938.0217 256
-1084.0039 -153.64998 1942.1195 512
-1085.6532 -155.54053 1966.0157 512
-1066.7318 -154.493 1952.7751 1024
-1047.3937 -153.3614 1938.4719 1024
-1035.869 -153.3614 1938.4719 463362
-1032.6737 -154.60849 1954.2349 133120
-1029.5394 -155.89314 1970.4729 2048
-1015.36 -155.51569 1965.7019 1024
-1015.2224 -157.30516 1988.3206 1024
-1001.9467 -157.07713 1985.4384 768
-998.29382 -158.37022 2001.783 768
-983.30627 -157.87469 1995.5195 768
-967.84869 -157.29066 1988.1375 768
-961.07117 -158.12029 1998.6238 1024
-957.30463 -159.47226 2015.7125 1536
-945.94617 -159.57777 2017.0463 68096
-933.95428 -159.57777 2017.0463 1846798
-909.91864 -157.49318 1990.6973 1519375
-898.08331 -157.49318 1990.6973 3362592
-888.41467 -157.8782 1995.5637 2376978
-883.50989 -159.1317 2011.4077 3495194
-871.55151 -159.1317 2011.4077 3560972
-866.42493 -160.39641 2027.3937 8298571
-856.52899 -160.80145 2032.5134 4285202
-842.31799 -160.39641 2027.3937 5403934
-825.93518 -159.56001 2016.8217 3891726
-826.77838 -162.07587 2048.6218 6194484
-818.36652 -162.82552 2058.0974 6062632
-812.31238 -164.07414 2073.8799 3759887
-801.33228 -164.35095 2077.3787 6062888
-796.26208 -165.86752 2096.5479 2575620
-794.69794 -168.17427 2125.7051 7247167
-781.93274 -168.14691 2125.3591 8300369
-769.29694 -168.14691 2125.3591 9813607
-762.2428 -169.38728 2141.0374 4878107
-751.39551 -169.81256 2146.4128 7970112
-745.83112 -171.46707 2167.3257 7838528
-740.49023 -173.23204 2189.6348 2242826
-769.43951 -183.22565 2315.9529 1981445
-760.13684 -184.30859 2329.6411 1059588
-749.56262 -185.11771 2339.8682 2441497
-753.60229 -189.6348 2396.9639 927238
-739.35168 -189.6348 2396.9639 4096
-718.36255 -187.8725 2374.6885 728069
-716.91791 -191.25343 2417.4231 2112269
-696.68524 -189.65807 2397.2578 3428638
-695.0238 -193.15726 2441.4873 3364117
-687.43756 -195.12401 2466.3469 4613157
-680.85663 -197.46809 2495.9758 4876079
-666.16577 -197.51208 2496.532 3692827
-652.39612 -197.83745 2500.6445 3561751
-651.96881 -202.31837 2557.283 4615205
-636.76501 -202.31837 2557.283 3299089
-619.41022 -201.61821 2548.4329 2115080
-601.93793 -200.84373 2538.6436 6851896
-593.80475 -203.22563 2568.7507 3097613
-586.09991 -205.88383 2602.3499 3298578
-580.06268 -209.28778 2645.3755 1125632
-566.86749 -210.22693 2657.2461 661504
-551.74707 -210.48543 2660.5137 1792
-531.61029 -208.78903 2639.0713 1792
-521.10217 -210.88611 2665.5781 67072
-506.4628 -211.39041 2671.9524 2374930
-500.82745 -215.80719 2727.7803 1650953
-483.53088 -215.32664 2721.7061 2304
-467.34961 -215.32664 2721.7061 1792
-452.96622 -216.18472 2732.552 1792
-436.77805 -216.21324 2732.9126 2048
-420.53012 -216.21324 2732.9126 4415794
-406.74478 -217.53026 2749.5596 2705946
-390.39792 -217.53026 2749.5596 3166231
-373.54514 -217.23608 2745.8411 4415532
-367.06839 -223.22498 2821.54 664321
-355.82425 -226.74939 2866.0884 1980172
-339.21674 -227.03867 2869.7446 4613931
-324.85886 -228.94398 2893.8279 3100692
-309.94986 -230.6523 2915.4207 2509581
-297.38129 -234.40779 2962.8896 3430935
-280.17462 -234.75008 2967.2163 3365137
-264.3862 -236.40654 2988.1538 2245892
-246.442 -236.23517 2985.9875 4943140
-228.68947 -236.23517 2985.9875 2573575
-214.48203 -240.20543 3036.1711 5469219
-201.46797 -246.3647 3114.0237 5994797
-186.52911 -251.17857 3174.8708 1536
-170.19817 -254.99083 3223.0571 2901024
-156.26311 -263.81531 3334.5974 1387021
-136.48483 -263.90585 3335.7422 597508
-116.65292 -263.90585 3335.7422 5632
-96.729515 -263.65652 3332.5903 7244370
-76.844635 -263.41068 3329.4834 2310662
-56.516495 -260.94775 3298.3521 2902548
-36.927208 -261.09149 3300.1689 5206055
-17.306784 -261.09149 3300.1689 5798446
2.3421397 -264.3078 3340.8228 5468463
22.475384 -267.53513 3381.6157 1320206
42.891132 -269.48978 3406.3225 598532
63.394165 -270.56317 3419.8901 2374425
83.737656 -270.59967 3420.3513 661763
104.55951 -271.86569 3436.3535 1190410
125.10489 -272.11649 3439.5237 466689
147.92152 -276.54297 3495.4739 1453075
165.43637 -271.18808 3427.7886 69632
191.17133 -279.00461 3526.5886 137472
214.47704 -282.08105 3565.4749 992258
236.15572 -282.65671 3572.751 4810530
263.16373 -288.98965 3652.7988 1584904
288.41879 -292.57886 3698.1658 1280
306.29388 -288.70346 3649.1812 660229
327.98929 -288.70346 3649.1812 136192
351.9173 -290.54672 3672.48 5007918
380.98688 -296.1716 3743.5776 1521920
403.24347 -296.1716 3743.5776 4745003
422.00031 -293.73553 3712.7861 5073967
440.48245 -291.35999 3682.7595 4019999
464.6832 -292.81287 3701.1238 1121287
518.78046 -312.12152 3945.1831 463109
542.23572 -312.12152 3945.1831 462594
565.72888 -312.14249 3945.448 528389
584.9953 -309.92249 3917.3875 858629
629.94556 -320.95844 4056.8806 2306838
633.35919 -310.79791 3928.4526 5728831
654.10706 -309.56369 3912.8523 1055237
680.07068 -310.79791 3928.4526 330498
719.42896 -317.86838 4017.8228 198914
743.3161 -317.86838 4017.8228 132866
793.36444 -328.70755 4154.8286 198403
818.06604 -328.70755 4154.8286 256
822.896 -320.95694 4056.8618 768
838.55334 -317.75052 4016.3333 1792
860.81659 -317.15552 4008.8123 529414
858.48761 -307.77603 3890.2563 2560
878.21832 -306.58978 3875.2625 267267
912.27191 -310.33655 3922.6211 3163942
945.8241 -313.73022 3965.5168 2506772
969.40021 -313.73022 3965.5168 3362333
1031.6183 -325.93912 4119.8359 2111242
1056.1118 -325.93912 4119.8359 2900250
1073.0712 -323.66656 4091.1113 1714700
1097.3939 -323.66656 4091.1113 595458
1121.7168 -323.66656 4091.1113 660485
1149.4165 -324.62033 4103.1665 4413493
1163.766 -321.84235 4068.0532 530436
1180.3704 -319.78836 4042.0913 2441491
1191.082 -316.2518 3997.3894 3954474
1228.2606 -319.74347 4041.5239 862464
1287.5154 -328.73788 4155.2119 1191680
1312.2194 -328.73788 4155.2119 5337391
1336.9232 -328.73788 4155.2119 6851395
1413.2836 -341.20929 4312.8496 4087833
1466.7675 -347.81158 4396.3018 2310663
1526.7377 -355.69388 4495.9331 3363094
1577.8903 -361.28598 4566.6167 5731385
1580.1968 -355.69388 4495.9331 1254659
1655.9515 -366.54562 4633.0981 1125632
1735.9561 -377.96756 4777.4702 3559708
1865.104 -399.54947 5050.2627 5271089
1931.6516 -407.24942 5147.5898 2900506
1968.0483 -408.45172 5162.7866 1452555
2028.0341 -414.43756 5238.4468 69888
2068.4016 -416.29388 5261.9106 794372
2121.552 -420.62933 5316.7104 663810
2170.1873 -423.95541 5358.752 2178063
2232.9231 -429.90002 5433.8906 3626272
2297.7219 -436.06656 5511.8354 3889951
2426.3323 -453.99976 5738.5088 4021279
2523.6453 -465.66058 5885.9004 3429651
2558.6384 -465.66058 5885.9004 2575109
2614.7175 -469.44629 5933.7515 3693326
2690.7529 -476.6665 6025.0142 5797152
2708.3706 -473.48425 5984.791 6059557
2683.0334 -462.97244 5851.9229 6584114
3216.1106 -547.85376 6924.814 133632
3684.4197 -619.69592 7832.8906 2042141
4176.6069 -693.71057 8768.4277 726284
4743.4219 -778.14276 9835.6426 595211
4762.9312 -771.82837 9755.8291 1187349
4794.5684 -767.60754 9702.4785 2044189
4702.4795 -743.91406 9402.9951 3229488
4758.3828 -743.91406 9402.9951 3427380
4767.7959 -736.73022 9312.1924 268036
4823.1597 -736.73022 9312.1924 5402708
5073.7583 -766.21362 9684.8594 3229489
4933.9878 -736.7453 9312.3828 729100
5201.8989 -768.13068 9709.0908 992275
5338.0127 -779.5791 9853.7969 334089
5353.8584 -773.40521 9775.7607 663306
5416.751 -774.08734 9784.3818 1979929
5474.9219 -774.08734 9784.3818 2572068
5510.6494 -770.94751 9744.6953 530180
5547.5537 -768.03589 9707.8926 331009
5592.1973 -766.24469 9685.252 266501
5649.9204 -766.26392 9685.4951 463628
5707.3604 -766.24469 9685.252 265221
5626.9121 -747.89856 9453.3584 792335
5683.1147 -747.89856 9453.3584 6521198
6294.6294 -820.26196 10368.024 4481608
6154.1577 -794.17975 10038.349 4350535
6015.9927 -768.89349 9718.7324 5403992
5991.439 -758.47058 9586.9883 5864792
6009.3384 -753.56775 9525.0166 8431725
6151.5361 -764.19781 9659.3799 6652484
6286.5322 -773.74493 9780.0547 1717533
6329.1753 -771.85449 9756.1592 860943
6387.1792 -771.85449 9756.1592 4549191
6552.1123 -784.66016 9918.0215 6325581
6724.9829 -798.17944 10088.903 5075004
7157.062 -841.95276 10642.194 4548146
7082.8647 -825.92279 10439.577 6851163
6930.0923 -801.08844 10125.673 7574626
6990.2925 -801.08844 10125.673 6188356
7418.791 -842.93512 10654.611 1384724
7482.1357 -842.93512 10654.611 1318932
7892.5864 -881.71173 11144.743 1911073
8880.2285 -983.78613 12434.952 1647902
10426.593 -1145.5614 14479.775 1910305
11715.95 -1276.6814 16137.117 1317913
11824.152 -1278.0067 16153.869 132356
11976.909 -1284.0876 16230.731 132103
12083.316 -1285.1416 16244.054 198664
12172.002 -1284.3092 16233.532 198664
12197.369 -1276.8613 16139.393 1121047
12293.081 -1276.8363 16139.076 529421
12388.977 -1276.8306 16139.003 1056022
12484.729 -1276.8104 16138.748 3358775
12580.329 -1276.7749 16138.3 2963763
12676.275 -1276.7749 16138.3 4542539
12772.79 -1276.8315 16139.016 7370622
12868.741 -1276.8315 16139.016 8751509
12964.184 -1276.7815 16138.384 9474464
13059.919 -1276.7609 16138.122 10657970
13155.713 -1276.7461 16137.936 11314875
13251.422 -1276.7234 16137.648 11644353
13347.602 -1276.7461 16137.936 11315389
13443.547 -1276.7461 16137.936 10920633
13539.208 -1276.7195 16137.599 10722739
13634.107 -1276.6217 16136.363 10657460
13729.49 -1276.5704 16135.716 10920372
13825.208 -1276.5507 16135.466 11051958
9837.0771 -902.04755 11401.785 11907265
9836.3154 -895.80475 11322.877 11052209
10686.742 -966.63855 12218.209 7893889
11356.845 -1020.3154 12896.679 1380635
12102.452 -1080.0104 13651.217 3486008
12365.36 -1096.1213 13854.857 2368295
13197.879 -1162.1776 14689.803 1644568
14593.115 -1276.5917 16135.983 3157808
14689.812 -1276.6581 16136.822 6842217
14785.75 -1276.6581 16136.822 7171439
14881.344 -1276.6285 16136.449 3553083
14977.273 -1276.6282 16136.444 5460570
15073.438 -1276.6475 16136.689 8684683
15170.219 -1276.7184 16137.586 4671054
15264.809 -1276.6052 16136.155 1118742
15360.741 -1276.6052 16136.155 1250072
15456.607 -1276.5996 16136.084 1776672
15553.673 -1276.6925 16137.259 1513497
15649.613 -1276.6925 16137.259 1514524
0 0 0 0
0 0 0 0
0 0 0 0
0 0 0 0
0 0 0 0
0 0 0 0
0 0 0 0
0 0 0 0
0 0 0 0
0 0 0 0
0 0 0 0
0 0 0 0
0 0 0 0
0 0 0 0
0 0 0 0
-1326.651 -115.89314 1583.9037 330243
-1343.7726 -118.22803 1615.8145 2700573
-1319.4424 -116.92328 1597.9825 1119758
-1344.8278 -120.03712 1640.5393 1536
-1335.0743 -120.03712 1640.5393 1536
-1325.3208 -120.03712 1640.5393 463617
-1318.8717 -120.33862 1644.6598 2560
-1309.0936 -120.33862 1644.6598 1056772
-1319.4087 -122.19956 1670.0933 1188611
-1326.1829 -123.75831 1691.3965 1058304
-1323.5802 -124.45915 1700.9749 2308362
-1318.213 -124.90882 1707.1205 3755803
-1303.0713 -124.4321 1700.6051 200961
-1306.4047 -125.72591 1718.2876 3163419
-1296.189 -125.72591 1718.2876 133376
-1300.0173 -127.09895 1737.0529 2560
-1290.2982 -127.15889 1737.8719 68352
-1283.3149 -127.49158 1742.4188 69120
-1279.7189 -128.16893 1751.6761 3072
-1269.3047 -128.16893 1751.6761 67072
-1232.0566 -125.43695 1714.3384 331010
-1244.6816 -127.77938 1746.3522 1536
-1236.7362 -128.03169 1749.8004 330498
-1245.8008 -130.06415 1777.5779 1911828
-1231.7438 -129.69678 1772.5573 1978638
-1213.6552 -128.89491 1761.598 2045961
-1203.1229 -128.8886 1761.5117 2309643
-1192.6504 -128.8886 1761.5117 1784072
-1186.1312 -129.31964 1767.4028 862720
-1183.906 -130.23071 1779.8545 5862962
-1177.8873 -130.7372 1786.7764 66816
-1173.2852 -131.41153 1795.9926 4352
-1169.7208 -132.21556 1806.9811 2304
-1163.7831 -132.76373 1814.473 727301
-1164.2363 -134.05809 1832.1628 596994
-1149.3022 -133.58833 1825.7428 2900507
-1148.7284 -134.79469 1842.2301 67328
-1146.4218 -135.81898 1856.229 1056772
-1149.9194 -137.55754 1879.9897 67072
-1144.0574 -138.19958 1888.7644 2048
-1132.8281 -138.19958 1888.7644 264451
-1130.3687 -139.28017 1903.5326 527108
-1119.8848 -139.38387 1904.95 512
-1110.2395 -139.59512 1907.8372 512
-1098.897 -139.59512 1907.8372 512
-1093.0105 -140.29547 1917.4088 512
-1093.2388 -141.8037 1938.0217 512
-1084.0039 -142.10355 1942.1195 1024
-1078.1913 -142.86328 1952.5029 1024
-1074.0231 -143.85983 1966.1226 768
-1059.2917 -143.44788 1960.4924 768
-1043.5122 -142.88319 1952.7751 512
-1035.9805 -143.44788 1960.4924 512
-1029.1503 -144.12364 1969.728 512
-1018.2988 -144.24533 1971.3912 512
-1010.1252 -144.7536 1978.3378 512
-1010.1949 -146.46907 2001.783 256
-1001.3783 -146.92162 2007.968 512
-987.70636 -146.66415 2004.4491 768
-972.4104 -146.15628 1997.5081 512
-960.53467 -146.15628 1997.5081 1024
-955.60931 -147.22711 2012.1429 1024
-943.64655 -147.22711 2012.1429 1024
-928.33179 -146.6974 2004.9036 1024
-909.60657 -145.608 1990.0146 1024
-897.77539 -145.608 1990.0146 1536
-888.41467 -146.01402 1995.5637 199168
-881.77863 -146.88492 2007.4663 1516812
-879.07812 -148.44429 2028.7781 2639374
-867.01648 -148.44429 2028.7781 203264
-856.52899 -148.71759 2032.5134 2838029
-842.64899 -148.40128 2028.1903 1917187
-828.41742 -148.01294 2022.8829 3234318
-826.16962 -149.78586 2047.1133 5997863
-818.36652 -150.58955 2058.0974 7379256
-809.38574 -151.19763 2066.408 6983730
-799.9826 -151.74435 2073.8799 1786114
-796.26208 -153.40295 2096.5479 3627790
-790.81946 -154.77727 2115.3306 3300106
-775.13739 -154.15958 2106.8887 6128678
-762.61133 -154.15958 2106.8887 4483847
-762.2428 -156.65822 2141.0374 6654492
-760.97266 -159.05328 2173.7705 5536526
-745.83112 -158.58171 2167.3257 7049253
-732.94574 -158.58171 2167.3257 7639870
-769.32123 -169.43062 2315.5969 68352
-760.13684 -170.45822 2329.6411 201984
-757.27502 -172.96812 2363.9436 1387013
-751.88135 -174.98369 2391.4902 2045712
-739.35168 -175.38419 2396.9639 1060100
-717.09241 -173.4471 2370.4897 4876588
-716.42694 -176.76004 2415.7676 3492641
-702.06451 -176.76004 2415.7676 1387525
-701.7796 -180.37839 2465.2192 2111243
-680.50842 -178.64194 2441.4873 3328
-680.85663 -182.62883 2495.9758 1585667
-666.01733 -182.62883 2495.9758 4614701
-655.18781 -183.75339 2511.3452 3102481
-649.08698 -186.28754 2545.9792 3365138
-632.12384 -185.75079 2538.6436 3629339
-617.03088 -185.75079 2538.6436 3497232
-601.93793 -185.75079 2538.6436 4943908
-601.15009 -190.27869 2600.5261 5140263
-584.71942 -189.96364 2596.2202 2968335
-572.54895 -191.05304 2611.1091 3888665
-566.86749 -194.42885 2657.2461 1848581
-551.74707 -194.66794 2660.5137 3097880
-530.76062 -192.79039 2634.8533 70144
-522.34833 -195.5049 2671.9524 1318667
-506.4628 -195.5049 2671.9524 3886882
-500.82745 -199.5898 2727.7803 1845773
-486.67603 -200.44069 2739.4094 1536
-470.66025 -200.55608 2740.9863 1792
-449.28293 -198.31314 2710.3323 2816
-436.77805 -199.96533 2732.9126 2048
-423.26392 -201.26526 2750.6787 926981
-408.52515 -202.06396 2761.5947 334592
-392.10672 -202.06396 2761.5947 4614196
-386.0354 -207.62918 2837.6541 4283431
-367.06839 -206.45013 2821.54 2442514
-352.29413 -207.62918 2837.6541 929795
-338.78455 -209.7097 2866.0884 4285211
-322.15527 -209.97722 2869.7446 3495696
-310.46771 -213.67569 2920.2915 1915654
-293.10574 -213.67569 2920.2915 5888
-280.12061 -217.06731 2966.6445 2573587
-262.7515 -217.28929 2969.6782 3757845
-245.47249 -217.62311 2974.2405 2837267
-227.78978 -217.62311 2974.2405 1256960
-214.48203 -222.15454 3036.1711 4153112
-198.2634 -224.2267 3064.4915 8100176
-183.91046 -229.04182 3130.2993 2306322
-170.19817 -235.82884 3223.0571 1519370
-154.37238 -241.03798 3294.2498 3428644
-135.73982 -242.74165 3317.5337 2770206
-117.6422 -246.14386 3364.0315 1584915
-96.729515 -243.84331 3332.5903 3328
-76.844635 -243.616 3329.4834 596227
-56.944138 -243.16423 3323.3093 3034398
-37.186138 -243.16423 3323.3093 3299350
-17.306784 -241.47108 3300.1689 1720070
2.3349743 -243.69785 3330.6021 3692572
22.136332 -243.69785 3330.6021 3584
42.629246 -247.71646 3385.5242 2044686
62.603611 -247.11047 3377.2424 5468721
83.310646 -248.98854 3402.9097 4809763
104.55951 -251.43559 3436.3535 1190144
125.10489 -251.66756 3439.5237 1254661
147.92152 -255.7614 3495.4739 4216616
164.90454 -250.00264 3416.7693 1717507
185.81552 -250.8089 3427.7886 2836242
206.19467 -250.8089 3427.7886 3955227
235.59564 -260.79572 3564.2776 4217635
256.78625 -260.79572 3564.2776 1255431
288.60187 -270.76398 3700.5132 2177298
311.49969 -271.54614 3711.2031 5376
332.60303 -270.76398 3700.5132 2506775
351.9173 -268.7128 3672.48 861185
380.98688 -273.91498 3743.5776 2902552
403.24347 -273.91498 3743.5776 199168
422.00031 -271.66199 3712.7861 4153125
440.48245 -269.46497 3682.7595 2771986
464.6832 -270.80865 3701.1238 3493654
516.60413 -287.45532 3928.6326 728064
539.96094 -287.45532 3928.6326 463616
565.72888 -288.6857 3945.448 594179
584.01489 -286.15213 3910.8218 396545
629.94556 -296.83914 4056.8806 198401
654.80597 -297.17551 4061.4775 1646865
658.4212 -288.18896 3938.6592 857096
681.83759 -288.18896 3938.6592 264450
701.73438 -286.75073 3919.0029 198401
733.89362 -290.25473 3966.8918 131840
795.52441 -304.83362 4166.1406 256
819.25641 -304.44827 4160.874 512
843.99384 -304.44827 4160.874 67585
839.36145 -294.15549 4020.2034 2048
862.43164 -293.87231 4016.3333 397572
858.48761 -284.64737 3890.2563 1912345
882.49554 -284.93127 3894.1365 728579
918.75684 -289.05573 3950.5054 3690790
935.59302 -287.01547 3922.6211 5731650
958.91406 -287.01547 3922.6211 2178065
1023.2331 -298.99533 4086.3491 1453056
1051.3893 -300.0976 4101.4136 2045453
1075.7733 -300.0976 4101.4136 3097375
1099.5441 -299.93027 4099.127 398592
1094.5319 -292.08914 3991.9629 3584
1131.8566 -295.63922 4040.4812 4096
1167.6957 -298.66174 4081.7898 1453063
1180.3704 -295.75702 4042.0913 1190914
1176.3308 -288.86383 3947.8828 2243855
1199.8021 -288.86383 3947.8828 993542
1305.0194 -308.16736 4211.7026 1125891
1346.817 -312.05005 4264.7671 4614441
1372.1722 -312.05005 4264.7671 2904079
1413.2836 -315.56821 4312.8496 5403953
1484.4052 -325.54248 4449.167 1521413
1543.3302 -332.53952 4544.7949 3626533
1600.8615 -339.00058 4633.0981 2574104
1630.8687 -339.51312 4640.103 531713
1679.0254 -343.72418 4697.6553 8231011
1801.4946 -362.76144 4957.8364 3100182
1831.3872 -362.84406 4958.9653 3823901
1931.6516 -376.64557 5147.5898 6914636
2096.5291 -402.41876 5499.8301 267010
2129.2271 -402.41876 5499.8301 398849
2133.1875 -397.06952 5426.7227 202496
2144.9092 -393.30292 5375.2446 1716750
2199.4421 -397.38174 5430.9897 4021029
2232.9231 -397.59402 5433.8906 4876847
2297.7219 -403.29718 5511.8354 663043
2392.2493 -413.98456 5657.8989 533504
2487.4141 -424.48431 5801.3989 1520389
2521.905 -424.48431 5801.3989 2113545
2614.7175 -434.16849 5933.7515 4548130
2682.7295 -439.53156 6007.0483 5402665
2685.2729 -434.16849 5933.7515 5927982
2683.0334 -428.18112 5851.9229 857346
3216.1106 -506.68384 6924.814 726786
3432.5359 -533.94556 7297.3979 2371361
4176.6069 -641.57977 8768.4277 463878
4295.8359 -651.75989 8907.5586 1647639
4362.3433 -653.79053 8935.3115 2371879
4526.5107 -670.23279 9160.0264 530184
4486.0864 -656.35052 8970.2988 3095853
4748.9673 -686.64923 9384.3887 726280
4566.7412 -652.63385 8919.5029 68097
4864.1265 -687.15405 9391.2881 133121
4919.96 -687.15405 9391.2881 989200
4909.7158 -678.02869 9266.5723 792334
5201.8989 -710.40741 9709.0908 1536
5356.126 -723.44202 9887.2334 2049
5158.1802 -689.14264 9418.4668 1057810
5274.6543 -697.13593 9527.71 2901542
5432.1216 -710.31976 9707.8926 3954994
5489.8379 -710.31976 9707.8926 4547386
5269.4585 -674.71191 9221.2422 1189134
5603.8223 -710.13635 9705.3857 598285
5780.3516 -725.0412 9909.0889 3625274
5719.2246 -710.13635 9705.3857 6191716
5898.1763 -725.0412 9909.0889 5271382
5892.3896 -717.16669 9801.4688 2178087
6079.0303 -732.63739 10012.906 4612936
5783.7876 -690.29529 9434.2197 4021056
5896.0806 -696.9389 9525.0166 3034162
5991.439 -701.47327 9586.9883 5865044
6048.4365 -701.47327 9586.9883 6062420
5934.2632 -681.80701 9318.21 6654303
6370.6387 -725.17371 9910.9004 6458211
6329.1753 -713.85144 9756.1592 7707747
6384.2954 -713.52911 9751.7549 4086574
6442.2725 -713.52911 9751.7549 3955754
6534.9912 -717.34277 9803.876 7311197
6809.1875 -740.8335 10124.922 2639389
7082.8647 -763.85663 10439.577 4546372
7089.2056 -757.89911 10358.156 1123345
6941.7515 -735.74377 10055.36 595208
7225.0811 -759.23492 10376.412 330759
7344.1006 -765.20813 10458.048 989714
7892.5864 -815.45319 11144.743 1055507
9169.8438 -939.53046 12840.5 792080
10651.882 -1082.3673 14792.642 989203
11715.95 -1180.7417 16137.117 1910307
11815.171 -1181.0697 16141.6 1843745
11976.909 -1187.5913 16230.731 921874
12083.316 -1188.5662 16244.054 264971
12179.891 -1188.5662 16244.054 727059
12197.369 -1180.9081 16139.393 397838
12293.291 -1180.9052 16139.352 4477771
12389.243 -1180.9052 16139.352 5265746
12484.729 -1180.8611 16138.748 2304807
12580.679 -1180.8611 16138.748 5592917
12676.979 -1180.8937 16139.194 197637
12772.891 -1180.89 16139.145 526093
12869.391 -1180.9402 16139.83 460046
12965.27 -1180.9332 16139.735 591634
13060.281 -1180.8479 16138.569 591378
13155.706 -1180.8009 16137.927 459535
13251.422 -1180.7806 16137.648 590607
13347.551 -1180.7971 16137.875 590607
13443.547 -1180.8016 16137.936 524814
13539.613 -1180.8123 16138.082 393485
13634.423 -1180.7137 16136.736 196875
13729.66 -1180.6537 16135.914 131078
13825.208 -1180.6208 16135.466 65542
9837.0771 -834.26068 11401.785 65541
9836.3154 -828.48706 11322.877 328205
11158.976 -933.5025 12758.116 1578529
12021.293 -998.85004 13651.217 1710116
12282.989 -1013.7503 13854.857 2039338
14402.513 -1180.7623 16137.398 2566706
14232.901 -1159.1356 15841.828 3618624
14327.086 -1159.1356 15841.828 4540239
14689.048 -1180.6587 16135.983 4013897
14785.75 -1180.7201 16136.822 855322
14881.518 -1180.7067 16136.638 2763314
14977.273 -1180.6924 16136.444 3487035
15074.277 -1180.7759 16137.586 4276300
15170.688 -1180.8125 16138.086 6316140
15265.313 -1180.7103 16136.689 7566206
15361.278 -1180.7125 16136.719 7829631
15456.607 -1180.666 16136.084 5132116
15553.206 -1180.7164 16136.773 2631722
15649.613 -1180.7521 16137.259 2632236
0 0 0 0
0 0 0 0
0 0 0 0
0 0 0 0
0 0 0 0
0 0 0 0
0 0 0 0
0 0 0 0
0 0 0 0
0 0 0 0
0 0 0 0
0 0 0 0
0 0 0 0
0 0 0 0
0 0 0 0
-1332.074 -106.91163 1590.3782 1024
-1358.4979 -109.81186 1633.5209 768
-1348.7861 -109.81186 1633.5209 512
-1350.2783 -110.73064 1647.1885 512
-1339.4738 -110.64709 1645.9454 1024
-1327.4773 -110.4631 1643.2086 266241
-1309.9858 -109.81576 1633.579 595204
-1308.4525 -110.5065 1643.8542 2700833
-1327.3558 -112.94663 1680.1527 529667
-1329.1367 -113.95574 1695.1638 662019
-1328.3623 -114.75951 1707.1205 1253901
-1323.5187 -115.2214 1713.9913 1024
-1313.3284 -115.2214 1713.9913 1280
-1296.7997 -114.66094 1705.6542 1280
-1286.6591 -114.66094 1705.6542 791560
-1300.0173 -116.77169 1737.0529 725768
-1291.3679 -116.92361 1739.3127 398592
-1281.0272 -116.92361 1739.3127 2560
-1279.7189 -117.75472 1751.6761 1536
-1269.3047 -117.75472 1751.6761 1280
-1255.0642 -117.39683 1746.3522 1280
-1247.1394 -117.62863 1749.8004 1845271
-1253.9515 -119.26601 1774.1575 1024
-1241.3665 -119.0706 1771.2506 1536
-1229.9561 -118.98549 1769.9845 1536
-1212.5614 -118.31499 1760.0105 68864
-1203.1819 -118.42171 1761.598 1847049
-1191.6339 -118.31499 1760.0105 991745
-1184.4136 -118.63988 1764.8435 2637335
-1175.6235 -118.81194 1767.4028 199424
-1187.944 -121.13983 1802.0316 1792
-1177.8195 -121.20045 1802.9333 1536
-1167.1006 -121.20045 1802.9333 1280
-1162.4058 -121.83183 1812.3257 1536
-1165.995 -123.35143 1834.9305 662272
-1158.9141 -123.76022 1841.0117 5335341
-1148.7284 -123.84213 1842.2301 199680
-1146.0023 -124.73755 1855.55 136960
-1149.9194 -126.38049 1879.9897 1782029
-1138.7423 -126.38049 1879.9897 2308889
-1127.5653 -126.38049 1879.9897 2439194
-1130.3687 -127.96313 1903.5326 264450
-1119.8848 -128.05841 1904.95 1280
-1089.0364 -125.80315 1871.4017 768
-1098.897 -128.2525 1907.8372 512
-1093.0105 -128.89595 1917.4088 768
-1094.8755 -130.47668 1940.9232 67328
-1086.5784 -130.86717 1946.7321 1792
-1081.0558 -131.60382 1957.6902 67328
-1074.0231 -132.17068 1966.1226 768
-1059.2917 -131.79221 1960.4924 660480
-1044.1815 -131.3576 1954.0276 1055494
-1032.5642 -131.3576 1954.0276 1647628
-1029.1503 -132.41306 1969.728 768
-1021.8869 -132.99184 1978.3378 768
-1034.1213 -136.15115 2025.3345 768
-1022.2829 -136.17815 2025.7362 1024
-1010.2393 -136.17815 2025.7362 1024
-986.48944 -134.58112 2001.9794 792069
-967.84869 -133.6506 1988.1375 660740
-953.97748 -133.36386 1983.8718 1280
-950.33899 -134.51836 2001.0457 1024
-943.50592 -135.24419 2011.843 1280
-931.54492 -135.24419 2011.843 1280
-912.19574 -134.15759 1995.6792 1792
-900.27881 -134.14983 1995.5637 68608
-888.66357 -134.18742 1996.1229 464896
-877.38031 -134.27684 1997.453 3328
-879.07812 -136.38263 2028.7781 1977112
-867.01648 -136.38263 2028.7781 2901531
-854.70715 -136.34312 2028.1903 134912
-839.93982 -135.90477 2021.6696 5470005
-827.32001 -135.8062 2020.2034 5207344
-826.16962 -137.6152 2047.1133 2639629
-820.46417 -138.70822 2063.3726 3694347
-809.38574 -138.91226 2066.408 5141538
-798.17694 -139.09988 2069.1987 3102738
-796.26208 -140.9384 2096.5479 3168792
-787.77948 -141.65442 2107.1992 1523459
-771.07935 -140.89206 2095.8586 4484622
-761.07275 -141.34779 2102.6379 7180839
-766.78125 -144.78613 2153.7854 2444802
-765.50403 -146.99979 2186.7148 6260779
-764.71796 -149.38586 2222.2092 5272356
-751.50629 -149.38586 2222.2092 1120265
-769.32123 -155.66374 2315.5969 5376
-762.19775 -157.03246 2335.9573 400384
-766.09949 -160.76561 2391.4902 2967568
-753.60229 -161.13356 2396.9639 5007660
-742.86914 -161.90016 2408.3674 2967575
-718.43085 -159.65131 2374.9143 268800
-716.42694 -162.39763 2415.7676 136960
-699.67352 -161.84456 2407.5403 1784072
-685.80591 -161.94986 2409.1067 5535027
-671.48309 -161.94986 2409.1067 3072
-676.11932 -166.6221 2478.6094 2443531
-661.3833 -166.6221 2478.6094 3561239
-652.99725 -168.2583 2502.9487 1784583
-643.82611 -169.76379 2525.344 2376966
-633.95044 -171.15097 2545.9792 268800
-619.27863 -171.27953 2547.8914 2639879
-603.37 -171.06386 2544.6831 3100176
-596.60748 -173.49683 2580.8752 3165965
-583.1311 -174.05428 2589.1677 3033864
-571.19519 -175.11424 2604.9353 1453312
-564.33521 -177.83279 2645.3755 2835218
-551.06946 -178.63078 2657.2461 1280
-534.74835 -178.45622 2654.6494 1536
-522.34833 -179.6194 2671.9524 69888
-503.00729 -178.39389 2653.7222 2767390
-500.66061 -183.31129 2726.8716 68096
-482.47345 -182.56392 2715.7539 1792
-472.21948 -184.87057 2750.0669 1536
-453.83646 -184.04607 2737.8018 1536
-437.55945 -184.04607 2737.8018 1792
