# .PCD v0.7 - Point Cloud Data file format
VERSION 0.7
FIELDS x y z rgb
SIZE 4 4 4 4
TYPE F F F U
COUNT 1 1 1 1
WIDTH 1389
HEIGHT 1
VIEWPOINT 0 0 0 1 0 0 0
POINTS 1389
DATA ascii
3042.0149 672.84784 4776.6895 5342245
3070.4136 672.84784 4776.6895 5341731
3098.8123 672.84784 4776.6895 5407263
3216.5671 692.07367 4913.1772 5275677
3331.8457 710.42542 5043.4604 4946967
3174.4553 670.82904 4762.3574 5078297
3202.7686 670.82904 4762.3574 4683794
3413.2092 708.64178 5030.7979 5473052
3443.1187 708.64178 5030.7979 5539358
3473.0283 708.64178 5030.7979 5735978
3616.0325 731.52081 5193.2207 6460219
3650.5957 732.26056 5198.4727 7248967
3696.3416 735.21216 5219.4268 7249220
3747.5032 739.18292 5247.6157 6723131
3694.5461 722.72046 5130.7456 5407010
3774.8018 732.37323 5199.2725 5735975
3884.5642 747.54742 5306.9971 5538343
3916.1157 747.54742 5306.9971 4617499
3513.0627 665.24878 4722.7417 5406759
3992.4866 750.03992 5324.6919 4880415
4024.1433 750.03992 5324.6919 5275427
0 0 0 0
0 0 0 0
3621.7981 659.4848 4681.8223 5998893
3649.6328 659.4848 4681.8223 5340707
0 0 0 0
0 0 0 0
4296.3628 758.98267 5388.1782 5670442
4276.2432 749.83752 5323.2549 5735977
3897.1526 678.34369 4815.7056 5604391
0 0 0 0
0 0 0 0
0 0 0 0
0 0 0 0
0 0 0 0
0 0 0 0
0 0 0 0
0 0 0 0
0 0 0 0
0 0 0 0
0 0 0 0
0 0 0 0
0 0 0 0
0 0 0 0
0 0 0 0
0 0 0 0
0 0 0 0
9056.9551 1392.3447 9884.5498 5798182
9036.2832 1380.2112 9798.4111 6127663
9094.5371 1380.2112 9798.4111 5666603
9354.6641 1410.6528 10014.522 4942627
9373.668 1404.579 9971.4033 4810791
9268.9238 1380.1552 9798.0137 5008175
9327.1768 1380.1552 9798.0137 2503694
9665.8145 1421.3868 10090.726 461056
9975.125 1457.8237 10349.399 1777412
11917.821 1731.0631 12289.183 5598524
0 0 0 0
0 0 0 0
0 0 0 0
0 0 0 0
0 0 0 0
0 0 0 0
0 0 0 0
0 0 0 0
0 0 0 0
0 0 0 0
0 0 0 0
0 0 0 0
0 0 0 0
-1626.7961 281.14279 1915.0635 2631707
-1646.7633 286.5994 1952.2322 1644043
-1635.1569 286.5994 1952.2322 1709580
-1623.5504 286.5994 1952.2322 2038035
-1623.7712 288.7023 1966.5566 2564636
-1628.7046 291.67963 1986.8373 4538681
-1616.8922 291.67963 1986.8373 2564893
-1624.4158 295.19336 2010.7719 1644048
-1615.4583 295.74203 2014.5094 1249806
-1603.4816 295.74203 2014.5094 1118733
-1621.7014 301.35339 2052.7322 1184526
-1634.5554 306.0451 2084.6909 1052940
-1622.1614 306.0451 2084.6909 1250576
-1599.0265 304.00311 2070.7812 1250576
-1576.4779 302.04172 2057.4209 658440
-1497.2294 289.10141 1969.2754 724487
-1500.3732 291.99176 1988.9635 461315
-1505.2361 295.2652 2011.2614 132352
-1493.2786 295.2652 2011.2614 66304
-1460.3354 291.08224 1982.7682 593666
-1483.9705 298.20044 2031.2552 331008
-1479.4319 299.72757 2041.6577 2963731
-1461.6117 298.56689 2033.7515 5332776
-1449.5204 298.56689 2033.7515 4148755
-1437.4292 298.56689 2033.7515 3490575
-1423.1252 298.10339 2030.5942 6188336
-1411.0529 298.10339 2030.5942 6845759
-1402.9747 298.95453 2036.3918 5924407
-1381.9741 297.04291 2023.3705 3423008
-1378.7609 298.95453 2036.3918 256
-1413.6285 309.23019 2106.3867 461312
-1401.3878 309.29251 2106.8113 723713
-1392.592 310.12311 2112.469 2697235
-1417.7584 318.60086 2170.217 2500107
-1404.8558 318.60086 2170.217 5526325
-1429.5157 327.19843 2228.7812 1776648
-1428.215 329.95923 2247.5869 1184515
-1414.8524 329.95923 2247.5869 2171155
-1418.8108 334.03714 2275.3645 1577993
-1427.5555 339.33133 2311.427 3288352
-1433.5575 344.07013 2343.7063 4669490
-1422.3256 344.72504 2348.1672 4143655
-1410.0012 345.12552 2350.8953 3223578
-1401.825 346.55948 2360.6631 4408103
-1382.0477 345.12552 2350.8953 6514239
-1397.3383 352.50879 2401.188 5328949
-1383.4854 352.61655 2401.9221 5525303
-1405.4189 361.94278 2465.4497 5129518
-1367.5681 355.90686 2424.3347 6379582
-1384.5154 364.1553 2480.5208 4406562
-1382.983 367.66858 2504.4521 4341284
-1368.0934 367.66858 2504.4521 5196849
-1357.557 368.85138 2512.509 3157267
-1360.8174 373.8508 2546.5637 7498838
-1306.302 362.91171 2472.0498 6971722
-1319.382 370.7164 2525.2129 6379587
-1315.6479 373.92203 2547.0488 2366221
-1328.6965 382.02768 2602.2622 6775121
-1313.2253 382.02768 2602.2622 7367255
-1308.9026 385.30951 2624.6172 6644301
-1299.1301 387.04691 2636.4517 6119489
-1283.4557 387.04691 2636.4517 5527863
-1279.151 390.51804 2660.0959 6712649
-1272.9323 393.48441 2680.302 2896660
-1283.0771 401.64838 2735.9126 5658171
-1254.5181 397.75067 2709.3628 5722939
-1239.251 398.02078 2711.2026 6774858
-1255.83 408.66101 2783.6807 4866350
-1243.0933 409.9184 2792.2456 4405030
-1253.1755 418.8364 2852.9924 4799017
-1236.2137 418.8364 2852.9924 2497292
-1197.8149 411.47235 2802.8308 6576955
-1185.8279 413.10153 2813.9282 7038267
-1169.0983 413.10153 2813.9282 6775344
-1166.3794 418.12408 2848.1406 7894338
-1156.8588 420.82037 2866.5068 6117930
-1144.3903 422.509 2878.0093 5526058
-1124.36 421.4147 2870.5552 6972994
-1123.5906 427.61694 2912.803 7038533
-1117.7739 432.06241 2943.0845 5460016
-1096.2499 430.48126 2932.314 6907978
-1078.8164 430.48126 2932.314 5855035
-1061.3831 430.48126 2932.314 5788989
-1051.3422 433.52966 2953.0786 7104850
-1038.8818 435.66693 2967.6372 5986628
-1021.2384 435.66693 2967.6372 5591358
-1029.7 446.99927 3044.8301 6315590
-999.43982 441.62708 3008.2361 3290912
-981.55505 441.62708 3008.2361 7174219
-927.48163 425.04272 2895.2681 7110216
-906.56 423.31107 2883.4727 6256697
-885.33203 421.36685 2870.2295 6585916
-878.84155 426.49829 2905.1831 7376198
-826.95728 409.36441 2788.4722 7574085
-819.03522 413.73712 2818.2578 6652982
-803.45068 414.34088 2822.3706 6323760
-795.60736 419.04773 2854.4321 7508293
-784.91071 422.42413 2877.4314 6916414
-767.80365 422.42413 2877.4314 6785341
-750.69647 422.42413 2877.4314 6851389
-748.26245 430.87344 2934.9854 7772492
-696.16437 410.44516 2795.8337 7443525
-633.0047 382.33633 2604.3645 7640904
-677.81183 419.66516 2858.6379 6128431
-660.81641 419.66516 2858.6379 6917948
-684.49951 446.18082 3039.2549 5997359
-669.4079 448.17441 3052.8345 6655033
-651.258 448.17441 3052.8345 6656059
-612.95477 433.90796 2955.6558 6919490
-589.95172 429.95004 2928.6956 5998642
-571.60223 429.24594 2923.8994 4880671
-552.18976 427.67444 2913.1948 5144099
-534.03229 427.00461 2908.6321 5341735
-516.5553 426.85226 2907.5942 4749597
-511.05194 436.92627 2976.2156 5210661
-489.16592 433.21414 2950.9294 4552731
-471.4014 433.01166 2949.5503 4684829
-446.10172 425.60464 2899.0957 4553499
-413.68649 410.54074 2796.4849 4027411
-417.73935 431.92151 2942.1245 4948257
-402.81973 434.6972 2961.0317 4816672
-383.01535 432.21436 2944.1191 4816159
-368.41605 435.64862 2967.5127 4223766
-358.57858 445.3425 3033.5444 4421145
-343.82877 449.63898 3062.8108 3631886
-321.13724 443.44958 3020.6504 4421145
-298.57828 436.72076 2974.8157 3829779
-282.11359 438.61978 2987.7512 4026904
-273.18262 453.2742 3087.573 3369232
-263.66284 468.99258 3194.6421 3501077
-234.62567 449.73959 3063.4961 3500822
-216.41234 449.73959 3063.4961 3698202
-203.42525 461.59866 3144.2766 3434774
-178.5162 446.06778 3038.4849 2842383
-160.45157 446.06778 3038.4849 3829276
-148.26302 464.47632 3163.8784 4618794
-129.72522 465.45346 3170.5347 4223780
-110.8755 465.45346 3170.5347 4290083
-94.097107 475.9299 3241.897 3435030
-74.823135 475.9299 3241.897 4224545
-57.630363 493.76114 3363.3582 3105807
-36.526585 479.22839 3264.3655 3171860
-16.950115 474.5 3232.157 3237903
2.2787421 477.17706 3250.3923 3501073
20.253281 447.35907 3047.2808 2316804
39.610085 461.81479 3145.7488 3632657
61.536942 487.35178 3319.6995 4027414
82.044548 491.97546 3351.1946 3830290
101.96833 491.97546 3351.1946 3896339
122.35794 493.85556 3364.0015 4225306
146.25868 507.38794 3456.1799 4027671
165.74986 504.17349 3434.2842 4553758
183.30748 496.42767 3381.522 4553758
205.61754 501.81137 3418.1941 3632399
219.52087 487.55527 3321.0857 4750624
258.14935 526.03491 3583.1978 5013797
272.95786 513.80957 3499.9224 3961110
285.57822 499.48904 3402.375 4882471
305.80627 499.48904 3402.375 4158751
327.57013 501.84186 3418.4019 5540408
369.4548 532.9444 3630.2634 3895586
392.57745 535.04291 3644.5579 3896098
416.87747 538.44257 3667.7153 3764508
433.46573 532.03876 3624.0945 4159263
453.16171 529.87524 3609.3572 3567894
449.56607 501.90421 3418.8264 2712585
509.51352 544.22504 3707.1038 4619813
536.26703 549.05121 3739.978 5408562
564.55798 555.00446 3780.53 3566360
587.0343 555.00446 3780.53 3631898
598.00201 544.52502 3709.1472 5737788
616.72491 541.6015 3689.2332 3632156
642.10583 544.52502 3709.1472 3171862
660.59198 541.6015 3689.2332 4356646
639.3476 507.33875 3455.845 4422181
688.84296 529.59564 3607.4526 3567124
709.03601 528.66046 3601.0823 3698710
689.63019 499.12036 3399.8638 3567379
709.84326 499.12036 3399.8638 5014825
735.25562 502.6749 3424.0762 5212458
776.80646 516.77411 3520.1162 3633421
835.8219 541.4472 3688.1819 4620313
857.74908 541.4472 3688.1819 3633418
872.77289 537.19806 3659.238 3830795
894.52808 537.19806 3659.238 3173379
941.44159 551.94788 3759.7095 3370755
937.82092 537.07349 3658.3894 4357650
981.20605 549.18262 3740.8733 3896843
1003.4466 549.18262 3740.8733 4357137
1026.5808 549.66113 3744.1328 4620308
1042.1241 546.14124 3720.156 4422930
1054.3303 541.05505 3685.5107 4949275
1129.6935 567.92664 3868.552 5146398
1152.693 567.92664 3868.552 4883482
1155.5663 558.20441 3802.3271 4225297
1178.1721 558.20441 3802.3271 5475365
1294.1646 601.61688 4098.0405 6330417
1242.3859 566.87457 3861.386 4422420
1259.5959 564.29993 3843.8481 5014298
1282.4486 564.29993 3843.8481 4883223
1317.6378 569.63312 3880.1765 4685588
1340.7065 569.63312 3880.1765 3962632
1459.3282 609.54449 4152.041 5081113
1484.0132 609.54449 4152.041 5146650
1495.8906 604.36993 4116.7935 5146648
1508.2582 599.55682 4084.0081 5739041
1516.7649 593.3858 4041.9729 5672991
1559.5021 600.59009 4091.0459 6067491
1583.8246 600.59009 4091.0459 5409817
1621.2601 605.48743 4124.4053 5936158
1587.8441 584.1723 3979.2131 6330917
1566.5281 567.86932 3868.1619 5343510
1694.3949 605.33466 4123.3647 5409559
1718.9093 605.33466 4123.3647 5541143
1743.4238 605.33466 4123.3647 6725673
1687.9794 577.95697 3936.8762 5212689
1691.9462 571.39221 3892.1584 5344017
1742.6656 580.58051 3954.7466 5015309
1833.4935 602.70862 4105.4771 4817930
1807.2372 586.27289 3993.5215 5146895
1830.9796 586.27289 3993.5215 5015309
1861.9224 588.54877 4009.0244 5015310
1898.8062 592.6214 4036.7659 5080591
1893.1622 583.48511 3974.5317 4949007
1916.7919 583.48511 3974.5317 4686094
1844.2538 554.56738 3777.553 5146646
1896.0295 563.27698 3836.8801 5343511
1924.1798 564.8443 3847.5562 5145876
2029.2977 588.70312 4010.0757 4882447
2053.1387 588.70312 4010.0757 5079828
2103.7385 596.28772 4061.7397 4750865
2146.6079 601.53387 4097.4751 4553231
2170.9688 601.53387 4097.4751 5014295
2195.3293 601.53387 4097.4751 5145367
2304.3391 624.47375 4253.7349 5277207
2343.1892 628.1087 4278.4951 5540126
2322.6995 615.92999 4195.5371 5014042
2394.063 628.1087 4278.4951 6526777
2336.9985 606.69116 4132.605 6197556
2377.5039 610.78522 4160.4922 5736492
2402.2393 610.78522 4160.4922 6262579
2451.2454 616.89325 4202.0986 5538600
2491.0078 620.57532 4227.1797 5276198
2516.1394 620.57532 4227.1797 5472806
2541.2712 620.57532 4227.1797 4881439
2635.1433 637.1972 4340.4033 4552218
2641.1555 632.45764 4308.1187 4618267
2703.9829 641.28351 4368.2378 5210148
2839.8542 667.09991 4544.0918 5275942
2679.0469 623.39484 4246.3853 5604395
2677.0667 617.11865 4203.6338 5670187
2790.9644 637.42371 4341.9463 5078053
2727.0503 617.11865 4203.6338 4880415
2895.7183 649.33661 4423.0933 5604394
2942.5718 653.90485 4454.2109 5012512
2933.6702 646.11206 4401.1284 5144098
2922.2161 637.89984 4345.1895 4946718
2948.0493 637.89984 4345.1895 4880926
2973.8826 637.89984 4345.1895 5735984
3058.6262 650.42731 4430.5229 6722881
3215.0166 677.84668 4617.2959 6722370
3121.9661 652.6554 4445.7002 5143338
3142.187 651.3681 4436.9316 6722367
3264.6782 671.12616 4571.5176 7709517
3312.0024 675.23322 4599.4937 5012258
3536.6663 715.13214 4871.2734 5538345
3563.5132 714.70813 4868.3853 5735726
3592.4575 714.70813 4868.3853 6262325
3444.1997 679.73615 4630.1665 6459193
3219.6882 630.38898 4294.0273 6590782
3066.5481 595.68219 4057.615 6459197
3176.2522 612.17651 4169.9697 6130231
3318.1445 634.57117 4322.5156 6262071
3481.5657 660.70721 4500.5469 5538345
3649.6328 687.31958 4681.8223 5275430
0 0 0 0
0 0 0 0
3720.9529 685.07635 4666.542 6394165
3748.6968 685.07635 4666.542 5801516
3690.7913 669.53888 4560.7051 5341220
3717.9058 669.53888 4560.7051 6525491
0 0 0 0
0 0 0 0
0 0 0 0
0 0 0 0
0 0 0 0
0 0 0 0
0 0 0 0
0 0 0 0
0 0 0 0
0 0 0 0
0 0 0 0
0 0 0 0
0 0 0 0
0 0 0 0
0 0 0 0
0 0 0 0
0 0 0 0
0 0 0 0
0 0 0 0
0 0 0 0
0 0 0 0
0 0 0 0
9278.417 1430.8876 9746.793 5866274
9336.3643 1430.8876 9746.793 6457644
9164.5186 1395.8868 9508.3779 6325805
9221.0488 1395.8868 9508.3779 5667621
0 0 0 0
0 0 0 0
0 0 0 0
0 0 0 0
0 0 0 0
0 0 0 0
0 0 0 0
0 0 0 0
0 0 0 0
0 0 0 0
0 0 0 0
0 0 0 0
0 0 0 0
-1632.973 293.6391 1922.335 3355938
-1646.7633 298.20593 1952.2322 1578765
-1635.1569 298.20593 1952.2322 2105106
-1623.5504 298.20593 1952.2322 2104340
-1623.7712 300.39401 1966.5566 1906962
-1624.5326 302.71454 1981.748 3551788
-1614.677 303.07611 1984.1151 1578000
-1623.2833 306.93384 2009.3701 2104601
-1612.4611 307.14798 2010.7719 2104344
-1600.5065 307.14798 2010.7719 1315599
-1587.1685 306.88046 2009.0208 986634
-1595.6588 310.86145 2035.0826 987147
-1591.6229 312.44434 2045.4451 855561
-1593.5135 315.22391 2063.6418 592136
-1561.854 311.35837 2038.3357 461061
-1523.3374 306.05472 2003.6147 395011
-1511.4254 306.05472 2003.6147 329730
-1499.5133 306.05472 2003.6147 132352
-1476.7234 303.81671 1988.9635 197888
-1461.5452 303.12125 1984.4106 132864
-1480.1219 309.47217 2025.9875 461824
-1471.894 310.27679 2031.2552 1054983
-1470.7823 312.6073 2046.512 660481
-1449.5204 310.65811 2033.7515 726528
-1437.4292 310.65811 2033.7515 1581828
-1431.8871 312.08554 2043.0962 3029015
-1436.7661 315.82809 2067.5972 6780217
-1433.7816 317.89185 2081.1077 6780216
-1381.9741 309.07239 2023.3705 5529901
-1369.9446 309.07239 2023.3705 3028758
-1424.6317 324.25763 2122.782 2107153
-1426.9783 327.69473 2145.2832 461312
-1410.7395 326.88733 2139.9976 789249
-1407.8712 329.19156 2155.0823 2302228
-1406.5055 331.89267 2172.7654 4538934
-1429.5157 340.44916 2228.7812 2630936
-1416.5726 340.5231 2229.2654 3946539
-1414.8524 343.32175 2247.5869 2366735
-1407.7317 344.8508 2257.5969 2169357
-1434.0438 354.67813 2321.9324 4011556
-1434.0806 358.13474 2344.5615 6643018
-1421.0551 358.36511 2346.0696 6249284
-1410.0012 359.10223 2350.8953 3288858
-1405.8271 361.62378 2367.4028 5131828
-1391.7523 361.62378 2367.4028 7829077
-1397.3383 366.78452 2401.188 6249031
-1384.5709 367.18454 2403.8069 5327927
-1405.4189 376.60056 2465.4497 7959134
-1358.3282 367.81815 2407.9548 7301718
-1376.1033 376.60056 2465.4497 5261613
-1381.6776 382.19714 2502.0881 4735781
-1363.7032 381.33063 2496.4155 6183997
-1348.175 381.1366 2495.1453 6711626
-1333.3407 381.1366 2495.1453 6052666
-1305.6478 377.41965 2470.8118 8552287
-1288.4655 376.69086 2466.0408 2499340
-1307.7394 386.72623 2531.7383 7170123
-1297.7925 388.25345 2541.7363 8485989
-1287.1886 389.6178 2550.6682 3617564
-1290.1544 395.17108 2587.0232 8419420
-1275.0012 395.24155 2587.4846 4409636
-1259.6179 395.24155 2587.4846 5133866
-1247.4253 396.25513 2594.1199 5330730
-1232.0024 396.25513 2594.1199 6514247
-1269.6001 413.52448 2707.1753 6249795
-1244.047 410.4043 2686.7488 5196083
-1228.0735 410.4043 2686.7488 6577481
-1251.7443 423.82736 2774.6243 4603435
-1238.1647 424.82803 2781.175 5919552
-1226.4926 426.51904 2792.2456 6248518
-1210.2787 426.65543 2793.1384 4077601
-1159.0272 414.27206 2712.0693 5723703
-1145.1208 415.07587 2717.3318 5329199
-1140.4711 419.306 2745.0247 5527082
-1145.7437 427.35999 2797.7507 5000992
-1140.4843 431.66492 2825.9336 6843707
-1116.264 428.81485 2807.2751 7106621
-1099.574 428.81485 2807.2751 8028748
-1078.048 426.89978 2794.738 7634757
-1068.1843 429.61539 2812.5159 6977851
-1055.6976 431.34555 2823.8425 6715703
-1027.5499 426.6293 2792.9673 7308870
-953.98596 402.59201 2635.605 7637837
-915.89685 392.97269 2572.6311 7637839
-888.66687 387.76486 2538.5378 7439687
-884.43811 392.58704 2570.1064 6847291
-875.78723 395.58136 2589.709 7308354
-858.35699 394.64627 2583.5876 6650936
-855.35785 400.43307 2621.4712 6454067
-827.63672 394.64627 2583.5876 7178558
-829.76263 403.14194 2639.2051 7244863
-836.70148 414.34851 2712.5701 6390065
-823.96075 416.05838 2723.7639 6916924
-784.38684 404.01584 2644.9263 7377220
-806.84888 424.08719 2776.3252 5929775
-792.80511 425.40839 2784.9746 7047743
-776.24768 425.40839 2784.9746 7047228
-761.24408 426.27853 2790.6709 6126640
-737.81396 422.36362 2765.0417 7640646
-721.375 422.36362 2765.0417 6194228
-702.755 421.05688 2756.4868 5470507
-637.53223 391.09885 2560.364 5997362
-633.0047 397.81998 2604.3645 6195254
-635.10608 409.14862 2678.5286 6196022
-640.81873 423.44626 2772.1294 5143588
-616.17749 417.91187 2735.8977 5209381
-601.4447 418.97964 2742.8882 5077538
-594.81512 425.90921 2788.2532 6261555
-599.66711 441.69299 2891.583 5011487
-572.55469 434.16974 2842.3315 6328115
-555.65625 434.16974 2842.3315 4288531
-550.48328 443.61896 2904.1917 4354839
-533.21704 443.61896 2904.1917 4552475
-516.5553 444.13873 2907.5942 5407784
-500.83228 445.52951 2916.6992 4157971
-480.50693 442.77911 2898.6934 4815901
-446.15384 426.4169 2791.5769 4552729
-429.55719 426.4169 2791.5769 4684571
-406.9335 420.19354 2750.8352 4684571
-399.46823 429.75677 2813.4417 4487964
-396.32648 445.01044 2913.301 5276968
-379.00607 445.01044 2913.301 4553502
-361.6842 445.00864 2913.2893 4026644
-348.00812 449.71796 2944.1191 4158229
-333.13068 453.29135 2967.5127 3829264
-317.41162 456.05521 2985.6067 4552987
-296.32474 450.97717 2952.363 3698448
-280.47565 453.73306 2970.4045 3829779
-259.54874 448.09274 2933.4797 3763988
-243.82288 451.2659 2954.2532 3895320
-229.72121 458.17114 2999.459 4356129
-210.63631 455.46332 2981.7317 4026651
-192.90909 455.46332 2981.7317 3763737
-175.18185 455.46332 2981.7317 4355619
-154.02888 445.55374 2916.8579 3697945
-136.68735 445.55374 2916.8579 4947758
-122.65942 457.92444 2997.8438 3960608
-103.60262 452.53528 2962.563 3960863
-87.047218 458.10245 2999.0093 3106066
-68.376091 452.53528 2962.563 3566616
-50.20232 447.53848 2929.8511 3632409
-35.91674 490.31076 3209.8638 2777357
-16.833204 490.31076 3209.8638 3566615
2.252079 490.69211 3212.3604 3237904
21.293753 489.38898 3203.8291 3369486
37.710289 457.47037 2994.8711 3830548
58.312435 480.51712 3145.7488 3633168
80.377899 501.50049 3283.1184 3698704
99.896317 501.49731 3283.0977 3764754
119.416 501.50049 3283.1184 4488479
138.96524 501.60944 3283.8315 2514697
160.95016 509.40042 3334.8359 2711819
180.03131 507.30005 3321.0857 4093474
199.77609 507.30005 3321.0857 4685097
216.39722 500.08148 3273.8286 3961117
252.14983 534.61761 3499.9224 5013553
272.95786 534.61761 3499.9224 6000198
285.57822 519.7171 3402.375 6066503
303.49954 515.79681 3376.7102 4487980
321.27792 512.13507 3352.7385 4356136
338.55988 508.15613 3326.6899 4421672
367.84109 521.63239 3414.9136 4159013
388.14371 521.63239 3414.9136 3895840
408.44632 521.63239 3414.9136 4159010
419.92905 510.90173 3344.6646 2712075
442.80597 514.37738 3367.4177 2843917
505.54379 561.85291 3678.2209 2909454
531.55328 566.26483 3707.1038 2908942
553.59302 566.26483 3707.1038 2184966
545.19794 536.32526 3511.1018 3368982
575.3136 545.08075 3568.4207 4224293
596.52881 545.08075 3568.4207 4619051
598.25562 527.8847 3455.845 2645260
581.13391 495.75134 3245.481 4685610
595.91223 492.02185 3221.0654 3106576
615.06238 492.02185 3221.0654 3303952
637.01862 494.19885 3235.3174 3041292
662.48462 498.89124 3266.0366 3436305
681.9021 498.89124 3266.0366 3370254
712.65948 506.95801 3318.8464 3172873
733.57129 507.77502 3324.1951 4291352
756.08606 509.62967 3336.3367 3633420
770.95129 506.3652 3314.9656 3370759
795.75702 509.62967 3336.3367 3634442
835.07733 521.80493 3416.0432 3634441
855.38666 521.80493 3416.0432 3634439
872.05835 519.63739 3401.853 3897098
892.28326 519.63739 3401.853 3962891
979.20294 557.61737 3650.4924 4685846
1000.9062 557.61737 3650.4924 5014809
1000.6597 545.64838 3572.1367 5277981
1022.4436 545.94031 3574.0476 5212189
1075.3698 562.51031 3682.5247 3304195
1097.2633 562.51031 3682.5247 4554002
1079.6807 542.6687 3552.6299 4422674
1160.9329 572.31177 3746.6907 3896330
1195.9767 578.48792 3787.1235 4619541
1218.4922 578.48792 3787.1235 4751128
1188.1196 553.83447 3625.7275 4422420
1176.9899 538.86975 3527.7595 5146397
1272.5934 572.43994 3747.5295 4093965
1313.9408 580.8692 3802.7129 3896328
1336.549 580.8692 3802.7129 5080859
1359.1571 580.8692 3802.7129 4225550
1368.8447 575.43756 3767.1543 5475358
1434.4854 593.32391 3884.2485 5475099
1442.949 587.3689 3845.2634 6264871
1480.6711 593.32391 3884.2485 5672986
1506.527 594.414 3891.385 5212178
1552.8954 603.4422 3950.4888 5277715
1543.5309 590.86664 3868.1619 5541401
1554.2179 586.22345 3837.7646 5344022
1635.1593 607.82983 3979.2131 5409303
1650.2303 604.68359 3958.6157 5738008
1673.7655 604.68359 3958.6157 5672216
1626.2179 579.35956 3792.8298 5277712
1691.9462 594.53217 3892.1584 5211919
1729.8871 599.66284 3925.7471 4357123
1766.1777 604.09259 3954.7466 4752138
1772.8118 598.39557 3917.4507 5804569
1746.3394 581.81641 3808.9138 4752138
1707.2272 561.50458 3675.9404 4554504
1796.941 583.54132 3820.2061 4554246
1846.49 592.14752 3876.5474 5211921
1821.7953 577.026 3777.553 5606423
1797.2775 562.32819 3681.332 5606168
1860.769 575.18884 3765.5256 4948494
1899.2996 580.11969 3797.8059 4948238
1921.8787 580.11969 3797.8059 5145874
1940.6744 578.99097 3790.4167 5277462
1990.2253 586.9585 3842.5769 4882448
2018.3444 588.49622 3852.6436 4816912
2035.9158 586.9585 3842.5769 4947987
2145.7451 611.75793 4004.9287 4947987
2177.6882 614.05115 4019.9414 4881684
2227.7253 621.34125 4067.6665 6066215
2232.5234 615.99249 4032.6504 4750612
2256.4985 615.99249 4032.6504 4684563
2280.4739 615.99249 4032.6504 5145114
2349.957 628.15704 4112.2866 4947734
2402.2393 635.52051 4160.4922 5078810
2403.8911 629.47589 4120.9209 5013018
2428.3911 629.47589 4120.9209 5012765
2453.4866 629.62866 4121.9209 5078047
2451.8181 622.97809 4078.3823 5210405
2418.3525 608.45758 3983.3225 5670702
2464.6318 614.08795 4020.1821 5275945
2469.8723 609.48303 3990.0359 5209896
2604.9312 636.69604 4168.188 5604656
2679.0469 648.64075 4246.3853 6327874
2702.5098 648.21307 4243.5854 6854220
2702.0586 642.11041 4203.6338 6064963
2719.9944 640.44904 4192.7573 5669948
2586.189 603.41333 3950.3 5999169
2658.5452 614.71326 4024.2759 6196547
2682.4705 614.71326 4024.2759 6459723
2746.7539 623.87988 4084.2861 5933379
2851.9795 642.1037 4203.5898 6985809
2951.439 658.724 4312.3965 6327619
3011.3325 666.30353 4362.0161 6459201
3055.9426 670.40076 4388.8389 5801522
2986.8367 649.69324 4253.2754 5801520
3012.1235 649.69324 4253.2754 5735725
3126.804 668.81421 4378.4526 5669932
3190.9092 676.89093 4431.3276 6854464
3198.6831 672.98352 4405.7476 6394171
3224.8765 672.98352 4405.7476 6328379
3223.467 667.26965 4368.3413 7052102
3194.1587 655.91815 4294.0273 6393914
3064.97 624.3988 4087.6833 6262838
3066.5481 619.80585 4057.615 5867307
3244.6831 650.69141 4259.8101 6393653
3318.1445 660.26978 4322.5156 5867560
3368.05 665.04968 4353.8076 5604643
3393.9346 665.04968 4353.8076 5868069
3237.8889 629.6698 4122.1899 5670437
3262.3965 629.6698 4122.1899 5078303
3286.9041 629.6698 4122.1899 5275424
3620.2676 688.39917 4506.6675 6328112
3647.0608 688.39917 4506.6675 6197302
3738.3188 700.47845 4585.7456 6920516
3645.2229 678.08899 4439.1709 6591807
0 0 0 0
0 0 0 0
0 0 0 0
0 0 0 0
0 0 0 0
0 0 0 0
0 0 0 0
0 0 0 0
0 0 0 0
0 0 0 0
0 0 0 0
0 0 0 0
0 0 0 0
0 0 0 0
0 0 0 0
0 0 0 0
0 0 0 0
0 0 0 0
0 0 0 0
0 0 0 0
0 0 0 0
9232.4365 1481.4568 9698.4912 5341722
9290.0967 1481.4568 9698.4912 5210138
8639.9502 1369.282 8964.1279 5604640
8776.2002 1382.3485 9049.6689 6064680
0 0 0 0
0 0 0 0
0 0 0 0
0 0 0 0
0 0 0 0
0 0 0 0
0 0 0 0
0 0 0 0
0 0 0 0
0 0 0 0
0 0 0 0
0 0 0 0
0 0 0 0
-1632.973 305.06793 1922.335 4540466
-1632.2073 307.07401 1934.976 5461314
-1623.827 307.66586 1938.7054 5723976
-1623.5504 309.81253 1952.2322 3683881
-1620.4792 311.45303 1962.5697 3486502
-1612.6023 312.18695 1967.1943 2432790
-1611.9918 314.34857 1980.8156 3288613
-1608.0404 315.88577 1990.5018 3814703
-1602.0626 317.04471 1997.8047 2762015
-1590.7207 317.15149 1998.4775 1776406
-1571.0803 315.59293 1988.6566 1578771
-1559.2572 315.59293 1988.6566 1381393
-1557.1002 317.5643 2001.0789 1118479
-1573.2061 323.31934 2037.3431 1118479
-1561.6616 323.43701 2038.0847 723978
-1530.4596 319.45337 2012.9824 855564
-1501.4457 315.86728 1990.3853 526855
-1489.6123 315.86728 1990.3853 592646
-1476.7234 315.64163 1988.9635 395267
-1462.698 315.16751 1985.976 198144
-1463.8173 317.97546 2003.6697 725003
-1468.0769 321.51724 2025.9875 132353
-1459.8176 322.35321 2031.2552 461827
-1441.2959 320.91806 2022.212 396544
-1429.2732 320.91806 2022.212 1449479
-1409.7373 319.21677 2011.4916 2501657
-1432.9749 327.2547 2062.1414 6647863
-1424.4735 328.12054 2067.5972 5924143
-1398.5457 324.9523 2047.6332 4739362
-1407.0439 329.79767 2078.1653 1579784
-1437.2462 339.86108 2141.5784 921344
-1426.9783 340.44904 2145.2832 1249288
-1425.5011 343.16382 2162.3899 1380615
-1432.3251 347.94455 2192.5149 2170130
-1406.5055 344.81036 2172.7654 1906445
-1429.8263 353.7767 2229.2654 4669747
-1428.215 356.68427 2247.5869 3288093
-1419.6274 357.88806 2255.1724 4932148
-1407.7317 358.27283 2257.5969 3945255
-1405.2831 361.0925 2275.3645 6050883
-1397.646 362.62079 2284.9949 7432535
-1402.2964 367.39844 2315.1003 5853501
-1407.1069 372.31314 2346.0696 5919549
-1396.0245 373.07898 2350.8953 6183235
-1391.7523 375.69864 2367.4028 5722428
-1394.1542 380.19196 2395.7166 5985346
-1384.5709 381.47586 2403.8069 6643275
-1375.1017 382.81827 2412.2659 8090720
-1348.5713 379.38925 2390.6584 5261879
-1346.4185 382.81827 2412.2659 3748129
-1375.3546 395.25562 2490.6377 2893588
-1323.8298 384.58881 2423.4226 3946270
-1309.4219 384.58881 2423.4226 5198388
-1318.572 391.58502 2467.5081 6120002
-1293.9043 388.58249 2448.5881 6646858
-1281.6965 389.29623 2453.0857 10462347
-1299.0905 399.12088 2514.9941 7434844
-1284.1381 399.12088 2514.9941 3749924
-1282.681 403.36481 2541.7363 7301971
-1271.8491 404.72659 2550.3174 10065529
-1274.7738 410.55167 2587.0232 5987895
-1252.4496 408.28806 2572.7595 6316861
-1237.1538 408.28806 2572.7595 4210721
-1220.3137 407.772 2569.5078 7697496
-1205.0374 407.772 2569.5078 4276004
-1229.3392 421.33691 2654.9846 5656633
-1214.5908 421.69669 2657.2517 3354139
-1212.1001 426.37775 2686.7488 6643787
-1234.5701 440.08148 2773.1006 4737068
-1218.0831 440.08148 2773.1006 5922620
-1153.7345 422.55222 2662.6428 5989947
-1137.9043 422.55222 2662.6428 5464108
-1137.3035 428.28726 2698.7812 6385973
-1121.9052 428.5343 2700.3379 6584374
-1112.1687 430.9826 2715.7654 5400353
-1100.3738 432.69351 2726.5464 7045689
-1091.1031 435.46307 2743.9983 6914360
-1074.7893 435.46307 2743.9983 7111994
-1045.7001 430.20715 2710.8792 5336354
-1029.1244 430.01553 2709.6716 7243835
-985.32483 418.26144 2635.605 7836227
-954.25916 411.62027 2593.7568 7441470
-931.19196 408.2677 2572.6311 7573313
-915.75513 408.20447 2572.2329 7507522
-886.55304 401.89893 2532.4995 6981435
-873.57446 402.85721 2538.5378 6915642
-842.91461 395.55182 2492.5042 7047998
-847.40326 404.77423 2550.6179 7114048
-832.2392 404.77423 2550.6179 5600806
-821.32867 406.88147 2563.8962 7706439
-806.08563 406.88147 2563.8962 6720056
-785.14825 403.95178 2545.4353 4943645
-766.85663 402.29498 2534.9951 6457656
-753.77899 403.36182 2541.7175 6654778
-759.17487 414.56009 2612.2815 7246660
-787.8291 439.19183 2767.4946 7378759
-765.00897 435.56699 2744.6531 5997104
-732.84503 426.34811 2686.562 5931568
-694.95026 413.31009 2604.405 5734702
-679.46631 413.31009 2604.405 5932592
-669.75055 416.9006 2627.03 5472042
-648.4884 413.30368 2604.3645 5472299
-661.84576 432.13464 2723.0249 4683039
-635.10608 425.07324 2678.5286 4815136
-623.71802 428.18762 2698.1533 4815392
-591.23041 416.59903 2625.1296 5012771
-575.85516 416.76678 2626.187 5144356
-573.55591 426.6713 2688.5986 5143842
-578.23816 442.48618 2788.2532 5143583
-566.35181 446.18149 2811.5386 5078561
-549.63641 446.18149 2811.5386 4749850
-530.58325 444.22415 2799.2048 4684314
-524.34607 453.21762 2855.8757 4487192
-508.35956 454.10416 2861.4622 4815900
-493.67807 456.25821 2875.0354 5342246
-462.75055 443.01361 2791.5769 4881950
-439.64246 436.54803 2750.8352 4158225
-423.28796 436.54803 2750.8352 4487189
-405.84201 435.37714 2743.457 4487704
-391.767 437.87582 2759.2019 4290324
-381.31113 444.81485 2802.927 4356120
-364.64697 444.81485 2802.927 4356375
-349.41089 446.64035 2814.4302 5869615
-339.8447 456.26166 2875.0571 4224792
-322.75168 456.26166 2875.0571 4290585
-300.63364 448.76071 2827.7913 4619550
-291.16141 460.36591 2900.9194 3369227
-274.58139 461.48648 2907.9807 4750625
-256.66785 460.36591 2900.9194 3829779
-240.00388 461.48648 2907.9807 4290076
-210.01663 435.17404 2742.177 4027159
-197.32935 443.29666 2793.3606 4421919
-181.6165 445.49072 2807.186 4421665
-166.79724 450.54254 2839.019 4092445
-149.91849 450.54254 2839.019 4421669
-135.02364 457.26111 2881.355 5540408
-117.89317 457.26111 2881.355 5079856
-100.76273 457.26111 2881.355 4816428
-83.34037 455.66516 2871.2986 4158753
-64.865303 446.00864 2810.4495 4553510
-48.981434 453.64987 2858.5994 4356132
-32.783539 464.95728 2929.8511 3040271
-16.801558 508.43661 3203.8291 3764250
2.246098 508.43661 3203.8291 3632662
19.904947 475.27573 2994.8711 4027418
37.700089 475.14709 2994.0608 3369999
56.750996 485.85181 3061.5146 3369997
75.628738 490.23492 3089.1343 3830805
93.994499 490.23492 3089.1343 3435790
114.07485 497.71576 3136.2734 3106824
133.95998 502.36255 3165.5544 3633170
156.58583 514.8764 3244.4082 3830046
175.0488 512.45844 3229.1719 4751403
194.24712 512.45844 3229.1719 5540151
208.47173 500.51706 3153.9253 4816687
228.06229 502.36649 3165.5793 4816432
260.85504 530.79834 3344.7378 4487469
280.74045 530.79834 3344.7378 4224040
300.62582 530.79834 3344.7378 3039769
312.17697 516.99597 3257.7644 5934913
335.9614 523.88226 3301.1572 4750639
358.33798 527.9342 3326.6899 4159269
378.39398 528.3222 3329.1348 3896352
400.04407 530.78674 3344.6646 3699482
416.14658 526.00574 3314.5378 2515207
423.93182 511.61945 3223.8853 2975758
456.84326 527.48944 3323.8872 2712588
484.88956 536.65881 3381.6665 2580750
504.99451 536.65881 3381.6665 2382602
525.09943 536.65881 3381.6665 1988103
545.8905 537.33417 3385.9221 2646028
548.14954 520.36871 3279.0171 2908944
539.90118 494.93619 3118.7583 2908946
558.06421 494.60046 3116.6428 5212218
591.59729 507.47061 3197.7419 1593346
608.9491 506.09125 3189.0503 3173138
620.36499 500.01096 3150.7361 2581256
642.89233 502.98035 3169.4473 3041805
661.73566 502.98035 3169.4473 3897112
686.05273 507.02582 3194.9392 2120960
705.04761 507.02582 3194.9392 2449920
728.45624 510.11673 3214.416 2910724
756.93964 516.51245 3254.7175 2647808
776.28986 516.51245 3254.7175 2515968
795.64008 516.51245 3254.7175 2713600
818.10107 518.48395 3267.1409 3239683
819.89514 507.56982 3198.3672 3568386
849.0957 513.73236 3237.1992 3502337
875.9223 518.21716 3265.4597 4686098
927.45551 536.80762 3382.6042 4949270
921.87549 522.2536 3290.8945 5738531
944.21069 523.79022 3300.5771 4883480
982.91571 534.16028 3365.9224 5409056
1002.927 534.16028 3365.9224 4948762
1047.5211 546.99695 3446.8105 5145627
1071.7374 548.9043 3458.8293 5738021
1092.3011 548.9043 3458.8293 5540645
1087.4673 536.37732 3379.8928 5211936
1140.0596 552.11554 3479.0647 5211679
1053.7612 501.22873 3158.4097 4158991
1174.1238 548.70233 3457.5569 5211679
1225.6215 562.91339 3547.1055 4620053
1310.0145 591.49658 3727.2178 4751638
1332.1738 591.49658 3727.2178 4488210
1354.3333 591.49658 3727.2178 6330159
1288.1652 553.54114 3488.0479 5672483
1308.9026 553.54114 3488.0479 5804323
1414.5957 588.909 3710.9124 6067493
1436.6581 588.909 3710.9124 5343513
1494.3564 603.29584 3801.5686 5145876
1468.6703 584.0918 3680.5576 6264101
1490.5521 584.0918 3680.5576 5408788
1576.2163 608.72406 3835.7737 5803547
1599.0211 608.72406 3835.7737 5540118
1551.6572 582.38751 3669.8181 5737754
1553.1884 574.87866 3622.5029 5540631
1609.3517 587.51971 3702.158 5014287
1671.3168 601.909 3792.8298 5343252
1711.5125 608.17957 3832.3425 5277458
1706.7773 598.52905 3771.5317 4882956
1625.2888 562.56213 3544.8921 4882956
1672.6223 571.53455 3601.4304 4751372
1726.334 582.43201 3670.0989 4553735
1750.9362 583.35907 3675.9404 4685321
1800.533 592.48798 3733.4648 4816908
1765.6079 573.92041 3616.4641 5145875
1787.1089 573.92041 3616.4641 5014290
1850.7534 587.29364 3700.7336 5080083
1901.0542 596.16815 3756.6548 5145619
1923.3884 596.16815 3756.6548 5014033
1911.4518 585.66748 3690.4868 5014290
1907.8502 577.93018 3641.731 5408791
1921.0792 575.40747 3625.835 5079827
2012.2356 596.02289 3755.7395 4487690
2054.8682 601.97089 3793.2195 6395184
2097.7021 607.84802 3830.2534 5934631
2117.5752 607.01697 3825.0168 5474080
2145.7603 608.56104 3834.7466 5605156
2163.0566 607.01697 3825.0168 5473572
2191.3574 608.56104 3834.7466 5539624
2352.6169 646.617 4074.55 5013024
2320.8579 631.38678 3978.5793 5604906
2232.5896 601.24573 3788.6504 6065456
2255.114 601.24573 3788.6504 4946973
2289.582 604.3985 3808.5171 4881439
2312.2249 604.3985 3808.5171 5670449
2390.9722 618.92163 3900.0322 6131004
2395.3059 614.0882 3869.5752 5933629
2434.2488 618.13525 3895.0769 6262595
2457.4062 618.13525 3895.0769 7117392
2533.7349 631.38507 3978.5684 6788428
2557.3884 631.38507 3978.5684 6591305
2562.7036 626.89899 3950.3 6722891
2553.9839 619.09235 3901.1082 6327876
2609.6748 626.89899 3950.3 6393925
2585.4153 615.53192 3878.6724 5933112
2595.6047 612.49481 3859.5347 5735988
2618.5505 612.49481 3859.5347 6262332
2619.6387 607.42651 3827.5974 6130487
2879.8123 662.00342 4171.5049 6393660
2865.1687 653.01343 4114.856 6130229
2878.7368 650.55115 4099.3403 5933359
2914.0967 653.01343 4114.856 5933102
2983.7502 663.0556 4178.1353 5801255
3008.5906 663.0556 4178.1353 5407009
3004.0657 656.63696 4137.689 5406750
3073.8489 666.43304 4199.4175 5472799
3053.2651 656.63696 4137.689 5012250
3040.6677 648.70123 4087.6833 5077788
3064.97 648.70123 4087.6833 5012251
3118.4082 654.81934 4126.2354 6459954
3147.5486 655.77954 4132.2861 6591537
3172.1162 655.77954 4132.2861 5670690
3343.843 685.96832 4322.5156 5868069
3314.0713 674.67578 4251.3574 5802276
3237.8889 654.17731 4122.1899 5604640
3262.3965 654.17731 4122.1899 5933605
3412.4233 679.15887 4279.6069 6065191
3499.1245 691.2605 4355.8633 6065448
3525.0212 691.2605 4355.8633 5999143
3717.9058 723.76813 4560.7051 6854457
3645.2229 704.48114 4439.1709 6393904
3576.8682 686.30182 4324.6172 6328368
0 0 0 0
0 0 0 0
0 0 0 0
0 0 0 0
0 0 0 0
0 0 0 0
0 0 0 0
0 0 0 0
0 0 0 0
0 0 0 0
0 0 0 0
0 0 0 0
0 0 0 0
0 0 0 0
0 0 0 0
0 0 0 0
0 0 0 0
0 0 0 0
0 0 0 0
0 0 0 0
6965.4956 1161.2009 7317.1152 5473306
8869.4521 1469.4277 9259.3555 5604381
7282.4785 1199.067 7555.7222 5604385
7327.3989 1199.067 7555.7222 5604383
0 0 0 0
0 0 0 0
0 0 0 0
0 0 0 0
0 0 0 0
0 0 0 0
0 0 0 0
0 0 0 0
0 0 0 0
0 0 0 0
0 0 0 0
0 0 0 0
0 0 0 0
-1632.973 316.49673 1922.335 6316619
-1629.5549 318.0603 1931.8317 6382414
-1618.0697 318.0603 1931.8317 3224349
-1614.635 319.65408 1941.5121 6315595
-1600.7748 319.19202 1938.7054 7303520
-1609.5704 323.27353 1963.4957 2697758
-1603.344 324.37555 1970.1892 3553067
-1599.0686 325.89139 1979.3961 4933696
-1596.2063 327.71985 1990.5018 2894115
-1578.5011 326.50546 1983.1259 1644563
-1563.8278 325.90463 1979.4764 1250062
-1553.4183 326.19 1981.2097 1184270
-1551.4602 328.26791 1993.8307 1446929
-1551.9001 330.88913 2009.7513 1381392
-1559.5812 335.10699 2035.3696 1710870
-1544.0659 334.36755 2030.8785 1447699
-1518.4918 331.42108 2012.9824 1184526
-1499.5133 329.87878 2003.6147 1118990
-1474.7015 327.01825 1986.2404 658439
-1462.8928 327.01825 1986.2404 329987
-1469.5757 331.18555 2011.5516 198659
-1468.0769 333.56229 2025.9875 66560
-1471.8236 337.17999 2047.9608 66816
-1445.9719 334.02084 2028.7728 791046
-1423.4481 331.58374 2013.9702 1120264
-1409.077 331.02054 2010.5494 659968
-1422.9685 337.14395 2047.7417 1778184
-1424.4735 340.41299 2067.5972 3028505
-1424.7738 343.44849 2086.0342 2370577
-1412.3717 343.44849 2086.0342 2698517
-1439.9948 353.26764 2145.6738 2960667
-1447.031 358.16678 2175.4299 2433557
-1433.4652 358.00888 2174.4709 2301715
-1420.5374 358.00888 2174.4709 2038287
-1406.5055 357.72806 2172.7654 1906187
-1429.8263 367.0303 2229.2654 3813670
-1422.0422 368.44748 2237.8728 4011047
-1408.7374 368.44748 2237.8728 4931634
-1406.2198 371.29572 2255.1724 6970702
-1398.8898 372.91586 2265.0129 5654839
-1397.646 376.20575 2284.9949 7365708
-1402.2964 381.16232 2315.1003 8286808
-1405.3971 385.79181 2343.2188 6181694
-1393.1589 386.26117 2346.0696 4537127
-1391.7523 389.77353 2367.4028 5260850
-1394.1542 394.43518 2395.7166 5918012
-1382.9476 395.30313 2400.9885 6314565
-1368.6731 395.30313 2400.9885 7366997
-1348.5713 393.60236 2390.6584 8879978
-1346.4185 397.15988 2412.2659 6380101
-1331.4747 396.98032 2411.1753 5196083
-1310.8716 395.09119 2399.7012 2762512
-1294.6132 394.48431 2396.0151 5132081
-1276.2911 393.22815 2388.3855 6185017
-1262.5276 393.36404 2389.2109 5329704
-1276.7744 402.32947 2443.665 8421719
-1283.7965 409.19843 2485.3855 5131306
-1255.6793 404.89664 2459.2573 6315839
-1240.9635 404.86569 2459.0696 5395252
-1207.0282 398.48886 2420.3381 6184510
-1235.2599 412.72961 2506.8335 3881757
-1220.356 412.72961 2506.8335 4342307
-1194.9192 409.12326 2484.9292 6119231
-1180.1455 409.12326 2484.9292 6974028
-1180.4879 414.43002 2517.1611 4539941
-1165.5228 414.43002 2517.1611 7039307
-1195.9229 430.77054 2616.4102 5527349
-1181.7947 431.29138 2619.5737 5133100
-1181.891 437.08664 2654.7727 4739619
-1150.6466 431.29138 2619.5737 5596971
-1120.8048 425.87018 2586.6462 4742681
-1102.8002 424.85837 2580.5007 6716979
-1087.4584 424.85837 2580.5007 6190633
-1072.1166 424.85837 2580.5007 6651185
-1060.4091 426.31946 2589.3752 7046200
-1009.695 411.91068 2501.8591 7111736
-994.82074 411.91068 2501.8591 8361803
-982.67645 413.0582 2508.8291 8098631
-984.18274 420.06741 2551.4014 7968072
-969.01398 420.06741 2551.4014 8033609
-949.62183 418.20752 2540.1047 7310141
-946.34039 423.49713 2572.2329 7310140
-931.04779 423.49713 2572.2329 6652212
-913.63965 422.5188 2566.2908 7442755
-886.55304 416.95532 2532.4995 8363602
-873.57446 417.94949 2538.5378 7114048
-836.90497 407.44464 2474.7336 7574599
-830.20007 411.41318 2498.8374 6653497
-814.83441 411.15613 2497.2764 6061360
-817.07501 419.93839 2550.6179 6720056
-800.28149 419.08514 2545.4353 5601833
-769.21674 410.58148 2493.7859 5997104
-756.73279 411.85626 2501.5288 6128946
-745.20026 413.71036 2512.7903 5471529
-738.66779 418.47299 2541.7175 5010210
-762.77924 441.15768 2679.4995 6590012
-746.84888 441.15768 2679.4995 5274665
-704.32532 425.1069 2582.0105 4616990
-679.58221 419.31174 2546.8118 5339943
-664.44073 419.31174 2546.8118 5537321
-654.8866 422.91998 2568.7275 5801006
-639.61481 422.91998 2568.7275 6590779
-624.34296 422.91998 2568.7275 5406506
-611.2738 424.44943 2578.0171 4815650
-606.83752 432.20612 2625.1296 5078822
-586.06146 428.42749 2602.179 4354840
-570.59082 428.42749 2602.179 5539113
-548.29309 423.15857 2570.1765 3828495
-530.13373 420.87299 2556.2944 5012770
-514.93585 420.87299 2556.2944 5078562
-517.53845 435.86432 2647.3486 5144611
-511.4808 444.27374 2698.4258 4815902
-505.35199 453.16403 2752.4236 4618523
-486.77008 451.10855 2739.9387 5079074
-456.09784 437.31818 2656.1792 5605418
-440.01218 437.02628 2654.406 5013279
-424.23099 437.02628 2654.406 4289555
-400.1228 428.11661 2600.2908 4158225
-384.66333 428.11661 2600.2908 4224273
-371.35257 430.60818 2615.4241 5079840
-371.21896 449.26505 2728.7419 4224785
-357.18262 452.03253 2745.551 4093200
-340.85956 452.03253 2745.551 4882717
-330.5213 460.3685 2796.1819 5014304
-309.63272 454.11411 2758.1941 5014049
-296.24179 458.77136 2786.4812 3895824
-279.67538 458.77136 2786.4812 5014307
-253.02541 441.18903 2679.6899 4750880
-235.04811 437.38223 2656.5681 4421915
-218.25052 435.38025 2644.4084 4619549
-201.27707 432.68945 2628.0652 4751134
-193.71362 451.47705 2742.177 4290327
-180.72205 459.90396 2793.3606 5080099
-164.11473 459.90396 2793.3606 4751135
-145.67033 454.17624 2758.5715 5145640
-133.37273 468.59128 2846.1252 4422176
-116.45172 468.59128 2846.1252 4948264
-95.926697 451.6235 2743.0667 4553764
-79.618401 451.6235 2743.0667 4816934
-64.140968 457.55045 2779.0657 3830293
-48.156399 462.71753 2810.4495 4751138
-31.94117 469.98145 2854.5688 3764496
-14.969963 469.98145 2854.5688 3962384
2.0252335 475.61539 2888.7883 4356884
19.199884 475.61539 2888.7883 3830799
35.637871 465.98312 2830.2839 3633421
54.721642 486.02896 2952.0383 3633422
73.461441 494.0257 3000.6086 3370250
91.637627 495.84772 3011.6753 3172616
109.54287 495.84772 3011.6753 3567117
124.37944 483.90872 2939.1604 3764755
141.85356 483.90872 2939.1604 3632917
159.32768 483.90872 2939.1604 4882987
172.92665 473.30237 2874.7395 4882732
195.36942 486.63242 2955.7034 4487463
223.64484 511.09164 3104.2637 3829535
237.48468 501.3472 3045.0781 4158501
245.64891 481.85028 2926.6577 4027171
269.2211 493.1568 2995.3313 3106067
287.02917 493.1568 2995.3313 4027168
324.10574 524.3288 3184.6636 3632154
343.03946 524.3288 3184.6636 3698459
361.97318 524.3288 3184.6636 2974992
373.40219 513.99841 3121.9187 3369746
391.96286 513.99841 3121.9187 2843658
406.6694 509.17276 3092.6089 2909193
432.65253 518.27289 3147.8811 2843656
470.43393 540.16541 3280.8518 2317318
479.46506 528.61719 3210.7102 2777611
495.78317 525.67969 3192.8684 3106579
504.24097 514.93182 3127.5884 2251013
513.75757 505.99127 3073.2852 2251015
504.85236 480.14462 2916.2979 2843409
527.09119 484.65063 2943.6665 2251273
547.65369 487.37521 2960.2151 2185479
583.38409 503.0083 3055.1672 2646025
601.54791 503.0083 3055.1672 2581001
625.64929 507.82776 3084.4395 2448643
643.98718 507.82776 3084.4395 2382852
657.43646 504.07947 3061.6733 3106826
671.01282 500.62805 3040.71 1923072
700.54132 508.94693 3091.2373 2713092
734.85748 520.22998 3159.7678 2581248
748.13562 516.42816 3136.6765 2253312
766.78406 516.42816 3136.6765 2647808
784.28857 515.67603 3132.1084 2714112
793.53894 509.65753 3095.5532 3173888
811.94293 509.65753 3095.5532 3502337
843.31207 517.61542 3143.8879 4620305
879.09802 527.88043 3206.2354 4751891
898.15997 527.88043 3206.2354 5738274
917.9743 528.31342 3208.8652 5804325
961.00604 541.81891 3290.8945 4422672
983.45642 543.41309 3300.5771 5014552
970.01538 525.50085 3191.7822 4685844
973.27374 517.14923 3141.0564 4619792
990.17365 516.22412 3135.4373 4882705
1009.25 516.44684 3136.7903 5343512
1027.4558 516.22412 3135.4373 4620046
1032.6731 509.59985 3095.2029 5475098
1105.6305 536.05042 3255.8579 5211670
1140.9103 543.63757 3301.9407 6066980
1144.3445 536.05042 3255.8579 5672480
1231.8538 567.44427 3446.5376 4685585
1252.3444 567.44427 3446.5376 5014809
1232.1237 549.29468 3336.3008 5211929
1251.9589 549.29468 3336.3008 5672480
1268.9164 548.05176 3328.7515 5212184
1288.7067 548.05176 3328.7515 4882705
1322.9114 554.08905 3365.4209 4948240
1426.0784 588.40027 3573.8203 5408791
1474.0715 599.27362 3639.8625 5277462
1498.4092 600.35443 3646.4272 5145876
1490.5853 588.70239 3575.655 4816398
1511.8435 588.70239 3575.655 5474843
1533.3807 588.80951 3576.3057 5409049
1586.5856 600.90753 3649.7866 4553482
1611.5613 602.13184 3657.2229 4619532
1636.6368 603.36035 3664.6846 4355844
1561.6445 568.15033 3450.8264 4619272
1562.3099 561.02197 3407.53 4619273
1663.6082 589.75055 3582.0215 4948238
1721.0001 602.38483 3658.7595 4685322
1748.1537 604.25177 3670.0989 4882448
1768.4246 603.72296 3666.887 4948242
1745.8953 588.77344 3576.0867 5277210
1767.156 588.77344 3576.0867 4947989
1788.4169 588.77344 3576.0867 5014038
1842.8446 599.56421 3641.6274 3763973
1816.3401 584.07904 3547.574 4158727
1767.8131 561.94891 3413.1602 5671964
1887.1731 593.08301 3602.2622 5671964
1854.8035 576.36932 3500.7466 4882701
1875.6165 576.36932 3500.7466 5474325
1896.4293 576.36932 3500.7466 5079822
1984.4895 596.58545 3623.5352 5539603
1987.1277 590.96326 3589.3872 5868314
1854.5134 545.66443 3314.2515 5802264
1874.2177 545.66443 3314.2515 6197284
1959.7551 564.6319 3429.4561 5933603
1989.9833 567.4375 3446.4968 5736484
2195.9519 619.78699 3764.4565 5735976
2214.5322 618.72522 3758.0073 6064943
2236.8745 618.72522 3758.0073 6262069
2203.7844 603.54401 3665.8003 6064948
2262.9268 613.6723 3727.3171 7183431
2305.8494 619.24817 3761.1838 6064438
2328.2104 619.24817 3761.1838 5801010
2350.5718 619.24817 3761.1838 6985542
2359.8254 615.82751 3740.4077 6393405
2444.3259 631.92419 3838.1753 6920262
2467.145 631.92419 3838.1753 7249229
2471.1938 627.16052 3809.2419 6854724
2421.7847 609.03955 3699.179 6657342
2468.4988 615.20068 3736.6001 6131248
2558.135 631.85352 3837.7463 6196782
2504.4683 613.12933 3724.0193 6459695
2523.7983 612.44739 3719.8772 6723121
2545.9141 612.44739 3719.8772 6394409
2642.3948 630.18262 3827.5974 6525995
2676.2483 632.80664 3843.5352 6197284
2699.0991 632.80664 3843.5352 6460455
2735.5051 635.95801 3862.6758 5736735
2826.3223 651.60114 3957.6892 6525743
2849.8518 651.60114 3957.6892 6722869
2860.1863 648.60889 3939.5146 7051321
2758.2954 620.42242 3768.3159 6130730
2912.1765 649.75739 3946.4902 5472798
2787.0405 616.86731 3746.7229 5538848
2809.3159 616.86731 3746.7229 5802274
2934.718 639.33374 3883.1792 5406748
2957.8047 639.33374 3883.1792 5669922
2958.7441 634.58362 3854.3281 5604642
2983.9001 635.06061 3857.2251 5736228
3087.5686 652.11255 3960.7952 6394158
3237.8889 678.68488 4122.1899 6130987
3230.0488 671.95563 4081.3176 6591282
3201.4629 661.04285 4015.0361 6460466
3225.3333 661.04285 4015.0361 6328881
3249.2039 661.04285 4015.0361 6789175
3220.2864 650.38159 3950.2817 6262318
3405.48 682.80438 4147.2109 6262318
3430.1365 682.80438 4147.2109 6130988
3354.3149 662.94598 4026.5952 5472802
3347 656.81268 3989.3425 5538594
0 0 0 0
0 0 0 0
0 0 0 0
0 0 0 0
0 0 0 0
0 0 0 0
0 0 0 0
0 0 0 0
0 0 0 0
0 0 0 0
0 0 0 0
0 0 0 0
0 0 0 0
0 0 0 0
0 0 0 0
0 0 0 0
0 0 0 0
0 0 0 0
0 0 0 0
6900.4663 1186.0488 7203.8125 5670429
7010.0552 1197.4528 7273.0776 5670431
7073.8281 1200.9386 7294.25 5538590
0 0 0 0
0 0 0 0
0 0 0 0
0 0 0 0
0 0 0 0
0 0 0 0
0 0 0 0
0 0 0 0
0 0 0 0
0 0 0 0
0 0 0 0
0 0 0 0
0 0 0 0
-1613.621 324.0394 1899.5538 6315081
-1627.0767 329.04434 1928.8936 7236440
-1603.1333 326.50354 1913.9989 6907476
-1597.0686 327.59366 1920.3894 4736562
-1579.0741 326.2348 1912.4237 4934202
-1582.1615 329.24335 1930.0601 6776918
-1583.4053 331.90936 1945.6885 3749932
-1590.012 335.74704 1968.1853 4275764
-1579.9174 336.0889 1970.1892 3288872
-1566.6091 335.74704 1968.1853 3617837
-1558.8966 336.60834 1973.2344 4078388
-1552.8134 337.83722 1980.4381 4275769
-1541.6395 337.96881 1981.2097 1907220
-1535.1537 339.13812 1988.0642 2038806
-1527.7526 340.1218 1993.8307 2368286
-1530.4596 343.38885 2012.9824 1973529
-1501.4457 339.53406 1990.3853 1447185
-1506.5242 343.38885 2012.9824 1052940
-1482.4668 340.61115 1996.6992 1250065
-1475.7296 341.8002 2003.6697 526853
-1470.6616 343.39835 2013.0381 263682
-1457.6163 343.14478 2011.5516 263681
-1447.3953 343.55734 2013.9702 132608
-1445.9719 346.08249 2028.7728 462340
-1440.4984 347.67255 2038.0939 856838
-1420.7765 345.8215 2027.2429 857092
-1422.9685 349.31833 2047.7417 1842959
-1410.7194 349.29984 2047.6332 2961692
-1426.6135 356.31003 2088.7278 1381377
-1414.1954 356.31003 2088.7278 1511941
-1437.2462 365.32565 2141.5784 3879714
-1438.5376 368.92209 2162.6611 3945766
-1429.7242 369.96866 2168.7961 3682337
-1422.8816 371.54886 2178.0593 4801325
-1407.6096 370.93671 2174.4709 7696216
-1398.7836 372.02765 2180.8662 7893334
-1427.0092 383.08566 2245.6895 9603952
-1408.7374 381.75226 2237.8728 6773573
-1406.2198 384.70334 2255.1724 6510140
