# .PCD v0.7 - Point Cloud Data file format
VERSION 0.7
FIELDS x y z rgb
SIZE 4 4 4 4
TYPE F F F U
COUNT 1 1 1 1
WIDTH 1353
HEIGHT 1
VIEWPOINT 0 0 0 1 0 0 0
POINTS 1353
DATA ascii
3528.1326 102.76819 10210.867 196608
3701.365 105.99043 10531.023 262144
3796.1907 106.89761 10621.158 393216
4042.5781 111.97311 11125.452 919044
4062.0691 110.7017 10999.127 721408
3963.7932 106.31198 10562.972 1115652
3980.3062 105.0899 10441.548 1116164
3658.6135 95.113007 9450.2617 3551790
0 0 0 0
3033.6396 76.515495 7602.4453 2560520
3532.5005 87.78994 8722.6543 2889997
3546.7261 86.86821 8631.0732 1903104
3269.1245 78.927132 7842.0615 3417095
3223.731 76.736786 7624.4326 3615233
3123.3713 73.31694 7284.6426 3615744
3141.7036 72.738655 7227.1851 2563840
3160.5813 72.188431 7172.5161 12958556
3203.2239 72.188431 7172.5161 2957589
3407.5371 75.784012 7529.7661 527377
3822.5527 83.911613 8337.3105 3028547
3979.7451 86.243919 8569.0449 461322
4359.3413 93.276009 9267.7402 461320
4732.1084 99.988228 9934.6553 131072
4817.2554 100.53257 9988.7393 1774863
5147.374 106.11375 10543.276 1774349
5132.0796 104.52559 10385.479 525056
5588.937 112.47721 11175.539 131072
5558.7812 110.55604 10984.654 987147
6151.7275 120.92815 12015.21 657927
6940.8442 134.87413 13400.857 0
7457.7676 143.27435 14235.489 132096
7277.6113 138.24446 13735.727 855562
7804.188 146.60217 14566.136 592646
7304.498 135.70956 13483.865 197632
6532.8745 120.05607 11928.561 592133
6330.8521 115.09402 11435.541 196608
6350.1816 114.21883 11348.583 590080
6028.6733 107.29594 10660.736 655360
5970.98 105.16352 10448.863 2168336
5759.6138 100.39634 9975.2041 2037261
5830.2085 100.59113 9994.5576 1183494
6038.6719 103.13668 10247.479 460800
6063.0903 102.51942 10186.149 527104
5747.9502 96.229622 9561.2061 1512716
4010.3459 66.481956 6605.5303 1643788
4071.3291 66.838394 6640.9453 1511175
3868.9753 62.906326 6250.2627 1445126
4150.2939 66.838394 6640.9453 4274738
4237.854 67.605362 6717.1504 1183244
7037.0962 111.21292 11049.921 262144
7102.7915 111.21292 11049.921 723720
7149.0142 110.91084 11019.906 395013
7736.7744 118.93941 11817.612 66304
7842.3735 119.47782 11871.107 263683
7819.1953 118.06221 11730.454 197890
7895.1162 118.15471 11739.645 395269
7964.9126 118.15471 11739.645 263683
8657.0781 127.30701 12649.001 329476
8572.0596 124.97117 12416.916 263683
8645.8252 124.97035 12416.835 263683
8719.6465 124.97035 12416.835 263683
9319.2139 132.44209 13159.215 132098
9372.1104 132.08499 13123.733 855820
9475.6846 132.44209 13159.215 461062
9946.8594 137.88927 13700.437 256
9372.6992 128.87459 12804.754 132097
9204.8184 125.5465 12474.08 1250835
8851.4072 119.76135 11899.278 1251862
8236.1123 110.5527 10984.322 2239011
8229.8164 109.59916 10889.581 2700075
8223.6611 108.66238 10796.504 4278850
8455.6045 110.86182 11015.037 3028527
8653.6367 112.58627 11186.374 2106657
8720.1426 112.58627 11186.374 658699
9321.4971 119.43946 11867.295 256
9417.4824 119.76287 11899.429 132354
9462.6055 119.43946 11867.295 256
9462.79 118.55782 11779.696 461833
9532.8242 118.55782 11779.696 1646106
9326.3623 115.14417 11440.522 2370086
9394.3789 115.14417 11440.522 1252116
9478.4658 115.33971 11459.951 528650
9198.7354 111.13691 11042.369 1582362
9219.5547 110.59912 10988.935 2174498
8819.3125 105.05332 10437.914 4872011
8569.0801 101.35941 10070.894 5134155
8542.626 100.34538 9970.1396 4473914
8564.5908 99.91011 9926.8936 1182729
8849.8945 102.53178 10187.378 1839884
8640.0137 99.419769 9878.1738 2102288
8698.7422 99.419769 9878.1738 2957340
8757.4707 99.419769 9878.1738 1443845
9216.3232 103.93194 10326.495 2102284
8975.6152 100.54771 9990.2441 2299919
9020.207 100.38296 9973.875 2565136
9079.5039 100.38296 9973.875 2895893
9305.4824 102.21383 10155.786 3817760
10029.448 109.45585 10875.341 2043652
13497.803 146.36398 14542.469 3754778
15074.632 162.42201 16137.967 4412963
15172.158 162.43895 16139.649 3952927
15268.114 162.43895 16139.649 2373383
15364.067 162.43895 16139.649 3755040
15459.683 162.43538 16139.294 3689260
15555.635 162.43538 16139.294 1780243
15652.09 162.44058 16139.812 3424566
0 0 0 0
0 0 0 0
0 0 0 0
0 0 0 0
0 0 0 0
0 0 0 0
0 0 0 0
0 0 0 0
0 0 0 0
0 0 0 0
0 0 0 0
-2074.9587 38.566513 2408.9214 256
-2082.6702 38.978882 2434.6785 256
-2082.8955 39.255928 2451.9834 197890
-2068.3176 39.255928 2451.9834 66048
-2057.3484 39.324898 2456.2913 256
-2070.1355 39.852196 2489.2271 256
-2055.9097 39.863312 2489.9214 256
-2026.772 39.583355 2472.4348 512
-2011.2251 39.566681 2471.3933 512
-2001.9525 39.674107 2478.1033 512
-1992.428 39.778088 2484.5981 512
-1994.5603 40.118092 2505.8352 512
-1999.1315 40.512634 2530.479 133121
-2015.9594 41.163433 2571.1287 768
-2001.9237 41.189152 2572.7354 512
-2010.5835 41.685829 2603.7585 512
-2018.7358 42.179604 2634.6003 512
-2003.0724 42.179604 2634.6003 512
-1994.705 42.334454 2644.2725 512
-1979.7665 42.351189 2645.3179 512
-1967.6924 42.429962 2650.238 512
-1969.2651 42.806652 2673.7666 512
-1953.3688 42.806652 2673.7666 512
-1932.0986 42.68792 2666.3506 512
-1943.7118 43.299763 2704.5671 512
-1974.4619 44.351677 2770.2712 512
-1981.2 44.877377 2803.1072 512
-2017.141 46.079105 2878.1689 1024
-2018.2665 46.499271 2904.4131 1024
-2054.0356 47.731743 2981.395 529411
-2036.3105 47.731743 2981.395 1647890
-1984.4503 46.92458 2930.9785 528642
-2007.8926 47.899506 2991.8738 2108438
-2049.1692 49.321114 3080.6694 924676
-2063.4248 50.112125 3130.0774 990724
-2099.1599 51.443935 3213.2642 1648397
-2149.6172 53.164322 3320.7219 2108436
-2141.1733 53.446358 3338.3384 331520
-2172.5774 54.737625 3418.9929 2048
-2156.4399 54.84417 3425.6477 1024
-2152.0054 55.253223 3451.198 768
-2154.7786 55.856998 3488.9106 1536
-2188.6008 57.285194 3578.1179 67840
-2195.4773 58.029213 3624.5903 1280
-2205.3022 58.866699 3676.9009 1280
-2213.4465 59.675632 3727.4282 199169
-2237.2742 60.928036 3805.655 924422
-2239.9897 61.625206 3849.2014 331776
-2214.4189 61.550549 3844.5381 1252871
-2191.5623 61.550549 3844.5381 989701
-2178.8271 61.837814 3862.4812 2048
-2185.3174 62.682659 3915.2515 1024
-2165.813 62.792038 3922.0833 1536
-2142.4949 62.792038 3922.0833 792835
-2220.1318 65.783363 4108.9258 2569495
-2106.9253 63.123573 3942.7915 201216
-2171.2744 65.783363 4108.9258 2702351
-2122.238 65.029335 4061.8284 3689502
-2165.8293 67.128906 4192.9707 3953443
-2180.2168 68.361679 4269.9712 1386752
-2200.512 69.810905 4360.4922 529408
-2171.5559 69.713577 4354.4131 267776
-2176.562 70.717346 4417.1099 2044167
-2207.8635 72.61042 4535.354 2110220
-2124.04 70.717346 4417.1099 3557665
-2231.0022 75.208374 4697.626 2304
-2261.283 77.195518 4821.7461 2816
-2314.2739 80.018944 4998.1011 792834
-2304.4878 80.716972 5041.7012 398336
-2270.8345 80.586411 5033.5464 266752
-2351.4746 84.562531 5281.9004 1451273
-2374.5391 86.547752 5405.9004 924931
-2392.136 88.385422 5520.6841 1792
-2359.314 88.385422 5520.6841 69120
-2403.3911 91.306885 5703.1631 1911818
-2408.0017 92.791145 5795.8721 1319429
-2427.0474 94.88282 5926.521 726021
-2670.5452 105.9401 6617.1748 1280
-2711.1245 109.15791 6818.1646 512
-2849.7126 116.47946 7275.479 66305
-2903.0022 120.48644 7525.7607 768
-2858.2595 120.48644 7525.7607 512
-2962.4512 126.86443 7924.1396 512
-2935.8879 127.7586 7979.9907 512
-3079.8967 136.2267 8508.9209 768
-3414.166 153.53355 9589.9326 264451
-3423.7773 156.58058 9780.2549 1024
-3523.5647 163.92822 10239.198 512
-3462.6899 163.92822 10239.198 256
-3482.7761 167.82959 10482.884 512
-3406.5593 167.14792 10440.306 256
-3344.4888 167.14792 10440.306 512
-3276.7903 166.86131 10422.404 512
-3284.0845 170.45607 10646.938 512
-3220.7854 170.45607 10646.938 512
-3141.8782 169.61348 10594.309 512
-2995.1277 164.99898 10306.079 768
-2833.0022 159.32704 9951.8018 1280
-2773.8359 159.32704 9951.8018 1056012
-2642.3406 155.08194 9686.6475 2108955
-2727.2854 163.63387 10220.812 1254672
-2755.2126 169.07658 10560.773 1846039
-2780.7405 174.6225 10907.179 1975579
-2952.1245 189.81126 11855.892 462852
-3365.3628 221.67386 13846.076 512
-3469.4448 234.25978 14632.212 768
-3406.1956 235.90419 14734.924 256
-3622.8257 257.53082 16085.754 256
-3515.8511 256.70282 16034.036 329476
-3419.603 256.63367 16029.718 66304
-3324.3018 256.63367 16029.718 66561
-3250.6689 258.3558 16137.285 395526
-3154.8767 258.36798 16138.046 922637
-3059.2261 258.39285 16139.599 2041631
-2963.4116 258.40506 16140.361 2765097
-2867.4822 258.40771 16140.527 3159598
-2771.8015 258.43375 16142.153 790795
-2659.6367 256.8696 16044.455 1382933
-2559.7913 256.42316 16016.568 2501159
-2455.2546 255.45412 15956.042 2501673
-2354.9785 254.8683 15919.45 2501674
-2259.0706 254.72597 15910.56 2370088
-2166.397 254.95181 15924.667 2369575
-2073.1655 255.12965 15935.775 2172196
-1983.1232 255.73578 15973.635 2105889
-1888.7787 255.82019 15978.907 1973788
-1803.2876 257.17618 16063.604 1512468
-1716.0886 258.42661 16141.708 919814
-1619.8966 258.39072 16139.465 4142641
-1524.1553 258.4267 16141.714 4009513
-1428.0336 258.39871 16139.965 3944233
-1332.0728 258.39789 16139.914 4010027
-1236.0067 258.37494 16138.48 3484455
-1140.03 258.36841 16138.071 2169880
-1044.0717 258.36517 16137.869 525827
-948.1394 258.36841 16138.071 591878
-852.21729 258.37543 16138.511 789512
-756.284 258.38043 16138.823 1841431
-660.31586 258.37326 16138.376 2301210
-564.36871 258.37326 16138.376 2300440
-468.41714 258.37082 16138.223 2367260
-372.47845 258.37601 16138.548 920844
-276.29849 258.15948 16125.021 197377
-180.42145 258.14612 16124.188 66304
-84.558495 258.14563 16124.157 66304
11.305266 258.17203 16125.807 513
107.26046 258.37143 16138.262 66305
203.56442 258.82599 16166.654 513
299.25903 258.46271 16143.962 256
392.07095 256.39075 16014.543 66306
487.28183 256.39075 16014.543 263685
582.67529 256.47107 16019.561 461064
677.91595 256.47107 16019.561 263685
772.20331 256.15479 15999.806 197892
864.28162 255.25549 15943.634 66306
958.70026 255.15683 15937.472 256
1069.1355 258.95526 16174.729 66306
1160.0813 257.79584 16102.309 592650
1255.814 257.79584 16102.309 256
1351.5468 257.79584 16102.309 256
1458.4121 259.77884 16226.17 513
1557.5723 260.22845 16254.253 197892
1654.2083 260.22845 16254.253 513
1754.7166 260.80399 16290.202 66304
1851.13 260.74252 16286.363 256
1938.9945 259.54285 16211.43 256
2031.5116 259.05008 16180.65 257
2122.1584 258.37415 16138.431 66305
2218.1953 258.38458 16139.083 257
2314.0532 258.37415 16138.431 2
2409.865 258.35962 16137.522 4
2505.7812 258.35693 16137.356 4
2601.7356 258.35828 16137.438 4
2697.7417 258.36444 16137.824 4
2793.6963 258.36545 16137.887 4
2889.6294 258.36444 16137.824 259
2985.5081 258.3588 16137.472 2
3081.3792 258.35287 16137.102 1644827
3177.0706 258.3327 16135.842 1776666
2846.2634 224.65089 14032.025 526342
2797.0957 214.4836 13396.963 591621
2984.4182 222.51152 13898.398 2763300
2933.4617 212.81998 13293.049 4342590
2664.8894 188.26326 11759.201 8618821
2573.2087 177.13927 11064.38 9863467
2627.584 176.37367 11016.56 6372620
2658.2058 174.08968 10873.898 4132352
2532.1094 161.89413 10112.146 5049856
2515.4871 157.10132 9812.7803 10507520
2451.1316 149.61224 9345.002 12678144
2118.1567 126.42257 7896.54 9192192
2019.0574 117.89477 7363.8809 3411200
2124.0366 121.39238 7582.3472 2819584
2450.0171 137.11275 8564.2646 11362816
2661.1782 145.89807 9113.0088 12610048
2835.3652 152.34616 9515.7666 10176512
2993.5527 157.69913 9850.1211 3606016
3120.9968 161.25821 10072.426 851968
3399.3467 172.3336 10764.211 524288
3532.4871 175.77417 10979.114 393216
3597.761 175.77417 10979.114 262144
3720.0354 178.50938 11149.96 327936
3545.6785 167.16391 10441.305 262144
3661.009 169.63144 10595.43 196608
3755.1653 171.05095 10684.095 262144
3976.4343 178.11702 11125.452 656128
4095.7744 180.46085 11271.852 721409
4235.3525 183.60657 11468.337 524288
4008.9094 171.03662 10683.2 721922
4002.2666 168.09012 10499.156 788739
4042.3843 167.1678 10441.548 1446927
0 0 0 0
3033.6396 121.71414 7602.4453 3481360
3495.4119 138.18234 8631.0732 3021321
3243.4277 126.36567 7892.9863 1509633
3266.8728 125.46389 7836.6602 2562309
3252.3711 123.15062 7692.1699 2233856
3086.0254 115.23167 7197.54 2234624
3116.6028 114.78185 7169.4434 1708288
0 0 0 0
3203.2239 114.83104 7172.5161 65794
3407.5371 120.55056 7529.7661 1289
3876.7175 135.37064 8455.4492 3621960
4003.9465 138.02354 8621.1543 659989
4114.5293 140.04283 8747.2822 790031
4719.7134 158.63593 9908.6338 262400
4817.2554 159.9184 9988.7393 1445899
5062.1221 166.00082 10368.656 1839885
5132.0796 166.27014 10385.479 393728
6001.689 192.13237 12000.871 65536
5526.1904 174.83179 10920.252 1317136
6269.8027 196.05409 12245.828 857098
6874.4785 212.49458 13272.725 67328
7457.7676 227.90829 14235.489 263937
7277.6113 219.90717 13735.727 856329
7641.2085 228.33183 14261.942 658951
7082.9595 209.32761 13074.911 526852
6921.3335 202.33043 12637.857 131584
6514.0845 188.38039 11766.518 131584
6350.1816 181.68932 11348.583 525056
6044.2891 171.11908 10688.351 852992
5970.98 167.28493 10448.863 2298895
5981.2671 165.84767 10359.091 2233872
5977.7476 164.06079 10247.479 328192
6219.186 168.96507 10553.808 197376
6250.4541 168.11842 10500.925 461057
6124.3838 163.09846 10187.37 920837
5577.6997 147.08511 9187.1533 1249288
4196.0186 109.57684 6844.3315 919553
4110.812 106.32066 6640.9453 1445382
4144.6392 106.17579 6631.8965 1576453
4184.0674 106.17579 6631.8965 4603704
5441.3252 136.7912 8544.1797 196865
6780.4902 168.88029 10548.513 526083
6843.2041 168.88029 10548.513 131841
7580.5547 185.37816 11578.993 526598
7649.395 185.37816 11578.993 526855
7686.2119 184.60901 11530.951 395013
7810.458 185.93478 11613.761 66049
7964.9126 187.95016 11739.645 592648
8657.0781 202.50883 12649.001 0
8572.0596 198.79318 12416.916 724234
7997.0361 183.87439 11485.066 395269
8103.2681 184.73958 11539.107 131840
8330.4375 188.32426 11763.012 66048
8400.3721 188.32426 11763.012 65792
9217.9658 204.94733 12801.312 395270
9320.7412 205.5354 12838.044 0
9397.0664 205.5354 12838.044 1184785
9217.8926 199.99203 12491.798 1053455
9292.1592 199.99203 12491.798 329477
8236.1123 175.85754 10984.322 132098
8159.4731 172.8506 10796.504 132355
8200.6475 172.36688 10766.29 395526
8359.2988 174.34076 10889.581 132355
8653.6367 179.09238 11186.374 659211
8723.9551 179.17067 11191.265 2172450
9601.4951 195.70084 12223.764 1251348
9843.8721 199.13382 12438.192 256
10267.53 206.15541 12876.771 256
10126.605 201.82106 12606.042 512
9770.7764 193.29887 12073.733 512
9326.3623 183.16125 11440.522 66305
9394.3789 183.16125 11440.522 66817
9687.5186 187.51889 11712.707 256
9227.5391 177.34045 11076.946 1280
9293.3955 177.34045 11076.946 132866
9284.8867 175.9314 10988.935 1581851
8697.085 163.6422 10221.333 3686456
8632.5557 161.30095 10075.096 2830120
8789.3281 163.09857 10187.378 1118475
8879.7744 163.64926 10221.774 1315084
8640.0137 158.14825 9878.1738 393472
8605.9775 156.46175 9772.832 393216
8757.4707 158.14825 9878.1738 459265
8994.3633 161.34422 10077.799 1904651
8975.6152 159.94249 9990.2441 2168589
9020.207 159.68042 9973.875 2235146
9066.334 159.44881 9959.4072 2369036
9125.5449 159.44881 9959.4072 3158804
10029.448 174.11278 10875.341 3226644
10470.781 180.61005 11281.17 2963982
15074.632 258.36673 16137.967 2176005
15172.852 258.40543 16140.386 3558170
15268.114 258.39368 16139.649 3887645
15363.643 258.38647 16139.202 7044453
0 0 0 0
0 0 0 0
0 0 0 0
0 0 0 0
0 0 0 0
0 0 0 0
0 0 0 0
0 0 0 0
0 0 0 0
0 0 0 0
0 0 0 0
0 0 0 0
0 0 0 0
-2081.0825 52.680698 2399.4692 256
-2092.4805 53.334831 2429.2632 256
-2094.0378 53.74548 2447.9673 256
-2086.5549 53.92823 2456.2913 592648
-2076.5439 54.047764 2461.7356 256
-2061.9084 54.047764 2461.7356 256
-2070.4832 54.660522 2489.645 256
-2055.9097 54.666592 2489.9214 256
-2026.772 54.282665 2472.4348 512
-2017.7266 54.435207 2479.3826 512
-2007.0491 54.545624 2484.4119 512
-2005.8739 54.917847 2501.3657 512
-1999.106 55.141365 2511.5461 256
-2002.4381 55.648933 2534.6646 768
-2019.2847 56.542618 2575.3696 512
-2007.4738 56.64138 2579.8682 256
-2009.3231 57.130062 2602.1262 256
-2018.7358 57.843037 2634.6003 256
-2010.4921 58.057297 2644.3594 256
-1994.7705 58.057297 2644.3594 256
-1994.7181 58.51696 2665.2959 256
-1987.5311 58.773014 2676.9583 256
-1990.9697 59.349941 2703.2361 256
-1944.6357 58.440491 2661.8127 256
-1932.0986 58.540119 2666.3506 256
-1955.2883 59.732826 2720.6753 512
-1974.4619 60.821712 2770.2712 512
-1997.3879 62.045486 2826.011 512
-2023.5278 63.390701 2887.282 1024
-2031.3979 64.181702 2923.3101 768
-2055.7834 65.512657 2983.9319 331520
-2038.826 65.537827 2985.0781 1120778
-1996.4633 64.739609 2948.7214 68096
-2036.5437 66.624336 3034.5657 67584
-2065.3794 68.171593 3105.0393 726529
-2063.4248 68.721313 3130.0774 595712
-2090.2173 70.247147 3199.5754 1385224
-2159.4839 73.241577 3335.9641 3359015
-2192.9043 75.064491 3418.9929 1024
-2203.533 76.134018 3467.7073 1280
-2224.2654 77.576164 3533.3931 1024
-2203.2585 77.576164 3533.3931 1024
-2182.2515 77.576164 3533.3931 1280
-2225.4714 79.881538 3638.397 132864
-2210.6448 80.128189 3649.6311 768
-2205.3022 80.726898 3676.9009 1280
-2209.4817 81.689636 3720.7512 1536
-2214.7373 82.712044 3767.3193 594432
-2237.2759 84.407394 3844.5381 726019
-2214.4189 84.407394 3844.5381 1024
-2191.5623 84.407394 3844.5381 1280
-2165.583 84.285881 3839.0032 1280
-2185.3174 85.959915 3915.2515 68608
-2166.2451 86.12709 3922.8657 67584
-2146.9895 86.29055 3930.311 2560
-2184.073 88.746872 4042.1899 1319684
-2123.7417 87.255486 3974.261 4083495
-2141.5728 88.97802 4052.7183 1715459
-2122.238 89.17804 4061.8284 1387266
-2165.0203 92.022896 4191.4043 3624222
-2179.0508 93.697701 4267.6875 135936
-2206.3921 95.991066 4372.144 2044419
-2226.8645 98.03672 4465.3184 1781249
-2205.2117 98.254807 4475.2515 1912837
-2239.554 101.00359 4600.4517 2043908
-2212.2029 101.00359 4600.4517 2048
-2231.0022 103.13706 4697.626 2816
-2261.283 105.86214 4821.7461 2048
-2314.2739 109.73405 4998.1011 68864
-2327.5737 111.80017 5092.208 69120
-2274.8875 110.70949 5042.5303 200960
-2298.4771 113.35127 5162.8564 1516810
-2320.0723 115.9649 5281.9004 200448
-2352.7383 119.21119 5429.7607 2304
-2333.8965 119.90163 5461.2085 332544
-2403.3911 125.21378 5703.1631 2438673
-2408.0017 127.24922 5795.8721 2767893
-2427.0474 130.11765 5926.521 1845772
-2677.2021 145.64317 6633.6694 1024
-2749.1943 151.79582 6913.9062 768
-2791.5146 156.47205 7126.896 512
-2808.7922 159.86705 7281.5298 256
-2791.5405 161.37231 7350.0908 512
-2753.4497 161.70164 7365.0903 512
-2915.3401 173.97565 7924.1396 1024
-3079.8967 186.81461 8508.9209 512
-3414.4094 210.56339 9590.6162 256
-3429.9663 215.11508 9797.9346 512
-3632.1904 231.73338 10554.855 512
-3569.4387 231.73338 10554.855 256
-3539.6499 233.91168 10654.07 512
-3479.6946 234.13951 10664.447 512
-3417.823 234.24451 10669.229 512
-3354.3918 234.24451 10669.229 512
-3323.845 236.58517 10775.841 133122
-3204.8643 232.59958 10594.309 264196
-3195.7141 236.58517 10775.841 67329
-3078.8923 232.59958 10594.309 594184
-2848.5015 219.68863 10006.247 1055501
-2848.8164 224.39944 10220.812 924426
-2720.2771 218.94458 9972.3584 1187854
-2750.5859 226.31659 10308.134 924936
-2755.2126 231.86333 10560.773 924680
-3138.5466 270.28186 12310.638 1583121
-3118.6689 274.98257 12524.743 4411703
-3044.2058 274.98257 12524.743 1053708
-3359.7559 311.09576 14169.605 461062
-3406.1956 323.50742 14734.924 0
-3634.1726 354.27118 16136.135 724234
-3538.2383 354.27118 16136.135 723977
-3442.3047 354.27118 16136.135 67074
-3346.5493 354.29007 16136.994 264453
-3250.9128 354.32303 16138.495 396039
-3154.7891 354.30328 16137.597 461832
-3058.9143 354.31113 16137.954 2961964
-2963.4116 354.36398 16140.361 2896171
-2867.4993 354.36975 16140.623 2369057
-2771.8015 354.40335 16142.153 658439
-2675.4084 354.34726 16139.599 1711899
-2566.9639 352.63147 16061.448 2633258
-2471.4741 352.63147 16061.448 2830639
-2364.1453 350.87436 15981.417 2830639
-2267.0713 350.55579 15966.907 2699053
-2172.1072 350.54996 15966.642 2567724
-2078.0908 350.70349 15973.635 2501160
-1983.7777 350.81924 15978.907 2369061
-1898.7902 352.67877 16063.604 2171167
-1808.152 353.6301 16106.935 1709589
-1716.0887 354.39362 16141.71 1050887
-1619.9679 354.35995 16140.177 4273714
-1524.1561 354.39392 16141.724 3549475
-1428.0688 354.36407 16140.364 3287072
-1332.0729 354.35419 16139.915 2892058
-1236.0135 354.32465 16138.569 3484453
-1140.059 354.32269 16138.48 3155746
-1044.1112 354.32269 16138.48 3616041
-948.16162 354.32202 16138.449 3287334
-852.21405 354.32202 16138.449 3485226
-756.23657 354.30801 16137.812 3222054
-660.29987 354.3118 16137.984 3419947
-564.35504 354.3118 16137.984 1972245
-468.41714 354.31705 16138.223 2104088
-372.47092 354.31705 16138.223 460292
-276.28485 354.0097 16124.225 131585
-180.42184 354.0097 16124.225 66304
-84.582375 354.10822 16128.711 66305
11.307309 354.1084 16128.72 197890
107.36768 354.67209 16154.394 197891
203.59325 354.99152 16168.943 132099
299.72211 354.99152 16168.943 256
392.31912 351.82419 16024.68 66306
487.5903 351.82419 16024.68 256
582.86145 351.82419 16024.68 0
677.91595 351.71179 16019.561 329478
765.16766 348.07755 15854.029 329478
859.42426 348.07755 15854.029 329478
958.3028 349.76443 15930.863 256
1058.4025 351.5535 16012.351 132099
1160.0813 353.52853 16102.309 132099
1261.8983 355.24136 16180.323 197892
1358.1803 355.2637 16181.341 197892
1458.4121 356.24792 16226.17 66049
1555.4891 356.38724 16232.514 197892
1650.8949 356.14972 16221.696 197892
1747.3375 356.14972 16221.696 131841
1849.1328 357.18369 16268.791 263683
1930.6027 354.38388 16141.267 329476
2026.2855 354.33469 16139.026 790027
2122.1409 354.3187 16138.298 0
2218.1953 354.33594 16139.083 65793
2314.1628 354.33841 16139.195 855821
2410.0981 354.33594 16139.083 1
2506.0398 354.33456 16139.021 2
2602.0398 354.34125 16139.325 2
2697.7522 354.30966 16137.887 263173
2793.804 354.3233 16138.508 657933
2889.6294 354.30832 16137.824 789773
2985.28 354.27353 16136.24 131586
3081.1387 354.26477 16135.842 2829099
3075.4968 342.9386 15619.964 2302753
2633.2268 285.01642 12981.759 2104086
2424.4749 254.94884 11612.259 1970698
2485.9612 254.17671 11577.091 4007437
2594.9778 258.17499 11759.201 10650161
2641.0464 255.86507 11653.99 6697993
2573.2087 242.92007 11064.38 4393472
2627.584 241.87018 11016.56 5247232
2536.9761 227.85019 10377.985 10310912
2460.2471 215.71281 9825.1592 13137920
2484.5869 212.79459 9692.2412 13400576
2089.5437 174.90433 7966.439 12678656
2101.7363 172.02568 7835.3242 3607552
2019.0574 161.67508 7363.8809 3474944
2399.1001 188.02968 8564.2646 7224832
2450.0171 188.02968 8564.2646 9391872
2504.4719 188.29567 8576.3799 6766609
2835.3652 208.92006 9515.7666 917760
3069.4312 221.74249 10099.795 589824
3581.9729 253.80453 11560.139 327680
3658.2825 254.33162 11584.146 196608
3727.1538 254.33162 11584.146 262144
3796.0247 254.33162 11584.146 262400
3881.7397 255.44006 11634.633 393728
3798.376 245.57812 11185.447 262400
3864.8765 245.57812 11185.447 196608
3931.377 245.57812 11185.447 393472
4028.76 247.47516 11271.852 853250
4095.7744 247.47516 11271.852 787200
4358.2764 259.09677 11801.186 590080
4618.2627 270.20297 12307.045 458752
4132.793 238.02818 10841.566 327680
4070.5664 230.84393 10514.343 525057
4114.6191 229.81303 10467.388 3221787
3444.0979 189.49648 8631.0732 2825744
3495.4119 189.49648 8631.0732 2757382
3220.2815 172.05502 7836.6602 6644560
3076.5869 162.03331 7380.1973 1513231
3252.3711 168.88272 7692.1699 1314816
3069.1638 157.15965 7158.2144 1314304
0 0 0 0
0 0 0 0
3440.731 169.14973 7704.332 655616
3516.728 170.61452 7771.0493 768
3876.7175 185.64062 8455.4492 6188395
4062.5247 192.04787 8747.2822 1025
4114.5293 192.04787 8747.2822 2832690
4732.1084 218.11682 9934.6553 2304290
4845.8491 220.60596 10048.029 1577227
4982.6733 224.07253 10205.923 1839882
5139.3726 228.33873 10400.237 327680
6515.2021 286.02469 13027.684 262912
5526.1904 239.75572 10920.252 1974296
6775.2549 290.53354 13233.049 67072
6874.4785 291.4046 13272.725 1536
7471.626 313.12305 14261.942 923146
7100.1875 294.2178 13400.857 1582102
7641.2085 313.12305 14261.942 1516051
6917.9824 280.37534 12770.369 133888
6921.3335 277.466 12637.857 527363
6514.0845 258.33563 11766.518 0
6552.0786 257.08157 11709.398 262144
6021.0703 233.76286 10647.292 524800
5919.6797 227.43535 10359.091 2429965
5981.2671 227.43535 10359.091 2167820
6204.8716 233.53319 10636.831 1117699
6268.1108 233.53319 10636.831 1052934
6281.9312 231.71039 10553.808 790021
6151.9331 224.67133 10233.196 657923
5795.9346 209.59731 9546.6133 854531
5589.394 200.16803 9117.1348 1249033
4110.812 145.80292 6640.9453 919041
4144.6392 145.60425 6631.8965 1445127
4091.2686 142.37489 6484.8071 1050886
4514.5688 155.63895 7088.9502 4669244
5370.8521 183.44659 8355.5166 986378
6823.353 230.9223 10517.912 1052942
6885.8848 230.9223 10517.912 460805
7649.395 254.21851 11578.993 395269
7157.2515 235.74115 10737.398 131842
7208.4771 235.32942 10718.646 329476
7535.8594 243.8614 11107.255 256
7620.9058 244.47127 11135.032 395012
7687.1064 244.47127 11135.032 2369057
7849.9536 247.51863 11273.832 2764071
7916.98 247.51863 11273.832 2237471
7984.0059 247.51863 11273.832 1053197
8400.3721 258.25864 11763.012 66049
8803.6934 268.42358 12225.998 768
9291.0479 280.9632 12797.146 256
9397.0664 281.86115 12838.044 256
9746.6172 289.99039 13208.31 197889
10174.6 300.3046 13678.096 263683
9966.0146 291.81583 13291.455 256
8308.2676 241.36139 10993.386 256
8215.9238 236.81581 10786.346 329220
9312.623 266.34811 12131.467 512
9124.7549 258.96927 11795.379 512
9194.8809 258.96927 11795.379 133123
9665.1152 270.15277 12304.759 856590
9738.2705 270.15277 12304.759 132098
9917.8213 273.08234 12438.192 256
9457.9844 258.49359 11773.713 256
9527.9814 258.49359 11773.713 0
9326.3623 251.17834 11440.522 770
9345.9756 249.88419 11381.577 512
9478.4658 251.6049 11459.951 527882
9546.5977 251.6049 11459.951 1024
9709.3701 254.08148 11572.753 396550
8923.5264 231.87387 10561.254 988687
8799.6816 227.05815 10341.91 1382932
8766.4346 224.63074 10231.348 1513491
8827.2627 224.63074 10231.348 2434593
8917.9893 225.38634 10265.764 394498
8677.4619 217.81677 9920.9893 1051398
8698.7422 216.87677 9878.1738 1313544
8759.04 216.91562 9879.9443 1181700
8817.7793 216.91562 9879.9443 1707786
8975.6152 219.33727 9990.2441 2167566
9020.207 218.97789 9973.875 2037770
9066.334 218.66025 9959.4072 2235401
9118.3789 218.48854 9951.5859 3224346
10403.712 247.67973 11281.17 2042375
10470.781 247.67973 11281.17 1649157
15073.543 354.28583 16136.801 4084000
15172.852 354.36453 16140.386 4216613
15268.006 354.34586 16139.535 4150301
0 0 0 0
0 0 0 0
0 0 0 0
0 0 0 0
0 0 0 0
0 0 0 0
0 0 0 0
0 0 0 0
0 0 0 0
0 0 0 0
0 0 0 0
0 0 0 0
0 0 0 0
0 0 0 0
-2089.2805 67.20993 2408.9214 256
-2095.0115 67.859451 2432.2014 256
-2096.1523 68.368301 2450.4395 256
-2095.5344 68.8265 2466.8621 0
-2086.6626 69.01815 2473.7312 256
-2071.9558 69.01815 2473.7312 256
-2079.0771 69.750473 2499.979 256
-2071.8904 70.009857 2509.2756 256
-2032.4673 69.175827 2479.3826 512
-2044.0674 70.078896 2511.75 1024
-2025.922 69.967949 2507.7737 512
-2018.6238 70.232758 2517.2649 512
-2014.1758 70.60144 2530.479 768
-2034.5959 71.853905 2575.3696 593415
-2022.8119 71.979416 2579.8682 512
-2017.2848 72.3312 2592.4766 512
-2031.358 73.396584 2630.6619 256
-2022.9087 73.658417 2640.0464 256
-2019.4752 74.108406 2656.1748 256
-2011.7001 74.404907 2666.802 256
-2009.9834 74.931976 2685.6931 256
-2009.251 75.504478 2706.2124 256
-1994.6974 75.562645 2708.2974 256
-1978.5958 75.562645 2708.2974 256
-1971.4636 75.907997 2720.6753 256
-1972.97 76.594429 2745.2781 512
-1990.3567 77.913956 2792.5725 512
-1981.2 78.207886 2803.1072 512
-2023.5278 80.556396 2887.282 768
-2031.3979 81.561592 2923.3101 768
-2055.7834 83.252968 2983.9319 331009
-2039.6368 83.318062 2986.2651 768
-2037.337 83.95491 3009.0908 1280
-2098.9824 87.261444 3127.6028 660737
-2082.0339 87.33049 3130.0774 463872
-2066.0818 87.442947 3134.1079 2306327
-2140.8433 91.431671 3277.0708 3095843
-2159.4839 93.074821 3335.9641 857606
-2247.063 97.747253 3503.4324 1024
-2253.5701 98.947487 3546.4509 67840
-2232.4854 98.947487 3546.4509 264704
-2231.8723 99.86348 3579.2815 1024
-2228.884 100.68979 3608.8982 768
-2232.3428 101.82626 3649.6311 768
-2217.2104 102.12868 3660.4705 768
-2214.3413 103.00758 3691.9717 67840
-2196.8149 103.21539 3699.4204 397056
-2191.2859 103.99683 3727.4282 1024
-2217.9399 106.3372 3811.3113 265728
-2237.5459 108.38448 3884.6892 1024
-2201.7905 107.76487 3862.4812 1024
-2167.9238 107.22559 3843.1526 1024
-2166.6133 108.30221 3881.7405 1024
-2166.2451 109.44962 3922.8657 2304
-2170.9978 110.88358 3974.261 2816
-2147.3696 110.88358 3974.261 1845257
-2123.7417 110.88358 3974.261 331520
-2125.4009 112.2187 4022.1145 1122561
-2173.9353 116.08734 4160.7734 2702355
-2189.1326 118.24438 4238.085 1123074
-2163.936 118.24438 4238.085 332544
-2206.3921 121.98467 4372.144 1846786
-2212.8713 123.80141 4437.2588 1781250
-2229.4595 126.23435 4524.46 1978633
-2220.6091 127.26878 4561.5352 2110217
-2242.0413 130.0858 4662.5024 397824
-2233.4612 131.21022 4702.8037 2304
-2224.677 132.35098 4743.6909 1536
-2317.3669 139.63551 5004.7808 398080
-2304.8667 140.68874 5042.5303 2560
-2274.8875 140.68874 5042.5303 135424
-2281.5569 142.9855 5124.8506 990215
-2320.0723 147.36726 5281.9004 134144
-2361.8481 152.07921 5450.7847 1714441
-2333.8965 152.37004 5461.2085 595200
-2395.9231 158.62627 5685.4424 1122560
-2362.1216 158.62627 5685.4424 2898967
-2427.0474 165.35245 5926.521 1384461
-2714.0613 187.63036 6725 1024
-2725.2913 191.22372 6853.7925 512
-2736.0154 194.89012 6985.2031 512
-2761.7983 199.75874 7159.7026 512
-2773.1309 203.71826 7301.6182 512
-2753.4497 205.48914 7365.0903 512
-2798.408 212.21924 7606.3086 264709
-3079.8967 237.40251 8508.9209 768
-3477.0344 272.49011 9766.5215 1711385
-3574.791 284.90897 10211.636 256
-4251.0566 344.6604 12353.231 256
-4365.6655 360.17505 12909.303 0
-4104.1699 344.6604 12353.231 132355
-3810.6172 325.83923 11678.648 512
-3635.9141 316.67068 11350.031 512
-3450.1196 306.17114 10973.709 512
-3371.0757 304.9227 10928.963 133122
-3193.073 294.4982 10555.33 857867
-3222.5706 303.17715 10866.399 1451026
-3207.0823 307.89249 11035.404 727815
-2946.4639 288.77975 10350.371 1582869
-2884.9282 288.77975 10350.371 990732
-2957.751 302.52213 10842.922 793354
-2893.2869 302.52213 10842.922 2174749
-2858.1104 305.65427 10955.183 1450770
-3242.2368 354.81952 12717.353 1320204
-3173.3 355.56708 12744.146 5796412
-3443.9983 395.33801 14169.605 4810032
-3613.5688 425.2038 15240.048 2633507
-3730.0483 450.19803 16135.884 4410692
-3634.2737 450.21753 16136.584 922382
-3538.4272 450.229 16136.994 460805
-3442.6479 450.24991 16137.744 132867
-3346.8604 450.27084 16138.495 1024
-3250.9128 450.27084 16138.495 330246
-3154.7422 450.23907 16137.356 593419
-3058.801 450.23907 16137.356 2435622
-2963.4116 450.32294 16140.361 2369318
-2867.5325 450.33548 16140.81 1053459
-2771.4939 450.32294 16140.361 526602
-2675.3862 450.29794 16139.465 1645083
-2579.2178 450.26041 16138.12 2961971
-2483.2722 450.26041 16138.12 3356984
-2387.3269 450.2605 16138.123 3291191
-2291.4138 450.26691 16138.353 2962482
-2190.8855 449.32727 16104.676 2830896
-2094.8066 449.25607 16102.123 2699054
-1999.3918 449.32727 16104.676 2501162
-1903.9122 449.39032 16106.935 2303010
-1811.4233 450.2034 16136.077 1644050
-1716.0887 450.36053 16141.71 1315084
-1620.0322 450.33566 16140.816 3815458
-1524.1561 450.36096 16141.724 5858876
-1428.0688 450.32303 16140.364 5070382
-1332.0729 450.31049 16139.915 5135920
-1236.1166 450.31049 16139.915 6187582
-1140.1223 450.29553 16139.378 5199919
-1044.1138 450.27161 16138.521 5922619
-948.15875 450.26825 16138.401 4145188
-852.18567 450.25464 16137.913 2894104
-756.19928 450.22961 16137.016 3090975
-660.29266 450.25171 16137.81 3024930
-564.35504 450.25659 16137.984 1643793
-468.42535 450.27115 16138.505 459778
-372.46127 450.25162 16137.805 262913
-276.15091 449.65463 16116.408 131584
-180.43077 449.89496 16125.021 66304
-84.577797 449.97354 16127.839 329476
11.307303 449.99789 16128.711 526855
107.36565 450.70596 16154.09 658441
203.52592 450.97119 16163.597 0
296.66461 446.5184 16004.001 256
391.81284 446.5184 16004.001 131842
486.96106 446.5184 16004.001 256
584.08289 448.03229 16058.261 513
681.21173 449.12543 16097.44 329478
763.84229 441.56799 15826.568 513
863.20013 444.27756 15923.684 513
957.87091 444.27756 15923.684 256
1058.4025 446.7514 16012.351 256
1165.7018 451.4379 16180.323 256
1264.5353 452.38126 16214.135 513
1356.123 450.78244 16156.831 256
1452.8405 450.98749 16164.18 66306
1548.8875 450.97192 16163.622 395271
1644.9847 450.97192 16163.622 329478
1738.4115 450.28018 16138.83 592648
1834.3613 450.28018 16138.83 395269
1930.2836 450.27383 16138.601 66304
2026.0604 450.23566 16137.232 461062
2122.2317 450.28461 16138.987 197634
2218.1953 450.28726 16139.083 1250322
2314.1628 450.29041 16139.195 7435120
2410.0889 450.28552 16139.021 256
2506.0398 450.28552 16139.021 256
2602.1848 450.31912 16140.225 256
2697.9927 450.29404 16139.325 1710875
2793.8047 450.27136 16138.513 66306
2889.4182 450.21924 16136.646 197377
2985.28 450.20792 16136.239 855818
2982.6316 435.80362 15619.964 2368794
2400.3323 340.13159 12190.91 2827544
2355.4368 323.98694 11612.259 5850910
2368.5833 316.51804 11344.561 7886894
2405.7031 312.57767 11203.33 5516302
2491.0842 314.95129 11288.405 4527616
2552.0435 314.19373 11261.252 4262656
2573.2087 308.7009 11064.38 10113536
2504.427 292.96017 10500.205 13204224
2487.5774 283.9122 10175.91 13531648
2426.4131 270.35629 9690.042 13400064
2037.8054 221.79082 7949.3701 12809216
1995.7986 212.29526 7609.0332 4197632
2041.0364 212.29526 7609.0332 2952704
2165.104 220.31683 7896.54 2034433
2497.75 248.772 8916.4229 5389347
2522.9958 246.06415 8819.3691 1971202
2504.4719 239.28464 8576.3799 1380615
3016.6663 282.47034 10124.23 196864
3517.5234 322.9256 11574.218 262400
3608.2332 324.89734 11644.889 262144
3677.4653 324.89734 11644.889 196864
3746.6973 324.89734 11644.889 196864
3924.874 334.1731 11977.349 262912
3996.0825 334.1731 11977.349 262912
3950.9109 324.61121 11634.633 196608
3905.1438 315.33023 11301.986 656899
3961.8726 314.49951 11272.212 919043
4028.76 314.48944 11271.852 852994
4062.9702 311.97061 11181.572 918528
4358.2764 329.25809 11801.186 655872
4618.2627 343.37177 12307.045 655872
4498.5991 329.25809 11801.186 525056
4477.1987 322.65948 11564.681 590848
4261.7051 302.48431 10841.566 1182210
4119.981 288.06821 10324.868 3153944
3670.8289 252.89565 9064.2227 2692624
3032.7095 205.91063 7380.1973 4671033
0 0 0 0
3052.8379 201.44817 7220.2544 853248
3298.1035 214.61482 7692.1699 2169361
2969.0315 190.55907 6829.9697 328449
0 0 0 0
3440.731 214.95413 7704.332 256
3621.3879 223.26814 8002.3208 512
3763.1252 228.99817 8207.6943 7701892
4071.4968 244.59189 8766.6006 772
4114.5293 244.05289 8747.2822 2635057
4579.5815 268.24695 9614.4395 593675
4845.8491 280.34427 10048.029 1840145
4951.2939 282.95633 10141.649 1839885
5231.2808 295.36023 10586.227 327680
6515.2021 363.47791 13027.684 262912
5868.3994 323.54694 11596.487 198144
6775.2549 369.20767 13233.049 264194
7314.6685 394.02679 14122.609 198659
7471.626 397.91428 14261.942 594952
6891.9976 362.92651 13007.921 1253135
6937.7905 361.28394 12949.048 858376
6229.7314 320.85156 11499.881 594949
6472.415 329.73181 11818.165 1054217
6482.4634 326.6972 11709.398 0
6552.0786 326.6972 11709.398 393728
6044.2891 298.2095 10688.351 787456
5780.9346 282.24893 10116.295 2036493
5981.2671 289.02304 10359.091 1839370
6203.0698 296.68591 10633.742 262656
6219.186 294.45572 10553.808 658433
6250.4541 292.98029 10500.925 263680
6151.9331 285.51053 10233.196 1118985
5795.9346 266.35458 9546.6133 1250057
5632.3198 256.32547 9187.1533 328192
5475.2314 246.7832 8845.1416 393472
4052.7146 180.92886 6484.8071 985091
4091.2686 180.92886 6484.8071 1182983
4479.7183 196.25793 7034.2271 1117192
4556.7144 197.78473 7088.9502 5196614
5420.5278 233.12247 8355.5166 263425
6682.6963 284.79498 10207.551 0
6814.8145 287.8118 10315.678 256
6955.7778 291.14499 10435.146 256
7159.9917 297.04327 10646.55 256
7272.2021 299.05478 10718.646 256
7470.625 304.54581 10915.454 66048
7535.5205 304.54581 10915.454 256
7335.4927 293.93042 10534.98 0
7426.604 295.06186 10575.533 256
7661.3286 301.83224 10818.195 131842
8323.0713 325.17294 11654.768 131841
8646.1641 335.00687 12007.231 66304
9050.9346 347.81848 12466.422 256
9302.3721 354.57739 12708.674 512
9490.752 358.84323 12861.568 197890
10174.6 381.62466 13678.096 66305
9966.0146 370.83725 13291.455 512
9643.6572 356.01935 12760.355 0
8611.8447 315.44592 11306.134 131585
9049.8115 328.92102 11789.104 197890
9119.9014 328.92102 11789.104 1024
9189.9902 328.92102 11789.104 512
9665.1152 343.30801 12304.759 593933
9738.2705 343.30801 12304.759 2897200
9917.8213 347.03085 12438.192 3949376
9477.04 329.15344 11797.435 0
9695.8467 334.27896 11981.143 512
9587.1738 328.12173 11760.457 512
9177.8623 311.83878 11176.847 330246
9413.6426 317.55084 11381.577 659468
8796.665 294.62051 10559.715 198916
9338.7949 310.56128 11131.059 133378
8923.5264 294.66345 10561.254 264708
8986.3164 294.66345 10561.254 987148
8903.4873 289.92172 10391.302 790025
9108.3369 294.5484 10557.129 1710613
9002.8643 289.14511 10363.466 723462
8814.6035 281.17444 10077.783 788740
8898.4033 281.93118 10104.906 788227
8976.1846 282.48834 10124.876 919042
8994.3633 281.17487 10077.799 1181187
9017.3838 280.02914 10036.733 1773064
8918.7783 275.14624 9861.7227 2037259
8977.4092 275.14624 9861.7227 2038278
9036.0391 275.14624 9861.7227 2697746
10113.474 305.96872 10966.453 3029269
10309.284 309.89487 11107.174 2438665
15073.543 450.22363 16136.801 3821854
15172.852 450.32361 16140.386 4086310
15267.579 450.28729 16139.084 2573332
0 0 0 0
0 0 0 0
0 0 0 0
0 0 0 0
0 0 0 0
0 0 0 0
0 0 0 0
0 0 0 0
0 0 0 0
0 0 0 0
0 0 0 0
0 0 0 0
0 0 0 0
0 0 0 0
-2105.2285 82.153984 2427.3091 512
-2102.2891 82.60553 2440.6504 256
-2104.1714 83.254128 2459.8137 256
-2105.8062 83.901939 2478.9539 256
-2093.3452 83.993301 2481.6533 256
-2078.5911 83.993301 2481.6533 256
-2092.3804 85.154945 2515.9751 256
-2079.4634 85.238617 2518.4473 256
-2066.2131 85.309746 2520.5488 256
-2055.3694 85.481987 2525.6379 198658
-2052.981 86.011024 2541.2686 67072
-2047.5076 86.417679 2553.2837 512
-2034.8982 86.526985 2556.5132 512
-2047.5758 87.721268 2591.7993 256
-2032.1667 87.721268 2591.7993 512
-2029.9365 88.294487 2608.7356 256
-2037.5175 89.30658 2638.6387 256
-2035.267 89.900101 2656.1748 256
-2036.3223 90.650078 2678.3335 256
-2025.9508 90.89917 2685.6931 256
-2035.9399 92.073021 2720.3755 256
-2032.822 92.668167 2737.9597 256
-2043.8521 93.923073 2775.0369 256
-2013.7032 93.29068 2756.3523 256
-1997.3159 93.29068 2756.3523 256
-2006.9594 94.516579 2792.5725 512
-2008.5712 95.381538 2818.1284 512
-2014.6073 96.472908 2850.3738 512
-2062.3594 99.597382 2942.689 512
-2044.8641 99.597382 2942.689 768
-2027.3691 99.597382 2942.689 768
-2055.2271 101.84479 3009.0908 1024
-2080.0864 103.9818 3072.2305 1024
-2104.2263 106.12038 3135.4165 67328
-2087.5029 106.21795 3138.2993 2043158
-2127.3147 109.21989 3226.9941 1056004
-2177.1194 112.79419 3332.6001 858883
-2171.1838 113.51978 3354.0381 1780239
-2225.5183 117.43923 3469.8418 1280
-2240.9531 119.36012 3526.5957 768
-2232.4854 120.03213 3546.4509 1024
-2245.9045 121.90495 3601.7852 256
-2234.7427 122.46677 3618.3843 512
-2238.22 123.84953 3659.2393 512
-2224.2974 124.28719 3672.1707 768
-2203.4001 124.33994 3673.7292 768
-2196.8149 125.20949 3699.4204 768
-2187.3608 125.93144 3720.7512 512
-2215.2537 128.84027 3806.6948 768
-2237.8096 131.49556 3885.1475 768
-2190.7725 130.0742 3843.1526 512
-2167.9238 130.0742 3843.1526 768
-2189.5674 132.77216 3922.8657 1024
-2221.3149 136.14746 4022.592 768
-2211.5903 137.02669 4048.5698 199680
-2147.3696 134.51166 3974.261 463616
-2108.4641 133.54402 3945.6714 990978
-2081.1321 133.2959 3938.3403 990976
-2173.9353 140.8243 4160.7734 2965526
-2186.7717 143.28629 4233.5146 1189120
-2139.3083 141.80847 4189.8516 794112
-2137.3589 143.34839 4235.3496 1649669
-2184.5969 148.26323 4380.563 1123329
-2229.4595 153.13353 4524.46 2307341
-2246.5896 156.19467 4614.9038 990982
-2219.1526 156.19467 4614.9038 1792
-2229.6611 158.89888 4694.8022 1280
-2205.5017 159.16969 4702.8037 1280
-2286.5845 167.14026 4938.3008 200448
-2287.6121 169.39032 5004.7808 200192
-2274.8875 170.66798 5042.5303 266496
-2298.4771 174.74051 5162.8564 2372118
-2377.2947 183.17883 5412.1738 990721
-2365.5776 184.77696 5459.3921 398592
-2348.1279 185.96555 5494.5098 332544
-2394.9333 192.34828 5683.0933 990721
-2325.5908 189.45183 5597.5151 2503957
-2343.1794 193.65585 5721.7266 199424
-2647.5293 222.03271 6560.145 1280
-2713.8342 230.99622 6824.9795 512
-2673.2578 230.99622 6824.9795 512
-2645.7214 232.14038 6858.7847 256
-2773.1309 247.1284 7301.6182 198147
-2760.4434 249.90982 7383.7974 198148
-3260.3457 299.93701 8861.8936 1024
-3512.4209 328.43423 9703.8682 198145
-3519.1812 334.56158 9884.9062 658697
-3612.1638 349.23328 10318.394 2237470
-4317.5137 424.64008 12546.351 512
-4452.187 445.58365 13165.147 256
-4918.5698 501.06912 14804.513 2501413
-4830.5532 501.06912 14804.513 3553589
-4194.417 443.15799 13093.479 1383188
-3489.7688 375.68124 11099.82 2369571
-3423.7773 375.68124 11099.82 4081211
-3306.1001 369.89844 10928.963 264961
-3241.1243 369.89844 10928.963 397827
-3321.7207 386.85196 11429.869 990987
-3093.884 367.8429 10868.23 2043419
-2998.957 364.16208 10759.478 1319695
-2988.3738 370.78586 10955.183 530180
-3092.178 392.21378 11588.289 661509
-3317.845 430.42773 12717.353 2702370
-3474.8748 461.31189 13629.852 2638110
-3475.3894 472.39639 13957.352 4217895
-3521.5181 490.37497 14488.544 5006387
-3438.3398 490.79755 14501.029 1317908
-3349.2415 490.37497 14488.544 3489588
-3634.1729 546.13892 16136.137 329735
-3538.4934 546.17816 16137.297 0
-3442.5525 546.17816 16137.297 66565
-3346.6121 546.17816 16137.297 6580328
-3250.7612 546.1933 16137.744 257
-3154.6494 546.16412 16136.882 659212
-3058.7109 546.16412 16136.882 1777177
-2963.2473 546.25159 16139.466 8159357
-2867.4526 546.28192 16140.361 12106937
-2771.3401 546.25159 16139.466 11909561
-2675.312 546.23639 16139.018 11382960
-2579.3613 546.23639 16139.018 10791336
-2483.4102 546.23639 16139.018 9541268
-2387.3613 546.21399 16138.355 8422531
-2291.4143 546.21399 16138.355 5659225
-2195.4353 546.20599 16138.12 2435627
-2099.4895 546.20599 16138.12 658702
-2003.5441 546.20599 16138.12 658702
-1907.5985 546.20599 16138.12 789517
-1811.6532 546.20612 16138.123 2565153
-1715.9462 546.2821 16140.367 2763041
-1619.9871 546.2821 16140.367 3684651
-1524.0282 546.2821 16140.367 2567190
-1428.0065 546.25806 16139.658 1910543
-1332.0516 546.25806 16139.658 1845003
-1236.1166 546.26678 16139.915 2898714
-1140.1223 546.2486 16139.378 3359521
-1044.1351 546.23077 16138.851 2702360
-948.16583 546.21954 16138.521 2505748
-852.21155 546.21552 16138.401 4610097
-756.19928 546.16864 16137.016 4673590
-660.29266 546.1955 16137.81 460804
-564.37323 546.21906 16138.505 1051913
-468.43634 546.23181 16138.883 1184014
-371.75793 545.16388 16107.33 328963
-276.15091 545.47113 16116.408 263170
-180.45532 545.83698 16127.216 512
-84.57473 545.83826 16127.254 921869
11.306691 545.85809 16127.839 790027
107.19704 545.88782 16128.72 526855
203.40622 546.74652 16154.09 0
296.66461 541.66663 16004.001 256
391.81284 541.66663 16004.001 513
487.5903 542.36658 16024.68 257
584.08289 543.50311 16058.261 263685
682.99774 546.25763 16139.646 395271
778.95245 546.25763 16139.646 132099
863.58929 539.19128 15930.863 66049
971.47723 546.60394 16149.877 132099
1064.5314 545.08752 16105.074 197892
1160.2805 545.08752 16105.074 256
1264.5353 548.77875 16214.135 256
1356.123 546.83929 16156.831 256
1450.8604 546.34241 16142.15 395271
1546.5215 546.23352 16138.932 2171682
1642.4524 546.22699 16138.739 513
1738.3867 546.22229 16138.601 132097
1834.3352 546.22229 16138.601 131841
1930.2836 546.22229 16138.601 0
2026.2855 546.23669 16139.026 0
2122.2317 546.23535 16138.987 256
2218.1821 546.23535 16138.987 723978
2314.1338 546.2356 16138.993 1974302
2409.8345 546.17883 16137.317 197378
2505.8792 546.20154 16137.987 0
2602.1848 546.27728 16140.225 257
2698.1172 546.27203 16140.07 2369061
2793.8047 546.2193 16138.513 263686
2889.3457 546.1424 16136.239 329732
2985.197 546.1272 16135.791 2106138
2214.3057 392.48358 11596.261 3024408
2271.2639 390.42346 11535.392 11176757
2339.845 390.42346 11535.392 6502924
2368.5833 383.96463 11344.561 3676160
2405.7031 379.18457 11203.33 4332546
2571.7603 394.4375 11653.99 9850368
2552.0435 381.14499 11261.252 12809216
2464.2795 358.62912 10596.002 13597696
2438.2087 345.99026 10222.575 13597440
2449.2781 339.10822 10019.24 13202944
1971.3298 266.4549 7872.6362 12610816
1958.2974 258.55457 7639.2139 6628352
1974.7738 254.82011 7528.876 2821888
2019.3528 254.79709 7528.1963 1640960
2444.7393 301.78259 8916.4229 6052933
2848.6807 344.18268 10169.169 1908751
3883.5076 459.46097 13575.164 526081
4165.3467 482.77252 14263.924 196608
4206.9785 477.86874 14119.037 131072
4004.3887 445.95844 13176.221 328704
3685.0308 402.51807 11892.737 328704
3755.7361 402.51807 11892.737 328706
3812.5769 401.05957 11849.645 262913
3935.7268 406.50275 12010.468 0
3996.0825 405.38177 11977.349 131072
3981.1624 396.79745 11723.717 656899
4050.8633 396.79745 11723.717 919300
3961.8726 381.51593 11272.212 853250
3928.4539 372.00525 10991.21 787202
3998.2117 372.4162 11003.353 787201
4358.2764 399.4194 11801.186 655872
4618.2627 416.54059 12307.045 721921
4544.436 403.48923 11921.431 722177
4477.1987 391.41473 11564.681 919554
4312.6846 371.32983 10971.255 1050881
4141.9771 351.31812 10379.991 2363916
4098.9556 342.56519 10121.379 3086098
3720.4756 306.43555 9053.8984 3348241
3009.9114 244.37459 7220.2544 3940635
3383.4883 270.84262 8002.2744 2955022
3809.5676 300.72104 8885.0586 3481881
3101.0034 241.44031 7133.5586 3219481
3394.9268 260.75854 7704.332 1379590
3463.6375 262.49451 7755.623 1643792
3714.3281 277.7952 8207.6943 328962
3763.1252 277.7952 8207.6943 768
4071.4968 296.71176 8766.6006 1027
3799.2817 273.37451 8077.0815 4546903
4579.5815 325.40747 9614.4395 196608
4848.5508 340.27225 10053.632 1774352
5049.0791 350.03027 10341.941 1773836
5521.8833 378.20209 11174.302 196608
5799.4546 392.49124 11596.487 328960
5868.3994 392.49124 11596.487 263936
6704.6582 443.21503 13095.163 67072
7314.6685 477.98965 14122.609 67328
7722.8164 498.93365 14741.418 1054731
7150.8086 456.7951 13496.398 858122
7083.7524 447.49023 13221.479 463618
6402.1528 399.99411 11818.165 528642
6472.415 399.99411 11818.165 856580
5988.5122 366.11459 10817.166 66304
6201.9761 375.13632 11083.721 854786
5983.3711 358.10876 10580.627 1182211
5780.9346 342.3931 10116.295 2167565
5944.2485 348.44077 10294.978 1576198
6203.0698 359.90649 10633.742 196608
6068.8979 348.56921 10298.772 256
6130.127 348.56921 10298.772 131584
6151.9331 346.3497 10233.196 987145
5839.9297 325.56445 9619.0781 1382155
6036.8711 333.27991 9847.0371 263424
5705.1812 311.94305 9216.6221 1710353
0 0 0 0
0 0 0 0
3955.0667 210.19531 6210.3989 1248522
4521.5386 238.07837 7034.2271 1117962
4563.3594 238.07837 7034.2271 3420974
4832.0845 249.80887 7380.8149 855561
6704.8774 343.509 10149.265 2040091
6765.2183 343.509 10149.265 2303520
6878.9536 346.19623 10228.661 2698278
7079.8584 353.18484 10435.146 1579541
7253.0454 358.68137 10597.545 395014
7314.334 358.59723 10595.059 197634
7240.4941 351.94617 10398.548 66049
7528.4248 362.84381 10720.527 197890
7661.3286 366.14941 10818.195 526853
7889.7354 373.92627 11047.969 526855
8083.3335 379.9386 11225.608 263683
8150.0728 379.9386 11225.608 132097
8734.2949 403.86661 11932.582 0
9199.167 421.93481 12466.422 131841
9453.4854 430.134 12708.674 132097
9567.793 431.88324 12760.355 461062
8859.2363 396.7536 11722.421 66305
8910.1416 395.91876 11697.756 197890
8998.6221 396.7536 11722.421 66305
8887.8115 388.85623 11489.087 256
