# .PCD v0.7 - Point Cloud Data file format
VERSION 0.7
FIELDS x y z rgb
SIZE 4 4 4 4
TYPE F F F U
COUNT 1 1 1 1
WIDTH 1311
HEIGHT 1
VIEWPOINT 0 0 0 1 0 0 0
POINTS 1311
DATA ascii
5525.7661 -4918.082 11600.872 13750737
5510.771 -4844.272 11426.767 13750737
5407.5879 -4695.6807 11076.268 13750737
5400.1475 -4632.8037 10927.952 13750737
5288.1265 -4482.7676 10574.044 13750737
5212.7002 -4366.9146 10300.767 13619921
5200.8887 -4306.4258 10158.085 13685457
4823.2124 -3947.8606 9312.2939 13685457
4878.5767 -3947.8606 9312.2939 13685457
5110.1001 -4088.8135 9644.7764 13685457
5167.4409 -4088.8135 9644.7764 13685457
5076.8428 -3973.0396 9371.6865 13685457
4693.9795 -3633.5405 8570.8691 13685457
5446.3169 -4170.6392 9837.7881 13685457
5504.8052 -4170.6392 9837.7881 13685457
5122.7549 -3840.3796 9058.7656 13685457
5027.3149 -3729.6206 8797.5049 13685457
4688.1216 -3442.1711 8119.4634 13685457
4527.2646 -3290.186 7760.958 13685457
4486.8418 -3227.9109 7614.0615 13685457
4350.0791 -3098.2629 7308.2456 13685457
4260.6147 -3004.5339 7087.1558 13685457
4205.4619 -2936.5996 6926.9106 13685457
4195.4365 -2901.1885 6843.3823 13685457
4236.1221 -2901.1885 6843.3823 13685457
4208.9414 -2855.1509 6734.7876 13685457
4248.981 -2855.1509 6734.7876 13685457
4419.3403 -2941.9023 6939.4194 13685457
4460.7104 -2941.9771 6939.5952 13685457
4485.916 -2931.4875 6914.8521 13685457
0 0 0 0
0 0 0 0
0 0 0 0
0 0 0 0
0 0 0 0
0 0 0 0
0 0 0 0
0 0 0 0
0 0 0 0
0 0 0 0
0 0 0 0
0 0 0 0
0 0 0 0
0 0 0 0
0 0 0 0
0 0 0 0
0 0 0 0
2645.9373 -1484.2454 3501.0681 12046270
2697.3545 -1501.278 3541.2449 10530464
2687.5669 -1484.2454 3501.0681 7041914
2658.2495 -1456.772 3436.2634 5857129
2673.5925 -1454.0056 3429.738 7299440
2725.3423 -1470.931 3469.6619 7495534
2802.1265 -1501.012 3540.6174 7231349
2726.0916 -1449.3944 3418.8608 13683923
2844.2263 -1501.012 3540.6174 11776444
2766.7437 -1449.3944 3418.8608 6117225
0 0 0 0
0 0 0 0
2851.6077 -1461.6373 3447.74 5461862
2916.4792 -1484.2195 3501.0071 5138270
3020.7637 -1526.3971 3600.4963 13423565
3230.3418 -1620.8118 3823.2036 13225674
3074.8462 -1532.0126 3613.7424 13620686
0 0 0 0
0 0 0 0
0 0 0 0
3599.1018 -1744.4619 4114.8721 9677712
3444.1157 -1658.0709 3911.0913 5926738
3448.7141 -1649.1504 3890.0496 6650204
3770.8018 -1791.1589 4225.022 6847585
3755.1995 -1771.944 4179.6973 5202508
0 0 0 0
0 0 0 0
3552.707 -1643.7631 3877.3416 8425852
3665.1091 -1684.8369 3974.2275 5399630
4007.95 -1830.6379 4318.146 6123611
3953.3801 -1794.2206 4232.2437 5860696
3826.8374 -1725.8057 4070.8652 4676167
0 0 0 0
0 0 0 0
0 0 0 0
3843.8989 -1690.7285 3988.1248 4017229
5758.6489 -2517.3979 5938.0894 10596271
0 0 0 0
0 0 0 0
0 0 0 0
0 0 0 0
0 0 0 0
0 0 0 0
0 0 0 0
0 0 0 0
-2849.5786 -1354.7666 3241.1035 199425
-2842.6765 -1360.6862 3255.2656 528387
-2823.323 -1360.6862 3255.2656 528387
-2823.2136 -1370.0249 3277.6072 1646866
-2822.7129 -1379.3019 3299.8013 989447
-2892.7998 -1423.4427 3405.4023 1054984
-2879.7344 -1427.0009 3413.9148 1186569
-2871.0305 -1432.7863 3427.7556 1383694
-2850.6516 -1432.7863 3427.7556 1844244
-2936.5986 -1486.6124 3556.5276 265217
-2945.2271 -1501.7938 3592.8474 331008
-2928.8188 -1504.3375 3598.9326 396801
-2920.4009 -1511.0527 3614.998 1120775
-2943.1069 -1534.0911 3670.1143 1253129
-2921.2871 -1534.0911 3670.1143 1713931
-3001.5305 -1588.0922 3799.3049 1451269
-2982.3149 -1589.89 3803.606 1911568
-3063.7961 -1645.8074 3937.3813 2964001
-3124.575 -1691.3795 4046.4065 330753
-3338.9866 -1821.4678 4357.626 1280
-3378.7029 -1857.5463 4443.939 330243
-3462.4346 -1918.5831 4589.9619 1054221
-3400.6438 -1899.3134 4543.8613 725253
-3407.8574 -1918.5831 4589.9619 922630
-3420.9243 -1941.4863 4644.7549 1186826
-3394.0334 -1941.9003 4645.7451 1647118
-3421.7485 -1973.8202 4722.1094 990467
-3424.9187 -1991.9927 4765.5845 1780235
-3384.0688 -1984.6515 4748.022 3491620
-3529.3057 -2087.2393 4993.4497 2176528
-3890.9019 -2320.6082 5551.7549 2439444
-4021.1248 -2418.7944 5786.6528 1255684
-3934.0371 -2386.8301 5710.1821 3493159
-3967.8274 -2428.2861 5809.3604 2769943
-3872.2947 -2390.6301 5719.2729 927748
-4067.9661 -2533.6794 6061.5 8232283
-4031.9287 -2533.6794 6061.5 4022038
-3995.2563 -2533.2769 6060.5371 4876324
-4007.312 -2564.0449 6134.1455 6651710
-4035.0439 -2605.501 6233.3237 6388029
-4487.0991 -2924.2581 6995.9092 5663799
-4557.7515 -2998.093 7172.5493 6979663
-4464.0273 -2964.1743 7091.4033 4807736
-4433.3696 -2971.885 7109.8501 5136704
-4379.7065 -2964.1743 7091.4033 1320460
-4345.6299 -2969.6985 7104.6191 4674877
-4359.0337 -3008.0964 7196.4814 790794
-4401.6743 -3067.6321 7338.9126 660495
-4430.9458 -3118.9487 7461.6807 660241
-4513.2178 -3208.9878 7677.0879 1383966
-5013.8579 -3601.3735 8615.8203 660497
-4962.6343 -3601.3735 8615.8203 1252377
-4911.4106 -3601.3735 8615.8203 2239785
-4602.647 -3410.5378 8159.27 2108454
-4498.3179 -3368.7349 8059.2617 2503467
-4405.1602 -3334.4878 7977.3306 4148548
-4341.2769 -3321.896 7947.2061 2504236
-4390.541 -3396.5591 8125.8276 4149061
-4149.7847 -3246.0247 7765.6934 3425336
-4103.6152 -3246.0247 7765.6934 5793883
-4442.0059 -3553.6787 8501.7158 5662300
-4576.9302 -3703.7649 8860.7783 4543822
-4580.3345 -3749.6785 8970.6201 4017478
-4619.1934 -3826.0396 9153.3047 5727842
-4696.8838 -3936.7698 9418.2119 6912115
-4699.7998 -3986.7412 9537.7627 5136216
-4594.6392 -3945.1355 9438.2256 4478287
-4627.3125 -4022.3135 9622.8643 4017991
-4570.1025 -4022.3135 9622.8643 4675921
-4605.6929 -4105.0269 9820.7451 4609873
-4614.2617 -4165.4702 9965.3486 5531489
-4555.0151 -4165.4702 9965.3486 4609876
-4592.6909 -4255.272 10180.188 4412498
-4532.1665 -4255.272 10180.188 6056811
-4586.0571 -4364.1499 10440.664 4346194
-4850.8267 -4679.4453 11194.967 5267041
-5133.7827 -5021.3008 12012.812 4608857
-4974.4302 -4934.0811 11804.149 5332581
-4904.251 -4934.0811 11804.149 6911358
-4834.0723 -4934.0811 11804.149 5463146
-4199.4453 -4349.4678 10405.539 5857393
-4137.5815 -4349.4678 10405.539 6646397
-6320.3086 -6744.8203 16136.108 11842756
-6224.8047 -6745.2852 16137.223 13486549
-6128.8789 -6745.3008 16137.26 11643329
-6032.7183 -6745.0552 16136.671 13553873
-5923.9751 -6730.5054 16101.863 13553616
-5828.2451 -6730.5054 16101.863 13619410
-5707.0278 -6700.5815 16030.273 13685457
-5611.7236 -6700.5815 16030.273 13685201
-5516.7231 -6700.9507 16031.157 13750737
-5421.7979 -6701.4258 16032.293 13750737
-5326.8613 -6701.9043 16033.438 13750737
-5232.0913 -6702.6123 16035.133 13750737
-5136.7886 -6702.6519 16035.228 13750737
-5011.4478 -6662.7573 15939.785 13750737
-4917.23 -6663.502 15941.565 13750737
-4823.1675 -6664.4893 15943.927 13750737
-4729.0693 -6665.4653 15946.263 13750737
-4634.8462 -6666.3022 15948.266 13750737
-4540.7329 -6667.3354 15950.736 13750737
-4446.5117 -6668.251 15952.927 13750737
-4352.2773 -6669.186 15955.164 13750737
-4257.9937 -6670.0859 15957.316 13750737
-4163.7251 -6671.0503 15959.624 13750737
-4069.9321 -6672.8394 15963.904 13750737
-3970.0847 -6664.5508 15944.075 13750737
-3875.9136 -6665.6187 15946.629 13750737
-3781.7244 -6666.708 15949.235 13750737
-3687.4575 -6667.7129 15951.641 13750737
-3593.2122 -6668.811 15954.268 13684945
-3503.8071 -6679.1953 15979.11 13685457
-3409.3655 -6680.29 15981.729 13619663
-3344.7876 -6741.6396 16128.499 13224909
-3250.3677 -6744.687 16135.79 11583434
-3155.0359 -6745.9697 16138.859 8031389
-3059.2441 -6746.3184 16139.693 8558246
-2963.2104 -6746.1392 16139.266 8360350
-2867.1343 -6745.8481 16138.568 12501962
-2771.1855 -6745.8472 16138.565 13159629
-2675.157 -6745.6445 16138.081 13553872
-2559.863 -6695.041 16017.019 13619920
-2467.0461 -6701.584 16032.672 13750481
-2369.4119 -6695.041 16017.019 13750737
-2101.7017 -6187.2588 14802.216 13750737
-1911.3914 -5872.9121 14050.182 13750736
-1936.9287 -6223.3525 14888.565 13619149
-1854.4147 -6243.5625 14936.915 13488338
-1907.5035 -6745.3257 16137.317 9475753
-1811.733 -6745.96 16138.836 9477807
-1715.785 -6745.9668 16138.852 12304846
-1619.7452 -6745.5923 16137.956 13422548
-1523.689 -6745.0986 16136.775 10526385
-1427.7115 -6744.9106 16136.326 13684943
-1332.0334 -6746.2114 16139.437 13619150
-1230.0076 -6713.0703 16060.15 13684944
-1133.8394 -6709.0098 16050.437 13619151
-1044.0796 -6745.6069 16137.992 13684944
-948.13477 -6745.6069 16137.992 13750737
-847.79938 -6710.854 16054.85 13750737
-752.1507 -6709.0869 16050.621 13750737
-656.82849 -6710.1406 16053.144 13750737
-561.68762 -6713.7202 16061.707 13750737
-466.28275 -6714.9658 16064.687 13750737
-370.82651 -6715.9224 16066.975 13750737
-275.10995 -6711.1914 16055.656 13750737
-179.68944 -6712.4922 16058.769 13750737
-84.230064 -6713.647 16061.53 13750737
11.262091 -6714.7715 16064.221 13750737
106.78897 -6716.0679 16067.323 13750737
202.319 -6716.2451 16067.746 13750737
0 0 0 0
0 0 0 0
489.24359 -6720.9561 16079.017 13750737
585.15546 -6724.6064 16087.75 13750737
680.91943 -6725.77 16090.533 13750737
776.46204 -6724.7295 16088.045 13750737
709.57977 -5471.48 13089.808 13750737
968.65277 -6730.9482 16102.923 13750737
1064.4884 -6731.5762 16104.425 13750737
1160.2336 -6731.5762 16104.425 13750737
1264.6678 -6778.145 16215.834 13750737
1361.0754 -6778.145 16215.834 13750737
1448.7854 -6737.6953 16119.064 13750737
1544.5299 -6737.312 16118.147 13750737
1687.774 -6932.0659 16584.07 13750737
1798.8439 -6980.4678 16699.865 13750737
1908.0521 -7016.96 16787.168 13750737
2010.5183 -7026.2622 16809.422 13750737
2100.5808 -6993.3877 16730.775 13750737
2201.7732 -6998.8647 16743.879 13750737
2344.3794 -7129.8193 17057.17 13750737
2445.7893 -7129.8193 17057.17 13750737
2511.1182 -7028.8267 16815.559 13750737
2505.1416 -6743.6201 16133.237 13750737
2601.3967 -6744.4976 16135.337 13750737
2795.7571 -6990.6187 16724.15 13750737
2895.1868 -6990.6187 16724.15 13750737
2994.6167 -6990.6187 16724.15 13750737
3062.7739 -6919.9629 16555.115 13750737
3062.6228 -6704.1768 16038.875 13750737
3158.3345 -6704.9326 16040.684 13750737
3263.6943 -6725.5264 16089.951 13750737
3369.0276 -6744.8945 16136.286 13750737
3470.6028 -6755.874 16162.554 13750737
3791.2278 -7181.1768 17180.035 13750737
3894.0154 -7182.3711 17182.893 13750737
4002.4609 -7193.6729 17209.932 13750737
3960.2529 -6940.3901 16603.984 13750737
3991.3945 -6824.8467 16327.562 13750737
4012.1343 -6697.4258 16022.725 13750737
4107.394 -6697.4258 16022.725 13750737
4202.6533 -6697.4258 16022.725 13750737
4286.8325 -6680.1592 15981.416 13750737
4271.8926 -6512.5337 15580.395 13750737
4472.1562 -6673.1396 15964.622 13750737
4592.1777 -6709.8247 16052.388 13750737
4950.2935 -7085.8237 16951.916 13750737
5066.269 -7107.1353 17002.9 13750737
5157.4746 -7093.5439 16970.387 13750737
4927.5122 -6647.2188 15902.61 13750737
4993.5469 -6609.4819 15812.33 13750737
5063.4741 -6578.1963 15737.483 13750737
5186.3438 -6615.5786 15826.916 13750737
5280.4395 -6615.5786 15826.916 13750737
5395.2998 -6641.1392 15888.065 13750737
5786.3516 -6999.9375 16746.443 13750737
5598.7881 -6658.4663 15929.52 13750737
5483.8911 -6413.3398 15343.085 13750737
5536.5088 -6368.9346 15236.852 13750737
5582.7446 -6318.7363 15116.758 13750737
5593.5737 -6230.689 14906.116 13750737
5597.5645 -6137.8892 14684.105 13750737
5684.8657 -6137.8892 14684.105 13750737
5772.1665 -6137.8892 14684.105 13750737
5763.082 -6036.9233 14442.558 13750737
5782.8506 -5968.7026 14279.349 13750737
5852.6777 -5953.376 14242.682 13750737
5876.9424 -5892.8013 14097.764 13750737
5876.9736 -5809.9722 13899.606 13750737
5911.2163 -5762.7935 13786.736 13750737
5959.1538 -5730.0728 13708.457 13750737
5947.9316 -5642.1177 13498.035 13750737
5853.48 -5478.6045 13106.852 13750737
5922.0195 -5469.9365 13086.115 13750737
5815.3169 -5301.7275 12683.697 13750737
5748.7705 -5173.9673 12378.047 13750737
5817.4971 -5169.6445 12367.705 13750737
5852.7808 -5136.0825 12287.412 13750737
5510.771 -4776.3364 11426.767 13750737
4997.1104 -4278.3896 10235.494 13750737
5095.1338 -4309.8315 10310.714 13750737
5288.1265 -4419.9023 10574.044 13750737
5305.8457 -4382.6118 10484.831 13685457
5273.9409 -4305.6733 10300.767 13685457
5180.4614 -4180.8091 10002.044 13685457
5263.1304 -4199.3228 10046.336 13685457
5322.8584 -4199.3228 10046.336 13685457
5302.5601 -4136.8882 9896.9697 13685457
5224.7817 -4031.4729 9644.7764 13685457
4846.04 -3698.6416 8848.5215 13685457
5092.4355 -3844.9587 9198.5654 13685457
5504.8208 -4112.1621 9837.8154 13685457
5379.8394 -3976.5488 9513.3779 13685457
5301.9229 -3878.1838 9278.0527 13685457
5230.543 -3786.5767 9058.8945 13685457
4903.5703 -3513.6897 8406.0479 13685457
4573.4053 -3244.0452 7760.958 13685457
4351.812 -3056.0303 7311.1567 13685457
4395.2783 -3056.0303 7311.1567 13685457
4646.9106 -3199.3496 7654.0298 13685457
4356.3643 -2970.2253 7105.8799 13685457
4398.6108 -2970.2253 7105.8799 13685457
4399.3584 -2942.4692 7039.4771 13685457
4381.3677 -2902.8215 6944.6245 13685457
4531.0776 -2973.9849 7114.8735 13685457
4573.3774 -2973.9849 7114.8735 13685457
4615.6772 -2973.9849 7114.8735 13685457
4628.5576 -2955.2009 7069.9355 13685457
4568.1377 -2890.3767 6914.8521 13685457
0 0 0 0
0 0 0 0
0 0 0 0
4467.8921 -2728.7207 6528.1113 13685457
4506.7036 -2728.7207 6528.1113 13685457
0 0 0 0
0 0 0 0
0 0 0 0
0 0 0 0
0 0 0 0
0 0 0 0
0 0 0 0
0 0 0 0
0 0 0 0
0 0 0 0
2604.1394 -1440.3127 3445.7617 13684435
2691.9919 -1477.2815 3534.2046 13156296
2681.4949 -1460.1243 3493.1584 11378614
2658.2495 -1436.3424 3436.2634 7036535
2673.5925 -1433.6149 3429.738 13684436
2693.9832 -1433.6149 3429.738 13684949
2837.5713 -1498.6824 3585.4036 13815763
2823.1763 -1479.9619 3540.6174 13684435
2946.8535 -1533.3629 3668.3723 13750484
2873.2122 -1484.061 3550.4238 9141904
0 0 0 0
2874.8501 -1463.405 3501.0071 11905203
2994.469 -1513.3385 3620.4666 7436917
3009.6885 -1510.1748 3612.8977 7436661
3060.1055 -1524.5918 3647.3884 12700101
3474.8735 -1719.054 4112.6143 12700868
3253.0715 -1598.0817 3823.2036 9083022
0 0 0 0
0 0 0 0
0 0 0 0
3599.1018 -1719.9978 4114.8721 6913630
3612.4409 -1714.7173 4102.2393 4610366
3448.7141 -1626.0231 3890.0496 5070665
3730.3496 -1747.0944 4179.6973 6649696
3724.1138 -1732.632 4145.0977 6123606
3716.6487 -1717.7917 4109.5942 6123863
3806.2727 -1747.7255 4181.207 5992276
3677.7727 -1677.7648 4013.8352 5005637
4084.7183 -1851.3969 4429.2271 5794127
3898.3706 -1755.6167 4200.0859 6518103
3923.3413 -1755.6167 4200.0859 6650201
3682.4512 -1637.402 3917.272 5400137
0 0 0 0
0 0 0 0
0 0 0 0
0 0 0 0
5261.7715 -2267.9302 5425.7295 4017474
0 0 0 0
0 0 0 0
0 0 0 0
0 0 0 0
0 0 0 0
0 0 0 0
0 0 0 0
0 0 0 0
-2849.5786 -1335.4973 3241.1035 1792
-2854.0757 -1346.7115 3268.3193 660230
-2834.6445 -1346.7115 3268.3193 331010
-2815.2136 -1346.7115 3268.3193 1646866
-2807.3672 -1352.2919 3281.8621 923143
-2892.7998 -1403.1967 3405.4023 857605
-2891.1294 -1412.2705 3427.4236 1120776
-2875.9583 -1414.8317 3433.6392 1054729
-2855.5444 -1414.8317 3433.6392 857352
-2848.8843 -1421.6952 3450.2964 133632
-2920.6885 -1468.099 3562.9131 594180
-2933.7166 -1485.4207 3604.9509 396800
-2958.7832 -1509.1377 3662.5098 791811
-2943.1069 -1512.2712 3670.1143 1582351
-2920.0063 -1511.6083 3668.5054 1319174
-3001.5305 -1565.5042 3799.3049 1779724
-2981.928 -1567.073 3803.1123 1977105
-3039.8484 -1609.7174 3906.6055 2700832
-3124.575 -1667.3225 4046.4065 66816
-3338.9866 -1795.5604 4357.626 527877
-3348.3389 -1814.6697 4404.002 396037
-3377.3503 -1844.8187 4477.1704 856586
-3398.9324 -1871.3564 4541.5742 132609
-3371.9314 -1871.3564 4541.5742 527876
-3344.9307 -1871.3564 4541.5742 659717
-3362.1118 -1896.2759 4602.0508 1054728
-3410.9387 -1939.5994 4707.1919 989957
-3424.9187 -1963.6598 4765.5845 2108692
-3403.1936 -1967.4799 4774.855 2635292
-3529.3057 -2057.5518 4993.4497 1846035
-3869.7236 -2275.1501 5521.5366 1451787
-3882.2854 -2302.0642 5586.854 1649682
-3932.238 -2351.8054 5707.5708 925961
-3999.8027 -2413.0381 5856.1753 529669
-3920.1865 -2385.7737 5790.0078 1452559
-4067.3198 -2497.2454 6060.5371 1583884
-4031.2881 -2497.2454 6060.5371 399616
-3995.2563 -2497.2454 6060.5371 4875812
-4007.312 -2527.5757 6134.1455 4480542
-4047.4971 -2576.3689 6252.561 6256444
-4389.7202 -2820.106 6844.084 6979403
-4349.0303 -2820.106 6844.084 1846800
-4308.3403 -2820.106 6844.084 5004090
-4331.6646 -2862.4072 6946.7441 3753519
-4316.5703 -2879.8911 6989.1758 2371616
-4384.1572 -2953.4136 7167.6069 792335
-4364.6709 -2969.1467 7205.7891 988945
-4362.6606 -2997.197 7273.8643 856593
-4558.8604 -3163.3455 7677.0879 791056
-4543.2637 -3184.4048 7728.1963 1317399
-4874.1411 -3451.2214 8375.7314 1054486
-4962.6343 -3550.1501 8615.8203 660753
-4911.4106 -3550.1501 8615.8203 2437165
-4911.1411 -3587.3694 8706.1475 2306346
-4652.8877 -3434.9292 8336.1914 3227190
-4526.9976 -3377.9736 8197.9668 1845795
-4320.3931 -3258.895 7908.9761 2174503
-4273.3721 -3258.895 7908.9761 2832433
-4149.7847 -3199.8555 7765.6934 2964019
-4108.6587 -3203.7878 7775.2373 4280136
-4442.0059 -3503.1333 8501.7158 4543565
-4420.2188 -3526.0745 8557.3906 5596511
-4494.9253 -3627.4197 8803.3447 3491392
-4572.2329 -3733.2773 9060.249 4675666
-4696.8838 -3880.7759 9418.2119 3359807
-4650.752 -3889.0225 9438.2256 5005143
-4594.6392 -3889.0225 9438.2256 6649963
-4668.8149 -4000.6658 9709.1719 6716271
-4636.8521 -4023.0164 9763.4141 3294781
-4605.6929 -4046.6396 9820.7451 4807767
-4594.8286 -4088.9302 9923.3799 3491910
-4609.2524 -4155.1172 10084.008 3163459
-4609.2954 -4209.9141 10216.994 3952205
-4558.7002 -4219.3062 10239.787 4807002
-4551.6646 -4269.8149 10362.366 6253936
-4576.9966 -4352.4897 10563.009 5925483
-5133.7827 -4949.8813 12012.812 4938589
-5062.3633 -4949.8813 12012.812 4345943
-4973.3013 -4932.3838 11970.348 6779516
-4433.8657 -4461.2256 10826.899 8160401
-4199.4453 -4287.6045 10405.539 6844029
-4137.5815 -4287.6045 10405.539 6909312
-6320.3086 -6648.8862 16136.108 7305095
-6224.4595 -6648.9766 16136.326 11248308
-6128.8789 -6649.3604 16137.26 13488082
-6032.7573 -6649.1616 16136.775 13553617
-5931.9941 -6643.7563 16123.659 13684946
-5831.9541 -6638.9971 16112.109 13750737
-5707.0503 -6605.3022 16030.336 13750737
-5611.3765 -6604.8682 16029.281 13750481
-5480.5381 -6562.3135 15926.007 13750737
-5387.3496 -6564.1362 15930.43 13750737
-5292.666 -6564.1709 15930.513 13750737
-5199.4077 -6566.0054 15934.966 13750737
-5105.4839 -6567.0527 15937.507 13750737
-5011.3379 -6567.8477 15939.437 13750737
-4917.208 -6568.6948 15941.493 13750737
-4823.1372 -6569.6567 15943.826 13750737
-4729.041 -6570.6206 15946.167 13750737
-4634.8174 -6571.4448 15948.167 13750737
-4540.668 -6572.4102 15950.509 13750737
-4446.4219 -6573.2734 15952.604 13750737
-4352.1953 -6574.2041 15954.863 13750737
-4251.7612 -6565.5908 15933.96 13750737
-4157.0503 -6565.6245 15934.04 13750737
-4064.239 -6568.7285 15941.575 13750737
-3970.0127 -6569.6396 15943.786 13750737
-3875.2361 -6569.6636 15943.843 13750737
-3781.1074 -6570.814 15946.635 13750737
-3686.9016 -6571.8853 15949.235 13750737
-3556.8215 -6507.3799 15792.688 13684945
-3498.3596 -6573.959 15954.268 13619662
-3440.6755 -6645.751 16128.499 13423056
-3344.8367 -6645.8491 16128.737 12435908
-3250.8513 -6649.7446 16138.192 8557476
-3155.0359 -6650.0195 16138.859 9018542
-3059.0859 -6650.0195 16138.859 7242646
-2963.136 -6650.0195 16138.859 7242132
-2866.8013 -6649.1279 16136.694 8688289
-2771.1855 -6649.8984 16138.565 11447484
-2675.2373 -6649.8984 16138.565 13619408
-2562.6077 -6606.8911 16034.191 13619664
-2467.0461 -6606.2656 16032.672 13750481
-2369.4119 -6599.8154 16017.019 13750737
-2101.7017 -6099.2554 14802.216 13750737
-1959.1515 -5934.0391 14401.254 13750736
-1936.9287 -6134.8359 14888.565 13619662
-1971.0573 -6541.8921 15876.446 13158602
-1907.5035 -6649.3843 16137.317 8229025
-1811.5627 -6649.3843 16137.317 9477809
-1715.785 -6650.0166 16138.852 9015716
-1619.8511 -6650.083 16139.012 12173258
-1523.8004 -6649.6475 16137.956 12172486
-1427.1385 -6646.3071 16129.849 13619663
-1330.9977 -6645.0864 16126.888 13684943
-1235.9722 -6649.6777 16138.03 13619149
-1140.0272 -6649.6777 16138.03 12303036
-1044.0822 -6649.6777 16138.03 13684944
-948.13477 -6649.6621 16137.992 13684944
-847.30743 -6611.5649 16045.533 13750737
-752.03174 -6612.6152 16048.082 13750737
-656.72528 -6613.6616 16050.621 13750737
-561.38812 -6614.7002 16053.144 13750737
-470.16925 -6674.6304 16198.586 13750737
-373.86411 -6674.6304 16198.586 13750737
-275.05704 -6614.4634 16052.567 13750737
-179.6546 -6615.7354 16055.656 13750737
-84.215584 -6617.0181 16058.769 13750737
11.260204 -6618.1562 16061.53 13750737
106.76835 -6619.2646 16064.221 13750737
202.31369 -6620.543 16067.323 13750737
0 0 0 0
0 0 0 0
489.24359 -6625.3618 16079.017 13750737
585.17505 -6629.1816 16088.287 13750737
680.81415 -6629.082 16088.045 13750737
470.25186 -4014.7981 9743.4688 13750737
528.1795 -4014.7981 9743.4688 13750737
935.42535 -6407.6064 15550.549 13750737
1064.4829 -6635.7964 16104.341 13750737
1164.7089 -6661.4263 16166.542 13750737
1264.6678 -6681.7368 16215.834 13750737
1358.8931 -6671.0234 16189.833 13750737
1448.703 -6641.4854 16118.147 13750737
1544.3232 -6640.5972 16115.991 13750737
1670.3021 -6762.728 16412.391 13750737
1798.8439 -6881.1826 16699.865 13750737
1910.5817 -6926.3252 16809.422 13750737
2030.7253 -6995.939 16978.367 13750737
2131.8877 -6996.665 16980.129 13750737
2241.7959 -7024.7314 17048.242 13750737
2344.3794 -7028.4102 17057.17 13750737
2445.7893 -7028.4102 17057.17 13750737
2479.7495 -6842.2988 16605.5 13750737
2505.0103 -6647.354 16132.39 13750737
2675.3806 -6837.6543 16594.227 13750737
2795.7571 -6891.189 16724.15 13750737
2895.1868 -6891.189 16724.15 13750737
2939.0278 -6763.2686 16413.701 13750737
2987.8098 -6654.5747 16149.914 13750737
0 0 0 0
0 0 0 0
3272.7312 -6648.2251 16134.503 13750737
3369.0276 -6648.9595 16136.286 13750737
3470.6028 -6659.7832 16162.554 13750737
3791.2278 -7079.0361 17180.035 13750737
3894.0154 -7080.2144 17182.893 13750737
4002.4609 -7091.3555 17209.932 13750737
4081.9802 -7051.9688 17114.346 13750737
4179.2358 -7044.3945 17095.963 13750737
4246.1084 -6987.1826 16957.115 13750737
4342.2632 -6979.6919 16938.938 13750737
4357.0186 -6844.666 16611.244 13750737
4420.8706 -6791.0454 16481.113 13750737
4518.8555 -6791.0454 16481.113 13750737
4735.3496 -6965.3647 16904.166 13750737
4861.7642 -7002.6914 16994.754 13750737
4981.5522 -7029.147 17058.959 13750737
5221.1816 -7220.2739 17522.803 13750737
5333.4751 -7231.2769 17549.506 13750737
5224.1152 -6947.1011 16859.842 13750737
5022.0571 -6552.6733 15902.61 13750737
5116.6025 -6552.6733 15902.61 13750737
5398.2407 -6787.9292 16473.551 13750737
5496.1802 -6787.9292 16473.551 13750737
5933.168 -7199.3315 17471.979 13750737
6046.5918 -7210.7183 17499.611 13750737
5946.5044 -6971.4082 16918.834 13750737
5833.0054 -6724.5986 16319.854 13750737
5819.7559 -6599.5464 16016.366 13750737
5627.0962 -6278.3472 15236.852 13750737
5691.6675 -6249.7798 15167.522 13750737
5781.8428 -6249.7798 15167.522 13750737
6337.2593 -6744.9526 16369.25 13750737
6434.5791 -6744.9526 16369.25 13750737
5888.0273 -6080.0791 14755.677 13750737
5967.9839 -6072.1733 14736.49 13750737
6025.8779 -6042.373 14664.169 13750737
6112.3721 -6041.6929 14662.518 13750737
5960.7578 -5808.9858 14097.764 13750737
5911.2163 -5680.8271 13786.736 13750737
5959.1538 -5648.5723 13708.457 13750737
5951.7515 -5565.4399 13506.704 13750737
6028.1812 -5561.8677 13498.035 13750737
6084.5874 -5540.1577 13445.348 13750737
5925.7979 -5325.6108 12924.666 13750737
5908.5757 -5242.1572 12722.133 13750737
5984.2119 -5242.1572 12722.133 13750737
6059.8486 -5242.1572 12722.133 13750737
5964.5557 -5096.1147 12367.705 13750737
4689.7852 -3958.156 9606.0049 13750737
4894.9326 -4081.5957 9905.5791 13750737
5058.3887 -4167.749 10114.664 13750737
5140.4961 -4185.6406 10158.085 13685457
5117.5146 -4118.542 9995.2432 13685457
5204.8677 -4140.7607 10049.166 13685457
5315.0405 -4180.4233 10145.423 13685457
5375.2559 -4180.3442 10145.23 13685457
5386.3843 -4142.5151 10053.424 13685457
5446.1548 -4142.5151 10053.424 13685457
5218.9316 -3926.5889 9529.3945 13685457
5339.2886 -3974.0012 9644.46 13685457
5396.6274 -3974.0012 9644.46 13685457
5379.8394 -3919.9893 9513.3779 13685457
5418.9805 -3907.429 9482.8965 13685457
5476.1064 -3907.9626 9484.1914 13685457
5526.9165 -3904.0242 9474.6328 13685457
5098.9863 -3565.4109 8652.8564 13685457
4786.9487 -3313.7888 8042.1978 13685457
4761.4502 -3263.5408 7920.251 13685457
4817.1987 -3269.4182 7934.5151 13685457
4757.0767 -3197.3037 7759.5015 13685457
4676.3755 -3112.8757 7554.6035 13685457
4699.0781 -3098.2312 7519.063 13685457
4766.2036 -3112.8757 7554.6035 13685457
4545.2007 -2940.8228 7137.0498 13685457
4573.3774 -2931.6848 7114.8735 13685457
4603.2593 -2923.7974 7095.7314 13685457
4645.4453 -2923.7974 7095.7314 13685457
4687.6353 -2923.7998 7095.7373 13685457
4768.7495 -2947.8635 7154.1372 13685457
4811.2827 -2947.8635 7154.1372 13685457
4853.8159 -2947.8635 7154.1372 13685457
4993.3804 -3006.2812 7295.9106 13685457
4977.6182 -2970.9836 7210.2471 13685457
4586.856 -2714.374 6587.4844 13685457
0 0 0 0
0 0 0 0
0 0 0 0
0 0 0 0
0 0 0 0
0 0 0 0
0 0 0 0
0 0 0 0
0 0 0 0
0 0 0 0
0 0 0 0
0 0 0 0
2569.46 -1368.6193 3321.4868 12434115
2589.207 -1368.6193 3321.4868 13488081
2679.8706 -1405.8209 3411.7712 13619153
2837.5713 -1477.3662 3585.4036 13750481
2726.0916 -1408.7422 3418.8608 13684688
2946.8535 -1511.5535 3668.3723 13553870
2952.3787 -1503.2621 3648.25 13553872
2881.9102 -1456.6798 3535.2002 13619665
2972.9443 -1491.8138 3620.4666 13685457
3012.2261 -1500.6603 3641.936 11119792
3038.4204 -1502.907 3647.3884 11646391
3359.3796 -1649.8893 4004.0981 13029323
3230.3418 -1575.3518 3823.2036 9804696
0 0 0 0
0 0 0 0
0 0 0 0
3725.0752 -1766.8899 4288.0454 7637344
3734.0134 -1759.0906 4269.1177 7242080
3612.4409 -1690.3285 4102.2393 5465421
3636.8301 -1690.3285 4102.2393 6386776
3770.8018 -1740.9211 4225.022 5728846
3755.1995 -1722.245 4179.6973 6387544
3716.6487 -1693.3591 4109.5942 6321749
3766.6772 -1704.9447 4137.7114 6322009
3750.2571 -1686.4978 4092.9431 5071430
3937.2256 -1759.1637 4269.2949 7637613
3962.6079 -1759.1637 4269.2949 6848356
3923.3413 -1730.6462 4200.0859 5333838
0 0 0 0
0 0 0 0
0 0 0 0
0 0 0 0
0 0 0 0
5261.7715 -2235.6726 5425.7295 3952443
0 0 0 0
0 0 0 0
0 0 0 0
0 0 0 0
0 0 0 0
0 0 0 0
0 0 0 0
0 0 0 0
-2869.8491 -1325.5909 3264.1589 67840
-2866.4272 -1333.0245 3282.4634 396292
-2860.6189 -1339.4425 3298.2673 265473
-2827.3967 -1333.0245 3282.4634 1383696
-2827.9465 -1342.5502 3305.9197 528130
-2901.0022 -1386.8719 3415.0583 726020
-2891.1294 -1391.8936 3427.4236 1383949
-2871.0305 -1392.0283 3427.7556 1778451
-2855.5444 -1394.4176 3433.6392 791558
-2915.7754 -1434.0817 3531.3086 331008
-2916.6345 -1444.9081 3557.9675 396545
-2933.7166 -1463.9882 3604.9509 265216
-2958.7832 -1487.3632 3662.5098 1120778
-2937.0088 -1487.3632 3662.5098 529152
-2908.1277 -1483.7374 3653.5818 792578
-2994.3647 -1539.2328 3790.2346 1253383
-2971.8308 -1539.2328 3790.2346 2305560
-3039.8484 -1586.4916 3906.6055 397057
-3073.1729 -1616.2323 3979.8396 1317900
-3261.2446 -1728.4503 4256.167 256
-3378.7029 -1804.7054 4443.939 790794
-3398.0278 -1829.3326 4504.5815 264450
-3435.1458 -1864.006 4589.9619 330244
-3407.8574 -1864.006 4589.9619 264450
-3334.2002 -1838.4391 4527.0054 330241
-3331.7009 -1852.0106 4560.4243 396288
-3410.9387 -1911.6135 4707.1919 792067
-3330.6218 -1882.0425 4634.3755 1976852
-3332.6394 -1898.8915 4675.8643 2503449
-3335.8333 -1916.6992 4719.7148 2701597
-3692.4771 -2139.6172 5268.6318 1847316
-3882.2854 -2268.8489 5586.854 333826
-3935.5129 -2319.803 5712.3247 2833699
-4008.9243 -2383.645 5869.5308 1386512
-4032.6399 -2418.8005 5956.0981 1254929
-4089.7119 -2474.7637 6093.9028 662534
-4073.0139 -2486.6885 6123.2666 728578
-4036.6096 -2486.6885 6123.2666 4084522
-4066.4377 -2527.8616 6224.6519 5795641
-4047.4971 -2539.1956 6252.561 4941091
-4207.4009 -2663.978 6559.8271 5533740
-4179.2788 -2670.9299 6576.9458 6322487
-4183.7729 -2699.0544 6646.2007 3688739
-4227.1484 -2753.0383 6779.1309 3754538
-4316.5703 -2838.3384 6989.1758 4938813
-4384.1572 -2910.8003 7167.6069 2831910
-4364.6709 -2926.3062 7205.7891 726279
-4362.6606 -2953.9519 7273.8643 858127
-4558.8604 -3117.7029 7677.0879 1055252
-4543.2637 -3138.4583 7728.1963 1120534
-4779.3687 -3335.2886 8212.874 1251866
-4824.3457 -3401.4255 8375.7314 1252378
-4752.0098 -3385.3682 8336.1914 1647393
-5029.4712 -3620.7969 8915.915 1318683
-4875.9087 -3547.635 8735.7598 660755
-4530.1328 -3331.54 8203.6445 1055769
-4478.3149 -3329.2759 8198.0693 1450526
-4429.5752 -3329.2759 8198.0693 2108456
-4390.0156 -3336.2527 8215.249 2175275
-4444.5107 -3415.6689 8410.8047 3490620
-4471.0947 -3475.1985 8557.3906 4346956
-4420.2188 -3475.1985 8557.3906 4478286
-4494.9253 -3575.0813 8803.3447 1583138
-4572.2329 -3679.4116 9060.249 2767670
-4667.1353 -3800.5566 9358.5596 2636084
-4640.8901 -3824.7817 9418.2119 3360062
-4594.2002 -3832.543 9437.3232 4413516
-4538.0923 -3832.543 9437.3232 4808017
-4664.0801 -3988.2524 9820.7451 2307373
-4605.6929 -3988.2524 9820.7451 2768184
-4635.4365 -4065.5481 10011.079 5729128
-4670.0386 -4149.1714 10216.994 1978419
-4674.8784 -4208.2075 10362.366 2833216
-4613.272 -4208.2075 10362.366 3754063
-4551.6646 -4208.2075 10362.366 3161924
-4478.2368 -4197.1289 10335.086 4281427
-4416.792 -4197.1289 10335.086 6188401
-4376.2764 -4217.2979 10384.751 6056818
-4840.7437 -4731.647 11651.292 5135204
-4979.8467 -4938.2808 12160.111 5858161
-5095.0127 -5126.915 12624.608 6515579
-5177.5967 -5287.915 13021.057 5923185
-6026.6807 -6248.5166 15386.459 7435909
-6224.375 -6552.9526 16136.108 10000551
-6128.8789 -6553.4199 16137.26 11710655
-6033.2593 -6553.7686 16138.118 13684945
-5931.9941 -6547.897 16123.659 13684944
-5831.9561 -6543.209 16112.116 13750737
-5736.1626 -6543.2061 16112.109 13750737
-5574.5127 -6466.8057 15923.979 13750737
-5480.4551 -6467.5317 15925.766 13750737
-5386.521 -6468.4302 15927.979 13750737
-5292.666 -6469.4595 15930.513 13750737
-5199.4077 -6471.2676 15934.966 13750737
-5105.4263 -6472.2261 15937.327 13750737
-5011.3184 -6473.0576 15939.374 13750737
-4917.1938 -6473.8999 15941.447 13750737
-4823.1245 -6474.8496 15943.785 13750737
-4729.0225 -6475.791 15946.104 13750737
-4634.7764 -6476.5708 15948.024 13750737
-4541.1992 -6478.3374 15952.375 13750737
-4446.4219 -6478.4307 15952.604 13750737
-4345.8018 -6469.8301 15931.426 13750737
-4251.6533 -6470.6938 15933.554 13750737
-4157.0156 -6470.8374 15933.905 13750737
-4064.179 -6473.855 15941.338 13750737
-3969.9998 -6474.8281 15943.733 13750737
-3875.2224 -6474.8496 15943.786 13750737
-3781.0566 -6475.9189 15946.42 13750737
-3686.3003 -6476.0068 15946.635 13750737
-3442.6179 -6207.5615 15285.611 13685201
-3503.8071 -6489.1948 15979.11 13619665
-3442.563 -6553.4551 16137.346 13488596
-3346.2493 -6552.7251 16135.549 8816276
-3250.3677 -6552.8232 16135.79 9148583
-3154.5977 -6553.1592 16136.618 13290709
-3058.6611 -6553.1592 16136.618 6320266
-2962.7332 -6553.1792 16136.666 6912140
-2866.8013 -6553.1904 16136.694 9937330
-2771.186 -6553.9517 16138.568 13226451
-2675.3867 -6554.3169 16139.468 13488596
-2562.6077 -6511.564 16034.191 13553618
-2464.6375 -6504.5894 16017.019 13750481
-2363.4888 -6488.3296 15976.979 13619921
-2268.0166 -6486.9438 15973.567 13619921
-2026.1808 -6048.5142 14893.971 13619920
-1948.2729 -6081.731 14975.764 13619664
-1971.0573 -6447.5029 15876.446 13093578
-1907.3976 -6553.0796 16136.421 7506077
-1811.423 -6552.9385 16136.073 8953008
-1715.7278 -6553.8481 16138.314 10136509
-1619.8325 -6554.0562 16138.826 13160658
-1523.8004 -6553.7031 16137.956 13357010
-1426.7546 -6548.6489 16125.511 13619154
-1330.6205 -6547.3521 16122.317 13684943
-1235.1189 -6549.208 16126.888 13158347
-1140.0332 -6553.7681 16138.116 11381438
-1044.1455 -6554.1313 16139.011 13684942
-943.3974 -6520.9722 16057.359 13684942
-847.30743 -6516.1694 16045.533 13750737
-752.14581 -6518.1929 16050.516 13750737
-656.82416 -6519.2168 16053.037 13750737
-561.67963 -6522.645 16061.479 13750737
-471.91837 -6602.7979 16258.849 13750737
-374.9892 -6598.1211 16247.333 13750737
-275.05704 -6519.0259 16052.567 13750737
-179.6546 -6520.2803 16055.656 13750737
-84.215584 -6521.5444 16058.769 13750737
11.260204 -6522.666 16061.53 13750737
106.76835 -6523.7583 16064.221 13750737
202.31471 -6525.0513 16067.404 13750737
297.88919 -6526.1313 16070.063 13750737
393.43018 -6526.1313 16070.063 13750737
489.24359 -6529.7676 16079.017 13750737
585.39032 -6535.9355 16094.206 13750737
681.15601 -6536.7148 16096.124 13750737
776.85199 -6536.7148 16096.124 13750737
709.57977 -5315.835 13089.808 13750737
968.37378 -6537.5923 16098.284 13750737
1064.4829 -6540.0513 16104.341 13750737
1179.8971 -6650.9258 16377.359 13750737
1274.5144 -6636.6025 16342.09 13750737
1365.0194 -6604.4121 16262.823 13750737
1457.483 -6585.3291 16215.834 13750737
1544.5256 -6545.6406 16118.104 13750737
1670.3021 -6665.1519 16412.391 13750737
1794.3975 -6765.1323 16658.584 13750737
1908.0521 -6817.3511 16787.168 13750737
2023.9061 -6871.8447 16921.354 13750737
2139.0837 -6918.9893 17037.443 13750737
2238.5481 -6913.3442 17023.543 13750737
2339.7578 -6913.3442 17023.543 13750737
2441.0461 -6913.5674 17024.092 13750737
2537.6028 -6900.9043 16992.912 13750737
2578.4739 -6743.5747 16605.5 13750737
2675.3806 -6738.9966 16594.227 13750737
2702.4617 -6565.1152 16166.059 13750737
2798.5732 -6565.1152 16166.059 13750737
2887.6479 -6549.1553 16126.758 13750737
1922.7482 -4220.6357 10392.97 13750737
0 0 0 0
0 0 0 0
3273.0928 -6553.0249 16136.286 13750737
3369.1052 -6553.1758 16136.658 13750737
3475.2241 -6572.4321 16184.075 13750737
3791.2278 -6976.8965 17180.035 13750737
3901.5903 -6991.6309 17216.318 13750737
4005.5618 -6994.4526 17223.266 13750737
4113.2402 -7003.4448 17245.408 13750737
4223.7515 -7016.7061 17278.062 13750737
4280.876 -6942.7539 17095.963 13750737
4371.0498 -6924.5889 17051.232 13750737
4442.9702 -6878.9849 16938.938 13750737
4522.6626 -6847.1704 16860.596 13750737
4634.8496 -6864.8643 16904.166 13750737
4749.6162 -6885.5464 16955.094 13750737
4861.7642 -6901.6528 16994.754 13750737
5012.249 -6970.416 17164.078 13750737
5120.7568 -6979.2246 17185.768 13750737
5222.9312 -6979.2246 17185.768 13750737
5165.1514 -6769.5845 16669.547 13750737
5156.0703 -6630.4619 16326.969 13750737
5253.1382 -6630.4619 16326.969 13750737
5406.5493 -6700.2861 16498.906 13750737
5504.6401 -6700.2861 16498.906 13750737
5614.291 -6714.1113 16532.949 13750737
6037.0439 -7095.4565 17471.979 13750737
5910.3716 -6829.0713 16816.029 13750737
5941.019 -6750.2993 16622.059 13750737
5874.7319 -6565.7676 16167.665 13750737
6045.3154 -6647.6489 16369.291 13750737
6142.6357 -6647.6489 16369.291 13750737
6197.041 -6601.9307 16256.713 13750737
6337.2593 -6647.6328 16369.25 13750737
6434.5791 -6647.6328 16369.25 13750737
6408.229 -6521.771 16059.326 13750737
6247.207 -6264.5601 15425.965 13750737
6316.1714 -6242.0791 15370.608 13750737
6344.6494 -6180.7993 15219.712 13750737
6200.2427 -5955.1904 14664.169 13750737
5413.4956 -5127.4404 12625.901 13750737
5585.7456 -5218.2319 12849.468 13750737
6040.6543 -5567.0713 13708.457 13750737
6122.1548 -5567.0713 13708.457 13750737
6325.7769 -5676.6611 13978.313 13750737
6294.2944 -5575.166 13728.389 13750737
6326.2183 -5531.7114 13621.386 13750737
6343.2681 -5476.5142 13485.467 13750737
6370.085 -5431.022 13373.446 13750737
6171.334 -5196.707 12796.466 13750737
4576.6323 -3806.9233 9374.2363 13750737
4691.5752 -3855.5828 9494.0566 13750737
5037.0928 -4090.3218 10072.082 13750737
5096.9746 -4090.3218 10072.082 13685457
4819.3271 -3822.6003 9412.8398 13685457
5254.7231 -4120.106 10145.423 13685457
5479.5254 -4247.6113 10459.395 13685457
5852.2915 -4485.666 11045.585 13685457
5603.2842 -4247.1494 10458.257 13685457
5584.1055 -4186.1602 10308.076 13685457
5365.3535 -3978.5081 9796.75 13685457
5423.5981 -3978.5081 9796.75 13685457
5518.9829 -4005.4634 9863.125 13685457
5577.6221 -4005.4634 9863.125 13685457
5491.5449 -3902.6196 9609.8809 13685457
5494.5981 -3864.5825 9516.2178 13685457
5535.8745 -3853.9312 9489.9893 13685457
5192.9565 -3578.7268 8812.3213 13685457
5150.4302 -3513.967 8652.8564 13685457
4988.2871 -3369.6855 8297.5742 13685457
4957.0845 -3315.8154 8164.9238 13685457
4891.9238 -3240.4966 7979.457 13685457
4803.209 -3151.1714 7759.5015 13685457
4723.0474 -3069.1035 7557.416 13685457
4767.978 -3069.1035 7557.416 13685457
5150.6304 -3284.4624 8087.7192 13685457
4611.334 -2913.3652 7173.9229 13685457
4603.2632 -2881.6135 7095.7373 13685457
4645.563 -2881.6843 7095.9111 13685457
4860.2578 -2987.7292 7357.0381 13685457
4833.8403 -2944.9861 7251.7871 13685457
4974.7607 -3004.0476 7397.2207 13685457
5020.3442 -3005.0083 7399.5864 13685457
5064.3369 -3005.0083 7399.5864 13685457
5108.3291 -3005.0083 7399.5864 13685457
4997.6392 -2914.7922 7177.4365 13685457
4591.4463 -2655.2153 6538.25 13685457
0 0 0 0
0 0 0 0
0 0 0 0
0 0 0 0
0 0 0 0
0 0 0 0
0 0 0 0
0 0 0 0
0 0 0 0
0 0 0 0
0 0 0 0
0 0 0 0
0 0 0 0
0 0 0 0
2837.5713 -1456.0499 3585.4036 13684944
2858.8875 -1456.0499 3585.4036 13684944
2946.8535 -1489.744 3668.3723 13684944
2952.3787 -1481.5721 3648.25 13553871
2974.0686 -1481.5721 3648.25 13554128
3072.6238 -1519.5863 3741.8567 13553871
3016.7358 -1481.2223 3647.3884 13488845
3038.4204 -1481.2223 3647.3884 12632514
3060.1055 -1481.2223 3647.3884 7634051
0 0 0 0
0 0 0 0
0 0 0 0
0 0 0 0
3725.0752 -1741.3961 4288.0454 5399632
3734.0134 -1733.7095 4269.1177 4149566
3705.2461 -1708.738 4207.6274 4610370
3636.8301 -1665.9395 4102.2393 11914161
3771.8584 -1716.283 4226.2061 9742736
3724.1138 -1683.3445 4145.0977 5203534
3677.9089 -1651.5305 4066.7585 5203534
3713.2131 -1656.494 4078.9807 5795675
3750.2571 -1662.1642 4092.9431 4874577
3981.1814 -1753.1376 4316.9575 4281670
4006.8467 -1753.1376 4316.9575 4609864
0 0 0 0
0 0 0 0
0 0 0 0
0 0 0 0
0 0 0 0
0 0 0 0
4480.8726 -1876.4067 4620.4976 4609863
0 0 0 0
0 0 0 0
0 0 0 0
0 0 0 0
0 0 0 0
0 0 0 0
0 0 0 0
0 0 0 0
-2856.7095 -1300.2042 3249.2141 133120
-2850.4426 -1306.1846 3264.1589 856841
-2860.6189 -1319.8334 3298.2673 330497
-2815.2136 -1307.8494 3268.3193 659203
-2839.125 -1328.1248 3318.9875 199424
-2911.5063 -1371.5165 3427.4236 462336
-2891.1294 -1371.5165 3427.4236 1581328
-2875.9583 -1374.0037 3433.6392 1712914
-2855.5444 -1374.0037 3433.6392 1712914
-2915.7754 -1413.0872 3531.3086 199424
-2923.8438 -1427.274 3566.762 593667
-2982.4609 -1466.5242 3664.8481 396801
-2960.6724 -1466.5242 3664.8481 660482
-2977.3228 -1485.7056 3712.7822 726274
-2915.2341 -1465.5885 3662.5098 1319179
-2994.3647 -1516.6989 3790.2346 1121542
-2971.8308 -1516.6989 3790.2346 2108436
-3092.8677 -1590.5314 3974.7422 2107927
-3107.3198 -1610.2666 4024.0608 462594
-3312.0105 -1729.658 4322.4199 791815
-3393.5615 -1786.1055 4463.4824 264194
-3398.0278 -1802.5515 4504.5815 1185808
-3464.291 -1852.3007 4628.9048 527877
-3356.5881 -1809.0851 4520.9087 264704
-3334.2002 -1811.5247 4527.0054 527874
-3395.7144 -1859.9602 4648.0459 726276
-3372.9675 -1862.6591 4654.79 2173975
-3330.6218 -1854.4899 4634.3755 2173974
-3323.1799 -1865.7809 4662.5918 2240788
-3486.5081 -1973.9463 4932.8975 2175509
-3697.3452 -2111.073 5275.5776 2899745
-3882.2854 -2235.6333 5586.854 860164
-3932.238 -2283.9395 5707.5708 1057032
-4009.5374 -2349.1082 5870.4282 2044185
-4125.9419 -2438.5337 6093.9028 859912
-4097.7324 -2443.3162 6105.854 267777
-4126.3325 -2482.3599 6203.4243 793861
-4026.689 -2444.2622 6108.2183 1123333
-4066.4377 -2490.8542 6224.6519 1913351
-4060.3345 -2509.9583 6272.3926 4414244
-4137.4932 -2581.3628 6450.8325 4414751
-4095.8059 -2579.2625 6445.584 5204264
-4060.7891 -2581.3628 6450.8325 6454081
-4144.2598 -2659.541 6646.2007 5532731
-4316.5703 -2796.7859 6989.1758 1781522
-4384.1572 -2868.1868 7167.6069 5531464
-4364.6709 -2883.4658 7205.7891 2240541
-4362.6606 -2910.7065 7273.8643 989715
-4536.7998 -3057.1948 7639.9385 1120789
-4524.1025 -3079.4695 7695.603 923413
-4701.5068 -3232.9202 8079.0762 791315
-4814.9731 -3345.1182 8359.46 923414
-4752.0098 -3335.8071 8336.1914 725781
-5029.4712 -3567.7891 8915.915 594196
-4838.3208 -3468.7502 8668.417 725781
-4684.126 -3394.3582 8482.5107 726038
-4633.6948 -3394.3582 8482.5107 792087
-4544.52 -3365.6643 8410.8047 726292
-4494.5151 -3365.6643 8410.8047 1976871
-4444.5107 -3365.6643 8410.8047 2305578
-4507.5815 -3452.2664 8627.2236 1911845
-4276.6753 -3313.1201 8279.4961 4148807
-4361.5679 -3418.2292 8542.1641 3293500
-4509.2104 -3575.572 8935.3652 1517090
-4571.3906 -3668.0923 9166.5723 1977641
-4587.5 -3725.4312 9309.8623 1977897
-4532.8687 -3726.0215 9311.3379 4544079
-4477.5103 -3726.0215 9311.3379 3951943
-4640.4067 -3909.9189 9770.8984 1385764
-4600.9136 -3925.7874 9810.5537 1714220
-4715.5688 -4075.2812 10184.14 2108982
-4670.0386 -4088.4285 10216.994 2372154
-4674.8784 -4146.6006 10362.366 2437948
-4782.7085 -4298.8975 10742.957 2766657
-4718.8389 -4298.8975 10742.957 3030340
-4499.7568 -4155.5576 10384.751 3425098
-4438.0166 -4155.5576 10384.751 4214612
-4355.3467 -4135.6841 10335.086 5793903
-5052.1421 -4865.9854 12160.111 5398889
-4771.4736 -4662.3765 11651.292 4872289
-5255.0103 -5210.501 13021.057 5989745
-5726.2021 -5762.5938 14400.737 5660524
-5847.1035 -5973.5781 14927.988 7107713
-5935.2036 -6157.0396 15386.459 10133418
-6128.6938 -6457.2852 16136.773 10725041
-6033.2593 -6457.8232 16138.118 13619409
-5929.7456 -6449.5918 16117.548 13684944
-5831.9585 -6447.4204 16112.122 13750737
-5736.1655 -6447.418 16112.116 13750737
-5574.397 -6372.0005 15923.647 13750737
-5480.374 -6372.7534 15925.529 13750737
-5386.4409 -6373.6392 15927.743 13750737
-5293.3555 -6375.5776 15932.587 13750737
-5199.4077 -6376.5293 15934.966 13750737
-5105.333 -6377.3579 15937.035 13750737
-5011.2876 -6378.2544 15939.276 13750737
-4917.1646 -6379.0854 15941.352 13750737
-4823.103 -6380.0308 15943.714 13750737
-4729.0005 -6380.958 15946.031 13750737
-4634.7568 -6381.7285 15947.958 13750737
-4540.585 -6382.6333 15950.218 13750737
-4446.3408 -6383.4722 15952.314 13750737
-4345.7183 -6374.9902 15931.119 13750737
-4251.0688 -6375.0894 15931.365 13750737
-4156.9238 -6375.9648 15933.554 13750737
-4064.1555 -6379.043 15941.246 13750737
-3969.386 -6379.0527 15941.27 13750737
-3874.6211 -6379.0698 15941.312 13750737
-3780.4324 -6380.0596 15943.786 13684942
-3686.251 -6381.1133 15946.42 13619150
-3556.8215 -6319.5962 15792.688 12369341
-3538.3079 -6457.1558 16136.45 13422547
-3442.8494 -6458.0513 16138.688 12239049
-3346.4363 -6457.1558 16136.45 6385019
-3250.5359 -6457.2256 16136.625 8490398
-3154.5991 -6457.2256 16136.625 13028821
-3058.5002 -6456.8838 16135.77 6254981
-2962.5737 -6456.895 16135.798 7042954
-2866.8013 -6457.2539 16136.694 10858945
-2771.3403 -6458.3633 16139.468 10857404
-2675.3867 -6458.3633 16139.468 13554132
-2576.491 -6450.9966 16121.059 13619407
-2467.28 -6416.2358 16034.191 13750481
-2362.9841 -6391.9771 15973.567 13685457
-2261.1372 -6372.5879 15925.115 13685457
-2037.3079 -5992.6958 14975.764 13685457
-2099.2891 -6457.207 16136.579 13423054
-1859.2377 -5992.6958 14975.764 13357005
-1907.3976 -6457.1436 16136.421 6715529
-1811.462 -6457.1436 16136.421 7767703
-1715.7278 -6457.9019 16138.314 7767190
-1619.8325 -6458.106 16138.826 12831696
-1523.8276 -6457.8735 16138.243 13225680
-1427.9095 -6458.0015 16138.563 13553618
-1330.9977 -6453.3291 16126.888 13488592
-1235.1189 -6453.3291 16126.888 11975616
-1139.3368 -6453.8774 16128.258 12500424
-1043.4498 -6453.8774 16128.258 13685198
-943.3974 -6425.5068 16057.359 13750737
-847.9079 -6425.3247 16056.904 13750737
-752.4502 -6425.3677 16057.013 13750737
-657.078 -6426.2598 16059.241 13750737
-568.58173 -6506.1343 16258.849 13750737
-473.04523 -6521.6699 16297.672 13750737
-375.55667 -6511.3652 16271.921 13750737
-275.10889 -6424.8008 16055.595 13750737
-179.68875 -6426.0469 16058.709 13750737
-84.229752 -6427.1514 16061.47 13750737
11.262048 -6428.2275 16064.158 13750737
106.78857 -6429.4702 16067.263 13750737
202.35321 -6430.7505 16070.463 13750737
297.89661 -6430.7505 16070.463 13750737
393.8093 -6436.7866 16085.548 13750737
489.68948 -6440.0371 16093.67 13750737
585.79071 -6444.6558 16105.213 13750737
700.64001 -6625.2598 16556.543 13750737
799.0733 -6625.2598 16556.543 13750737
873.07776 -6444.9307 16105.899 13750737
968.7608 -6444.458 16104.718 13750737
1064.5859 -6444.9307 16105.899 13750737
1188.819 -6603.1128 16501.197 13750737
1286.9232 -6603.1128 16501.197 13750737
1389.543 -6624.6406 16554.996 13750737
1490.0968 -6634.123 16578.691 13750737
1588.6617 -6634.123 16578.691 13750737
1677.4821 -6595.8076 16482.941 13750737
1788.8173 -6645.3623 16606.779 13750737
1897.8198 -6681.5225 16697.143 13750737
2020.2775 -6759.1021 16891.016 13750737
2139.0837 -6817.6968 17037.443 13750737
2242.5515 -6824.3174 17053.988 13750737
2339.7578 -6812.1343 17023.543 13750737
2440.9675 -6812.1343 17023.543 13750737
2521.2893 -6756.1621 16883.668 13750737
2608.9915 -6723.4961 16802.035 13750737
2606.3499 -6469.0039 16166.059 13750737
2697.1941 -6456.3945 16134.548 13750737
2791.5107 -6452.6782 16125.261 13750737
1860.9591 -4158.8467 10392.97 13750737
0 0 0 0
0 0 0 0
3177.1582 -6457.0903 16136.286 13356235
3273.0928 -6457.0903 16136.286 13422285
3369.1052 -6457.2388 16136.658 13619151
3465.0654 -6457.2822 16136.766 13750481
3776.7898 -6848.5757 17114.609 13750481
3908.1826 -6900.9155 17245.408 13750737
4010.7114 -6900.9155 17245.408 13750737
4133.8599 -6935.5107 17331.859 13750737
4236.9028 -6935.5107 17331.859 13750737
4317.0254 -6898.8823 17240.326 13750737
4411.8154 -6886.8491 17210.256 13750737
4447.7378 -6785.5527 16957.115 13750737
4543.6768 -6778.2788 16938.938 13750737
4654.061 -6792.4033 16974.234 13750737
4880.9468 -6972.3477 17423.916 13750737
4984.5371 -6972.3477 17423.916 13750737
5117.5996 -7012.7344 17524.844 13750737
5221.7896 -7012.7344 17524.844 13750737
5333.02 -7022.0039 17548.008 13750737
5369.0649 -6933.8213 17327.639 13750737
5258.1909 -6662.7939 16650.34 13750737
5336.7324 -6637.3599 16586.781 13750737
5613.1553 -6854.4927 17129.396 13750737
5693.1147 -6828.2505 17063.816 13750737
5794.5635 -6828.2505 17063.816 13750737
5956.4004 -6898.186 17238.586 13750737
5948.4248 -6772.4204 16924.297 13750737
6040.811 -6763.2021 16901.262 13750737
6132.042 -6753.0142 16875.801 13750737
6270.0635 -6793.8525 16977.855 13750737
6478.998 -6909.0161 17265.65 13750737
6587.2412 -6914.8887 17280.326 13750737
6772.4038 -7000.0864 17493.236 13750737
6876.4062 -7000.0864 17493.236 13750737
6825.0977 -6844.3384 17104.02 13750737
6742.8213 -6662.563 16649.764 13750737
6599.1831 -6426.2939 16059.326 13750737
6416.8896 -6159.6582 15393.004 13750737
6440.0542 -6094.9692 15231.346 13750737
5457.5684 -5093.5093 12728.693 13750737
5585.7456 -5141.8384 12849.468 13750737
6290.6274 -5712.5737 14275.738 13750737
6367.4233 -5705.3364 14257.652 13750737
6381.3555 -5642.7021 14101.128 13750737
6465.1909 -5642.7021 14101.128 13750737
6388.6787 -5504.5449 13755.873 13750737
6513.7144 -5541.3418 13847.828 13750737
6524.2568 -5481.0337 13697.118 13750737
6605.6904 -5481.0337 13697.118 13750737
4602.23 -3772.1714 9426.667 13750737
4876.3232 -3948.7432 9867.9199 13750737
5037.0928 -4030.4404 10072.082 13684944
5096.9746 -4030.4404 10072.082 13685457
4819.3271 -3766.6384 9412.8398 13685457
5415.7925 -4184.2305 10456.403 13685457
6171.4243 -4713.9199 11780.1 13685457
6351.812 -4797.2646 11988.378 13685457
6224.3828 -4648.8569 11617.507 13685457
6044.7754 -4465.1641 11158.458 13685457
5916.4048 -4322.896 10802.93 13685457
5863.1294 -4237.9644 10590.685 13685457
5720.5923 -4091.0024 10223.427 13685457
5651.0293 -3998.769 9992.9346 13685457
5607.0742 -3926.386 9812.0498 13685457
5637.6084 -3907.1187 9763.9004 13685457
5695.6577 -3907.1187 9763.9004 13685457
5611.8232 -3810.771 9523.1279 13685457
5247.6016 -3527.8499 8816.1064 13685457
5201.874 -3462.5237 8652.8564 13685457
5037.6187 -3320.354 8297.5742 13685457
5026.248 -3280.7324 8198.5596 13685457
5080.1157 -3284.0459 8206.8398 13685457
5128.9082 -3284.0459 8206.8398 13685457
5207.5771 -3302.9961 8254.1963 13685457
5276.2603 -3315.3176 8284.9883 13685457
5312.2344 -3307.0488 8264.3242 13685457
4772.7783 -2943.9895 7357.0381 13685457
4913.9727 -3003.5564 7505.896 13685457
