# .PCD v0.7 - Point Cloud Data file format
VERSION 0.7
FIELDS x y z rgb
SIZE 4 4 4 4
TYPE F F F U
COUNT 1 1 1 1
WIDTH 1359
HEIGHT 1
VIEWPOINT 0 0 0 1 0 0 0
POINTS 1359
DATA ascii
13636.728 66.483482 16139.465 11188674
13732.682 66.483482 16139.465 7437704
13828.932 66.484909 16139.812 7635595
13926.135 66.490868 16141.258 9277597
14022.1 66.490868 16141.258 13224406
14116.392 66.482994 16139.347 13618394
14212.659 66.484459 16139.703 1380898
14308.8 66.485329 16139.913 6187897
14404.757 66.485329 16139.913 7175557
14499.946 66.481812 16139.061 9672861
14593.434 66.470589 16136.335 3620417
14689.536 66.471352 16136.52 1711903
14785.921 66.473366 16137.009 198409
14882.887 66.477951 16138.122 198408
14978.36 66.475861 16137.614 330251
15075.435 66.48085 16138.826 395787
15173.251 66.489029 16140.811 330506
15267.941 66.48349 16139.468 396297
15363.589 66.48217 16139.146 330505
0 0 0 0
0 0 0 0
0 0 0 0
0 0 0 0
0 0 0 0
0 0 0 0
0 0 0 0
0 0 0 0
-6398.77 71.793106 7133.2368 512
-6466.125 73.032852 7256.4165 132609
-6313.9517 71.793106 7133.2368 462085
-6251.2764 71.561104 7110.186 256
-6449.0591 74.327827 7385.0825 512
-6436.3174 74.689476 7421.0151 512
-6392.1978 74.689476 7421.0151 256
-6387.897 75.157982 7467.5649 512
-6594.7783 78.135124 7763.3691 512
-6413.7397 76.525757 7603.4653 512
-6242.2285 75.008034 7452.667 512
-6197.9204 75.008034 7452.667 512
-6029.3975 73.49395 7302.23 512
-5966.3271 73.252617 7278.2515 512
-5951.7056 73.606934 7313.4561 512
-5986.6816 74.584373 7410.5728 512
-5864.7446 73.606934 7313.4561 1024
-5714.3999 72.255692 7179.1987 1280
-5718.0332 72.845741 7237.8252 1910811
-5771.4048 74.083176 7360.7749 1582098
-5673.3794 73.381317 7291.0391 727047
-5670.4668 73.908348 7343.4033 990218
-5844.4897 76.767593 7627.4937 1385232
-6399.7354 84.718102 8417.4424 858631
-6349.6919 84.718102 8417.4424 528388
-6192.3369 83.274986 8274.0566 768
-6372.1709 86.379601 8582.5254 512
-6461.3291 88.295235 8772.8594 1024
-7692.2744 105.97174 10529.167 265220
-8026.4321 111.48247 11076.702 593672
-8612.3154 120.6096 11983.559 1712152
-8821.0205 124.56282 12376.344 1119760
-8738.9141 124.44142 12364.281 0
-8552.0762 122.81395 12202.578 256
-8519.5146 123.39308 12260.12 256
-8613.2334 125.82699 12501.949 256
-8970.584 132.18808 13133.977 256
-8936.8125 132.8468 13199.426 256
-8757.0684 131.32808 13048.528 256
-8651.8965 130.91055 13007.043 256
-8599.3223 131.28853 13044.598 256
-8782.9297 135.31203 13444.365 256
-8991.6523 139.79994 13890.277 256
-9947.9893 156.10251 15510.071 66049
-10116.856 160.23766 15920.933 461062
-10127.623 161.92316 16088.401 197888
-10061.915 162.40645 16136.42 395012
-9966.2061 162.41013 16136.786 1842713
-9830.8584 161.76166 16072.354 1579541
-9735.3037 161.76166 16072.354 1316369
-9636.0908 161.70026 16066.255 1053196
-9541.6709 161.71889 16068.104 328963
-9445.0537 161.70026 16066.255 658441
-9392.2783 162.43951 16139.705 1382164
-9235.7285 161.38069 16034.503 1513750
-8309.2471 146.7061 14576.46 1382164
-8216.3799 146.59535 14565.457 1447959
-8135.9253 146.7061 14576.46 1382166
-8068.1523 147.05034 14610.664 1250580
-7981.2881 147.05034 14610.664 1250580
-7911.5854 147.37001 14642.427 1053201
-7942.8125 149.59775 14863.771 987408
-7938.4307 151.1974 15022.709 790029
-8189.4595 157.75342 15674.104 395271
-8335.5752 162.41617 16137.386 328964
-8240.4795 162.43282 16139.04 262914
-8145.5195 162.45259 16141.005 2564125
-8049.5566 162.45259 16141.005 2168597
-7952.2788 162.42574 16138.336 2103058
-7855.8955 162.41672 16137.439 1775380
-7759.6611 162.41058 16136.831 789512
-7658.0625 162.29063 16124.912 65792
-7567.5112 162.40472 16136.248 0
-7456.7114 162.08159 16104.143 256
-7344.8223 161.72607 16068.819 256
-7181.293 160.20915 15918.1 0
-7086.6553 160.20915 15918.1 658441
-6833.3848 156.57436 15556.954 723720
-6828.5156 158.60959 15759.171 657927
-6895.6646 162.39752 16135.532 658184
-6789.3823 162.15027 16110.967 723722
-6704.1494 162.40588 16136.363 0
-6584.1768 161.81511 16077.666 256
-6071.4233 151.41164 15043.995 256
-6053.5439 153.22295 15223.963 256
-5964.0513 153.2491 15226.562 256
-5873.5249 153.2491 15226.562 256
-5741.9634 152.16167 15118.517 256
-5652.0796 152.16167 15118.517 256
-5523.707 151.10876 15013.901 256
-5400.4087 150.16234 14919.867 256
-5299.4077 149.81467 14885.323 256
-5218.5371 150.03394 14907.109 256
-5123.9224 149.85881 14889.709 256
-5059.5024 150.57616 14960.983 256
-4991.6157 151.21417 15024.375 256
-4903.1519 151.24069 15027.01 256
-4812.9678 151.21417 15024.375 256
-4762.502 152.45811 15147.971 256
-4672.4434 152.45811 15147.971 256
-4555.7217 151.57103 15059.832 256
-4463.6875 151.48622 15051.405 256
-4414.7461 152.8903 15190.913 256
-4391.3745 155.25706 15426.07 256
-4257.1621 153.72241 15273.589 256
-4184.7021 154.39929 15340.844 256
-4092.918 154.37747 15338.676 256
-4001.7253 154.37747 15338.676 256
-3913.1536 154.48096 15348.957 256
-3885.3918 157.0473 15603.944 256
-3878.9072 160.62025 15958.946 256
-3154.1211 133.88271 13302.35 256
-3075.0349 133.88271 13302.35 2
-3634.4661 162.4167 16137.438 2
-3538.5244 162.4167 16137.438 5
-3442.583 162.4167 16137.438 1
-3346.481 162.40891 16136.665 4
-3250.5464 162.40904 16136.678 4
-3154.801 162.41891 16137.658 5
-3058.8704 162.41956 16137.723 5
-2962.6172 162.40256 16136.033 1
-2866.6982 162.40337 16136.114 263431
-2770.7644 162.40337 16136.114 1118480
-2674.9346 162.40968 16136.74 789514
-2578.9036 162.40376 16136.153 131586
-2482.9597 162.40312 16136.09 3421743
-1678.9023 114.22539 11349.234 4869953
-1614.7744 114.4626 11372.803 4805429
-1450.632 107.32123 10663.249 4409106
-1360.3037 105.23766 10456.229 6378518
-1262.7542 102.36911 10171.216 7361560
-1180.0248 100.47389 9982.9092 2491392
-1112.5618 99.74662 9910.6494 2294272
-1023.1305 96.858307 9623.6719 6430208
-935.38135 93.796501 9319.4561 10309888
-679.17236 72.392998 7192.8408 11034880
-636.40894 72.392998 7192.8408 2820096
-594.52228 72.499908 7203.4644 1835776
-646.4234 84.948357 8440.3193 1573120
-605.14246 86.216225 8566.293 9656064
-535.86481 83.361824 8282.6846 10046720
-511.74109 87.664917 8710.2324 4919296
-507.1911 96.667572 9604.7207 1048576
-472.83322 101.5526 10090.088 655360
-413.45789 101.7034 10105.071 393216
-364.03976 104.77116 10409.879 327680
-298.151 103.38445 10272.099 393216
-235.93228 102.88375 10222.349 327680
-174.75569 102.64769 10198.895 327680
-114.4837 102.97444 10231.359 393216
-54.696358 104.97221 10429.854 458752
7.6812773 110.27325 10956.556 393216
74.833786 113.32114 11259.39 393216
141.07863 112.76533 11204.165 918786
190.09676 103.21282 10255.045 3616548
241.51962 99.288376 9865.1191 5524288
299.67783 99.12542 9848.9277 459522
339.61566 93.974022 9337.0938 1708045
337.76193 80.330688 7981.5166 393472
375.98563 78.406189 7790.3018 524288
432.6666 80.330688 7981.5166 590336
458.15775 76.656273 7616.4326 1445120
503.43958 76.656273 7616.4326 1510912
0 0 0 0
0 0 0 0
622.96539 74.699394 7422.001 131328
680.56158 76.207779 7571.8711 1053973
830.466 87.224152 8666.4385 1711902
989.07037 97.813789 9718.6064 395013
1085.6855 101.44243 10079.142 789255
1185.8605 105.00665 10433.277 920840
1270.2312 106.88667 10620.073 256
1354.1378 108.55145 10785.481 329217
1459.3413 111.69571 11097.89 132096
1736.6241 127.16892 12635.281 592646
1811.7444 127.16892 12635.281 461830
1752.2026 118.09311 11733.524 256
1744.8196 113.09303 11236.725 256
1793.6963 111.9738 11125.521 256
1881.7441 113.29253 11256.547 65792
1944.1799 113.03163 11230.625 196608
1931.8643 108.58643 10788.957 327936
1886.2949 102.61785 10195.93 1314569
2013.1162 106.10731 10542.637 854019
2124.6841 108.60634 10790.936 262656
2275.2749 112.89513 11217.062 394496
2359.8074 113.75531 11302.528 131328
2353.5361 110.31182 10960.389 65536
2309.6621 105.33888 10466.287 0
2210.1377 98.155357 9752.5449 65536
2171.8833 93.990639 9338.7451 65792
1804.1876 76.131996 7564.3413 525313
1678.1111 69.089729 6864.6343 722692
1674.0322 67.2854 6685.3589 1775123
1713.7787 67.2854 6685.3589 328963
2302.2603 88.341202 8777.4268 0
2644.239 99.214584 9857.7871 132097
2775.1448 101.86848 10121.474 256
3135.0571 112.63756 11191.471 256
3201.5938 112.63756 11191.471 66049
3322.6343 114.51608 11378.117 256
3490.2366 117.89237 11713.579 132097
3559.877 117.89237 11713.579 329476
3620.2432 117.59113 11683.648 256
3583.7405 114.21402 11348.104 0
3631.0383 113.58307 11285.415 263427
3718.676 114.21402 11348.104 512
3899.1943 117.62434 11686.949 1316114
4714.2915 139.72302 13882.634 592905
5208.2695 151.70757 15073.398 512
4941.9976 141.51656 14060.837 512
5426.9126 152.81738 15183.667 256
5748.353 159.22043 15819.862 256
4320.0044 117.73109 11697.555 768
4255.168 114.12688 11339.446 199171
4264.7349 112.59952 11187.69 1450516
4249.6885 110.47918 10977.018 1779733
4200.4023 107.54633 10685.615 2502686
4605.7085 116.16674 11542.124 3423019
4674.3296 116.16674 11542.124 263168
4619.9126 113.15324 11242.708 196608
4440.2373 107.20155 10651.357 196608
4574.2769 108.88481 10818.604 854791
4488.9863 105.3729 10469.667 1249547
4515.124 104.53693 10386.606 1447440
4414.1025 100.81917 10017.216 10066326
0 0 0 0
0 0 0 0
0 0 0 0
0 0 0 0
0 0 0 0
6552.4902 138.45244 13756.392 10267546
7044.9829 147.02361 14608.007 3620661
7879.1436 162.42952 16138.712 1317140
7975.1987 162.43167 16138.926 10134175
8071.1484 162.43167 16138.926 263428
8167.0986 162.43167 16138.926 256
8262.1309 162.41362 16137.132 0
8358.1406 162.41498 16137.267 256
8454.8193 162.42914 16138.675 1514009
8551.5498 162.444 16140.151 256
8647.5078 162.444 16140.151 922383
8743.4336 162.44342 16140.094 988433
8839.3525 162.4427 16140.021 988177
8935.1367 162.43956 16139.711 1251092
9031.1865 162.44125 16139.879 1382935
9127.1426 162.44125 16139.879 527882
9223.8125 162.45384 16141.129 725260
9321.1074 162.47707 16143.436 988432
9474.7764 163.47244 16242.335 658957
9716.4521 165.95084 16488.584 0
9814.4814 165.95084 16488.584 256
9761.2764 163.41895 16237.02 256
9800.1875 162.4637 16142.107 263941
9894.915 162.4433 16140.081 263684
9991.0146 162.44562 16140.312 2435109
10086.829 162.4433 16140.081 2961967
10182.451 162.43796 16139.551 512
10278.121 162.43346 16139.104 1713447
10374.881 162.44611 16140.36 12107975
10469.968 162.43257 16139.016 2565416
10569.44 162.48674 16144.396 856082
10665.561 162.48882 16144.604 725263
10758.417 162.44159 16139.911 856336
10854.286 162.44029 16139.782 658957
10950.242 162.44029 16139.782 790543
11046.596 162.44617 16140.365 790287
11142.556 162.44617 16140.365 198149
11239.454 162.45975 16141.716 256
11335.736 162.46425 16142.163 527114
11431.614 162.46297 16142.035 1250835
11527.153 162.45689 16141.432 987663
11622.908 162.45396 16141.141 1250580
11718.798 162.45293 16141.038 0
11814.761 162.45293 16141.038 855567
11910.724 162.45293 16141.038 460299
12010.337 162.50232 16145.945 2
12107.022 162.51164 16146.871 259
12203.274 162.51501 16147.207 131591
12300.129 162.52631 16148.329 3
12393.466 162.49132 16144.853 1
12486.079 162.44743 16140.491 66308
12581.792 162.44424 16140.175 329222
12676.542 162.42877 16138.639 198916
12772.491 162.42877 16138.639 463623
12868.905 162.43465 16139.223 3820603
12964.139 162.42564 16138.327 1848605
13057.887 162.39832 16135.611 10268840
13155.502 162.4191 16137.677 8030339
13252.913 162.43709 16139.465 7108734
13348.601 162.43385 16139.143 5989996
13445.597 162.44647 16140.396 5594729
13541.966 162.4514 16140.886 3554379
13636.728 162.43709 16139.465 1383209
13732.211 162.43153 16138.912 1382439
13827.411 162.42273 16138.037 460823
13923.357 162.42273 16138.037 658719
14020.05 162.43138 16138.897 855577
14116.392 162.43591 16139.347 1251109
14212.264 162.43498 16139.255 6121845
14308.8 162.4416 16139.913 1514267
14404.757 162.4416 16139.913 593684
14500.712 162.4416 16139.913 527634
14594.684 162.41951 16137.718 527633
14690.995 162.42357 16138.122 396046
14786.94 162.42357 16138.122 264203
14883.357 162.42873 16138.634 133128
14979.311 162.42877 16138.638 67336
15075.27 162.42888 16138.649 132357
15171.219 162.42888 16138.649 133126
15267.397 162.43134 16138.893 67076
15361.856 162.41556 16137.326 67076
0 0 0 0
0 0 0 0
0 0 0 0
0 0 0 0
0 0 0 0
0 0 0 0
0 0 0 0
0 0 0 0
-6475.9956 115.58046 7219.3262 132609
-6466.125 116.17427 7256.4165 132865
-6313.9517 114.20218 7133.2368 256
-6794.0879 123.71751 7727.5786 512
-6748.146 123.71751 7727.5786 512
-6545.0356 120.81632 7546.3662 256
-6500.1704 120.81632 7546.3662 256
-6654.5396 124.54517 7779.2749 512
-6686.564 126.02038 7871.4189 512
-6639.7656 126.02038 7871.4189 512
-6505.4775 124.34804 7766.9624 512
-6430.9473 123.80221 7732.8691 512
-6341.1118 122.95177 7679.749 512
-5998.8696 117.15941 7317.9497 512
-6031.7715 118.6626 7411.8413 512
-6006.3477 119.03202 7434.916 512
-5955.603 118.90142 7426.7583 256
-5816.771 116.9971 7307.8115 768
-5930.2329 120.17687 7506.4248 133377
-5885.605 120.17687 7506.4248 133633
-5727.6426 117.84503 7360.7749 265474
-5829.5557 120.86533 7549.4277 1536
-6444.3613 134.64893 8410.3711 67328
-6683.9658 140.7473 8791.2842 923911
-6889.4771 146.21823 9133.0068 792326
-6565.6431 140.45232 8772.8594 726533
-6780.8804 146.21823 9133.0068 2108441
-7436.3438 161.64659 10096.685 132608
-8092.2861 177.33653 11076.702 1280
-8827.623 195.0381 12182.368 132609
-8894.6006 198.14363 12376.344 512
-8983.5107 201.79359 12604.325 0
-8908.5742 201.79359 12604.325 256
-8552.0762 195.36166 12202.578 256
-8899.2266 205.03117 12806.55 256
-8823.0879 205.03117 12806.55 256
-9015.2861 211.32106 13199.426 256
-9372.2725 221.61803 13842.589 256
-9173.8623 218.84808 13669.575 256
-8718.7266 209.84958 13107.515 256
-8835.5156 214.57843 13402.886 256
-9025.6914 221.19188 13815.971 256
-9450.4922 233.72954 14599.092 66304
-9947.9893 248.31419 15510.071 461062
-10116.856 254.89203 15920.933 987404
-10157.454 258.33188 16135.789 2105885
-10062.145 258.34781 16136.786 2040605
-9966.2061 258.34781 16136.786 1974811
-9830.8779 257.3168 16072.387 2040347
-9753.4629 257.79626 16102.335 1250576
-9640.3213 257.33154 16073.309 1250576
-9544.7607 257.33154 16073.309 461062
-9446.7461 257.26471 16069.134 921613
-9392.2783 258.39453 16139.705 1513750
-8613.7051 239.42093 14954.585 1645336
-8303.1299 233.19537 14565.728 1645336
-8201.0518 232.75603 14538.284 1579546
-8129.9346 233.19537 14565.728 1579545
-8063.3931 233.77682 14602.046 1447959
-7972.0146 233.64304 14593.688 1382166
-7894.4229 233.91481 14610.664 1382166
-7820.1367 234.29164 14634.202 1184787
-7854.4434 237.96701 14863.771 1053200
-8216.3213 251.76343 15725.515 461064
-8336.4297 258.38391 16139.04 328450
-8241.3838 258.41229 16140.812 788229
-8145.7573 258.42291 16141.477 2761246
-8049.7915 258.42291 16141.477 2431508
-7952.3389 258.3746 16138.459 2760983
-7856.1138 258.36548 16137.889 2431507
-7759.7485 258.35144 16137.013 2169107
-7663.5127 258.34146 16136.389 1577743
-7567.5776 258.34146 16136.389 723205
-7471.3652 258.33188 16135.789 592133
-7375.4331 258.33188 16135.789 723719
-7279.4146 258.32877 16135.597 1052427
-7062.873 253.99144 15864.68 1710357
-6485.9707 236.40218 14766.028 1447185
-6645.5215 245.54089 15336.848 986634
-6895.6646 258.32776 16135.532 1052427
-6800.1118 258.3421 16136.429 592134
-6704.481 258.35382 16137.16 66048
-6608.2139 258.34103 16136.363 0
-6057.8022 240.31203 15010.244 256
-5968.5625 240.31203 15010.244 256
-5927.7905 242.29314 15133.987 256
-5787.8657 240.22003 15004.498 256
-5709.4434 240.67462 15032.892 256
-5620.0688 240.67462 15032.892 256
-5502.9434 239.46701 14957.463 256
-5389.499 238.38258 14889.728 256
-5300.9761 238.38258 14889.728 256
-5218.5371 238.66087 14907.109 256
-5108.7158 237.6748 14845.52 256
-5020.5474 237.6792 14845.793 256
-4981.0991 240.03146 14992.72 256
-4902.292 240.53827 15024.375 256
-4812.9678 240.53827 15024.375 256
-4762.502 242.51701 15147.971 256
-4640.3027 240.8488 15043.771 256
-4560.4688 241.35716 15075.525 256
-4463.6875 240.97102 15051.405 256
-4399.7178 242.37662 15139.201 256
-4347.9673 244.52814 15273.589 256
-4257.1621 244.52814 15273.589 256
-4200.1191 246.50975 15397.362 256
-4108.5776 246.50975 15397.362 256
-4002.5647 245.62169 15341.894 256
-3913.1536 245.73477 15348.957 256
-3870.6284 248.86786 15544.654 256
-3816.2053 251.3705 15700.973 256
-3722.8586 251.3705 15700.973 256
-3689.1462 255.50064 15958.946 1
-3634.2795 258.345 16136.61 1
-3538.5244 258.35828 16137.438 2
-3442.583 258.35828 16137.438 2
-3333.2485 257.32434 16072.859 2
-3241.5645 257.6322 16092.088 2
-3152.3479 258.16086 16125.108 2
-3058.4624 258.32837 16135.57 65794
-2962.5498 258.3299 16135.667 1
-2866.6187 258.3299 16135.667 526344
-2726.5891 254.21829 15878.85 1052944
-2674.8269 258.33667 16136.09 657926
-2081.5918 208.52028 13024.484 328448
-1652.7476 171.95821 10740.764 328192
-1579.109 170.8996 10674.641 2300934
-1525.0339 171.95821 10740.764 7363611
-1450.632 170.71721 10663.249 7361036
-1323.2249 162.83983 10171.216 3148800
-1235.4396 159.31743 9951.2021 2950144
-1149.5083 155.69183 9724.7422 5839872
-1091.692 155.69183 9724.7422 10637568
-1019.0894 153.46515 9585.6602 11821824
-735.76123 117.36173 7330.5869 11888384
-686.27618 116.36092 7268.0747 6893056
-637.34888 115.32651 7203.4644 2032128
-594.52228 115.32651 7203.4644 1638400
-659.00909 137.75932 8604.6504 5388546
-607.85211 137.75932 8604.6504 4663040
-556.69501 137.75932 8604.6504 917504
-588.37183 160.33157 10014.547 720896
-529.72284 160.60149 10031.406 458752
-505.93701 172.85071 10796.511 393216
-430.22775 168.34268 10514.933 393216
-364.03314 166.65778 10409.69 196608
-299.69806 165.30827 10325.399 196608
-238.42798 165.38963 10330.48 196608
-176.28906 164.71567 10288.384 262144
-114.49201 163.81461 10232.103 327680
-53.954464 164.71567 10288.384 393216
7.6812773 175.41301 10956.556 393216
75.461342 181.77299 11353.81 393216
144.89308 184.22716 11507.101 262144
209.70796 181.11964 11313 3025695
276.96689 181.11964 11313 4802105
331.15906 174.24435 10883.56 2170131
379.31595 166.96016 10428.578 1708039
382.8158 144.82793 9046.166 327680
351.5784 116.62536 7284.5918 458752
478.86972 141.42857 8833.8379 393216
488.42239 129.99298 8119.5532 787712
527.5368 127.77467 7980.9946 919040
0 0 0 0
0 0 0 0
0 0 0 0
680.56158 121.22466 7571.8711 1580057
782.13232 130.67328 8162.0464 768
961.98328 151.33246 9452.4492 2304034
1085.6855 161.36572 10079.142 592389
1204.3702 169.64261 10596.128 657670
1267.3672 169.64261 10596.128 0
1335.718 170.32532 10638.771 256
1459.3413 177.67575 11097.89 256
1736.6241 202.28918 12635.281 659464
1811.7444 202.28918 12635.281 856843
1733.8137 185.88072 11610.384 67072
1744.8196 179.89848 11236.725 512
1847.7308 183.48387 11460.674 256
1884.9016 180.51822 11275.435 0
1948.6674 180.21584 11256.547 131072
1956.4033 174.92381 10926 854532
1888.4978 163.42612 10207.837 1051653
2029.9312 170.19604 10630.696 985860
2304.249 187.36217 11702.918 197376
2373.8262 187.36217 11702.918 328960
2667.9114 204.57765 12778.222 263424
2408.6521 179.58369 11217.062 256
2319.2112 168.25665 10509.559 65792
2344.7617 165.64757 10346.592 197376
2361.9536 162.59648 10156.017 723462
1817.0867 121.96994 7618.4224 197376
1700.7407 111.38393 6957.2046 460290
1674.0322 107.03172 6685.3589 526083
1700.0425 106.17384 6631.7749 2960681
1781.4172 108.73421 6791.6987 256
2267.3296 135.32597 8452.6602 921356
2742.2312 160.1216 10001.432 1053196
3064.6433 175.14969 10940.108 921612
3201.5938 179.17397 11191.471 256
3340.5544 183.14462 11439.483 256
3437.2192 184.6842 11535.648 256
3702.4021 195.04102 12182.55 256
3626.2305 187.36302 11702.971 256
3869.8044 196.18396 12253.94 0
3760.2302 187.10651 11686.949 131841
4015.5105 196.18396 12253.94 256
4112.9727 197.36485 12327.7 197634
4646.27 219.0522 13682.324 460806
5246.3701 243.0885 15183.667 256
5278.1211 240.42285 15017.167 512
5436.4248 243.5146 15210.281 1024
5646.9487 248.806 15540.79 67331
4801.2212 208.13751 13000.576 132612
4304.375 183.64241 11470.576 133378
4318.9058 181.38855 11329.797 528904
4249.6885 175.7406 10977.018 463111
4313.7437 175.6915 10973.95 1844247
4605.7085 184.78787 11542.124 2566945
4452.8452 176.03206 10995.223 1447952
4619.9126 179.99428 11242.708 526080
4486.1519 172.29016 10761.498 526083
4574.2769 173.20442 10818.604 525569
4488.9863 167.61798 10469.667 1182986
4461.4771 164.31242 10263.196 1511951
4401.0581 159.90034 9987.6123 4143927
4225.7227 151.48618 9462.0498 6579039
0 0 0 0
0 0 0 0
0 0 0 0
0 0 0 0
6552.4902 220.23801 13756.392 3292444
7208.5669 239.30272 14947.202 5265467
7878.9243 258.37149 16138.264 2303771
7974.8706 258.37149 16138.264 1382160
8071.0415 258.37866 16138.712 329988
8167.1694 258.38431 16139.064 512
8263.1201 258.38431 16139.064 512
8358.8691 258.37805 16138.675 256
8455.5928 258.4017 16140.151 3883068
8552.0225 258.41595 16141.043 66818
8648.917 258.44382 16142.781 263940
8743.9482 258.41595 16141.043 513
8839.4248 258.40176 16140.155 592650
8935.3828 258.40176 16140.155 66050
9031.3428 258.40182 16140.159 0
9127.0557 258.39487 16139.726 329479
9223.334 258.40396 16140.292 329478
9321.1074 258.45428 16143.436 263686
9474.7764 260.03766 16242.335 395271
9716.4521 263.98007 16488.584 526600
9814.4814 263.98007 16488.584 66050
9788.4668 260.67664 16282.248 0
9799.5684 258.41669 16141.089 0
9894.915 258.40057 16140.081 0
9991.1455 258.40765 16140.522 1447959
10087.104 258.40765 16140.522 65793
10183.02 258.40649 16140.45 197637
10278.121 258.38492 16139.104 461065
10374.433 258.39389 16139.664 460807
10469.968 258.38351 16139.016 131587
10569.44 258.46967 16144.396 263432
10665.561 258.47296 16144.604 66307
10758.688 258.40436 16140.316 513
10854.646 258.40436 16140.316 198148
10950.604 258.40436 16140.316 2304292
11047.083 258.4165 16141.076 2106913
11142.529 258.40451 16140.327 2633257
11238.71 258.40961 16140.646 461832
11335.927 258.43826 16142.436 791053
11431.614 258.43185 16142.035 1251346
11527.266 258.42471 16141.589 1909531
11622.908 258.41754 16141.141 1843481
11718.798 258.41589 16141.038 2171677
11815.088 258.42303 16141.485 395269
11912.543 258.45538 16143.504 65793
12011.477 258.51898 16147.478 65795
12198.118 260.45435 16268.363 2
12309.37 260.76221 16287.592 2
12406.205 260.76221 16287.592 2
12408.162 258.78345 16163.997 2
12492.142 258.53262 16148.329 197892
12584.184 258.4512 16143.243 264199
12677.747 258.40204 16140.173 264198
12773.705 258.40204 16140.173 1281
12869.664 258.40204 16140.173 133123
12965.21 258.39386 16139.661 2898220
11763.37 232.7191 14535.979 4939614
13157.008 258.39163 16139.523 12175561
13253.209 258.39648 16139.825 12504271
13348.866 258.39072 16139.465 8556444
13445.021 258.39453 16139.705 10989504
13540.975 258.39453 16139.705 4475986
13636.728 258.39072 16139.465 2568760
13731.918 258.37637 16138.568 3752263
13827.029 258.36069 16137.59 8950166
13922.971 258.36069 16137.59 3751239
14020.05 258.38162 16138.897 1448482
14116.782 258.39597 16139.793 2106415
14212.662 258.39456 16139.706 3685960
14309.249 258.40601 16140.42 1448995
14403.996 258.38425 16139.061 1251617
14500.353 258.39148 16139.513 791576
14595.983 258.38574 16139.155 330255
14691.223 258.37323 16138.373 593426
14787.171 258.37323 16138.373 197894
14883.298 258.37637 16138.569 264203
14979.307 258.37741 16138.634 658957
15075.038 258.37366 16138.401 856593
15171.219 258.37762 16138.649 659471
15267.167 258.37762 16138.649 66050
15363.159 258.37839 16138.695 66307
15457.798 258.35645 16137.326 134154
0 0 0 0
0 0 0 0
0 0 0 0
0 0 0 0
0 0 0 0
0 0 0 0
0 0 0 0
-6866.9204 168.06935 7655.123 2700068
-6777.6089 166.99017 7605.9697 2107674
-6465.3281 160.366 7304.2554 512
-6964.9717 173.92738 7921.9414 768
-7027.8457 176.69228 8047.875 512
-6979.999 176.69228 8047.875 256
-6983.147 177.99207 8107.0771 256
-6898.3511 177.05278 8064.2949 256
-6850.5571 177.05666 8064.4717 256
-6677.064 173.78896 7915.6362 256
-6517.1396 170.83051 7780.8867 256
-6430.9473 169.77628 7732.8691 768
-6384.9731 169.77628 7732.8691 256
-6206.8291 166.2364 7571.6372 512
-6068.3477 163.71481 7456.7856 768
-5999.7573 163.05556 7426.7583 1024
-5911.3213 161.8432 7371.5381 66816
-5867.4956 161.8432 7371.5381 659466
-6002.5981 166.81573 7598.0239 593928
-5885.605 164.80466 7506.4248 67840
-5912.2534 166.81573 7598.0239 67584
-6494.3633 184.65092 8410.3711 462853
-6764.3838 193.82057 8828.0244 768
-6986.2759 201.74377 9188.9062 330755
-7065.7275 205.64622 9366.6523 528388
-7294.5562 213.9928 9746.8164 1054731
-7439.2656 219.98553 10019.771 1280
-7530.4971 224.48085 10224.521 768
-7844.6411 235.74835 10737.727 1024
-8827.623 267.46567 12182.368 199168
-9272.1689 283.25891 12901.709 2304794
-9696.1641 298.68253 13604.215 3950130
-9615.2832 298.68253 13604.215 725256
-9645.4668 302.16187 13762.688 0
-9206.5586 290.87979 13248.82 0
-9536.8682 303.91605 13842.589 256
-9564.6699 307.4552 14003.787 256
-9547.499 309.59818 14101.395 132354
-9408.6279 307.79773 14019.39 132097
-9214.2256 304.13223 13852.435 0
-9242.4639 307.81552 14020.199 256
-9573.3828 321.73825 14654.344 256
-9487.6924 321.78687 14656.558 512
-10147.423 347.35263 15821.012 256
-10116.856 349.54642 15920.933 395268
-10134.544 353.46457 16099.395 2303264
-10062.64 354.30298 16137.582 2369057
-9966.8799 354.30945 16137.877 2171678
-9859.9248 353.91422 16119.875 1842713
-9767.1982 354.02698 16125.011 1316369
-9671.3311 354.02698 16125.011 987406
-9562.6914 353.55478 16103.503 592391
-9450.6416 352.94565 16075.76 1184784
-9393.4453 354.39362 16141.71 1645336
-9296.2988 354.34863 16139.661 1842715
-8439.5928 325.04849 14805.116 1842715
-8216.5322 319.79269 14565.728 1842717
-8133.6021 319.93692 14572.298 1645338
-8068.1523 320.77927 14610.664 1645338
-7976.5801 320.59006 14602.046 1645338
-7894.4229 320.77927 14610.664 1447959
-7926.1338 325.651 14832.559 1316371
-8098.2671 336.46667 15325.185 1184272
-8432.1348 354.32465 16138.569 592392
-8337.0693 354.36218 16140.278 525313
-8241.3838 354.3739 16140.812 1380364
-8145.7573 354.38846 16141.477 2761243
-8049.7915 354.38846 16141.477 2497554
-7952.7222 354.33929 16139.236 2300430
-7856.3315 354.31952 16138.336 2563347
-7760.0952 354.30634 16137.734 1774604
-7663.5747 354.2796 16136.518 2169362
-7567.6387 354.2796 16136.518 2037777
-7471.5776 354.27368 16136.248 2234900
-7375.8408 354.2832 16136.682 1971986
-7279.7476 354.2756 16136.335 1775123
-7183.6138 354.26578 16135.888 1907221
-6736.7036 336.72272 15336.848 1644306
-6645.5215 336.72272 15336.848 1052427
-6895.7344 354.26157 16135.695 460291
-6800.1851 354.28143 16136.601 394754
-6704.853 354.31339 16138.057 197377
-6608.2139 354.27621 16136.363 0
-6070.7158 330.25464 15042.242 256
-5980.1445 330.19162 15039.372 256
-5890.731 330.19162 15039.372 256
-5787.8657 329.42593 15004.498 256
-5698.6597 329.42593 15004.498 256
-5601.5269 328.96042 14983.295 256
-5491.1499 327.68951 14925.408 256
-5401.2573 327.61935 14922.212 256
-5312.3965 327.61044 14921.807 256
-5222.0806 327.51001 14917.231 256
-5108.7158 325.93555 14845.52 256
-5025.8306 326.28458 14861.416 256
-4960.0679 327.77756 14929.417 256
-4882.8218 328.55228 14964.704 256
-4799.1016 328.91202 14981.089 256
-4729.7422 330.28821 15043.771 256
-4640.3027 330.28821 15043.771 256
-4582.3843 332.57593 15147.971 256
-4470.8408 330.98538 15075.525 256
-4399.7178 332.38336 15139.201 256
-4347.9673 335.33389 15273.589 256
-4275.9077 336.81046 15340.844 256
-4217.8042 339.47473 15462.194 512
-4112.3174 338.35904 15411.378 256
-4002.5647 336.83353 15341.894 256
-3956.9973 340.76428 15520.93 256
-3875.1128 341.68054 15562.663 256
-3810.7168 344.22137 15678.391 263685
-3761.5273 348.29767 15864.056 256
-3730.2163 354.28165 16136.61 921358
-3634.333 354.28683 16136.848 658186
-3520.7373 352.51889 16056.321 1
-3348.5198 344.61914 15696.508 2
-3297.3135 349.07761 15899.58 2
-3240.8042 353.22131 16088.315 2
-3151.2959 353.91098 16119.729 259
-3056.1533 353.99133 16123.388 66049
-2962.5498 354.26093 16135.667 256
-2866.7522 354.2774 16136.418 1250580
-2287.2239 292.4451 13320.116 1645336
-1963.0908 260.0036 11842.49 1118216
-1751.2427 240.57339 10957.494 1050624
-1659.9421 236.84157 10787.52 5915433
-1579.109 234.3633 10674.641 7163172
-1515.6454 234.3633 10674.641 3149824
-1450.632 234.11319 10663.249 2819328
-1365.475 230.44078 10495.979 4919808
-1235.4396 218.4801 9951.2021 10244096
-1149.5083 213.50813 9724.7422 11886848
-1091.0702 213.38654 9719.2031 12215040
-787.70905 162.67168 7409.2729 11755776
-732.19818 160.16472 7295.0874 10637824
-686.27618 159.57164 7268.0747 2032128
-636.40894 157.91988 7192.8408 1376768
-598.02502 159.0849 7245.9053 1115392
-762.83923 218.68106 9960.3555 1248002
-708.36377 220.15475 10027.478 393216
-680.41199 230.90015 10516.902 327680
-644.69598 240.91884 10973.229 327680
-570.70312 237.27922 10807.453 262144
-506.4498 237.27922 10807.453 262144
-443.67242 238.07121 10843.526 262144
-373.19894 234.30072 10671.79 196608
-302.67227 228.94537 10427.868 196608
-244.16457 232.26424 10579.033 525315
-177.01039 226.80721 10330.48 196608
-115.12177 225.88298 10288.384 458752
-54.054226 226.30063 10307.407 524288
7.7764053 243.53189 11092.246 524288
75.461342 249.27455 11353.81 458752
144.89308 252.64008 11507.101 393216
210.71599 249.57248 11367.379 788483
278.01257 249.3163 11355.711 2038550
343.78976 248.0639 11298.668 2629143
387.86295 234.12007 10663.562 1840137
308.26947 159.93428 7284.5918 3155741
0 0 0 0
495.23538 200.57651 9135.7393 327680
488.42239 178.26598 8119.5532 721920
527.5368 175.22391 7980.9946 393984
513.64905 156.5318 7129.6172 262656
0 0 0 0
627.32959 164.09268 7473.9961 131072
712.15491 173.95886 7923.3755 1382934
782.13232 179.19893 8162.0464 512
961.98328 207.52991 9452.4492 2765099
1109.5861 226.16052 10301.025 592389
1203.4906 232.46962 10588.389 460291
1267.3672 232.63953 10596.128 256
1339.9839 234.32175 10672.748 256
1477.0045 246.6049 11232.214 256
1827.5286 291.93057 13296.681 593414
1906.5811 291.93057 13296.681 725258
1733.8137 254.90768 11610.384 725514
1794.0983 253.67155 11554.082 768
1902.1774 259.03519 11798.382 512
1965.5543 258.14636 11757.897 65792
1949.9409 247.30066 11263.903 591875
1956.4033 239.88193 10926 591361
1888.4978 224.11456 10207.837 986117
1949.1863 224.11456 10207.837 65536
2313.2886 257.94724 11748.828 2105368
2507.6924 271.42874 12362.876 0
2667.9114 280.54773 12778.222 0
2570.0095 262.77023 11968.502 256
2373.2083 236.11107 10754.247 256
2314.9153 224.26941 10214.891 197377
2337.9661 220.71233 10052.874 592133
2326.1008 214.11855 9752.5449 0
1826.214 164.01541 7470.4771 65536
1718.9233 150.71405 6864.6343 656643
1700.0425 145.60158 6631.7749 394498
1766.572 147.87013 6735.1011 2631459
1821.7957 149.11273 6791.6987 256
2702.8462 216.42915 9857.7871 0
3064.6433 240.19168 10940.108 0
3163.3203 242.77306 11057.683 256
3340.5544 251.15555 11439.483 256
3437.2192 253.26686 11535.648 256
3702.4021 267.46967 12182.55 256
3770.7114 267.1778 12169.256 256
3869.8044 269.03705 12253.94 256
3760.2302 256.58868 11686.949 256
3829.7124 256.58868 11686.949 256
4112.9727 270.65646 12327.7 0
4531.8804 293.00174 13345.469 527368
5208.2695 330.93866 15073.398 1514264
5040.4854 314.85992 14341.053 256
5367.4023 329.7041 15017.167 512
5456.6836 329.7041 15017.167 1281
5836.1606 346.95605 15802.949 133122
4581.6548 268.06113 12209.489 133378
4318.9058 248.74736 11329.797 331270
4248.5005 240.93468 10973.95 791819
4408.1035 246.20494 11213.996 1910043
4605.7085 253.40901 11542.124 1448211
4465.5728 242.09174 11026.65 921098
4531.1294 242.09174 11026.65 328704
4557.8579 240.04681 10933.51 328448
4593.6738 238.53123 10864.479 393728
4641.1665 237.65562 10824.598 854021
4461.4771 225.32997 10263.196 1380622
4401.0581 219.2795 9987.6123 788486
4225.7227 207.74068 9462.0498 11316905
0 0 0 0
0 0 0 0
0 0 0 0
0 0 0 0
0 0 0 0
7783.7739 354.35416 16139.914 3752492
7878.9243 354.31793 16138.264 1120009
7974.8706 354.31793 16138.264 1646356
8071.3975 354.34341 16139.424 922380
8167.3506 354.34341 16139.424 791051
8263.1201 354.33551 16139.064 264453
8359.0693 354.33542 16139.061 67074
8456.9277 354.41534 16142.7 3356981
8552.9004 354.41534 16142.7 132867
8649.4922 354.4407 16143.855 256
8743.8135 354.37347 16140.793 257
8839.7744 354.37347 16140.793 856079
8936.6797 354.41089 16142.497 395015
9032.1602 354.3916 16141.619 66048
9128.0703 354.38943 16141.521 1842715
9223.5898 354.37231 16140.74 592392
9319.8643 354.38422 16141.282 132098
9415.8291 354.38425 16141.283 66305
9512.9561 354.42752 16143.255 197892
9609.9854 354.46637 16145.024 460807
9705.9717 354.46637 16145.024 0
9798.624 354.34583 16139.533 256
9894.5791 354.34583 16139.533 0
9990.9668 354.36121 16140.234 1184787
10087.06 354.36594 16140.45 1645338
10183.02 354.36594 16140.45 2303268
10278.479 354.34869 16139.664 329734
10374.719 354.35846 16140.109 1
10470.677 354.35846 16140.109 2
10570.049 354.47299 16145.325 1
10663.785 354.39813 16141.916 513
10758.688 354.36301 16140.316 513
10854.975 354.37375 16140.806 1025
10951.198 354.38226 16141.192 132867
11047.162 354.38226 16141.192 658954
11142.529 354.36325 16140.327 1053712
11238.675 354.36914 16140.596 264454
11334.635 354.36914 16140.596 198402
11431.299 354.39096 16141.589 527367
11526.383 354.3638 16140.353 2041374
11622.341 354.3638 16140.353 2370339
11717.654 354.3443 16139.464 2435876
11814.761 354.37885 16141.038 1712153
11912.543 354.43298 16143.504 987406
12058.238 355.90042 16210.341 131843
12210.483 357.53635 16284.854 256
12336.281 358.3782 16323.199 256
12431.841 358.33539 16321.248 256
12530.373 358.3782 16323.199 2
12590.739 357.33722 16275.784 131843
12606.704 355.06155 16172.134 67077
12678.55 354.38229 16141.194 256
12774.111 354.37115 16140.687 256
12869.674 354.3602 16140.188 512
12965.21 354.34863 16139.661 66819
0 0 0 0
13157.008 354.34561 16139.523 5463643
13253.209 354.35223 16139.825 11846849
13348.795 354.34241 16139.378 6055270
13444.82 354.34433 16139.465 2567990
13540.975 354.34961 16139.705 1382942
13638.067 354.37912 16141.05 922134
13733.495 354.36533 16140.422 527890
13827.029 354.30316 16137.59 132621
13922.971 354.30316 16137.59 197899
14019.705 354.32315 16138.501 856347
14117.311 354.36478 16140.396 4804184
14214.061 354.38449 16141.295 2633270
14310.024 354.38449 16141.295 2041386
14405.996 354.38467 16141.303 1054748
14501.961 354.38467 16141.303 2107437
14596.034 354.33875 16139.211 1450277
14691.223 354.32034 16138.373 4477011
14787.171 354.32034 16138.373 5332065
14883.117 354.32034 16138.373 4015949
14979.248 354.32465 16138.569 2437174
15075.27 354.32642 16138.649 2043189
15171.219 354.32642 16138.649 2438720
15267.212 354.32742 16138.695 4346460
15363.159 354.32742 16138.695 8095891
0 0 0 0
0 0 0 0
0 0 0 0
0 0 0 0
0 0 0 0
0 0 0 0
0 0 0 0
-7480.5425 231.13472 8284.2725 923400
-7431.29 231.13472 8284.2725 3226664
-6777.6089 212.20979 7605.9697 3292456
-6732.3892 212.20979 7605.9697 768
-7531.9941 239.01935 8566.8711 199424
-7347.5757 234.75447 8414.0107 256
-7293.4043 234.62105 8409.2285 256
-7243.4092 234.62105 8409.2285 256
-7061.2202 230.30942 8254.6924 256
-7022.7671 230.65831 8267.1973 512
-6973.6162 230.65831 8267.1973 264450
-6754.6655 225.0022 8064.4717 395779
-6459.3003 216.70154 7766.9624 857099
-6413.1235 216.70154 7766.9624 791307
-6441.4727 219.23807 7857.8755 264963
-6210.8501 212.93307 7631.8931 264451
-6139.332 212.03014 7599.5303 133121
-5800.4678 201.81216 7233.3013 264707
-5867.4956 205.66905 7371.5381 461829
-6149.2871 217.16859 7783.7017 1536
-5919.3228 210.63225 7549.4277 264963
-6178.0244 221.51752 7939.5747 1024
-6986.5278 252.43568 9047.7363 462340
-7008.0176 255.17685 9145.9844 67584
-7137.8022 261.93494 9388.2061 1186318
-7426.6909 274.6842 9845.1621 331009
-7368.1587 274.6842 9845.1621 133633
-7439.2656 279.55585 10019.771 857351
-7536.605 285.49985 10232.813 791305
-8122.3228 310.1918 11117.816 512
-9061.0898 348.88251 12504.559 265216
-10261.847 398.38431 14278.79 1779470
-10552.231 413.07474 14805.321 4413227
-9831.7588 388.10873 13910.496 2637075
-9749.0566 388.10873 13910.496 3295267
-9206.5586 369.64774 13248.82 768
-9040.3105 366.10504 13121.845 2765353
-8967.9756 366.33701 13130.158 131586
-9500.6006 391.50229 14032.126 197891
-9296.582 386.48883 13852.435 66048
-9214.2256 386.48883 13852.435 256
-9242.4639 391.16949 14020.199 256
-9573.3828 408.8624 14654.344 0
-9486.2588 408.8624 14654.344 132097
-9703.1211 422.08582 15128.294 66304
-10053.362 441.41296 15821.012 66304
-10157.454 450.19537 16135.789 2237470
-10062.64 450.24539 16137.582 592649
-9966.8799 450.25363 16137.877 1052943
-9869.7461 450.19937 16135.933 1184529
-9773.542 450.18683 16135.483 789516
-9671.5312 449.90402 16125.346 921356
-9575.6621 449.90402 16125.346 1118737
-9485.8936 450.19357 16135.725 1645080
-9392.2529 450.30341 16139.661 2040094
-9296.249 450.30099 16139.575 1974303
-9199.7578 450.27475 16138.634 1974301
-9103.2334 450.24625 16137.612 1974303
-9007.5742 450.26035 16138.119 1776924
-8899.8916 449.66742 16116.866 1776924
-8803.75 449.65091 16116.275 1776924
-8707.9336 449.65091 16116.275 1579545
-8615.1338 449.80838 16121.919 1447958
-8521.4219 449.9212 16125.963 1315858
-8433.0723 450.32297 16140.363 855306
-8337.1133 450.32297 16140.363 525313
-8241.3838 450.33551 16140.812 1841423
-8145.6489 450.34805 16141.262 2434064
-8049.6846 450.34805 16141.262 4540969
-7953.0034 450.30746 16139.807 3687193
-7856.6636 450.28543 16139.018 3095568
-7760.4438 450.26987 16138.459 3687449
-7664.4263 450.26575 16138.312 4279073
-7568.6899 450.27823 16138.76 2897422
-7472.314 450.25259 16137.84 4410407
-7376.0923 450.2356 16137.231 3159830
-7280.1523 450.2356 16137.231 1908752
-7183.8984 450.21594 16136.527 1842703
-7087.6816 450.19812 16135.888 1842193
-6645.5215 427.90457 15336.848 855303
-6895.7344 450.19272 16135.695 131328
-6800.373 450.2305 16137.048 0
-6704.9927 450.26804 16138.393 0
-6609.0439 450.26794 16138.39 0
-6131.123 423.86105 15191.921 256
-6007.8408 421.54825 15109.025 256
-5891.855 419.68497 15042.242 0
-5796.293 419.24142 15026.346 256
-5698.6597 418.63184 15004.498 256
-5590.0669 417.18506 14952.642 256
-5489.9741 416.33603 14922.212 256
-5402.4141 416.42523 14925.408 256
-5314.2969 416.47372 14927.146 256
-5241.3965 417.73654 14972.408 256
-5149.8086 417.52798 14964.933 256
-5048.8271 416.53708 14929.417 256
-4960.0679 416.53708 14929.417 256
-4873.0996 416.69031 14934.908 256
-4816.27 419.47409 15034.684 256
-4762.7163 422.65384 15148.652 256
-4694.4556 424.62589 15219.335 256
-4595.1074 423.80829 15190.029 256
-4497.1162 423.08551 15164.125 256
-4414.4897 423.80829 15190.029 256
-4401.6582 431.40179 15462.194 256
-4321.7476 432.60461 15505.306 0
-4246.2637 434.31265 15566.524 256
-4153.7163 434.31265 15566.524 256
-4020.6926 429.98398 15411.378 256
-3955.4375 432.86981 15514.812 256
-3870.6284 433.70248 15544.654 256
-3810.7168 437.43375 15678.391 256
-3820.5581 449.55994 16113.015 256
-3730.2471 450.22205 16136.745 329478
-3634.2795 450.21829 16136.61 2500647
-3324.5823 423.01941 15161.755 66049
-2868.6418 375.17798 13447.034 258
-3038.4692 408.78137 14651.438 258
-3202.7861 443.60504 15899.58 131843
-3150.0486 449.56927 16113.348 0
-3054.2502 449.56927 16113.348 0
-2958.0974 449.51538 16111.417 0
-2186.8633 343.43887 12309.449 1381131
-1939.929 315.20709 11297.573 1906186
-1780.35 299.65314 10740.093 7495712
-1694.0283 295.73071 10599.506 6441746
-1631.0114 295.73071 10599.506 2558976
-1567.9944 295.73071 10599.506 2754560
-1506.3977 296.00983 10609.51 4394240
-1396.8319 286.47534 10267.777 9717504
-1331.5385 285.56418 10235.119 11887104
-1270.6877 285.56418 10235.119 12412672
-1156.3213 272.93253 9782.3789 12148992
-1091.0702 271.16989 9719.2031 11557376
-772.69769 202.78236 7268.0747 10768128
-732.19818 203.53604 7295.0874 2884608
-688.82684 203.53604 7295.0874 1508096
-645.45557 203.53604 7295.0874 786944
-798.7226 270.0101 9677.6348 1248006
-805.46381 293.42606 10516.902 262144
-824.68292 325.71155 11674.071 262144
-755.27734 325.71155 11674.071 196608
-685.87177 325.71155 11674.071 196608
-582.43781 307.73257 11029.674 65536
-506.15894 301.35934 10801.246 65536
-443.67242 302.53897 10843.526 0
-377.72607 301.35934 10801.246 196608
-314.95401 302.74768 10851.007 262144
-244.34727 295.38037 10586.949 393473
-182.39388 296.99066 10644.665 787717
-116.75882 291.1322 10434.687 524288
-54.721706 291.1322 10434.687 524288
7.6734042 305.37924 10945.326 458752
78.536919 329.68698 11816.558 458752
144.10324 319.30289 11444.373 656643
207.14548 311.78064 11174.763 656641
265.927 303.05618 10862.063 918785
331.15906 303.65591 10883.56 1510406
390.04965 299.19528 10723.682 1707528
433.12787 285.56284 10235.071 1838856
472.59384 273.20078 9791.9932 1904392
530.80994 273.20078 9791.9932 2102543
549.54993 254.89101 9135.7393 1708297
555.73975 234.57762 8407.6719 1577227
605.72571 234.57762 8407.6719 985607
612.17883 219.00394 7849.4844 328707
658.84619 219.00394 7849.4844 0
712.15491 221.06554 7923.3755 256
782.13232 227.72455 8162.0464 256
986.69305 270.5015 9695.2471 3226421
1119.5592 289.98624 10393.613 789255
1203.4906 295.42053 10588.389 197120
1266.4415 295.42053 10588.389 256
1339.9839 297.7742 10672.748 256
1497.7675 317.78891 11390.11 526596
1827.5286 370.98303 13296.681 330501
1924.4933 374.46838 13421.602 132866
1899.052 354.80667 12716.892 198658
1831.7679 329.13229 11796.677 512
1906.472 329.92307 11825.02 512
1975.3507 329.68536 11816.499 66048
1951.937 314.58942 11275.435 262912
1959.4053 305.3078 10942.766 262656
1888.4978 284.80298 10207.837 1182981
1949.1863 284.80298 10207.837 262656
2455.3337 347.92535 12470.253 8092018
2677.7297 368.3179 13201.157 0
2707.6265 361.82501 12968.441 256
2777.2163 360.84909 12933.462 512
2271.0068 287.12662 10291.12 0
2301.573 283.35718 10156.017 2830376
2361.9536 283.35718 10156.017 1909274
2397.7332 280.47946 10052.874 2303518
1806.1791 206.14287 7388.5205 1513489
1700.797 189.50653 6792.2456 262913
1741.1788 189.50653 6792.2456 526082
1781.5607 189.50653 6792.2456 460547
1848.218 192.23955 6890.2017 2302493
2494.7976 253.86583 9098.9951 658181
3046.3611 303.41281 10874.845 987404
3163.3203 308.51404 11057.683 921610
3250.4807 310.56052 11131.032 263427
3351.6863 313.84045 11248.591 256
3615.6304 331.93228 11897.033 256
3846.3479 346.33795 12413.358 256
3869.8044 341.89014 12253.94 256
3942.6575 341.89014 12253.94 256
4015.5105 341.89014 12253.94 256
4152.6533 347.26639 12446.634 66048
4549.0347 373.75369 13395.985 66304
5222.4951 421.70291 15114.57 256
5278.1211 418.98532 15017.167 256
5402.2158 421.70291 15114.57 256
5646.9487 433.59464 15540.79 66561
5959.4585 450.22385 16136.811 198402
5930.1138 440.909 15802.949 528392
4372.5708 320.03394 11470.576 1384212
4248.5005 306.17786 10973.95 1581845
4694.7783 333.22266 11943.282 1317904
4811.2021 336.39825 12057.102 1514258
4452.8452 306.77139 10995.223 2237725
4518.2148 306.77139 10995.223 197376
4529.0815 303.1236 10864.479 328704
4593.6738 303.1236 10864.479 525569
4655.5039 302.94385 10858.037 1643795
4565.894 293.04929 10503.398 1051143
4557.8823 288.58817 10343.504 1577743
4476.521 279.66345 10023.627 4012598
0 0 0 0
0 0 0 0
0 0 0 0
6205.2744 368.06522 13192.101 5726266
7686.6064 450.2395 16137.371 3554338
7783.7739 450.31049 16139.914 1251591
7879.21 450.28076 16138.849 198400
7974.8472 450.26309 16138.216 724743
8071.3989 450.29688 16139.427 790281
8167.3516 450.29681 16139.425 527367
8263.1201 450.28674 16139.064 396039
8359.0693 450.28665 16139.061 1514520
8456.3613 450.358 16141.618 856334
8552.5156 450.36792 16141.974 67074
8649.4922 450.42041 16143.855 132097
8745.1973 450.40631 16143.35 197635
8840.708 450.38251 16142.497 256
8936.751 450.3862 16142.628 263685
9032.7246 450.3862 16142.628 66306
9128.0703 450.35529 16141.521 329475
9223.5898 450.33353 16140.74 658186
9319.2939 450.32108 16140.295 2040351
9415.6504 450.34012 16140.977 1514007
9512.3428 450.37466 16142.215 790283
9608.582 450.38727 16142.667 592648
9704.2832 450.37466 16142.215 329478
9798.3516 450.28729 16139.084 395270
9894.5791 450.29984 16139.533 197635
9990.8584 450.31448 16140.059 987407
10086.925 450.3194 16140.234 855821
10182.882 450.31934 16140.232 724236
10278.544 450.3064 16139.768 1250580
10374.433 450.30347 16139.664 1053201
10469.942 450.28436 16138.979 395273
10565.894 450.28436 16138.979 790029
10661.133 450.25433 16137.902 1645338
10758.663 450.32071 16140.281 1974302
10855.61 450.36176 16141.752 256
10952.272 450.39026 16142.774 256
11048.104 450.38455 16142.569 198147
11142.617 450.32556 16140.455 264452
11238.675 450.32947 16140.596 197891
11334.634 450.32944 16140.594 1777690
11430.595 450.32944 16140.594 1777690
11526.342 450.32111 16140.296 2106655
11623.312 450.36032 16141.7 2304034
11718.954 450.34781 16141.254 1316369
11814.919 450.34781 16141.254 1645336
11912.543 450.41061 16143.504 65793
12010.188 450.47318 16145.746 513
12235.331 455.27896 16317.993 256
12336.281 455.42419 16323.199 256
12432.068 455.37808 16321.547 0
12536.257 455.63809 16330.865 395015
12640.736 455.90448 16340.414 264453
12712.954 455.01221 16308.433 330504
12684.328 450.55145 16148.551 264965
12774.921 450.36053 16141.71 1252629
12869.674 450.31808 16140.188 2372138
12965.617 450.3176 16140.169 199430
13061.372 450.31052 16139.917 8885387
13158.056 450.33548 16140.811 5858396
13253.43 450.31549 16140.094 4607308
13349.165 450.30795 16139.825 197636
13445.121 450.30795 16139.825 1383451
13541.302 450.31549 16140.094 10398392
13637.536 450.32465 16140.422 10924223
13733.108 450.31195 16139.968 10465734
13827.867 450.27289 16138.568 6712439
13923.815 450.27289 16138.568 9871536
14020.543 450.29794 16139.466 10594487
14118.097 450.34897 16141.295 6317428
14214.063 450.34906 16141.299 2632749
14309.99 450.3479 16141.256 198668
14403.959 450.28549 16139.019 725011
14499.908 450.28543 16139.018 461840
14595.88 450.2861 16139.04 988439
14691.223 450.26746 16138.373 1252125
14787.171 450.26746 16138.373 3029306
14883.117 450.26746 16138.373 9673637
14979.064 450.26746 16138.373 9476519
15075.876 450.29324 16139.298 4147288
15171.685 450.28897 16139.145 4146261
15267.636 450.28897 16139.145 5134445
15363.588 450.28897 16139.145 7174540
15458.623 450.2623 16138.188 8094619
0 0 0 0
0 0 0 0
0 0 0 0
0 0 0 0
0 0 0 0
0 0 0 0
-7587.8228 284.40811 8403.0791 1514004
-7537.8638 284.40811 8403.0791 6054218
-6777.6089 257.42938 7605.9697 1845524
-6732.3892 257.42938 7605.9697 923140
-7678.5479 295.59351 8733.5605 923402
-7947.584 308.03333 9101.1055 66048
-7574.7007 295.59351 8733.5605 256
-7600.6416 298.65302 8823.957 256
-7329.5107 290.0011 8568.3281 256
-7371.4282 293.70087 8677.6406 256
-7376.4443 295.9722 8744.749 132096
-7420.8721 299.86829 8859.8623 256
-7401.9883 301.2435 8900.4941 512
-7349.0723 301.2435 8900.4941 1024
-6680.5024 275.82437 8149.4653 725257
-6632.0518 275.82437 8149.4653 528391
-6515.6899 272.97922 8065.4023 199425
-5911.3213 249.49489 7371.5381 330756
-6242.8687 265.45633 7843.1323 396293
-6196.2388 265.45633 7843.1323 133377
-6108.0898 263.66409 7790.1787 462342
-6524.4971 283.79074 8384.8379 1280
-7062.3931 309.55228 9145.9844 67072
-7008.0176 309.55228 9145.9844 528387
-7137.8022 317.75043 9388.2061 594182
-7426.6909 333.21643 9845.1621 1516050
-7368.1587 333.21643 9845.1621 1647636
-7535.9077 343.53168 10149.935 2042392
-7536.605 346.33679 10232.813 1384720
-7844.6411 363.4259 10737.727 1121033
-9238.209 431.49844 12748.988 267008
-11323.498 533.27356 15756.02 1320455
-11229.824 533.27356 15756.02 4086819
-10667.77 510.84433 15093.329 3954978
-9972.0654 481.58032 14228.698 3295521
-9887.4727 481.58032 14228.698 1536
-9802.8789 481.58032 14228.698 1714200
-8967.9756 444.39944 13130.158 1777946
-8889.9141 444.39944 13130.158 1280
-8091.6812 408.0798 12057.064 256
-7747.7119 394.2251 11647.715 131840
-7285.3345 374.04123 11051.365 256
-8318.6426 430.97983 12733.664 65792
-9082.5723 474.87988 14030.729 256
-9646.7168 509.05136 15040.354 66048
-9817.1133 522.88995 15449.226 329475
-10134.544 544.89532 16099.395 1842713
-10062.59 546.18506 16137.5 9737873
-9967.0566 546.20752 16138.164 10330523
-9870.5635 546.17719 16137.269 10067607
-9773.8135 546.13196 16135.933 9804180
-9677.6123 546.11676 16135.483 10198426
-9581.8252 546.12494 16135.725 9803670
