# .PCD v0.7 - Point Cloud Data file format
VERSION 0.7
FIELDS x y z rgb
SIZE 4 4 4 4
TYPE F F F U
COUNT 1 1 1 1
WIDTH 1398
HEIGHT 1
VIEWPOINT 0 0 0 1 0 0 0
POINTS 1398
DATA ascii
1353.0455 340.01431 1804.5271 1389824
1376.0197 343.06741 1820.7306 1323776
1391.7117 344.27142 1827.1205 929280
1402.5743 344.27142 1827.1205 797696
0 0 0 0
0 0 0 0
0 0 0 0
0 0 0 0
0 0 0 0
0 0 0 0
0 0 0 0
0 0 0 0
0 0 0 0
0 0 0 0
0 0 0 0
0 0 0 0
0 0 0 0
0 0 0 0
0 0 0 0
0 0 0 0
0 0 0 0
0 0 0 0
0 0 0 0
0 0 0 0
0 0 0 0
1630.0632 341.86139 1814.33 730624
1657.6561 345.36288 1832.9132 1059840
0 0 0 0
0 0 0 0
0 0 0 0
0 0 0 0
0 0 0 0
0 0 0 0
0 0 0 0
0 0 0 0
0 0 0 0
0 0 0 0
0 0 0 0
0 0 0 0
0 0 0 0
0 0 0 0
0 0 0 0
0 0 0 0
0 0 0 0
0 0 0 0
0 0 0 0
0 0 0 0
0 0 0 0
0 0 0 0
-1945.1294 438.92154 2258.196 1062912
-1955.542 444.33801 2286.0632 1260288
-1907.6681 436.49384 2245.7058 1721094
-1950.5975 449.46222 2312.4265 1589250
-1937.6398 449.64557 2313.3699 1260288
-1923.1016 449.46222 2312.4265 1589250
-1882.9694 443.25137 2280.4727 1524226
-1860.1545 441.05655 2269.1804 1852933
-1854.1724 442.84988 2278.407 1787141
-1840.6266 442.84988 2278.407 1853190
-1827.0808 442.84988 2278.407 1063424
-1819.6628 444.34625 2286.1055 1129216
-1806.0712 444.34625 2286.1055 1590017
-1873.2585 464.37091 2389.1299 1853188
-1829.9684 457.1055 2351.7502 3103254
-1815.9866 457.1055 2351.7502 1590016
-1779.9905 451.52127 2323.02 1458432
-1732.9427 443.02435 2279.3044 1918979
-1719.3916 443.02435 2279.3044 1655808
-1630.8851 423.55765 2179.1509 1853440
-1577.9155 413.0824 2125.2568 1721856
-1563.3574 412.57492 2122.646 1787392
-1621.0541 431.28265 2218.895 1721856
-1593.6655 427.47467 2199.3032 866304
-1580.59 427.47467 2199.3032 997888
-1614.2509 440.22003 2264.8767 1129472
-1600.7855 440.22003 2264.8767 1260800
-1535.6659 425.89447 2191.1733 1524480
-1511.1478 422.68036 2174.6372 2116355
-1498.219 422.68036 2174.6372 1853184
-1617.9161 460.42273 2368.8171 1590272
-1610.6385 462.37653 2378.8689 1261056
-1550.8905 449.16837 2310.9148 1590016
-1537.1515 449.16837 2310.9148 1721856
-1528.446 450.65253 2318.5505 1721856
-1531.2172 455.57828 2343.8928 1853185
-1517.2821 455.57828 2343.8928 2248199
-1508.2427 457.06186 2351.5256 2445320
-1486.7191 454.75458 2339.655 2050562
-1460.422 450.92984 2319.9773 2774540
-1443.3905 449.92032 2314.7834 2116610
-1402.3528 441.33636 2270.6199 1985024
-1387.2322 440.82126 2267.9697 2642952
-1440.5436 462.25507 2378.2439 2577160
-1387.9222 449.78418 2314.083 1853696
-1371.7577 448.99643 2310.03 1393664
-1339.7458 442.95325 2278.9387 1459200
-1332.9701 445.21552 2290.5776 1459456
-1339.0248 451.85413 2324.7324 1524992
-1327.4233 452.61093 2328.6262 1722368
-1313.579 452.61093 2328.6262 1853952
-1280.8782 446.04449 2294.8428 1525249
-1283.1323 451.64017 2323.6318 2117125
-1291.9641 459.69806 2365.0886 1985282
-1254.3518 451.22604 2321.5012 1458432
-1228.8724 446.97861 2299.6487 1524224
-1205.5518 443.42966 2281.3896 1327104
-1195.2645 444.64844 2287.6602 1590016
-1213.7405 456.71857 2349.7595 1524480
-1181.9114 449.92014 2314.7825 1984770
-1162.684 447.81512 2303.9524 1984771
-1143.2711 445.58755 2292.4919 1655808
-1123.8586 443.30652 2280.7561 1590272
-1110.2988 443.30652 2280.7561 1458688
-1090.8146 440.91177 2268.4355 1590016
-1062.5049 434.84518 2237.2236 1326848
-1047.8596 434.28806 2234.3572 1129728
-1034.5759 434.28806 2234.3572 1327104
-1018.9466 433.29068 2229.2261 1326848
-1005.6932 433.29068 2229.2261 1129472
-996.71948 435.15918 2238.8391 1129472
-983.40906 435.15918 2238.8391 1129728
-954.02161 427.94751 2201.7361 1195264
-949.33899 431.77124 2221.4087 1195264
-936.13202 431.77124 2221.4087 1853187
-935.73932 437.76611 2252.2515 537344
-919.20172 436.27228 2244.5659 1194752
-857.90479 413.1778 2125.7478 1721349
-887.42511 433.78549 2231.7717 2379527
-837.2262 415.45935 2137.4861 1918979
-824.51825 415.45935 2137.4861 2313731
-808.71002 413.87274 2129.3232 1326848
-802.40729 417.17761 2146.3264 1787392
-789.64673 417.17761 2146.3264 1392896
-776.88629 417.17761 2146.3264 1787648
0 0 0 0
-731.32025 406.04813 2089.0664 1656832
-743.03687 419.681 2159.2058 1657088
-698.86237 401.66983 2066.5408 1722624
-710.47028 415.64871 2138.4602 2248961
-684.93298 408.00977 2099.1589 1788160
-653.66351 396.60938 2040.5052 1524736
-663.62653 410.26862 2110.7803 1853440
-669.39465 421.811 2170.1646 1458944
-656.49243 421.811 2170.1646 1327104
-638.20764 418.28329 2152.0149 1853440
-625.34027 418.23444 2151.7634 1655808
-612.54742 418.23444 2151.7634 1261056
-602.80408 420.36096 2162.7041 1852928
-614.82782 438.09009 2253.9185 1918464
-577.08832 420.36096 2162.7041 1391872
-596.12756 444.12485 2284.9663 1918208
-606.7019 462.54349 2379.728 1786624
-587.05109 458.24811 2357.6289 2312964
-568.92987 454.96591 2340.7422 3036686
-548.04071 449.25 2311.3347 1984512
-534.29919 449.25 2311.3347 2971148
-510.15814 440.27502 2265.1597 2182145
-482.53003 427.72241 2200.5779 2050304
-477.87793 435.40405 2240.0989 2642695
-464.55991 435.40405 2240.0989 2839819
-451.24194 435.40405 2240.0989 2708490
-446.30804 443.73993 2282.9861 3234576
0 0 0 0
-400.79095 424.29156 2182.9268 2378755
0 0 0 0
-379.2308 429.26773 2208.5283 2510596
-364.04568 426.8584 2196.1326 2379523
-350.98911 426.8584 2196.1326 2642950
-335.85156 424.22989 2182.6094 2511619
-334.58139 439.6106 2261.7412 2577411
-321.13474 439.6106 2261.7412 2248448
-303.75323 433.98874 2232.8174 2314240
-290.47849 433.98874 2232.8174 3235594
-278.91202 436.66315 2246.5769 2906116
-265.55548 436.66315 2246.5769 2445568
-248.91229 430.97253 2217.2993 3300619
-235.72984 430.97253 2217.2993 3169035
-230.10141 445.60126 2292.5623 3300108
-217.43137 447.57715 2302.728 3629074
-202.84157 445.60126 2292.5623 3958295
-182.78751 430.47211 2214.7249 2182144
-165.91479 421.06793 2166.3416 2708484
-153.03529 421.06793 2166.3416 2313984
-140.57021 422.31299 2172.7471 2379264
-130.45325 431.57831 2220.416 2445056
-115.79993 426.23267 2192.9133 2905606
-102.76247 426.23267 2192.9133 2576385
-90.51606 429.99063 2212.2476 3102728
-76.591179 425.6973 2190.1589 2444800
-63.492718 425.17923 2187.4937 2313217
-49.806454 419.44421 2157.9875 2313475
-36.522625 414.29434 2131.4922 2247682
-23.840094 414.11688 2130.5791 1918722
-11.023737 408.577 2102.0771 2774283
1.5154403 420.15036 2161.6206 2116353
14.213056 415.65198 2138.4771 1721600
26.998877 416.76303 2144.1934 1919232
39.746704 416.76303 2144.1934 1590272
51.468395 408.61642 2102.28 2445573
63.412239 405.07245 2084.0466 2248195
77.522194 414.26221 2131.3269 1852929
92.809319 426.27664 2193.1396 2116099
105.3345 424.20807 2182.4971 1918464
116.66985 418.32706 2152.24 1918725
126.01108 407.16513 2094.8132 1655296
137.36771 403.9375 2078.2075 1523456
150.2836 405.44931 2085.9856 1326082
163.0219 406.28806 2090.3008 1325568
175.44933 406.28806 2090.3008 1588738
192.14461 415.5174 2137.7847 1259776
204.85432 415.5174 2137.7847 667648
216.16066 412.8371 2123.9949 996864
227.56552 410.63049 2112.6421 1259777
240.12578 410.63049 2112.6421 997120
249.97797 406.22971 2090.0007 1062400
271.70166 420.62418 2164.0583 1062400
278.37881 411.47644 2116.9944 799232
284.27533 402.01608 2068.3223 930816
303.55106 411.47644 2116.9944 667648
320.91348 417.69321 2148.9788 929792
333.68979 417.69321 2148.9788 1062400
335.96106 405.02853 2083.8208 1193984
350.09457 407.05701 2094.2571 1194240
369.86288 415.27277 2136.5261 931072
382.56512 415.27277 2136.5261 864768
388.04623 407.68613 2097.4939 601600
400.51639 407.68613 2097.4939 1127680
410.87744 405.60406 2086.782 468992
419.44312 401.92368 2067.8467 600832
435.12805 405.08051 2084.0881 864257
450.44513 407.72955 2097.7173 732672
465.46744 409.97626 2109.2764 732416
461.44012 395.76669 2036.1698 403712
475.77359 397.62863 2045.7493 1061376
499.95349 407.42178 2096.1338 535296
508.60663 404.39328 2080.5525 864256
520.97607 404.39328 2080.5525 930048
544.54517 412.8851 2124.2417 600832
557.17438 412.8851 2124.2417 469248
572.534 414.86353 2134.4207 864256
588.61798 417.26974 2146.8003 995584
589.80585 409.23807 2105.4783 469248
602.32349 409.23807 2105.4783 930048
619.75067 412.50586 2122.2905 337664
632.51569 412.60205 2122.7854 995840
648.13611 414.5206 2132.6562 732416
649.3562 407.33243 2095.6741 929792
651.1308 400.75616 2061.8401 929792
663.38904 400.75616 2061.8401 1193472
686.39032 407.12839 2094.6243 930048
698.84106 407.12698 2094.6172 1061632
698.71802 399.92874 2057.583 996096
706.8728 397.6347 2045.7805 469504
720.20367 398.2807 2049.104 601088
732.38617 398.2807 2049.104 732416
747.81714 400.01834 2058.0439 469504
728.91492 383.63037 1973.73 864000
740.64929 383.63037 1973.73 929536
762.39215 388.73358 1999.9854 797952
774.28265 388.73358 1999.9854 929792
776.18201 383.79337 1974.5685 601088
807.90027 393.52499 2024.6365 534784
839.9295 403.12015 2074.0024 666624
845.4184 399.88403 2057.353 666624
857.6499 399.88403 2057.353 666624
859.98376 395.33411 2033.9442 732928
857.13062 388.5589 1999.0867 930304
869.68658 388.85889 2000.6299 1127680
880.90082 388.5589 1999.0867 600832
893.47522 388.85889 2000.6299 798208
913.0965 392.17764 2017.7045 666880
899.22388 381.21118 1961.2834 535040
904.18188 378.40616 1946.8521 140288
915.75653 378.40616 1946.8521 666624
936.66235 382.2139 1966.4424 1127424
943.12439 380.10648 1955.5999 469248
959.46649 381.9838 1965.2585 72704
973.37585 382.8591 1969.7618 205312
984.49823 382.63043 1968.5853 139008
988.86298 379.81155 1954.0826 600064
991.35107 376.34579 1936.2516 732160
986.92334 370.3642 1905.4772 666112
989.16168 366.99158 1888.1255 732672
963.10706 353.3154 1817.7632 732672
0 0 0 0
0 0 0 0
0 0 0 0
1006.7083 353.44632 1818.4368 665856
1040.2198 361.33157 1859.0054 1060608
1063.7542 365.62173 1881.0778 402688
1091.4354 371.23315 1909.9478 402944
1112.6925 374.56644 1927.0972 667136
1122.0975 373.88266 1923.5792 1127680
1109.4314 365.9328 1882.6781 403968
1109.6812 362.35931 1864.293 996096
1120.7648 362.35931 1864.293 535296
1168.7192 374.16339 1925.0236 929792
1165.1671 369.40872 1900.5614 732416
1141.4865 358.42505 1844.0518 1126656
1152.45 358.42505 1844.0518 863232
1169.2715 360.22986 1853.3373 665856
1184.1842 361.41833 1859.4519 534272
1193.0181 360.7467 1855.9963 468480
1218.1855 364.98111 1877.7819 600320
1213.2424 360.19916 1853.1792 1060864
1224.0408 360.13461 1852.8472 731904
1212.2086 353.47232 1818.5706 600320
1223.0206 353.47232 1818.5706 731904
1229.4445 352.21524 1812.103 468736
1249.1083 354.74002 1825.0928 665856
1278.7744 360.03748 1852.3475 929024
1276.9302 356.44855 1833.8829 1060608
1282.2635 354.90698 1825.9518 797696
1290.2626 354.12296 1821.918 797440
1278.7213 348.0336 1790.589 929024
1269.2312 342.59845 1762.6259 666112
1304.7472 349.30115 1797.1105 534272
1320.1835 350.56302 1803.6025 336640
1333.0326 351.12305 1806.4839 600064
1343.7726 351.12305 1806.4839 797440
1362.3384 353.15167 1816.9209 534272
1373.1405 353.15167 1816.9209 1389312
1386.8445 353.89215 1820.7306 600064
1402.5743 355.13416 1827.1205 731648
1398.5842 351.40228 1807.9204 467968
0 0 0 0
0 0 0 0
0 0 0 0
0 0 0 0
1371.0309 331.73196 1706.7192 599552
1423.4552 341.8862 1758.9614 1126144
1431.4775 341.30557 1755.9742 929024
1372.0093 324.75815 1670.8398 797184
0 0 0 0
0 0 0 0
0 0 0 0
0 0 0 0
0 0 0 0
0 0 0 0
0 0 0 0
0 0 0 0
0 0 0 0
0 0 0 0
1537.4426 337.07159 1734.1909 993792
1616.9812 352.14825 1811.7583 1256961
1643.3119 355.51428 1829.0763 1125376
1568.087 337.01004 1733.8741 1125376
1547.6974 330.4556 1700.1523 1256961
0 0 0 0
0 0 0 0
0 0 0 0
0 0 0 0
0 0 0 0
0 0 0 0
0 0 0 0
0 0 0 0
0 0 0 0
0 0 0 0
0 0 0 0
0 0 0 0
0 0 0 0
0 0 0 0
0 0 0 0
0 0 0 0
0 0 0 0
0 0 0 0
0 0 0 0
0 0 0 0
0 0 0 0
0 0 0 0
-1896.5614 444.11786 2217.114 1522949
-1883.3802 444.11786 2217.114 1193986
-1879.5911 446.34827 2228.2485 1325569
-1850.7085 442.60907 2209.5818 1062400
-1837.572 442.60907 2209.5818 1194497
-1816.4629 440.67496 2199.9263 1194496
-1779.4572 434.82822 2170.7385 1457921
-1759.5492 433.10461 2162.134 1457666
-1746.6947 433.10461 2162.134 1326336
-1757.1514 438.92764 2191.2036 1194496
-1765.5364 444.31635 2218.1047 1457664
-1748.0763 443.23291 2212.696 1457664
-1734.9213 443.23291 2212.696 1128960
-1742.4587 448.55978 2239.2888 1194752
-1729.1455 448.55978 2239.2888 1129216
-1667.5878 435.94751 2176.3262 1195520
-1635.7474 430.96756 2151.4653 1984515
-1620.1647 430.22626 2147.7646 1458432
-1588.5968 425.19464 2122.646 1063936
-1560.3271 420.97235 2101.5676 1458432
-1532.6067 416.83121 2080.8943 1524224
-1519.6715 416.6767 2080.1228 1984770
-1542.6777 426.45514 2128.9387 2313991
-1533.4331 427.40628 2133.687 1721857
-1560.8877 438.68765 2190.0054 2116356
-1579.5831 447.6763 2234.8784 1458432
-1509.625 431.47867 2154.0168 1392640
-1508.6206 434.88071 2171.0005 1458432
-1472.3999 428.10226 2137.1614 1392896
-1485.2902 435.60919 2174.6372 1853184
-1463.9624 433.1243 2162.2322 1392640
-1484.7744 443.17322 2212.3982 1458432
-1460.2198 439.73978 2195.2578 1787392
-1447.1685 439.73978 2195.2578 1524480
-1450.1497 444.65582 2219.7996 1392896
-1451.1011 449.03406 2241.6565 1787648
-1488.0078 464.72275 2319.9773 2247942
-1455.3315 458.77005 2290.2603 2247941
-1407.0083 447.72589 2235.126 3234836
-1393.7198 447.72589 2235.126 1721600
-1380.9845 447.90527 2236.0215 1787648
-1353.5831 443.28516 2212.957 1787904
-1339.1466 442.86194 2210.8442 1524480
-1359.844 454.1644 2267.2681 1722112
-1346.3645 454.1644 2267.2681 1262080
-1332.0645 453.8848 2265.8723 1590016
-1315.7013 452.88934 2260.9028 2247686
-1314.6313 457.19196 2282.3821 2971407
-1301.062 457.19196 2282.3821 1524736
-1271.7419 451.59885 2254.4604 1788160
-1253.317 449.79672 2245.4639 1524992
-1269.9161 460.66064 2299.6985 1853953
-1268.1538 465.02802 2321.5012 1853952
-1242.5713 460.66064 2299.6985 1327104
-1218.863 456.89859 2280.9177 1656064
-1166.3464 442.13141 2207.1973 1392128
-1158.0881 443.99622 2216.5068 1589504
-1167.8063 452.87527 2260.8325 1852928
-1154.365 452.87527 2260.8325 1392640
-1069.2377 424.42041 2118.781 1655552
-1039.7177 417.62286 2084.8464 1721600
-1104.3727 448.94492 2241.2114 997632
-1092.6854 449.61859 2244.5747 1984769
-1030.9957 429.47961 2144.0374 1261056
-1013.9162 427.65219 2134.9146 997888
-1001.2235 427.65219 2134.9146 1458432
-992.47198 429.35718 2143.426 997888
-979.72864 429.35718 2143.426 800512
-966.23694 429.02484 2141.7671 1919236
-966.55139 434.89566 2171.0752 1590016
-940.77014 429.02484 2141.7671 1129216
-922.46545 426.44928 2128.9094 1129472
-936.8783 439.13754 2192.2515 1195008
-932.98187 443.48074 2213.9333 1918727
-936.29395 451.42374 2253.5862 1523969
-906.65692 443.48074 2213.9333 2774291
-851.94861 422.85968 2110.9895 2577680
-841.91486 424.12747 2117.3186 2709264
-837.2262 428.16733 2137.4861 2182406
-821.36945 426.5322 2129.3232 1261312
-799.05231 421.43848 2103.8945 1919232
-782.86328 419.46628 2094.0491 602880
-770.41357 419.46628 2094.0491 1918976
-732.11188 405.15948 2022.627 668928
0 0 0 0
-731.32025 418.4682 2089.0664 1524992
-743.03687 432.51807 2159.2058 1722368
-713.13397 422.40952 2108.7422 1393152
-698.65253 421.23718 2102.8896 1261568
-684.93298 420.4899 2099.1589 1064192
-653.66351 408.74072 2040.5052 1524480
-662.3205 421.98569 2106.6262 1524736
-656.17023 426.12512 2127.2913 1063936
-643.52289 426.12512 2127.2913 1458688
-630.87555 426.12512 2127.2913 1458688
-622.03363 428.74811 2140.3855 1787648
-588.23639 413.92044 2066.3633 1853696
-568.00903 408.21262 2037.8688 1853440
0 0 0 0
0 0 0 0
0 0 0 0
-601.06781 472.26489 2357.6289 1589760
-562.12091 452.20935 2257.5081 1984769
0 0 0 0
-538.40063 454.8475 2270.6782 1918208
-524.90088 454.8475 2270.6782 2115584
-484.05038 430.52142 2149.2383 2181633
-471.27255 430.52142 2149.2383 1786880
0 0 0 0
-428.10132 413.50638 2064.2961 2313473
-431.92554 429.51352 2144.2065 2313473
-399.96878 409.83102 2045.9481 2313729
0 0 0 0
-361.33163 394.2189 1968.0098 2116608
-371.46814 418.84058 2090.9255 2642950
-371.17181 432.99667 2161.595 1721856
-361.59973 436.95923 2181.377 2182912
-348.63083 436.95923 2181.377 2445826
-335.28317 436.46619 2178.9155 2116864
0 0 0 0
0 0 0 0
0 0 0 0
-265.10391 408.19296 2037.7708 2380288
-261.2504 421.52292 2104.3162 2247936
-245.28802 415.67371 2075.1157 2313728
-232.57808 415.00848 2071.7949 2379520
-226.53545 426.83118 2130.8159 2642691
-215.98755 431.06305 2151.9421 3234828
-204.70613 434.27164 2167.96 3366671
-191.817 434.27164 2167.96 2642947
-176.356 428.02951 2136.7983 2576899
-159.39667 416.89941 2081.2346 2379521
-149.22534 423.14395 2112.4084 2116352
-137.64861 426.18478 2127.5889 1918976
-124.9995 426.18478 2127.5889 2247936
-111.34846 422.38416 2108.6155 2379520
-98.812164 422.38416 2108.6155 2313728
-87.166084 426.74243 2130.3728 2971914
-75.466125 432.27405 2157.9875 1984768
-62.543148 431.63126 2154.7786 2247938
-49.61132 430.58047 2149.533 2510855
-35.963173 420.42639 2098.842 2116098
-22.997183 411.69403 2055.2485 2379270
-10.622458 405.7467 2025.5585 2708235
1.4736964 421.07443 2102.0771 2445062
13.975335 421.20114 2102.7097 1458176
26.476528 421.20114 2102.7097 1787139
38.298489 413.86118 2066.0674 1787137
50.581837 413.86118 2066.0674 1589760
61.581749 405.41196 2023.8873 1655808
75.274315 414.55396 2069.5259 1655552
88.156052 417.28909 2083.1802 1918721
100.54114 417.28909 2083.1802 1260800
112.65666 416.29303 2078.2075 1786880
125.01218 416.29303 2078.2075 1721090
128.53586 389.52808 1944.5923 1852420
145.40366 404.28284 2018.2505 1786376
161.2195 414.08603 2067.1899 1325570
173.50951 414.08603 2067.1899 799232
186.13092 414.82458 2070.877 1588486
198.44287 414.82458 2070.877 1325570
215.00528 423.1907 2112.6421 1259778
223.04889 414.79138 2070.7112 1128192
237.55231 418.65536 2090.0007 931072
248.67548 416.474 2079.1111 865024
261.03638 416.474 2079.1111 798977
268.95746 409.71069 2045.3474 2115343
281.11758 409.71069 2045.3474 733184
293.27774 409.71069 2045.3474 1062144
305.7634 410.14728 2047.527 732672
317.93652 410.14728 2047.527 1061632
328.29425 407.89175 2036.267 535808
341.43216 409.12805 2042.4387 1259520
358.74911 415.11508 2072.3271 930048
366.34384 409.82828 2045.9346 995841
378.50748 409.82828 2045.9346 7936
398.47095 418.01062 2086.782 601088
403.27859 410.27982 2048.1885 666624
412.21146 407.07605 2032.1947 732672
425.63791 408.36594 2038.6342 667648
437.75815 408.36594 2038.6342 1588747
432.63605 392.71463 1960.5001 1850891
452.15009 399.66071 1995.176 864512
471.55051 406.15378 2027.5906 864256
487.93616 409.79117 2045.7493 732416
495.65967 406.15378 2027.5906 271616
511.61404 409.27347 2043.1647 3584
508.81207 397.59198 1984.8488 535040
534.39569 408.11819 2037.3972 600832
554.18591 413.85138 2066.0186 1061376
567.72357 414.76804 2070.5945 1061376
561.37445 401.42514 2003.9845 798208
579.56433 405.8194 2025.9215 995584
614.84113 421.75574 2105.4783 1061632
621.58069 417.87128 2086.0864 798208
633.98309 417.87128 2086.0864 1127168
606.40875 392.02737 1957.0692 995584
620.43097 393.54138 1964.6274 600576
644.75153 401.41107 2003.9142 732672
661.96942 404.65335 2020.1002 732672
670.14691 402.35229 2008.6129 732928
660.81561 389.80365 1945.9681 535296
664.56207 385.26852 1923.3279 732416
675.99683 385.26852 1923.3279 863744
687.43152 385.26852 1923.3279 403456
703.33447 387.73172 1935.6246 798208
718.66962 389.80771 1945.9882 864000
730.23907 389.80771 1945.9882 600576
745.64136 391.82181 1956.043 271616
745.45251 385.707 1925.5167 468992
756.87244 385.69281 1925.4459 600576
742.6347 372.79901 1861.0779 403200
755.40918 373.64474 1865.2999 468992
766.49884 373.64474 1865.2999 271616
814.65259 391.45465 1954.21 469248
826.08057 391.36444 1953.7598 534784
821.51056 383.80267 1916.01 534784
832.90179 383.80267 1916.01 600576
837.5672 380.74518 1900.7466 468480
852.6853 382.45758 1909.295 403200
864.03656 382.45758 1909.295 732160
897.8913 392.28934 1958.377 732160
883.33868 380.99091 1901.9731 534272
902.71027 384.4249 1919.1163 402432
923.61395 388.41754 1939.0483 402432
936.57166 389.01132 1942.0125 6912
951.95343 390.58517 1949.8696 534272
963.54596 390.58517 1949.8696 402944
974.56537 390.35565 1948.7236 863232
972.69165 385.02792 1922.1267 666112
984.1192 385.02792 1922.1267 600064
983.84491 380.50217 1899.5334 204800
989.16168 378.21701 1888.1255 928768
980.70154 370.77448 1850.9709 402432
980.16125 366.45816 1829.4232 205056
0 0 0 0
999.17725 365.45712 1824.4258 7168
1035.2933 374.60034 1870.0704 401920
1046.4115 374.60034 1870.0704 467712
1057.5295 374.60034 1870.0704 270336
1070.2902 375.17612 1872.9448 6144
1081.4253 375.17612 1872.9448 533504
1101.7297 378.32474 1888.6633 599808
1100.1909 373.98477 1866.9973 665856
1101.8358 370.80289 1851.1128 862976
1112.8412 370.80289 1851.1128 402688
1118.6323 369.08246 1842.5242 336896
1124.1558 367.30801 1833.6658 600320
1134.2748 367.05472 1832.4012 929024
1151.524 369.09171 1842.5703 402944
1163.4133 369.38846 1844.0518 402944
1180.2902 371.24847 1853.3373 534272
1170.8986 364.88803 1821.5848 534528
1189.6964 367.34836 1833.8672 600064
1193.7915 365.26538 1823.4686 468736
1210.5784 367.06824 1832.4689 731904
1207.8976 362.98868 1812.103 73216
1216.5791 362.36557 1808.9923 205312
1219.4604 360.04095 1797.3873 270848
1238.089 362.36557 1808.9923 468480
1245.6761 361.44641 1804.4037 534272
1256.4038 361.44641 1804.4037 402944
1264.1635 360.59979 1800.1772 665856
1248.939 353.26624 1763.5668 599808
1255.9077 352.27997 1758.6432 467712
1255.6385 349.29651 1743.7493 533760
1298.4576 358.25015 1788.4475 6912
1319.5814 361.12115 1802.7799 7168
1330.9064 361.28592 1803.6025 204544
1341.0175 361.12115 1802.7799 599296
1343.7023 358.97507 1792.0663 533248
1336.6285 354.27618 1768.6086 928512
1383.4628 363.82758 1816.2909 599808
1394.2611 363.82758 1816.2909 402688
1395.156 361.26315 1803.4889 533504
1339.6625 344.24796 1718.546 599296
1320.8147 336.83575 1681.543 533504
1330.8119 336.83575 1681.543 730880
1340.8092 336.83575 1681.543 665344
1371.0309 341.87888 1706.7192 796672
1423.4552 352.34372 1758.9614 796672
1431.4775 351.74533 1755.9742 599296
1421.7388 346.82294 1731.4008 401664
1398.0925 338.60303 1690.3656 665088
1391.8765 334.69177 1670.8398 1520133
1386.6783 331.07898 1652.8041 1191169
0 0 0 0
1433.9335 337.57712 1685.244 993792
1477.6156 345.44705 1724.5321 533248
1490.1637 345.97998 1727.1925 1388546
1476.1515 340.3811 1699.2421 1125376
0 0 0 0
1524.3302 346.74442 1731.0088 599040
1537.4426 347.38184 1734.1909 1059584
1616.9812 362.91965 1811.7583 1256961
1630.0632 363.43478 1814.33 862208
1568.087 347.31839 1733.8741 1585926
1578.3953 347.31839 1733.8741 533248
1557.8053 340.56348 1700.1523 862464
1552.2584 337.16315 1683.1774 1520133
1547.9069 334.0643 1667.7074 1454339
1542.7336 330.82877 1651.5551 1586182
1552.5527 330.82877 1651.5551 1651718
1561.9408 330.73752 1651.0996 928256
1571.757 330.73752 1651.0996 1322754
1568.6245 328.02972 1637.5817 1256961
1507.2286 313.24646 1563.781 730624
0 0 0 0
0 0 0 0
0 0 0 0
0 0 0 0
0 0 0 0
0 0 0 0
0 0 0 0
0 0 0 0
0 0 0 0
0 0 0 0
0 0 0 0
0 0 0 0
0 0 0 0
-1856.8337 447.72006 2170.6716 1786377
-1872.3232 454.61453 2204.0979 1259776
-1859.2194 454.61453 2204.0979 1062656
-1797.6036 442.66827 2146.1792 930816
-1828.9432 453.60556 2199.2061 931072
-1815.8682 453.60556 2199.2061 1128960
-1784.5587 449.01752 2176.9619 1194496
-1759.5492 445.95914 2162.134 865536
-1746.6947 445.95914 2162.134 997120
-1703.6704 438.19919 2124.5117 1655042
-1682.2324 435.91699 2113.447 1786886
-1635.7283 427.05618 2070.4873 865792
-1646.9501 433.24631 2100.4988 1128960
-1680.2949 445.3952 2159.4001 1457665
-1669.5784 445.96191 2162.1477 800256
-1654.6183 445.3952 2159.4001 1261056
-1606.1991 435.74249 2112.6011 1392387
-1593.6392 435.74249 2112.6011 1853188
-1539.96 424.41016 2057.6587 2050568
-1518.6212 421.88062 2045.3948 1787398
-1506.4608 421.88062 2045.3948 1195008
-1500.0236 423.49643 2053.2288 1392384
-1504.2606 428.17712 2075.9221 1392384
-1505.3313 432.02652 2094.585 3432219
-1520.2224 439.93964 2132.95 1392640
-1512.8876 441.49976 2140.5139 1195264
-1497.812 440.80829 2137.1614 1129728
-1496.8187 444.28488 2154.0168 669184
-1472.3999 440.80829 2137.1614 1261312
-1476.8175 445.97934 2162.2322 2248199
-1460.3655 444.88361 2156.9197 997888
-1456.5349 447.64746 2170.3196 1129728
-1436.0219 445.28778 2158.8792 800768
-1423.1868 445.28778 2158.8792 2050563
-1387.4425 438.05472 2123.8113 1524480
-1374.8158 438.05472 2123.8113 1918979
-1442.5325 463.89163 2249.0759 2511113
-1429.1611 463.89163 2249.0759 1919233
-1397.9297 458.03967 2220.7039 2116355
-1371.9381 453.80936 2200.1943 2182148
-1358.8574 453.80936 2200.1943 1721600
-1291.1223 435.37936 2110.8406 1853184
-1263.496 430.24548 2085.95 1721600
-1306.1173 449.16754 2177.6895 1721600
-1293.1703 449.16754 2177.6895 2314503
-1311.9319 460.29254 2231.6265 1591040
-1289.3105 456.97723 2215.553 1591040
-1272.4808 455.66751 2209.2029 2117382
-1279.6393 463.00995 2244.8013 2117381
-1242.1449 454.1803 2201.9927 1985540
-1239.184 457.92386 2220.1426 1590784
-1225.9845 457.92386 2220.1426 1722624
-1227.8488 463.6116 2247.7183 1918721
-1185.7546 452.64404 2194.5444 997888
-1172.7074 452.64404 2194.5444 1787392
-1140.4795 445.15732 2158.2466 2181891
-1115.8455 440.49799 2135.657 1721600
-1120.8079 447.54965 2169.8452 1326336
-1076.8175 434.99048 2108.9551 1392128
-1039.6781 424.93558 2060.2061 1786880
-1027.4296 424.93558 2060.2061 1721600
-1057.2551 442.54697 2145.5911 1524224
-1041.1686 441.13593 2138.75 1195264
-1025.3146 439.78973 2132.2231 1195264
-993.32074 431.40027 2091.5486 1063680
-976.93201 429.66132 2083.1177 1129728
-957.4552 426.50211 2067.801 1918980
-953.28101 430.16595 2085.5645 800512
-940.88171 430.16595 2085.5645 1984520
-937.26001 434.23264 2105.2808 2116362
-929.89996 436.6539 2117.0198 997888
-917.31372 436.6539 2117.0198 1195008
-909.0387 438.73474 2127.1082 1260544
-894.63379 437.87393 2122.9348 2379279
-919.8194 456.64316 2213.9333 1918729
-866.63898 436.48788 2116.2148 3695137
-850.23248 434.53305 2106.7373 2510864
-839.39825 435.41013 2110.9895 2642448
-837.2262 440.87527 2137.4861 1326848
-816.73877 436.71552 2117.3186 734976
-799.05231 433.94672 2103.8945 1392384
-773.71246 426.86737 2069.5718 866048
-755.89099 423.7742 2054.5754 1129216
-742.08472 422.86743 2050.1792 1129728
-720.08679 417.18454 2022.627 997888
-720.63666 424.59363 2058.5481 1392384
-719.79919 431.42715 2091.679 1458432
-698.86237 426.24219 2066.5408 1655808
-648 402.29321 1950.4294 1721344
-655.61914 414.4397 2009.319 4484910
-650.91571 419.10281 2031.9274 800000
-657.19543 431.14786 2090.325 1260800
-645.01538 431.31335 2091.1274 932096
-632.34027 431.14786 2090.325 1195520
-620.15076 431.31335 2091.1274 2247942
-610.78076 433.48688 2101.665 1392640
-581.65369 421.43607 2043.2395 1392896
0 0 0 0
0 0 0 0
0 0 0 0
0 0 0 0
0 0 0 0
0 0 0 0
0 0 0 0
-476.99777 414.93375 2011.7145 1918464
-472.36462 421.47141 2043.4109 2379011
-446.58832 408.99103 1982.9023 2181632
-426.66391 401.33844 1945.8005 1523968
0 0 0 0
-398.57141 396.40945 1921.9036 1721600
-397.38812 406.89755 1972.7526 1721856
0 0 0 0
0 0 0 0
-352.49545 395.99274 1919.8832 1129728
-358.72589 416.47809 2019.2018 1721600
-359.57706 431.92044 2094.0706 1656320
-343.99823 428.0271 2075.1946 1919488
-306.75247 395.88174 1919.3448 1985024
0 0 0 0
0 0 0 0
0 0 0 0
0 0 0 0
-248.38284 393.79773 1909.2411 1524736
-243.39824 404.37466 1960.5209 1787904
-235.1886 410.38803 1989.6754 1590528
-220.62752 405.36859 1965.3397 2248448
-220.2607 427.3259 2071.7949 2905863
-210.62579 432.83847 2098.5215 2445312
-196.823 429.94083 2084.4729 2379521
-184.43022 429.94083 2084.4729 2313728
-170.54272 426.20535 2066.3623 2182144
-155.68446 419.27557 2032.7646 1918976
-143.59912 419.27557 2032.7646 1918976
-130.16905 414.98846 2011.9797 1918976
-115.30773 404.80917 1962.6276 2182144
-110.66569 432.25354 2095.6855 1918976
-95.970123 422.41122 2047.9673 1984512
-83.794388 422.41122 2047.9673 2050560
-72.384369 426.92746 2069.8633 1787392
-60.078453 426.92746 2069.8633 1852928
-48.810486 436.20322 2114.8347 1787136
-34.738956 418.16821 2027.3959 3497751
-22.820038 420.64771 2039.4172 2839821
-10.622458 417.78922 2025.5585 3036945
1.4408665 423.91302 2055.2485 2247175
13.879259 430.72079 2088.2544 1918210
26.229279 429.65222 2083.0737 1655040
38.044727 423.32095 2052.3779 1391616
50.246689 423.32095 2052.3779 1457664
62.396584 422.96805 2050.667 1326080
74.289963 421.27588 2042.4629 1721090
85.801178 418.1965 2027.5331 997376
97.16024 415.22552 2013.1292 1260800
108.57347 413.11237 2002.8838 1852675
116.97471 401.08923 1944.5923 2116103
126.34031 394.23813 1911.3763 1918468
145.40366 416.28189 2018.2505 2049799
157.97733 417.80151 2025.6182 1786116
170.02019 417.80151 2025.6182 1325825
174.69034 400.88251 1943.5901 1588997
190.10587 409.19168 1983.8752 1523204
204.11646 413.68259 2005.6486 1259521
216.04059 413.68259 2005.6486 1127937
227.31052 412.49545 1999.8927 601600
240.18875 414.1998 2008.1559 930816
250.80449 412.02582 1997.6158 733184
262.20859 411.28497 1994.0242 864768
271.91138 408.05515 1978.365 1127424
283.67328 408.05515 1978.365 601344
295.43524 408.05515 1978.365 1127424
301.77649 400.85477 1943.4556 601088
324.98917 415.76962 2015.767 1127680
340.30951 419.88574 2035.723 930560
352.41245 419.88574 2035.723 996352
355.36221 409.34222 1984.605 929792
371.34052 414.00159 2007.1951 864000
386.1936 417.15543 2022.4857 1193473
396.46399 415.31821 2013.5782 1127169
393.27362 399.90103 1938.8315 732416
403.69592 398.80978 1933.541 666624
414.84192 398.47409 1931.9136 535040
417.17963 389.92377 1890.4591 995329
441.13556 401.49774 1946.5729 732416
438.59204 388.97821 1885.8746 403200
469.71832 406.19949 1969.3682 929537
481.42676 406.19949 1969.3682 468736
496.43799 408.91995 1982.558 929793
502.79242 404.54901 1961.3665 666624
514.45331 404.54901 1961.3665 601088
545.82098 419.70236 2034.834 271616
545.57068 410.41342 1989.7987 206080
557.40063 410.41342 1989.7987 798208
573.2887 413.33939 2003.9845 864000
587.35822 414.86166 2011.365 535040
590.2019 408.55243 1980.776 864256
592.54382 402.14954 1949.7329 666880
604.13556 402.14954 1949.7329 666624
604.94049 395.1044 1915.576 600320
628.633 402.99191 1953.8171 205824
647.88202 407.79636 1977.1104 402944
659.63647 407.79636 1977.1104 468992
636.24957 386.45181 1873.6261 271616
647.38879 386.45181 1873.6261 271104
658.52802 386.45181 1873.6261 534784
674.02423 388.96616 1885.8163 271104
678.19672 384.97043 1866.4438 205568
695.98389 388.70712 1884.5604 666112
707.18805 388.70712 1884.5604 271360
719.80786 389.47305 1888.2738 7680
726.42822 387.01913 1876.3766 862976
737.5838 387.01913 1876.3766 534016
739.24261 382.11029 1852.5771 205056
753.51416 383.76935 1860.6207 6656
756.0329 379.4812 1839.8306 534272
766.97119 379.4812 1839.8306 599808
777.90948 379.4812 1839.8306 271104
806.72784 388.08249 1881.5321 534528
801.76562 380.42044 1844.3843 271360
829.10028 388.08249 1881.5321 468736
834.00659 385.18216 1867.4705 139520
845.10925 385.18216 1867.4705 337664
847.8501 381.42047 1849.2327 928768
861.87732 382.76746 1855.7633 862976
892.04211 391.15668 1896.4365 270080
914.11987 395.83459 1919.1163 5888
933.7934 399.36887 1936.2516 534016
938.8067 396.62354 1922.9414 665856
945.69879 394.72845 1913.7534 468736
957.0766 394.72845 1913.7534 467968
944.57068 384.99377 1866.557 796928
935.48993 376.86502 1827.1466 204288
977.93622 389.44247 1888.1255 336384
958.40839 377.33459 1829.4232 6912
969.28485 377.33459 1829.4232 269568
980.16125 377.33459 1829.4232 5120
1002.7106 381.77899 1850.9709 5120
1007.0414 379.26559 1838.7853 6656
1017.9735 379.26559 1838.7853 467456
1027.774 378.84845 1836.7629 4096
1028.3306 375.06854 1818.4368 5888
1049.6141 378.84845 1836.7629 5632
1070.3641 382.35995 1853.7876 203520
1084.7529 383.55066 1859.5604 137984
1084.7192 379.66925 1840.7422 204800
1068.567 370.27994 1795.2202 72448
1074.3938 368.61722 1787.1589 204544
1112.4865 377.94885 1832.4012 335872
1109.0033 373.11172 1808.9496 533760
1119.7579 373.11172 1808.9496 731136
1124.0746 370.98694 1798.6481 533504
1134.7681 370.98694 1798.6481 1388800
1147.0082 371.48782 1801.0765 204544
1158.4084 371.71005 1802.1538 270336
1169.1228 371.71005 1802.1538 731136
1178.5634 371.30875 1800.2083 336128
1189.2661 371.30875 1800.2083 533760
1198.0885 370.7269 1797.3873 72960
1205.3683 369.68225 1792.3225 139008
1209.3661 367.65814 1782.5092 731136
1219.9636 367.65814 1782.5092 730624
1229.9158 367.46533 1781.5743 993536
1231.5525 364.81262 1768.7131 204288
1238.4541 363.75113 1763.5668 467712
1245.4521 362.7356 1758.6432 599040
1227.9641 354.66483 1719.5138 6144
1238.6256 354.79044 1720.1228 269824
1279.5432 363.50949 1762.3954 204032
1309.0905 368.883 1788.4475 270080
1316.2128 367.90173 1783.6902 467456
1312.0406 363.80444 1763.8253 401920
1321.4071 363.49637 1762.3317 467712
1325.2057 361.67355 1753.4941 796928
1332.9913 360.95883 1750.0291 599296
1343.3958 360.95883 1750.0291 139008
1329.4453 354.46521 1718.546 401920
1335.9092 353.47208 1713.7311 336128
1338.3926 351.44879 1703.9216 204800
1341.5599 349.63412 1695.1237 730880
1343.3562 347.49185 1684.7373 928256
1364.5065 350.35062 1698.5974 138752
1373.2231 349.99838 1696.8896 533760
1385.6257 350.58389 1699.7284 533504
1393.9292 350.13132 1697.5341 335872
1398.0925 348.65274 1690.3656 467712
1399.1432 346.42462 1679.563 467456
1424.2836 350.15033 1697.6263 928000
1457.11 355.69986 1724.5321 335872
1449.137 351.2818 1703.1121 270080
1477.6156 355.69986 1724.5321 335872
1493.2888 356.9957 1730.8147 730624
1509.1646 358.3219 1737.2444 730880
1486.2539 350.48358 1699.2421 730624
1493.2739 349.7616 1695.7416 796416
1489.4078 346.5166 1680.009 664832
1509.84 348.93024 1691.7111 928000
1552.8459 356.49435 1728.3839 862464
1563.1216 356.49435 1728.3839 730880
1555.1495 352.35983 1708.3386 599040
1542.2516 347.1701 1683.1774 730624
1546.1151 345.79608 1676.5157 1256963
1526.1615 339.147 1644.2792 862208
1535.9373 339.147 1644.2792 1849100
1546.5845 339.33823 1645.2063 730624
1556.3656 339.33823 1645.2063 467456
1562.8083 338.61487 1641.6992 796416
1568.6245 337.76559 1637.5817 993792
1571.5679 336.31198 1630.5342 730880
1574.5745 334.88968 1623.6384 796416
0 0 0 0
0 0 0 0
0 0 0 0
0 0 0 0
0 0 0 0
0 0 0 0
0 0 0 0
0 0 0 0
0 0 0 0
0 0 0 0
0 0 0 0
0 0 0 0
0 0 0 0
-1843.9285 460.62531 2170.6716 1325571
-1783.0726 448.56247 2113.8262 1127936
-1768.5708 448.07242 2111.5166 1193729
-1756.0173 448.07242 2111.5166 1325569
-1756.9066 451.52722 2127.7974 1391619
-1730.9678 448.08731 2111.5869 1260033
-1703.8633 444.29315 2093.7073 865536
-1689.9597 443.91071 2091.905 602624
-1666.5215 440.99957 2078.1863 1128704
-1636.6383 436.32666 2056.1655 1392385
-1619.3452 434.96521 2049.7498 2576659
-1608.9572 435.45187 2052.0432 997888
-1611.0614 439.35281 2070.426 1326592
-1623.2455 446.0838 2102.1455 1128704
-1610.7476 446.0838 2102.1455 668673
-1540.276 429.90283 2025.8937 3168794
-1550.2708 436.10269 2055.1101 2971414
-1518.4313 430.53922 2028.8926 1721604
-1496.162 427.62195 2015.145 3234584
-1484.1814 427.62195 2015.145 1129216
-1500.0236 435.70349 2053.2288 1195008
-1487.8165 435.70349 2053.2288 1589761
-1495.9288 441.70316 2081.502 2182152
-1492.8784 444.4794 2094.585 1458432
-1481.4368 444.78299 2096.0156 1392384
-1460.9677 442.35843 2084.5898 800256
-1448.5742 442.35843 2084.5898 537088
-1411.7394 434.83023 2049.1138 2905619
-1459.1514 453.34573 2136.3669 932096
-1446.45 453.34573 2136.3669 997888
-1456.5349 460.55063 2170.3196 1129472
-1443.6317 460.55063 2170.3196 1063424
-1430.7285 460.55063 2170.3196 1985026
-1402.422 455.54715 2146.741 1918978
-1374.8158 450.68137 2123.8113 2050818
-1351.5978 447.17719 2107.2981 1656065
-1349.7767 450.7529 2124.1484 2248197
-1344.6633 453.28632 2136.0869 2379784
-1331.9637 453.28632 2136.0869 2050820
-1303.6718 447.92892 2110.8406 3169299
-1179.6829 409.2673 1928.6497 2313735
-1263.496 442.647 2085.95 1655808
-1262.4113 446.65097 2104.8184 1261056
-1271.5255 454.37973 2141.2397 1853441
-1275.0621 460.25153 2168.9102 1721856
-1280.9712 467.10834 2201.2227 1196288
-1247.3196 459.53201 2165.5195 2511626
-1252.9155 466.40784 2197.9214 3037712
-1232.1626 463.5166 2184.2966 1722112
-1219.1763 463.5166 2184.2966 1787392
-1163.2469 447.01437 2106.5308 1853184
-1150.723 447.01437 2106.5308 668928
-1166.1422 457.98868 2158.2466 1392640
-1153.3108 457.98868 2158.2466 2379784
-1127.417 452.7431 2133.5271 1918977
-1101.894 447.52884 2108.9551 1721856
-1065.1967 437.60379 2062.1838 668416
-1051.9265 437.18408 2060.2061 1128960
-1035.8519 435.57526 2052.6245 1129216
-1023.6486 435.57526 2052.6245 997888
-1027.1935 442.35724 2084.5842 1721860
-1023.0451 445.95129 2101.521 932096
-1002.3504 442.33243 2084.4673 1063680
-989.31671 442.04602 2083.1177 1063680
-971.01257 439.36755 2070.4956 1063424
-951.53473 436.08246 2055.0146 1787139
-945.16156 438.79578 2067.801 1458176
-932.86798 438.79578 2067.801 2379275
-932.13495 444.30615 2093.7686 2116105
-919.68683 444.30615 2093.7686 1392385
-916.02844 448.61078 2114.0537 1918727
-903.45984 448.61078 2114.0537 2313486
-890.89124 448.61078 2114.0537 2971415
-872.40106 445.5863 2099.801 2313486
-857.02887 444.08966 2092.7483 2181898
-839.35114 441.33667 2079.7749 2247950
-827.96704 441.86011 2082.2415 1326848
-825.18225 447.05817 2106.7373 1655808
-804.9826 442.83627 2086.8418 1326848
-766.38751 428.20413 2017.8885 734208
-757.85907 430.17288 2027.1663 1128960
-754.27362 435.05634 2050.1792 865792
-742.08472 435.05634 2050.1792 800000
-720.08679 429.20963 2022.627 669184
-703.76776 426.60675 2010.361 1655808
-685.06689 422.44519 1990.7498 1985286
-665.50299 417.5957 1967.897 1985030
-651.72882 416.27069 1961.653 2774034
-640.67133 416.66418 1963.5073 2971668
-644.0047 426.60522 2010.3538 1261056
-648.23114 437.52496 2061.8125 1458432
-628.26208 432.22012 2036.8136 1590017
-614.30194 430.92181 2030.6956 1590272
-602.22888 430.92181 2030.6956 1655808
-591.32684 431.77692 2034.7251 1787136
-586.37042 437.09973 2059.8086 1063424
-542.5069 413.02832 1946.3735 1194752
-529.18726 411.66858 1939.9657 1195264
-490.7327 390.25955 1839.0767 602624
-506.1199 411.66858 1939.9657 1524224
-494.93597 411.95963 1941.3372 1260800
0 0 0 0
0 0 0 0
-464.79898 415.97659 1960.2668 1391872
-465.03754 426.89398 2011.7145 1786880
0 0 0 0
0 0 0 0
0 0 0 0
0 0 0 0
-385.59015 406.19757 1914.184 1590016
-368.44363 399.93854 1884.6885 1195264
-352.81781 394.98929 1861.3655 932096
-346.03363 399.93854 1884.6885 1129216
-330.68515 394.98929 1861.3655 1326592
-336.10492 415.36307 1957.3757 1655808
-313.12012 400.83652 1888.9202 997888
0 0 0 0
0 0 0 0
0 0 0 0
0 0 0 0
-251.75877 392.70877 1850.6187 1524736
-248.38284 405.14871 1909.2411 669440
-237.03186 405.14871 1909.2411 1195776
-223.22319 400.73657 1888.4491 2116864
-214.68294 405.81601 1912.3857 1985024
-205.55475 410.29001 1933.4692 2247936
-196.70947 415.89224 1959.8694 2511105
-188.1498 422.84171 1992.6185 2116352
-176.30312 422.84171 1992.6185 2379777
-162.22453 417.10318 1965.5758 1984768
-150.4558 416.87363 1964.4941 1984512
-138.64447 416.47751 1962.6276 2247682
-126.9761 416.47751 1962.6276 1523712
-115.02477 415.45544 1957.8112 1457664
-103.64247 416.48996 1962.6863 1589248
-95.111969 430.70096 2029.6547 1984000
-83.045113 430.70096 2029.6547 1983746
-70.978249 430.70096 2029.6547 1918464
-58.895397 430.58405 2029.1038 1391616
-45.989162 422.83652 1992.594 2115588
-34.707474 429.83173 2025.5585 1983746
-22.685526 430.22162 2027.3959 2378761
-10.613528 429.47043 2023.8558 2246407
1.4121836 427.45013 2014.3354 2969875
13.387968 427.45013 2014.3354 2311944
25.75975 434.12381 2045.7847 1193216
37.516602 429.47711 2023.8873 2180361
49.549175 429.47711 2023.8873 1259264
61.581749 429.47711 2023.8873 1390848
73.746925 430.25073 2027.5331 1456640
83.390968 418.16473 1970.5784 930304
94.314842 414.68353 1954.1735 1852422
104.23921 408.05325 1922.9287 1654790
115.67157 408.05325 1922.9287 1326080
0 0 0 0
138.19084 407.03586 1918.1343 1983751
150.04523 408.26175 1923.9113 2049288
162.87788 411.78726 1940.5249 1851911
171.44049 404.76486 1907.4324 930816
185.04407 409.7771 1931.0521 1391364
195.26775 407.15616 1918.7012 1522694
206.67497 407.15616 1918.7012 1062401
218.08217 407.15616 1918.7012 1324294
237.07901 420.62152 1982.156 1720586
242.05473 409.11359 1927.9255 864768
248.3858 400.8335 1888.9059 930304
259.61588 400.8335 1888.9059 403456
275.23602 407.33047 1919.5227 469504
288.15598 409.47314 1929.6199 864256
299.62808 409.47314 1929.6199 864256
304.62943 400.95621 1889.4843 1259009
315.86292 400.95621 1889.4843 1324802
317.7247 389.46832 1835.3481 1127425
328.63635 389.46832 1835.3481 666624
354.29929 406.38831 1915.0826 1390339
366.80142 407.629 1920.9294 929792
378.22189 407.629 1920.9294 732416
390.63782 408.67044 1925.8372 666624
402.8121 409.40695 1929.3079 929792
408.12411 403.32117 1900.629 929792
415.52609 399.57306 1882.9661 403200
426.72086 399.57306 1882.9661 1126916
432.3757 394.51816 1859.1454 336896
448.57458 399.09637 1880.7197 995329
471.35226 409.1626 1928.1564 1126916
488.55084 414.02286 1951.0602 403712
500.15045 414.02286 1951.0602 600832
509.29721 412.03845 1941.7087 600832
520.39813 411.68796 1940.0569 403456
527.07092 407.92551 1922.3267 864257
538.49969 407.92551 1922.3267 1061632
537.02856 398.3566 1877.2336 1061632
547.81354 398.08359 1875.9471 535040
558.96655 398.08359 1875.9471 205056
570.11957 398.08359 1875.9471 929280
593.55182 406.49298 1915.576 797696
570.23279 383.17096 1805.6722 337152
588.79559 388.33359 1830.0009 600320
599.67554 388.33359 1830.0009 534784
618.71722 393.52481 1854.4641 337152
622.65466 389.09561 1833.5918 271360
635.19946 390.10501 1838.3486 600576
638.92859 385.75775 1817.8623 797696
654.71411 388.71317 1831.7896 337408
659.71057 385.27103 1815.5687 271104
670.45532 385.24271 1815.4352 205824
687.90808 389.00861 1833.1819 139520
698.80688 389.00861 1833.1819 1521669
709.70569 389.00861 1833.1819 402688
708.96106 382.72311 1803.5618 336896
700.27209 372.40012 1754.9152 402432
727.07825 380.97919 1795.3436 73984
737.75208 380.97919 1795.3436 600320
739.45691 376.4136 1773.8286 534528
741.49243 372.1424 1753.7007 336384
772.60114 382.37866 1801.9385 336640
789.47424 385.38571 1816.1091 270592
812.73096 391.3858 1844.3843 665600
823.69641 391.3858 1844.3843 599808
833.38867 390.78885 1841.5712 336896
829.51849 383.93018 1809.25 402432
840.27496 383.93018 1809.25 730880
852.58496 384.63101 1812.5526 401920
883.05408 393.40433 1853.8962 270336
894.07593 393.40433 1853.8962 730880
918.41693 399.19348 1881.1775 138496
929.60114 399.19348 1881.1775 270336
894.8313 379.69434 1789.2888 533760
903.57587 378.90042 1785.5475 203776
914.19141 378.90042 1785.5475 269824
939.38379 384.87262 1813.6913 204288
958.20996 388.13065 1829.0444 927744
969.28485 388.21103 1829.4232 532736
990.99719 392.50278 1849.6479 5632
1007.9854 394.84982 1860.7081 203776
1007.0414 390.19766 1838.7853 137472
1007.8145 386.30365 1820.4348 334848
1018.6375 386.30365 1820.4348 5120
1026.2318 385.09207 1814.7253 137216
1036.7639 384.9967 1814.2759 5120
1063.0312 390.68631 1841.0878 5120
1073.9771 390.68631 1841.0878 71424
1057.8939 380.953 1795.2202 5120
1063.7687 379.24237 1787.1589 137216
1061.568 374.71509 1765.8243 5888
1092.2778 381.77951 1799.1151 204288
1107.5199 383.353 1806.53 928256
1118.2603 383.353 1806.53 269568
1103.9647 374.85205 1766.4698 665088
1080.4675 363.41632 1712.5796 796928
1119.3031 372.96411 1757.573 467968
1129.7523 372.96411 1757.573 336128
1140.2015 372.96411 1757.573 730880
1142.1693 370.21494 1744.6177 138752
1189.2661 382.01151 1800.2083 336128
1195.9445 380.73032 1794.1709 533504
1198.328 378.11661 1781.8539 1060096
1203.5552 376.43817 1773.9442 730880
1213.8112 376.34805 1773.5197 269568
1211.983 372.54501 1755.598 72448
1227.9691 374.23602 1763.5668 467200
1234.9965 373.19119 1758.6432 599040
1221.2421 365.93686 1724.4574 335872
1228.399 365.01703 1720.1228 6400
1238.6256 365.01703 1720.1228 138240
1251.8572 365.89532 1724.2617 401408
1287.8519 373.35858 1759.4319 467200
1298.3123 373.35858 1759.4319 71168
1308.7725 373.35858 1759.4319 6656
1291.795 365.59335 1722.8386 72192
1302.0377 365.59335 1722.8386 401408
1280.9907 356.87619 1681.7595 71680
1295.6102 358.15359 1687.7793 72192
1300.3564 356.70303 1680.9435 138240
1315.6788 358.15359 1687.7793 204544
1331.4821 359.71213 1695.1237 401664
1333.34 357.50809 1684.7373 204288
1342.0793 357.16827 1683.1359 204288
1352.0859 357.16827 1683.1359 72704
1360.2079 356.67401 1680.8068 664576
1379.2947 359.04123 1691.9622 335360
1388.0428 358.70242 1690.3656 72192
1377.1121 353.31958 1664.9991 137984
1380.7062 351.71353 1657.4308 5888
1396.9098 353.31958 1664.9991 664320
1417.2848 355.95062 1677.3978 269568
1427.2573 355.95062 1677.3978 204032
1459.2625 361.40729 1703.1121 72192
1478.7247 363.70374 1713.934 270080
1509.1646 368.6503 1737.2444 270080
1483.1921 359.84323 1695.7416 467456
1472.7413 354.89539 1672.425 993793
1477.6259 353.6846 1666.7194 467712
1487.535 353.6846 1666.7194 862464
1496.6848 353.50525 1665.8741 993793
1535.7134 360.33899 1698.0779 270080
1536.2109 358.10165 1687.5344 335872
1530.4478 354.44336 1670.295 599040
1510.2451 347.50974 1637.6206 862208
1500.9235 343.15256 1617.0878 928001
1500.407 340.85123 1606.2427 1125378
1527.8531 344.89111 1625.2805 533248
1544.2676 346.40564 1632.4176 467712
1547.1786 344.89111 1625.2805 599040
1561.8739 346.00595 1630.5342 993793
1571.5679 346.00595 1630.5342 335872
1581.5386 346.06656 1630.8197 599040
0 0 0 0
0 0 0 0
0 0 0 0
0 0 0 0
0 0 0 0
0 0 0 0
0 0 0 0
0 0 0 0
0 0 0 0
0 0 0 0
0 0 0 0
0 0 0 0
0 0 0 0
-1770.9646 454.79303 2084.7786 1785865
-1704.4143 440.78754 2020.5771 1457155
-1690.3958 440.26514 2018.1825 1128450
-1626.0798 426.54172 1955.2739 1589253
-1614.4552 426.54172 1955.2739 2444562
-1714.8336 456.34769 2091.905 1589253
-1684.2708 451.48886 2069.6321 1260288
-1594.0145 430.43921 1973.1401 733952
-1582.2838 430.43921 1973.1401 1457666
-1568.7756 429.95209 1970.9071 1589508
-1594.2091 440.21066 2017.9327 1326337
-1585.2068 441.04391 2021.7523 1589250
-1594.9725 447.15155 2049.7498 1063168
-1597.9349 451.43115 2069.3677 1655557
-1565.8978 445.81287 2043.6133 2445328
-1523.6584 437.17932 2004.037 3234587
-1532.6521 443.22574 2031.7539 1260803
-1518.4313 442.60153 2028.8926 2839827
-1493.6079 438.85211 2011.705 2247950
-1478.683 437.97397 2007.6796 1589760
-1443.9254 431.15942 1976.4418 668672
-1454.0751 437.7525 2006.6646 2181899
-1450.9438 440.42337 2018.9078 799744
-1460.0077 446.8714 2048.4656 1062912
-1447.829 446.8714 2048.4656 931328
-1437.1753 447.3461 2050.6416 1260288
-1424.9836 447.3461 2050.6416 733952
-1408.2474 445.90707 2044.0452 1391874
-1399.5569 447.01279 2049.1138 1523713
-1412.7158 455.17786 2086.5425 1457920
-1400.7874 455.33279 2087.2527 1523970
-1388.3781 455.33279 2087.2527 1656066
-1388.0117 459.31799 2105.521 1721602
-1362.149 454.86182 2085.0938 1787394
-1374.8158 463.30801 2123.8113 1853185
-1334.3817 453.85016 2080.4563 2248198
-1310.8363 450.01321 2062.8677 2050563
-1337.1481 463.38153 2124.1484 2182149
-1331.9637 465.98593 2136.0869 2313734
-1319.2642 465.98593 2136.0869 1458176
-1179.6829 420.73364 1928.6497 1787392
-1198.3063 431.5705 1978.326 2445576
-1247.0768 453.58725 2079.2512 1392640
-1238.6929 455.04858 2085.95 1787392
-1230.1506 456.48065 2092.5146 1918976
-1226.25 459.68204 2107.1897 1261312
-1225.6683 464.20648 2127.9299 1655808
-1226.385 469.32217 2151.3804 2313479
-1213.5945 469.32217 2151.3804 800512
-1176.4313 459.79636 2107.7139 1458432
-1119.6346 442.3093 2027.5529 1458688
-1107.5803 442.3093 2027.5529 1063936
-1098.2761 443.41971 2032.6429 1129472
-1091.8018 445.70999 2043.1417 1589760
-1074.1068 443.41971 2032.6429 1392128
-1063.0436 443.8461 2034.5977 800000
-1043.7218 440.79459 2020.6095 866048
-1031.7087 440.79459 2020.6095 997632
-1007.7804 435.64386 1996.9984 866048
-995.90771 435.64386 1996.9984 668672
-991.60425 438.99484 2012.3594 1589760
-986.4328 442.03873 2026.3125 931840
-974.3858 442.03873 2026.3125 1195008
-988.39972 454.00952 2081.1868 668928
-971.48492 451.89697 2071.5029 932096
-945.05365 445.24664 2041.0176 2181896
-932.91925 445.24664 2041.0176 1326848
