# .PCD v0.7 - Point Cloud Data file format
VERSION 0.7
FIELDS x y z rgb
SIZE 4 4 4 4
TYPE F F F U
COUNT 1 1 1 1
WIDTH 1429
HEIGHT 1
VIEWPOINT 0 0 0 1 0 0 0
POINTS 1429
DATA ascii
0 0 0 0
0 0 0 0
0 0 0 0
0 0 0 0
0 0 0 0
0 0 0 0
0 0 0 0
0 0 0 0
0 0 0 0
0 0 0 0
0 0 0 0
0 0 0 0
0 0 0 0
0 0 0 0
0 0 0 0
0 0 0 0
0 0 0 0
0 0 0 0
0 0 0 0
0 0 0 0
0 0 0 0
0 0 0 0
0 0 0 0
0 0 0 0
0 0 0 0
2957.6221 -1409.6777 3575.917 5328729
2978.8821 -1409.6777 3575.917 6844271
2836.3308 -1332.7078 3380.668 3095095
2780.8193 -1297.4307 3291.1809 2439212
2949.3008 -1366.4233 3466.1938 2505515
2993.2107 -1377.1445 3493.3904 2308646
2863.1086 -1308.2086 3318.5212 3095095
0 0 0 0
0 0 0 0
0 0 0 0
3107.564 -1381.8168 3505.2422 13945813
0 0 0 0
0 0 0 0
0 0 0 0
3099.1653 -1342.0817 3404.4465 3359328
3229.8948 -1389.618 3525.0317 7831189
3250.8518 -1389.618 3525.0317 4542037
3209.0376 -1362.9573 3457.4016 14344672
3078.9248 -1299.3723 3296.106 10065823
0 0 0 0
0 0 0 0
0 0 0 0
0 0 0 0
0 0 0 0
0 0 0 0
0 0 0 0
0 0 0 0
0 0 0 0
0 0 0 0
0 0 0 0
-7336.4043 -3175.4568 8178.4956 2897966
-8201.0889 -3573.4065 9203.4287 4214336
-8222.165 -3606.6528 9289.0557 1714971
-8618.666 -3806.1431 9802.8496 4938573
-8560.3867 -3806.1431 9802.8496 4478021
-8618.9551 -3858.4536 9937.5771 5464915
-8559.874 -3858.4536 9937.5771 5398358
-8593.8838 -3900.7075 10046.403 527884
-8907.3994 -4071.3062 10485.786 1779238
-9123.8721 -4199.6416 10816.318 2634038
-13290.957 -6161.1396 15868.223 4738649
-13420.225 -6265.5371 16137.101 8619156
-13324.421 -6265.6001 16137.265 13355985
-9180.251 -4348.1777 11198.878 13618900
-9068.3271 -4326.5444 11143.16 13619153
-8574.6934 -4121.1367 10614.126 13619410
-8511.5898 -4121.1367 10614.126 13619409
-8051.9341 -3927.7007 10115.925 13619410
-8000.0596 -3931.7634 10126.389 13619410
-8039.3594 -3981.0371 10253.295 13553874
-8195.7969 -4089.5129 10532.678 13488335
-9168.2129 -4609.9482 11873.076 9408675
-9240.3818 -4682.2866 12059.386 5460849
-9110.9219 -4652.7876 11983.411 13357516
-8822.0488 -4540.7725 11694.912 13422543
-8646.3643 -4485.6997 11553.07 13488340
-8065.917 -4218.0737 10863.791 13160401
-8001.3281 -4218.0737 10863.791 12107720
-8026.7539 -4265.9131 10987.002 12568784
-7961.4331 -4265.9131 10987.002 12438483
-7896.4829 -4266.1133 10987.518 5005934
-7831.1592 -4266.1133 10987.518 1188401
-7854.1133 -4314.6079 11112.418 9544115
-8612.1299 -4771.1533 12288.266 11583689
-9275.1045 -5182.4067 13347.462 6059905
-8866.4941 -4996.8491 12869.553 1583157
-9299.5361 -5286.5166 13615.601 3425871
-8551.9648 -4904.2334 12631.018 2767683
-7389.6821 -4275.2485 11011.046 1780785
-7492.1201 -4373.2549 11263.465 1977650
-7425.1553 -4373.2549 11263.465 2241079
-7434.7236 -4418.7412 11380.616 2109493
-6966.061 -4178.2212 10761.149 1714734
-6895.4365 -4174.1982 10750.787 2833729
-6935.3784 -4237.6572 10914.229 3161924
-6767.604 -4174.1982 10750.787 1845808
-6805.6016 -4237.6572 10914.229 2306872
-6949.6304 -4368.9961 11252.497 2503735
-7109.6631 -4513.0474 11623.505 2635320
-6352.2729 -4071.8516 10487.19 1845293
-6142.2563 -3976.2578 10240.985 1647913
-6196.4531 -4051.5032 10434.782 2437429
-6139.7412 -4055.0205 10443.842 3293251
-6175.3311 -4120.1938 10611.697 3227457
-6960.1797 -4691.7793 12083.835 2898750
-6975.0483 -4750.8394 12235.946 3885645
-6902.3018 -4750.8394 12235.946 2240820
-6288.2012 -4374.2573 11266.046 2438455
-6217.1348 -4371.3838 11258.646 2240820
-6150.1987 -4371.3838 11258.646 3951438
-6374.5142 -4580.6743 11797.681 3556169
-6349.7461 -4613.6411 11882.588 1648429
-8526.4697 -6264.9219 16135.517 3226951
-6972.0991 -5181.1221 13344.154 3621965
-6429.7749 -4833.104 12447.821 2503483
-6650.2256 -5057.0171 13024.517 2832191
-6689.8257 -5147.062 13256.431 2108212
-6832.519 -5319.5176 13700.596 8423315
-7396.604 -5828.1714 15010.651 10132905
-7151.1211 -5703.5576 14689.705 1843754
-6299.3032 -5086.2861 13099.901 3357507
-6976.4526 -5703.5576 14689.705 2831933
-6316.8062 -5229.7363 13469.361 2766139
-6589.0732 -5525.1924 14230.318 3160642
-6552.5996 -5566.0757 14335.614 5987691
-6467.3706 -5566.0757 14335.614 8227219
-6382.1411 -5566.0757 14335.614 2504507
-6263.6426 -5536.668 14259.874 3556681
-5534.4438 -4959.2251 12772.65 3029825
-5458.5068 -4959.2251 12772.65 3358533
-5591.042 -5151.3003 13267.348 3424583
-5512.1641 -5151.3003 13267.348 3753548
-5573.4546 -5284.1948 13609.621 2766907
-5718.6162 -5501.6938 14169.797 4082767
-5599.7041 -5467.8418 14082.609 8425871
-5309.4824 -5263.147 13555.411 9873573
-4552.8545 -4582.6802 11802.848 6780789
-5044.0127 -5156.5322 13280.821 3293761
-5222.4712 -5423.8755 13969.374 4938587
-5394.6963 -5693.2817 14663.238 6715510
-5307.519 -5693.2817 14663.238 6517875
-5744.5781 -6265.0107 16135.746 4610145
-5648.6465 -6265.0107 16135.746 5728876
-5553.6816 -6266.1021 16138.556 4675678
-5457.8887 -6266.2803 16139.015 5991279
-5362.0464 -6266.4072 16139.342 5267299
-5266.0933 -6266.4072 16139.342 8949910
-5169.1748 -6265.2368 16136.327 13487573
0 0 0 0
0 0 0 0
0 0 0 0
0 0 0 0
0 0 0 0
0 0 0 0
0 0 0 0
-4392.3354 -6251.9136 16102.014 13750737
-4296.6045 -6251.9136 16102.014 13750737
-4200.8647 -6251.8999 16101.979 13750737
-4105.1416 -6251.9126 16102.011 13750737
-4009.4512 -6251.9751 16102.173 13750737
-3913.7017 -6251.9478 16102.102 13750737
-3721.7639 -6094.4092 15696.355 13750737
-3598.5396 -6044.1797 15566.987 13750737
-3416.2576 -5889.4858 15168.569 13750737
-3327.5239 -5892.0493 15175.172 13750737
-3240.3354 -5897.5679 15189.384 13750737
-3153.573 -5904.2007 15206.467 13750737
-3065.3643 -5908.4375 15217.379 13750737
-2978.4214 -5915.4453 15235.428 13750737
-2890.0059 -5919.877 15246.842 13750737
-2807.0813 -5936.2075 15288.901 13750737
-2708.7124 -5919.877 15246.842 13750737
-2609.5398 -5900.5986 15197.189 13750737
-2457.2827 -5755.5996 14823.739 13684944
-2521.416 -6125.5093 15776.455 13684944
-2482.9963 -6265.2368 16136.327 13619151
-2387.3271 -6265.9341 16138.124 13750736
-2291.3013 -6265.7148 16137.559 13553614
-2195.5476 -6266.2534 16138.946 13027530
-2099.5972 -6266.2534 16138.946 12038075
-2003.6409 -6266.2358 16138.9 6906993
-1907.6907 -6266.2358 16138.9 6582138
-1811.4888 -6265.3652 16136.659 5857903
-1715.4703 -6265.0674 16135.892 6123135
-1619.7177 -6265.7632 16137.683 5728633
-1523.7625 -6265.7124 16137.554 6517895
-1427.9231 -6266.1646 16138.717 6583944
-1331.8425 -6265.5459 16137.125 6518921
0 0 0 0
0 0 0 0
0 0 0 0
0 0 0 0
0 0 0 0
0 0 0 0
0 0 0 0
0 0 0 0
-465.12769 -6221.9697 16024.892 13750735
-369.85986 -6222.0474 16025.092 13750737
-274.58395 -6221.9956 16024.959 13750737
-179.31111 -6221.9956 16024.959 13750737
-84.038879 -6222.0405 16025.074 13750737
11.234725 -6222.084 16025.186 13750737
106.51015 -6222.1562 16025.372 13750737
201.7883 -6222.2441 16025.599 13750737
297.06625 -6222.272 16025.67 13750737
392.34332 -6222.272 16025.67 13750737
487.6257 -6222.3389 16025.844 13750737
582.90765 -6222.3809 16025.95 13750737
678.19635 -6222.4722 16026.186 13750737
773.47937 -6222.4951 16026.245 13750737
868.76086 -6222.502 16026.263 13750737
964.05688 -6222.6016 16026.52 13750737
1059.3544 -6222.6914 16026.751 13750737
1193.65 -6432.9404 16568.254 13750737
1291.7271 -6430.8203 16562.793 13750737
1382.8113 -6396.6528 16474.795 13750737
1475.3722 -6373.3853 16414.867 13750737
1571.0383 -6365.5859 16394.779 13750737
1668.5099 -6365.5859 16394.779 13750737
1764.1902 -6359.1294 16378.151 13750737
1843.9576 -6298.9897 16223.26 13750737
1897.2625 -6158.9253 15862.519 13750737
1991.5696 -6158.9253 15862.519 13750737
2086.4402 -6160.5884 15866.803 13750737
2180.6511 -6160.2456 15865.92 13750737
2274.7261 -6159.5625 15864.16 13750737
2369.3059 -6160.2456 15865.92 13750737
2443.5505 -6110.0298 15736.587 13750737
2481.3889 -5975.8413 15390.979 13750737
2657.6912 -6172.7959 15898.243 13619151
2784.1311 -6244.3892 16082.633 13553358
2889.6824 -6265.9326 16138.12 13290186
2985.6284 -6265.9341 16138.123 13553358
3081.5742 -6265.9341 16138.123 12961221
3177.5198 -6265.9341 16138.123 13619151
3273.4653 -6265.9341 16138.123 13684944
3367.0579 -6261.5581 16126.853 13750737
3462.3362 -6260.4727 16124.057 13750737
3532.0911 -6214.5376 16005.751 13750737
3635.1956 -6228.1519 16040.813 13750737
3760.606 -6278.3081 16169.994 13750737
3875.2075 -6308.3696 16247.418 13750737
3966.0933 -6299.3018 16224.062 13750737
4029.9766 -6248.7939 16093.978 13750737
4070.303 -6164.9492 15878.034 13750737
4135.1611 -6121.2197 15765.407 13750737
4228.8906 -6121.2197 15765.407 13750737
4170.438 -5905.7163 15210.37 13750737
4061.2568 -5629.0479 14497.802 13750737
4070.9038 -5525.1562 14230.226 13750737
4151.9624 -5520.4443 14218.09 13750737
4296.8276 -5599.0649 14420.579 13750737
4419.8848 -5646.7471 14543.387 13750737
4378.3882 -5486.4038 14130.418 13750737
4419.6797 -5433.8833 13995.149 13750737
4502.8848 -5433.8833 13995.149 13750737
4586.8047 -5434.731 13997.332 13750737
4719.1484 -5491.9009 14144.575 13750737
4912.9541 -5617.3428 14467.655 13750737
4944.6387 -5556.292 14310.417 13750737
5029.7178 -5556.292 14310.417 13750737
5171.8682 -5618.2891 14470.093 13750737
5282.6064 -5644.6924 14538.095 13750737
5610.8574 -5898.9258 15192.881 13750737
5373.4141 -5559.7876 14319.42 13750737
5306.5688 -5404.9907 13920.735 13750737
4966.7197 -4981.1514 12829.122 13750737
4657.8125 -4600.6943 11849.243 13750737
3859.845 -3755.7092 9672.9551 13750737
3809.5522 -3652.3564 9406.7666 13750737
4294.3706 -4057.6023 10450.491 13750737
4356.502 -4057.6023 10450.491 13750737
4446.124 -4082.8472 10515.51 13750737
5373.3955 -4865.9341 12532.376 13750737
5708.7358 -5098.9023 13132.395 13750737
5927.394 -5222.7729 13451.428 13750737
6163.5742 -5358.5791 13801.201 13750737
6499.7021 -5576.5698 14362.643 13750737
7283.4321 -6167.957 15885.781 13750737
7490.0728 -6261.7539 16127.356 13684944
7591.4077 -6266.2549 16138.95 13619664
7687.6055 -6266.4565 16139.469 13554384
7783.5591 -6266.4565 16139.469 8622486
6909.4692 -5494.9956 14152.546 7044739
7973.9805 -6265.2881 16136.461 6914438
8069.9155 -6265.2881 16136.461 7110789
8166.1519 -6265.519 16137.055 6913920
8262.5742 -6265.8848 16137.997 6453112
8359.2148 -6266.4072 16139.342 5861233
8456.2949 -6267.2417 16141.492 8821660
8552.3252 -6267.2896 16141.615 10071471
8647.8604 -6266.9766 16140.81 5795692
8743.8223 -6266.9766 16140.81 5137506
8839.0469 -6266.4551 16139.465 5005920
8935.2812 -6266.6519 16139.972 4940126
9031.958 -6267.1514 16141.258 4939873
9128.209 -6267.3477 16141.765 5399654
9224.3975 -6267.4985 16142.152 8755097
9319.0752 -6266.6294 16139.915 10069932
9415.0303 -6266.6294 16139.914 11712960
9510.9873 -6266.6294 16139.915 13422550
9606.9434 -6266.6294 16139.914 13619158
9703.1699 -6266.8032 16140.363 13618390
9799.9434 -6267.3242 16141.705 13420753
9895.9111 -6267.3252 16141.707 12631235
9992.1523 -6267.4966 16142.149 13682128
10087.844 -6267.3242 16141.704 12627396
10183.252 -6266.9805 16140.818 2761263
10280.633 -6267.8452 16143.047 6452081
10377.471 -6268.3672 16144.391 4412495
10473.171 -6268.1978 16143.954 4938580
10567.092 -6266.9766 16140.809 8557965
10662.08 -6266.4043 16139.335 7176570
0 0 0 0
0 0 0 0
0 0 0 0
0 0 0 0
0 0 0 0
0 0 0 0
0 0 0 0
0 0 0 0
0 0 0 0
0 0 0 0
0 0 0 0
0 0 0 0
0 0 0 0
0 0 0 0
0 0 0 0
0 0 0 0
0 0 0 0
0 0 0 0
0 0 0 0
0 0 0 0
0 0 0 0
0 0 0 0
0 0 0 0
0 0 0 0
0 0 0 0
0 0 0 0
0 0 0 0
0 0 0 0
0 0 0 0
0 0 0 0
2807.5918 -1290.1664 3322.8667 3690036
3087.1658 -1408.726 3628.2209 3624756
3108.7363 -1408.726 3628.2209 3295276
3098.9846 -1394.6299 3591.916 3294774
3089.531 -1380.86 3556.4514 4740677
0 0 0 0
0 0 0 0
3010.345 -1318.3995 3395.5823 13815251
2895.5464 -1259.6752 3244.3357 13815763
0 0 0 0
3034.8511 -1302.9196 3355.7131 5656149
3087.7527 -1316.9736 3391.9099 4672078
3107.9187 -1316.9736 3391.9099 3487543
3097.4526 -1304.0771 3358.6946 3818053
0 0 0 0
0 0 0 0
0 0 0 0
0 0 0 0
0 0 0 0
0 0 0 0
0 0 0 0
0 0 0 0
0 0 0 0
0 0 0 0
0 0 0 0
0 0 0 0
0 0 0 0
-7469.9976 -3183.7715 8327.4229 1515801
-7653.8198 -3283.8826 8589.2715 2305574
-7602.7544 -3283.8826 8589.2715 2831920
-8071.9912 -3510.1384 9181.0625 1451036
-8560.3867 -3747.8625 9802.8496 2833200
-8686.3076 -3829.0618 10015.233 3030578
-8653.6123 -3840.979 10046.403 3294007
-8593.8838 -3840.979 10046.403 5267796
-8907.3994 -4008.9656 10485.786 1451299
-10452.076 -4737.3354 12390.898 2371890
-12961.936 -5916.6143 15475.402 4740182
-13419.15 -6169.1035 16135.81 3752523
-12777.925 -5916.6143 15475.402 6779777
-9822.6846 -4581.2236 11982.576 8093586
-9366.3623 -4400.3125 11509.387 8290448
-9013.1328 -4265.5269 11156.845 7894917
-8925.2363 -4255.2451 11129.951 12632268
-8547.8311 -4105.7515 10738.938 13553362
-8219.9756 -3977.9861 10404.757 13553617
-8158.1167 -3977.9861 10404.757 13422802
-8585.3594 -4218.2993 11033.317 13423058
-8789.748 -4351.9741 11382.954 13160653
-9240.3818 -4610.5903 12059.386 11252413
-8891.5781 -4471.2432 11694.912 9147303
-8715.0508 -4417.0137 11553.07 10529216
-8209.2793 -4193.7285 10969.049 5596537
-8061.0366 -4150.9727 10857.219 5921651
-8001.3281 -4153.4854 10863.791 10395827
-8026.7539 -4200.5923 10987.002 10659254
-7961.4331 -4200.5923 10987.002 7834518
-9520.666 -5064.8262 13247.479 2437953
-9441.9062 -5064.8262 13247.479 2569537
-7371.4712 -3987.4648 10429.55 2569278
-9019.5205 -4920.3359 12869.553 5134946
-9275.1045 -5103.0518 13347.462 2637888
-8866.4941 -4920.3359 12869.553 3097414
-8627.0605 -4829.1387 12631.018 2900033
-8273.3154 -4671.79 12219.46 2307642
-7389.6821 -4209.7847 11011.046 1846834
-7846.582 -4510.0269 11796.354 1780271
-7425.1553 -4306.2905 11263.465 2043443
-7964.6807 -4661.231 12191.842 1977650
-7179.8799 -4240.5278 11091.457 1845808
-7113.9385 -4240.5278 11091.457 2372408
-7037.5933 -4234.2686 11075.085 2503481
-6870.4897 -4172.769 10914.229 2569531
-6805.6016 -4172.769 10914.229 1713965
-7178.7681 -4443.9424 11623.505 2372149
-6738.8882 -4212.187 11017.329 2503735
-6352.2729 -4009.5024 10487.19 3292738
-6754.9697 -4305.9453 11262.562 2766907
-6722.6182 -4328.2266 11320.841 2503991
-6655.3125 -4328.2266 11320.841 2569527
-6380.0796 -4191.6216 10963.538 2043182
-6544.584 -4344.0791 11362.304 2570039
-6249.7173 -4191.6216 10963.538 2964796
-6585.5322 -4463.3999 11674.397 2636088
-6211.8218 -4254.9595 11129.204 2503734
-6215.2939 -4303.1733 11255.312 1977390
-6273.7231 -4390.9009 11484.771 1911598
-6257.6543 -4427.8452 11581.401 2766650
-6322.4897 -4523.4956 11831.583 2568502
-8135.6333 -5886.2173 15395.896 6187374
-7339.3857 -5370.5469 14047.117 6121326
-6892.7646 -5101.7876 13344.154 2699576
-6650.2256 -4979.5825 13024.517 2107188
-6689.8257 -5068.2485 13256.431 2962240
-6832.519 -5238.0635 13700.596 5264229
-7396.604 -5738.9287 15010.651 3619406
-7290.3062 -5725.5342 14975.616 8950688
-7063.7866 -5616.2236 14689.705 5267560
-6976.4526 -5616.2236 14689.705 2570304
-6673.6768 -5440.5894 14230.318 2438204
-6589.0732 -5440.5894 14230.318 2832705
-6906.8462 -5777.1519 15110.626 10003884
-6817.0093 -5777.1519 15110.626 9478306
-6083.9058 -5224.728 13665.716 2703425
-5820.7197 -5066.3672 13251.51 3557453
-6481.6392 -5719.041 14958.633 4478297
-5943.5342 -5317.2031 13907.592 2701372
-6272.499 -5690.6685 14884.422 3556682
-6101.1465 -5614.418 14684.982 3359302
-6095.5151 -5690.6685 14884.422 2964544
-5857.8521 -5549.353 14514.8 4609365
-5634.373 -5417.4502 14169.797 4478548
-5049.2344 -4928.5293 12890.982 3623240
-4704.147 -4662.4609 12195.06 3557447
-4895.9531 -4928.5293 12890.982 3623241
-4954.4429 -5066.7217 13252.437 4280657
-5390.1011 -5601.3301 14650.749 4610136
-4959.4443 -5238.4482 13701.602 4281174
-5744.5781 -6169.0796 16135.746 4018258
-5095.4771 -5564.9443 14555.58 3689040
-5385.749 -5983.5801 15650.557 4478811
-5457.7334 -6170.1538 16138.556 5596521
-5362.0464 -6170.4541 16139.342 5530985
-5265.3608 -6169.5957 16137.097 6518393
0 0 0 0
-4917.5986 -5980.0342 15641.282 5857643
0 0 0 0
0 0 0 0
0 0 0 0
0 0 0 0
0 0 0 0
0 0 0 0
-4392.3467 -6156.1987 16102.056 13750737
-4296.6157 -6156.1987 16102.056 13750737
-4200.8647 -6156.1694 16101.979 13750737
-4105.165 -6156.2163 16102.102 13750737
-4009.4902 -6156.3037 16102.33 13750737
-3913.7417 -6156.2798 16102.267 13750737
-3722.1733 -6001.7505 15698.083 13750737
-3598.8792 -5952.1914 15568.458 13750737
-3418.4023 -5802.9453 15178.092 13750737
-3330.4714 -5806.9678 15188.612 13750737
-3243.6711 -5813.2407 15205.021 13750737
-3154.9668 -5816.3633 15213.188 13750737
-3069.0623 -5824.9844 15235.736 13750737
-2978.4214 -5824.8662 15235.428 13750737
-2886.0493 -5821.2495 15225.968 13750737
-2795.3059 -5820.7896 15224.765 13750737
-2704.7903 -5820.7896 15224.765 13750737
-2614.2749 -5820.7896 15224.765 13750737
-2457.2827 -5667.4683 14823.739 13619151
-2579.2188 -6169.9897 16138.127 13619151
-2483.4106 -6170.3311 16139.02 13421516
-2387.6125 -6170.7266 16140.055 13619153
-2291.6558 -6170.7266 16140.055 13553360
-2195.5476 -6170.3032 16138.946 13159630
-2099.5913 -6170.2856 16138.9 5724783
-2003.5991 -6170.1572 16138.564 9937077
-1907.6509 -6170.1572 16138.564 6977419
-1811.5635 -6169.6831 16137.324 5794171
-1712.5076 -6158.481 16108.024 6254466
-1619.7517 -6169.9492 16138.021 5464949
-1523.9315 -6170.4556 16139.345 5399413
-1427.9786 -6170.4556 16139.345 5399670
-1331.8372 -6169.5815 16137.059 6715786
0 0 0 0
0 0 0 0
0 0 0 0
0 0 0 0
0 0 0 0
0 0 0 0
0 0 0 0
-563.16626 -6156.9385 16103.99 13619407
-466.43146 -6143.8706 16069.811 13684945
-370.89017 -6143.8408 16069.732 13684945
-274.58459 -6126.7373 16024.997 13684945
-179.31137 -6126.7314 16024.981 13750737
-84.038963 -6126.7729 16025.091 13750737
11.234716 -6126.8047 16025.173 13750737
106.50954 -6126.8447 16025.278 13750737
201.78665 -6126.9175 16025.468 13750737
297.06311 -6126.9297 16025.5 13750737
392.33807 -6126.9126 16025.455 13750737
487.61975 -6126.9863 16025.648 13750737
582.90393 -6127.0625 16025.848 13750737
678.19269 -6127.1587 16026.1 13750737
773.47504 -6127.1807 16026.155 13750737
868.75531 -6127.1821 16026.16 13750737
964.05139 -6127.2852 16026.43 13750737
1059.3479 -6127.3711 16026.654 13750737
1201.4977 -6376.083 16677.182 13750737
1300.6482 -6376.083 16677.182 13750737
1390.1974 -6332.3496 16562.793 13750737
1480.7585 -6298.7056 16474.795 13750737
1576.7015 -6290.7095 16453.879 13750737
1680.4065 -6312.8071 16511.678 13750737
1764.3004 -6262.1475 16379.174 13750737
1826.1838 -6142.752 16066.884 13750737
1893.4391 -6052.3965 15830.552 13750737
1987.5559 -6052.3965 15830.552 13750737
2095.5779 -6092.8242 15936.294 13750737
2193.0923 -6100.5259 15956.438 13750737
2288.2012 -6101.1743 15958.135 13750737
2383.0767 -6101.1743 15958.135 13750737
2466.958 -6074.105 15887.333 13750737
2477.001 -5873.9321 15363.764 13750737
2679.6296 -6128.4507 16029.479 13619151
2793.8921 -6170.3301 16139.018 13553358
2890.2444 -6171.187 16141.259 13553358
2986.0439 -6170.8467 16140.368 13487565
3082.0029 -6170.8467 16140.368 12961221
3177.6956 -6170.3296 16139.016 13619151
3273.4653 -6169.9883 16138.123 13684944
3369.4104 -6169.9873 16138.12 13750737
3453.0378 -6148.0542 16080.753 13750737
3548.5415 -6147.8804 16080.298 13750737
3644.1436 -6147.8804 16080.298 13750737
3745.1282 -6156.729 16103.442 13750737
3875.2075 -6211.7744 16247.418 13750737
3971.8027 -6211.7744 16247.418 13750737
4035.6201 -6161.7275 16116.516 13750737
4105.0005 -6122.2988 16013.387 13750737
4195.3926 -6115.2856 15995.043 13750737
4253.9897 -6063.2637 15858.977 13750737
4330.7383 -6038.8101 15795.016 13750737
4084.4924 -5574.5664 14580.747 13750737
4101.3008 -5481.1782 14336.482 13750737
4186.5352 -5481.1782 14336.482 13750737
4333.4199 -5560.2827 14543.387 13750737
4537.043 -5707.6699 14928.891 13750737
4356.582 -5375.4883 14060.042 13750737
4419.6797 -5350.6782 13995.149 13750737
4488.9331 -5334.1001 13951.787 13750737
4566.9868 -5328.3906 13936.854 13750737
4644.0859 -5321.791 13919.592 13750737
4726.8418 -5321.791 13919.592 13750737
4785.938 -5295.6113 13851.117 13750737
4849.2168 -5274.8682 13796.86 13750737
4931.2432 -5274.8682 13796.86 13750737
5128.7046 -5396.3271 14114.547 13750737
5610.8574 -5808.5996 15192.881 13750737
5316.0005 -5416.1602 14166.422 13750737
5103.7632 -5118.8242 13388.715 13750737
5041.3384 -4978.5679 13021.863 13750737
4657.8125 -4530.2476 11849.243 13750737
4138.6411 -3965.3215 10371.632 13750737
5207.2666 -4915.9507 12858.083 13750737
5283.7109 -4915.9507 12858.083 13750737
5281.5811 -4843.8872 12669.595 13750737
5356.9053 -4843.8872 12669.595 13750737
5507.8784 -4911.3428 12846.03 13750737
5611.563 -4935.3638 12908.858 13750737
5846.292 -5072.4341 13267.378 13750737
6448.957 -5520.8384 14440.218 13750481
6643.6265 -5612.7725 14680.678 13619921
7394.1909 -6165.8721 16127.356 13619664
7495.4575 -6170.3047 16138.95 13488078
7591.5498 -6170.4199 16139.252 12962250
7687.502 -6170.4199 16139.252 12306378
0 0 0 0
6909.4692 -5410.8545 14152.546 6979205
7973.9038 -6169.2939 16136.307 6123640
8069.4678 -6169.0098 16135.564 5794676
8165.4712 -6169.0654 16135.709 5795187
8261.4023 -6169.0654 16135.709 5926773
8359.167 -6170.4185 16139.248 5400424
8456.3584 -6171.3232 16141.615 9084319
8552.8027 -6171.667 16142.515 5465447
8648.292 -6171.3232 16141.615 5728874
8743.0938 -6170.501 16139.465 5071456
8839.0469 -6170.501 16139.465 6058096
8935.9941 -6171.187 16141.259 5334630
9032.458 -6171.5293 16142.153 6189683
9128.4277 -6171.5293 16142.153 7307649
9224.9111 -6171.8721 16143.051 4544086
9320.627 -6171.7007 16142.603 5728359
9415.2949 -6170.8462 16140.367 7373185
9511.2539 -6170.8462 16140.367 13159376
9607.2109 -6170.8447 16140.363 13619155
9703.168 -6170.8438 16140.36 13618899
9799.6709 -6171.186 16141.256 13684436
9895.3633 -6171.0166 16140.812 13420752
9991.876 -6171.3574 16141.704 7697539
10087.841 -6171.3555 16141.699 6579826
10183.811 -6171.3574 16141.704 3620676
10281.208 -6172.2158 16143.95 5398111
10376.607 -6171.8706 16143.047 4346445
10471.711 -6171.3574 16141.704 4214857
10566.504 -6170.6719 16139.91 4939096
10661.574 -6170.1587 16138.569 6583666
0 0 0 0
0 0 0 0
0 0 0 0
0 0 0 0
0 0 0 0
0 0 0 0
0 0 0 0
0 0 0 0
0 0 0 0
0 0 0 0
0 0 0 0
0 0 0 0
0 0 0 0
0 0 0 0
0 0 0 0
0 0 0 0
0 0 0 0
0 0 0 0
0 0 0 0
0 0 0 0
0 0 0 0
0 0 0 0
0 0 0 0
0 0 0 0
0 0 0 0
0 0 0 0
0 0 0 0
0 0 0 0
0 0 0 0
0 0 0 0
0 0 0 0
3087.1658 -1387.1552 3628.2209 3229742
3108.7363 -1387.1552 3628.2209 3032113
3098.9846 -1373.2749 3591.916 3228980
3089.531 -1359.7159 3556.4514 2567723
0 0 0 0
0 0 0 0
3010.345 -1298.2118 3395.5823 13880019
3052.3823 -1307.5718 3420.0637 9799570
2967.4133 -1262.7611 3302.8579 4605007
3067.5869 -1296.8077 3391.9099 4873055
3087.7527 -1296.8077 3391.9099 10200493
3107.9187 -1296.8077 3391.9099 11378350
3097.4526 -1284.1088 3358.6946 2957868
3080.7644 -1269.0094 3319.2009 9015445
0 0 0 0
0 0 0 0
0 0 0 0
0 0 0 0
0 0 0 0
0 0 0 0
0 0 0 0
0 0 0 0
0 0 0 0
0 0 0 0
0 0 0 0
-7519.5063 -3134.2629 8327.4229 1383962
-8225.3516 -3451.1943 9169.4775 1383961
-8181.7388 -3455.7993 9181.7129 1054998
-8051.9185 -3423.8093 9096.7188 3095095
-8563.0234 -3665.7612 9739.5605 2700080
-8560.3867 -3689.5818 9802.8496 1647906
-9427.6992 -4091.2534 10870.051 1779494
-9380.623 -4098.9214 10890.425 2240044
-9517.0117 -4187.4199 11125.555 2042665
-10074.832 -4463.8818 11860.087 1318945
-10595.45 -4727.6411 12560.869 2371377
-12411.941 -5577.4614 14818.757 2502962
-12654.617 -5727.1626 15216.498 2635577
-12104.571 -5517.6709 14659.899 4477782
-10922.079 -5014.7593 13323.714 4083537
-9751.4453 -4509.9839 11982.576 4543578
-9680.2051 -4509.9839 11982.576 5133659
-9229.5098 -4331.8857 11509.387 11712187
-8547.8311 -4041.9053 10738.938 13488596
-8321.0361 -3964.2734 10532.678 13225422
-8664.2178 -4159.0698 11050.231 13488593
-8648.9141 -4183.4448 11114.994 13488334
-8747.0254 -4263.4756 11327.628 9016991
-8785.3115 -4315.3623 11465.485 10265529
-8891.5781 -4401.7134 11694.912 13357526
-8715.0508 -4348.3271 11553.07 13094613
-8326.5566 -4187.4941 11125.752 8292503
-8065.917 -4088.8975 10863.791 2830665
-8194.2656 -4187.4941 11125.752 11515580
-8150.9199 -4199.2402 11156.96 13227225
-8377.6406 -4351.4546 11561.38 5859447
-8532.5469 -4468.5781 11872.565 2373185
-8461.9619 -4468.5781 11872.565 3161416
-7371.4712 -3925.4585 10429.55 5399406
-9268.2637 -4977.4072 13224.474 11386309
-9427.209 -5106.082 13566.35 1717046
-9195.75 -5023.6978 13347.462 2373692
-8433.5605 -4647.4131 12347.712 1781556
-7806.9663 -4339.8984 11530.675 2109237
-7295.1577 -4091.3091 10870.198 1385513
-7812.749 -4420.75 11745.49 1451306
-7742.9185 -4420.75 11745.49 1911857
-7964.6807 -4588.7471 12191.842 1911857
-7754.897 -4508.917 11979.741 1451047
-7235.2549 -4245.7769 11280.604 1911599
-7193.312 -4260.6572 11320.14 2174000
-6971.7485 -4168.4238 11075.085 2831930
-6769.0249 -4085.8035 10855.57 2371377
-6790.9741 -4138.5103 10995.608 3029307
-6738.8882 -4146.686 11017.329 2765879
-6222.8594 -3866.7385 10273.537 2306354
-6703.7412 -4206.8384 11177.148 2569526
-6688.0107 -4238.9858 11262.562 2240561
-6655.3125 -4260.9214 11320.841 2043181
-6553.5933 -4238.6631 11261.704 1845802
-6566.7856 -4291.0347 11400.85 2175024
-6477.0322 -4276.5269 11362.304 2833211
-6431.2236 -4291.0347 11400.85 2635832
-6210.0508 -4187.5986 11126.03 2372917
-6215.2939 -4236.2573 11255.312 2833468
-6273.7231 -4322.6211 11484.771 2306357
-6205.9302 -4322.9604 11485.673 2569528
-6137.645 -4322.9604 11485.673 2569018
-8123.6909 -5786.1782 15373.296 2634553
-7680.0981 -5532.4697 14699.219 2174520
-7255.8721 -5287.0332 14047.117 5989487
-6401.9175 -4719.1099 12538.203 2632508
-6327.374 -4719.1099 12538.203 3616577
-6832.519 -5156.6099 13700.596 5591139
-7951.4395 -6073.4814 16136.633 14146270
-7855.5967 -6073.5542 16136.825 11976128
-7324.4707 -5732.9292 15231.818 3357762
-7112.2378 -5636.5 14975.616 3753039
-6673.6768 -5355.9858 14230.318 2174515
-6589.0732 -5355.9858 14230.318 2174772
-6906.8462 -5687.3149 15110.626 4081741
-6817.0093 -5687.3149 15110.626 12700879
-6662.374 -5632.5327 14965.075 1451819
-6573.4023 -5632.5327 14965.075 2767423
-6765.3208 -5876.5205 15613.326 3425095
-6392.7061 -5630.1079 14958.633 2832956
-6582.9561 -5879.4561 15621.126 3228485
-6184.0073 -5602.1763 14884.422 4544344
-6305.5591 -5795.2202 15397.32 3425862
-5864.5132 -5469.271 14531.306 3821131
-5671.52 -5368.3687 14263.218 4084047
-5445.4253 -5232.5952 13902.481 4676184
-4972.5938 -4851.8887 12890.982 2504760
-5044.0127 -4998.6157 13280.821 3097154
-4860.6978 -4893.5532 13001.682 3623241
-4752.0195 -4861.4512 12916.389 4084562
-4554.7422 -4736.166 12583.519 3952720
-4598.4365 -4861.4512 12916.389 4215636
-4796.5244 -5156.9883 13701.602 4544604
-4887.2744 -5345.3384 14202.029 4215641
-5292.7021 -5890.5332 15650.557 3886676
-5361.2593 -6073.6104 16136.974 3886933
-5093.0337 -5874.8745 15608.954 5399659
-4816.2666 -5658.728 15034.673 5398633
-4917.5986 -5887.0425 15641.282 4805725
0 0 0 0
0 0 0 0
0 0 0 0
0 0 0 0
0 0 0 0
0 0 0 0
-4392.3467 -6060.4678 16102.056 13750737
-4296.6372 -6060.4985 16102.138 13750737
-4200.8882 -6060.4731 16102.071 13750737
-4105.2231 -6060.5708 16102.33 13750737
-4009.6477 -6060.8091 16102.963 13750737
-3913.7812 -6060.6074 16102.428 13750737
-3751.2402 -5954.5601 15820.67 13750737
-3628.4497 -5907.7793 15696.378 13750737
-3423.0479 -5720.4712 15198.719 13750737
-3335.7932 -5725.8018 15212.882 13750737
-3249.6003 -5733.3037 15232.813 13750737
-3162.6982 -5739.9482 15250.469 13750737
-3074.1785 -5743.9629 15261.134 13750737
-2976.572 -5730.7271 15225.968 13750737
-2872.7168 -5704.2534 15155.63 13750737
-2769.0071 -5676.3628 15081.527 13750737
-2696.3323 -5712.355 15177.155 13750737
-2651.021 -5810.8184 15438.763 13750737
-2674.9412 -6073.5371 16136.779 13684942
-2579.3613 -6074.3799 16139.02 13685198
-2483.4106 -6074.3799 16139.02 12631752
-2387.4595 -6074.3799 16139.02 13487822
-2291.4541 -6074.2354 16138.636 13422547
-2195.3589 -6073.8301 16137.559 12765135
-2099.5476 -6074.209 16138.564 5726062
-2003.5991 -6074.209 16138.564 5858677
-1907.6509 -6074.209 16138.564 6715271
-1811.5635 -6073.7422 16137.324 5793657
-1710.2704 -6054.7939 16086.98 5596792
-1619.7517 -6074.0044 16138.021 4609896
-1523.9426 -6074.5464 16139.462 4807275
-1427.989 -6074.5464 16139.462 5465719
-1331.8876 -6073.8721 16137.67 5926270
0 0 0 0
0 0 0 0
0 0 0 0
0 0 0 0
0 0 0 0
0 0 0 0
0 0 0 0
-563.16626 -6061.1958 16103.99 13553871
-466.55688 -6049.9575 16074.132 13685456
-370.892 -6048.3311 16069.811 13685457
-275.34766 -6048.2251 16069.529 13685457
-179.80656 -6048.1147 16069.236 13750737
-84.269348 -6048.0342 16069.021 13750737
11.265448 -6048.0293 16069.008 13750737
106.51015 -6031.6055 16025.372 13750737
201.78648 -6031.6367 16025.455 13750737
297.06192 -6031.6294 16025.436 13750737
392.33807 -6031.6367 16025.455 13750737
487.61459 -6031.646 16025.479 13750737
582.89948 -6031.7383 16025.725 13750737
678.18842 -6031.8413 16025.998 13750737
773.46741 -6031.8413 16025.998 13750737
868.75018 -6031.8667 16026.066 13750737
964.05139 -6032.0034 16026.43 13750737
1098.2355 -6253.52 16614.977 13750737
1202.616 -6282.7754 16692.705 13750737
1301.3981 -6280.5518 16686.797 13750737
1400.0813 -6278.1997 16680.549 13750737
1491.3076 -6244.9336 16592.164 13750737
1586.0243 -6229.5039 16551.168 13750737
1680.9054 -6216.4849 16516.578 13750737
1712.7878 -5984.7754 15900.949 13750737
1805.3055 -5978.0933 15883.195 13750737
1898.1847 -5973.2134 15870.229 13684944
1994.7932 -5979.9746 15888.194 13684944
2109.647 -6038.3481 16043.286 13750737
2205.0349 -6038.3652 16043.331 13750737
2300.4106 -6038.3481 16043.286 13750737
2395.5454 -6037.7246 16041.631 13750737
2485.4094 -6024.375 16006.161 13750737
2580.2788 -6023.6938 16004.352 13684943
2692.4612 -6062.041 16106.236 13554127
2793.7368 -6074.0415 16138.12 12106683
2890.2444 -6075.2227 16141.259 13422285
2986.2087 -6075.2227 16141.259 13488076
3082.3452 -6075.5625 16142.161 13092807
3177.7839 -6074.5474 16139.464 13684944
3273.7373 -6074.5474 16139.464 13750737
3369.5977 -6074.3784 16139.016 13750737
3453.0378 -6052.4497 16080.753 13750737
3553.6494 -6060.9893 16103.442 13750737
3654.1624 -6068.918 16124.507 13750737
3745.1282 -6060.9893 16103.442 13750737
3900.4133 -6154.9541 16353.097 13750737
4071.606 -6268.8403 16655.682 13750737
4042.2832 -6075.9253 16143.126 13750737
4123.3862 -6054.0889 16085.108 13750737
4200.2041 -6027.0947 16013.387 13750737
4295.2559 -6026.8809 16012.818 13750737
4341.2061 -5959.2729 15833.192 13750737
4209.5391 -5655.8911 15027.137 13750737
4147.4502 -5456.6606 14497.802 13750737
4189.9619 -5400.3604 14348.217 13750737
4333.4199 -5473.8184 14543.387 13750737
4774.5596 -5913.0659 15710.425 13750737
4378.1641 -5318.1128 14129.693 13750737
4440.1729 -5291.8975 14060.042 13750737
4514.23 -5280.7451 14030.411 13750737
4571.8804 -5251.1528 13951.787 13750737
4644.0859 -5239.0352 13919.592 13750737
4703.5894 -5213.2627 13851.117 13750737
4742.4912 -5165.9365 13725.377 13750737
4824.0923 -5165.9365 13725.377 13750737
4905.6938 -5165.9365 13725.377 13750737
4963.4551 -5141.2432 13659.769 13750737
5022.1504 -5118.2969 13598.802 13750737
5161.3032 -5176.7754 13754.174 13750737
5150.7705 -5085.6372 13512.029 13750737
5231.103 -5085.6372 13512.029 13750737
5143.3672 -4924.7134 13084.471 13750737
5419.0024 -5111.3247 13580.278 13750737
5499.7412 -5111.3247 13580.278 13750737
5454.5205 -4995.9551 13273.753 13750737
5360.1562 -4839.5059 12858.083 13750737
5590.1797 -4976.2173 13221.312 13750737
5668.7842 -4976.2173 13221.312 13750737
5689.4199 -4926.0269 13087.96 13750737
6078.6826 -5192.0498 13794.757 13750737
6680.4307 -5630.0664 14958.522 13750481
6821.2505 -5673.2207 15073.18 13619664
7399.5068 -6074.354 16138.95 13553616
7495.8745 -6074.6919 16139.848 13093836
7591.6523 -6074.5493 16139.469 10858417
7686.9663 -6074.0439 16138.126 8360854
6558.5972 -5118.5479 13599.469 7308168
7868.125 -6065.7695 16116.143 7505292
7963.9395 -6065.7695 16116.143 5860724
7986.8027 -6010.8667 15970.271 5466222
8121.2822 -6040.2681 16048.388 5400428
8261.3281 -6073.0796 16135.564 5729650
8358.6836 -6074.1157 16138.316 5598062
8455.7275 -6074.9028 16140.409 6321528
8552.8008 -6075.6943 16142.512 6584187
8647.8604 -6075.0537 16140.81 5334375
8743.3623 -6074.7344 16139.962 5071204
8839.7891 -6075.0576 16140.82 4873569
8935.9941 -6075.2227 16141.259 5531499
9032.7109 -6075.7295 16142.604 7044738
9128.4277 -6075.5596 16142.153 8557977
9224.9111 -6075.897 16143.051 5136484
9320.6279 -6075.729 16142.604 6648697
9416.5996 -6075.7285 16142.603 7633794
9511.7842 -6075.2256 16141.267 12171455
9607.2129 -6074.8872 16140.367 13091786
9702.6299 -6074.5479 16139.466 13486800
9799.3994 -6075.0537 16140.81 13289422
9895.3633 -6075.0547 16140.812 12171458
9991.876 -6075.3901 16141.704 8224399
10087.844 -6075.3901 16141.704 2962232
10184.096 -6075.5601 16142.155 5003610
10280.923 -6076.0679 16143.504 3885128
10376.607 -6075.8955 16143.047 3227968
10470.732 -6074.8228 16140.196 2899003
10565.789 -6074.3042 16138.818 2439736
10661.404 -6074.1138 16138.312 13359318
0 0 0 0
0 0 0 0
0 0 0 0
0 0 0 0
0 0 0 0
0 0 0 0
0 0 0 0
0 0 0 0
0 0 0 0
0 0 0 0
0 0 0 0
0 0 0 0
0 0 0 0
0 0 0 0
0 0 0 0
0 0 0 0
0 0 0 0
0 0 0 0
0 0 0 0
0 0 0 0
0 0 0 0
0 0 0 0
0 0 0 0
0 0 0 0
0 0 0 0
0 0 0 0
0 0 0 0
0 0 0 0
0 0 0 0
0 0 0 0
3109.2598 -1385.035 3679.8997 3294511
3131.1377 -1385.035 3679.8997 3163696
3108.7363 -1365.5844 3628.2209 3294514
2873.3132 -1253.4717 3330.3489 528396
0 0 0 0
0 0 0 0
3081.3696 -1317.0092 3499.1616 11772854
3225.5947 -1369.4072 3638.3777 3618372
3148.6765 -1327.8473 3527.9573 4011328
3072.7156 -1287.2385 3420.0637 2959404
3217.3494 -1338.9689 3557.5061 10595761
3054.8018 -1263.0183 3355.7131 13092300
3284.9841 -1349.3752 3585.155 13946582
0 0 0 0
0 0 0 0
0 0 0 0
0 0 0 0
0 0 0 0
0 0 0 0
0 0 0 0
0 0 0 0
0 0 0 0
0 0 0 0
0 0 0 0
0 0 0 0
0 0 0 0
-8290.9141 -3401.2117 9181.7129 659469
-8498.9092 -3509.6458 9474.4355 1186583
-8181.7388 -3401.2117 9181.7129 726033
-8386.2529 -3509.6458 9474.4355 1055256
-8749.6094 -3686.4717 9951.7842 1844773
-9140.3867 -3877.3367 10467.032 2108202
-9445.3701 -4034.1753 10890.425 1582114
-9701.8027 -4172.2998 11263.298 2897976
-10362.631 -4487.4648 12114.1 3292477
-10358.172 -4516.9272 12193.634 3094843
-12218.432 -5365.6909 14484.907 1647654
-12132.32 -5365.6934 14484.914 1516584
-12091.003 -5385.6479 14538.783 2503478
-12004.566 -5385.6479 14538.783 2503481
-11821.095 -5341.7998 14420.412 1845553
-11460.854 -5216.8467 14083.097 2174515
-11117.887 -5097.9761 13762.2 4410449
-11036.067 -5097.9761 13762.2 5790816
-10565.739 -4917.1689 13274.104 7895936
-8781.0781 -4117.3633 11114.994 13357010
-8873.6758 -4192.3301 11317.371 13488594
-8648.9141 -4117.3633 11114.994 13290959
-8747.0254 -4196.1299 11327.628 8294041
-8785.3115 -4247.1968 11465.485 4869992
-9354.9482 -4557.9487 12304.373 13027796
-9281.7949 -4557.9487 12304.373 13422805
-8326.5566 -4121.3481 11125.752 12898004
-8260.4111 -4121.3481 11125.752 5662059
-9107.7188 -4580.7739 12365.991 5398639
-8417.7871 -4268.2236 11522.248 7174279
-8349.2842 -4268.2236 11522.248 8687258
-8280.7812 -4268.2236 11522.248 5397352
-7964.9316 -4139.6685 11175.208 3358539
-7879.6016 -4129.7676 11148.48 8360347
-8977.5811 -4745.1426 12809.711 8228760
-9650.4277 -5144.4194 13887.576 1255213
-9567.8623 -5144.4194 13887.576 2635582
-7875.519 -4271.3452 11530.675 1714737
-7722.4668 -4225.1133 11405.871 2043444
-7680.2642 -4239.2485 11444.029 1846321
-7643.7954 -4256.8291 11491.489 2043187
-7689.4907 -4320.8975 11664.443 1977650
-7826.4541 -4437.8838 11980.253 1648172
-7754.897 -4437.6938 11979.741 1516843
-7198.2295 -4157.3262 11222.876 1516842
-7193.312 -4193.3555 11320.14 2107951
-7028.0088 -4135.686 11164.458 4081997
-6856.3462 -4073.1389 10995.608 1582374
-6790.9741 -4073.1389 10995.608 3226944
-6977.5386 -4225.7153 11407.496 3095101
-6821.9287 -4172.0269 11262.562 1450018
-6754.9697 -4172.0269 11262.562 1647654
-6722.6182 -4193.6152 11320.841 1845290
-6655.3125 -4193.6152 11320.841 1845545
-6612.1357 -4208.9746 11362.304 1977388
-6619.2871 -4257.0181 11491.999 2701111
-6499.0044 -4223.2534 11400.85 2438196
-6317.415 -4148.5176 11199.097 2503732
-6210.0508 -4121.4512 11126.03 2108975
-6218.5249 -4171.5088 11261.163 2634548
-6273.7231 -4254.3403 11484.771 2502450
-6230.5229 -4271.5352 11531.188 2895925
-6137.645 -4254.6748 11485.673 4805722
-6670.6489 -4676.1846 12623.556 2634042
-7680.0981 -5445.0791 14699.219 2305334
-6840.1602 -4905.3931 13242.313 3750985
-6761.4307 -4905.3931 13242.313 2829887
-6026.3677 -4423.6157 11941.735 8882329
0 0 0 0
-7587.4141 -5703.8867 15397.881 3422279
-7855.6836 -5977.6826 16137.005 5791081
-7759.6582 -5977.6162 16136.825 5659745
-7663.8057 -5977.6826 16137.005 7961731
-7108.9268 -5615.1768 15158.405 3229513
-6589.0732 -5271.3823 14230.318 2242360
-6100.3716 -4943.8911 13346.241 6912381
-5944.0522 -4880.689 13175.624 6846331
-5941.6772 -4943.8911 13346.241 2240821
-6573.4023 -5543.561 14965.075 2372408
-6867.1421 -5870.7422 15848.314 2306615
-6714.5615 -5820.1582 15711.761 2175027
-6777.4307 -5957.5322 16082.607 2701628
-6703.936 -5977.2549 16135.851 3030334
-6477.854 -5859.5283 15818.042 2636090
-6214.0176 -5703.6787 15397.32 2438453
-5671.52 -5283.5698 14263.218 3030847
-5083.104 -4807.2798 12977.454 3031104
-4972.5938 -4775.2485 12890.982 3162433
-4895.9531 -4775.2485 12890.982 2833211
-4814.876 -4770.8516 12879.114 3293762
-4656.48 -4688.4639 12656.705 3754570
-4386.1499 -4488.8154 12117.745 4215891
-4479.9292 -4661.3535 12583.519 4413271
-4523.2812 -4786.3911 12921.063 4545115
-4616.0386 -4968.9321 13413.84 3886676
-4536.2896 -4968.9321 13413.84 3623761
-5185.8335 -5782.0752 15608.954 3820883
-4942.6582 -5611.355 15148.088 5464938
-4852.5986 -5611.355 15148.088 4740959
-5073.8037 -5978.0957 16138.12 5332065
-4978.2729 -5978.5938 16139.465 13687258
-4881.9126 -5978.0957 16138.12 10726580
0 0 0 0
0 0 0 0
0 0 0 0
0 0 0 0
-4392.3467 -5964.7363 16102.056 13750737
-4296.6621 -5964.8013 16102.23 13750737
-4200.9546 -5964.8359 16102.325 13750737
-4105.3843 -5965.0723 16102.963 13750737
-4009.7595 -5965.2388 16103.412 13750737
-3913.9343 -5965.1079 16103.059 13750737
-3751.2402 -5860.5015 15820.67 13750737
-3628.4497 -5814.46 15696.378 13750737
-3426.345 -5635.5332 15213.357 13750737
-3338.2515 -5639.5103 15224.095 13750737
-3250.2239 -5643.8228 15235.736 13750737
-3163.2271 -5650.2251 15253.019 13750737
-3075.2786 -5655.2539 15266.595 13750737
-2962.8213 -5614.1489 15155.63 13750737
-2830.7092 -5532.0532 14934.01 13750737
-2681.6211 -5410.3906 14605.576 13750737
-2664.21 -5555.1445 14996.346 13684944
-2668.1794 -5756.0464 15538.688 13684946
-2675.4187 -5978.6665 16139.66 13553617
-2579.709 -5979.2349 16141.194 13553874
-2483.5876 -5978.8555 16140.171 8485526
-2387.6299 -5978.8555 16140.171 7036023
-2291.4541 -5978.2871 16138.636 12695753
-2195.176 -5977.3901 16136.215 13616852
-2099.5396 -5978.2378 16138.504 5859704
-2003.5991 -5978.2607 16138.564 5794423
-1907.6509 -5978.2607 16138.564 5069674
-1811.5131 -5977.6348 16136.875 5004653
-1715.6117 -5977.7632 16137.223 4807277
-1619.7517 -5978.0596 16138.021 4807533
-1523.8159 -5978.0957 16138.119 4873070
-1427.91 -5978.2622 16138.568 4676202
-1331.9246 -5978.0957 16138.119 4544874
0 0 0 0
0 0 0 0
0 0 0 0
0 0 0 0
0 0 0 0
0 0 0 0
-660.27142 -5977.7881 16137.289 12700367
-564.38464 -5978.3589 16138.83 13619663
-468.39008 -5977.7881 16137.289 13619920
-370.892 -5952.7915 16069.811 13685457
-275.34784 -5952.6909 16069.539 13685457
-179.80879 -5952.6528 16069.436 13750737
-84.270393 -5952.5728 16069.22 13750737
11.265477 -5952.5103 16069.051 13750737
106.80026 -5952.499 16069.021 13750737
202.32877 -5952.314 16068.521 13750737
297.06311 -5936.3774 16025.5 13750737
392.34067 -5936.4004 16025.561 13750737
487.6171 -5936.4004 16025.561 13750737
582.89948 -5936.4609 16025.725 13750737
678.18842 -5936.562 16025.998 13750737
773.46741 -5936.562 16025.998 13750737
868.74811 -5936.5732 16026.028 13750737
964.04565 -5936.6865 16026.334 13750737
1093.0553 -6125.7085 16536.607 13750737
1202.616 -6183.5322 16692.705 13750737
1301.3981 -6181.3438 16686.797 13750737
1400.6057 -6181.3438 16686.797 13750737
1500.7941 -6185.3862 16697.709 13750737
1600.0985 -6185.5093 16698.041 13750737
1623.7417 -5910.2207 15954.889 13750737
1709.479 -5878.8604 15870.229 13750737
1803.8318 -5878.8604 15870.229 13684944
1899.7355 -5883.6631 15883.195 13619151
2013.3568 -5940.2861 16036.051 13487565
2122.4126 -5978.9277 16140.365 13619151
2218.2485 -5978.5957 16139.47 13684944
2314.073 -5978.2622 16138.569 13684944
2409.8875 -5977.9302 16137.673 13684944
2505.9697 -5978.2622 16138.569 13554128
2601.7009 -5977.7637 16137.224 13356492
2697.6414 -5977.7637 16137.224 13488078
1933.8029 -4137.9917 11170.682 12303548
2889.9236 -5978.5947 16139.468 13290699
2986.126 -5979.0933 16140.812 13290699
3082.4287 -5979.7549 16142.599 13422285
3177.873 -5978.7612 16139.917 13553872
3273.8291 -5978.7612 16139.917 13684944
3369.5979 -5978.4287 16139.019 13684944
0 0 0 0
3558.2974 -5973.0532 16124.507 13750737
3649.3887 -5965.25 16103.442 13750737
3714.3687 -5916.2568 15971.183 13750737
3781.8542 -5873.5967 15856.021 13750737
3904.2751 -5916.2568 15971.183 13750737
4030.8921 -5963.0986 16097.635 13750737
4120.5591 -5954.3735 16074.081 13750737
4200.2041 -5931.8901 16013.387 13750737
4295.4082 -5931.8901 16013.387 13750737
4390.4116 -5931.6191 16012.654 13750737
4209.5391 -5566.5508 15027.137 13750737
4245.0688 -5496.8721 14839.036 13750737
4189.9619 -5315.0562 14348.217 13750737
4435.5713 -5514.3491 14886.216 13750737
4547.0254 -5542.3242 14961.737 13750737
4518.5996 -5401.999 14582.923 13750737
4462.1689 -5234.1079 14129.693 13750737
4523.7637 -5208.3066 14060.042 13750737
4603.2959 -5203.7188 14047.657 13750737
4682.5728 -5199.0103 14034.946 13750737
4769.3354 -5202.6333 14044.727 13750737
4830.686 -5178.8877 13980.624 13750737
4849.2168 -5110.8154 13796.86 13750737
4931.2432 -5110.8154 13796.86 13750737
5010.623 -5108.1177 13789.578 13750737
5016.0942 -5031.373 13582.402 13750737
5096.8457 -5031.373 13582.402 13750737
5177.5967 -5031.373 13582.402 13750737
5324.8481 -5095.0029 13754.174 13750737
5428.8086 -5115.9121 13810.619 13750737
5852.7573 -5433.2515 14667.289 13750737
5795.4849 -5301.1016 14310.546 13750737
5751.7178 -5184.9502 13996.991 13750737
5798.3198 -5152.4155 13909.162 13750737
5791.8721 -5074.3179 13698.333 13750737
5883.6558 -5083.2539 13722.457 13750737
6025.0259 -5134.2002 13859.989 13750737
6116.1099 -5141.4995 13879.693 13750737
6325.0776 -5246.3838 14162.833 13750481
6857.9136 -5613.6177 15154.196 13422799
7399.5068 -5978.4033 16138.95 13358032
7496.0337 -5978.8633 16140.191 9608357
7591.6538 -5978.5967 16139.473 8689055
7686.9663 -5978.0981 16138.126 7045258
7781.792 -5977.2378 16135.804 6848134
7874.9351 -5975.1216 16130.092 6781827
7873.6221 -5902.2505 15933.372 5663347
7968.3501 -5902.2505 15933.372 5597297
8081.7515 -5915.9185 15970.271 5268331
8262.0312 -5977.6577 16136.938 5137001
8358.8994 -5978.3223 16138.731 5597807
8455.2578 -5978.6118 16139.514 5268586
8551.6865 -5978.9443 16140.41 5070947
8647.3809 -5978.7607 16139.915 5005155
8743.3369 -5978.7607 16139.915 4741983
8839.7832 -5979.0923 16140.81 4676445
8935.751 -5979.0962 16140.82 4150101
9032.458 -5979.5898 16142.153 5399654
9128.4277 -5979.5898 16142.153 4807518
9224.3984 -5979.5898 16142.153 4939103
9319.3311 -5978.9243 16140.357 7110015
9415.8193 -5979.2617 16141.267 13293012
9509.9316 -5978.0972 16138.123 13357779
9607.2129 -5978.9282 16140.367 13488337
9702.6299 -5978.5942 16139.466 13553617
9799.1289 -5978.9268 16140.363 13946836
9894.9678 -5978.8545 16140.169 5592923
9991.3223 -5979.0923 16140.81 6647410
10087.284 -5979.0923 16140.81 4608335
10184.092 -5979.5884 16142.149 5332570
10280.923 -5980.0903 16143.504 3819584
10376.317 -5979.7539 16142.596 2965048
10471.312 -5979.1953 16141.089 3030586
10565.517 -5978.1997 16138.401 4149068
10660.951 -5977.9131 16137.627 7499891
0 0 0 0
0 0 0 0
0 0 0 0
0 0 0 0
0 0 0 0
0 0 0 0
0 0 0 0
0 0 0 0
0 0 0 0
0 0 0 0
0 0 0 0
0 0 0 0
0 0 0 0
0 0 0 0
0 0 0 0
0 0 0 0
0 0 0 0
0 0 0 0
0 0 0 0
0 0 0 0
0 0 0 0
0 0 0 0
0 0 0 0
0 0 0 0
0 0 0 0
0 0 0 0
0 0 0 0
0 0 0 0
0 0 0 0
0 0 0 0
3109.2598 -1363.1571 3679.8997 2702121
3131.1377 -1363.1571 3679.8997 2702123
0 0 0 0
0 0 0 0
0 0 0 0
0 0 0 0
3119.0564 -1312.059 3541.9583 9595526
3261.6418 -1362.8378 3679.0376 12040141
3247.2258 -1347.776 3638.3777 13092040
3072.7156 -1266.9052 3420.0637 6053989
3186.5574 -1305.2062 3523.4587 12895694
0 0 0 0
0 0 0 0
0 0 0 0
0 0 0 0
0 0 0 0
0 0 0 0
0 0 0 0
0 0 0 0
0 0 0 0
0 0 0 0
0 0 0 0
0 0 0 0
0 0 0 0
0 0 0 0
0 0 0 0
-7964.2554 -3214.7681 8819.957 4148796
-8498.9092 -3453.3176 9474.4355 3884860
-8538.5869 -3492.5872 9582.1748 4608330
-8808.7764 -3627.3054 9951.7842 264454
-9136.0986 -3787.5312 10391.376 1976869
-9286.2314 -3875.9812 10634.045 1976359
-9684.6172 -4069.9727 11166.274 1844775
-9775.624 -4136.5742 11349.001 1976361
-10430.666 -4444.4326 12193.634 1910568
-10358.172 -4444.4326 12193.634 857881
-10885.433 -4703.5864 12904.643 989724
-11807.923 -5138.4097 14097.612 1055775
-11805.136 -5173.9219 14195.043 1121568
-11960.087 -5279.5767 14484.914 2437174
-11821.095 -5256.0664 14420.412 3227460
-11597.572 -5194.353 14251.098 2043440
-11117.887 -5016.1562 13762.2 3029310
-11036.067 -5016.1562 13762.2 5068892
-10565.739 -4838.251 13274.104 5396577
-8821.2188 -4069.8005 11165.803 7961741
-8664.2178 -4027.676 11050.231 9276826
-8663.416 -4058.0737 11133.63 12237766
-8783.5732 -4146.0347 11374.957 12898777
-9198.5303 -4375.5928 12004.767 3424594
-9168.5098 -4395.4165 12059.154 9873078
-8927.3701 -4313.5435 11834.53 10069687
-8400.498 -4091.2131 11224.55 11122632
-8333.7646 -4091.2131 11224.55 10727619
-8648.249 -4279.8711 11742.146 5529715
-8446.376 -4213.9834 11561.38 4015708
-8349.2842 -4199.7207 11522.248 7634835
-8280.7812 -4199.7207 11522.248 6714247
-7964.9316 -4073.2288 11175.208 7109002
-7898.4927 -4073.2288 11175.208 3621204
-8977.5811 -4668.9854 12809.711 10661812
-9077.7314 -4761.4629 13063.43 1778472
-8776.4932 -4643.1826 12738.919 2306613
-7790.2778 -4157.3022 11405.871 1780271
-7722.4668 -4157.3022 11405.871 1780016
-7712.1152 -4188.5093 11491.489 1648685
-7643.7954 -4188.5093 11491.489 1582378
-7689.4907 -4251.5493 11664.443 1977393
-7673.0884 -4281.0898 11745.49 1515815
-7755.2285 -4366.6577 11980.253 1647915
-7439.9248 -4227.9536 11599.708 1779244
-7370.9614 -4227.9536 11599.708 1647145
-7090.9863 -4105.7749 11264.502 1647143
-7024.0156 -4105.7749 11264.502 1778472
-6823.5854 -4027.0125 11048.41 857883
-6759.5029 -4027.9678 11051.031 1976109
-6909.7178 -4157.8945 11407.496 1976877
-6703.7412 -4073.9358 11177.148 1516838
-7018.9531 -4308.1992 11819.867 3359042
-6608.5493 -4097.3164 11241.295 2437939
-6566.9146 -4113.0986 11284.595 2108974
-6619.2871 -4188.6948 11491.999 2241073
-6432.7339 -4113.0986 11284.595 2899003
-6317.415 -4081.9355 11199.097 2175536
-6210.0508 -4055.304 11126.03 2635320
-6218.5249 -4104.5581 11261.163 2701112
-6196.6201 -4134.6143 11343.625 2436915
-6345.7612 -4280.7163 11744.466 10792114
-6388.9277 -4357.7852 11955.911 6646644
-6317.8467 -4357.7852 11955.911 2175030
-6891.7393 -4807.7231 13190.35 3029057
-6813.3188 -4807.7231 13190.35 2765116
-6401.9175 -4570.0239 12538.203 3356228
-5783.4321 -4177.1558 11460.339 2303028
0 0 0 0
-7951.5156 -5881.6646 16136.788 3092797
-7855.5967 -5881.6782 16136.825 2633273
-7759.6582 -5881.6782 16136.825 3883081
-7663.0884 -5881.1934 16135.495 8358030
-7386.6606 -5740.9106 15750.618 2240306
-7018.8062 -5525.0562 15158.405 1845804
-6202.8271 -4946.2437 13570.391 2240308
-6021.0244 -4864.5439 13346.241 5332323
-6889.6206 -5640.6401 15475.519 1977393
-7011.2681 -5817.9292 15961.925 1780012
-6968.6621 -5861.9165 16082.607 2174770
-6895.8452 -5881.3608 16135.954 1911598
-6799.9849 -5881.4238 16136.127 2043184
-6704.0513 -5881.4238 16136.127 2306356
-6608.0044 -5881.3232 16135.851 1780269
-6418.0142 -5796.3755 15902.791 2175028
-6323.4678 -5796.3755 15902.791 2306867
-5445.4253 -5067.2871 13902.481 2570553
-5005.9492 -4730.1255 12977.454 3557705
-4876.2427 -4679.6919 12839.085 3162945
-4799.9106 -4679.6919 12839.085 3426117
-4656.48 -4613.2163 12656.705 3755340
-4386.1499 -4416.772 12117.745 2768447
-4368.1567 -4472.1079 12269.563 2373945
-4295.2104 -4472.1079 12269.563 3689295
-4487.5 -4753.0386 13040.317 3952726
