# .PCD v0.7 - Point Cloud Data file format
VERSION 0.7
FIELDS x y z rgb
SIZE 4 4 4 4
TYPE F F F U
COUNT 1 1 1 1
WIDTH 1393
HEIGHT 1
VIEWPOINT 0 0 0 1 0 0 0
POINTS 1393
DATA ascii
2729.8647 297.11319 10649.057 256
2792.2468 297.01434 10645.513 256
2855.5374 297.01434 10645.513 256
2935.0024 298.66019 10704.504 256
2998.6436 298.66019 10704.504 256
3077.2227 300.11707 10756.721 256
3141.1743 300.11707 10756.721 594182
3327.4041 311.56677 11167.098 857350
3440.384 315.84378 11320.394 1318667
3507.6868 315.84378 11320.394 858372
3525.8154 311.49933 11164.681 1779724
3582.9639 310.6991 11135.998 1910798
3592.8066 305.90012 10963.995 923138
3438.7258 287.56406 10306.799 1777421
3350.5378 275.28387 9866.6553 2566171
3397.9509 274.3757 9834.1055 196864
3456.4177 274.3757 9834.1055 657664
3514.8838 274.3757 9834.1055 526850
3385.1958 259.92847 9316.291 3750959
3440.5837 259.92847 9316.291 3158312
3632.1938 270.05673 9679.3047 789504
3687.8689 269.91974 9674.3955 855553
3747.2864 270.05673 9679.3047 2237460
3950.853 280.42084 10050.773 1514253
6438.6768 450.19098 16135.631 1252106
6535.0254 450.21976 16136.663 659461
6631.4487 450.25275 16137.846 396292
6727.541 450.2627 16138.202 593415
6823.3364 450.25275 16137.846 856843
6918.8584 450.22528 16136.861 988429
7014.4365 450.20215 16136.032 1646103
6944.166 439.67877 15758.856 921868
7051.311 440.51929 15788.981 263683
7302.1211 450.19507 16135.778 512
7398.2471 450.20694 16136.203 66561
7493.8584 450.18753 16135.508 4081475
6736.1802 399.55582 14320.778 6318438
6821.3208 399.55582 14320.778 1842975
6793.6182 393.0275 14086.793 790543
5902.1797 337.29745 12089.331 263429
5974.0537 337.29745 12089.331 0
6399.6338 357.0304 12796.594 256
7264.623 400.52597 14355.552 256
7616.0449 415.0253 14875.232 256
7902.3281 425.68286 15257.218 256
8453.1436 450.18671 16135.479 197890
8550.0703 450.23917 16137.359 65792
8646.4648 450.26282 16138.206 0
8742.5742 450.27118 16138.507 461063
8838.2451 450.25705 16138 987406
8934.5244 450.27396 16138.605 395269
9031.0645 450.30341 16139.662 131841
9126.4219 450.27396 16138.605 592392
9222.084 450.25995 16138.104 922127
9317.8486 450.25125 16137.792 256
9413.6455 450.2442 16137.539 256
9508.9551 450.21423 16136.465 0
9605.0273 450.22064 16136.695 256
9700.9648 450.22064 16136.695 132611
9796.9014 450.22064 16136.695 527880
9893.3828 450.24539 16137.583 922380
9989.3262 450.24539 16137.583 1053967
10085.329 450.2482 16137.682 66048
10181.272 450.2482 16137.682 256
10266.986 449.80002 16121.619 197888
10335.364 448.6077 16078.884 592646
10324.396 444.02475 15914.623 256
10303.843 439.11658 15738.706 256
10428.118 440.41336 15785.185 256
10759.018 450.33551 16140.812 512
10854.982 450.33566 16140.816 263427
10951.243 450.34796 16141.259 1646104
11047.205 450.3479 16141.256 1580312
11142.538 450.32233 16140.34 1448725
11239.444 450.36032 16141.7 790284
11335.41 450.36032 16141.7 461319
11431.378 450.36032 16141.7 257
11525.428 450.2854 16139.016 256
11622.347 450.32294 16140.36 0
11717.7 450.29965 16139.527 256
11813.653 450.29965 16139.526 256
11908.816 450.26974 16138.454 256
12004.096 450.24466 16137.556 0
12087.841 449.79077 16121.288 768
12182.5 449.74701 16119.719 768
12278.497 449.75287 16119.93 256
12388.298 450.26041 16138.12 1024
12485.629 450.31033 16139.909 66817
12581.584 450.31033 16139.909 2896173
12661.636 449.74539 16119.661 66561
12757.392 449.74255 16119.56 198147
12866.954 450.22287 16136.775 0
12965.053 450.29794 16139.465 0
13061.728 450.32278 16140.356 132355
13157.686 450.32278 16140.356 512
13252.895 450.29733 16139.443 512
13348.849 450.29733 16139.443 512
13444.803 450.29733 16139.443 512
13540.774 450.29794 16139.466 512
13637.484 450.32294 16140.36 512
13733.063 450.31049 16139.914 512
13829.402 450.32294 16140.361 512
13925.362 450.32294 16140.361 768
14021.32 450.32294 16140.361 2050
14114.928 450.24792 16137.672 4081990
0 0 0 0
0 0 0 0
14404.988 450.31769 16140.173 9543589
14500.945 450.31769 16140.173 5925232
14598.512 450.36728 16141.95 4477786
14694.896 450.38 16142.406 4938594
14789.476 450.33765 16140.889 9018016
14884.846 450.31976 16140.247 7308682
14979.665 450.28549 16139.02 11190469
0 0 0 0
0 0 0 0
0 0 0 0
0 0 0 0
0 0 0 0
0 0 0 0
0 0 0 0
0 0 0 0
0 0 0 0
0 0 0 0
-14666.079 546.12085 16135.604 1024
-14570.148 546.12085 16135.604 1975837
-12859.307 485.18939 14335.331 512
-12712.506 482.85065 14266.231 256
-12282.852 469.66492 13876.648 256
-11614.122 447.09741 13209.873 256
-11593.246 449.33224 13275.902 256
-11457.049 447.09741 13209.873 256
-11435.389 449.33224 13275.902 256
-11279.938 446.30463 13186.448 512
-11432.524 455.50772 13458.361 256
-11524.514 462.40915 13662.271 0
-11179.069 451.73242 13346.817 0
-11571.143 470.91824 13913.679 789513
-13324.019 546.16058 16136.777 7369582
-13228.125 546.16248 16136.833 7764597
-13132.383 546.17053 16137.071 7370096
-13036.611 546.17761 16137.281 6909288
-12940.824 546.18408 16137.472 5725015
-12844.966 546.18762 16137.576 4212547
-12749.023 546.18762 16137.576 3093296
-12653.33 546.19836 16137.894 1316885
-12556.688 546.16803 16136.997 1118995
-12461.44 546.19836 16137.894 921616
-12365.497 546.19836 16137.894 460808
-12269.727 546.20612 16138.122 658443
-12174.118 546.22125 16138.569 723978
-12078.492 546.23584 16139 658442
-11981.89 546.20612 16138.122 987406
-11433.555 525.41705 15523.892 1250323
-11213.49 519.49768 15349 1315860
-11122.601 519.51465 15349.502 1381653
-11030.982 519.49768 15349 1250067
-10845.686 515.03192 15217.054 1315860
-10743.489 514.47028 15200.461 1184274
-10847.219 523.84393 15477.414 1184271
-10997.743 535.65723 15826.447 1184271
-10993.746 540.08331 15957.221 986893
-10979.297 544.06854 16074.966 921100
-10886.754 544.21979 16079.436 789514
-10815.442 545.44458 16115.623 526342
-10732.35 546.09174 16134.744 394499
-10637.253 546.13434 16136.002 196608
-10543.311 546.23743 16139.049 1446155
-10448.009 546.27142 16140.053 1643532
-10351.854 546.26093 16139.743 1841163
-10255.603 546.24518 16139.277 3157022
-10159.124 546.21692 16138.442 2565140
-10063.138 546.21484 16138.38 2433299
-9967.1914 546.21484 16138.381 1709835
-9870.291 546.16211 16136.822 1051397
-9774.3359 546.16113 16136.794 1249033
-9675.2227 545.98193 16131.5 985862
-9569.5518 545.42542 16115.057 591620
-9473.7441 545.42542 16115.057 0
-9046.5088 526.14954 15545.533 256
-8789.5645 516.48206 15259.9 256
-8861.6631 526.14954 15545.533 256
-8736.0234 524.15643 15486.646 256
-8301.9355 503.41714 14873.886 256
-7953.7871 487.49866 14403.561 256
-7841.4453 485.84378 14354.667 256
-7756.103 485.84378 14354.667 256
-7602.6909 481.53247 14227.285 256
-7477.627 478.93982 14150.683 256
-7369.8926 477.41074 14105.505 256
-7265.4214 476.06027 14065.604 256
-7170.6997 475.32465 14043.869 0
-7085.9834 475.24271 14041.448 0
-7003.7104 475.32465 14043.869 0
-6916.4976 475.06927 14036.324 0
-6814.23 473.76093 13997.669 0
-6706.811 472.05774 13947.347 256
-6623.8911 472.05774 13947.347 256
-6550.416 472.7395 13967.489 256
-6523.2217 476.82162 14088.1 256
-6447.2754 477.40005 14105.188 256
-6383.7471 478.92529 14150.254 256
-6279.5566 477.40005 14105.188 256
-6188.1948 476.8219 14088.107 256
-6094.6011 476.05362 14065.408 256
-6029.4688 477.51804 14108.675 256
-5965.2451 479.09671 14155.318 256
-5855.6333 477.02307 14094.052 256
-5764.4272 476.41043 14075.95 256
-5682.7852 476.58179 14081.013 256
-5613.834 477.8385 14118.144 256
-5572.6519 481.53284 14227.297 256
-5501.5552 482.71643 14262.266 66048
-5980.9121 532.99078 15747.665 0
-5520.7661 499.80869 14767.271 256
-5417.7168 498.40536 14725.81 256
-5330.1675 498.40536 14725.81 256
-5242.6187 498.40536 14725.81 256
-5153.5049 498.25412 14721.341 256
-4584.0078 450.85052 13320.761 256
-4698.3862 470.22375 13893.16 2
-4615.7876 470.22375 13893.16 2
-4533.1885 470.22375 13893.16 1
-4358.0415 460.44568 13604.258 1
-4230.5303 455.42578 13455.941 4
-4283.3472 469.99933 13886.528 4
-4200.7876 469.99933 13886.528 2
-3880.7021 442.89124 13085.597 0
-3445.729 401.29413 11856.575 263172
-3846.4895 457.32285 13511.991 263170
-3619.0986 439.46564 12984.385 196608
-3326.1648 412.69763 12193.502 262144
-2759.0278 349.95679 10339.771 655360
-2673.6995 346.862 10248.332 1312256
-2488.6782 330.388 9761.5938 7032090
-2411.415 327.77441 9684.373 4926727
-2353.8386 327.77441 9684.373 1770240
-2176.4526 310.67249 9179.082 1900800
-1764.9397 258.41144 7634.9849 1769472
-1425.4138 214.2094 6328.998 5710336
-1257.0833 194.03497 5732.9277 7749888
-1220.4071 193.62367 5720.7754 983040
-1186.3954 193.62367 5720.7754 983040
-1168.8529 196.39079 5802.5327 917504
-1176.0154 203.60342 6015.6357 2885888
-1187.4149 212.02504 6264.46 9847808
-1217.5554 224.44687 6631.4731 10043392
-1210.3844 230.5918 6813.0303 9714688
-1183.1495 233.20752 6890.3135 8204032
-1264.9395 258.27115 7630.8403 3081728
-1367.1022 289.51392 8553.9346 1048576
-1316.2467 289.51392 8553.9346 524288
-1280.0543 292.86874 8653.0557 327680
-1230.4293 293.30258 8665.873 262144
-1178.9083 293.30258 8665.873 262144
-1120.5509 291.52402 8613.3242 196608
-1050.5776 286.40842 8462.1797 196608
-1018.1337 291.52402 8613.3242 196608
-987.29028 297.66403 8794.7363 196608
-976.0791 310.74084 9181.1016 262144
-921.49493 310.74084 9181.1016 393216
-894.02979 320.46155 9468.3086 393216
-841.74365 321.99384 9513.5811 393216
-786.24243 322.42838 9526.4199 524288
-755.44666 333.8483 9863.8311 854276
-673.91791 322.88351 9539.8672 4538675
-537.43372 281.15405 8306.9346 4671035
-444.24902 255.92308 7561.4644 590080
-386.71091 247.85808 7323.1772 1115395
-341.45184 246.61528 7286.4575 589824
-292.5997 242.03909 7151.25 524288
-237.53915 229.89824 6792.5386 458752
-188.0442 219.27364 6478.6255 1247744
-149.52698 219.27364 6478.6255 1248000
-101.69672 200.87793 5935.1089 1378816
-66.410843 200.87793 5935.1089 1641472
-31.124966 200.87793 5935.1089 7235875
4.0767303 196.81407 5815.0386 6117141
38.648754 196.81407 5815.0386 1
88.321136 237.40314 7014.2773 1184529
134.02051 244.70206 7229.9302 723465
194.05186 268.2695 7926.2495 328192
250.20876 278.31741 8223.124 656643
304.60361 283.44098 8374.5039 590849
367.91626 294.25726 8694.0811 196608
426.32431 298.96936 8833.3027 0
485.71271 303.25995 8960.0723 0
550.2298 309.58807 9147.042 65792
619.83368 317.38251 9377.335 0
679.0993 319.03369 9426.1211 0
741.37158 321.73798 9506.0215 0
797.88757 321.73798 9506.0215 0
856.35693 322.4736 9527.7559 65536
894.40851 315.90631 9333.7197 131072
906.54163 301.48663 8907.6787 196608
959.50018 301.48663 8907.6787 393216
1009.0055 300.45831 8877.2959 655616
1039.5186 294.1579 8691.1445 721920
1091.1898 294.1579 8691.1445 393216
1208.5807 311.0733 9190.9238 196608
1263.2233 311.0733 9190.9238 65536
1276.077 301.20932 8899.4844 256
1325.743 300.47409 8877.7617 0
1343.006 292.73233 8649.0254 0
1314.1295 275.87552 8150.9761 0
1361.962 275.74847 8147.2231 0
1357.9043 265.48514 7843.9829 0
1369.6836 258.89676 7649.3242 0
0 0 0 0
0 0 0 0
0 0 0 0
0 0 0 0
0 0 0 0
1007.1838 158.75133 4690.4424 986892
0 0 0 0
1855.7716 277.15753 8188.8545 256
2158.3564 314.10788 9280.583 256
2246.439 318.77744 9418.5498 256
2563.6162 354.93857 10486.961 256
2704.0239 365.48953 10798.698 256
2729.8647 360.4248 10649.057 131842
2787.2307 359.65759 10626.389 329477
2850.4075 359.65759 10626.389 512
2935.0024 362.30145 10704.504 0
3015.4172 364.32809 10764.383 256
3129.3291 370.23352 10938.863 256
3193.6055 370.14563 10936.267 132609
3259.3982 370.23352 10938.863 263682
3360.918 374.29675 11058.915 528131
3450.5508 376.90567 11135.998 1383947
3516.7573 376.90567 11135.998 1647117
3574.9233 376.05988 11111.008 1054467
3456.2686 356.98178 10547.329 856321
3438.7258 348.84085 10306.799 987907
3412.2588 340.09555 10048.411 1513741
3439.6333 336.92514 9954.7393 2171413
3482.553 335.35898 9908.4658 592384
3552.1619 336.37225 9938.4033 460800
3600.3704 335.35898 9908.4658 4079152
3395.3459 311.17053 9193.7969 2105618
3628.9978 327.31464 9670.7881 394752
3686.4937 327.31464 9670.7881 723716
3767.6392 329.3822 9731.877 921100
3825.4978 329.3822 9731.877 10001046
4321.2319 366.52231 10829.213 6582900
6534.5981 546.12097 16135.606 9674904
6630.8975 546.15131 16136.504 923406
6727.3921 546.19672 16137.846 2238750
6823.4873 546.2088 16138.202 1252112
6918.6484 546.14685 16136.371 791304
7014.2803 546.12317 16135.673 329987
6732.521 517.11346 15278.556 329988
7082.0957 536.72229 15857.914 264451
7302.1211 546.12677 16135.778 330245
7398.6582 546.17151 16137.1 2435623
7493.8584 546.11761 16135.508 395528
7210.1235 518.79907 15328.358 0
6821.3208 484.69681 14320.778 527629
6793.6182 476.7774 14086.793 2304295
5824.271 403.77087 11929.753 4541773
5566.918 381.28656 11265.435 7832194
5573.2578 377.18286 11144.188 9805470
6383.1445 426.91855 12613.671 7962751
6521.9287 431.13562 12738.267 7831165
7809.5283 510.32712 15078.048 5264723
8382.0293 541.52222 15999.733 2764076
8549.333 546.13312 16135.966 1645339
8645.667 546.15851 16136.716 790030
8741.6045 546.15851 16136.716 0
8837.6025 546.16223 16136.827 0
8933.8682 546.18225 16137.419 460806
9030.4736 546.22247 16138.605 921614
9125.7861 546.18439 16137.481 66049
9221.7275 546.18439 16137.481 526855
9317.8486 546.19489 16137.792 724234
9413.6455 546.18634 16137.539 1645336
9508.9551 546.14996 16136.465 1513494
9604.8896 546.14996 16136.465 256
9700.8262 546.14996 16136.465 256
9796.7568 546.14972 16136.456 197633
9893.7539 546.20831 16138.188 263938
9989.6992 546.20831 16138.188 1184783
10085.245 546.18665 16137.547 592647
10181.089 546.18127 16137.39 263171
10277.029 546.18127 16137.39 256
10362.833 545.64752 16121.619 256
10399.011 542.53448 16029.641 256
10389.404 537.11096 15869.398 256
10436.068 534.66791 15797.218 0
10759.018 546.29712 16140.812 256
10854.979 546.29712 16140.812 790283
10950.33 546.26672 16139.913 256
11045.66 546.23572 16138.998 132353
11141.611 546.23572 16138.998 1119760
11239.444 546.32721 16141.7 2369829
11335.95 546.35321 16142.469 1711899
11431.378 546.32721 16141.7 256
11526.388 546.28186 16140.36 256
11622.347 546.28186 16140.36 256
11717.626 546.25018 16139.425 256
11812.211 546.18689 16137.556 256
11908.154 546.18689 16137.556 256
12003.323 546.15179 16136.518 512
12087.81 545.63495 16121.247 512
12181.868 545.55493 16118.882 768
12277.699 545.55493 16118.882 512
12383.354 545.9881 16131.681 0
12485.629 546.2666 16139.909 512
12581.584 546.2666 16139.909 256
12661.636 545.5813 16119.661 768
12759.034 545.64807 16121.636 770
12869.457 546.26678 16139.914 1514523
12965.772 546.28192 16140.361 1778464
13061.73 546.28186 16140.36 1382682
13157.69 546.28186 16140.36 4146247
13252.895 546.25085 16139.443 4738126
13348.849 546.25085 16139.443 1
13444.822 546.25159 16139.466 1
13541.133 546.26599 16139.893 256
13636.349 546.23639 16139.018 1027
13732.302 546.23639 16139.018 66562
13829.404 546.28192 16140.363 198148
13925.364 546.28192 16140.363 1515805
14021.71 546.29706 16140.81 2053
14115.708 546.22107 16138.564 1449757
14210.871 546.19086 16137.672 395530
14307.671 546.22357 16138.639 1843488
14403.618 546.22357 16138.639 1581861
14500.497 546.25861 16139.673 2700857
14597.805 546.3092 16141.169 2570044
14693.513 546.29974 16140.889 8492697
14788.889 546.27808 16140.249 9413546
14883.715 546.23645 16139.02 10860989
14978.858 546.20703 16138.15 9741998
0 0 0 0
0 0 0 0
0 0 0 0
0 0 0 0
0 0 0 0
0 0 0 0
0 0 0 0
0 0 0 0
0 0 0 0
0 0 0 0
-14666.079 642.05157 16135.604 134401
-14571.033 642.09058 16136.585 1120271
-14475.097 642.09058 16136.585 66561
-13943.461 622.6347 15647.634 256
-13850.431 622.6347 15647.634 256
-11937.802 540.28296 13578.025 256
-11593.246 528.26123 13275.902 256
-11457.049 525.63379 13209.873 256
-11435.389 528.26123 13275.902 263171
-10860.583 505.19482 12696.214 131842
-11432.524 535.52142 13458.361 256
-11653.447 549.71722 13815.12 0
-11653.863 553.63898 13913.679 328963
-12044.064 576.2666 14482.342 921353
-13324.019 642.09821 16136.777 4671555
-13228.125 642.1004 16136.833 9803409
-13132.552 642.11823 16137.281 9211529
-13036.767 642.12585 16137.472 8948357
-12941.184 642.14368 16137.92 8817028
-12845.239 642.14368 16137.92 8751235
-12749.452 642.15161 16138.119 8751236
-12653.507 642.15161 16138.119 8817029
-12557.385 642.14264 16137.894 8817285
-12461.616 642.15167 16138.12 8225148
-12365.671 642.15167 16138.12 7567476
-12269.725 642.15167 16138.12 6777703
-12173.781 642.15167 16138.122 5198671
-12077.835 642.15167 16138.122 4013628
-11981.888 642.15167 16138.12 3289905
-11885.73 642.1402 16137.832 1513751
-11789.075 642.10144 16136.858 855822
-11693.137 642.10144 16136.858 790029
-11597.082 642.09497 16136.696 855566
-11501.146 642.09497 16136.696 1249810
-11405.208 642.09497 16136.696 1250324
-11274.404 640.11542 16086.946 1381651
-11170.438 639.63867 16074.966 1250064
-11074.867 639.63867 16074.966 1184015
-10979.297 639.63867 16074.966 1052686
-10890.955 640.06342 16085.641 855307
-10831.166 642.18872 16139.052 657929
-10735.524 642.20721 16139.517 591875
-10639.656 642.21246 16139.648 0
-10544.188 642.24207 16140.394 1709840
-10447.796 642.21539 16139.723 1907213
-10351.282 642.18073 16138.852 2895127
-10255.071 642.16449 16138.442 2172683
-10159.086 642.16199 16138.381 2502417
-10063.138 642.16199 16138.38 1976327
-9967.1914 642.16199 16138.381 2436879
-9871.0732 642.15094 16138.103 3554845
-9774.625 642.11786 16137.271 2502160
-9678.3984 642.09888 16136.794 2764313
-9569.5518 641.23395 16115.057 592386
-8951.8193 605.90729 15227.251 66048
-8758.0059 598.84509 15049.77 256
-8668.5312 598.84509 15049.77 256
-8926.7051 623.11218 15659.633 256
-8683.3467 612.51306 15393.265 256
-8498.6631 605.87128 15226.347 256
-7989.3179 575.69202 14467.902 0
-7865.0776 572.90771 14397.929 0
-7756.103 571.18628 14354.667 256
-7618.4312 567.28967 14256.74 256
-7533.6709 567.28967 14256.74 256
-7391 562.87939 14145.903 256
-7281.0024 560.88452 14095.77 256
-7177.0225 559.31207 14056.253 0
-7090.729 559.09723 14050.853 0
-7006.9321 559.07635 14050.329 0
-6896.4673 556.90167 13995.675 0
-6809.0835 556.5603 13987.097 0
-6705.9395 554.90649 13945.534 256
-6647.7896 556.98096 13997.669 256
-6579.5654 558.2533 14029.644 256
-6548.7075 562.76947 14143.141 256
-6464.623 562.76947 14143.141 256
-6379.7637 562.70123 14141.426 256
-6271.9521 560.57965 14088.107 256
-6188.1948 560.57965 14088.107 256
-6138.0967 563.67065 14165.789 256
-6054.4321 563.72235 14167.088 256
-6012.8315 567.74725 14268.239 256
-5928.0029 567.74725 14268.239 256
-5782.7417 561.87537 14120.671 256
-5692.9175 561.29633 14106.119 256
-5658.3926 566.23376 14230.204 256
-5584.3608 567.30768 14257.191 256
-5501.5552 567.50958 14262.266 256
-5487.1978 574.88904 14447.722 256
-5401.3022 574.88904 14447.722 256
-5455.563 590.04773 14828.68 256
-5396.3608 593.23114 14908.684 256
-5342.0869 597.07184 15005.204 395013
-5353.1787 608.47266 15291.723 197634
-5364.6543 620.31183 15589.257 256
-4717.8052 555.10736 13950.583 256
-4615.7876 552.82251 13893.16 1
-4192.2329 511.24289 12848.21 2
-4115.8462 511.24289 12848.21 2
-4128.834 522.55426 13132.479 2
-4036.2971 520.68872 13085.597 2
-3958.4993 520.68872 13085.597 1
-3236.3806 434.23764 10912.967 0
-3171.4998 434.23764 10912.967 986893
-3504.4771 489.84952 12310.566 1183237
-3398.6584 485.19144 12193.502 720896
-2820.5005 411.4296 10339.771 3677440
-2609.26 389.09607 9778.499 7621645
-2546.7136 388.4234 9761.5938 4662786
-2455.0203 383.17017 9629.5732 2031872
-2115.1785 338.01129 8494.6709 1835008
-1933.0936 316.46988 7953.3066 2556160
-1768.472 296.77881 7458.4438 6563072
-1617.1987 278.37253 6995.8696 9258496
-1380.6279 243.92444 6130.1436 9653504
-1254.4186 227.63528 5720.7754 2098176
-1216.0437 226.8214 5700.3218 1245184
-1182.1537 226.8214 5700.3218 1245184
-1162.1694 229.56827 5769.354 1835008
-1252.2233 254.87955 6405.46 9256960
-1249.7809 262.36127 6593.4854 9123840
-1238.7451 268.46512 6746.8833 7482880
-1236.0748 276.8512 6957.6367 3608576
-1231.3861 285.35022 7171.2285 1377024
-1264.9395 303.63861 7630.8403 524288
-1382.944 344.31357 8653.0557 327680
-1378.2397 356.40027 8956.8105 196608
-1280.0543 344.31357 8653.0557 131072
-1133.328 317.6113 7981.9917 0
-1178.9083 344.82358 8665.873 65536
-1124.1727 343.84039 8641.1641 0
-1070.7462 343.18259 8624.6328 0
-1045.7794 352.03894 8847.2041 196608
-999.4245 354.25226 8902.8281 196608
-981.1676 367.22952 9228.9639 196608
-926.47937 367.30115 9230.7637 393216
-894.02979 376.7533 9468.3086 393216
-843.15796 379.1908 9529.5664 393216
-787.51257 379.67801 9541.8105 393216
-745.51257 387.33026 9734.1221 919557
-659.1593 371.28751 9330.9463 1577484
-573.40997 352.66779 8863.0078 2103055
-456.74341 309.34018 7774.1284 721408
-392.96674 296.11035 7441.6445 1180672
-348.72409 296.11035 7441.6445 655360
-298.13184 289.9353 7286.4575 524288
-250.08354 284.55527 7151.25 524288
-200.10434 274.32419 6894.1294 852736
-156.80252 270.33423 6793.8564 655616
-105.60567 245.24132 6163.2388 918272
-66.202484 235.42287 5916.4883 1049600
-30.055265 228.04733 5731.1313 8617532
4.0767303 231.38609 5815.0386 3748869
39.925644 239.0307 6007.1577 0
88.400841 279.35684 7020.6069 855564
136.48909 292.98505 7363.1016 592391
191.94232 311.9646 7840.083 526339
251.52847 328.93201 8266.4961 459521
314.24603 343.77832 8639.6035 328448
376.61572 354.12598 8899.6543 0
437.8244 360.96716 9071.582 197376
496.96478 364.78952 9167.6426 197632
580.84998 384.22461 9656.0732 65792
641.68835 386.28964 9707.9697 197376
689.52466 380.83264 9570.8281 0
746.4259 380.83264 9570.8281 0
804.19141 381.24237 9581.125 0
872.43549 386.23688 9706.6436 0
927.59265 385.17734 9680.0166 0
920.81482 360.02591 9047.9277 131072
974.60724 360.02591 9047.9277 196608
1028.3998 360.02591 9047.9277 393216
1077.2026 358.36597 9006.2109 721665
1130.7469 358.36597 9006.2109 393216
1221.4482 369.60962 9288.7783 196608
1276.6726 369.60962 9288.7783 65536
1312.7439 364.29446 9155.2021 0
1331.8464 354.88113 8918.6328 0
1357.4574 347.85651 8742.0938 0
1345.7938 332.15027 8347.376 0
1388.1576 330.42133 8303.9248 0
1422.594 326.98895 8217.665 0
1456.6012 323.68915 8134.7363 0
0 0 0 0
0 0 0 0
0 0 0 0
0 0 0 0
0 0 0 0
0 0 0 0
0 0 0 0
1630.6797 286.32016 7195.6045 256
1904.4568 325.84256 8188.8545 0
1953.1417 325.84256 8188.8545 0
2052.3313 334.06329 8395.4531 65792
2471.4968 392.74039 9870.0859 1381907
2592.646 402.43695 10113.773 66048
2652.7751 402.43695 10113.773 0
2832.1697 420.129 10558.397 512
2935.0024 425.94272 10704.504 66049
3166.8755 449.83923 11305.055 330243
3184.8276 442.98758 11132.863 132609
3251.0154 442.98758 11132.863 133120
3295.1694 440.04507 11058.915 199424
3378.3792 442.3313 11116.371 923143
3450.5508 443.11227 11135.998 1449742
3516.7573 443.11227 11135.998 1383947
3574.9233 442.11792 11111.008 989189
3468.2878 421.14801 10584.007 660224
3459.6909 412.61801 10369.637 594690
3417.0916 400.40237 10062.642 1646862
3456.8335 398.0896 10004.519 2961956
3498.8171 396.10886 9954.7393 67072
3575.793 398.0896 10004.519 526593
3600.3704 394.26758 9908.4658 2107178
0 0 0 0
0 0 0 0
3689.74 385.14905 9679.3047 789001
3767.6392 387.24094 9731.877 394755
3825.4978 387.24094 9731.877 9671823
4265.0273 425.30042 10688.362 3555117
4675.0293 459.34122 11543.853 790539
6630.5283 642.05157 16135.606 2963246
6726.5391 642.0592 16135.798 3687227
6822.7695 642.08734 16136.504 265477
6918.3486 642.05426 16135.673 66304
6625.6606 606.48181 15241.69 0
6716.2764 606.48181 15241.69 263940
7082.0957 631.00195 15857.914 256
7302.2671 642.07135 16136.102 256
7399.7959 642.20978 16139.58 2633003
7493.8584 642.04773 16135.508 0
7590.813 642.13434 16137.686 256
7678.9863 641.48529 16121.373 66049
7774.832 641.48529 16121.373 395270
6877.3682 560.52728 14086.793 395271
5602.249 451.10767 11336.933 263684
5573.2578 443.43814 11144.188 197892
6383.1445 501.91034 12613.671 257
7427.5186 577.24835 14507.015 257
8357.2148 642.04651 16135.479 66051
8454.1025 642.11932 16137.308 724238
8550.0703 642.12134 16137.359 2831415
8645.9844 642.11932 16137.308 4739410
8742.2998 642.14685 16138 7239798
8837.7676 642.11224 16137.129 10003360
8933.707 642.11224 16137.129 10792106
9029.6475 642.11224 16137.129 9870490
9125.5322 642.1084 16137.033 8093824
9221.4727 642.1084 16137.033 6909808
9317.5898 642.12073 16137.343 4738637
9413.5312 642.12073 16137.343 3224887
9509.3066 642.10956 16137.062 2566699
9604.9795 642.09174 16136.614 1908768
9700.8428 642.08691 16136.493 724492
9796.7471 642.08484 16136.44 789773
9892.6826 642.08484 16136.44 526601
9988.749 642.0932 16136.651 856076
10084.686 642.0932 16136.651 1053710
10180.718 642.09918 16136.802 1777433
10276.745 642.10486 16136.943 0
10372.817 642.11304 16137.15 256
10468.757 642.11304 16137.15 2
10564.696 642.11304 16137.15 3
10660.969 642.133 16137.652 3
10758.255 642.21326 16139.669 3
10854.21 642.21326 16139.669 3
10950.03 642.20532 16139.47 1
11045.677 642.1875 16139.021 0
11141.611 642.18658 16138.998 66818
11238.104 642.21753 16139.775 0
11334.473 642.24091 16140.364 0
11431.381 642.29431 16141.705 66050
11527.304 642.29181 16141.644 1
11623.271 642.29181 16141.644 394759
11716.939 642.16595 16138.479 258
11811.452 642.08789 16136.518 0
11908.461 642.14575 16137.972 0
12003.323 642.08789 16136.518 256
12087.81 641.48022 16121.247 512
12068.644 635.4248 15969.065 769
12277.699 641.38617 16118.882 396039
12386.472 642.05695 16135.74 768
12484.994 642.19025 16139.09 256
12580.89 642.18738 16139.018 256
12663.188 641.49573 16121.636 256
12773.062 642.20093 16139.359 512
12869.457 642.22302 16139.914 0
12965.412 642.22302 16139.914 723978
13061.728 642.24066 16140.356 256
13158.295 642.27039 16141.104 592649
13254.26 642.27039 16141.104 2303268
13348.897 642.20667 16139.502 724238
13444.852 642.20667 16139.502 461067
13540.804 642.2066 16139.501 257
13636.348 642.18726 16139.016 256
13732.302 642.18738 16139.018 513
13829.404 642.24084 16140.363 461835
13925.364 642.24084 16140.363 66819
14021.32 642.24078 16140.36 769
14116.499 642.20526 16139.468 1027
14212.17 642.19257 16139.148 67335
14307.671 642.1723 16138.639 198152
14403.618 642.1723 16138.639 923159
14500.037 642.19305 16139.162 67339
14596.587 642.21942 16139.823 1647656
14692.544 642.21948 16139.824 461323
14788.182 642.20557 16139.476 265235
14883.713 642.18738 16139.019 528406
14979.09 642.16278 16138.4 2964546
0 0 0 0
0 0 0 0
0 0 0 0
0 0 0 0
0 0 0 0
0 0 0 0
0 0 0 0
0 0 0 0
0 0 0 0
0 0 0 0
0 0 0 0
-14570.148 737.98218 16135.604 1976084
-14475.097 738.02704 16136.585 1712917
-14378.219 737.97864 16135.527 460807
-14282.287 737.97864 16135.527 7304555
-13722.084 713.82703 15607.464 6449248
-10473.404 548.539 11993.525 1909788
-10390.583 547.9317 11980.247 256
-10330.794 548.539 11993.525 131586
-9835.2363 525.85571 11497.566 460807
-11432.524 615.5351 13458.361 256
-11718.027 635.35345 13891.68 0
-11913.574 650.5412 14223.751 263427
-12044.064 662.36816 14482.342 4013884
-13324.019 738.03583 16136.777 2040349
-13227.755 738.0177 16136.381 4408897
-13131.242 737.98523 16135.671 9672079
-13036.042 738.02661 16136.575 9540494
-12941.184 738.08807 16137.92 9540494
-12845.239 738.08807 16137.92 9408908
-12749.452 738.09723 16138.119 9277322
-12653.33 738.08691 16137.894 9277322
-12557.385 738.08691 16137.894 9145993
-12461.44 738.08691 16137.894 9014663
-12365.671 738.09723 16138.12 9014407
-12269.725 738.09723 16138.12 8882821
-12173.779 738.09723 16138.12 8882820
-12077.835 738.09735 16138.122 8619650
-11981.888 738.09723 16138.12 8685442
-11886.062 738.10461 16138.281 8553858
-11789.786 738.08405 16137.832 8488065
-11693.463 738.06012 16137.308 7962235
-11597.521 738.06012 16137.308 7567219
-11501.526 738.05658 16137.23 6843752
-11405.585 738.05658 16137.23 5725015
-11309.697 738.05994 16137.305 4474692
-11178.763 735.75677 16086.946 3618613
-11074.867 735.2088 16074.966 1776666
-10975.148 734.93103 16068.892 1316371
-10884.472 735.25916 16076.066 1973789
-10831.166 738.13989 16139.052 1842457
-10735.524 738.16113 16139.517 1052940
-10639.852 738.1806 16139.943 131584
-10543.994 738.18756 16140.096 1644815
-10447.748 738.16718 16139.648 1447176
-10351.282 738.13068 16138.852 855297
-10255.032 738.10913 16138.38 395520
-10158.579 738.07239 16137.576 592896
-10062.637 738.07239 16137.576 395776
-9966.9541 738.09161 16137.997 922626
-9871.0098 738.09161 16137.997 922882
-9774.625 738.05847 16137.271 1383433
-9671.8281 737.53558 16125.84 593409
-9042.3496 696.4375 15227.251 512
-8422.3496 655.24561 14326.611 256
-8758.0059 688.32019 15049.77 66560
-9165.5625 727.78668 15912.685 461314
-9113.3477 731.18781 15987.049 197889
-8949.2139 725.58643 15864.577 256
-8621.3242 706.44727 15446.109 256
-8492.2969 703.36646 15378.749 0
-8400.8652 703.36646 15378.749 329475
-8715.4668 737.73572 16130.216 256
-8622.54 737.99011 16135.777 256
-8051.3159 696.85291 15236.333 256
-7413.7095 648.96863 14189.367 256
-7274.6567 644.12592 14083.484 256
-7190.9263 644.12592 14083.484 0
-7109.1802 644.30573 14087.416 0
-7039.168 645.56592 14114.97 0
-6923.3984 642.6095 14050.329 0
-6813.2593 640.1098 13995.675 0
-6725.9263 639.71747 13987.097 256
-6700.0576 645.23456 14107.725 256
-6625.1523 646.10919 14126.849 256
-6592.5469 651.18469 14237.82 256
-6477.8594 648.17883 14172.1 256
-6379.7637 646.77594 14141.426 256
-6290.0576 646.19739 14128.775 256
-6202.2847 645.80444 14120.186 256
-6279.6348 662.8299 14492.438 256
-6195.291 663.02448 14496.691 256
-6109.104 663.02448 14496.691 256
-6022.9175 663.02448 14496.691 256
-5935.457 662.8822 14493.582 256
-5905.064 669.20306 14631.784 256
-5818.0742 669.20306 14631.784 256
-5860.0566 684.26282 14961.059 256
-5499.5981 652.07062 14257.191 256
-5424.373 653.21924 14282.306 256
-5353.6211 654.9516 14320.183 256
-5296.814 658.47345 14397.186 256
-5367.4023 678.20837 14828.68 256
-5342.0869 686.28192 15005.204 131842
-5500.6069 718.64752 15712.861 2369061
-5372.0181 713.97302 15610.656 197635
-4962.064 671.08154 14672.856 256
-4603.897 633.78436 13857.372 256
-4132.0757 579.19678 12663.842 2
-4083.6946 583.03864 12747.843 2
-4106.0244 597.31232 13059.929 2
-4028.3794 597.31232 13059.929 0
-3316.728 501.45673 10964.096 197891
-3100.0891 478.09927 10453.396 262656
-3037.9407 478.09927 10453.396 656128
-2733.0457 439.09894 9600.6738 5059608
-2715.9053 445.65234 9743.9619 4400139
-2658.6921 445.77264 9746.5918 3216643
-2600.0442 445.65234 9743.9619 2032384
-2404.4883 421.52557 9216.4414 1900544
-2165.6816 388.5145 8494.6709 2162688
-1917.1709 352.14462 7699.4624 7088384
-1829.7948 344.31653 7528.3052 9718272
-1690.4144 326.06476 7129.2397 10309632
-1607.6064 318.06705 6954.374 9982720
-1233.7166 250.53593 5477.8403 4068352
-1228.4663 256.23373 5602.4199 1376256
-1201.5892 257.61249 5632.5654 1245184
-1186.3954 261.64688 5720.7754 1441792
-1249.3164 283.65527 6201.9775 7484928
-1252.2233 292.96179 6405.46 6565888
-1249.7809 301.56134 6593.4854 5385988
-1221.8032 304.3569 6654.6084 655360
-1276.3763 328.59155 7184.4863 1577988
-1307.1754 348.172 7612.6035 327680
-1607.173 443.43085 9695.3896 262144
-1549.5311 443.43085 9695.3896 262144
-1437.765 427.3436 9343.6494 196608
-1324.989 409.651 8956.8105 131072
-1252.6471 403.5014 8822.3525 65536
-1205.2974 405.21652 8859.8525 65536
-1152.623 405.21652 8859.8525 65536
-1099.1261 404.91348 8853.2266 0
-1059.8281 410.07385 8966.0557 196608
-1022.4843 416.57697 9108.2432 262144
-982.51141 422.67639 9241.6045 196608
-930.83984 424.1676 9274.208 393216
-891.00208 431.57849 9436.2432 393216
-844.24133 436.40674 9541.8105 393216
-820.11047 454.47107 9936.7783 196608
-771.05023 460.45279 10067.565 262400
-673.91791 436.31784 9539.8672 1117447
-615.5083 435.1214 9513.708 5261633
-520.71692 405.36084 8863.0078 853249
-395.77225 342.78287 7494.7725 1115650
-350.68918 342.27094 7483.5791 524544
-306.19724 342.27094 7483.5791 458752
-255.38937 334.01068 7302.9731 458752
-211.22234 332.83072 7277.1738 393216
-159.11682 315.31171 6894.1294 524288
-111.11885 296.59933 6484.9932 524288
-64.689148 264.41238 5781.2417 655360
0 0 0 0
0 0 0 0
40.421886 278.15979 6081.8218 65536
86.504738 314.20911 6870.0225 1381650
136.48909 336.76071 7363.1016 263170
190.05214 355.04492 7762.876 1117450
251.52847 378.07861 8266.4961 525568
315.06171 396.16882 8662.0293 196608
378.73669 409.32919 8949.7744 0
447.60245 424.16629 9274.1797 256
539.75427 455.39554 9956.9912 461315
598.95135 455.39554 9956.9912 197634
658.14844 455.39554 9956.9912 131840
702.77521 446.14575 9754.75 0
759.32965 445.30115 9736.2832 0
817.21454 445.30115 9736.2832 0
875.09943 445.30115 9736.2832 0
932.94562 445.28268 9735.8789 0
969.28119 435.5994 9524.1582 131072
999.01343 424.18124 9274.5068 196608
1038.0763 417.7121 9133.0625 393728
1092.3749 417.7121 9133.0625 525056
1146.6735 417.7121 9133.0625 262144
1271.2539 442.15695 9667.5361 196608
1328.73 442.15695 9667.5361 65536
1331.897 424.83398 9288.7783 256
1367.1741 418.7247 9155.2021 0
1379.3051 406.26572 8882.793 0
1355.3879 384.49942 8406.8838 197377
1402.4869 383.71088 8389.6426 0
1431.6686 378.24277 8270.085 0
1453.6475 371.29797 8118.2407 0
1469.8464 363.37064 7944.9141 65536
0 0 0 0
0 0 0 0
0 0 0 0
0 0 0 0
0 0 0 0
0 0 0 0
0 0 0 0
0 0 0 0
1930.3866 370.16412 8093.4502 66049
2001.8267 374.52756 8188.8545 65793
2411.5955 440.47983 9630.8662 513
2530.177 451.42081 9870.0859 132354
2626.0796 457.91122 10011.996 987406
2719.292 463.6553 10137.587 256
2909.249 485.28812 10610.577 256
3249.1748 530.48779 11598.846 256
3318.1331 530.48779 11598.846 66049
3313.9253 519.02844 11348.293 132354
3317.2034 509.17551 11132.863 512
3378.3792 508.42126 11116.371 726023
3367.0884 496.99939 10866.639 1647378
3590.0388 519.93201 11368.048 1779218
3448.7771 490.24426 10718.94 2634013
3512.5042 490.24426 10718.94 1712654
3531.2126 484.07288 10584.007 2041876
3380.4497 455.29254 9954.7393 1252104
3456.8335 457.56924 10004.519 1909266
3522.4504 458.36792 10021.98 132352
3616.5935 462.79025 10118.673 658180
3641.6174 458.36792 10021.98 1315600
0 0 0 0
0 0 0 0
3709.7805 445.09967 9731.877 788228
3856.3779 455.58307 9961.0908 985606
3915.5996 455.58307 9961.0908 1184526
4265.0273 488.84573 10688.362 7698803
4537.9707 512.49402 11205.42 4409665
6501.269 723.59564 15821.05 461831
6669.5864 731.74255 15999.179 659721
6764.7056 731.74255 15999.179 1317139
6677.9468 712.34149 15574.983 0
6770.5444 712.34149 15574.983 256
6968.6426 723.29163 15814.403 256
7082.0957 725.28168 15857.914 256
7302.1367 737.99176 16135.813 65793
7400.2021 738.20459 16140.467 395270
7495.4585 738.13531 16138.952 131586
7591.4092 738.13531 16138.952 256
7686.9321 738.0943 16138.055 256
7782.6992 738.07739 16137.686 256
7878.0557 738.0224 16136.483 0
7966.0879 737.29089 16120.49 0
8061.9292 737.29089 16120.49 0
8156.873 737.20984 16118.718 0
8243.5107 736.38879 16100.765 257
8358.4717 738.08746 16137.906 514
8455.249 738.16016 16139.496 3093812
8551.2031 738.16016 16139.496 256
8646.2246 738.08069 16137.758 513
8741.1973 737.99866 16135.965 257
8837.5215 738.03137 16136.68 257
8933.458 738.03137 16136.68 66050
9029.6475 738.05194 16137.129 257
9125.3828 738.0354 16136.768 131843
9220.96 738.00653 16136.137 263687
9316.6797 737.98956 16135.766 592652
9412.6104 737.98956 16135.766 921874
9509.042 738.02838 16136.614 1711389
9604.9082 738.02289 16136.494 2634290
9700.8438 738.02289 16136.494 4344653
9796.7471 738.02045 16136.44 6713199
9892.6826 738.02045 16136.44 7898242
9988.6182 738.02045 16136.44 9214102
10084.686 738.03009 16136.651 10398633
10180.718 738.03699 16136.802 11516856
10276.467 738.0235 16136.507 13028812
10372.529 738.03247 16136.703 12633027
10468.757 738.05292 16137.15 11777718
10565.025 738.07587 16137.652 10593188
10660.969 738.07593 16137.653 9409171
10757.957 738.14758 16139.221 7961981
10854.076 738.159 16139.47 7040623
10949.726 738.13849 16139.021 8093568
11045.365 738.11768 16138.566 7699579
11141.313 738.11768 16138.566 5593433
11237.576 738.13837 16139.019 3094069
11333.841 738.15875 16139.465 2765102
11430.113 738.17938 16139.915 4016462
11527.029 738.24078 16141.258 11056060
11622.995 738.24097 16141.262 9145743
11717.626 738.15692 16139.425 5463137
11812.923 738.11584 16138.527 5134175
11908.835 738.11371 16138.479 5331299
12004.073 738.07001 16137.524 4278097
12098.645 737.98639 16135.696 1645600
12183.655 737.3255 16121.247 1184791
12290.54 737.9884 16135.74 2632753
12387.782 738.06653 16137.448 1185307
12484.417 738.10748 16138.345 4606542
12580.249 738.10077 16138.197 1052946
12676.195 738.10077 16138.197 1053205
12772.352 738.11298 16138.463 460552
12869.015 738.15393 16139.359 263431
12965.026 738.15729 16139.433 263174
13060.981 738.15735 16139.435 197638
13158.053 738.22009 16140.806 658957
13252.944 738.16046 16139.502 1777696
13348.896 738.1604 16139.501 5727074
13444.852 738.16046 16139.502 6121578
13540.804 738.1604 16139.501 2304296
13635.972 738.1178 16138.569 1513754
13731.975 738.12073 16138.634 1776669
13829.021 738.17938 16139.915 1842719
13924.978 738.17938 16139.915 2040353
14020.545 738.15887 16139.468 3027250
14116.499 738.15887 16139.468 2961457
14212.17 738.14429 16139.148 2830128
14307.671 738.12097 16138.639 2566955
14403.618 738.12097 16138.639 3818052
14499.572 738.12122 16138.644 4673103
14596.449 738.16815 16139.67 5199963
14692.228 738.15924 16139.476 6318188
14787.77 738.13873 16139.026 7437438
14882.884 738.09723 16138.12 9016729
14979.09 738.11005 16138.4 10924726
0 0 0 0
0 0 0 0
0 0 0 0
0 0 0 0
0 0 0 0
0 0 0 0
0 0 0 0
0 0 0 0
0 0 0 0
0 0 0 0
0 0 0 0
0 0 0 0
-13281.396 765.19 14805.867 8883329
-13193.371 765.19 14805.867 8685952
-13814.875 806.61774 15607.464 9014660
-10152.064 596.76324 11546.933 9146248
-9441.5498 558.77594 10811.906 9475212
-9476.5459 564.69159 10926.37 8752260
-9626.3916 577.57996 11175.75 9146763
-9559.9492 577.57996 11175.75 3093551
-9858.3057 599.77411 11605.191 395525
-11059.423 677.59186 13110.907 0
-11913.574 735.10535 14223.751 513
-13419.288 833.93201 16135.975 3223599
-13324.227 833.98657 16137.03 9474702
-13227.173 833.91632 16135.671 9343629
-13128.995 833.77362 16132.91 9540494
-13032.581 833.74158 16132.291 9475214
-12937.166 833.77362 16132.91 9540494
-12841.122 833.7652 16132.747 9474701
-12745.391 833.77716 16132.979 9409164
-12649.478 833.77716 16132.979 9277321
-12553.562 833.77716 16132.979 9277322
-12458.866 833.85883 16134.559 9145736
-12365.327 834.01971 16137.672 8949127
-12269.384 834.01971 16137.672 8949127
-12173.441 834.01971 16137.672 8949126
-12077.834 834.04285 16138.12 8751750
-11981.555 834.01971 16137.672 8685957
-11885.73 834.02795 16137.832 8620164
-11789.075 833.97766 16136.858 8488577
-11693.02 833.9693 16136.696 8356991
-11597.082 833.9693 16136.696 8225405
-11501.202 833.97345 16136.777 8159613
-11405.266 833.97345 16136.777 8093563
-11309.697 834.00079 16137.305 8027513
-11213.757 834.00079 16137.305 8093306
0 0 0 0
0 0 0 0
0 0 0 0
-10828.986 833.92322 16135.804 7698033
-10734.319 834.02136 16137.705 7040359
-10638.474 834.02911 16137.854 6447962
-10542.867 834.05579 16138.369 5263685
-10447.21 834.07898 16138.818 2763038
-10351.26 834.07892 16138.817 2040593
-10254.478 834.01129 16137.508 1777676
-10158.296 833.99146 16137.126 1646349
-10062.34 833.99017 16137.101 1185284
-9966.4004 833.99017 16137.101 768
-9280.0439 784.10382 15171.835 512
-9189.8438 784.10382 15171.835 0
-8912.3506 767.96509 14859.563 256
-8824.0068 767.96509 14859.563 256
-8491.4453 746.49554 14444.144 256
-8957.8145 795.54022 15393.122 256
-9208.3945 826.23529 15987.049 256
-9190.8574 833.26245 16123.02 132352
-9074.8574 831.41687 16087.31 987653
-8979.2139 831.41687 16087.31 724736
-8903.3164 833.26495 16123.068 132352
-8815.0771 833.9856 16137.013 2106389
-8718.4717 833.92181 16135.777 256
-8622.54 833.92181 16135.777 256
-8212.3125 803.18292 15541.004 256
-7554.1992 747.22491 14458.256 256
-7329.3496 733.32837 14189.367 256
-7190.9263 727.85614 14083.484 0
-7109.1802 728.05933 14087.416 0
-7056.5625 731.28595 14149.849 0
-7215.6968 756.79956 14643.519 0
-7257.729 770.50439 14908.697 0
-7180.1841 771.69641 14931.762 256
-7080.4565 770.50439 14908.697 256
-6707.4736 739.16919 14302.384 256
-6623.7847 739.31903 14305.283 256
-6538.7354 739.31903 14305.283 256
-6432.0947 736.84552 14257.423 256
-6295.6895 730.85065 14141.426 256
-6360.5947 748.37946 14480.596 256
-6283.7319 749.48016 14501.893 256
-6197.5137 749.48016 14501.893 256
-6110.771 749.41571 14500.646 256
-6072.1768 755.33881 14615.255 256
-6032.5439 761.30286 14730.654 256
-6039.4604 773.40363 14964.796 256
-5950.4907 773.40363 14964.796 256
-5864.5356 773.80151 14972.494 256
-5771.1094 773.21051 14961.059 256
-5487.1978 746.68048 14447.722 256
-5401.3022 746.68048 14447.722 256
-5520.5073 775.492 15005.204 256
-5396.3608 770.50372 14908.684 0
-5342.0869 775.492 15005.204 395014
-5464.8281 806.78271 15610.656 329221
-5049.2979 758.3158 14672.856 197892
-4618.3086 705.78223 13656.37 256
-4510.4043 701.62677 13575.966 0
-3887.1226 615.68835 11913.119 0
-3795.9646 612.40826 11849.652 256
-3995.2412 656.7464 12707.563 256
-3235.4011 542.09326 10489.108 196864
-3131.1028 534.92847 10350.475 459520
-2922.2549 509.25674 9853.7461 6374923
-2789.9773 496.1514 9600.167 7821312
-2671.5781 485.01828 9384.749 1705216
-2615.7832 485.01828 9384.749 2032128
-2531.4338 479.60831 9280.0703 2097920
-2414.574 467.66055 9048.8906 2687232
-2291.3723 453.91202 8782.8662 7811584
-1981.9983 401.7822 7774.1914 9388800
-1874.5527 389.0744 7528.3052 10768640
-1742.7367 370.56296 7170.1226 10900224
-1636.0717 356.60529 6900.0518 10178816
-1382.4779 309.08075 5980.4863 7154688
-1228.8308 281.98206 5456.147 1441792
-1199.5262 282.72067 5470.4385 917504
-1204.7917 291.87549 5647.5771 851968
-1201.795 299.49615 5795.0317 2628352
-1271.67 326.26285 6312.9478 3353858
-1288.9811 340.76144 6593.4854 3420167
-1336.4192 364.38403 7050.5645 1249283
-1345.2454 378.66763 7326.9424 394240
-1371.0232 398.83862 7717.2358 196608
-1352.5286 407.08139 7876.7271 131072
-1607.173 501.07266 9695.3896 0
-1549.5311 501.07266 9695.3896 0
-1472.3258 494.50192 9568.251 0
-1324.989 462.90173 8956.8105 0
-1151.6062 419.17468 8110.7241 0
-1245.1543 473.03244 9152.832 0
-1190.7382 473.03244 9152.832 65536
-1136.322 473.03244 9152.832 131072
-1081.4475 472.83203 9148.9541 262144
-1027.0544 472.83203 9148.9541 196608
-986.21106 479.41879 9276.4033 393216
-932.97089 480.40259 9295.4395 393216
-894.79858 489.7576 9476.4512 393216
-861.11023 502.98886 9732.4668 196608
-817.44159 511.87677 9904.4414 262144
-776.53204 524.00641 10139.142 196608
-711.19568 520.30725 10067.565 262144
-638.72375 510.22815 9872.542 1708557
-555.2605 488.44052 9450.9668 1050372
-499.07187 488.44052 9450.9668 984321
-400.5636 441.76761 8547.8809 2629402
-346.09689 437.16083 8458.7422 262144
-255.96127 378.27408 7319.3267 393216
-212.44583 378.27408 7319.3267 327680
-167.95752 376.09555 7277.1738 327680
-113.73209 343.03641 6637.5039 393216
0 0 0 0
0 0 0 0
0 0 0 0
41.375378 321.73221 6225.2827 0
86.504738 355.05331 6870.0225 395015
137.36816 382.9873 7410.5244 0
186.98827 394.72961 7637.7295 1315600
238.5538 405.18753 7840.083 459777
316.12421 449.1767 8691.2412 196608
384.99866 470.18564 9097.748 131072
455.52029 487.7825 9438.2354 0
539.75427 514.59265 9956.9912 724744
598.95135 514.59265 9956.9912 593672
658.14844 514.59265 9956.9912 264706
723.16443 518.76685 10037.76 256
767.81403 508.80844 9845.0713 256
826.34564 508.80844 9845.0713 256
886.07288 509.49582 9858.3721 256
945.3927 509.87827 9865.7715 526851
993.41339 504.47806 9761.2812 256
1051.4469 504.47806 9761.2812 196608
1039.8136 472.80069 9148.3477 459520
1077.2026 465.45483 9006.2109 591618
1130.7469 465.45483 9006.2109 131072
1306.1024 513.32947 9932.5498 0
1331.8762 500.81616 9690.4268 0
1341.0215 483.34714 9352.4141 0
1396.6243 483.34714 9352.4141 0
1452.2269 483.34714 9352.4141 263170
1458.8374 467.64227 9048.5361 0
1468.6294 454.03809 8785.3047 0
1458.6464 435.46466 8425.9229 0
1453.6475 419.56317 8118.2407 0
1469.8464 410.60541 7944.9141 0
0 0 0 0
0 0 0 0
0 0 0 0
0 0 0 0
0 0 0 0
0 0 0 0
0 0 0 0
0 0 0 0
0 0 0 0
0 0 0 0
2246.5938 463.68265 8971.9209 66049
2517.051 507.45493 9818.8818 256
2659.0212 523.92609 10137.587 0
2833.4177 545.91473 10563.051 132097
2960.1438 557.96417 10796.199 256
3197.8074 589.9693 11415.475 256
3318.1331 599.44623 11598.846 256
3328.0693 589.00049 11396.729 256
3379.97 586.25024 11343.514 256
3378.3792 574.51117 11116.371 256
3418.1223 570.1167 11031.342 1024
3483.7068 570.1167 11031.342 659975
3414.3411 548.43988 10611.911 594436
3477.4316 548.43988 10611.911 1253131
3576.2312 553.97131 10718.94 1977109
3361.593 511.60638 9899.21 10793890
3085.2334 461.46759 8929.0605 12502206
3707.9341 545.22546 10549.714 10458774
3666.6353 530.18445 10258.682 65793
3562.4792 506.69543 9804.1865 0
3440.2612 481.43512 9315.418 65536
3644.365 501.91763 9711.7393 2828583
3704.6248 502.25934 9718.3516 525570
3761.6409 502.15762 9716.3828 657671
3915.5996 514.8045 9961.0908 460549
4210.6567 545.34912 10552.106 7829108
4122.748 526.12469 10180.128 3093290
4776.7197 600.76184 11624.303 1252110
6595.3301 817.65619 15821.05 3554612
6764.7056 826.86218 15999.179 1024
6732.4771 811.51202 15702.164 256
6952.1646 826.53162 15992.783 256
7047.2466 826.53162 15992.783 256
7142.3281 826.53162 15992.783 512
7302.2671 833.93854 16136.102 790797
7399.6489 834.10175 16139.259 329989
7495.6011 834.10175 16139.259 527626
7591.5532 834.10175 16139.259 921870
7686.1211 833.95154 16136.353 395782
7776.6167 833.36853 16125.072 198148
7878.5366 834.00922 16137.469 329477
7974.4785 834.00922 16137.469 658442
8062.3022 833.17029 16121.236 0
8158.938 833.2511 16122.8 131843
8254.9326 833.26514 16123.072 0
8359.2959 834.11401 16139.496 256
8456.1113 834.19897 16141.142 256
8551.8379 834.17584 16140.694 723979
8647.3174 834.12952 16139.796 395272
8742.4111 834.0473 16138.206 256
8837.917 834.0058 16137.402 66564
8933.707 833.99164 16137.129 257
9029.6475 833.99164 16137.129 460551
9124.9219 833.93091 16135.953 256
9211.667 833.09998 16119.875 256
9307.5039 833.09998 16119.875 256
9412.6348 833.92328 16135.806 256
9509.042 833.96503 16136.614 256
9605.2461 833.98822 16137.062 66563
9700.916 833.96503 16136.614 132867
9796.7471 833.95605 16136.44 659211
9892.6826 833.95605 16136.44 856334
9988.6182 833.95605 16136.44 658955
10084.514 833.95276 16136.376 790028
10180.718 833.97473 16136.802 592907
10276.467 833.95953 16136.507 258
10372.529 833.96967 16136.703 2
10468.757 833.9928 16137.15 66053
10565.025 834.01868 16137.652 262918
10660.969 834.0188 16137.653 526346
10757.82 834.08911 16139.016 329737
10853.909 834.09979 16139.221 2238249
10950.03 834.11261 16139.47 4477263
11045.677 834.08948 16139.021 2437164
11141.628 834.08948 16139.021 3095354
11237.891 834.11261 16139.47 2766901
11334.156 834.13556 16139.913 5531233
11430.112 834.13556 16139.913 7241083
11526.271 834.15021 16140.197 2437681
11622.993 834.20502 16141.258 5924457
11718.186 834.15015 16140.195 5269866
11813.172 834.08148 16138.868 10400438
11908.835 834.0614 16138.479 9674661
12004.073 834.01208 16137.524 8226190
12099.361 833.96704 16136.653 6778486
12194.608 833.91986 16135.74 7041399
12292.523 834.05444 16138.345 5396831
12388.471 834.05444 16138.345 5330523
12484.417 834.05444 16138.345 8357257
12580.539 834.06604 16138.568 8620431
12676.405 834.06061 16138.463 8291721
12772.058 834.04126 16138.09 8949649
12867.864 834.03235 16137.917 9410201
12963.809 834.03235 16137.917 8094851
13059.754 834.03235 16137.917 8292230
13155.738 834.03497 16137.967 8358281
13251.841 834.04486 16138.159 7963523
13347.627 834.03497 16137.967 6450027
13443.884 834.05426 16138.341 5266012
13539.61 834.04059 16138.077 4805203
13635.711 834.05017 16138.262 4738898
13731.975 834.0694 16138.634 4804691
13828.34 834.0946 16139.12 5199195
13924.291 834.0946 16139.12 4080457
14019.073 834.02502 16137.774 2370095
14115.323 834.04303 16138.124 2501424
14211.336 834.047 16138.2 2106406
14307.281 834.047 16138.2 1909539
14403.228 834.047 16138.2 2040871
14499.211 834.04913 16138.241 1777955
14595.521 834.06989 16138.644 1711905
14690.994 834.04285 16138.12 1317661
14786.938 834.04285 16138.12 1186075
14882.884 834.04285 16138.12 1251612
