# .PCD v0.7 - Point Cloud Data file format
VERSION 0.7
FIELDS x y z rgb
SIZE 4 4 4 4
TYPE F F F U
COUNT 1 1 1 1
WIDTH 1372
HEIGHT 1
VIEWPOINT 0 0 0 1 0 0 0
POINTS 1372
DATA ascii
-6039.2339 1036.8154 9329.3896 794373
-5945.0508 1030.1069 9269.0254 794116
-5889.9438 1030.1069 9269.0254 728579
-5928.751 1046.6868 9418.2139 662786
-5975.0479 1064.9178 9582.2588 794372
-6008.585 1081.2037 9728.8018 925957
-5926.3501 1076.7716 9688.9199 793859
-5830.9775 1069.8418 9626.5654 859908
-5747.5791 1064.9935 9582.9395 1057286
-5516.7871 1032.4634 9290.2295 991494
-5409.6533 1022.652 9201.9453 991494
-5472.4937 1045.1005 9403.9404 1320458
-5659.9155 1092.05 9826.3975 794114
-5601.4951 1092.05 9826.3975 859907
-5453.4268 1074.3883 9667.4756 990981
-5333.3389 1061.9216 9555.2988 924931
-5487.9653 1104.4739 9938.1885 859652
-5444.8281 1107.7184 9967.3838 728580
-5484.7095 1128.1099 10150.868 728324
-5485.0806 1140.7379 10264.497 859908
-5243.4893 1102.7631 9922.7939 925957
-5158.3442 1097.2004 9872.7422 729089
-5144.1372 1106.7725 9958.8721 992259
-5115.4404 1113.4136 10018.629 1256199
-5041.5854 1110.2662 9990.3096 1190660
-4938.8418 1100.6062 9903.3867 1059074
-4817.459 1086.5092 9776.54 1059330
-4781.7627 1091.6293 9822.6113 1059330
-4782.8779 1105.3835 9946.374 927744
-4699.2319 1099.6476 9894.7617 993794
-4608.9023 1092.1825 9827.5889 1125379
-4512.2363 1083.0046 9745.0059 1059587
-4394.6538 1068.5026 9614.5146 993538
-4336.8765 1068.3507 9613.1484 993538
-4073.0081 1016.7481 9148.8223 1059074
-3985.1729 1008.2868 9072.6855 927489
-4303.3706 1103.7329 9931.5215 993026
-4244.3247 1103.7329 9931.5215 1058819
-4185.2788 1103.7329 9931.5215 992771
-4059.7849 1085.9585 9771.585 795649
-3889.5063 1055.5146 9497.6475 1058563
-3833.0403 1055.5146 9497.6475 927234
-3761.3684 1051.2648 9459.4072 795136
-3650.7192 1035.8268 9320.4941 992768
-3547.3108 1021.999 9196.0703 1057792
-3046.9058 891.57111 8022.4639 1516288
-3298.1602 980.43964 8822.1143 2630400
-3453.1868 1043.1127 9386.0527 6826240
-3313.1196 1017.2405 9153.2529 6825728
-3258.7012 1017.2405 9153.2529 5905408
-3204.2825 1017.2405 9153.2529 5051392
-2701.7292 872.5166 7851.0093 4592896
-2622.6262 861.86041 7755.124 4333568
-2497.2312 835.33801 7516.4717 3546624
-2451.0183 834.81842 7511.7964 2629120
-2357.0505 817.7124 7357.874 656128
-2293.1819 810.59888 7293.8662 721408
-2164.6597 779.91675 7017.7852 524288
-1801.9155 661.98108 5956.5854 787456
-1686.4824 631.99445 5686.7622 524288
-1539.4431 588.69452 5297.144 524288
-1495.7491 583.93127 5254.2842 458752
-1464.5109 583.93127 5254.2842 262144
-1438.6566 586.12476 5274.021 256
-1421.1525 591.89368 5325.9307 1054466
-1404.735 598.38843 5384.3711 793344
-1413.4429 616.13861 5544.0894 794368
-1542.5675 688.48096 6195.0347 794113
-1600.9882 732.03387 6586.9287 860164
-1712.7379 802.7663 7223.3877 926213
-1652.1541 794.28632 7147.0835 925446
-1609.6626 794.28632 7147.0835 990983
-1622.7101 822.43488 7400.3677 925192
-1578.7128 822.43488 7400.3677 859398
-1575.4084 844.24176 7596.5889 793095
-1644.2271 907.12628 8162.4316 727558
-1661.1641 944.34186 8497.3018 661252
-1715.0498 1005.5556 9048.1104 660997
-1429.6736 865.37903 7786.7847 660483
-1376.9872 861.38062 7750.8066 462081
-1329.3174 860.35217 7741.5522 723971
-1504.9191 1008.9369 9078.5352 131072
-1450.9446 1008.9369 9078.5352 196608
-1378.858 995.85565 8960.8291 196608
-1302.3215 978.38 8803.5811 131072
-1193.0076 933.78528 8402.3125 197120
-1125.5768 919.50824 8273.8457 65536
-1110.8693 948.96533 8538.9043 0
-1041.4209 932.24164 8388.4229 0
-991.54932 932.24164 8388.4229 65536
-922.79248 913.54559 8220.1934 65536
-901.88507 942.7774 8483.2246 65536
-829.35297 918.3103 8263.0664 65536
-815.67535 960.03265 8638.4893 196608
-738.06378 927.0567 8341.7676 262144
-708.25165 953.69409 8581.4541 393216
-642.92535 932.93329 8394.6455 458752
-586.35626 922.45477 8300.3594 458752
-522.33374 897.24738 8073.5396 393216
-487.66034 922.45477 8300.3594 393216
-443.80377 934.01166 8404.3496 393216
-404.31339 958.85577 8627.8994 393216
-358.88965 974.80383 8771.4023 393216
-311.5177 989.98315 8907.9873 393216
-256.15308 980.77795 8825.1582 393216
-203.96417 982.12201 8837.252 393216
-146.88361 952.67175 8572.2549 393216
-92.821342 921.90411 8295.4043 327937
-43.502857 921.90411 8295.4043 393216
5.9448452 942.38727 8479.7139 458752
56.808067 949.89447 8547.2646 524288
112.07672 989.19495 8900.8945 524288
165.09338 989.78461 8906.2012 458752
219.49529 996.37616 8965.5127 458752
273.68777 999.62683 8994.7627 458752
328.13959 1002.6073 9021.5811 458752
385.93484 1013.5307 9119.8711 458752
441.37054 1016.3297 9145.0566 458752
494.58237 1013.9555 9123.6934 458752
557.51923 1030.0176 9268.2217 393216
597.35803 1004.3548 9037.3057 985349
671.93665 1036.5166 9326.7012 1314306
733.67584 1045.4789 9407.3447 1445637
814.29022 1078.1632 9701.4424 458752
880.52686 1088.746 9796.668 524288
935.03723 1084.416 9757.7061 524288
996.27313 1087.9363 9789.3809 458752
1063.4824 1097.231 9873.0156 458752
1156.3256 1130.6171 10173.428 131072
1249.9343 1161.3954 10450.376 1118473
1324.9766 1172.8246 10553.217 256
1387.7184 1172.8246 10553.217 256
1453.1024 1174.9611 10572.441 256
1579.2318 1224.0018 11013.716 256
1644.7114 1224.0018 11013.716 256
1696.8248 1214.4354 10927.636 256
1723.0697 1187.7429 10687.454 256
1742.6267 1158.5031 10424.35 0
1754.22 1126.1589 10133.314 0
1775.4927 1101.9703 9915.6621 0
1849.9376 1111.2776 9999.4092 0
1974.6617 1149.2681 10341.252 0
2036.1434 1149.2681 10341.252 256
2092.8286 1146.6401 10317.605 256
2222.1304 1182.8149 10643.11 256
2214.1638 1145.943 10311.333 256
2201.0046 1108.443 9973.9033 256
2249.9355 1103.3591 9928.1582 0
0 0 0 0
0 0 0 0
0 0 0 0
0 0 0 0
0 0 0 0
0 0 0 0
0 0 0 0
0 0 0 0
3148.5239 1249.0991 11239.544 462083
4430.4971 1721.1614 15487.217 1317647
4522.5723 1721.1614 15487.217 1581075
4801.0288 1790.6771 16112.729 331011
4725.3223 1727.9624 15548.414 527623
4999.7275 1793.2272 16135.673 1317905
5095.6587 1793.2272 16135.673 1187085
0 0 0 0
0 0 0 0
5383.8403 1793.3564 16136.837 5397839
5480.519 1793.5989 16139.019 9807246
5575.3774 1793.2473 16135.855 329984
4634.9058 1465.5404 13187.108 3424541
4706.2471 1463.3452 13167.356 2174474
3889.0083 1189.4503 10702.817 3226392
3398.6006 1022.7258 9202.6104 3159326
3453.3127 1022.7258 9202.6104 512
3737.5393 1089.6383 9804.6963 256
3916.2656 1124.2106 10115.781 1118221
4215.5229 1191.8135 10724.081 460291
4256.8076 1185.5544 10667.762 65536
4438.9155 1218.124 10960.826 131072
4661.0952 1260.5885 11342.927 196608
4999.5991 1332.8528 11993.17 131328
5417.5034 1423.9546 12812.915 65536
6719.2866 1741.6305 15671.4 256
7010.792 1792.3353 16127.649 65792
7100.3457 1790.739 16113.285 1184784
7201.7764 1792.1406 16125.897 256
7285.9951 1789.2787 16100.145 256
7399.6475 1793.6255 16139.257 256
7495.6704 1793.6422 16139.408 789770
7591.7617 1793.6749 16139.702 256
7694.7881 1795.3247 16154.548 256
7791.1045 1795.3877 16155.114 256
7852.9102 1787.5933 16084.979 256
7941.3706 1785.981 16070.471 256
8045.853 1787.9674 16088.346 256
8142.1323 1788.1056 16089.589 256
8237.7891 1788.1056 16089.589 256
8362.7598 1794.3955 16146.187 256
8476.3418 1798.1263 16179.758 256
8572.5352 1798.1263 16179.758 256
8646.3262 1793.4797 16137.946 256
8742.2705 1793.4797 16137.946 256
8847.9121 1795.4473 16155.651 256
8936.3184 1793.9131 16141.845 256
9030.4102 1793.5404 16138.492 256
9126.3574 1793.5404 16138.492 256
9224.6533 1793.9968 16142.6 0
9320.625 1793.9968 16142.6 0
9373.2715 1785.7426 16068.327 256
9468.8018 1785.7426 16068.327 256
9605.5078 1793.4304 16137.502 329221
9719.9902 1796.8577 16168.342 329989
9815.6328 1796.7694 16167.548 132611
9897.8145 1794.2427 16144.812 461832
9991.7139 1793.868 16141.441 198403
10087.68 1793.868 16141.441 198659
10183.89 1793.9114 16141.83 659209
10288.114 1795.3524 16154.796 855562
10391.422 1796.6079 16166.095 724232
10487.534 1796.6079 16166.095 526599
10527.696 1787.1101 16080.633 256
10361.483 1743.066 15684.317 256
10759.197 1793.8284 16141.083 256
10854.678 1793.7484 16140.364 512
10949.94 1793.6345 16139.339 256
11045.894 1793.6345 16139.339 512
11141.625 1793.5986 16139.018 1285
11235.432 1793.2567 16135.938 66308
0 0 0 0
11429.164 1793.5494 16138.574 12635092
11527.029 1793.848 16141.26 9739438
11622.997 1793.8484 16141.264 8161434
11719.606 1793.9473 16142.152 8293535
11815.576 1793.9473 16142.152 10268612
11911.219 1793.8978 16141.709 9476265
12007.18 1793.8971 16141.701 4804703
12103.146 1793.8971 16141.701 790810
12198.782 1793.8483 16141.263 778
12294.744 1793.848 16141.26 3
12390.708 1793.848 16141.26 197894
12486.324 1793.7979 16140.81 1028
12583.213 1793.9302 16141.999 1121051
12678.854 1793.8837 16141.582 858907
12774.82 1793.8837 16141.582 4545889
12871.146 1793.9337 16142.031 7507353
12966.496 1793.8483 16141.263 5926267
13061.576 1793.7267 16140.169 5202547
13157.691 1793.7483 16140.363 4610666
13253.651 1793.7483 16140.363 6190726
13349.024 1793.6694 16139.654 6386305
13444.978 1793.6694 16139.654 7702937
13541.523 1793.7477 16140.357 8559017
13637.107 1793.6982 16139.913 12174547
13733.062 1793.6982 16139.913 10726843
13829.02 1793.6982 16139.913 7240839
13923.153 1793.4639 16137.803 1644317
0 0 0 0
14118.453 1793.8972 16141.703 3686728
14214.42 1793.8972 16141.703 5069412
14309.2 1793.7483 16140.363 9213602
14404.715 1793.6931 16139.866 8227221
14500.714 1793.6985 16139.914 6384245
14597.401 1793.7882 16140.723 6254459
14693.068 1793.7526 16140.4 2173743
14787.762 1793.5991 16139.02 5137768
14883.093 1793.5242 16138.347 10924466
14978.56 1793.4666 16137.829 12438473
0 0 0 0
0 0 0 0
0 0 0 0
0 0 0 0
0 0 0 0
0 0 0 0
0 0 0 0
0 0 0 0
0 0 0 0
0 0 0 0
0 0 0 0
0 0 0 0
-6899.1953 900.47119 7691.1025 1387278
-6961.6948 914.69073 7812.5547 1518864
-7385.0078 976.82678 8343.2705 1650451
-7380.2559 982.7995 8394.2842 1453072
-7454.0288 999.38141 8535.9141 1057801
-7403.2798 999.38141 8535.9141 925961
-6647.6206 903.5675 7717.5488 859910
-6601.7383 903.5675 7717.5488 990985
-7510.5967 1035.1558 8841.4697 990729
-6594.7739 915.33783 7818.0811 924936
-6451.3101 901.78119 7702.2915 793349
-6393.8862 900.14368 7688.3052 859144
-6321.4355 896.35187 7655.9185 924681
-6275.9189 896.35187 7655.9185 991243
-6505.751 935.96564 7994.2671 794120
-6458.2227 935.96564 7994.2671 925451
-6410.6948 935.96564 7994.2671 991499
-6222.0327 915.20599 7816.9556 925706
-6428.9966 952.76501 8137.7544 1254671
-6380.6152 952.76501 8137.7544 991498
-6507.5562 979.14441 8363.0664 1254927
-6260.4619 949.21851 8107.4624 859912
-5884.0327 899.06598 7679.1006 794118
-5568.7705 857.54846 7324.4907 596996
-5801.2681 900.39215 7690.4272 794374
-6011.4043 940.41827 8032.2983 1058058
-5976.0396 942.37195 8048.9854 794885
-5960.5923 947.52344 8092.9849 795141
-5783.6943 926.88489 7916.707 926725
-5593.644 903.78265 7719.3862 860932
-5547.75 903.78265 7719.3862 795139
-5411.2817 888.90411 7592.3057 729602
-5333.5088 883.49817 7546.1323 861442
-5566.8818 929.97919 7943.1362 795905
-5866.2524 988.37518 8441.9082 598528
-6043.8853 1027.0911 8772.5879 795904
-5991.7295 1027.0911 8772.5879 796160
-5887.0908 1018.0155 8695.0713 993793
-5686.897 992.10895 8473.7988 1059586
-5636.5176 992.10895 8473.7988 1125123
-5677.4458 1008.3253 8612.3057 1125380
-5673.856 1016.8584 8685.1885 994051
-5931.0259 1072.7103 9162.2305 993281
-5641.2441 1029.7567 8795.3555 795904
-5581.5234 1028.3878 8783.6631 730112
-5208.5024 968.72266 8274.0518 729856
-5159.311 968.72266 8274.0518 532480
-5430.3379 1029.4263 8792.5332 795648
-5355.6313 1025.1323 8755.8584 861441
-5303.5752 1025.1323 8755.8584 861441
-5251.519 1025.1323 8755.8584 730112
-5250.5356 1035.2019 8841.8643 729856
-4843.707 964.64899 8239.2578 532480
-4754.9121 956.63959 8170.8477 927234
-4900.3491 996.07629 8507.6846 927236
-5165.3521 1060.8929 9061.2959 532736
-5232.8682 1086.087 9276.4844 597504
-5057.6084 1060.8929 9061.2959 400128
-5183.2324 1098.9497 9386.3467 663296
-5329.0493 1142.1627 9755.4375 663297
-5353.5747 1160.0446 9908.1699 860418
-5294.6685 1160.0446 9908.1699 664064
-5041.103 1116.9158 9539.7979 730113
-5068.6104 1135.7888 9700.9971 664064
-5084.8027 1152.5317 9844.002 861698
-5026.2773 1152.5317 9844.002 730624
-4525.9858 1050.0409 8968.6064 861953
-4867.1294 1142.6488 9759.5889 796416
-4782.3687 1136.296 9705.3281 664832
-4723.4932 1136.0134 9702.915 533248
-4665.8066 1136.0134 9702.915 599040
-4493.6113 1107.7843 9461.8047 664832
-4434.106 1106.9723 9454.8691 796416
-4290.1245 1084.7793 9265.3145 796672
-4144.6299 1061.6215 9067.5186 928256
-4025.2275 1044.6248 8922.3457 1125376
-3972.1821 1044.6248 8922.3457 1586181
-3864.552 1030.0756 8798.0791 1388802
-3785.8694 1022.9489 8737.208 1389057
-3740.7397 1024.816 8753.1562 1191424
-3688.7 1024.816 8753.1562 1257472
-3636.6599 1024.816 8753.1562 1257216
-3634.0615 1038.9509 8873.8857 1257216
-3447.7754 1000.2139 8543.0244 1388800
-3396.9849 1000.2139 8543.0244 1323008
-3601.9841 1076.6722 9196.0703 1322753
-3409.0166 1034.6975 8837.5557 1190912
-3056.6533 942.27179 8048.1294 1387520
-3006.9888 941.70294 8043.271 1189120
-3216.3242 1023.538 8742.2402 1451776
-3164.3491 1023.538 8742.2402 1649152
-2915.6799 958.85291 8189.7524 1386240
-2757.0852 922.09583 7875.8032 1386240
-2565.7522 872.93042 7455.8711 1650176
-2521.425 872.93042 7455.8711 1584384
-2477.0979 872.93042 7455.8711 1780224
-2451.0183 879.47815 7511.7964 1975808
-2354.4763 860.51605 7349.8379 394752
-2206.3823 821.63953 7017.7852 656128
-1754.1012 665.80383 5686.7622 393216
-1642.7424 635.78998 5430.4077 1050112
-1601.3229 632.18384 5399.6069 524288
-1539.4431 620.1875 5297.144 524288
-1495.7491 615.16949 5254.2842 393216
-1464.5109 615.16949 5254.2842 256
-1459.7208 626.52112 5351.2407 1450248
-1464.4449 642.55322 5488.1743 925953
-1447.5402 649.60962 5548.4443 927746
-1653.7059 759.43646 6486.4971 861442
-1638.4203 770.38202 6579.9849 926977
-1637.2017 788.63892 6735.9214 795137
-1672.0275 825.60938 7051.6929 729089
-1630.1031 825.60938 7051.6929 794370
-1587.1156 825.05676 7046.9727 794112
-1612.5759 861.02112 7354.1514 860418
-1569.1923 861.20709 7355.7397 794624
-1575.4084 889.40558 7596.5889 992258
-1548.0402 899.7486 7684.9307 927233
-1661.1641 994.86066 8497.3018 993027
-1670.0782 1031.5712 8810.8535 926978
-1490.1121 950.21405 8115.9658 925443
-1376.9872 907.46136 7750.8066 1252102
-1302.4211 888.03888 7584.916 512
-1494.5848 1055.6123 9016.1934 131072
-1440.9811 1055.6123 9016.1934 196608
-1371.296 1043.3766 8911.6855 196608
-1318.3136 1043.3766 8911.6855 65792
-1252.9935 1033.2031 8824.792 1053447
-1125.5768 968.69855 8273.8457 922886
-1091.2924 982.11316 8388.4229 791557
-1020.5352 962.41693 8220.1934 725254
-991.54932 982.11316 8388.4229 593156
-922.79248 962.41693 8220.1934 723973
-857.97974 944.86127 8070.2471 526595
-800.6488 933.95312 7977.0786 328962
-753.22278 933.95312 7977.0786 328192
-703.26367 930.60114 7948.4482 196608
-668.71057 948.62091 8102.3584 524288
-620.53979 948.62091 8102.3584 458752
-570.33319 945.24677 8073.5396 458752
-523.20551 946.82434 8087.0137 393216
-487.66034 971.80273 8300.3594 393216
-444.09763 984.62939 8409.9141 393216
-404.05161 1009.497 8622.3135 393216
-361.08914 1033.246 8825.1582 393216
-308.62112 1033.246 8825.1582 393216
-255.80876 1031.8572 8813.2959 393216
-201.54015 1022.3654 8732.2246 393216
-148.5378 1014.939 8668.7949 393216
-96.99939 1014.939 8668.7949 393216
-45.187901 1008.8421 8616.7197 458752
6.0408959 1008.8421 8616.7197 524288
58.135986 1024.1023 8747.0605 524288
112.89331 1049.7061 8965.7471 589824
166.19717 1049.7061 8965.7471 524288
220.39502 1053.9813 9002.2627 458752
275.67422 1060.7468 9060.0479 458752
331.32602 1066.4998 9109.1855 458752
385.19629 1065.7076 9102.4189 458752
439.63873 1066.4984 9109.1738 524288
501.30551 1082.719 9247.7168 458752
557.51923 1085.1196 9268.2217 524288
597.35803 1058.0841 9037.3057 1642763
671.93665 1091.9664 9326.7012 1050368
764.03906 1146.99 9796.668 721408
822.28302 1146.99 9796.668 458752
873.66321 1138.0493 9720.3037 393216
929.64581 1135.8409 9701.4424 524288
993.0495 1142.4283 9757.7061 524288
1063.4824 1155.9287 9873.0156 393216
1128.2183 1162.1483 9926.1377 262144
1216.8094 1191.1008 10173.428 65792
1324.9766 1235.5664 10553.217 65792
2096.9329 1867.0214 15946.599 512
1636.36 1393.9241 11905.781 256
1602.2655 1308.2889 11174.354 256
1644.7114 1289.4814 11013.716 256
1696.8248 1279.4032 10927.636 256
1700.0535 1234.5686 10544.694 256
1710.3621 1197.8816 10231.344 0
1710.9742 1157.1566 9883.5039 0
1767.751 1155.8597 9872.4268 0
1834.4441 1160.9218 9915.6621 0
1974.6617 1210.7496 10341.252 256
2027.0575 1205.3469 10295.106 0
2091.5562 1207.2467 10311.333 256
2256.532 1265.3823 10807.88 1184527
2320.7876 1265.3823 10807.88 66049
2218.4634 1177.0033 10053.018 256
2267.1443 1171.2753 10004.094 724231
2206.731 1110.9198 9488.585 921610
0 0 0 0
0 0 0 0
0 0 0 0
0 0 0 0
0 0 0 0
0 0 0 0
0 0 0 0
4338.4209 1813.2371 15487.217 256
4616.084 1889.1909 16135.954 256
4712.1997 1889.2645 16136.581 512
4808.146 1889.2683 16136.613 725000
4904.0723 1889.2645 16136.581 462085
5000.3662 1889.3994 16137.734 397316
5096.1475 1889.3394 16137.222 989195
0 0 0 0
0 0 0 0
0 0 0 0
5480.9761 1889.7075 16140.364 6648409
5576.4702 1889.5499 16139.019 6253644
5672.0317 1889.4203 16137.911 2634517
5767.9761 1889.4203 16137.911 2239758
5863.7954 1889.3798 16137.566 4475952
3529.8228 1119.0386 9557.9297 2765594
3655.772 1140.6056 9742.1377 512
3737.5393 1147.9299 9804.6963 0
3916.2656 1184.3517 10115.781 197378
4215.5229 1255.5712 10724.081 1381393
4147.0366 1216.7699 10392.672 131072
4320.23 1248.9773 10667.762 196608
4661.0952 1328.0254 11342.927 196608
4999.5991 1404.1555 11993.17 196864
5177.7812 1433.7509 12245.949 65536
6719.2866 1834.8013 15671.4 256
7012.2476 1888.6107 16130.997 329219
7108.1509 1888.6107 16130.997 256
7201.7764 1888.0137 16125.897 329217
7285.9951 1884.9984 16100.145 263681
7399.4404 1889.5248 16138.806 66304
7495.3901 1889.5248 16138.806 0
7591.5518 1889.5778 16139.257 0
7694.7881 1891.368 16154.548 0
7790.8315 1891.368 16154.548 256
7852.9102 1883.2228 16084.979 256
7949.2637 1883.3945 16086.444 256
8031.9565 1880.3638 16060.558 256
8113.9976 1877.2535 16033.993 256
8175.5947 1869.5405 15968.114 256
8287.9189 1873.4713 16001.688 256
8443.9961 1887.0909 16118.018 256
8550.3818 1889.4243 16137.946 65792
8646.3262 1889.4243 16137.946 0
8742.167 1889.4019 16137.754 0
8839.0469 1889.6022 16139.465 0
8935.249 1889.6547 16139.914 256
9030.4502 1889.4966 16138.564 0
9126.3984 1889.4966 16138.564 256
9222.9619 1889.6226 16139.64 0
9317.1787 1889.2703 16136.631 256
9379.1836 1882.4598 16078.462 256
9526.7021 1892.7769 16166.582 256
9623.9561 1893.001 16168.495 256
9720.7422 1893.1295 16169.593 0
9811.3916 1892.0721 16160.562 65792
9895.207 1889.73 16140.558 395268
9989.999 1889.5093 16138.671 790024
10085.947 1889.5093 16138.671 394755
10183.89 1889.8789 16141.83 197889
10299.076 1893.4121 16172.008 461061
10416.097 1897.2144 16204.482 131841
10504.998 1895.8716 16193.014 395010
10333.51 1847.9868 15784.021 256
10311.964 1827.5375 15609.359 256
10670.962 1874.2935 16008.71 256
10853.385 1889.4823 16138.441 256
10949.94 1889.5873 16139.339 256
11045.98 1889.6022 16139.466 256
11141.538 1889.535 16138.892 515
11236.015 1889.2872 16136.775 259
0 0 0 0
11429.164 1889.4979 16138.574 9804710
11525.427 1889.5493 16139.015 7962509
11622.991 1889.8116 16141.256 8094091
11719.606 1889.9169 16142.153 2632495
11815.578 1889.917 16142.154 6123894
11911.602 1889.9255 16142.228 8819865
12007.851 1889.9695 16142.603 10003883
12104.165 1890.0229 16143.06 2107951
12199.116 1889.8645 16141.705 6187374
12294.399 1889.7592 16140.807 5725538
12390.363 1889.7595 16140.81 592652
12485.98 1889.7075 16140.365 132358
12582.287 1889.7595 16140.81 132873
12677.896 1889.707 16140.361 66567
12774.566 1889.8123 16141.26 857623
12870.787 1889.85 16141.582 1120281
12966.494 1889.8123 16141.26 329226
13062.457 1889.812 16141.259 922135
13158.055 1889.7595 16140.809 790803
13253.651 1889.7073 16140.363 197898
13349.609 1889.7073 16140.363 395280
13444.82 1889.6022 16139.465 2500917
13541.523 1889.7065 16140.357 331031
13637.486 1889.7073 16140.363 5593703
13733.556 1889.7223 16140.492 1777193
13829.02 1889.6545 16139.913 5991802
13923.153 1889.4075 16137.803 8091780
0 0 0 0
14117.28 1889.707 16140.361 10466498
14214.029 1889.812 16141.259 10005177
14309.2 1889.7073 16140.363 6452100
14404.715 1889.6492 16139.866 7635862
14501.118 1889.7073 16140.363 1447975
14597.401 1889.7493 16140.723 1250336
14692.128 1889.5906 16139.367 856086
14787.477 1889.5135 16138.708 855825
14881.662 1889.2894 16136.794 461323
0 0 0 0
0 0 0 0
0 0 0 0
0 0 0 0
0 0 0 0
0 0 0 0
0 0 0 0
0 0 0 0
0 0 0 0
0 0 0 0
0 0 0 0
0 0 0 0
0 0 0 0
-6268.5757 859.71002 6988.0986 1189900
-6432.9771 888.14331 7219.2168 1255693
-6280.5059 872.91699 7095.4512 1058571
-6421.563 898.55768 7303.8696 1058570
-6378.1401 898.55768 7303.8696 1058827
-6249.2773 886.43848 7205.3594 926727
-6206.439 886.43848 7205.3594 926473
-6165.29 886.68134 7207.3335 992264
-5957.1138 862.73792 7012.7109 860679
-5821.5889 849.0528 6901.4727 992008
-5873.729 862.73792 7012.7109 992264
-5898.3677 872.55042 7092.4712 1189643
-6011.5186 895.69214 7280.5771 1058827
-5610.0894 841.94299 6843.6812 1190157
-5661.4624 855.86005 6956.8052 1321999
-5734.9702 873.35284 7098.9937 1321740
-5692.7646 873.35284 7098.9937 1387533
-5616.9238 868.15417 7056.7363 1387789
-5647.1265 879.39062 7148.0718 1453582
-5707.0508 895.461 7278.6987 1387787
-5663.7769 895.461 7278.6987 1256200
-5469.79 871.44934 7083.5215 1190407
-5427.6763 871.44934 7083.5215 1321993
-5434.2866 879.3335 7147.6074 1321992
-5391.7925 879.3335 7147.6074 1321993
-5413.5347 889.89288 7233.4385 1190662
-5400.8311 894.91376 7274.2505 1190918
-5357.5835 894.91376 7274.2505 1059332
-4788.7993 806.41541 6554.8975 1190918
-4915.1587 834.48486 6783.0576 1190918
-5093.0938 871.84747 7086.7573 1059333
-5039.501 869.86938 7070.6782 1125125
-4997.4639 869.86938 7070.6782 730624
-5026.7861 882.39563 7172.4976 1190917
-5192.6226 919.30493 7472.5122 1388551
-5045.0518 900.88654 7322.7998 1256965
-5038.1138 907.47876 7376.3838 1717514
-5038.0693 915.43921 7441.0898 1454341
-5032.0195 922.43982 7497.9941 1454601
-5086.2754 940.71942 7646.5786 1388550
-5117.8867 955.10266 7763.4917 1388806
-5338.0322 1005.2523 8171.1304 1257222
-5289.4526 1005.2523 8171.1304 1124866
-4960.6289 951.49872 7734.1978 1059074
-4886.8398 946.11505 7690.437 1388038
-4600.4644 899.08325 7308.1421 1256708
-4547.5566 897.21716 7292.9736 1190916
-4504.1978 897.21716 7292.9736 1388294
-4657.0117 936.67371 7613.6934 1585930
-4590.4253 932.34326 7578.4941 1454086
-4707.4648 965.59247 7848.7573 1322501
-4660.8022 965.59247 7848.7573 1059586
-4614.1392 965.59247 7848.7573 1190659
-4355.2451 920.72559 7484.0596 1124866
-4310.7505 920.72559 7484.0596 1125122
-4266.2554 920.72559 7484.0596 1256451
-4310.502 940.0791 7641.374 1388037
-4143.1733 913.211 7422.9785 1190915
-4099.0415 913.211 7422.9785 1190659
-4095.1189 922.26648 7496.5854 1190659
-4102.6777 934.1355 7593.0615 1059073
-4057.5347 934.1355 7593.0615 1059328
-4012.3918 934.1355 7593.0615 1059328
-4095.2996 964.28644 7838.1421 1190912
-4048.6992 964.28644 7838.1421 993792
-3959.1311 953.93347 7753.9883 928000
-3913.0312 953.93347 7753.9883 796672
-3866.9321 953.93347 7753.9883 796672
-3859.1809 963.50787 7831.813 928000
-4024.5815 1017.0742 8267.2236 928256
-3975.4307 1017.0742 8267.2236 862464
-3926.2795 1017.0742 8267.2236 928256
-3650.0122 957.49542 7782.9414 993792
-3603.7405 957.49542 7782.9414 862208
-3535.751 951.65009 7735.4282 664832
-3487.6782 951.08185 7730.8096 796416
-3441.7163 951.08185 7730.8096 599040
-3329.7939 932.60779 7580.6436 796416
-3362.1523 954.59106 7759.334 993792
-3288.3342 946.62079 7694.5479 928000
-3242.5879 946.62079 7694.5479 994304
-3216.7898 952.52777 7742.562 1191680
-3170.7581 952.52777 7742.562 1191680
-3074.8318 937.31799 7618.9307 1125888
-3237.0645 1001.5262 8140.8433 1059584
-3152.3501 990.12018 8048.1294 993536
-3104.5017 990.12018 8048.1294 1058816
-3047.9966 987.31592 8025.3359 1058304
-2962.8425 974.99506 7925.186 794368
-2915.7251 974.99506 7925.186 399104
-2868.6077 974.99506 7925.186 267008
-2659.7241 919.09515 7470.8071 530432
-2595.4968 912.13293 7414.2153 464640
-2533.1602 905.60596 7361.1611 398848
-2430.0784 884.02704 7185.7583 858880
-2444.5398 905.20154 7357.874 989184
-2380.2188 897.44336 7294.8125 512
-2336.8491 897.44336 7294.8125 460032
-1872.7426 732.80817 5956.5854 787456
-1615.9836 644.52582 5238.9878 524544
-1603.5443 652.13403 5300.8306 458752
-1572.0295 652.13403 5300.8306 458752
-1539.4431 651.68048 5297.144 458752
-1495.7491 646.40765 5254.2842 65792
-1491.5354 658.33569 5351.2407 1582090
-1479.3455 667.18652 5423.1836 1912842
-1492.447 688.09229 5593.1152 1585928
-1450.8369 684.15131 5561.0811 1256964
-1625.9481 784.60602 6377.6206 1059842
-1615.1418 798.00055 6486.4971 862464
-1585.2782 802.4043 6522.293 1059328
-1613.8308 837.33832 6806.2515 1059585
-1557.1079 828.68585 6735.9214 1256709
-1581.1648 863.70227 7020.5498 1190658
-1545.6273 867.18176 7048.832 1124866
-1569.1923 904.93896 7355.7397 730624
-1554.525 922.18085 7495.8892 796416
-1535.1207 937.54736 7620.7949 796416
-1646.3217 1036.0392 8421.3789 796416
-1596.2542 1036.0392 8421.3789 992768
-1392.61 933.13336 7584.916 1122563
-1347.5155 933.13336 7584.916 132608
-1490.0778 1067.5819 8677.7725 131328
-1483.8658 1101.2609 8951.5303 262144
-1440.9811 1109.2161 9016.1934 256
-1396.7115 1116.679 9076.8545 593155
-1342.7472 1116.679 9076.8545 1055752
-1312.042 1136.8322 9240.6689 794117
-1222.8909 1105.8927 8989.1787 794117
-1149.6473 1087.1683 8836.9795 794117
-1069.4595 1059.7692 8614.2676 925447
-1018.2452 1059.7692 8614.2676 924933
-952.50549 1043.8507 8484.875 990471
-857.97974 992.84113 8070.2471 858375
-809.47797 992.20135 8065.0464 988936
-753.22278 981.37909 7977.0786 922117
-702.71051 977.08783 7942.1968 1117958
-655.49194 977.08783 7942.1968 459008
-620.53979 996.79169 8102.3584 458752
-545.6886 950.32721 7724.6748 1116164
-523.20551 994.90387 8087.0137 459008
-475.12592 994.90387 8087.0137 327680
-456.58493 1063.7208 8646.3877 262144
-410.86905 1078.6569 8767.7949 196608
-360.71494 1084.5889 8816.0127 262144
-306.74121 1079.1007 8771.4023 262144
-258.64139 1096.2607 8910.8867 262144
-199.34909 1062.6017 8637.291 262144
-154.90015 1112.1581 9040.1074 262144
-101.73746 1118.571 9092.2344 393216
-47.414402 1112.3027 9041.2832 393216
6.1388569 1077.2614 8756.4512 458752
59.883118 1108.4459 9009.9326 524288
113.3531 1107.5022 9002.2627 524288
166.47629 1104.8623 8980.8037 458752
220.39502 1107.5022 9002.2627 458752
277.16937 1120.6565 9109.1855 458752
332.0376 1123.0632 9128.749 458752
387.00064 1125.0695 9145.0566 458752
450.0513 1147.197 9324.9189 458752
503.86142 1143.4998 9294.8662 458752
560.92975 1147.197 9324.9189 524288
614.38257 1143.4998 9294.8662 458752
698.44635 1192.6849 9694.6641 458752
756.60767 1193.5112 9701.3809 458752
814.28503 1193.5112 9701.3809 262144
869.88733 1190.6708 9678.293 393216
913.34833 1172.5955 9531.3682 1511176
980.02435 1184.6952 9629.7207 458752
1055.9916 1206.071 9803.4727 393216
1121.6426 1214.0446 9868.2852 196608
1216.0709 1250.8251 10167.253 65792
1282.1692 1256.3625 10212.264 256
2096.9329 1961.8284 15946.599 512
1863.4873 1668.0092 13558.308 256
1707.1432 1464.7073 11905.781 256
1668.7001 1374.7236 11174.354 256
1670.3566 1323.4008 10757.18 256
1657.8403 1265.0482 10282.865 0
1669.2648 1228.465 9985.5 0
1687.7665 1199.4241 9749.4434 0
1721.3257 1182.6571 9613.1533 0
1834.4441 1219.8732 9915.6621 0
1958.3344 1261.7119 10255.746 0
2025.4614 1265.5569 10287 256
2088.2649 1266.5542 10295.106 256
2256.532 1329.6381 10807.88 0
2262.0942 1296.0111 10534.545 131584
2243.7629 1250.8755 10167.663 526854
2278.2314 1236.7712 10053.018 66305
2206.731 1167.332 9488.585 256
0 0 0 0
0 0 0 0
0 0 0 0
0 0 0 0
0 0 0 0
0 0 0 0
0 0 0 0
4338.4209 1905.3129 15487.217 1184525
4616.0029 1985.0889 16135.671 132097
4705.2339 1982.2665 16112.729 132354
4808.2729 1985.2573 16137.04 987918
4904.1313 1985.2249 16136.775 66561
5000.2075 1985.2797 16137.222 768
5096.0059 1985.2247 16136.773 792331
0 0 0 0
0 0 0 0
0 0 0 0
5480.519 1985.5007 16139.019 6713176
5576.0874 1985.3646 16137.911 6055249
5672.894 1985.6663 16140.364 2567198
5768.1167 1985.4128 16138.304 3225892
5864.063 1985.4128 16138.304 2896410
3664.4504 1220.7104 9922.4688 1711884
3679.2478 1206.2216 9804.6963 256
3737.5393 1206.2216 9804.6963 65792
4058.4324 1289.6699 10483.001 65536
4150.2705 1298.9067 10558.082 131328
4185.666 1290.4668 10489.479 196608
4390.542 1333.7595 10841.38 196608
4697.4883 1406.3577 11431.49 196608
4937.6079 1457.1636 11844.463 196864
5070.9023 1475.4583 11993.17 262912
6916.3442 1984.514 16130.997 65536
7014.6729 1985.2003 16136.576 1711126
7111.9902 1985.5858 16139.71 0
7208.4873 1985.7352 16140.924 256
7277.7905 1978.4879 16082.015 0
7346.9863 1971.3995 16024.397 132096
7452.4502 1974.1001 16046.349 66304
7555.9048 1976.2068 16063.473 256
7659.8223 1978.3801 16081.14 256
7746.9087 1976.2068 16063.473 256
7853.6255 1979.0328 16086.444 0
7974.709 1985.3676 16137.936 256
8031.9565 1975.8483 16060.558 256
8110.021 1971.6133 16026.135 256
8116.8076 1950.3495 15853.294 256
8287.9189 1968.6057 16001.688 256
8443.9961 1982.9171 16118.018 256
8550.3818 1985.3689 16137.946 65793
8646.6582 1985.4452 16138.566 66304
8742.6064 1985.4452 16138.566 197377
8838.7471 1985.4883 16138.917 395780
8935.001 1985.5558 16139.465 461573
9030.4512 1985.4452 16138.566 658954
9126.3994 1985.4452 16138.566 2106400
9222.6045 1985.5004 16139.016 256
9319.0723 1985.6106 16139.91 263427
9415.0283 1985.6106 16139.91 256
9526.7021 1988.8918 16166.582 256
9624.0576 1989.1483 16168.667 513
9720.8818 1989.2906 16169.825 197634
9799.2461 1985.6901 16140.558 197634
9893.7109 1985.39 16138.118 256
9989.7207 1985.4028 16138.223 256
10087.35 1985.7339 16140.913 0
10187.554 1986.561 16147.637 658439
10288.114 1987.4417 16154.796 395267
10408.726 1992.1434 16193.014 527109
10504.998 1992.1434 16193.014 256
10333.51 1941.8273 15784.021 0
10311.964 1920.3396 15609.359 256
10395.389 1918.6089 15595.292 256
10503.525 1921.4294 15618.219 256
10912.037 1978.6672 16083.472 256
11045.588 1985.4851 16138.892 256
11141.44 1985.4677 16138.75 256
11237.264 1985.4456 16138.569 513
11333.211 1985.4454 16138.568 1538
11429.16 1985.4454 16138.568 199170
11525.427 1985.5004 16139.015 1055505
11622.023 1985.6106 16139.911 4806219
11719.283 1985.8317 16141.708 6384998
11815.578 1985.8866 16142.154 1121561
11911.602 1985.8955 16142.228 395272
12007.571 1985.8955 16142.228 5924715
12103.492 1985.8876 16142.162 9740966
12199.122 1985.8322 16141.713 9279394
12294.399 1985.7207 16140.807 5264476
12390.016 1985.6655 16140.357 3950414
12485.635 1985.6113 16139.917 1976618
12581.237 1985.5555 16139.464 988183
12677.896 1985.6659 16140.361 1287
12774.566 1985.7765 16141.26 528916
12870.787 1985.8163 16141.582 529174
12966.852 1985.8311 16141.704 4675933
13062.818 1985.8311 16141.704 7174012
13158.062 1985.722 16140.817 4542552
13254.021 1985.7214 16140.812 3292228
13349.979 1985.7209 16140.809 3292229
13444.978 1985.579 16139.654 132108
13541.523 1985.6655 16140.357 198671
13637.107 1985.611 16139.913 526860
13733.556 1985.6821 16140.492 395536
13829.02 1985.611 16139.913 2766656
13923.215 1985.36 16137.873 9080467
0 0 0 0
0 0 0 0
14214.029 1985.7765 16141.259 7239286
14309.993 1985.7765 16141.259 3685703
14405.958 1985.7765 16141.259 2961208
14502.521 1985.8584 16141.926 2171948
14597.44 1985.7157 16140.766 263432
14691.957 1985.5205 16139.179 3553602
14788.082 1985.5437 16139.367 987669
14882.132 1985.2899 16137.304 790545
0 0 0 0
0 0 0 0
0 0 0 0
0 0 0 0
0 0 0 0
0 0 0 0
0 0 0 0
0 0 0 0
0 0 0 0
0 0 0 0
0 0 0 0
0 0 0 0
0 0 0 0
-5675.2964 815.95825 6326.7212 1058571
-6139.4688 888.58325 6889.8364 1190156
-5782.356 842.51849 6532.6626 1255949
-5593.7134 820.54364 6362.2754 1058571
-5897.8765 871.05157 6753.9004 992778
-5867.3413 872.48193 6764.9907 1190413
-5817.5684 871.05157 6753.9004 1255180
-5535.8989 834.63867 6471.5645 1320973
-5477.8135 831.66138 6448.479 1254924
-5439.4756 831.66138 6448.479 1255179
-5424.4053 835.24408 6476.2583 1320971
-5385.9019 835.24408 6476.2583 1320972
-5347.3989 835.24408 6476.2583 1256205
-5063.8613 796.69305 6177.3438 1387789
-5185.5898 821.80469 6372.0532 1321996
-5478.4644 874.60852 6781.4795 1453581
-5518.4053 887.51636 6881.5635 1388043
-5406.0586 875.94202 6791.8193 1585678
-5136.0142 838.44934 6501.1113 1585677
-5511.7949 906.61798 7029.6724 1454091
-5470.0015 906.61798 7029.6724 1454089
-5396.3193 901.29187 6988.3755 1454089
-5341.6191 899.07806 6971.21 1585675
-4807.7236 815.54297 6323.5015 1388039
-4761.0386 813.98877 6311.4507 1125124
-4723.5151 813.98877 6311.4507 1190917
-5047.0669 876.71008 6797.7744 1256710
-4919.5649 861.46014 6679.5312 1256453
-4393.8613 775.66614 6014.3071 1322503
-4749.8291 845.38617 6554.8975 993794
-4710.8579 845.38617 6554.8975 993538
-4834.5044 874.81201 6783.0576 1059588
-4661.436 850.59015 6595.248 928002
-4862.9458 894.88794 6938.7212 1190916
-4824.5586 895.41986 6942.8452 1256709
-4783.2817 895.41986 6942.8452 1256963
-4742.0044 895.41986 6942.8452 1454343
-4894.5713 932.3443 7229.1475 1388549
-4947.5366 950.78217 7372.1104 1389317
-4761.9321 923.29333 7158.9692 1323267
-4822.9331 943.55432 7316.0674 1454850
-4779.437 943.55432 7316.0674 1389314
-4783.7339 953.07617 7389.897 1192192
-4854.0117 976.04199 7567.9683 1192192
-4476.2983 908.513 7044.3667 1389569
-4312.1343 883.4599 6850.1108 1323776
-4210.7783 870.91974 6752.8779 1323777
-4390.4995 916.83325 7108.8789 1126144
-4452.0918 938.73157 7278.6729 1060608
-4404.687 937.85193 7271.8525 1323520
-4361.4541 937.85193 7271.8525 1257985
-4259.0796 925.00739 7172.2593 1323520
-4216.4385 925.00739 7172.2593 1455105
-3929.3438 870.83099 6752.1899 1586692
-3889.2 870.83099 6752.1899 1389570
-3834.6519 867.57196 6726.9204 1257728
-4023.457 919.88226 7132.52 1323008
-3874.3157 895.21912 6941.2891 1257216
-3908.4526 912.83014 7077.8398 1323008
-3941.481 930.56274 7215.334 1520386
-3977.8403 949.48065 7362.0186 1520384
-3922.5698 946.70483 7340.4951 1389312
-3878.9285 946.70483 7340.4951 1520898
-3898.9878 962.42883 7462.4146 1718018
-3798.0146 948.29504 7352.8252 1718275
-3830.9468 967.65509 7502.938 1455361
-3710.5857 948.29504 7352.8252 1389568
-3396.1113 878.2735 6809.897 1389312
-3559.575 931.65375 7223.7935 1323265
-3588.0415 950.57336 7370.4912 1323265
-3701.02 992.6272 7696.5649 1191680
-3655.262 992.6272 7696.5649 1454850
-3462.9077 952.31262 7383.9771 1454850
-3332.9397 928.33978 7198.0977 1323521
-3376.1318 952.60162 7386.2173 1323264
-3308.918 945.94043 7334.5684 1323522
-3265.3118 945.94043 7334.5684 1454851
-3175.708 932.43488 7229.8496 1323265
-3255.2139 968.89288 7512.5356 1388801
-3210.5496 968.89288 7512.5356 1388800
-3165.8853 968.89288 7512.5356 1586178
-3128.0049 970.99866 7528.8633 1323008
-3023.6155 952.22009 7383.2593 1191936
-2979.72 952.22009 7383.2593 1191680
-2988.1064 969.17743 7514.7422 1191424
-2984.2385 982.61469 7618.9307 1322752
-2950.1436 986.35992 7647.9702 1256704
-2858.7336 970.75952 7527.0093 1453312
-2851.2869 983.6283 7626.79 1189888
-2805.9431 983.6283 7626.79 1452544
-2686.0237 957.05603 7420.7559 1583616
-2638.6199 955.86584 7411.5278 1254656
-2550.585 939.66638 7285.9209 1188864
-2464.99 923.82159 7163.0645 1385984
-2403.6714 916.67767 7107.6729 925184
-2318.8535 900.15601 6979.5684 727296
-2277.3579 900.15601 6979.5684 923648
-2070.3386 833.51624 6462.8613 659456
-1624.1033 666.22693 5165.7446 1184002
-1593.3915 666.22693 5165.7446 262656
-1584.8364 675.6731 5238.9878 393216
-1566.0284 681.03925 5280.5957 393216
-1535.5651 681.45251 5283.7998 327680
-1497.6945 678.52716 5261.1177 592384
-1495.0261 691.76556 5363.7646 1450243
-1512.3221 715.02014 5544.0742 1320448
-1492.447 721.34491 5593.1152 1453318
-1446.4001 715.02014 5544.0742 1256452
-1625.9481 822.52277 6377.6206 1124865
-1588.0316 822.52277 6377.6206 861696
-1550.1147 822.52277 6377.6206 993280
-1515.7943 824.47882 6392.7876 993536
-1526.5275 851.67151 6603.6328 1190912
-1546.1343 885.38141 6865.0103 1191168
-1545.6273 909.08899 7048.832 1125120
-1568.8534 948.46606 7354.1514 1256960
-1541.8093 958.83826 7434.5742 928256
-1497.6088 958.83826 7434.5742 928512
-1453.7576 959.06873 7436.3618 1124864
-1422.1248 967.6272 7502.7217 1254913
-1377.5189 967.6272 7502.7217 396801
-1388.3649 1007.8823 7814.8491 768
-1490.0778 1119.1737 8677.7725 131072
-1441.3127 1121.3729 8694.8252 65792
-1430.6465 1154.4802 8951.5303 329730
-1385.3201 1161.0957 9002.8242 1187337
-1342.7472 1170.6433 9076.8545 662529
-1312.042 1191.7705 9240.6689 728323
-1240.8563 1176.3676 9121.2383 794116
-1172.6068 1162.4674 9013.4609 924933
-1095.6982 1138.2411 8825.6162 925190
-1022.4404 1115.5608 8649.7588 859397
-954.05341 1096.074 8498.6641 859910
-901.7019 1093.8606 8481.502 794117
-845.90173 1086.9536 8427.9463 859652
-788.98157 1077.6469 8355.7852 1055751
-713.58002 1040.1503 8065.0464 1250564
-658.9657 1029.7346 7984.2856 328704
-637.01202 1072.701 8317.4355 328448
-560.37842 1023.0715 7932.6216 1710095
-577.96814 1152.15 8933.4619 329217
-508.48785 1116.2186 8654.8594 256
-479.67899 1171.5289 9083.7217 1579789
-413.12857 1137.0026 8816.0127 1185801
-365.05197 1150.6732 8922.0117 1250827
-302.05127 1113.9528 8637.291 65536
-262.31964 1165.5823 9037.6123 656898
-195.85893 1094.45 8486.0713 591107
-154.90015 1165.9041 9040.1074 262144
-102.39546 1180.2109 9151.0391 393216
-47.414402 1166.0557 9041.2832 393216
6.2459126 1149.0151 8909.1553 458752
60.091488 1166.0557 9041.2832 524288
115.91816 1187.2959 9205.9736 458752
166.19717 1156.3138 8965.7471 458752
219.50102 1156.3138 8965.7471 393216
277.16937 1174.8131 9109.1855 262144
338.52475 1200.3384 9307.1016 262144
393.85806 1200.3384 9307.1016 393216
452.11551 1208.1522 9367.6885 393216
505.49057 1202.6362 9324.9189 458752
563.50256 1208.1522 9367.6885 458752
629.36737 1227.9982 9521.5684 458752
700.01727 1253.1346 9716.4697 458752
756.0838 1250.3223 9694.6641 393216
812.34711 1248.2111 9678.293 458752
855.5954 1227.7034 9519.2822 458752
904.48901 1217.3385 9438.916 458752
970.01501 1229.262 9531.3682 458752
1047.897 1254.6636 9728.3252 393216
1114.276 1264.3553 9803.4727 196608
1188.704 1281.7628 9938.4453 65792
1310.0614 1345.7288 10434.42 256
1903.2861 1866.7098 14473.968 512
1484.9746 1393.4369 10804.336 256
1602.2655 1441.1582 11174.354 256
1594.6829 1377.2339 10678.702 256
1652.7554 1372.7361 10643.827 256
1657.8403 1326.1827 10282.865 256
1671.8461 1289.8231 10000.942 0
1688.7284 1258.1039 9755 0
1721.3257 1239.8098 9613.1533 256
1934.213 1348.3752 10454.94 65792
1976.1869 1334.743 10349.239 592133
2007.1691 1314.7341 10194.096 256
2067.7759 1314.7341 10194.096 256
2156.9387 1332.3737 10330.868 256
2218.3586 1332.3737 10330.868 66048
2243.7629 1311.3251 10167.663 256
2304.2124 1311.3251 10167.663 256
2337.9993 1296.5392 10053.018 0
0 0 0 0
0 0 0 0
0 0 0 0
0 0 0 0
0 0 0 0
0 0 0 0
0 0 0 0
0 0 0 0
4616.0029 2081.02 16135.671 0
4612.186 2036.9664 15794.092 1024
4808.2729 2081.1965 16137.04 66561
4904.6758 2081.3936 16138.566 3159853
5000.9019 2081.509 16139.462 768
5096.6602 2081.4292 16138.844 1515533
5192.9414 2081.562 16139.873 5923912
5288.5601 2081.4292 16138.844 6845013
5384.5698 2081.4524 16139.023 1383441
0 0 0 0
0 0 0 0
5672.0317 2081.3088 16137.911 11778476
5767.9761 2081.3088 16137.911 3094306
5863.7954 2081.2644 16137.566 2699799
3917.0273 1367.9075 10606.388 2041873
3756.0459 1290.9078 10009.354 2501146
3848.4121 1302.0245 10095.55 256
4009.124 1335.5681 10355.637 65536
4146.9526 1360.589 10549.642 65536
4457.4893 1440.6843 11170.68 65536
4553.7524 1450.1906 11244.389 196608
4697.4883 1474.321 11431.49 196608
4811.126 1488.4517 11541.055 525568
4934.2295 1505.0721 11669.926 328704
6918.5288 2081.0742 16136.092 65536
7016.0347 2081.541 16139.71 1513491
7112.4897 2081.6873 16140.844 256
7208.4517 2081.6873 16140.844 256
7251.7163 2066.6689 16024.397 512
7321.8867 2059.6089 15969.654 512
7452.4502 2069.5 16046.349 256
7547.8506 2069.5 16046.349 256
7642.1211 2069.1943 16043.978 65792
7676.1035 2052.7737 15916.656 0
7878.7847 2081.3174 16137.977 256
7974.8955 2081.3608 16138.312 2171679
8070.6538 2081.312 16137.936 66304
8096.5474 2063.4592 15999.51 131841
8116.8076 2044.6018 15853.294 256
8351.96 2079.687 16125.335 256
8449.499 2080.0977 16128.52 256
8550.71 2081.3936 16138.566 66049
8647.3789 2081.5669 16139.911 256
8743.0391 2081.4963 16139.365 0
8839.5381 2081.625 16140.361 0
8935.4971 2081.625 16140.361 0
9031.9561 2081.7402 16141.255 256
9126.6543 2081.4514 16139.016 66049
9222.6045 2081.4514 16139.016 789771
9318.5557 2081.4514 16139.016 256
9414.4111 2081.4304 16138.853 256
9513.6953 2082.1599 16144.51 256
9623.9561 2085.2534 16168.495 257
9721.6221 2085.5837 16171.057 0
9797.7656 2081.3357 16138.118 131841
9893.7109 2081.3357 16138.118 263426
9989.7207 2081.3491 16138.223 855817
10087.032 2081.6306 16140.405 197889
10187.554 2082.5632 16147.637 197632
10278.015 2081.4412 16138.937 395267
10373.965 2081.4412 16138.937 855818
10469.42 2081.3425 16138.172 461059
10333.51 2035.6677 15784.021 0
10360.238 2022.5658 15682.434 256
10395.389 2011.3273 15595.292 0
10503.525 2014.2841 15618.219 512
10948.722 2081.2612 16137.541 256
11045.491 2081.417 16138.75 256
11141.44 2081.417 16138.75 256
11237.887 2081.5093 16139.465 256
11333.841 2081.5093 16139.465 512
11429.476 2081.4512 16139.015 512
11525.427 2081.4512 16139.015 1536
11621.378 2081.4514 16139.016 68355
11718.632 2081.6826 16140.81 792850
11814.885 2081.7339 16141.207 530962
11911.218 2081.7986 16141.708 9544356
12006.812 2081.7339 16141.207 6581616
12103.492 2081.8572 16142.162 10134184
12199.46 2081.8569 16142.159 4476239
12294.399 2081.6824 16140.807 5989478
12389.678 2081.5676 16139.917 4607566
12485.635 2081.5676 16139.917 10068896
12581.588 2081.5671 16139.914 987666
12677.897 2081.6252 16140.363 593678
12773.854 2081.625 16140.361 516
12869.454 2081.5669 16139.911 1801
12966.494 2081.741 16141.26 989211
13062.457 2081.7407 16141.259 4081738
13158.062 2081.6836 16140.817 2108208
13254.762 2081.7996 16141.716 1647916
13350.729 2081.7996 16141.716 3688015
13447.81 2081.9719 16143.053 7041405
13542.286 2081.7417 16141.268 1449254
13637.034 2081.5562 16139.828 330767
13732.991 2081.5562 16139.828 331029
13828.946 2081.5562 16139.828 67082
13923.876 2081.4028 16138.64 1317401
0 0 0 0
0 0 0 0
14213.241 2081.6252 16140.364 5200997
14311.185 2081.9138 16142.602 6384505
14407.16 2081.9143 16142.606 1054242
14503.938 2082.03 16143.502 2963265
14597.44 2081.6772 16140.766 5530477
14691.529 2081.4116 16138.708 3886675
14788.418 2081.5439 16139.733 11125452
14883.712 2081.4517 16139.018 8224396
0 0 0 0
0 0 0 0
0 0 0 0
0 0 0 0
0 0 0 0
0 0 0 0
0 0 0 0
0 0 0 0
0 0 0 0
0 0 0 0
0 0 0 0
0 0 0 0
0 0 0 0
-5253.3008 790.10364 5856.2876 992777
-5471.915 828.47437 6140.6938 1124362
-5348.2402 815.18835 6042.2168 1058568
-5287.9556 811.44983 6014.5073 992774
-5271.9609 814.50323 6037.1387 861702
-5236.0684 814.50323 6037.1387 993542
-5226.7417 818.66425 6067.9805 1124871
-5266.7744 830.66797 6156.9526 1125126
-5217.436 828.64557 6141.9629 1190919
-5180.9204 828.64557 6141.9629 1256712
-5144.4048 828.64557 6141.9629 1256968
-4755.395 771.46106 5718.1079 1388297
-4712.3188 769.97723 5707.1099 1520140
-4961.103 816.5069 6051.9902 1322504
-4925.1221 816.5069 6051.9902 1322505
-4850.1865 810.00128 6003.77 1388554
-4992.0557 839.87488 6225.1948 1190916
-5027.3164 852.12488 6315.9922 1191174
-4938.4902 843.36823 6251.0879 1322503
-4901.3262 843.36823 6251.0879 1125636
-4909.2729 851.18988 6309.062 1191429
-4871.7642 851.18988 6309.062 862721
-4845.3188 853.13794 6323.5015 994051
-4787.7144 849.58722 6297.1836 928257
-4737.8286 847.36108 6280.6831 862465
-4700.4883 847.36108 6280.6831 862721
-4663.1479 847.36108 6280.6831 1059843
-4508.2241 825.82202 6121.0342 1059587
-4393.8613 811.42285 6014.3071 994306
-4379.688 815.44135 6044.0928 665088
-4472.3525 839.58295 6223.0308 994050
-4551.5312 861.57422 6386.0317 1256964
-4513.5645 861.57422 6386.0317 1323013
-4574.5508 880.62317 6527.2231 1323014
-4660.6318 904.87024 6706.9438 1454343
-4620.7573 904.87024 6706.9438 1454855
-4513.9683 891.65259 6608.9736 1454855
-4474.6763 891.65259 6608.9736 1454596
-4561.2671 916.95911 6796.5474 1323267
-4533.6255 919.5484 6815.7388 1257474
-4493.1045 919.5484 6815.7388 1323265
-4445.6851 918.12384 6805.1802 1323522
-4395.5884 916.11511 6790.2915 1520899
-4295.272 903.50543 6696.8281 1455106
-4255.4575 903.50543 6696.8281 1455105
-4133.0347 885.80078 6565.5996 1652484
-4094.0005 885.80078 6565.5996 1455363
-3811.8813 832.69922 6172.0088 1718278
-3843.0283 847.66309 6282.9219 1652485
-4022.8604 896.03833 6641.4814 1586948
-3999.5701 899.6814 6668.4839 1586691
-3959.9243 899.6814 6668.4839 1455361
-3822.3792 877.21423 6501.9556 1455106
-3669.532 850.74017 6305.729 1586692
-3658.0618 856.83472 6350.9019 1652741
-3561.9185 843.0163 6248.4795 1455106
-3707.1035 886.62494 6571.709 1454849
-3563.5784 861.37653 6384.5664 1520642
-3709.9849 906.42041 6718.4336 1455106
-3670.0417 906.42041 6718.4336 1520643
-3610.6973 901.57581 6682.5254 1652229
-3504.3135 884.74744 6557.7925 1389313
-3465.3259 884.74744 6557.7925 1389826
-3487.0515 900.42487 6673.9946 1784582
-3334.9226 871.05389 6456.2949 1652738
-3270.8254 864.25964 6405.936 1652994
-3258.1538 871.05389 6456.2949 1587712
-3284.4355 888.54822 6585.9644 1587713
-3355.6248 918.76019 6809.897 1587456
-3404.0122 943.39093 6992.4609 1653249
-3329.1687 934.05609 6923.2705 1850113
-3320.8679 943.39093 6992.4609 1587200
-3182.5083 915.54694 6786.0801 1718530
-2945.457 858.23175 6361.2573 1521153
-2839.7056 838.18066 6212.6372 1257728
-2965.4697 886.83685 6573.2793 1389312
-2944.1194 892.20978 6613.1035 1718533
-2904.8025 892.20978 6613.1035 1586688
-3001.5557 934.57703 6927.1318 1586433
-2960.3721 934.57703 6927.1318 1652481
-2775.3083 888.51398 6585.71 1586688
-2698.1323 876.16693 6494.1934 1191936
-2659.5225 876.16693 6494.1934 1389312
-2734.958 914.29211 6776.7793 1520896
-2604.8555 883.81897 6550.9106 1915911
-2654.3784 914.29211 6776.7793 1586946
-2689.28 940.59076 6971.7061 1850117
-2647.8313 940.59076 6971.7061 1455104
-2638.9065 952.32794 7058.7031 1521153
-2639.1824 967.81848 7173.5195 1521153
-2596.5337 967.81848 7173.5195 1717762
-2519.2124 954.67896 7076.1284 1717762
-2441.8342 941.07123 6975.2676 1257216
-2352.7444 922.40155 6836.8872 1125120
-2169.3364 865.44775 6414.7427 1124864
-2126.2031 863.41901 6399.7056 1124608
-1890.9199 781.86542 5795.2261 1254912
-1774.5024 747.34601 5539.3662 1385218
-1624.1033 696.93866 5165.7446 66304
-1593.3915 696.93866 5165.7446 768
-1593.2769 710.58466 5266.8892 131328
-1557.0151 708.33344 5250.2031 512
-1525.8013 708.33344 5250.2031 131840
-1501.7793 711.74194 5275.4673 1252354
-1546.999 748.81171 5550.23 858624
-1514.0013 748.81171 5550.23 662528
-1515.0829 766.04254 5677.9458 466176
-1446.4001 747.9812 5544.0742 466176
-1415.7776 749.21875 5553.2471 465920
-1394.9264 755.80975 5602.1001 531712
-1361.6204 755.80975 5602.1001 466432
-1369.9673 779.51025 5777.769 400896
-1401.6013 818.021 6063.2129 729856
-1453.5092 870.70978 6453.7446 664832
-1396.9996 859.54834 6371.0161 927744
-1359.1222 859.54834 6371.0161 927744
-1350.5162 878.59131 6512.1626 993792
-1311.7996 878.59131 6512.1626 993536
-1397.4688 964.43341 7148.4292 1124096
-1409.5464 1003.28 7436.3618 1122816
-1373.6013 1009.3542 7481.3843 1536
-1388.3649 1054.3438 7814.8491 768
-1463.6344 1149.9886 8523.7744 724736
-1417.8186 1153.9446 8553.0947 132864
-1430.6465 1207.6996 8951.5303 1319174
-1377.4271 1207.6996 8951.5303 1385479
-1238.6169 1129.6393 8372.9434 992005
-1188.6489 1129.4601 8371.6152 465664
-1226.1942 1216.0551 9013.4609 399616
-1149.6473 1192.245 8836.9795 596992
-1069.4595 1162.1976 8614.2676 663041
-1002.9504 1144.7406 8484.875 728578
-952.50549 1144.7406 8484.875 728578
-919.81818 1167.2756 8651.9053 663041
