# .PCD v0.7 - Point Cloud Data file format
VERSION 0.7
FIELDS x y z rgb
SIZE 4 4 4 4
TYPE F F F U
COUNT 1 1 1 1
WIDTH 1383
HEIGHT 1
VIEWPOINT 0 0 0 1 0 0 0
POINTS 1383
DATA ascii
4167.9751 -1654.5338 15201.388 132098
4417.3101 -1716.2954 15768.835 66049
4616.4468 -1756.3911 16137.223 66819
4712.7803 -1756.5375 16138.568 198404
4808.9961 -1756.6354 16139.468 1843484
4904.813 -1756.5863 16139.018 1383446
5000.0688 -1756.3423 16136.773 397065
5071.9722 -1748.059 16060.669 791823
5166.3374 -1747.6802 16057.188 199942
5267.252 -1749.4901 16073.819 2239523
5383.6274 -1756.2797 16136.199 2371362
5480.3154 -1756.5214 16138.419 2831912
5576.0195 -1756.4446 16137.715 1976860
5671.6553 -1756.3492 16136.839 2898220
5767.5864 -1756.3473 16136.82 2240545
5863.5239 -1756.3473 16136.82 5201483
0 0 0 0
0 0 0 0
0 0 0 0
0 0 0 0
5569.9937 -1542.2535 14169.787 13488077
6439.1699 -1756.3523 16136.866 13553869
6535.2759 -1756.3975 16137.281 13685456
6631.2261 -1756.3998 16137.304 13553871
6727.5371 -1756.4968 16138.193 13619664
6824.021 -1756.635 16139.464 11843510
6920.1655 -1756.6835 16139.91 10593953
7016.123 -1756.684 16139.913 13488076
7112.2764 -1756.7325 16140.36 13488077
7207.8354 -1756.635 16139.465 11777199
7303.7891 -1756.635 16139.465 10658718
7399.7432 -1756.635 16139.465 13684939
7495.6963 -1756.635 16139.465 13488329
7591.8604 -1756.6837 16139.911 13291464
7687.8179 -1756.6841 16139.914 1382418
7784.2056 -1756.7815 16140.81 5068360
7879.1836 -1756.5623 16138.795 2699810
7974.8594 -1756.502 16138.241 2437151
8070.8062 -1756.502 16138.241 2173724
8166.7217 -1756.4954 16138.181 2238751
8262.0107 -1756.3556 16136.896 1317652
8357.2217 -1756.2029 16135.494 1120272
8453.1406 -1756.2004 16135.472 790797
8549.417 -1756.2716 16136.126 659211
8645.8975 -1756.3827 16137.146 396039
8741.8389 -1756.3829 16137.148 592650
8837.7646 -1756.3804 16137.124 396038
8933.3975 -1756.3199 16136.569 1317396
9029.7002 -1756.3911 16137.223 1645852
9126.2568 -1756.5096 16138.312 264199
9221.9453 -1756.4608 16137.862 512
9316.9697 -1756.2875 16136.27 132610
9414.583 -1756.6005 16139.146 1909789
9510.8691 -1756.6621 16139.714 1450007
9606.8242 -1756.6621 16139.714 1778972
9703.2461 -1756.7467 16140.49 397575
9799.96 -1756.882 16141.732 988943
9895.8271 -1756.8643 16141.57 988943
9990.7021 -1756.6724 16139.807 528907
10086.441 -1756.6349 16139.462 528652
10182.111 -1756.5856 16139.011 397322
10278.624 -1756.6819 16139.894 396810
10375.458 -1756.8303 16141.259 331271
10470.982 -1756.7566 16140.581 659722
10566.943 -1756.7566 16140.581 2501926
10661.961 -1756.6014 16139.155 725771
10759.029 -1756.7838 16140.831 331269
10854.719 -1756.7396 16140.426 1055247
10950.679 -1756.7399 16140.427 989707
11046.33 -1756.6908 16139.977 1055501
11141.254 -1756.5281 16138.48 923914
11208.761 -1752.0823 16097.635 1121805
11332.537 -1756.4331 16137.608 1319184
11428.913 -1756.4998 16138.221 1385233
11525.24 -1756.5577 16138.754 2372381
11621.189 -1756.5577 16138.754 3490861
11717.329 -1756.5862 16139.016 2636063
11813.112 -1756.5613 16138.786 1846290
11909.23 -1756.5862 16139.016 2109204
12005.297 -1756.603 16139.17 2241560
12101.248 -1756.603 16139.17 2701853
12197.201 -1756.603 16139.17 2636573
12294.276 -1756.7638 16140.646 2767903
12390.238 -1756.7638 16140.646 2241559
12486.197 -1756.7638 16140.646 1846289
12582.353 -1756.7908 16140.895 1780243
12678.41 -1756.804 16141.017 1977112
12774.377 -1756.8047 16141.022 1647892
12870.336 -1756.804 16141.017 133889
12966.85 -1756.8788 16141.703 528136
13060.161 -1756.5215 16138.421 527881
13092.964 -1748.0909 16060.963 593418
13191.04 -1748.4341 16064.116 462089
13289.439 -1748.8148 16067.614 593931
13387.578 -1749.156 16070.75 594447
13483.123 -1749.156 16070.75 594447
13459.863 -1733.8519 15930.141 660240
13732.138 -1756.5656 16138.826 594447
13828.854 -1756.6631 16139.722 594445
13924.462 -1756.619 16139.317 1449754
14020.414 -1756.619 16139.317 1121300
14115.852 -1756.5549 16138.729 1121300
14211.438 -1756.5101 16138.316 1384727
14307.385 -1756.5101 16138.316 1845278
14403.331 -1756.5101 16138.316 2174240
14498.46 -1756.411 16137.406 2305826
14595.576 -1756.5524 16138.705 2109473
14691.784 -1756.5834 16138.99 2306596
14787.887 -1756.6014 16139.155 4280385
14883.687 -1756.5834 16138.99 3492154
14978.858 -1756.4922 16138.151 5993061
15075.613 -1756.5863 16139.018 9545889
15171.928 -1756.6283 16139.403 10005671
15267.03 -1756.5306 16138.505 6714222
15361.362 -1756.3458 16136.807 6714992
15456.688 -1756.2762 16136.168 8885649
0 0 0 0
0 0 0 0
0 0 0 0
0 0 0 0
0 0 0 0
0 0 0 0
0 0 0 0
-9858.9531 -1130.8843 10990.589 256
-9917.4834 -1145.1881 11129.601 256
-9761.1113 -1134.702 11027.692 256
-9713.0967 -1136.7559 11047.652 256
-9833.7773 -1158.7148 11261.062 256
-10005.572 -1187.0391 11536.333 256
-10054.032 -1201.021 11672.218 256
-10002.252 -1203.1399 11692.81 0
-9744.3086 -1180.3159 11470.994 1118990
-11035.864 -1346.1821 13082.978 527109
-11531.656 -1416.6448 13767.774 66561
-11643.61 -1440.6238 14000.816 921866
-11783.783 -1468.4648 14271.393 724487
-12156.017 -1525.8383 14828.98 132096
-11847.151 -1497.933 14557.78 66304
-11137.512 -1418.5707 13786.492 132096
-10964.263 -1406.8577 13672.658 131840
-10272.993 -1328.0045 12906.317 132354
-10087.964 -1313.8994 12769.236 66304
-10092.092 -1324.4038 12871.323 512
-10172.774 -1345.1919 13073.354 66304
-10095.049 -1345.1919 13073.354 0
-9882.2197 -1327.0491 12897.032 0
-9469.3223 -1281.5461 12454.808 256
-9317.9834 -1271.0033 12352.346 256
-9240.4492 -1270.4401 12346.873 256
-9047.7246 -1253.9039 12186.165 256
-8902.3623 -1243.7177 12087.169 256
-8866.957 -1248.8523 12137.069 256
-8949.7275 -1270.8521 12350.876 256
-9060.4775 -1297.2217 12607.151 512
-9052.9023 -1306.9489 12701.687 256
-9030.6689 -1314.7058 12777.072 0
-11226.478 -1648.2411 16018.562 131585
-9021.6094 -1335.8606 12982.667 0
-8792.6719 -1313.1963 12762.401 0
-8577.4375 -1292.2017 12558.364 0
-8502.7744 -1292.2017 12558.364 0
-8662.1592 -1328.0859 12907.108 256
-8862.0039 -1370.8706 13322.914 256
-9040.5244 -1411.0984 13713.872 256
-8958.9922 -1411.0984 13713.872 256
-8604.4824 -1367.7079 13292.178 256
-8281.6406 -1328.5934 12912.04 256
-8296.2812 -1343.3947 13055.887 256
-8157.6992 -1333.4301 12959.046 256
-7842.2012 -1294.0817 12576.636 256
-7743.8774 -1290.158 12538.502 256
-7774.9341 -1307.9225 12711.148 256
-7832.6094 -1330.5576 12931.13 256
-7755.73 -1330.5576 12931.13 256
-7412.3057 -1284.3717 12482.269 256
-7317.3979 -1280.7493 12447.063 256
-7276.3315 -1286.5726 12503.658 256
-7189.8569 -1284.4044 12482.587 0
-6919.7178 -1249.0389 12138.884 1250578
-6889.9546 -1256.774 12214.059 256
-6921.6455 -1276.0029 12400.936 256
-6847.9189 -1276.0029 12400.936 256
-6615.563 -1246.1234 12110.549 256
-6533.1206 -1244.1348 12091.223 256
-6436.0923 -1239.2936 12044.173 256
-6285.8491 -1223.9812 11895.358 256
-6036.6807 -1188.8386 11553.822 256
-6023.9438 -1199.9849 11662.147 512
-6135.5479 -1236.448 12016.518 512
-6064.1064 -1236.448 12016.518 66304
-5930.2422 -1223.5684 11891.347 768
-6104.1641 -1274.6489 12387.776 512
-6077.417 -1284.5624 12484.121 256
-6047.3623 -1294.0132 12575.97 256
-5972.5947 -1294.0132 12575.97 256
-5942.4834 -1303.8109 12671.19 256
-5976.4673 -1328.1039 12907.282 256
-5920.1006 -1332.6896 12951.85 256
-6114.4731 -1394.5845 13553.38 256
-6402.4019 -1479.7559 14381.125 256
-6748.1973 -1580.7882 15363.016 256
-6699.3677 -1590.8826 15461.117 256
-6208.7881 -1494.897 14528.274 256
-5807.8428 -1418.0887 13781.809 256
-5688.502 -1408.8253 13691.78 256
-5550.0508 -1394.4911 13552.472 256
-5361.7817 -1367.0332 13285.62 256
-5316.501 -1375.7551 13370.386 256
-5242.4648 -1377.188 13384.311 256
-5190.3423 -1384.5106 13455.476 256
-5179.7563 -1403.3156 13638.233 256
-5264.873 -1449.059 14082.794 256
-5203.4854 -1455.3064 14143.511 256
-5200.0664 -1478.2382 14366.375 256
-5140.4624 -1485.6973 14438.867 256
-5139.3169 -1510.5924 14680.812 256
-5151.0078 -1540.1858 14968.417 256
-5095.1929 -1550.2803 15066.521 256
-5036.8872 -1559.9645 15160.639 768
-4916.0439 -1550.2803 15066.521 1317141
-4939.2241 -1586.4976 15418.502 1281
-5073.0195 -1660.2864 16135.625 396039
-4977.8857 -1660.5525 16138.21 132869
-4882.106 -1660.6089 16138.76 4938070
-4785.9937 -1660.5525 16138.21 1319966
-4689.3203 -1660.2949 16135.708 2502953
-4593.3892 -1660.2949 16135.708 1712410
-4207.8628 -1553.3872 15096.717 67328
-4335.6118 -1635.4313 15894.068 396291
-4028.3545 -1553.3872 15096.717 461825
-4146.6221 -1635.4313 15894.068 1449739
-4114.064 -1660.4286 16137.007 1121030
-4018.125 -1660.4286 16137.007 2371098
-3921.8237 -1660.2753 16135.517 594691
-3826.3298 -1660.4646 16137.357 1536
-3730.3887 -1660.4646 16137.357 66816
-3634.2063 -1660.3544 16136.286 1054732
-3536.8093 -1659.6681 16129.616 396805
-3432.0229 -1655.3795 16087.938 198913
-2630.5449 -1305.1738 12684.436 264451
-2496.4705 -1275.2091 12393.221 528134
-2060.821 -1084.6909 10541.655 594181
-1998.1481 -1084.6909 10541.655 592903
-1888.7755 -1058.5194 10287.305 856843
0 0 0 0
0 0 0 0
0 0 0 0
0 0 0 0
0 0 0 0
0 0 0 0
0 0 0 0
-759.07434 -574.13477 5579.7739 196608
-791.38202 -625.92548 6083.1064 196608
-845.45599 -700.71643 6809.9683 196608
-804.96887 -700.71643 6809.9683 196608
-751.69269 -688.99414 6696.0439 0
0 0 0 0
0 0 0 0
0 0 0 0
0 0 0 0
0 0 0 0
0 0 0 0
-244.56532 -356.22748 3462.0249 1381130
-226.91174 -360.88605 3507.2996 920581
-207.20045 -362.88361 3526.7131 656128
-192.29492 -374.69522 3641.5051 1050114
-171.24178 -376.00525 3654.2368 1246210
-152.28047 -382.95654 3721.7937 1180161
-133.819 -393.74213 3826.6143 1443078
-111.06873 -393.74213 3826.6143 655360
-88.903046 -396.34845 3851.9438 1576459
-67.515862 -405.43835 3940.2847 853762
-48.681904 -447.66635 4350.6812 458752
-24.31226 -477.02634 4636.0181 655360
3.3743947 -495.26053 4813.229 656129
33.720665 -522.04803 5073.5649 262144
69.568626 -568.49799 5524.9927 1774352
107.59203 -597.22797 5804.2075 328193
145.80743 -612.8114 5955.6558 1050630
193.48584 -654.30573 6358.9224 2301466
247.09375 -699.0094 6793.3784 656899
303.27423 -737.40735 7166.5518 393986
354.59918 -755.99335 7347.1816 196608
401.10001 -761.34576 7399.1992 327938
441.96127 -755.99335 7347.1816 525317
492.87411 -767.2511 7456.5903 1
547.7066 -782.24878 7602.3472 65538
590.35162 -778.88049 7569.6113 262659
626.03741 -767.45801 7458.6016 590596
670.38092 -767.45801 7458.6016 1049090
722.78302 -776.11121 7542.6982 1377028
794.32117 -803.10101 7805.001 1638916
756.09229 -722.25659 7019.3076 1770759
830.06891 -751.44727 7303 589824
838.55542 -721.39606 7010.9443 721411
714.50848 -585.57324 5690.9404 1183763
0 0 0 0
0 0 0 0
0 0 0 0
0 0 0 0
0 0 0 0
0 0 0 0
0 0 0 0
0 0 0 0
0 0 0 0
0 0 0 0
0 0 0 0
2008.9242 -1049.8458 10203.01 256
2069.584 -1049.8458 10203.01 0
2130.2437 -1049.8458 10203.01 855820
2178.1377 -1043.7286 10143.56 658441
2473.3442 -1153.2567 11208.017 1053199
2553.5286 -1159.4087 11267.806 987405
2683.0969 -1187.0953 11536.881 1053201
3582.6575 -1545.5815 15020.856 329478
3671.9607 -1545.5815 15020.856 257
4031.9907 -1656.8289 16102.022 0
4127.3013 -1656.66 16100.381 329478
3783.6431 -1484.2948 14425.237 0
3851.8242 -1477.5509 14359.695 256
3655.052 -1371.6676 13330.66 197890
4520.8066 -1660.5612 16138.295 263683
4616.7534 -1660.5612 16138.295 263683
4712.7803 -1660.5892 16138.568 1027
4809.2168 -1660.7582 16140.209 66820
4904.9497 -1660.6818 16139.468 132870
5000.208 -1660.4508 16137.223 330503
5095.7236 -1660.3126 16135.879 462602
5191.6558 -1660.3126 16135.879 594701
5287.6157 -1660.3212 16135.963 792335
5383.6274 -1660.3455 16136.199 2634790
5480.3154 -1660.5739 16138.419 3227436
5575.917 -1660.4709 16137.418 1845781
5671.7002 -1660.4247 16136.969 3293225
5767.6392 -1660.4247 16136.969 3359276
5863.5308 -1660.4113 16136.839 3030310
0 0 0 0
0 0 0 0
0 0 0 0
0 0 0 0
5569.9937 -1458.0101 14169.787 13356492
6438.8418 -1660.3297 16136.045 13619664
6535.2847 -1660.4592 16137.304 13488078
6631.5918 -1660.5507 16138.193 13553871
6727.5371 -1660.5507 16138.193 13619407
6823.4834 -1660.5507 16138.193 2962223
6919.5898 -1660.5891 16138.566 5332054
7015.5376 -1660.5891 16138.566 7897212
7112.2764 -1660.7738 16140.36 5462355
7208.0337 -1660.7273 16139.909 10790561
7303.9922 -1660.7277 16139.914 11580078
7399.7432 -1660.6816 16139.465 12567741
7495.4888 -1660.6355 16139.018 12304312
7591.6499 -1660.6816 16139.465 11317677
7687.7012 -1660.7026 16139.67 9870485
7783.7725 -1660.7275 16139.911 2041628
7878.5273 -1660.4742 16137.451 1186575
7973.9805 -1660.3724 16136.461 1580822
8070.3647 -1660.4646 16137.357 988430
8166.7217 -1660.5493 16138.181 1120017
8262.2461 -1660.4646 16137.357 1909535
8357.9268 -1660.4127 16136.854 769
8454.6562 -1660.5685 16138.365 132867
8550.5176 -1660.5515 16138.202 856590
8646.4639 -1660.5515 16138.202 856846
8741.9189 -1660.4585 16137.298 527628
8837.7646 -1660.4407 16137.124 2106403
8933.7051 -1660.4408 16137.125 790286
9029.8945 -1660.4867 16137.571 132099
9126.2568 -1660.5629 16138.312 197892
9221.3027 -1660.4009 16136.737 512
9316.8867 -1660.3379 16136.125 1024
9414.6504 -1660.6606 16139.261 856588
9510.7988 -1660.6949 16139.596 1580823
9607.2861 -1660.787 16140.49 1120529
9703.376 -1660.8092 16140.706 1844509
9800.2139 -1660.9579 16142.15 1910302
9896.1836 -1660.9579 16142.15 1054993
9991.6006 -1660.8661 16141.258 528136
10086.657 -1660.7167 16139.807 396296
10182.964 -1660.7739 16140.363 396296
10278.909 -1660.7717 16140.341 396810
10375.083 -1660.806 16140.676 660493
10471.044 -1660.806 16140.676 3489594
10568.007 -1660.9636 16142.206 3489595
10663.977 -1660.9636 16142.206 3028783
10759.029 -1660.822 16140.831 989199
10854.992 -1660.822 16140.831 1317395
10951.059 -1660.838 16140.986 857610
11046.229 -1660.7188 16139.827 660487
11140.326 -1660.4419 16137.137 594950
11236.267 -1660.4419 16137.137 594949
11332.657 -1660.5083 16137.78 792327
11428.603 -1660.5084 16137.782 924426
11525.106 -1660.5891 16138.566 924424
11621.055 -1660.5891 16138.566 1516560
11717.003 -1660.5891 16138.566 990215
11812.951 -1660.5891 16138.566 859140
11909.062 -1660.6117 16138.786 924676
12005.012 -1660.6117 16138.786 1648910
12101.064 -1660.6259 16138.924 1583117
12197.513 -1660.6937 16139.583 1583117
12294.354 -1660.8135 16140.748 1517325
12390.661 -1660.8597 16141.197 1254153
12486.39 -1660.8285 16140.895 990724
12582.633 -1660.8657 16141.255 925963
12678.667 -1660.8748 16141.344 2307103
12774.377 -1660.8418 16141.022 7240301
12870.171 -1660.8198 16140.81 2632484
12966.132 -1660.8198 16140.81 658698
13061.007 -1660.6816 16139.466 330245
13156.959 -1660.6816 16139.465 396297
13252.913 -1660.6816 16139.465 462089
13348.498 -1660.6355 16139.019 330503
13444.446 -1660.6354 16139.016 462091
13540.396 -1660.6354 16139.016 725263
13637.481 -1660.7733 16140.357 659726
13733.061 -1660.7275 16139.911 1054228
13830.073 -1660.8542 16141.144 791569
13924.81 -1660.708 16139.722 659983
14020.717 -1660.7023 16139.666 726031
14116.144 -1660.6401 16139.062 726541
14213.132 -1660.7614 16140.24 1318677
14309.087 -1660.7609 16140.237 2042655
14403.729 -1660.6091 16138.761 2240031
14499.678 -1660.6091 16138.761 2437919
14595.98 -1660.6493 16139.152 2636322
14691.784 -1660.6327 16138.99 3820593
14788.146 -1660.6786 16139.438 3294760
14883.989 -1660.6664 16139.318 3623724
14979.941 -1660.6664 16139.318 3426346
15075.135 -1660.5828 16138.505 2900004
15171.565 -1660.6355 16139.018 2570784
15267.454 -1660.6288 16138.952 3490607
15363.893 -1660.6816 16139.465 3029803
15459.355 -1660.6288 16138.952 2108445
0 0 0 0
0 0 0 0
0 0 0 0
0 0 0 0
0 0 0 0
0 0 0 0
0 0 0 0
-10128.64 -1094.6896 11291.23 256
-10085.173 -1097.264 11317.785 256
-9851.3154 -1079.0194 11129.601 256
-9749.8135 -1075.1233 11089.413 256
-9833.7773 -1091.7648 11261.062 256
-10063.947 -1124.9777 11603.639 256
-10054.032 -1131.6265 11672.218 256
-10081.548 -1142.61 11785.508 256
-9744.3086 -1112.1177 11470.994 0
-10899.632 -1252.7424 12921.475 658439
-11531.656 -1334.7915 13767.774 856073
-11868.631 -1383.6176 14271.393 790280
-12270.975 -1440.822 14861.432 461317
-12156.017 -1437.6759 14828.98 461316
-12019.231 -1431.8833 14769.232 263427
-11549.366 -1386.0327 14296.304 724232
-11016.363 -1331.8689 13737.629 263681
-10882.974 -1325.5699 13672.658 132097
-10087.964 -1237.9828 12769.236 197890
-10092.092 -1247.8802 12871.323 256
-10015.567 -1247.8802 12871.323 256
-9958.8965 -1250.3727 12897.032 256
-9882.2197 -1250.3727 12897.032 0
-9469.3223 -1207.4989 12454.808 256
-9317.9834 -1197.5652 12352.346 256
-9244.5449 -1197.5652 12352.346 256
-9115.6387 -1190.3221 12277.638 256
-9000.0781 -1184.7189 12219.843 256
-9044.0137 -1200.1904 12379.425 256
-8982.1787 -1201.7644 12395.659 0
-8972.335 -1210.3782 12484.506 66304
-9015.8115 -1226.3885 12649.646 263684
-8757.126 -1201.2205 12390.049 131584
-9007.6982 -1246.0731 12852.684 263171
-8931.2852 -1246.0731 12852.684 197377
-8792.6719 -1237.3202 12762.401 0
-8602.498 -1221.0959 12595.056 0
-8502.7744 -1217.5387 12558.364 0
-8691.4385 -1255.5795 12950.737 256
-8862.0039 -1291.6621 13322.914 256
-8960.4453 -1317.7887 13592.397 256
-8879.6348 -1317.7887 13592.397 256
-8353.5557 -1251.1012 12904.547 256
-8277.9316 -1251.2672 12906.258 256
-8240.4023 -1257.2482 12967.95 256
-8157.6992 -1256.3849 12959.046 256
-7926.0469 -1232.3466 12711.101 256
-7777.3784 -1220.8718 12592.744 256
-7716.3887 -1223.0715 12615.434 256
-7771.3276 -1243.8699 12829.958 256
-7755.73 -1253.6785 12931.13 256
-7576.8037 -1237.0179 12759.283 256
-7338.0942 -1210.1613 12482.269 66049
-7310.6406 -1217.9507 12562.614 256
-7235.9521 -1217.9507 12562.614 329475
-7269.6284 -1236.3809 12752.713 329476
-7117.2295 -1223.2192 12616.956 256
-7086.4492 -1230.9021 12696.201 256
-6974.9302 -1224.5751 12630.941 256
-6804.1929 -1207.6005 12455.856 256
-6581.2026 -1180.8765 12180.21 256
-6462.9209 -1172.5551 12094.378 256
-6364.4868 -1167.6876 12044.173 256
-6029.7144 -1118.8553 11540.489 256
-5981.3442 -1122.6544 11579.676 256
-6020.585 -1143.1775 11791.361 256
-6060.1504 -1164.2463 12008.678 256
-5988.7554 -1164.2463 12008.678 256
-6053.1802 -1190.969 12284.311 256
-5975.1543 -1189.9749 12274.056 256
-5892.605 -1188.0439 12254.14 256
-5829.2095 -1189.9749 12274.056 256
-5805.6494 -1200.1898 12379.419 256
-5838.7568 -1222.5323 12609.871 256
-5899.7295 -1251.3665 12907.282 256
-5991.2222 -1287.5192 13280.181 256
-6402.4019 -1394.2561 14381.125 256
-6824.9736 -1506.3967 15537.806 256
-6746.5732 -1509.5239 15570.061 256
-6238.8271 -1415.3369 14598.564 256
-5858.3247 -1347.7659 13901.6 256
-5739.0732 -1339.2246 13813.5 256
-5550.0508 -1313.9178 13552.472 256
-5328.5493 -1280.063 13203.274 256
-5265.8516 -1283.9152 13243.008 256
-5237.0103 -1296.2645 13370.386 256
-5168.8262 -1299.1062 13399.696 256
-5179.7563 -1322.2325 13638.233 256
-5271.1104 -1366.9503 14099.478 256
-5203.4854 -1371.2192 14143.511 256
-5212.4438 -1396.1414 14400.571 256
-5156.7012 -1404.2764 14484.479 256
-5145.9946 -1425.1603 14699.887 256
-5151.0078 -1451.1943 14968.417 256
-5116.562 -1466.8317 15129.709 256
-5062.3105 -1477.249 15237.16 263427
-5059.2251 -1503.249 15505.338 0
-4958.3569 -1500.6207 15478.228 512
-5073.5654 -1564.5242 16137.363 512
-4977.8857 -1564.6063 16138.21 3028014
-4881.9097 -1564.5966 16138.11 329477
-4785.5947 -1564.4758 16136.864 1187348
-4689.2656 -1564.3455 16135.521 856075
-4593.3892 -1564.3636 16135.708 1515287
-4347.3159 -1512.1394 15597.039 199170
-4335.6118 -1540.9366 15894.068 396802
-4241.1172 -1540.9366 15894.068 2831396
-4210.0381 -1564.5028 16137.143 2830886
-4114.064 -1564.4896 16137.007 1713170
-4018.125 -1564.4896 16137.007 1317390
-3922.2632 -1564.5206 16137.326 512
-3826.3298 -1564.5236 16137.357 512
-3730.4812 -1564.5624 16137.758 512
-3634.1257 -1564.385 16135.928 512
-3536.6436 -1563.6998 16128.861 512
-2492.916 -1132.9417 11685.783 461574
-2455.166 -1147.7731 11838.763 330244
-2353.9656 -1132.9417 11685.783 1024
-2053.0046 -1018.1417 10501.673 256
-1962.0682 -1003.5637 10351.309 197633
-1888.7755 -997.35852 10287.305 66049
0 0 0 0
0 0 0 0
0 0 0 0
0 0 0 0
0 0 0 0
0 0 0 0
0 0 0 0
-759.07434 -540.96143 5579.7739 262144
-791.38202 -589.7597 6083.1064 196608
-795.65234 -621.33679 6408.8096 196608
-754.08264 -618.49274 6379.4746 0
-658.69 -568.86432 5867.5801 460293
0 0 0 0
0 0 0 0
0 0 0 0
0 0 0 0
0 0 0 0
0 0 0 0
-244.56532 -335.64478 3462.0249 2104856
-233.88445 -350.48297 3615.0742 196608
-213.94467 -353.04544 3641.5051 787456
-192.96724 -354.27979 3654.2368 1049857
-170.99425 -353.76767 3648.9546 1114880
-152.24564 -360.74695 3720.9426 1180673
-132.55504 -367.4877 3790.4705 1574150
-111.06873 -370.99188 3826.6143 786432
-89.631294 -376.50668 3883.4971 2693649
-67.515862 -382.01227 3940.2847 1773068
-48.724968 -422.17352 4354.5303 589824
-24.31226 -449.46387 4636.0181 524288
3.2788181 -453.42728 4676.8984 853509
33.417446 -487.46121 5027.9434 327680
64.557877 -497.06964 5127.0498 1576716
107.59203 -562.72034 5804.2075 919557
144.84851 -573.60596 5916.4873 591108
193.48584 -616.50018 6358.9224 2038037
248.63577 -662.73102 6835.7729 393728
308.41223 -706.57135 7287.9658 131072
354.59918 -712.31232 7347.1816 196608
404.21112 -722.91956 7456.5903 525060
444.82812 -716.93292 7394.8408 590597
499.08356 -732.02716 7550.5312 196608
549.6156 -739.61969 7628.8447 393731
592.90466 -737.05072 7602.3472 459267
633.86774 -732.15906 7551.8916 1181962
695.56073 -750.27509 7738.75 983300
747.91827 -756.69812 7805.001 720896
794.32117 -756.69812 7805.001 983041
778.32471 -700.53528 7225.7061 1969425
876.40369 -747.55139 7710.6567 393216
847.77112 -687.18408 7087.9946 590852
918.45465 -709.2251 7315.3379 986636
0 0 0 0
0 0 0 0
857.25525 -579.62598 5978.5811 196608
0 0 0 0
0 0 0 0
0 0 0 0
0 0 0 0
0 0 0 0
0 0 0 0
0 0 0 0
0 0 0 0
1997.48 -983.55096 10144.887 256
2069.584 -989.1861 10203.01 0
2131.2063 -989.63318 10207.621 0
2178.1377 -983.4223 10143.56 256
2318.5364 -1018.6096 10506.501 256
2539.9792 -1086.6219 11208.017 197634
2616.8616 -1090.8939 11252.08 66305
2900.3892 -1178.95 12160.339 592648
2820.2766 -1118.5055 11536.881 1250580
3612.1191 -1398.5328 14425.237 263685
4028.1528 -1523.4409 15713.608 256
3788.4993 -1400.3278 14443.751 256
4214.9961 -1523.4409 15713.608 256
3939.0906 -1392.8481 14366.603 658183
4520.9326 -1564.6581 16138.744 1184783
4616.7534 -1564.6144 16138.295 658439
4712.5464 -1564.5635 16137.769 198147
4809.0356 -1564.741 16139.6 66304
4904.9897 -1564.741 16139.6 198403
5000.1108 -1564.4801 16136.909 461832
5095.9668 -1564.4548 16136.648 1054481
5191.9038 -1564.4548 16136.648 2436900
5287.8403 -1564.4548 16136.648 1450515
5383.6274 -1564.4114 16136.199 1911064
5480.4351 -1564.6605 16138.771 2306074
5576.3843 -1564.6605 16138.771 3556396
5672.4829 -1564.7018 16139.195 2437913
5767.7998 -1564.5295 16137.418 4543543
5863.5781 -1564.4858 16136.969 3359524
0 0 0 0
0 0 0 0
0 0 0 0
0 0 0 0
6342.9092 -1564.3964 16136.045 12107450
6440.0044 -1564.6787 16138.958 11711667
6535.9561 -1564.679 16138.959 13159113
6632.0918 -1564.7228 16139.411 13158857
6728.0449 -1564.7228 16139.411 11580082
6823.8569 -1564.6901 16139.075 13883350
6919.7822 -1564.6843 16139.016 4080960
7016.1216 -1564.7711 16139.909 2239776
7112.2891 -1564.8174 16140.388 4411449
7208.0337 -1564.7711 16139.909 5267257
7303.9907 -1564.7711 16139.91 4609327
7399.5381 -1564.6844 16139.018 4872250
7495.2783 -1564.6406 16138.565 1186829
7591.2271 -1564.6406 16138.565 2107678
7687.2964 -1564.6654 16138.819 1317650
7783.6548 -1564.7477 16139.668 1185552
7878.0688 -1564.4417 16136.512 1120017
7973.9805 -1564.4366 16136.461 988174
8070.4717 -1564.5444 16137.572 264451
8166.7583 -1564.6104 16138.253 659211
8262.668 -1564.6035 16138.181 264453
8358.3789 -1564.5594 16137.728 1119762
8454.6562 -1564.6213 16138.365 264197
8550.6035 -1564.6213 16138.365 396039
8647.6611 -1564.8221 16140.438 461575
8742.4092 -1564.6055 16138.202 987408
8837.7646 -1564.501 16137.124 658443
8933.9531 -1564.5444 16137.571 921615
9029.8945 -1564.5444 16137.571 592648
9126.9775 -1564.7399 16139.589 790028
9221.3027 -1564.4634 16136.737 922127
9316.8867 -1564.4042 16136.125 512
9414.6504 -1564.7081 16139.261 329987
9510.6514 -1564.7163 16139.345 1317651
9607.2861 -1564.8274 16140.49 1186065
9703.376 -1564.8481 16140.706 1186065
9799.9463 -1564.9456 16141.71 1646616
9896.1836 -1564.9883 16142.15 725259
9991.8789 -1564.9453 16141.708 528135
10087.846 -1564.9453 16141.708 660239
10183.812 -1564.9453 16141.708 1120791
10278.636 -1564.7712 16139.911 1844259
10374.868 -1564.8129 16140.341 4740437
10471.053 -1564.8464 16140.688 5398117
10568.007 -1564.9937 16142.206 3357766
10663.977 -1564.9937 16142.206 9544362
10758.419 -1564.7715 16139.914 8686218
10854.375 -1564.7715 16139.914 1120276
10951.059 -1564.8755 16140.986 1120271
11045.883 -1564.714 16139.322 529413
11140.326 -1564.5022 16137.137 463620
11236.267 -1564.5022 16137.137 397571
11282.778 -1557.6782 16066.751 463365
11379.462 -1557.8374 16068.393 594951
11523.579 -1564.4335 16136.428 660742
11620.806 -1564.6072 16138.221 529413
11717.003 -1564.6409 16138.566 727048
11812.528 -1564.5848 16137.989 661254
11908.899 -1564.6409 16138.566 660998
12005.114 -1564.6754 16138.924 661254
12101.064 -1564.6754 16138.924 858889
12198.394 -1564.8523 16140.748 1121805
12294.357 -1564.8527 16140.751 858634
12390.705 -1564.9015 16141.255 924426
12486.669 -1564.9015 16141.255 1121806
12582.98 -1564.9448 16141.701 1254679
12678.248 -1564.8582 16140.81 2635565
12773.704 -1564.7964 16140.171 9083543
12869.816 -1564.8153 16140.365 4015432
12966.85 -1564.9449 16141.703 3225660
13062.46 -1564.9021 16141.262 2304301
13157.326 -1564.7716 16139.915 1317145
13253.28 -1564.7712 16139.911 988697
13348.874 -1564.7288 16139.474 659729
13444.822 -1564.7279 16139.466 3093300
13541.085 -1564.7638 16139.836 593422
13637.484 -1564.8147 16140.36 791571
13733.061 -1564.7712 16139.911 1317145
13832.061 -1565.1154 16143.462 922129
13924.725 -1564.7432 16139.623 462091
14020.765 -1564.7528 16139.722 463116
14117.71 -1564.8624 16140.854 529676
14213.673 -1564.8624 16140.854 1188118
14309.237 -1564.8192 16140.406 4544071
14403.977 -1564.6865 16139.039 2833450
14499.928 -1564.6865 16139.039 2241312
14595.857 -1564.6843 16139.016 2241566
14691.587 -1564.6606 16138.772 1847063
14787.735 -1564.6819 16138.99 2372380
14883.687 -1564.6819 16138.99 1780756
14979.941 -1564.7136 16139.318 1648915
15075.058 -1564.6267 16138.422 1319950
15171.082 -1564.6349 16138.505 1780245
15267.03 -1564.6349 16138.505 1977626
15363.405 -1564.6782 16138.952 1977371
15459.355 -1564.6782 16138.952 2043163
0 0 0 0
0 0 0 0
0 0 0 0
0 0 0 0
0 0 0 0
0 0 0 0
0 0 0 0
-10121.809 -1026.8669 11283.614 256
-10085.173 -1029.9767 11317.785 256
-9956.7148 -1023.6874 11248.677 256
-9767.9619 -1011.0721 11110.056 256
-9864.1543 -1027.9802 11295.848 256
-10063.947 -1055.9907 11603.639 256
-10049.708 -1061.775 11667.198 256
-10081.548 -1072.5417 11785.508 256
-9860.9746 -1056.4181 11608.334 197633
-11613.51 -1252.9382 13767.774 526852
-11726.849 -1274.1462 14000.816 1382416
-12309.209 -1346.9821 14801.164 461316
-12880.943 -1419.6954 15600.167 527109
-12788.195 -1419.6954 15600.167 263680
-12019.231 -1344.076 14769.232 132096
-11931.425 -1344.076 14769.232 66305
-11464.37 -1301.0371 14296.304 658439
-11585.582 -1324.6134 14555.369 921613
-10382.956 -1196.0472 13142.634 724234
-10089.71 -1171.0801 12868.285 197890
-9936.1309 -1162.0662 12769.236 0
-9780.4678 -1152.6677 12665.963 0
-9700.6523 -1152.1317 12660.073 0
-9665.7998 -1156.9694 12713.23 0
-9581.2715 -1155.8903 12701.373 0
-9497.4424 -1154.879 12690.262 0
-9421.9951 -1154.879 12690.262 0
-9291.3994 -1148.0648 12615.384 0
-9044.0137 -1126.5913 12379.425 0
-8970.4141 -1126.5913 12379.425 0
-8896.3486 -1126.5322 12378.775 0
-8802.4434 -1123.9388 12350.279 197121
-8729.0176 -1123.9388 12350.279 0
-8825.9131 -1146.0553 12593.303 0
-8868.5479 -1161.4441 12762.401 0
-8690.6045 -1147.9618 12614.252 0
-8602.498 -1146.2148 12595.056 0
-8370.4414 -1125.0885 12362.912 0
-8691.4385 -1178.5837 12950.737 256
-8881.2393 -1215.0853 13351.831 256
-8918.3125 -1231.1616 13528.484 256
-8822.7891 -1229.0591 13505.381 256
-8351.9209 -1174.1504 12902.022 256
-8317.501 -1180.1501 12967.95 256
-8364.5596 -1197.9313 13163.336 256
-8228.6436 -1189.5961 13071.746 256
-8009.2573 -1168.9198 12844.547 256
-7835.9966 -1154.642 12687.656 256
-7709.3516 -1147.0223 12603.929 256
-7641.3867 -1148.0693 12615.434 256
-7695.0503 -1167.5922 12829.958 256
-7576.8037 -1161.1604 12759.283 263427
-7383.604 -1142.9956 12559.681 256
-7310.6406 -1143.2626 12562.614 0
-7235.9521 -1143.2626 12562.614 0
-7233.2896 -1154.7611 12688.966 0
-7157.8506 -1154.7611 12688.966 0
-7105.8838 -1158.5884 12731.021 0
-7010.9673 -1155.4196 12696.201 256
-6841.6948 -1139.7946 12524.508 256
-6767.2329 -1139.7946 12524.508 256
-6573.5161 -1119.4851 12301.34 256
-6428.8896 -1107.173 12166.049 256
-6050.1885 -1053.8101 11579.676 256
-6067.6567 -1069.0167 11746.773 256
-6135.5479 -1093.5649 12016.518 256
-6067.4365 -1094.1654 12023.116 256
-6021.6055 -1098.8459 12074.549 256
-6055.9253 -1118.4424 12289.881 256
-5975.1543 -1117.0022 12274.056 256
-5892.605 -1115.1897 12254.14 256
-5829.2095 -1117.0022 12274.056 256
-5772.5513 -1120.1681 12308.844 256
-5731.3306 -1126.4493 12377.864 256
-5741.8691 -1143.1992 12561.919 256
-5688.8184 -1147.5631 12609.871 256
-5792.5049 -1184.0834 13011.17 0
-6748.1973 -1398.1134 15363.016 987406
-6732.5977 -1414.0201 15537.806 0
-6056.8662 -1289.7961 14172.783 256
-5846.6226 -1262.59 13873.831 256
-5627.1353 -1232.5804 13544.075 256
-5469.9961 -1215.5547 13356.989 256
-5334.8198 -1202.9797 13218.812 256
-5269.8765 -1206.103 13253.131 256
-5242.4648 -1218.041 13384.311 256
-5168.8262 -1219.4413 13399.696 256
-5136.0088 -1230.6666 13523.046 256
-5185.2783 -1262.2313 13869.89 256
-5187.2852 -1283.1249 14099.478 256
-5162.4375 -1297.9532 14262.417 256
-5224.937 -1335.6046 14676.145 256
-5189.3472 -1349.0353 14823.727 256
-5142.5117 -1359.9561 14943.728 256
-5152.8999 -1386.6599 15237.16 512
-5266.1011 -1442.4818 15850.553 256
-5176.1255 -1443.6702 15863.61 0
-4958.3569 -1408.5983 15478.228 461062
-5073.8008 -1468.651 16138.11 65792
-4977.855 -1468.651 16138.11 256
-4881.7988 -1468.6177 16137.744 512
-4785.7227 -1468.577 16137.297 528392
-4689.3203 -1468.4324 16135.708 659722
-4593.3892 -1468.4324 16135.708 725515
-4496.9951 -1468.2814 16134.049 594182
-4401.457 -1468.4093 16135.454 396805
-4306.2168 -1468.6444 16138.038 3094058
-4210.2725 -1468.6448 16138.041 2896941
-4114.1484 -1468.5808 16137.339 3818550
-4018.4597 -1468.673 16138.352 2633762
-3922.3684 -1468.6189 16137.758 2171933
-3826.3298 -1468.5825 16137.357 256
-3730.4812 -1468.6189 16137.758 512
-3634.1257 -1468.4524 16135.928 512
-2705.6113 -1122.9069 12338.939 512
-2492.916 -1063.4664 11685.783 132097
-2455.166 -1077.3883 11838.763 66305
-2246.6033 -1014.9627 11152.806 66560
-2037.6348 -948.55121 10423.051 461573
-1947.0192 -934.797 10271.914 131841
-1866.5227 -925.16779 10166.104 512
0 0 0 0
0 0 0 0
0 0 0 0
0 0 0 0
0 0 0 0
0 0 0 0
0 0 0 0
0 0 0 0
-747.50726 -522.90234 5745.8545 196608
-713.34656 -522.90234 5745.8545 196608
-679.18585 -522.90234 5745.8545 65536
-643.89673 -521.98755 5735.8027 65536
0 0 0 0
0 0 0 0
0 0 0 0
0 0 0 0
0 0 0 0
0 0 0 0
-235.59245 -303.50278 3335.0068 722693
-233.88445 -328.99033 3615.0742 327680
-216.66154 -335.6041 3687.7485 1049857
-195.00035 -336.05817 3692.738 984321
-173.04599 -336.05817 3692.738 1114880
-153.53876 -341.50104 3752.5466 1312002
-132.42085 -344.60309 3786.6333 1442306
-111.06873 -348.24158 3826.6143 720896
-89.849716 -354.27945 3892.9609 2563088
-68.054672 -361.44785 3971.73 524544
-49.128414 -399.56586 4390.5854 589824
-24.317623 -421.99457 4637.041 458752
3.2788181 -425.62183 4676.8984 1115909
32.35886 -443.07394 4868.6694 458752
69.276054 -500.6882 5501.7573 1182472
105.31506 -517.03418 5681.373 1314313
142.09966 -528.21271 5804.2075 459778
180.05658 -538.52924 5917.5688 854792
247.09375 -618.23236 6793.3784 393728
303.27191 -652.18805 7166.4971 262401
353.1109 -665.82507 7316.3452 262144
408.4411 -685.68927 7534.6216 590597
461.61978 -698.37213 7673.9858 590597
522.11609 -718.84833 7898.9858 262145
569.07776 -718.84833 7898.9858 196608
592.90466 -691.85266 7602.3472 393475
640.32684 -694.2641 7628.8447 327680
695.56073 -704.26605 7738.75 852227
710.13721 -674.41467 7410.7314 983557
742.03955 -663.54413 7291.2817 851969
786.16968 -664.20435 7298.5366 1246728
852.83484 -682.83856 7503.2969 1313290
887.56909 -675.32507 7420.7349 722950
918.45465 -665.73334 7315.3379 2697510
891.46399 -616.95465 6779.3389 525315
948.76489 -628.20813 6902.9966 985353
998.50098 -633.72723 6963.6421 262144
0 0 0 0
0 0 0 0
0 0 0 0
0 0 0 0
0 0 0 0
0 0 0 0
0 0 0 0
0 0 0 0
0 0 0 0
1861.3137 -835.08521 9176.2422 0
2034.9731 -887.00006 9746.7021 329477
2092.9199 -887.00006 9746.7021 256
2240.6296 -924.01746 10153.465 256
2446.9802 -982.6413 10797.646 512
2616.8616 -1023.9972 11252.08 132097
2900.3892 -1106.6533 12160.339 66304
2820.2766 -1049.9154 11536.881 256
3417.2869 -1241.9619 13647.161 790029
3702.6272 -1314.4556 14443.751 658443
3788.4993 -1314.4556 14443.751 395271
3927.3748 -1332.438 14641.349 66305
3939.0906 -1307.4347 14366.603 197633
4520.1855 -1468.4659 16136.076 1185553
4616.2183 -1468.4976 16136.425 1580055
4712.1538 -1468.4976 16136.425 1120273
4808.2227 -1468.5383 16136.871 1383189
4904.1724 -1468.5417 16136.909 856845
4999.833 -1468.4602 16136.013 397320
5095.7246 -1468.4482 16135.883 2042657
5191.6626 -1468.4498 16135.899 2240034
5287.6157 -1468.4556 16135.963 3161388
5383.5273 -1468.4498 16135.899 3095846
5163.1802 -1383.6895 15204.52 2437913
5575.917 -1468.588 16137.418 2569754
5671.7002 -1468.5471 16136.969 2306582
5767.5293 -1468.5192 16136.661 3161891
5863.3608 -1468.4928 16136.371 3030559
3751.4524 -924.43475 10158.05 3885864
0 0 0 0
0 0 0 0
3747.9502 -881.02252 9681.0195 9542547
6343.4561 -1468.5897 16137.437 13882577
6440.2041 -1468.7737 16139.458 13422799
6536.3208 -1468.8104 16139.861 13750991
6632.1108 -1468.7737 16139.458 9738133
6728.2329 -1468.8104 16139.861 10987689
6823.9985 -1468.7694 16139.411 8487554
6920.4409 -1468.8732 16140.552 8619136
7016.3301 -1468.8583 16140.388 6318419
7112.2891 -1468.8583 16140.388 5003061
7208.248 -1468.8583 16140.388 3950119
7303.8003 -1468.7766 16139.49 3029281
7399.3086 -1468.688 16138.517 2634528
7495.2783 -1468.6924 16138.565 2174494
7591.1602 -1468.6794 16138.423 2765862
7686.6558 -1468.5931 16137.474 2173215
7782.3804 -1468.5522 16137.025 593928
7878.3105 -1468.5505 16137.006 659209
7974.5298 -1468.6021 16137.572 1119762
8070.812 -1468.6639 16138.253 988176
8167.3218 -1468.7653 16139.366 856846
8263.2734 -1468.765 16139.363 988433
8358.3809 -1468.6165 16137.73 1120276
8454.2588 -1468.6051 16137.606 1251348
8550.2012 -1468.6051 16137.606 856590
8646.1436 -1468.6051 16137.606 132867
8741.9189 -1468.5771 16137.298 131842
8837.5869 -1468.5317 16136.8 461062
8933.9531 -1468.6021 16137.571 462088
9029.8945 -1468.6021 16137.571 527625
9126.9951 -1468.7883 16139.619 790797
9222.4336 -1468.7062 16138.716 1383188
9317.8516 -1468.6226 16137.797 1119760
9414.4365 -1468.7225 16138.896 527623
9510.3867 -1468.7225 16138.896 132865
9606.6045 -1468.7633 16139.345 857100
9702.9971 -1468.83 16140.077 1975837
9799.1211 -1468.855 16140.352 3028527
9896.1836 -1469.0187 16142.15 5791576
9992.1523 -1469.0187 16142.15 330246
10088.402 -1469.0596 16142.599 462089
10184.376 -1469.0598 16142.602 593935
10278.909 -1468.854 16140.341 331537
10374.592 -1468.8149 16139.911 2831415
10471.044 -1468.8845 16140.676 6845300
10567.681 -1468.9784 16141.708 8620941
10663.648 -1468.9786 16141.71 4673611
10757.177 -1468.6456 16138.051 922382
10853.123 -1468.6458 16138.053 1516056
10949.93 -1468.7614 16139.322 1449489
11045.271 -1468.6801 16138.429 726282
11013.259 -1451.8119 15953.075 528389
11042.6 -1443.2505 15858.999 396549
11191.229 -1450.2931 15936.386 396549
11316.212 -1454.1785 15979.08 527879
11471.377 -1461.8456 16063.329 397317
11566.878 -1461.8456 16063.329 134145
11661.746 -1461.7661 16062.457 397572
11811.872 -1468.5585 16137.093 463365
11908.899 -1468.6925 16138.566 397316
12005.668 -1468.793 16139.67 266243
12101.624 -1468.793 16139.67 200195
12198.394 -1468.8911 16140.748 1845790
12294.354 -1468.8911 16140.748 1385754
12390.705 -1468.9371 16141.255 3161653
12486.602 -1468.9293 16141.169 331530
12582.633 -1468.9371 16141.255 5203810
12677.746 -1468.8385 16140.171 12502216
12773.5 -1468.8152 16139.914 9279135
12869.659 -1468.8383 16140.168 7965076
12966.034 -1468.8855 16140.688 8622494
13062.095 -1468.8966 16140.81 8688289
13157.539 -1468.8389 16140.175 7108225
13253.286 -1468.8156 16139.919 5791850
13349.235 -1468.8149 16139.911 11188152
13445.192 -1468.8149 16139.911 8161931
13541.086 -1468.8082 16139.838 10858159
13637.248 -1468.8303 16140.081 1185043
13733.031 -1468.8118 16139.877 3886666
13829.163 -1468.8303 16140.081 5989212
13924.943 -1468.8118 16139.877 2305061
14021.459 -1468.8702 16140.52 3687480
14118.587 -1468.9919 16141.856 1318934
14214.556 -1468.9919 16141.856 2503205
14310.645 -1469.0043 16141.993 1318930
14403.977 -1468.7355 16139.039 1648149
14499.928 -1468.7355 16139.039 2042650
14595.857 -1468.7334 16139.016 1714197
14691.587 -1468.7113 16138.772 1385488
14787.349 -1468.6926 16138.568 1319439
14882.841 -1468.6476 16138.073 1187853
14978.787 -1468.6476 16138.073 1056524
15040.203 -1465.2837 16101.109 1056267
15135.93 -1465.2837 16101.109 1319184
15230.88 -1465.2094 16100.291 1516308
15326.128 -1465.1641 16099.794 1384723
15420.964 -1465.0803 16098.874 1318931
0 0 0 0
0 0 0 0
0 0 0 0
0 0 0 0
0 0 0 0
0 0 0 0
0 0 0 0
-10050.447 -953.01611 11204.063 256
-10023.592 -956.81091 11248.677 256
-9914.3428 -952.73914 11200.808 256
-9767.9619 -945.01984 11110.056 256
-9864.1543 -960.8233 11295.848 256
-10055.056 -986.13196 11593.388 256
-10432.498 -1030.2108 12111.598 256
-10387.083 -1032.8551 12142.685 256
-10568.98 -1058.2976 12441.798 526853
-12485.203 -1258.985 14801.164 856073
-13515.001 -1372.5015 16135.712 1908760
-13419.07 -1372.5015 16135.712 1250829
-13323.139 -1372.5015 16135.712 1842967
-13227.528 -1372.5347 16136.103 1316624
-13131.594 -1372.5347 16136.103 1053197
-13037.309 -1372.7083 16138.144 1118990
-12849.516 -1362.9658 16023.607 1382162
-12721.697 -1359.4872 15982.711 1316371
-11499.047 -1238.0778 14555.369 1316371
-10627.169 -1152.8804 13553.754 1184784
-10226.683 -1117.9106 13142.634 987406
-9780.4678 -1077.3651 12665.963 921613
-8792.7373 -976.07697 11475.177 855307
-9641.4961 -1078.6666 12681.265 526599
-9581.2715 -1080.3771 12701.373 131584
-9505.7588 -1080.3771 12701.373 0
-9597.9092 -1099.5854 12927.195 0
-9677.4814 -1117.6512 13139.585 131584
-9735.1475 -1133.4607 13325.447 0
-8970.4141 -1052.9922 12379.425 0
-8880.3545 -1051.0439 12356.521 0
-8748.3711 -1044.0599 12274.413 0
-8465.2881 -1018.774 11977.141 0
-8825.9131 -1071.1846 12593.303 0
-8849.5791 -1083.2461 12735.104 0
-8677.3789 -1071.3336 12595.056 0
-8566.9912 -1066.9117 12543.069 0
-8502.2324 -1068.1445 12557.563 0
-8606.5303 -1090.8263 12824.219 256
-8843.8369 -1130.9221 13295.603 256
-8848.8086 -1141.7629 13423.052 256
-8685.7451 -1130.9221 13295.603 256
-8351.9209 -1097.4443 12902.022 256
-8317.501 -1103.0521 12967.95 256
-8306.3584 -1111.881 13071.746 256
-8106.4243 -1095.3662 12877.592 256
-7926.0469 -1081.2045 12711.101 256
-7831.9849 -1078.6578 12681.161 256
-7590.3779 -1055.5436 12409.42 256
-7516.6006 -1055.5436 12409.42 256
-7732.7339 -1096.6588 12892.788 256
-7656.0825 -1096.6588 12892.788 256
-7383.604 -1068.3247 12559.681 256
-7328.8013 -1071.2288 12593.822 131841
-7281.7295 -1075.3345 12642.091 66048
-7227.1069 -1078.3992 12678.12 131841
-7155.5786 -1078.9791 12684.938 256
-7082.4111 -1079.3217 12688.966 256
-6951.3398 -1070.7526 12588.223 256
-6841.6948 -1065.3329 12524.508 256
-6836.6362 -1076.2587 12652.956 256
-6711.5205 -1068.3174 12559.595 0
-6476.4414 -1042.4967 12256.036 0
-6116.4771 -995.75739 11706.548 0
-6090.688 -1002.9716 11791.361 0
-6211.0552 -1034.702 12164.398 256
-6135.7764 -1034.2035 12158.537 256
-6063.4907 -1034.2035 12158.537 256
-6055.9253 -1045.3756 12289.881 256
-5982.8584 -1045.3756 12289.881 256
-5909.7915 -1045.3756 12289.881 256
-5879.2485 -1052.9917 12379.419 256
-5799.9106 -1051.9508 12367.183 256
-5731.3306 -1052.8595 12377.864 256
-5714.9707 -1063.5094 12503.07 256
-5667.1855 -1068.5151 12561.919 256
-5734.9189 -1095.7257 12881.818 256
-5827.9692 -1128.5756 13268.016 256
-5774.3345 -1133.5317 13326.281 256
-5695.106 -1133.5317 13326.281 0
-5628.8184 -1136.1437 13356.989 256
-5542.4854 -1134.7266 13340.329 256
-5451.4385 -1132.2892 13311.674 256
-5348.6699 -1127.3094 13253.131 256
-5299.3076 -1133.6052 13327.146 256
-5274.4707 -1145.4182 13466.024 256
-5216.4072 -1150.2684 13523.046 256
-5182.1665 -1160.606 13644.578 256
-5185.2783 -1179.7709 13869.89 256
-5125.6919 -1185.0593 13932.062 256
-5162.4375 -1213.1592 14262.417 256
-5224.937 -1248.3508 14676.145 256
-5194.8257 -1262.2352 14839.376 256
-5163.9448 -1276.4093 15006.012 256
-5243.5923 -1318.882 15505.338 256
-5270.439 -1349.3566 15863.61 256
-5264.6689 -1372.4388 16134.977 256
-5169.2383 -1372.5706 16136.524 197890
-5073.8008 -1372.7054 16138.11 66048
-4977.8477 -1372.7035 16138.087 256
-4881.7988 -1372.6743 16137.744 264450
-4785.7227 -1372.6364 16137.297 527877
-4565.9595 -1336.395 15711.229 659463
-4592.9165 -1372.36 16134.049 1024
-4496.9951 -1372.36 16134.049 725253
-4401.457 -1372.4795 16135.454 132608
-4306.2168 -1372.6992 16138.038 4279097
-4210.2915 -1372.7058 16138.114 4806471
-4114.6289 -1372.8002 16139.224 3490354
-4018.6536 -1372.7922 16139.131 2700835
-3922.6995 -1372.7914 16139.121 4937285
-3826.7432 -1372.7897 16139.101 4541759
-3730.3816 -1372.6388 16137.326 1580565
-2730.8723 -1031.3833 12125.381 1185552
-2471.2947 -958.65338 11270.338 1024
-2383.3567 -950.30695 11172.214 461060
-2312.9099 -948.65613 11152.806 132098
-2162.5786 -913.17572 10735.683 526599
-2008.0885 -873.7276 10271.914 263684
-1940.1019 -870.62347 10235.421 131840
-1698.0837 -786.69263 9248.6934 3223853
0 0 0 0
0 0 0 0
0 0 0 0
0 0 0 0
0 0 0 0
0 0 0 0
0 0 0 0
0 0 0 0
0 0 0 0
0 0 0 0
0 0 0 0
-583.64191 -442.23093 5199.0552 65536
0 0 0 0
0 0 0 0
0 0 0 0
0 0 0 0
0 0 0 0
0 0 0 0
-235.59245 -283.6752 3335.0068 2038297
-235.38095 -309.46524 3638.2053 327680
-213.51405 -309.12247 3634.1755 1049859
-195.00035 -314.10379 3692.738 1049090
-173.90298 -315.65936 3711.0259 1114624
-153.57684 -319.27032 3753.4778 1442561
-133.49675 -324.70743 3817.3989 1114112
-110.86124 -324.88327 3819.4661 851968
-88.51297 -326.20822 3835.043 3680800
-72.346382 -359.13956 4222.1978 589824
-49.128414 -373.46259 4390.5854 589824
-23.858627 -386.98126 4549.5166 524288
3.2638528 -396.00064 4655.5522 1182472
31.084282 -397.81638 4676.8984 721921
58.36594 -394.27795 4635.2993 2037778
103.03738 -472.80533 5558.501 1840399
139.09239 -483.25681 5681.373 1248520
180.05658 -503.3476 5917.5688 328193
239.91769 -561.06213 6596.0854 393472
299.66461 -602.33051 7081.2539 262144
346.11444 -609.99664 7171.3804 327680
404.57623 -634.82953 7463.3262 721668
470.04614 -664.66339 7814.0659 459010
523.09778 -673.1499 7913.8374 591109
578.57318 -683.09753 8030.7856 1643283
616.45044 -672.33496 7904.2563 459523
731.26489 -741.06537 8712.2803 853254
785.57416 -743.44287 8740.2314 721668
686.70312 -609.5545 7166.1821 985096
735.36584 -614.61755 7225.7061 786435
808.22565 -638.22937 7503.2969 393216
852.83484 -638.22937 7503.2969 327680
897.44403 -638.22937 7503.2969 262144
931.68744 -631.20673 7420.7349 854024
907.72461 -587.16797 6902.9966 656132
995.85028 -616.30798 7245.5791 393216
1038.9272 -616.30798 7245.5791 393216
928.53699 -528.89325 6217.8945 1050376
0 0 0 0
0 0 0 0
0 0 0 0
0 0 0 0
0 0 0 0
0 0 0 0
0 0 0 0
0 0 0 0
0 0 0 0
1809.0432 -737.00873 8664.5889 592392
1860.5566 -737.00873 8664.5889 1316370
2160.447 -832.74585 9790.1152 1052941
2300.9949 -863.6524 10153.465 855819
2475.1731 -905.27869 10642.842 197633
2601.6521 -927.81909 10907.837 66048
2516.7419 -875.70947 10295.214 513
2577.95 -875.70947 10295.214 197892
3017.5166 -1001.2542 11771.171 329478
3662.6057 -1187.7572 13963.779 724236
3927.3748 -1245.3911 14641.349 790797
3939.0906 -1222.0212 14366.603 1119760
4076.3467 -1237.7631 14551.669 264451
4616.1187 -1372.5325 16136.076 659465
4712.1538 -1372.562 16136.425 462342
4808.2227 -1372.6001 16136.871 527880
4904.0254 -1372.562 16136.425 923663
4999.7832 -1372.5134 16135.853 792333
4514.5776 -1215.986 14295.648 529418
4969.9233 -1313.8962 15446.725 332038
5061.7583 -1313.8962 15446.725 1779735
3839.1289 -978.77673 11506.916 2503196
3563.2737 -892.54327 10493.119 1713677
5253.5752 -1293.2943 15204.52 2569241
5671.4658 -1372.5515 16136.301 1845518
5264.9058 -1252.9657 14730.397 1582345
5352.4819 -1252.9657 14730.397 3029023
3750.5012 -863.8233 10155.475 3225892
3632.927 -823.48645 9681.2578 1910291
3690.3936 -823.46619 9681.0195 2239262
3748.0425 -823.48645 9681.2578 6646634
4823.9917 -1043.8542 12271.995 13093835
6440.7075 -1372.9274 16140.72 12501448
6536.6685 -1372.9274 16140.72 10461867
6632.6299 -1372.9274 16140.72 6579562
6728.8149 -1372.9733 16141.258 11513008
6824.481 -1372.9131 16140.552 12829122
6920.4409 -1372.9131 16140.552 13224902
7016.3301 -1372.8992 16140.388 7830639
7111.8936 -1372.8229 16139.49 4542529
7207.8467 -1372.8229 16139.49 4674882
7303.5854 -1372.7825 16139.015 2700579
7399.3086 -1372.7401 16138.517 2305821
7495.2124 -1372.7321 16138.423 2766373
7590.7139 -1372.6514 16137.474 2568737
7686.1802 -1372.5665 16136.477 2041883
6278.9971 -1107.4547 13019.71 1251857
7878.312 -1372.6118 16137.009 659208
7974.9116 -1372.7256 16138.347 132610
8071.0068 -1372.7506 16138.642 1711897
8167.3218 -1372.8124 16139.366 1514262
8263.2744 -1372.8124 16139.366 1119761
8358.123 -1372.631 16137.234 527625
8454.0244 -1372.6245 16137.158 593418
8550.0039 -1372.631 16137.234 1118992
8646.1436 -1372.6626 16137.606 197634
8742.2051 -1372.6813 16137.825 66049
8837.5869 -1372.594 16136.8 256
8934.0215 -1372.6703 16137.697 329220
9031.041 -1372.8337 16139.619 1316628
9126.9951 -1372.8337 16139.619 1382934
9222.4336 -1372.757 16138.716 396037
9318.1162 -1372.7177 16138.254 461830
9414.3174 -1372.755 16138.692 198402
9510.3867 -1372.7723 16138.896 791052
9606.6045 -1372.8104 16139.345 857357
9702.8301 -1372.8491 16139.799 1910044
9798.9551 -1372.8728 16140.077 2567974
9895.9131 -1373.0117 16141.71 2238753
9991.8789 -1373.0115 16141.708 198658
10088.402 -1373.0872 16142.599 1119762
10184.375 -1373.0872 16142.599 659468
10278.635 -1372.8586 16139.91 199433
10374.591 -1372.8586 16139.91 199175
10471.053 -1372.9247 16140.688 2502955
10567.384 -1372.9729 16141.255 593672
10663.648 -1373.0116 16141.709 1251859
10757.178 -1372.7006 16138.053 1384724
10853.122 -1372.7004 16138.051 1055247
10949.066 -1372.7004 16138.051 1054732
10961.629 -1362.3372 16016.217 792075
10982.527 -1353.1798 15908.559 791561
11040.607 -1348.7209 15856.139 594182
11191.229 -1355.5468 15936.386 462596
11299.617 -1357.1853 15955.648 593927
11394.479 -1357.1853 15955.648 265731
11489.34 -1357.1853 15955.648 265731
11660.164 -1366.0851 16060.278 463364
11774.767 -1368.3069 16086.399 595206
11910.238 -1372.8987 16140.381 660743
12006.197 -1372.8987 16140.381 134400
12101.936 -1372.8735 16140.086 1056015
12197.778 -1372.8606 16139.935 1056016
12293.738 -1372.861 16139.938 463368
12390.288 -1372.9268 16140.712 529935
12486.248 -1372.9268 16140.712 2109479
12582.287 -1372.9351 16140.81 10139576
12677.746 -1372.8807 16140.171 9214881
12773.701 -1372.8805 16140.168 9674151
12869.816 -1372.8972 16140.365 9017246
12966.376 -1372.9608 16141.112 3028540
13062.821 -1373.0115 16141.708 4806491
13157.984 -1372.9277 16140.723 10466231
13253.945 -1372.9277 16140.723 9279898
13348.903 -1372.8245 16139.509 2765102
13445.133 -1372.8525 16139.84 528651
13541.086 -1372.8524 16139.838 1581851
13637.043 -1372.8524 16139.838 2438181
13733.031 -1372.8557 16139.877 2569764
13829.163 -1372.873 16140.081 2503969
13925.401 -1372.9008 16140.406 2438433
14021.689 -1372.933 16140.785 2372382
14118.063 -1372.9733 16141.258 2372381
14213.929 -1372.9636 16141.145 2832932
