# .PCD v0.7 - Point Cloud Data file format
VERSION 0.7
FIELDS x y z rgb
SIZE 4 4 4 4
TYPE F F F U
COUNT 1 1 1 1
WIDTH 1404
HEIGHT 1
VIEWPOINT 0 0 0 1 0 0 0
POINTS 1404
DATA ascii
2933.3928 -140.64854 10253.949 256
3161.0852 -148.48004 10824.903 256
3125.1943 -143.86523 10488.462 256
3180.0093 -143.52484 10463.646 330241
3177.1135 -140.64282 10253.532 1054982
3387.1243 -147.11668 10725.508 1121281
3450.8904 -147.11668 10725.508 3226899
3735.6912 -156.36874 11400.028 2963981
3940.9885 -162.02255 11812.218 594689
4233.394 -170.99687 12466.488 923394
3897.7004 -154.72849 11280.444 1582352
3964.7656 -154.72849 11280.444 4345912
3891.1118 -149.32814 10886.733 4608565
3696.1587 -139.5256 10172.082 6384209
3756.6345 -139.5256 10172.082 2041617
3907.4104 -142.82631 10412.72 66304
3890.199 -139.97945 10205.169 132352
3896.769 -138.06261 10065.422 264193
3911.3105 -136.48187 9950.1797 2961702
3630.4214 -124.79305 9098.0088 2105623
3504.791 -118.70598 8654.2324 987143
3466.1218 -115.69778 8434.9199 590849
3588.7502 -118.08264 8608.7881 788736
3639.9319 -118.08264 8608.7881 657920
4079.8699 -130.51938 9515.4854 2632722
4342.7964 -137.03058 9990.1836 2106888
4636.3267 -144.31871 10521.522 1318406
4953.3633 -152.13477 11091.351 512
5825.082 -176.55783 12871.908 329728
6423.4141 -192.16862 14010.01 395521
6590.2212 -194.6351 14189.828 256
6906.7207 -201.40436 14683.339 263936
7281.8589 -209.69324 15287.638 0
7474.6343 -212.59105 15498.902 2434850
7877.6514 -221.32509 16135.655 256
7955.6562 -220.82751 16099.38 256
7928.3398 -217.45311 15853.368 256
7774.9355 -210.74033 15363.976 256
7788.9146 -208.66771 15212.871 256
7591.4717 -201.04362 14657.04 0
7390.6631 -193.50449 14107.399 0
7495.8613 -194.05658 14147.65 256
7815.2544 -200.08005 14586.791 256
8015.2993 -202.94942 14795.98 0
8294.9082 -207.74918 15145.906 256
8392.4854 -207.93575 15159.508 131842
8490.0098 -208.1171 15172.729 256
8584.7295 -208.22656 15180.71 256
8674.9834 -208.22656 15180.71 256
8481.2676 -201.48062 14688.898 256
8285.6895 -194.82835 14203.916 256
8370.1348 -194.82835 14203.916 256
8545.8545 -196.93166 14357.258 256
8830.5576 -201.47995 14688.851 256
9660.9922 -218.2688 15912.837 256
9755.5986 -218.2688 15912.837 395012
9834.9717 -217.93124 15888.227 461060
9690.9707 -212.69749 15506.662 592389
10182.575 -221.38121 16139.747 921867
10279.14 -221.39433 16140.703 197635
10374.701 -221.38579 16140.081 592392
10471.179 -221.3968 16140.884 0
10567.141 -221.3968 16140.884 256
10663.103 -221.3968 16140.884 256
10577.702 -217.66479 15868.802 256
10678.878 -217.80411 15878.959 256
10950.027 -221.37737 16139.466 256
11047.312 -221.40402 16141.41 513
11143.366 -221.40581 16141.54 1024
11239.304 -221.40526 16141.499 768
11334.964 -221.39929 16141.063 1024
11430.431 -221.38966 16140.363 66818
11526.836 -221.39827 16140.989 513
11623.435 -221.41037 16141.871 1646365
11718.957 -221.40193 16141.258 0
11814.922 -221.40193 16141.258 5331285
11913.196 -221.4449 16144.39 1250579
12009.184 -221.44499 16144.396 66307
12105.163 -221.44492 16144.391 132611
12198.518 -221.39722 16140.913 197891
12293.672 -221.38266 16139.852 659211
12389.233 -221.3756 16139.338 264453
12485.98 -221.38969 16140.365 132354
12582.327 -221.39651 16140.862 256
12630.235 -220.55737 16079.686 256
12584.144 -218.10167 15900.652 512
12705.873 -218.56949 15934.759 768
12965.662 -221.38777 16140.224 264964
13063.869 -221.42587 16143.003 462087
13159.431 -221.41893 16142.497 725515
13255.402 -221.41893 16142.497 397064
13350.598 -221.40604 16141.558 792077
13446.563 -221.40604 16141.558 923153
13542.398 -221.4039 16141.401 1186069
13639.338 -221.41972 16142.555 1120020
13733.772 -221.39494 16140.748 330762
13829.021 -221.38351 16139.915 3489082
13924.978 -221.38351 16139.915 460807
14020.935 -221.38354 16139.917 197891
14116.392 -221.37573 16139.347 2435625
14212.346 -221.37573 16139.347 2435368
14309.027 -221.38699 16140.169 790799
14405.458 -221.39427 16140.699 132612
14501.542 -221.39615 16140.835 512
14597.601 -221.39764 16140.943 256
14694.981 -221.41901 16142.501 66048
14789.525 -221.39764 16140.943 197891
14884.965 -221.38986 16140.376 461062
14980.924 -221.38986 16140.376 512
15077.361 -221.39687 16140.889 0
15172.348 -221.38263 16139.85 198147
0 0 0 0
0 0 0 0
0 0 0 0
0 0 0 0
0 0 0 0
0 0 0 0
0 0 0 0
0 0 0 0
-12583.085 -107.58432 13843.896 790029
-12798.963 -110.15054 14174.117 790028
-13272.575 -114.98362 14796.035 987408
-12796.432 -111.5983 14360.414 1118993
-12644.389 -111.013 14285.098 1053201
-12812.038 -113.24554 14572.38 987408
-12902.484 -114.82144 14775.166 1053201
-12919.25 -115.75874 14895.777 987408
-12883.865 -116.23848 14957.511 987151
-12849.377 -116.73304 15021.15 1052688
-12910.559 -118.10973 15198.303 1052688
-12892.341 -118.77434 15283.824 921102
-12801.475 -118.77434 15283.824 855309
-12752.542 -119.16621 15334.248 723723
-11953.324 -112.50217 14476.725 526344
-12893.246 -122.22861 15728.316 263172
-13032.428 -124.45065 16014.248 197379
-11966.545 -115.11317 14812.706 0
-11290.857 -109.41857 14079.929 65793
-11207.147 -109.41857 14079.929 328965
-11526.98 -113.38811 14590.728 394756
-11621.654 -115.18623 14822.107 394756
-11353.488 -113.38811 14590.728 394756
-11418 -114.91036 14786.609 328963
-11141.209 -112.99473 14540.106 0
-11030.269 -112.74435 14507.889 0
-11188.071 -115.25861 14831.421 0
-11220.85 -116.51456 14993.037 0
-10816.433 -113.21458 14568.396 0
-10675.122 -112.63743 14494.13 0
-10737.551 -114.21815 14697.534 0
-10866.091 -116.5338 14995.512 0
-10827.561 -117.08119 15065.949 0
-10496.345 -114.44643 14726.91 0
-10070.487 -110.72673 14248.262 0
-9789.6904 -108.55244 13968.474 0
-9706.6436 -108.55244 13968.474 0
-9465.8779 -106.77339 13739.548 0
-9348.376 -106.36588 13687.107 0
-9140.1592 -104.90997 13499.765 0
-9110.5303 -105.49626 13575.207 65792
-9065.3027 -105.91079 13628.549 256
-9069.8828 -106.91994 13758.405 0
-8878.8721 -105.62077 13591.229 0
-8695.877 -104.39397 13433.364 0
-8772.292 -106.28751 13677.023 0
-8681.8701 -106.17611 13662.689 0
-8555.3066 -105.61644 13590.672 256
-8358.5879 -104.17176 13404.771 256
-8187.8789 -103.02657 13257.407 256
-8109.0601 -103.02657 13257.407 256
-8054.7417 -103.3409 13297.856 256
-7980.9463 -103.4091 13306.632 256
-7901.8345 -103.4091 13306.632 0
-7827.5859 -103.47339 13314.905 0
-7680.0703 -102.56058 13197.444 0
-7594.8369 -102.46922 13185.688 0
-7528.6738 -102.63594 13207.142 0
-7450.1538 -102.63594 13207.142 0
-7411.4375 -103.19013 13278.455 256
-7320.0288 -103.01472 13255.884 256
-7241.2188 -103.01472 13255.884 256
-7171.9824 -103.15241 13273.602 256
-7094.2778 -103.17001 13275.866 256
-6978.5894 -102.62942 13206.303 256
-6865.3579 -102.11306 13139.857 256
-6798.5601 -102.2834 13161.778 256
-6721.8311 -102.30656 13164.757 256
-6701.3765 -103.19684 13279.319 256
-6659.3525 -103.77225 13353.361 256
-6616.3418 -104.34599 13427.189 256
-6559.729 -104.71658 13474.878 256
-6469.6133 -104.55491 13454.074 256
-6389.6245 -104.55491 13454.074 256
-6323.6226 -104.78666 13483.896 256
-6234.1655 -104.63071 13463.828 256
-6062.2222 -103.06831 13262.779 256
-5910.4902 -101.81287 13101.23 256
-5903.1904 -103.04508 13259.791 256
-5869.9248 -103.85127 13363.531 256
-5856.7256 -105.03947 13516.428 256
-5784.9692 -105.19591 13536.558 256
-5727.6812 -105.62356 13591.588 256
-5651.0586 -105.7018 13601.656 256
-5634.2446 -106.91727 13758.062 256
-5665.2515 -109.08938 14037.567 256
-5569.8535 -108.85601 14007.538 256
-5176.501 -102.70402 13215.902 460806
-5203.7593 -104.8361 13490.258 987406
-6128.5352 -125.39957 16136.355 1447700
-5023.3989 -104.42133 13436.885 658440
-4394.1494 -92.817177 11943.668 855819
-4323.1411 -92.817177 11943.668 657672
-4705.1577 -102.70599 13216.155 986893
-5215.209 -115.77292 14897.603 921100
-5552.9556 -125.40027 16136.445 1184272
-4553.1143 -104.62886 13463.59 1052686
-4059.4402 -94.953728 12218.599 658441
-3836.771 -91.380539 11758.803 329220
-3766.8616 -91.380539 11758.803 263683
-3519.886 -87.003853 11195.613 66304
-3252.8718 -81.953583 10545.747 131585
-2671.6174 -68.632179 8831.5557 0
0 0 0 0
0 0 0 0
0 0 0 0
0 0 0 0
0 0 0 0
0 0 0 0
-1153.3788 -34.356045 4420.9189 458752
-1130.1271 -34.448463 4432.8115 524288
0 0 0 0
0 0 0 0
0 0 0 0
0 0 0 0
-1781.7668 -61.480228 7911.2456 7743232
-1755.0511 -62.200348 8003.9102 9517312
-1687.6976 -61.480228 7911.2456 9846272
-1572.8127 -58.937687 7584.0728 9912064
-1517.4637 -58.541885 7533.1406 9845504
-1453.6642 -57.786079 7435.8843 9647616
-1415.4688 -58.032604 7467.6069 9449984
-1371.0718 -58.032604 7467.6069 9187072
-1337.1388 -58.490334 7526.5073 9055744
-1290.7017 -58.413853 7516.6655 8267776
-1248.8861 -58.548542 7533.9976 5903872
-1238.1461 -60.204292 7747.0586 1769472
-1192.0876 -60.204292 7747.0586 983040
-1143.1438 -60.052704 7727.5527 589824
-1097.2013 -60.052704 7727.5527 458752
-1076.4369 -61.490993 7912.6304 327680
-981.505 -58.630333 7544.522 262144
-967.36877 -60.553146 7791.9492 196608
-898.50079 -59.071102 7601.2402 327680
-839.14258 -58.090397 7475.0435 393216
-764.26276 -55.865425 7188.7349 458752
-714.12769 -55.29277 7115.0464 524288
-641.11127 -52.76482 6789.751 589824
-591.7356 -51.97356 6687.9321 589824
-549.93542 -51.781616 6663.2324 589824
-510.55206 -51.805096 6666.2539 589824
-464.01117 -51.045139 6568.4634 720896
-421.87204 -50.674244 6520.7363 589824
0 0 0 0
0 0 0 0
0 0 0 0
0 0 0 0
-162.98074 -36.217941 4660.5068 2300681
-143.30127 -38.367504 4937.1118 1050880
-115.42654 -38.865086 5001.1401 656384
-84.292496 -38.229733 4919.3833 1117184
-53.774719 -37.347233 4805.8237 7038794
-26.622021 -39.450401 5076.4585 131072
3.7336006 -41.386536 5325.5991 65536
36.148247 -42.266373 5438.8159 1184014
73.866547 -45.588642 5866.3242 65536
122.63979 -51.414413 6615.981 262400
163.04453 -51.754333 6659.7222 655872
200.30569 -51.15855 6583.0571 393216
238.9959 -51.062851 6570.7427 393216
277.21515 -50.907566 6550.7603 327680
318.42523 -51.272102 6597.6689 131072
361.46939 -51.819614 6668.1226 256
412.03458 -53.230537 6849.6797 256
462.31924 -54.354668 6994.3315 0
511.16547 -55.138107 7095.1445 65536
555.57941 -55.360447 7123.7549 196608
597.42883 -55.313854 7117.7593 196608
639.74591 -55.313854 7117.7593 262144
675.05371 -54.745411 7044.6128 327680
724.56744 -55.328159 7119.6006 393216
774.42303 -55.871246 7189.4844 458752
836.98035 -57.225952 7363.8076 524288
880.76019 -57.225952 7363.8076 458752
907.57635 -56.175953 7228.6938 655360
0 0 0 0
917.58118 -51.881691 6676.1108 458752
1010.3736 -54.759636 7046.4429 196608
1049.4427 -54.612682 7027.5332 65536
1100.1971 -55.06179 7085.3242 0
1139.7341 -54.937084 7069.2769 256
1181.7629 -54.937084 7069.2769 66560
1256.5629 -56.408203 7258.5801 66304
1299.717 -56.408203 7258.5801 329730
1321.3705 -55.505043 7142.3618 0
1352.0287 -55.024601 7080.5386 0
1392.3823 -54.955841 7071.6909 0
1439.7903 -55.161377 7098.1387 0
1485.1255 -55.278061 7113.1533 0
1554.7869 -56.268658 7240.623 0
1619.62 -57.035847 7339.3447 197377
1663.2544 -57.035847 7339.3447 131584
1710.8063 -57.166748 7356.189 0
1721.1423 -56.078548 7216.1602 196608
0 0 0 0
0 0 0 0
0 0 0 0
0 0 0 0
0 0 0 0
0 0 0 0
2797.4402 -77.605614 9986.252 329473
2860.3857 -77.702713 9998.7461 921866
2918.9116 -77.678238 9995.5977 1054222
3101.6045 -80.893158 10409.292 593158
3163.4907 -80.893158 10409.292 265472
3324.4436 -83.377777 10729.011 594691
3400.5823 -83.681725 10768.123 3952151
3672.9382 -88.71376 11415.643 3426062
3735.6912 -88.592415 11400.028 5729848
3927.0972 -91.472061 11770.58 791553
4600.7778 -105.28761 13548.358 529152
4307.5107 -96.880142 12466.488 3753516
4211.5342 -93.119278 11982.543 9214607
4277.4849 -93.00428 11967.745 6780264
3913.7891 -83.704201 10771.016 10990503
0 0 0 0
3907.4104 -80.919792 10412.72 256
3890.199 -79.30687 10205.169 263424
3896.769 -78.220863 10065.422 394753
3813.5876 -75.393333 9701.5771 1315854
3618.8823 -70.478134 9069.0918 1316108
3526.6172 -67.672989 8708.127 1907731
3298.0503 -62.37133 8025.9121 131072
3452.4487 -64.360085 8281.8242 788482
3534.8181 -64.96904 8360.1836 788481
3904.738 -70.772919 9107.0244 657665
4346.5259 -77.702835 9998.7627 395266
4579.9434 -80.770966 10393.568 790532
5748.5552 -100.03076 12871.908 256
5931.896 -101.86501 13107.939 329728
6423.4141 -108.87522 14010.01 461314
6667.0312 -111.55788 14355.213 768
6906.7207 -114.10783 14683.339 256
7017.272 -114.48724 14732.161 131840
7742.6621 -124.76476 16054.667 2171680
7859.9409 -125.11223 16099.38 256
7955.6562 -125.11223 16099.38 256
7738.2144 -120.24601 15473.197 256
7774.9355 -119.39722 15363.976 256
7788.9146 -118.22295 15212.871 256
7517.3877 -112.79188 14514.004 256
7390.6631 -109.63206 14107.399 256
7474.5356 -109.63206 14107.399 256
7579.9736 -109.94486 14147.65 256
7940.3438 -113.90791 14657.614 256
8278.6328 -117.47162 15116.189 256
8368.5029 -117.47162 15116.189 256
8339.7715 -115.82445 14904.232 256
8297.125 -114.0207 14672.127 256
8503.4688 -115.64056 14880.571 66048
8111.5957 -109.17555 14048.655 256
8365.4619 -111.44485 14340.668 197635
8450.7207 -111.44485 14340.668 256
8605.8154 -112.35661 14457.993 256
8902.9502 -115.08647 14809.27 256
9541.2061 -122.12926 15715.533 197891
9537.6523 -120.89985 15557.333 0
9574.2676 -120.19835 15467.064 66048
9666.2236 -120.19835 15467.064 461317
10183.117 -125.4326 16140.605 1185039
10278.232 -125.42228 16139.277 790794
10372.674 -125.40402 16136.928 856587
10470.658 -125.42852 16140.081 4474689
10566.615 -125.42852 16140.081 256
10663.103 -125.43476 16140.884 256
10459.122 -121.93788 15690.906 256
10633.303 -122.87263 15811.19 256
10949.724 -125.42027 16139.019 256
11047.191 -125.43748 16141.234 0
11143.366 -125.43987 16141.54 263684
11239.017 -125.43634 16141.087 768
11334.964 -125.43616 16141.063 256
11430.874 -125.43559 16140.989 256
11528.261 -125.45109 16142.983 256
11624.276 -125.45153 16143.041 0
11720.255 -125.45156 16143.045 0
11816.229 -125.45156 16143.045 1184274
11912.455 -125.4542 16143.384 263429
12007.45 -125.44395 16142.064 0
12103.419 -125.44395 16142.064 256
12198.581 -125.43564 16140.996 256
12293.672 -125.42675 16139.852 256
12389.233 -125.42275 16139.338 329221
12485.63 -125.42722 16139.911 66562
12582.676 -125.43807 16141.31 132867
12696.574 -125.61551 16164.142 512
12756.686 -125.26212 16118.668 256
12868.987 -125.42265 16139.325 256
12968.291 -125.45507 16143.497 0
13064.27 -125.45507 16143.497 512
13159.42 -125.4472 16142.483 198659
13254.448 -125.43826 16141.334 132866
13350.337 -125.43755 16141.241 132866
13446.433 -125.43879 16141.401 66818
13544.086 -125.45442 16143.412 264196
13639.998 -125.45381 16143.335 67331
13735.31 -125.44775 16142.555 527626
13830.938 -125.44463 16142.153 527625
13925.752 -125.43421 16140.813 528395
14021.713 -125.43421 16140.813 988946
14116.891 -125.42725 16139.917 2240040
14212.346 -125.42282 16139.347 1911591
14309.497 -125.43333 16140.699 2371885
14405.458 -125.43333 16140.699 8097162
14500.964 -125.42938 16140.191 9607835
14597.136 -125.43123 16140.429 4344139
14693.441 -125.43419 16140.81 1053463
14789.006 -125.43082 16140.376 263430
14883.544 -125.41884 16138.835 987409
14979.493 -125.41884 16138.834 1843745
15076.391 -125.42673 16139.85 791570
0 0 0 0
0 0 0 0
0 0 0 0
0 0 0 0
0 0 0 0
0 0 0 0
0 0 0 0
0 0 0 0
0 0 0 0
-12583.085 -25.278496 13843.896 987406
-13360.542 -27.017069 14796.035 1184785
-13358.566 -27.19211 14891.896 1118992
-13270.03 -27.19211 14891.896 1184786
-12839.297 -26.486191 14505.297 1184787
-12990.327 -26.978962 14775.166 1184787
-13007.81 -27.199196 14895.777 1118994
-12947.434 -27.25853 14928.272 1118994
-12883.865 -27.311918 14957.511 1118482
-12849.377 -27.428123 15021.15 1118481
-12966.368 -27.871561 15264.002 1118481
-13002.223 -28.145615 15414.089 986895
-12947.092 -28.225208 15457.679 921102
-12928.885 -28.387012 15546.291 723723
-12969.4 -28.681004 15707.298 592137
-13102.449 -29.185383 15983.522 394758
-13060.43 -29.304316 16048.657 65793
-12965.017 -29.304316 16048.657 131586
-11534.41 -26.264057 14383.645 131586
-11142.883 -25.562057 13999.19 526344
-11337.909 -26.205187 14351.403 592135
-11440.234 -26.642185 14590.728 526342
-11444.964 -26.85684 14708.285 460549
-11418 -26.999857 14786.609 526342
-11330.089 -26.999857 14786.609 460549
-11402.852 -27.385736 14997.938 394756
-11346.357 -27.464827 15041.251 328963
-11386.392 -27.780684 15214.231 131584
-11211.359 -27.572672 15100.313 0
-10975.089 -27.209484 14901.411 0
-10816.538 -27.03463 14805.651 0
-11033.711 -27.80369 15226.832 0
-11031.339 -28.02767 15349.496 0
-10966.758 -28.09601 15386.923 0
-10687.712 -27.611437 15121.544 0
-10955.829 -28.544218 15632.386 0
-10862.89 -28.544218 15632.386 65536
-9944.5557 -26.356623 14434.339 328705
-9645.2803 -25.785955 14121.81 262912
-9276.2725 -25.017206 13700.8 328704
-9110.5303 -24.787878 13575.207 262913
-9151.6797 -25.122393 13758.405 196864
-9080.8877 -25.152876 13775.101 131584
-8775.7422 -24.528877 13433.364 263424
-8685.1758 -24.498695 13416.834 197378
-8558.5889 -24.3654 13343.834 0
-8539.9609 -24.539835 13439.366 0
-8408.4678 -24.390184 13357.408 256
-8236.8193 -24.120092 13209.49 256
-8151.8062 -24.100935 13198.999 256
-8042.1729 -24.00791 13148.054 256
-7969.9985 -24.025984 13157.951 256
-7980.9463 -24.297468 13306.632 256
-7901.8345 -24.297468 13306.632 0
-7827.5859 -24.312576 13314.905 0
-7811.001 -24.508923 13422.436 0
-7850.9473 -24.888533 13630.331 0
-7680.231 -24.601271 13473.011 0
-7543.4375 -24.417757 13372.509 0
-7463.9341 -24.417757 13372.509 256
-7394.9185 -24.452438 13391.502 256
-7282.0112 -24.341156 13330.558 256
-7202.7568 -24.341156 13330.558 256
-7104.917 -24.277647 13295.776 256
-7015.3491 -24.241291 13275.866 256
-6865.3579 -23.992945 13139.857 256
-6798.5601 -24.03297 13161.778 256
-6728.7627 -24.0632 13178.333 256
-6701.3765 -24.247597 13279.319 256
-6659.3525 -24.382793 13353.361 256
-6624.9009 -24.549316 13444.559 256
-6549.6016 -24.566694 13454.074 256
-6465.0376 -24.549316 13444.559 256
-6373.7993 -24.505846 13420.751 256
-6295.2778 -24.510786 13423.456 256
-6215.4717 -24.510786 13423.456 256
-6081.7563 -24.295431 13305.516 256
-5997.7603 -24.275635 13294.674 256
-5949.3745 -24.401365 13363.531 256
-6056.6733 -25.177681 13788.686 256
-5974.6958 -25.177681 13788.686 256
-5849.6763 -24.993776 13687.968 256
-5747.5747 -24.903988 13638.795 256
-5651.0586 -24.836174 13601.656 256
-5566.0698 -24.817789 13591.588 256
-5653.1323 -25.577299 14007.538 256
-5518.4966 -25.341465 13878.381 256
-4758.5464 -22.18338 12148.84 256
-4686.3179 -22.18338 12148.84 256
-4719.2852 -22.689131 12425.817 0
-4044.3049 -19.75321 10817.946 0
-3888.3643 -19.298464 10568.901 0
-3915.6736 -19.75321 10817.946 0
-4222.1172 -21.654795 11859.358 921100
-4626.584 -24.132261 13216.155 1118479
-5552.9556 -29.464613 16136.445 2039580
-3664.5132 -19.78616 10835.99 1118479
-3573.4668 -19.639837 10755.856 0
-3415.9885 -19.116419 10469.204 197890
-3445.5737 -19.639837 10755.856 197890
-3315.5691 -19.256186 10545.747 1381906
-2946.1497 -17.440466 9551.3604 2171421
-2361.7678 -14.255847 7807.2871 1974041
0 0 0 0
0 0 0 0
0 0 0 0
0 0 0 0
0 0 0 0
-1167.1593 -7.9868927 4374.0625 655360
-1153.3788 -8.0724516 4420.9189 655360
-1134.2628 -8.1237879 4449.0337 720896
0 0 0 0
0 0 0 0
-1308.9067 -10.079793 5520.2495 8400896
-1659.9113 -13.111611 7180.6406 9583616
-1724.5229 -13.981567 7657.0762 9977856
-1669.9827 -13.906481 7615.9546 9977856
-1598.594 -13.682997 7493.5625 9911552
-1554.0425 -13.682997 7493.5625 9648384
-1509.4912 -13.682997 7493.5625 9581568
-1459.8658 -13.635603 7467.6069 9318144
-1427.0502 -13.747169 7528.707 8989952
-1362.092 -13.546298 7418.6987 8267520
-1317.986 -13.546298 7418.6987 5772800
-1282.7124 -13.640224 7470.1382 1769728
-1265.1837 -13.936354 7632.3145 851968
-1268.0253 -14.487243 7934.0122 458752
-1220.8553 -14.487243 7934.0122 393216
-1143.1438 -14.110254 7727.5527 393216
-1097.2013 -14.110254 7727.5527 393216
-1076.4369 -14.4482 7912.6304 262144
-1029.394 -14.4482 7912.6304 196608
-980.58038 -14.422155 7898.3662 196608
-898.50079 -13.879612 7601.2402 196608
-853.30933 -13.879612 7601.2402 393216
-776.91998 -13.343782 7307.7905 458752
-721.52374 -13.12639 7188.7349 524288
-678.78467 -13.12639 7188.7349 524288
-623.39722 -12.865358 7045.7793 524288
-619.86371 -13.713944 7510.5107 524288
-549.32202 -13.096695 7172.4717 524288
-486.05353 -12.563549 6880.4912 655360
-431.14902 -12.168476 6664.1274 524288
-385.77405 -11.989618 6566.1753 524288
-346.73633 -11.989618 6566.1753 458752
0 0 0 0
0 0 0 0
-162.98074 -8.5099306 4660.5068 1181952
-142.88232 -8.9886465 4922.6777 985088
-113.61563 -8.9886465 4922.6777 919296
-85.693375 -9.131916 5001.1401 1444352
-54.661041 -8.9199104 4885.0342 1445889
-25.798286 -8.9826307 4919.3833 5721894
3.3483961 -8.7210817 4776.1445 65536
36.148247 -9.931098 5438.8159 256
72.854065 -10.56489 5785.9155 0
116.03001 -11.429468 6259.4062 196608
161.97363 -12.080562 6615.981 196608
202.58482 -12.157214 6657.9604 393216
239.4438 -12.020444 6583.0571 262144
280.64917 -12.109644 6631.9077 196608
321.82556 -12.175771 6668.1226 65536
368.42087 -12.409924 6796.3579 0
420.73596 -12.771418 6994.3315 0
467.78531 -12.922417 7077.0269 0
518.04547 -13.129873 7190.6416 0
564.55719 -13.217936 7238.8696 65536
610.591 -13.28313 7274.5728 65536
653.84033 -13.28313 7274.5728 196608
699.80164 -13.334805 7302.8735 196608
750.31244 -13.46207 7372.5708 196608
793.20044 -13.446069 7363.8076 393216
839.35132 -13.484159 7384.6675 458752
883.25525 -13.484159 7384.6675 524288
920.96576 -13.394085 7335.3389 720896
926.5874 -12.86657 7046.4429 589824
968.48053 -12.86657 7046.4429 524800
1029.0692 -13.10465 7176.8281 196608
1058.0729 -12.937567 7085.3242 65536
1100.1971 -12.937567 7085.3242 256
1141.2352 -12.925266 7078.5874 65792
1203.771 -13.148657 7200.9282 132096
1261.2526 -13.303393 7285.6709 512
1309.0951 -13.34956 7310.9536 512
1352.9379 -13.353281 7312.9922 197888
1394.226 -13.332342 7301.5244 256
1437.6355 -13.332342 7301.5244 131584
1484.5043 -13.363482 7318.5786 65792
1522.2526 -13.313082 7290.9771 0
1565.5995 -13.313082 7290.9771 263169
1678.6033 -13.889452 7606.6289 256
1690.7233 -13.622725 7460.5552 65536
1715.5652 -13.469522 7376.6519 196608
1759.4215 -13.469522 7376.6519 262144
0 0 0 0
0 0 0 0
0 0 0 0
0 0 0 0
0 0 0 0
0 0 0 0
0 0 0 0
2859.4849 -18.251631 9995.5977 526852
2918.9116 -18.251631 9995.5977 132352
3101.0305 -19.003506 10407.366 1120267
3163.4907 -19.007021 10409.292 1581071
3324.4436 -19.590818 10729.011 1384202
3400.5823 -19.662235 10768.123 1845004
3672.9382 -20.844584 11415.643 1318656
3740.8079 -20.844584 11415.643 2897942
4108.167 -22.483669 12313.296 922119
4873.7275 -26.206532 14352.141 727040
4454.9429 -23.542511 12893.176 3556890
4531.5967 -23.542511 12893.176 4544039
4277.4849 -21.852705 11967.745 2898978
3913.7891 -19.667519 10771.016 11977400
0 0 0 0
0 0 0 0
3698.2302 -17.714758 9701.5771 328960
3745.7583 -17.666883 9675.3584 460288
3748.8591 -17.414083 9536.9111 921862
3477.6865 -15.913754 8715.248 2500629
3176.6172 -14.322677 7843.8867 2631959
3223.2512 -14.322677 7843.8867 263169
3450.5564 -15.114049 8277.2852 525568
3534.8181 -15.265418 8360.1836 526336
3901.3242 -16.614588 9099.0635 657923
4356.6489 -18.299931 10022.05 658435
4684.6094 -19.412025 10631.095 461056
5080.6719 -20.772955 11376.414 329728
5373.1724 -21.680264 11873.307 256
6175.0557 -24.592705 13468.319 512
6529.6353 -25.671953 14059.376 512
6752.3774 -26.212143 14355.213 256
7017.272 -26.900436 14732.161 987149
7534.4199 -28.526844 15622.871 263171
7739.8345 -28.947725 15853.368 256
7834.0874 -28.947725 15853.368 65792
7683.5923 -28.054111 15363.976 256
7698.4697 -27.778198 15212.871 256
7668.1128 -27.347378 14976.93 256
6845.1001 -24.131983 13216.003 256
6923.6733 -24.131983 13216.003 256
7211.2681 -24.852341 13610.51 256
7367.0552 -25.1075 13750.25 256
7940.3438 -26.764317 14657.614 256
8225.7861 -27.425465 15019.694 0
8235.3154 -27.162371 14875.61 921613
8323.7549 -27.162371 14875.61 256
8297.125 -26.790817 14672.127 256
8307.7744 -26.546118 14538.116 256
8131.1855 -25.714331 14082.583 0
8365.4619 -26.185583 14340.668 987406
8450.7207 -26.185583 14340.668 987406
8535.9805 -26.185583 14340.668 724234
8902.9502 -27.041237 14809.27 256
9169.0986 -27.576895 15102.627 66304
9298.3086 -27.694309 15166.928 855820
9574.2676 -28.242348 15467.064 921613
9666.2236 -28.242348 15467.064 0
10182.279 -29.469784 16139.277 66048
10236.104 -29.348997 16073.128 724232
10371.809 -29.463034 16135.581 1514003
10468.516 -29.465223 16136.779 724232
10567.434 -29.473534 16141.33 256
10660.913 -29.466665 16137.569 256
10431.769 -28.576143 15649.869 256
10833.27 -29.413643 16108.53 256
10949.468 -29.468626 16138.642 0
11045.862 -29.469812 16139.293 3752765
11142.172 -29.470757 16139.81 1121303
11238.511 -29.471764 16140.36 2107171
11334.472 -29.471769 16140.363 3751484
11430.431 -29.471769 16140.363 132356
11528.178 -29.476339 16142.867 0
11624.151 -29.476339 16142.867 987664
11720.255 -29.476664 16143.045 256
11816.229 -29.476664 16143.045 1513752
11910.474 -29.472382 16140.7 790030
12006.436 -29.472382 16140.7 1185299
12102.556 -29.472771 16140.913 769
12197.716 -29.470835 16139.852 198147
12211.822 -29.274624 16032.396 256
12307.14 -29.274624 16032.396 256
12454.898 -29.398405 16100.187 512
12582.327 -29.472677 16140.862 0
12697.673 -29.51774 16165.54 256
12787.482 -29.503206 16157.58 256
12869.704 -29.471514 16140.224 256
12967.895 -29.476589 16143.003 256
13063.847 -29.476536 16142.975 256
13159.82 -29.476536 16142.975 256
13257.672 -29.480711 16145.261 256
13353.66 -29.480711 16145.261 256
13448.14 -29.477404 16143.449 256
13544.086 -29.477335 16143.412 512
13641.128 -29.479637 16144.673 66561
13737.112 -29.479637 16144.673 330246
13833.098 -29.479637 16144.673 922381
13926.908 -29.475035 16142.153 329989
14022.103 -29.47341 16141.262 528392
14117.217 -29.471634 16140.289 923409
14213.175 -29.471634 16140.289 331016
14310.016 -29.47345 16141.285 3883840
14405.928 -29.473343 16141.226 5330773
14500.964 -29.471453 16140.191 527630
14597.136 -29.471888 16140.429 4013887
14693.094 -29.471888 16140.429 4477781
14788.174 -29.470135 16139.469 6714741
14883.544 -29.468977 16138.835 6648950
14978.54 -29.467104 16137.809 5001300
15074.485 -29.467104 16137.809 3226173
0 0 0 0
0 0 0 0
0 0 0 0
0 0 0 0
0 0 0 0
0 0 0 0
0 0 0 0
0 0 0 0
0 0 0 0
0 0 0 0
-13360.542 60.949478 14796.035 1184787
-13358.566 61.344364 14891.896 1184787
-13270.03 61.344364 14891.896 1316373
-12839.297 59.751835 14505.297 1250580
-12990.327 60.86351 14775.166 1316373
-12952.175 61.097912 14832.068 1184787
-12902.714 61.281803 14876.711 1184787
-12814.268 61.281803 14876.711 1250067
-12846.937 61.865044 15018.297 1184274
-12992.325 63.003048 15294.558 1184274
-13038.991 63.674992 15457.679 1118481
-13023.358 64.050079 15548.734 986895
-13155.381 65.161911 15818.641 789516
-13116.506 65.437149 15885.458 592137
-13154.949 66.104919 16047.566 526344
-13130.786 66.465546 16135.111 0
-13034.859 66.465546 16135.111 263172
-12022.54 61.758163 14992.352 328965
-11448.896 59.250713 14383.645 592137
-11438.268 59.641186 14478.436 657928
-11440.234 60.103752 14590.728 657928
-11444.964 60.588005 14708.285 657928
-11445.41 61.056877 14822.107 723721
-11448.552 61.547508 14941.212 657928
-11488.465 62.245045 15110.545 592135
-11476.845 62.672157 15214.231 592135
-11460.574 63.080471 15313.353 394756
-11386.664 63.175522 15336.427 460549
-11146.854 62.344227 15134.623 328963
-11124.238 62.724064 15226.832 131584
-11211.892 63.736977 15472.727 0
-11068.045 63.439743 15400.569 0
-11010.615 63.637012 15448.458 0
-10884.923 63.439743 15400.569 0
-11309.633 66.474205 16137.212 197376
-11213.154 66.471016 16136.438 855047
-11116.471 66.466537 16135.352 854791
-9858.7393 59.459538 14434.339 854533
-9772.9229 59.459538 14434.339 920325
-9090.1963 55.795692 13544.908 854276
-9009.668 55.795692 13544.908 788739
-9080.8877 56.743931 13775.101 920327
-8677.2529 54.715179 13282.604 328704
-8089.814 51.47953 12497.12 256
-8493.3887 54.54866 13242.18 0
-8535.1504 55.329758 13431.797 0
-8441.3027 55.23819 13409.569 256
-8329.0537 55.023323 13357.408 256
-8171.7979 54.504128 13231.369 256
-8151.0034 54.89386 13325.979 256
-8092.8882 55.037437 13360.834 256
-8013.4551 55.037437 13360.834 256
-7930.9189 55.015923 13355.61 0
-7877.2583 55.196297 13399.398 0
-7970.0312 56.416904 13695.713 0
-7892.502 56.444763 13702.476 0
-7769.9111 56.147579 13630.331 0
-7596.9556 55.476345 13467.383 0
-7463.9341 55.085529 13372.509 256
-7394.9185 55.163769 13391.502 256
-7307.0093 55.101227 13376.32 256
-7213.7095 54.996216 13350.827 256
-7115.6084 54.851864 13315.784 256
-6963.1978 54.280891 13177.176 256
-6856.0747 54.053978 13122.091 256
-6797.918 54.212341 13160.534 256
-6728.7627 54.285656 13178.333 256
-6701.3765 54.701653 13279.319 256
-6659.3525 55.006657 13353.361 256
-6563.9048 54.87241 13320.772 256
-6459.9902 54.663246 13269.996 256
-6405.5127 54.87241 13320.772 256
-6342.8555 55.015858 13355.596 256
-6294.0093 55.284256 13420.751 256
-6187.3032 55.0448 13362.621 256
-6081.7563 54.809563 13305.516 256
-6044.8125 55.19453 13398.97 256
-6011.9292 55.62735 13504.041 256
-6069.896 56.923893 13818.788 256
-5975.1743 56.80444 13789.79 256
-5881.1411 56.688293 13761.595 256
-5747.5747 56.182446 13638.795 256
-5623.4346 55.755569 13535.167 256
-5521.7075 55.541756 13483.262 256
-5398.3379 55.100731 13376.199 256
-5106.2515 52.898682 12841.632 256
-4523.9575 47.577724 11549.922 256
-4686.3179 50.044857 12148.84 256
-4655.9956 50.499374 12259.178 1
-4338.4321 47.803349 11604.694 1
-3979.9893 44.562492 10817.946 1
-3915.6736 44.562492 10817.946 3
-3840.1748 44.433094 10786.534 2
-3776.0459 44.433094 10786.534 1
-3666.4573 43.88892 10654.432 0
-3432.3098 41.808392 10149.364 0
-3371.969 41.808392 10149.364 256
-3311.6284 41.808392 10149.364 329476
-3230.9414 41.546761 10085.851 65792
-3002.9353 39.345028 9551.3604 3092525
-2454.1296 32.774235 7956.2407 3421228
-2329.4932 31.721157 7700.5967 3157278
0 0 0 0
0 0 0 0
0 0 0 0
0 0 0 0
-1091.4165 16.481619 4001.0618 851968
-1170.4788 18.06937 4386.5024 589824
-1153.3788 18.211142 4420.9189 655360
-1175.7853 18.997856 4611.9009 1114112
-1173.248 19.409487 4711.8281 2360320
-1341.7262 22.739628 5520.2495 9125376
-1680.8574 29.201523 7088.9331 9716224
-1659.9113 29.579296 7180.6406 9978112
-1668.4327 30.515982 7408.0298 9977600
-1626.2709 30.551313 7416.6069 9845248
-1582.177 30.551313 7416.6069 9648128
-1538.0831 30.551313 7416.6069 9252608
-1486.9548 30.407463 7381.6855 9055744
-1477.5912 31.134899 7558.2773 8530688
-1432.6552 31.134899 7558.2773 5837568
-1371.0718 30.761398 7467.6069 1507328
-1327.6143 30.783186 7472.8955 786432
-1292.3917 31.004028 7526.5073 393216
-1387.0876 34.469196 8367.708 393216
-1337.3392 34.469196 8367.708 327680
-1262.406 33.794987 8204.0381 327680
-1198.9807 33.387043 8105.0054 327680
-1150.7942 33.387043 8105.0054 196608
-1074.4963 32.535831 7898.3662 196608
-1040.4242 32.943844 7997.415 196608
-992.87726 32.943844 7997.415 262144
-937.88318 32.684311 7934.4116 393216
-890.71094 32.684311 7934.4116 458752
-850.45544 32.95232 7999.4727 458752
-788.3598 32.355713 7854.6406 458752
-828.4505 36.141953 8773.7852 327680
-726.92712 33.843845 8215.8984 1050631
-678.08136 33.843845 8215.8984 393216
-589.41119 31.701864 7695.9136 458752
-506.67972 29.545645 7172.4717 458752
-439.914 28.009689 6799.605 524288
-392.93024 27.549868 6687.9785 524288
-354.72653 27.671421 6717.4868 458752
0 0 0 0
0 0 0 0
-164.16501 19.33758 4694.3716 1248000
-143.30127 20.337502 4937.1118 1182464
-114.95652 20.517363 4980.7749 1182464
-87.240921 20.973293 5091.4561 1510400
-53.774719 19.796686 4805.8237 1969920
-25.047112 19.674427 4776.1445 8418598
3.2958705 19.365799 4701.2222 262400
33.739895 20.911514 5076.4585 256
72.854065 23.833988 5785.9155 257
113.75642 25.279205 6136.7549 65536
160.8661 27.066936 6570.7427 196608
202.63843 27.433472 6659.7222 327680
242.16823 27.426214 6657.9604 327680
282.18173 27.468075 6668.1226 393986
324.32321 27.681253 6719.8735 65536
383.63553 29.152477 7077.0269 0
427.19037 29.253826 7101.6299 0
474.15015 29.549137 7173.3193 0
527.24841 30.146688 7318.3809 0
579.13672 30.589231 7425.8115 0
625.30273 30.688246 7449.8481 0
671.24884 30.76408 7468.2578 131072
717.41913 30.840141 7486.7227 131072
757.64905 30.666876 7444.6606 196608
796.67657 30.466753 7396.0786 327680
845.4184 30.639627 7438.0459 458752
884.36035 30.457806 7393.9067 524288
923.99878 30.316057 7359.4961 720896
958.64307 30.030676 7290.2168 524288
996.74792 29.873703 7252.1104 393216
1037.6062 29.808846 7236.3657 196608
1071.8929 29.567881 7177.8696 131328
1107.1321 29.37063 7129.9854 256
1160.9594 29.662867 7200.9282 256
1213.4086 29.900352 7258.5801 256
1271.2242 30.249228 7343.2725 256
1316.245 30.280582 7350.8843 256
1367.1956 30.441954 7390.0586 256
1397.9363 30.157299 7320.9561 256
1441.4615 30.157299 7320.9561 0
1498.6541 30.434858 7388.3364 0
1568.5956 30.948147 7512.9414 256
1618.7552 31.053524 7538.5229 0
1687.7018 31.503914 7647.8594 66048
1733.0356 31.501463 7647.2642 256
1769.0503 31.334072 7606.6289 0
1830.1741 31.608685 7673.293 460034
1875.7938 31.608685 7673.293 131072
0 0 0 0
0 0 0 0
0 0 0 0
0 0 0 0
0 0 0 0
0 0 0 0
2856.8113 41.136482 9986.252 256
3039.156 42.871185 10407.366 256
3124.7261 43.198765 10486.89 198658
3187.0735 43.198765 10486.89 527620
3276.5725 43.559727 10574.517 725506
3439.9028 44.870152 10892.634 1252358
3787.1382 48.486687 11770.58 1712907
4034.9609 50.722298 12313.296 1252356
4266.9961 52.683319 12789.351 528384
4885.3096 59.261433 14386.247 1910031
4959.0552 59.120937 14352.141 2370583
4531.5967 53.111008 12893.176 659459
4277.4849 49.29887 11967.745 330498
3858.2407 43.739437 10618.143 2435871
0 0 0 0
0 0 0 0
3481.7229 37.624195 9133.6123 131584
3731.3738 39.702759 9638.2021 460033
3641.0825 38.156078 9262.7324 526337
3474.845 35.871487 8708.127 1316363
3152.9312 32.070488 7785.4004 2566177
3129.4404 31.371008 7615.5947 526851
3450.5564 34.096718 8277.2852 197376
3560.6284 34.689659 8421.2275 460544
4189.3218 40.248802 9770.7598 460544
4418.2773 41.867943 10163.82 789764
4684.6094 43.792789 10631.095 1053449
4929.6895 45.470367 11038.342 1053449
5148.3076 46.862995 11376.414 395265
5544.5752 49.815609 12093.188 256
6529.6353 57.914948 14059.376 0
7003.8691 61.336021 14889.872 256
7175.479 62.054558 15064.303 725516
7534.4199 64.355469 15622.871 4673611
7618.2061 64.278725 15604.239 4475463
7783.8892 64.886513 15751.785 395527
7986.041 65.780235 15968.746 329991
8080.98 65.780235 15968.746 66049
8175.9185 65.780235 15968.746 256
6845.1001 54.440834 13216.003 256
6889.2212 54.169933 13150.24 256
6394.0479 49.712234 12068.093 256
7064.1279 54.312504 13184.851 256
7373.1045 56.065929 13610.51 66048
7968.7842 59.93774 14550.428 256
6092.4429 45.3326 11004.897 0
6132.7505 45.147678 10960.006 395269
7693.4243 56.041504 13604.58 526855
7795.1021 56.191402 13640.97 263683
8131.1855 58.010548 14082.583 0
8365.4619 59.073677 14340.668 66305
8450.7207 59.073677 14340.668 461062
7579.9043 52.457111 12734.437 329477
7622.396 52.229496 12679.181 256
9020.2998 61.202827 14857.537 0
9258.8877 62.212425 15102.627 0
9388.4805 62.477299 15166.928 256
9478.6514 62.477299 15166.928 263682
8615.7119 56.254189 13656.212 263681
9472.3398 61.269958 14873.835 855819
10312.904 66.090004 16043.943 526854
10467.709 66.467293 16135.535 526855
10564.972 66.47567 16137.569 256
10660.913 66.47567 16137.569 256
10548.679 65.189171 15825.259 256
10851.488 66.467651 16135.622 512
10948.636 66.475037 16137.415 132355
11045.418 66.480103 16138.644 3225394
11142.089 66.484413 16139.689 2303525
11238.511 66.487175 16140.36 3817535
11335.002 66.490295 16141.119 0
11430.966 66.490295 16141.119 329992
11528.211 66.497696 16142.914 263685
11624.979 66.50222 16144.015 0
11719.706 66.495125 16142.29 256
11815.515 66.494209 16142.068 256
11910.417 66.488251 16140.623 256
12006.436 66.488571 16140.7 256
12102.618 66.489792 16140.996 256
12205.789 66.529083 16150.535 512
12202.178 65.990273 16019.733 512
12285.615 65.926926 16004.355 512
12380.172 65.923767 16003.588 512
12550.619 66.321678 16100.187 512
12713.031 66.67144 16185.093 791053
12796.379 66.604416 16168.822 988177
12883.543 66.558105 16157.58 512
12969.377 66.505661 16144.849 512
13062.093 66.489021 16140.809 0
13158.422 66.490868 16141.258 0
13254.386 66.490868 16141.258 0
13350.35 66.490868 16141.258 256
13447.788 66.498161 16143.028 256
13545.459 66.506485 16145.049 0
13641.128 66.504936 16144.673 256
13737.112 66.504936 16144.673 256
13842.28 66.549088 16155.391 256
13938.329 66.549088 16155.391 256
14034.851 66.551331 16155.936 512
14118.095 66.491013 16141.293 512
14214.06 66.491013 16141.293 1028
14310.003 66.490913 16141.269 1714471
14405.158 66.487183 16140.363 8753554
14500.718 66.485352 16139.919 9148052
14597.369 66.488518 16140.687 8753297
14692.86 66.486389 16140.171 2501934
14789.29 66.488518 16140.687 3949381
14884.128 66.48349 16139.468 7900300
14980.081 66.483498 16139.469 10987436
15077.168 66.488495 16140.682 4475985
0 0 0 0
0 0 0 0
0 0 0 0
0 0 0 0
0 0 0 0
0 0 0 0
0 0 0 0
0 0 0 0
0 0 0 0
0 0 0 0
-10079.337 112.34386 11162.289 1908509
-10012.975 112.34386 11162.289 1645337
-9737.1309 109.97784 10927.205 1118995
-9672.165 109.97784 10927.205 790029
-9636.7471 110.31607 10960.812 1052944
-9571.5811 110.31607 10960.812 855822
-9506.417 110.31607 10960.812 1184787
-10013.101 116.99783 11624.699 1381909
-11992.266 141.0972 14019.171 1447446
-12865.628 152.43234 15145.411 1381653
-13038.991 155.5752 15457.679 1250067
-13160.244 158.13647 15712.163 1118481
-13419.245 162.40146 16135.924 855309
-13323.555 162.4044 16136.217 592137
-13226.771 162.39398 16135.181 657930
-13132.647 162.41629 16137.397 0
-13036.9 162.4187 16137.637 263172
-12940.957 162.4187 16137.637 394758
-11933.406 150.89188 14992.352 657931
-11456.54 145.95232 14501.565 723721
-11522.387 147.90421 14695.503 789514
-11532.287 149.16232 14820.507 789514
-11503.846 149.94006 14897.782 789514
-11537.445 151.54478 15057.225 789514
-11500.581 152.24184 15126.481 657928
-11476.845 153.125 15214.231 657928
-11463.592 154.16319 15317.385 592135
-11386.664 154.35484 15336.427 657928
-11367.449 155.33826 15434.137 526342
-11587.65 159.63596 15861.149 394756
-11493.352 159.63596 15861.149 263170
-11119.902 155.72665 15472.727 0
-11177.078 157.83304 15682.014 0
-11403.15 162.37991 16133.784 0
-11310.684 162.4295 16138.711 1249293
-11214.573 162.42719 16138.48 1117192
-11117.221 162.40666 16136.441 985606
-11021.098 162.4039 16136.167 854530
-9988.7852 148.48451 14753.16 919556
-9090.1963 136.32394 13544.908 657154
-8906.7656 134.76694 13390.207 722947
-8565.75 130.77596 12993.67 460033
-8352.5791 128.68195 12785.611 0
-8053.0928 125.20744 12440.393 65536
-8453.8643 132.65691 13180.558 256
-8487.8818 134.43684 13357.408 0
-8408.4678 134.43684 13357.408 0
-8344.2949 134.68283 13381.85 256
-8264.7354 134.68283 13381.85 0
-8189.7764 134.75851 13389.369 0
-8092.8882 134.47131 13360.834 0
-8013.4551 134.47131 13360.834 256
-7930.9189 134.41873 13355.61 0
-7851.5161 134.41873 13355.61 0
-7970.0312 137.84174 13695.713 0
-7892.502 137.90981 13702.476 0
-7769.9111 137.18369 13630.331 0
-7596.9556 135.54369 13467.383 0
-7431.7422 134.00833 13314.833 256
-7352.5815 134.00833 13314.833 256
-7272.0146 133.98241 13312.258 256
-7192.8691 133.98241 13312.258 256
-7098.8086 133.70149 13284.346 256
-6945.3306 132.28256 13143.363 256
-6798.1982 130.95358 13011.318 256
-6720.0508 130.93816 13009.786 256
-6611.0107 130.31343 12947.714 256
-6565.3574 130.93816 13009.786 256
-6578.27 132.75974 13190.774 256
-6480.8872 132.37248 13152.298 256
-6402.6934 132.37248 13152.298 256
-6355.8315 133.02829 13217.457 256
-6277.251 133.02829 13217.457 256
-6149.9673 131.98309 13113.609 256
-6090.5317 132.38583 13153.625 256
-6049.9341 133.21385 13235.896 256
-6002.6514 133.91457 13305.516 256
-5983.5386 135.2708 13440.271 256
-6064.7622 138.9628 13807.101 256
-5921.4995 137.54184 13665.916 256
-5818.0083 137.01799 13613.867 256
-5692.2119 135.94666 13507.421 256
-5531.0889 133.98886 13312.898 256
-5451.9399 133.98886 13312.898 256
-5182.5981 129.24576 12841.632 256
-4548.188 115.12047 11438.168 256
-4480.1851 115.12047 11438.168 256
-4754.3926 124.04926 12325.316 256
-4688.6562 124.24911 12345.173 256
-4338.4321 116.79649 11604.694 2
-4047.958 110.73756 11002.69 2
-3902.8525 108.5217 10782.525 2
-3616.2354 102.23125 10157.519 2
-3555.8462 102.23125 10157.519 2
-3464.929 101.33842 10068.808 1
-3374.6411 100.4329 9978.8369 0
-3315.3142 100.4329 9978.8369 131584
-3255.9871 100.4329 9978.8369 65536
-3018.4353 94.83342 9422.4824 196864
-2735.9258 87.58297 8702.0898 458752
-2375.2751 77.503342 7700.5967 786688
-2151.7114 71.588463 7112.9043 3876096
0 0 0 0
0 0 0 0
0 0 0 0
0 0 0 0
-1173.8029 43.308781 4303.0845 720896
-1170.4788 44.14835 4386.5024 655360
-1145.9113 44.206657 4392.2959 917504
-1175.7853 46.416889 4611.9009 1114112
-1281.7875 51.809772 5147.728 9126912
-1617.9169 66.99572 6656.5776 9848064
-1683.7731 71.470963 7101.2295 10109696
-1657.6807 72.17308 7170.9912 9845760
-1619.2244 72.359756 7189.5386 9517056
-1611.1156 73.949493 7347.4917 9384448
-1568.4261 73.996353 7352.1484 9056256
-1530.8411 74.29364 7381.6855 8596736
-1486.9548 74.29364 7381.6855 5443840
-1485.6078 76.483681 7599.2847 1507328
-1516.7654 80.537033 8002.0186 786432
-1372.0428 75.211624 7472.8955 458752
-1327.6143 75.211624 7472.8955 393216
-1369.1132 80.2481 7973.3105 327680
-1344.598 81.637772 8111.3862 262144
-1311.1813 82.570282 8204.0381 262144
-1247.1671 81.573555 8105.0054 196608
-1198.9807 81.573555 8105.0054 196608
-1147.6807 81.352852 8083.0767 196608
-1074.4963 79.49382 7898.3662 196608
-1042.3444 80.639244 8012.1743 262144
-994.70966 80.639244 8012.1743 327680
-958.67444 81.626884 8110.3042 458752
-910.45642 81.626884 8110.3042 458752
-897.0564 84.92305 8437.8057 393216
-972.07855 97.476357 9685.0801 327680
-914.49805 97.476357 9685.0801 2959653
-793.54688 90.267792 8968.8496 3091240
-740.22455 90.267792 8968.8496 327680
-638.06097 83.849426 8331.1318 458752
-511.42282 72.863754 7239.6147 524288
-445.07812 69.238586 6879.4248 458752
-399.27356 68.398422 6795.9473 458752
-357.77966 68.190659 6775.3042 458752
-290.07983 62.301804 6190.1978 393216
-215.12051 52.915878 5257.6289 1050368
-186.75816 53.749271 5340.4331 853248
-155.0078 53.749271 5340.4331 919040
-117.51104 51.243416 5091.4561 1050368
-87.240921 51.243416 5091.4561 1313024
-53.449619 48.076233 4776.77 2431488
-24.771673 47.541321 4723.6221 9274164
3.3115745 47.541321 4723.6221 131072
36.092583 54.655159 5430.4409 0
73.352119 58.630966 5825.4697 395272
112.68752 61.183567 6079.0918 0
165.88107 68.193481 6775.5845 196608
210.01508 69.467377 6902.1567 262144
251.05034 69.467377 6902.1567 262144
291.79657 69.398643 6895.3276 0
343.70691 71.67495 7121.4976 131584
389.33374 72.285332 7182.1436 0
434.27911 72.661041 7219.4731 0
480.63135 73.183372 7271.3721 0
542.44781 75.779854 7529.3535 0
592.47168 76.458633 7596.7954 0
639.98871 76.740654 7624.8169 0
691.89984 77.477409 7698.0195 0
740.72034 77.798126 7729.8857 65536
761.92975 75.350792 7486.7227 131072
802.83899 75.01429 7453.2881 327680
847.59485 75.053596 7457.1943 458752
892.49805 75.10141 7461.9443 524288
936.86139 75.10141 7461.9443 720896
967.75311 74.070305 7359.4961 458752
1009.6415 73.933678 7345.9204 393216
1047.8065 73.547028 7307.5039 131072
1091.2517 73.547028 7307.5039 0
1130.2568 73.259254 7278.9106 256
1168.3196 72.933853 7246.5796 256
1228.839 73.983635 7350.8843 256
1310.0472 76.164131 7567.5342 256
1358.4182 76.354111 7586.4106 256
1392.4937 75.754166 7526.8013 256
1436.3105 75.705048 7521.9209 256
1489.1515 76.120163 7563.166 0
1534.2705 76.1278 7563.9248 0
1579.2402 76.1278 7563.9248 256
1624.2097 76.1278 7563.9248 256
1687.7018 76.972565 7647.8594 256
1733.1705 76.972565 7647.8594 256
1785.8217 77.283401 7678.7437 256
1848.4741 78.000763 7750.019 0
1992.91 82.050354 8152.3794 196608
2030.0844 81.596413 8107.2769 196608
0 0 0 0
0 0 0 0
0 0 0 0
0 0 0 0
0 0 0 0
0 0 0 0
3062.3784 105.54625 10486.89 256
3172.4053 107.15675 10646.906 256
3212.5732 106.39071 10570.795 330498
3276.5725 106.42817 10574.517 461826
3456.7981 110.16834 10946.134 1514767
3911.4502 122.35469 12156.947 988169
4190.96 128.71957 12789.351 791044
4743.5801 143.09636 14217.803 264960
4856.9702 143.95175 14302.794 659716
4970.8398 144.79169 14386.247 1317646
4789.8047 137.15845 13627.822 5924177
4032.3074 113.54646 11281.776 2108944
0 0 0 0
0 0 0 0
0 0 0 0
3158.9602 83.404327 8286.9082 1184016
3569.0789 92.785362 9218.9912 460289
3623.8879 92.785362 9218.9912 394752
0 0 0 0
2872.3279 71.383286 7092.5181 5002570
0 0 0 0
3254.1831 78.566399 7806.2197 197120
3671.3704 87.392273 8683.1426 460288
3838.3137 90.099251 8952.1035 329216
4418.2773 102.29468 10163.82 526594
4767.2656 108.8855 10818.672 395264
4929.6895 111.09638 11038.342 256
5022.9102 111.71008 11099.318 329987
6092.9756 133.7513 13289.295 132096
6529.6353 141.50185 14059.376 768
7003.8691 149.86046 14889.872 198403
7230.5166 152.77896 15179.85 1777692
7534.4199 157.23779 15622.871 256
7794.1523 160.67741 15964.626 256
7783.8892 158.53526 15751.785 922643
7877.5376 158.53526 15751.785 2040097
6651.4941 132.2885 13143.953 5331543
6505.6113 127.88466 12706.396 7042675
7721.2295 150.03854 14907.567 7897983
7368.2271 141.55417 14064.574 6384232
6041.3789 114.76116 11402.468 6515814
6155.8105 115.63731 11489.521 4343877
7367.0425 136.87158 13599.32 2237987
6027.0156 110.75978 11004.897 1448215
5955.2275 108.26523 10757.043 263684
6019.1812 108.26523 10757.043 256
6197.9106 110.30796 10960.006 0
6562.8384 115.58759 11484.58 131841
7181.9966 125.19003 12438.661 263427
7428.4849 128.16689 12734.437 256
7471.6333 127.61076 12679.181 66049
6874.5103 116.23954 11549.356 527111
6943.1748 116.23954 11549.356 1053199
6995.1118 115.96223 11521.805 1513750
7063.6118 115.96223 11521.805 329220
7171.1577 116.59708 11584.882 256
8534.5225 137.44417 13656.212 0
7441.3193 118.7094 11794.758 256
8696.5107 137.43799 13655.598 461062
9717.6455 152.15536 15117.89 329476
9996.5928 155.08859 15409.33 131842
10551.771 162.2151 16117.407 0
10647.594 162.2151 16117.407 256
10755.528 162.39796 16135.578 256
10851.488 162.39841 16135.622 256
10947.419 162.39841 16135.622 0
11045.418 162.42882 16138.644 132099
11142.066 162.43903 16139.657 513
11238.511 162.44611 16140.36 1252636
11335.002 162.45375 16141.119 5593945
11430.657 162.44937 16140.684 987151
11526.93 162.45375 16141.119 512
11623.905 162.46788 16142.524 256
11719.394 162.4612 16141.859 256
11814.268 162.44615 16140.364 256
11910.224 162.44611 16140.36 256
12006.377 162.44875 16140.623 256
12103.132 162.45941 16141.683 256
12197.084 162.43257 16139.016 512
12290.506 162.39915 16135.695 512
12285.615 161.07727 16004.355 512
12380.766 161.07727 16004.355 512
12581.661 162.44257 16140.008 512
12692.995 162.63959 16159.585 512
12787.482 162.61942 16157.58 512
12871.455 162.46683 16142.419 256
12965.414 162.44162 16139.915 512
13061.008 162.43713 16139.468 2501415
13158.059 162.45065 16140.812 1645849
13254.386 162.45514 16141.258 987922
13350.35 162.45514 16141.258 2171940
13447.061 162.46416 16142.154 1974303
13543.013 162.46394 16142.134 258
13637.481 162.44608 16140.357 0
13737.074 162.48904 16144.627 256
13842.28 162.59738 16155.391 256
13938.329 162.59738 16155.391 512
14034.851 162.60286 16155.936 66305
14118.355 162.4585 16141.591 1119763
14213.175 162.44539 16140.289 198663
14308.803 162.44165 16139.917 68103
14404.532 162.43907 16139.662 329735
14500.714 162.44162 16139.914 198150
14596.902 162.4442 16140.171 724751
14692.22 162.43713 16139.468 398099
14789.29 162.44939 16140.687 134413
14884.125 162.4371 16139.466 3228483
14980.729 162.44417 16140.167 4081992
15076.688 162.44417 16140.167 4674902
15171.144 162.42809 16138.569 6713717
15266.663 162.42352 16138.116 4017228
0 0 0 0
0 0 0 0
0 0 0 0
0 0 0 0
0 0 0 0
0 0 0 0
0 0 0 0
0 0 0 0
-9707.4893 172.11391 10750.488 7698291
-9643.5742 172.11391 10750.488 7435120
-9737.1309 174.94312 10927.205 7171947
-9672.165 174.94312 10927.205 6842983
