# .PCD v0.7 - Point Cloud Data file format
VERSION 0.7
FIELDS x y z rgb
SIZE 4 4 4 4
TYPE F F F U
COUNT 1 1 1 1
WIDTH 1473
HEIGHT 1
VIEWPOINT 0 0 0 1 0 0 0
POINTS 1473
DATA ascii
-241.5797 826.01245 8323.0664 0
-184.02448 791.30176 7973.3149 65536
-134.23872 777.50433 7834.2891 262913
-86.347618 765.8493 7716.8506 328450
-39.781975 752.85162 7585.8833 262144
5.5791807 789.79486 7958.1304 393216
52.892483 789.79486 7958.1304 393216
99.620522 785.18195 7911.6504 458752
146.46724 784.16345 7901.3872 458752
197.11603 799.05212 8051.4082 458752
247.12505 806.03577 8121.7769 458752
297.56265 811.90588 8180.9263 393216
349.2811 819.13031 8253.7207 393216
401.15491 824.89447 8311.8018 262144
454.48407 832.05872 8383.9893 262144
501.61618 827.58264 8338.8877 393216
547.88733 822.61908 8288.874 393216
607.07147 836.26288 8426.3516 393216
657.25055 836.36725 8427.4033 393216
723.93976 855.97821 8625.0078 458752
785.26807 867.07556 8736.8262 458752
839.80719 869.7644 8763.9199 458752
896.53113 874.26971 8809.3164 458752
958.63312 883.23267 8899.6289 458752
994.44611 868.30365 8749.2012 458752
1048.1578 869.71045 8763.376 590080
1104.9272 873.40076 8800.5605 458752
1205.042 909.47113 9164.0127 196608
1283.7202 926.9422 9340.0547 196608
1364.1926 944.20624 9514.0107 65792
1480.3049 983.78125 9912.7764 256
1541.3254 985.11462 9926.2119 256
1610.9678 991.6571 9992.1348 256
1671.3726 992.25006 9998.1094 256
1730.8141 992.25006 9998.1094 0
1790.3269 992.28955 9998.5078 0
1849.6013 992.19867 9997.5918 0
1884.9048 979.65479 9871.1973 0
1956.527 986.17462 9936.8926 256
2071.97 1013.7526 10214.773 329475
2154.427 1024.0803 10318.838 256
2199.1548 1016.3987 10241.437 256
2249.1877 1011.5168 10192.246 256
2316.6082 1014.5056 10222.36 256
2407.1836 1027.2224 10350.498 256
2492.1736 1036.9812 10448.83 256
2595.7632 1053.8165 10618.465 0
2832.0054 1122.4272 11309.801 256
2886.5046 1117.4948 11260.101 66048
2867.5107 1084.9784 10932.459 256
2886.4612 1067.9421 10760.798 197377
3001.7114 1086.5013 10947.805 256
3044.6921 1078.6692 10868.887 256
2815.1121 976.60712 9840.4883 256
0 0 0 0
0 0 0 0
0 0 0 0
0 0 0 0
0 0 0 0
0 0 0 0
0 0 0 0
0 0 0 0
0 0 0 0
0 0 0 0
0 0 0 0
0 0 0 0
0 0 0 0
5959.7954 1601.5685 16137.724 3093277
6055.7388 1601.5685 16137.724 1054466
6134.8823 1597.1947 16093.653 5133882
6247.0986 1601.4333 16136.363 1712650
6343.0337 1601.4333 16136.363 2436376
4760.6958 1184.0306 11930.53 527360
4192.6201 1027.437 10352.66 132352
4254.1694 1027.437 10352.66 256
4160.5181 990.48846 9980.3594 256
4124.0771 968.00763 9753.8379 256
4330.1309 1002.2795 10099.169 65792
4535.3154 1035.4156 10433.055 65536
4630.9805 1042.9915 10509.391 65536
5146.5391 1143.6754 11523.901 131072
5169.7998 1133.7513 11423.905 196608
5119.7329 1108.2125 11166.57 196608
5669.5464 1211.5146 12207.464 196608
6599.1094 1392.3278 14029.373 131072
7107.0918 1480.7894 14920.73 197120
7331.7388 1508.7635 15202.604 256
7608.9902 1546.7499 15585.361 256
7733.748 1553.1965 15650.318 256
7873.043 1562.3744 15742.797 0
7989.5942 1566.8765 15788.16 256
8130.2817 1575.9525 15879.611 0
8310.1094 1592.3198 16044.532 0
8446.5527 1600.0969 16122.896 256
8542.4082 1600.0969 16122.896 256
8638.2627 1600.0969 16122.896 256
8734.4736 1600.162 16123.553 0
8838.6504 1601.6696 16138.741 256
8934.5996 1601.6696 16138.741 131841
9030.5488 1601.6696 16138.741 256
9127.1738 1601.7878 16139.935 263684
9221.7344 1601.5455 16137.493 263428
9313.6807 1600.8588 16130.572 256
9408.0117 1600.5917 16127.882 66049
9503.7285 1600.5635 16127.598 132097
9599.2461 1600.5023 16126.981 256
9689.9697 1599.6515 16118.407 256
9786.9521 1599.8401 16120.308 256
9882.1113 1599.7296 16119.196 256
9977.375 1599.6384 16118.277 256
9975.7021 1584.1553 15962.266 256
10135.858 1594.4204 16065.698 197635
10239.634 1595.7076 16078.669 592392
10334.4 1595.5802 16077.385 131585
10427.407 1595.186 16073.412 256
10522.969 1595.186 16073.412 197634
10616 1594.8059 16069.583 263939
10742.544 1599.4222 16116.098 526855
10839.224 1599.55 16117.385 790026
10937.636 1599.9286 16121.201 592390
11037.803 1600.5555 16127.517 256
11134.179 1600.6265 16128.232 256
11225.35 1599.9541 16121.458 256
11255.474 1590.6661 16027.87 256
11350.764 1590.6661 16027.87 256
11511.461 1599.7559 16119.459 512
11621.841 1601.7604 16139.657 256
11718.251 1601.8228 16140.286 256
11813.844 1601.7732 16139.786 1024
11909.799 1601.7732 16139.786 198914
12006.118 1601.8217 16140.274 988426
12102.29 1601.8499 16140.56 1515798
12198.44 1601.8748 16140.811 924173
12294.743 1601.9192 16141.258 3293752
12391.053 1601.9637 16141.708 2699310
12488.409 1602.1422 16143.505 7174264
12582.982 1601.9634 16141.703 6647153
12678.601 1601.9192 16141.258 7107705
12773.858 1601.8308 16140.367 5463393
12869.813 1601.8302 16140.361 8884627
12965.772 1601.8302 16140.361 6120037
13063.991 1602.1074 16143.154 2830388
13160.253 1602.1422 16143.505 1053975
13254.386 1601.9192 16141.258 1030
13350.35 1601.9192 16141.258 2314
13446.314 1601.9192 16141.259 1120798
13542.278 1601.9192 16141.259 2765625
13638.15 1601.9084 16141.149 2371643
13734.424 1601.9447 16141.514 5266536
13830.042 1601.9042 16141.106 2173236
13926.521 1601.9634 16141.704 4278860
14022.467 1601.9612 16141.681 67595
14118.433 1601.9611 16141.679 265230
14214.398 1601.9611 16141.679 330508
14308.805 1601.7861 16139.918 1032
14404.762 1601.7861 16139.918 988183
14500.717 1601.7861 16139.918 9346987
14598.475 1601.9839 16141.91 7767444
14694.665 1602.0082 16142.154 7700625
14791.05 1602.053 16142.606 5726322
14886.605 1602.0082 16142.154 1447973
0 0 0 0
0 0 0 0
0 0 0 0
0 0 0 0
0 0 0 0
0 0 0 0
0 0 0 0
0 0 0 0
0 0 0 0
0 0 0 0
0 0 0 0
0 0 0 0
0 0 0 0
-6283.1152 736.77637 7004.3071 1585934
-6241.4727 736.77637 7004.3071 1520139
-5610.0938 666.69318 6338.0479 1388296
-5483.457 656.05042 6236.8701 1717518
-5636.8853 678.99829 6455.0288 1520138
-5598.5083 678.99829 6455.0288 1257222
-5451.9839 665.79144 6329.4756 1257478
-5418.6572 666.32068 6334.5068 1323271
-5380.9971 666.32068 6334.5068 1323015
-4655.8843 580.59454 5519.5342 1323015
-4742.71 595.61975 5662.3745 1191429
-4709.0454 595.61975 5662.3745 1520394
-4675.3809 595.61975 5662.3745 1191429
-4664.1387 598.49695 5689.7271 1323015
-4630.3115 598.49695 5689.7271 1323015
-4596.4844 598.49695 5689.7271 1322759
-4541.2749 595.69214 5663.0625 796160
-4507.6064 595.69214 5663.0625 928001
-4890.0635 651.09802 6189.7896 1388551
-4904.4087 657.95953 6255.0195 1388551
-4816.4634 651.09802 6189.7896 1257221
-4758.9395 648.27502 6162.9517 1322757
-4722.2988 648.27502 6162.9517 1388805
-4802.5088 664.44159 6316.6426 1454854
-4775.9355 665.97278 6331.1987 1586438
-4738.2944 665.97278 6331.1987 1652229
-4766.2363 675.26422 6419.5303 1652229
-4422.291 631.59283 6004.3594 1191936
-4386.5938 631.59283 6004.3594 1191680
-4244.3911 616.13214 5857.3794 1191936
-4117.0713 602.59393 5728.6758 1520899
0 0 0 0
-3843.3293 571.99139 5437.7471 1586692
-4505.3218 676.20184 6428.4438 1389314
-4523.9053 684.80023 6510.186 1652484
-4511.1826 688.76715 6547.8979 1652740
-3835.7646 590.74219 5616.0049 1718534
-3898.7527 605.71539 5758.3506 2573840
-3979.9592 623.80939 5930.3647 1981448
-3953.332 625.17419 5943.3398 1784323
-3917.9971 625.17419 5943.3398 1586689
-4187.5874 674.27234 6410.1001 1455360
-4250.2817 690.65259 6565.8223 1652481
-4214.4712 691.18146 6570.8506 1586688
-3965.0452 656.35913 6239.8052 1784069
-3758.8743 628.10706 5971.2212 1718532
-3659.9866 617.41406 5869.5664 1389312
-4130.7891 703.54303 6688.3682 1586946
-4235.0371 728.3092 6923.812 1849862
-3691.7622 641.11249 6094.8599 1520897
-3878.0637 680.14142 6465.896 1455104
-3839.6221 680.14142 6465.896 1520896
-3801.1807 680.14142 6465.896 1850627
-3853.9409 696.62677 6622.6172 1719299
-3918.7075 715.64514 6803.4189 1521664
-3843.4888 709.22894 6742.4224 1784834
-3803.4031 709.22894 6742.4224 1719042
-3725.0889 702.02448 6673.9316 1785089
-3685.4104 702.02448 6673.9316 1850628
-3664.2522 705.5907 6707.8345 1521664
-3590.0593 698.91064 6644.3296 1652736
-3413.9231 672.01489 6388.6396 1849860
-3265.5117 650.0329 6179.6636 1652738
-3341.9138 672.81122 6396.21 1652738
-3309.6914 673.99335 6407.4482 1455104
-3370.7502 694.42017 6601.6396 1652739
-3233.2078 673.9317 6406.8623 1586690
-3195.1169 673.9317 6406.8623 1455360
-2911.3328 621.48334 5908.252 1257984
-2876.2065 621.48334 5908.252 1455104
-2942.6497 643.70154 6119.4736 1586690
-2809.7227 622.31805 5916.187 1586688
-2765.8235 620.36084 5897.5806 1454848
-2787.5464 633.26117 6020.2202 1323520
-2751.7546 633.26117 6020.2202 1389568
-2767.7849 645.34424 6135.0898 1389568
-2731.3101 645.34424 6135.0898 1126400
-2720.9712 651.60315 6194.5913 1192192
-2637.251 640.21967 6086.3721 1323264
-2560.3179 630.19012 5991.0244 1389056
-2524.6997 630.19012 5991.0244 1389312
-2489.0815 630.19012 5991.0244 1191936
-2454.6055 630.48358 5993.814 1389056
-2428.0881 632.85999 6016.4058 1585920
-2373.144 627.78748 5968.1831 1388800
-2286.5771 614.06854 5837.7617 1388544
-2220.9849 605.64636 5757.6948 1585920
-2167.5642 600.3316 5707.1689 1585922
-2110.5566 593.83862 5645.4419 1125376
-2076.9929 593.83862 5645.4419 927488
-1976.2786 574.32404 5459.9224 926976
-1883.5299 556.51129 5290.582 925952
0 0 0 0
-1535.2552 469.28293 4461.3291 1120768
-1454.7439 452.49039 4301.6875 256
-1428.0752 452.14404 4298.395 262400
-1402.52 452.14404 4298.395 393216
-1410.4728 463.14679 4402.9946 393216
-1382.6777 462.60544 4397.8481 196608
-1563.1371 533.06232 5067.6602 922112
-1674.6852 582.3266 5536.0005 988928
-1697.9159 602.24048 5725.3159 662272
-1857.6904 672.39111 6392.2163 596992
-1837.3073 678.90204 6454.1133 399872
-1786.8634 674.34607 6410.8013 334080
-1659.8567 640.06757 6084.9263 399872
-1611.5513 635.28632 6039.4722 400128
-1542.9962 622.12256 5914.3286 598016
-1622.6141 669.48016 6364.543 664064
-1621.0452 684.80231 6510.2056 664576
-1634.8953 707.54694 6726.4316 599296
-1649.6829 731.84808 6957.4556 862464
-1612.3429 733.67932 6974.8643 1059328
-1577.6924 736.86316 7005.1323 862720
-1591.9443 763.67883 7260.061 1125376
-1561.8174 770.10681 7321.1694 994304
-1505.6182 763.67883 7260.061 994048
-1477.9714 771.78143 7337.0894 1125120
-1464.1787 787.83112 7489.6689 1189888
-1429.9884 793.56805 7544.2085 133888
-1441.4446 825.82825 7850.896 1024
-1401.0732 829.56091 7886.3818 66048
-1348.093 825.82825 7850.896 329216
-1290.073 818.62952 7782.4604 132608
-1272.9268 837.79712 7964.6802 1319174
-1244.4949 850.73096 8087.6382 991747
-1158.9504 824.09351 7834.4043 860416
-1174.4111 870.05426 8271.3389 400128
-1134.7689 877.42548 8341.415 531712
-1069.4198 864.685 8220.2949 335360
-998.2157 845.76349 8040.4146 597504
-951.68585 846.89606 8051.1816 597504
-915.01807 857.38947 8150.9395 465920
-882.60101 873.26227 8301.8369 531968
-821.36298 860.81036 8183.4604 596993
-750.69647 836.28693 7950.3237 792833
-686.40833 816.05078 7757.9448 1054722
-632.66888 806.34381 7665.6631 790274
-613.31842 842.36115 8008.0693 263168
-567.91779 845.65131 8039.3477 263424
-518.09802 842.36115 8008.0693 1315847
-499.66199 894.5946 8504.6367 197376
-406.7446 810.22455 7702.5566 512
-434.23148 974.71753 9266.3408 1317895
-379.1405 974.71753 9266.3408 1188099
-291.89792 878.00781 8346.9512 1450760
-241.5797 875.49536 8323.0664 512
-186.42477 849.64484 8077.3135 768
-138.78926 852.01672 8099.8623 1776660
-94.169121 885.25568 8415.8545 394754
-39.886551 800.04944 7605.8242 196608
5.5911312 838.90118 7975.1763 393216
52.832157 836.15344 7949.0542 524288
98.860504 825.86975 7851.291 393216
145.94116 828.15411 7873.0073 918786
197.76607 849.71283 8077.9595 393216
248.92479 860.54382 8180.9263 393216
305.89566 884.64264 8410.0264 327680
355.89563 884.64264 8410.0264 327680
408.40378 890.10925 8461.9961 196608
468.12619 908.37573 8635.6494 262144
517.78101 905.42651 8607.6123 262144
564.29663 898.01208 8537.126 262144
616.65924 900.35852 8559.4326 393216
672.66168 907.25635 8625.0078 393216
730.05804 914.92389 8697.9014 458752
788.62268 922.94434 8774.1494 393216
846.70294 929.43799 8835.8818 2432535
867.31671 896.44781 8522.2549 327680
942.42963 920.32007 8749.2012 524800
979.94489 906.8999 8621.6191 458752
1046.4625 920.32007 8749.2012 458752
1082.4607 906.8999 8621.6191 458752
1199.0219 959.138 9118.2314 196608
1253.7797 959.55707 9122.2148 196608
1384.691 1015.8073 9656.9688 65792
1451.2695 1022.2632 9718.3428 256
1535.7059 1040.322 9890.0225 256
1602.7042 1045.6715 9940.8789 65792
1670.3558 1051.0519 9992.0273 256
1733.3054 1053.2054 10012.501 0
1808.2299 1062.2505 10098.49 256
1852.3597 1053.2054 10012.501 0
1897.4493 1045.2522 9936.8926 0
1971.978 1053.5067 10015.366 256
2105.1812 1091.7048 10378.503 0
2166.884 1091.7048 10378.503 256
2189.7957 1072.7021 10197.852 256
2252.2725 1073.583 10206.225 256
2316.6082 1075.2803 10222.36 256
2398.7964 1084.9657 10314.436 66048
2468.72 1088.759 10350.498 256
2554.2947 1099.1024 10448.83 256
2832.0054 1189.6671 11309.801 256
2899.2454 1189.6671 11309.801 256
2822.4854 1131.918 10760.798 197635
2932.5073 1149.975 10932.459 460806
3254.6853 1248.6411 11870.448 526599
3174.1526 1191.9006 11331.033 3487798
2692.5676 990.05225 9412.123 0
0 0 0 0
0 0 0 0
0 0 0 0
0 0 0 0
0 0 0 0
0 0 0 0
0 0 0 0
0 0 0 0
0 0 0 0
0 0 0 0
0 0 0 0
0 0 0 0
0 0 0 0
0 0 0 0
0 0 0 0
0 0 0 0
0 0 0 0
5597.5537 1497.8813 14239.899 857346
4512.7725 1189.6063 11309.223 66048
4239.0649 1101.0498 10467.344 512
4320.4414 1105.9507 10513.935 256
4382.9497 1105.9507 10513.935 256
4445.458 1105.9507 10513.935 65536
4545.2959 1115.1089 10600.998 0
4771.9399 1154.7008 10977.387 65536
4874.4214 1163.5852 11061.848 131072
5257.9336 1238.4254 11773.331 196608
5327.9297 1238.4254 11773.331 196608
5237.7178 1201.6697 11423.905 196608
5867.1509 1328.8468 12632.939 393984
6599.1094 1475.7363 14029.373 328192
6882.105 1519.8123 14448.39 65536
7291.3481 1590.3376 15118.853 0
7561.9951 1629.2838 15489.103 256
7733.748 1646.2419 15650.318 256
7849.606 1651.0402 15695.933 256
7955.4253 1653.6388 15720.639 197632
8083.459 1660.7415 15788.16 131584
8355.1338 1696.853 16131.462 328963
8454.6846 1697.5848 16138.419 197377
8546.9463 1696.853 16131.462 0
8644.0879 1697.0955 16133.768 0
8742.3213 1697.5449 16138.04 789769
8839.0352 1697.6926 16139.443 66304
8934.5996 1697.6187 16138.741 197889
9024.0098 1696.3893 16127.054 658439
9121.585 1696.7048 16130.052 263683
9217.4824 1696.7048 16130.052 263683
9311.9629 1696.4465 16127.598 256
9408.3066 1696.5298 16128.388 256
9504.1943 1696.5298 16128.388 256
9599.7812 1696.4764 16127.882 256
9692.4395 1695.9119 16122.515 131841
9786.9521 1695.6798 16120.308 66049
9882.6768 1695.66 16120.12 256
9977.7109 1695.5233 16118.82 256
10072.46 1695.3411 16117.089 256
10145.08 1691.4729 16080.315 256
10238.815 1691.1647 16077.385 131841
10308.604 1686.9432 16037.252 658441
10406.562 1687.3668 16041.279 461318
10522.969 1690.7468 16073.412 526851
10618.529 1690.7468 16073.412 66304
10742.544 1695.2368 16116.098 263681
10841.645 1695.751 16120.984 66304
10937.689 1695.7821 16121.281 855817
11039.813 1696.7469 16130.454 197634
11142.071 1697.7158 16139.664 329729
11237.848 1697.689 16139.408 0
11333.6 1697.6588 16139.122 256
11429.456 1697.6447 16138.987 256
11525.503 1697.6588 16139.122 131840
11621.483 1697.6628 16139.161 256
11718.251 1697.7812 16140.286 256
11814.21 1697.7812 16140.286 256
11910.227 1697.7894 16140.364 1280
12006.118 1697.7799 16140.274 2561
12102.145 1697.7896 16140.365 2048
12196.407 1697.5535 16138.12 859413
12294.402 1697.8364 16140.811 11453120
12390.707 1697.8834 16141.258 9543322
12487.714 1698.0254 16142.606 10201256
12581.939 1697.7894 16140.364 3817279
12677.897 1697.7894 16140.364 5858403
12022.648 1597.9456 15191.178 1317914
12112.964 1597.9456 15191.178 7372153
12965.053 1697.6948 16139.465 10792876
13063.183 1697.9778 16142.154 4145475
13160.185 1698.111 16143.421 1184789
13254.021 1697.8368 16140.814 395276
13349.982 1697.8368 16140.814 1028
13447.063 1697.978 16142.157 397073
13542.188 1697.8721 16141.149 1844519
13638.15 1697.8721 16141.149 2107950
13734.586 1697.9304 16141.704 462096
13830.558 1697.931 16141.709 2700602
13926.905 1697.9773 16142.149 4871770
14022.874 1697.9773 16142.149 2765882
14118.596 1697.9474 16141.865 1713451
14214.563 1697.9474 16141.865 198668
14310.365 1697.9279 16141.679 2059
14405.56 1697.8368 16140.813 258
14501.912 1697.8824 16141.248 1187881
14598.309 1697.9326 16141.726 5859701
14694.275 1697.9326 16141.726 3555402
14789.831 1697.8855 16141.276 3291713
0 0 0 0
0 0 0 0
0 0 0 0
0 0 0 0
0 0 0 0
0 0 0 0
0 0 0 0
0 0 0 0
0 0 0 0
0 0 0 0
0 0 0 0
0 0 0 0
0 0 0 0
0 0 0 0
0 0 0 0
-5450.54 679.776 6116.7065 1454598
-5414.1748 679.776 6116.7065 1257219
0 0 0 0
0 0 0 0
0 0 0 0
-4612.1499 595.06549 5354.4707 1256962
-4580.3159 595.06549 5354.4707 796672
-4365.6006 571.13953 5139.1821 730624
-4335.0464 571.13953 5139.1821 665088
-4623.0688 613.40967 5519.5342 730624
-4507.7866 602.38928 5420.3716 730624
-4158.2954 559.68689 5036.1299 796416
-4390.2769 595.19604 5355.646 1059584
-4536.6284 619.5304 5574.6094 1125376
-4574.9434 629.3606 5663.0625 928000
-4522.3281 626.7348 5639.4351 862208
-4281.373 597.77344 5378.8374 994048
-4620.3877 649.9621 5848.437 994560
-4639.7393 657.63336 5917.4639 928512
-4545.0244 649.13049 5840.9546 1849867
-4510.2979 649.13049 5840.9546 1191682
-4466.8555 647.86633 5829.5791 1323267
-4476.8643 654.39545 5888.3291 1323265
-4441.8569 654.39545 5888.3291 1323265
-4329.4351 642.89984 5784.8901 1323520
-4310.022 645.14215 5805.0664 1257728
-4275.5093 645.14215 5805.0664 1192192
-4121.2607 626.9278 5641.1719 1126144
-3987.4287 611.54596 5502.7642 1257984
-4015.8225 620.99573 5587.7944 1520899
-3875.6582 604.32031 5437.7471 1323521
-3843.3293 604.32031 5437.7471 1257985
-4145.1177 657.30219 5914.4839 1257728
-4109.9541 657.30219 5914.4839 1323521
0 0 0 0
-3434.335 558.81281 5028.2651 1455106
-3626.3936 595.24469 5356.0835 1257728
-3979.9592 659.06708 5930.3647 1192192
-3885.1213 649.11261 5840.7935 1257728
-3842.4333 647.7702 5828.7144 1389312
-3787.4822 644.3172 5797.644 1389312
-3753.0139 644.3172 5797.644 1323520
-3829.8755 663.6076 5971.2212 1455104
-3729.7788 652.31024 5869.5664 1389312
-3600.9238 635.72235 5720.3062 1323520
-3566.915 635.72235 5720.3062 1192192
-3532.9062 635.72235 5720.3062 1257728
-3453.5378 627.4809 5646.1484 1454848
-3522.0996 646.21918 5814.7578 1125888
-3549.3115 657.66711 5917.7676 1126144
-3514.1289 657.66711 5917.7676 1191936
-3451.8516 652.54504 5871.6792 1191936
-3352.5046 640.23914 5760.9487 1389568
-3318.2542 640.23914 5760.9487 1652993
-3125.0825 609.25635 5482.1616 1192192
-3252.699 640.81946 5766.1704 1192192
-3219.4905 641.03314 5768.0933 1389568
-3246.7656 653.42389 5879.5869 1652736
-3204.3701 651.91034 5865.9678 1389568
-3137.5706 645.34393 5806.8823 1257728
-3026.6548 629.4566 5663.9263 1257728
-3002.9717 631.55768 5682.832 1389312
-2969.1855 631.55768 5682.832 1323776
-3006.2715 646.80591 5820.0376 1323520
-2971.6697 646.80591 5820.0376 1389312
-2937.0681 646.80591 5820.0376 1192192
-2814.9285 627.29846 5644.5068 1060352
-2765.4961 623.7182 5612.2915 1126144
-2663.1853 607.97894 5470.6675 1389312
-2672.8625 617.7323 5558.4297 1455104
-2603.2358 609.1723 5481.4058 1060352
-2556.1848 605.74512 5450.5674 1192192
-2592.5193 622.24359 5599.0229 1455360
-2559.2314 622.24359 5599.0229 1521408
-2591.282 638.33917 5743.8525 1192192
-2557.1333 638.33917 5743.8525 1126400
-2522.9846 638.33917 5743.8525 1455616
-2359.5112 605.16986 5445.3911 1521152
-2327.1367 605.16986 5445.3911 1455360
-2278.4148 600.85864 5406.5986 1652992
-2265.0127 605.87195 5451.7085 1652736
-2234.1838 606.30151 5455.5742 1586688
-2201.749 606.30151 5455.5742 1521152
-2146.5305 599.93378 5398.2764 1586944
-2185.9612 620.22772 5580.8838 1586944
-2086.6538 601.17603 5409.4546 1455104
-2054.7471 601.25037 5410.123 1455360
-2022.5824 601.25037 5410.123 1257984
-1973.8536 596.24677 5365.1001 1455360
-1851.1267 568.35895 5114.1621 1257216
0 0 0 0
0 0 0 0
-1497.9817 483.76938 4353.0151 768
-1463.7681 481.03076 4328.3726 65792
-1429.1691 478.06512 4301.6875 131328
-1412.3014 481.03076 4328.3726 512
-1397.1207 484.69174 4361.3145 768
-1383.3544 488.99106 4400.0005 725506
-1499.6226 540.30701 4861.7476 1385475
-1533.0084 563.19098 5067.6602 1255425
-1665.4896 624.12756 5615.9751 992512
-1663.8773 636.27911 5725.3159 1058048
-1669.3184 651.69171 5864.0005 926720
-1683.3641 671.19269 6039.4722 860672
-1597.8901 650.99829 5857.7607 729344
-1561.5981 650.3877 5852.2666 729088
-1481.4015 631.04688 5678.2354 794880
-1481.3405 645.73608 5810.4111 597504
-1462.4847 652.73834 5873.418 795136
-1498.4978 685.17126 6165.2534 860928
-1461.8436 685.17126 6165.2534 598272
-1418.3342 681.87555 6135.5981 598016
-1457.4185 719.16156 6471.1021 466432
-1450.6945 735.25256 6615.8911 532480
-1411.3611 735.25256 6615.8911 598016
-1374.6357 736.65015 6628.4668 598016
-1374.2075 758.15546 6821.9741 532224
-1474.8408 838.42053 7544.2085 334080
-1438.2623 843.27161 7587.8594 201728
-1393.1504 843.27161 7587.8594 266496
-1348.0385 843.27161 7587.8594 594944
-1325.981 858.19269 7722.1211 528640
-1273.2552 853.62335 7681.0059 331776
-1227.5895 853.62335 7681.0059 3328
-1191.8263 860.77533 7745.3599 69632
-1135.5879 853.11993 7676.4756 333824
-1089.9491 853.11993 7676.4756 465664
-1125.2357 919.22968 8271.3389 399872
-1031.4167 881.09259 7928.1772 531712
-984.28143 881.09259 7928.1772 663296
-937.14624 881.09259 7928.1772 729344
-895.38177 886.40948 7976.0195 663296
-845.23029 883.55383 7950.3237 465664
-797.96338 883.55383 7950.3237 596224
-733.59052 863.42041 7769.1611 792832
-652.98346 820.19019 7380.1694 1120770
-599.76538 807.61218 7266.9917 790273
-595.40283 863.97455 7774.1465 263680
-565.70825 889.97137 8008.0693 921092
-520.12164 893.44739 8039.3477 2302997
-499.66199 945.15704 8504.6367 2698009
-406.7446 856.01837 7702.5566 1185031
-398.37885 944.78162 8501.2588 2304273
-347.83649 944.78162 8501.2588 659971
-287.60626 913.9942 8224.2295 528384
-241.5797 924.97827 8323.0664 1024
-186.94521 900.17273 8099.8623 512
-143.8902 933.25671 8397.5566 1053191
-94.169121 935.29028 8415.8545 65792
-43.952686 931.43683 8381.1807 196608
5.7816978 916.52478 8247 196608
52.065014 870.58521 7833.6309 657155
97.399094 859.64941 7735.229 196864
145.53862 872.54791 7851.291 1183240
192.74838 874.9613 7873.0073 196608
257.71979 941.30475 8469.9736 65792
308.07611 941.30475 8469.9736 1185798
350.72394 921.06079 8287.8164 989700
399.99731 921.06079 8287.8164 595712
466.60638 956.60114 8607.6123 856835
517.78101 956.60114 8607.6123 461057
568.95569 956.60114 8607.6123 262656
616.65924 951.24677 8559.4326 131072
672.66168 958.53436 8625.0078 327680
731.37506 968.37921 8713.5928 393216
793.32568 980.92432 8826.4746 393216
845.80151 980.92432 8826.4746 459522
815.44055 890.46594 8012.52 393216
931.13568 960.68414 8644.3516 656385
979.94489 958.15778 8621.6191 393216
1031.2029 958.15778 8621.6191 393216
1079.9982 955.97797 8602.0049 393216
1143.5006 966.42499 8696.0078 196608
1177.4626 952.08209 8566.9492 196608
1364.3187 1057.4309 9514.8906 65536
1444.3824 1074.916 9672.2236 256
1503.4408 1076.0284 9682.2334 256
1610.9027 1110.4242 9991.7314 256
1675.5765 1113.928 10023.258 256
1747.8104 1122.0442 10096.289 256
1810.7332 1123.8425 10112.471 197377
1869.5449 1123.0558 10105.392 256
1912.4338 1113.0509 10015.366 256
1971.978 1113.0509 10015.366 256
2049.3489 1122.8179 10103.251 512
2138.2666 1138.1752 10241.437 66304
2189.7957 1133.3313 10197.852 512
2253.1423 1134.6998 10210.166 66305
2346.1787 1150.5564 10352.845 66048
2407.1836 1150.2957 10350.498 512
2453.2708 1143.097 10285.725 512
2530.2319 1150.2844 10350.397 461315
2861.4636 1269.9813 11427.444 256
2757.3977 1195.412 10756.461 66305
2822.4854 1195.8939 10760.798 4408899
3340.8184 1384.1393 12454.652 4739407
3463.9272 1404.0258 12633.593 3092527
3342.2664 1325.9617 11931.163 921620
0 0 0 0
0 0 0 0
0 0 0 0
0 0 0 0
0 0 0 0
0 0 0 0
0 0 0 0
0 0 0 0
0 0 0 0
0 0 0 0
0 0 0 0
0 0 0 0
0 0 0 0
0 0 0 0
0 0 0 0
0 0 0 0
0 0 0 0
0 0 0 0
4445.5356 1256.8428 11309.223 1515271
4621.3135 1287.0723 11581.231 658945
4690.167 1287.0723 11581.231 768
4689.5503 1268.2842 11412.174 592645
4441.8789 1184.1691 10655.296 0
4493.0889 1180.9785 10626.587 0
4706.2568 1219.8556 10976.408 131072
4807.335 1229.0133 11058.81 131072
4874.4214 1229.351 11061.848 131072
5146.5391 1280.7009 11523.901 196864
5053.3447 1240.9893 11166.57 196608
5792.0449 1403.9531 12632.939 131072
5878.356 1406.6344 12657.065 131072
6237.167 1473.6301 13259.901 328192
6817.2646 1590.5836 14312.263 327936
7207.5049 1660.9025 14945.001 197120
7640.5186 1739.2456 15649.941 65536
7736.207 1739.8406 15655.295 256
7851.6772 1744.8171 15700.074 0
7949.8369 1745.8752 15709.596 0
8060.2329 1749.5649 15742.797 0
8350.9668 1791.8651 16123.417 0
8454.6846 1793.5322 16138.419 1710616
8542.7559 1791.8801 16123.553 0
8640.3232 1792.2346 16126.743 0
8740.0068 1793.0153 16133.768 197122
8839.0322 1793.6455 16139.438 0
8928.1299 1792.2692 16127.054 66304
9023.292 1792.1267 16125.771 256
9120.9736 1792.4823 16128.972 256
9217.4824 1792.6023 16130.052 131842
9316.8135 1793.2632 16135.998 0
9412.7471 1793.2632 16135.998 66048
9507.8477 1793.1063 16134.587 256
9599.8379 1792.3717 16127.977 256
9692.4395 1791.7648 16122.515 256
9787.6104 1791.6399 16121.392 526600
9883.916 1791.7231 16122.141 0
9979.3027 1791.6399 16121.392 256
10074.318 1791.4922 16120.062 256
10168.281 1791.1617 16117.089 256
10213.258 1782.2891 16037.252 256
10288.766 1778.8594 16006.391 256
10403.949 1782.2891 16037.252 256
10518.76 1785.5934 16066.983 256
10614.282 1785.5934 16066.983 256
10704.833 1784.7642 16059.523 132096
10811.926 1786.6836 16076.794 512
10935.846 1791.3256 16118.562 65792
11046.03 1793.6566 16139.538 856329
11142.197 1793.691 16139.848 1514002
11238.203 1793.6989 16139.918 1316364
11334.011 1793.6754 16139.707 987658
11429.579 1793.6146 16139.161 724231
11525.896 1793.6715 16139.672 132609
11621.851 1793.6715 16139.672 256
11717.889 1793.6842 16139.786 132355
11813.844 1793.6842 16139.786 512
11910.16 1793.7384 16140.274 512
12005.184 1793.5989 16139.019 1580057
12100.798 1793.549 16138.569 988689
12196.407 1793.4991 16138.12 133127
12295.77 1793.9976 16142.606 8031107
12391.742 1793.9976 16142.606 6516840
12488.995 1794.1815 16144.261 10793131
12581.789 1793.7271 16140.172 5068113
12677.747 1793.7271 16140.172 4014912
12022.648 1688.2612 15191.178 1514522
9316.6729 1298.5242 11684.277 3490879
0 0 0 0
0 0 0 0
0 0 0 0
0 0 0 0
13349.609 1793.7483 16140.363 922130
13445.944 1793.7985 16140.814 330509
13541.825 1793.7876 16140.717 792342
13638.15 1793.8358 16141.149 726292
13734.59 1793.8978 16141.709 4610648
13830.558 1793.8978 16141.709 6647156
13926.14 1793.8484 16141.264 1910318
14022.467 1793.8947 16141.681 3028800
14118.596 1793.9153 16141.865 3094849
14215.097 1793.9827 16142.472 4345429
14310.53 1793.9153 16141.865 3
14404.762 1793.6989 16139.918 5862003
14501.611 1793.8093 16140.913 8886430
14598.978 1793.9818 16142.465 6319734
14694.275 1793.8997 16141.726 5398375
14789.401 1793.7979 16140.809 4345689
0 0 0 0
0 0 0 0
0 0 0 0
0 0 0 0
0 0 0 0
0 0 0 0
0 0 0 0
0 0 0 0
0 0 0 0
0 0 0 0
0 0 0 0
0 0 0 0
0 0 0 0
0 0 0 0
0 0 0 0
0 0 0 0
-4564.2368 603.71893 5156.4824 1125377
-4533.5801 603.71893 5156.4824 1125376
-4574.4868 613.3136 5238.4326 1059584
-4543.3428 613.3136 5238.4326 1059584
-4405.3145 598.78546 5114.3452 1059584
-4241.7642 580.56232 4958.6978 928256
-4365.6006 601.69336 5139.1821 993792
-4422.1157 613.77844 5242.4028 994048
-4540.0122 634.61493 5420.3716 994048
-4225.9561 594.93829 5081.4854 1191170
-4187.5288 593.77325 5071.5347 1191170
-4234.3008 604.75983 5165.373 993792
-4536.6284 652.67303 5574.6094 994048
-4555.856 660.26276 5639.4351 1125633
-4313.3516 629.75214 5378.8374 1191683
-4157.6924 611.55981 5223.4531 1191682
-3939.3923 583.81042 4986.4404 1191937
-4116.8486 614.73529 5250.5757 994304
-3921.575 590.05078 5039.7402 1125888
-3996.5327 605.95886 5175.6147 1454340
-3965.7622 605.95886 5175.6147 1257730
-4155.8149 639.96399 5466.0591 994560
-4198.8486 651.68689 5566.1865 994304
-4090.8203 639.96399 5466.0591 1389313
-4132.6636 651.68689 5566.1865 1257728
-4154.7988 660.46613 5641.1719 1257728
-3981.2578 638.0296 5449.5366 1191936
-3874.0864 625.94836 5346.3486 1323520
-3814.1287 621.35883 5307.1484 1455105
-3782.5764 621.35883 5307.1484 1323776
-3758.9397 622.6701 5318.3481 1257728
0 0 0 0
0 0 0 0
0 0 0 0
0 0 0 0
0 0 0 0
-3583.7224 625.19916 5339.9497 1192192
-3551.9749 625.19916 5339.9497 1060864
-3067.2151 544.74335 4652.7603 1126400
-3025.0767 542.14886 4630.6006 929024
-3011.8911 544.74335 4652.7603 995072
-3386.7642 618.22235 5280.3594 1192192
-3461.1887 637.71906 5446.8848 994816
-3428.8054 637.71906 5446.8848 929024
-3408.0242 639.89746 5465.4907 1060352
-3289.4597 623.58118 5326.1299 1060608
-3404.4009 651.64337 5565.8149 1126144
-3392.2224 655.68542 5600.3389 929024
-3208.936 626.40625 5350.2593 994816
-3169.2893 624.8609 5337.0601 1060352
-3145.3184 626.40625 5350.2593 1126400
-2857.1992 574.83923 4909.8154 1126400
-2888.375 587.10956 5014.6187 929024
-2858.5615 587.10956 5014.6187 1126144
-3033.2117 629.54614 5377.0781 1060864
-3059.8965 641.8493 5482.1616 994816
-3060.9131 648.97522 5543.0254 1060608
-3075.3062 659.12317 5629.7012 1060352
-3042.7551 659.32233 5631.4023 1060608
-3008.3657 659.12317 5629.7012 1060352
-2968.9377 657.8031 5618.4263 994560
-2837.9319 635.93195 5431.6206 862976
-2805.6392 635.93195 5431.6206 600064
-2583.0994 592.30798 5059.0195 665856
-2712.3813 629.27972 5374.8027 731392
-2680.4265 629.27972 5374.8027 797184
-2634.7649 626.02295 5346.9858 862976
-2602.9756 626.02295 5346.9858 994560
-2571.1863 626.02295 5346.9858 928768
-2520.7585 621.42816 5307.7407 994816
-2489.2026 621.42816 5307.7407 994816
-2468.8008 624.24854 5331.8301 1126144
-2437.1016 624.24854 5331.8301 1060352
-2405.4021 624.24854 5331.8301 994816
-2327.2488 612.03174 5227.4839 862976
-2273.6326 606.02454 5176.1753 731392
-2074.1245 560.43219 4786.7622 796928
-2036.4684 557.91248 4765.2407 599552
-2243.0566 623.17908 5322.6953 862976
-2211.4119 623.17908 5322.6953 995072
-2150.4102 614.78619 5251.0103 929024
-2095.9463 608.04266 5193.4126 929024
-2084.4277 613.74243 5242.0952 1060608
-2103.0303 628.61865 5369.1562 1257984
-2064.0203 626.46704 5350.7788 1389312
-2024.9689 624.23529 5331.7173 1191680
-1911.937 598.7641 5114.1621 1257472
-1715.0889 545.79651 4661.7559 1257472
-1645.7368 532.32874 4546.7251 1191424
0 0 0 0
0 0 0 0
-1497.9817 509.64929 4353.0151 1024
-1456.5972 504.28149 4307.168 65792
-1429.9308 503.90826 4303.98 512
-1412.3014 506.76416 4328.3726 768
-1397.1207 510.62097 4361.3145 66560
-1383.3544 515.15027 4400.0005 1714951
-1376.6418 522.53168 4463.0464 1454338
-1406.5084 544.36041 4649.4897 1323008
-1441.8137 569.21143 4861.7476 1388800
-1624.4429 654.43091 5589.6235 1257216
-1591.2111 654.43091 5589.6235 1060096
-1547.3004 649.94525 5551.311 1191680
-1533.7076 658.27673 5622.4717 1652229
-1500.2804 658.27673 5622.4717 1190912
-1466.8533 658.27673 5622.4717 993536
-1416.7974 650.64026 5557.2471 1125120
-1444.5547 679.22681 5801.4102 1190656
-1412.2515 680.28064 5810.4111 1190144
-1437.8983 710.00171 6064.2651 927744
-1401.8446 710.00171 6064.2651 862208
-1373.3938 713.9541 6098.0229 1256704
-1399.4059 747.20081 6381.9897 1322496
-1192.6631 654.55957 5590.7227 1257216
-1159.4246 654.55957 5590.7227 1059584
-1126.1862 654.55957 5590.7227 1059328
-1464.0336 876.80054 7488.9268 1124864
-1419.5099 876.80054 7488.9268 1255680
-1347.0576 858.99109 7336.813 1255169
-1303.4382 858.99109 7336.813 794880
-1259.8188 858.99109 7336.813 662528
-1235.3789 872.53741 7452.5146 530432
-1195.3098 875.64215 7479.0327 398848
-1172.7192 892.28564 7621.188 201728
-1129.4429 893.89514 7634.9355 4864
-1084.051 893.89514 7634.9355 5120
-1006.249 866.00214 7396.6958 136448
-962.27356 866.00214 7396.6958 202496
-923.23859 870.66119 7436.4897 333824
-879.02661 870.66119 7436.4897 202240
-835.22223 871.08636 7440.1211 334080
-806.5683 888.24371 7586.6655 399872
-761.19983 887.93622 7584.0391 595968
-689.52008 854.96539 7302.4287 726016
-641.74683 849.1983 7253.1704 329728
-598.62469 849.1983 7253.1704 394752
-560.0957 856.21985 7313.1431 394752
-547.44586 907.31433 7749.5508 526337
-502.9639 910.19397 7774.1465 1710861
-457.47855 911.6568 7786.6411 2171157
-398.66367 883.89569 7549.5273 2698013
-353.7796 883.89569 7549.5273 2369303
-336.50159 962.88947 8224.2295 1843730
-272.9368 913.77692 7804.7495 1975567
-226.53539 913.77692 7804.7495 395777
-186.42477 945.68866 8077.3135 512
-143.8902 983.18256 8397.5566 256
-93.781136 981.26532 8381.1807 131072
-43.718872 976.04529 8336.5957 131072
5.5385756 924.95349 7900.2109 262656
50.705376 893.20746 7629.0615 196608
96.062271 893.20746 7629.0615 788740
146.53127 925.49561 7904.8413 656899
193.52776 925.49561 7904.8413 262144
260.68573 1003.0736 8567.4502 65536
311.62161 1003.0736 8567.4502 1251848
345.99725 957.25708 8176.1216 793346
399.99731 970.33429 8287.8164 333056
459.1355 991.6402 8469.7949 923909
516.94897 1006.1563 8593.7803 857605
556.79443 986.23499 8423.6279 197888
610.86487 992.71851 8479.0049 1315083
672.77966 1009.9896 8626.5205 262144
736.45795 1027.2739 8774.1494 327680
793.32568 1033.4001 8826.4746 393216
842.53571 1029.4099 8792.3936 590592
845.448 972.62396 8307.373 656384
925.3103 1005.7455 8590.2715 393472
982.52869 1012.0771 8644.3516 393216
1031.2029 1009.4157 8621.6191 393216
1073.4609 1001.0233 8549.9375 393216
1131.1394 1007.1193 8602.0049 131072
1234.1083 1051.2683 8979.0898 131072
1364.3187 1113.9996 9514.8906 65536
1443.7996 1131.963 9668.3203 256
1501.2804 1131.963 9668.3203 256
1587.2141 1152.6254 9844.8008 256
1661.2377 1163.4764 9937.4824 256
1735.1676 1173.519 10023.258 0
1807.8356 1182.0695 10096.289 0
1868.2681 1182.3271 10098.49 0
1905.7562 1168.5007 9980.3955 0
1962.1709 1166.7634 9965.5576 256
2021.4189 1166.7634 9965.5576 256
2087.6091 1170.6564 9998.8076 256
2174.9768 1185.8805 10128.84 512
2280.4646 1209.8979 10333.978 768
2358.9875 1218.7245 10409.366 66304
2407.7292 1212.1069 10352.845 512
2453.2708 1204.2485 10285.725 512
2530.2319 1211.8204 10350.397 0
2673.7515 1250.153 10677.804 329987
2757.3977 1259.3621 10756.461 198657
3266.7722 1458.1857 12454.652 3886642
3797.0159 1657.3047 14155.367 6453350
3414.865 1458.1857 12454.652 12506058
0 0 0 0
0 0 0 0
0 0 0 0
0 0 0 0
0 0 0 0
0 0 0 0
0 0 0 0
0 0 0 0
0 0 0 0
0 0 0 0
0 0 0 0
0 0 0 0
0 0 0 0
0 0 0 0
0 0 0 0
0 0 0 0
0 0 0 0
0 0 0 0
0 0 0 0
0 0 0 0
4621.3135 1355.926 11581.231 198144
4717.6108 1363.86 11648.998 512
4689.5503 1336.1327 11412.174 256
4441.8789 1247.5178 10655.296 131840
4493.0889 1244.1565 10626.587 65792
4578.2246 1250.1525 10677.799 65536
4807.335 1294.761 11058.81 65536
4874.4214 1295.1167 11061.848 0
4972.3403 1303.5459 11133.843 0
5034.9614 1302.6216 11125.948 197377
6007.5293 1534.0858 13102.93 592135
6158.333 1552.464 13259.901 196608
6552.3604 1630.9174 13929.987 196608
6882.105 1691.6117 14448.39 262400
7139.0239 1733.1299 14803.004 131072
7640.5186 1832.2889 15649.941 65536
7747.5723 1835.6082 15678.293 0
7851.7471 1838.1747 15700.214 0
7949.8369 1839.2731 15709.596 0
8069.4966 1845.2786 15760.889 0
8286.1719 1873.0763 15998.314 0
8446.6514 1887.6842 16123.084 0
8538.4229 1886.7816 16115.375 0
8634.2334 1886.7816 16115.375 0
8736.2012 1888.1127 16126.743 0
8838.8047 1889.55 16139.021 592648
8931.2441 1888.8077 16132.68 66304
9030.543 1889.5159 16138.729 2303266
9122.2832 1888.6445 16131.286 197379
9223.1172 1889.6545 16139.913 1513750
9319.0732 1889.6545 16139.913 329477
9414.2588 1889.4998 16138.591 256
9508.7373 1889.2076 16136.096 256
9599.752 1888.2401 16127.832 256
9692.4395 1887.6176 16122.515 256
9788.0654 1887.5739 16122.141 256
9885.9932 1887.9705 16125.529 66305
9980.4424 1887.7017 16123.233 658441
10076.3 1887.7017 16123.233 0
10170.156 1887.3304 16120.062 256
10217.964 1878.5002 16044.643 256
10288.766 1874.0217 16006.391 256
10406.562 1878.1066 16041.279 256
10501.932 1878.1066 16041.279 256
10539.512 1867.8647 15953.802 256
10660.701 1872.4911 15993.316 256
10765.54 1874.1892 16007.82 256
10884.786 1878.3438 16043.306 256
11031.674 1887.1549 16118.562 512
11141.984 1889.6107 16139.538 396037
11238.514 1889.7075 16140.364 790795
11334.696 1889.7446 16140.683 726029
11430.324 1889.6896 16140.212 1516058
11526.367 1889.7036 16140.332 3096118
11622.326 1889.7036 16140.332 6450533
11717.423 1889.5646 16139.145 5003611
11813.609 1889.6022 16139.465 3950662
11909.894 1889.6547 16139.914 461322
12005.851 1889.6547 16139.914 2372143
12101.136 1889.5499 16139.019 9871772
12197.086 1889.5497 16139.018 7174259
12296.301 1890.0514 16143.303 5068882
12392.276 1890.0514 16143.303 3226678
12489.396 1890.2244 16144.78 7240051
12581.789 1889.6848 16140.172 9674647
12676.941 1889.5648 16139.146 4214073
12772.491 1889.5054 16138.639 6384987
12868.44 1889.5054 16138.639 5201225
0 0 0 0
0 0 0 0
0 0 0 0
0 0 0 0
0 0 0 0
13445.757 1889.7336 16140.589 1515551
13541.073 1889.6437 16139.821 1384737
13637.028 1889.6437 16139.821 3687494
13733.946 1889.7762 16140.952 7833997
13830.558 1889.8649 16141.709 9741483
13926.08 1889.8044 16141.193 10070192
14022.104 1889.8126 16141.264 9345956
14118.596 1889.8831 16141.865 10858168
14214.425 1889.8646 16141.708 3752779
14310.392 1889.8646 16141.708 1713191
0 0 0 0
0 0 0 0
14597.876 1889.8109 16141.248 8161677
14692.219 1889.6022 16139.466 6187119
0 0 0 0
0 0 0 0
0 0 0 0
0 0 0 0
0 0 0 0
0 0 0 0
0 0 0 0
0 0 0 0
0 0 0 0
0 0 0 0
0 0 0 0
0 0 0 0
0 0 0 0
0 0 0 0
0 0 0 0
0 0 0 0
0 0 0 0
0 0 0 0
0 0 0 0
0 0 0 0
0 0 0 0
0 0 0 0
-3741.6824 538.12225 4374.0933 993792
-4109.75 595.19373 4837.9951 993792
-4303.9355 627.7099 5102.3003 993792
-4273.6011 627.7099 5102.3003 993792
-4217.6802 623.92493 5071.5347 1125376
-4187.5288 623.92493 5071.5347 1191168
-4210.082 631.83472 5135.8286 1059584
-4179.5479 631.83472 5135.8286 993792
-4140.769 630.5791 5125.6226 993792
-4011.9592 615.49286 5002.9951 1191424
-3976.5618 614.61908 4995.8926 1126145
-3830.1846 596.45001 4848.2065 1125889
-3801.3608 596.45001 4848.2065 862720
-3772.5369 596.45001 4848.2065 862720
-3454.4175 550.35931 4473.561 862720
-3288.3799 527.97119 4291.5806 862720
-3357.7253 543.32062 4416.3477 862720
-3392.4163 553.26038 4497.1426 796928
-3651.5696 600.25586 4879.1421 862976
-3622.5618 600.25586 4879.1421 994816
-3381.3708 564.81348 4591.0508 797184
-3605.9658 607.23083 4935.8379 1652485
-3576.6211 607.23083 4935.8379 862976
-3540.1082 606.00385 4925.8643 731392
-3510.8228 606.00385 4925.8643 797184
-3481.5371 606.00385 4925.8643 665600
0 0 0 0
0 0 0 0
0 0 0 0
0 0 0 0
0 0 0 0
-3125.4949 572.94714 4657.1646 665600
-3091.4944 571.7796 4647.6748 1389312
-2965.6418 553.44965 4498.6807 665600
0 0 0 0
0 0 0 0
-3023.9641 580.02679 4714.7114 665600
-3053.2878 591.1308 4804.9697 731648
-2980.0298 582.39673 4733.9751 731392
-2951.885 582.39673 4733.9751 731136
-2925.2114 582.6897 4736.3569 797184
-2921.218 587.55017 4775.8647 599808
-2827.3376 574.24951 4667.751 731392
-2813.5476 577.11316 4691.0283 468224
-2785.6582 577.11316 4691.0283 468480
-2762.4849 578.10016 4699.0508 928768
-2764.8052 584.4967 4751.0449 731392
-2736.5588 584.4967 4751.0449 534016
-2659.469 573.95551 4665.3613 665344
-2657.0383 579.47455 4710.2227 533760
-2629.0347 579.47455 4710.2227 994048
-2654.6646 591.4234 4807.3477 599040
-2626.0835 591.4234 4807.3477 665088
-2643.7493 601.95331 4892.9395 665088
-2614.6594 601.95331 4892.9395 731392
-2472.2417 575.56909 4678.4771 534272
-2553.1826 601.17694 4886.6289 665600
-2524.1301 601.17694 4886.6289 665856
-2376.1946 572.53253 4653.7949 797184
-2348.5264 572.53253 4653.7949 928512
-2320.8584 572.53253 4653.7949 862976
-2272.9836 567.48761 4612.7876 862976
-2245.5593 567.48761 4612.7876 731392
-2245.6794 574.53461 4670.0684 862976
-2221.2388 575.39581 4677.0684 599552
-2255.5044 591.67883 4809.4243 731392
-2226.9109 591.67883 4809.4243 796928
-2102.041 565.76593 4598.793 797184
-2164.1948 590.17102 4797.168 797184
-2135.6743 590.17102 4797.168 731392
-2102.583 588.89081 4786.7622 994560
-1943.9944 551.94397 4486.4419 928768
-1915.8785 551.52869 4483.0664 1060352
-1900.1191 554.70892 4508.9165 797184
-1873.3124 554.70892 4508.9165 928768
-1860.1826 558.81763 4542.314 731648
-1885.7566 574.84564 4672.5967 797440
-1940.2598 600.30347 4879.5293 862976
-1911.2496 600.30347 4879.5293 797184
-1868.4326 595.90009 4843.7363 929024
-1800.7697 583.31061 4741.4033 994560
-1709.2737 562.47791 4572.0664 928768
-1672.7683 559.36029 4546.7251 731392
-1476.6776 501.89975 4079.6606 862464
-1452.423 501.89975 4079.6606 1123840
-1508.3417 530.07501 4308.6816 1280
-1497.9817 535.52917 4353.0151 1024
-1456.5972 529.88879 4307.168 256
-1437.2769 532.21686 4326.0913 768
-1412.3014 532.4975 4328.3726 1536
-1397.1207 536.55017 4361.3145 2109702
-1401.8486 548.54633 4458.8247 1585152
-1376.6418 549.06573 4463.0464 1389056
-1349.6646 548.88544 4461.5811 1323264
-1391.2158 577.1261 4691.1333 1191936
-1383.8165 585.80029 4761.6411 1389312
-1405.6433 607.46729 4937.7598 1455616
-1376.2871 607.46729 4937.7598 1323776
-1347.135 607.55945 4938.5088 1389568
-1317.7742 607.55945 4938.5088 1454848
-1288.4133 607.55945 4938.5088 1389312
-1307.6143 630.99304 5128.9873 928256
-1280.3834 632.60492 5142.0894 1125376
-1246.6278 630.99304 5128.9873 1059584
-1125.1115 583.76556 4745.1021 1388290
-1247.3339 663.82562 5395.8647 796160
-1246.0013 680.62122 5532.3867 928000
-1198.6172 672.49005 5466.293 862208
-1166.1187 672.49005 5466.293 730624
-1133.62 672.49005 5466.293 927744
-1117.0787 682.23578 5545.5107 993792
-1084.1091 682.23578 5545.5107 1059328
-1055.1625 684.8468 5566.7344 1124864
-1046.4631 701.19391 5699.6108 993792
-1030.6855 713.73352 5801.5381 1453829
-1003.1991 718.75262 5842.3354 1125122
-1030.3977 764.71655 6215.9502 927744
-1025.032 789.03326 6413.6074 993280
-986.90137 789.03326 6413.6074 993536
-985.59717 819.65967 6662.5518 861696
-945.98651 819.65967 6662.5518 928000
-902.40656 816.07019 6633.375 926976
-903.03894 853.96216 6941.3779 663808
-871.94855 864.04791 7023.3594 663552
-837.84448 872.01172 7088.0928 992257
-808.36768 885.89014 7200.9023 992001
-765.55634 885.89014 7200.9023 925952
-731.08728 896.11554 7284.019 1056257
-684.8689 892.32043 7253.1704 1055232
-636.70825 885.31458 7196.2241 660224
-593.92474 885.31458 7196.2241 988417
-551.21057 885.42615 7197.1304 856064
-504.14624 877.98041 7136.6084 527104
-461.76358 878.06873 7137.3267 263680
-419.3302 878.06873 7137.3267 66304
-376.89682 878.06873 7137.3267 66048
-335.97113 882.02692 7169.5005 66048
-302.17136 908.56152 7385.1851 256
-265.38535 933.61279 7588.813 256
-222.61734 943.57159 7669.7622 66048
-180.13397 960.17834 7804.7495 263680
-136.01378 976.55701 7937.8823 724483
-88.624451 974.39771 7920.3301 1315596
-41.627934 976.55701 7937.8823 657924
5.5385756 971.92249 7900.2109 657153
52.507526 971.92249 7900.2109 196864
96.062271 938.56439 7629.0615 1643790
144.03891 955.95099 7770.3877 394241
187.66614 943.03705 7665.4175 394496
236.43315 955.95099 7770.3877 2237461
264.31329 893.99683 7266.7969 4146481
310.46988 902.58289 7336.5884 2831133
361.86435 922.40527 7497.7134 857856
438.88751 996.04321 8096.2749 1055494
509.49075 1041.9955 8469.7949 924166
556.79443 1036.3158 8423.6279 66816
581.93109 993.72046 8077.3945 1908499
659.96069 1041.0554 8462.1533 131328
710.27051 1041.0554 8462.1533 262144
781.93781 1070.2886 8699.7734 262144
833.66028 1070.2886 8699.7734 986117
874.23877 1056.817 8590.2715 1248773
925.3103 1056.817 8590.2715 196608
982.52869 1063.4703 8644.3516 262144
1010.3444 1039.2191 8447.2275 262144
1060.5656 1039.2191 8447.2275 262144
1180.7251 1104.6515 8979.0898 1447947
1288.4417 1153.2854 9374.4072 726276
1349.6901 1158.0171 9412.8691 660995
1428.2302 1176.6176 9564.0615 528642
1486.5955 1177.8093 9573.749 330753
1545.0048 1178.9468 9582.9951 198144
1651.4554 1215.3586 9878.9658 256
1710.8032 1215.7954 9882.5166 0
1779.3999 1222.5576 9937.4824 0
1835.2332 1220.3978 9919.9268 0
1873.2437 1206.8898 9810.1279 0
1944.3201 1214.8578 9874.8955 256
2003.0291 1214.8578 9874.8955 256
2063.0037 1215.6035 9880.957 256
2144.4802 1228.6271 9986.8184 256
2235.1956 1246.0994 10128.84 256
2341.9028 1271.3364 10333.978 512
2405.4202 1272.4359 10342.916 512
2483.5056 1280.9952 10412.489 512
2569.4084 1293.0723 10510.656 768
2677.9216 1315.6844 10694.458 512
2741.5032 1315.6844 10694.458 68096
3712.8582 1741.4623 14155.367 398850
3998.0039 1833.6434 14904.656 2833950
4086.6165 1833.6434 14904.656 2767903
0 0 0 0
0 0 0 0
0 0 0 0
0 0 0 0
0 0 0 0
0 0 0 0
0 0 0 0
0 0 0 0
0 0 0 0
0 0 0 0
0 0 0 0
0 0 0 0
0 0 0 0
0 0 0 0
0 0 0 0
0 0 0 0
0 0 0 0
0 0 0 0
0 0 0 0
0 0 0 0
4311.5391 1329.2742 10804.922 988164
4409.7437 1339.5925 10888.794 395520
4299.0146 1287.0607 10461.792 132096
4361.2129 1287.0607 10461.792 256
4434.0117 1290.1451 10486.863 0
4557.8276 1307.7823 10630.227 65536
4753.5391 1345.2841 10935.057 0
4818.5508 1345.2841 10935.057 196608
4972.3403 1369.7396 11133.843 65536
4861.8086 1321.6964 10743.326 1644821
6306.5098 1692.2111 13755.031 131072
6654.7759 1762.8018 14328.824 196608
6674.6665 1745.7236 14190.005 196608
6825.1533 1762.8018 14328.824 196608
7109.5444 1813.6176 14741.877 131072
7640.5186 1925.3322 15649.941 65792
7954.2236 1980.2676 16096.48 256
8049.9219 1980.2676 16096.48 256
8109.5122 1971.4896 16025.129 0
8204.7861 1971.4896 16025.129 0
8349.4443 1983.2196 16120.477 0
8445.2852 1983.2196 16120.477 0
8427.3125 1956.7927 15905.666 0
8586.7256 1971.6833 16026.704 0
8713.8418 1978.9126 16085.468 0
8839.0986 1985.5673 16139.559 0
8935.0527 1985.5673 16139.559 0
9031.1162 1985.5914 16139.755 256
9127.2207 1985.6238 16140.018 329221
9223.376 1985.6663 16140.364 263172
9320.0439 1985.8175 16141.593 1645082
9415.8848 1985.7911 16141.379 2106146
9511.3193 1985.6804 16140.479 1645338
9606.3477 1985.4878 16138.913 256
9692.2227 1983.426 16122.154 256
9787.7559 1983.3618 16121.631 658441
9883.916 1983.4243 16122.141 395269
9979.8428 1983.4396 16122.264 256
10074.74 1983.2518 16120.737 263428
10168.721 1982.8888 16117.786 0
10264.545 1982.8888 16117.786 256
10370.647 1984.8557 16133.775 256
10466.567 1984.8557 16133.775 256
10551.631 1982.8156 16117.192 256
10541.213 1963.0315 15956.378 256
10634.361 1962.7146 15953.802 256
10731.847 1963.1967 15957.721 256
10850.87 1967.5757 15993.316 256
10980.168 1973.7257 16043.306 256
11141.685 1985.5114 16139.104 461061
11238.836 1985.7234 16140.827 67073
11334.803 1985.7242 16140.835 462600
11430.656 1985.7054 16140.683 1119761
11526.367 1985.6624 16140.332 1646618
11622.326 1985.6624 16140.332 1318424
11717.796 1985.5796 16139.658 857363
11813.609 1985.5558 16139.465 7042157
11909.894 1985.611 16139.914 4147265
12005.851 1985.611 16139.914 2634539
12101.135 1985.5007 16139.018 2567721
12197.086 1985.5007 16139.018 9214355
12295.481 1985.8955 16142.228 7896442
12392.232 1986.0208 16143.245 7437430
12489.396 1986.2096 16144.78 3751734
12584.185 1986.0208 16143.245 1119247
12677.747 1985.6427 16140.172 5002570
12773.705 1985.6429 16140.173 4936520
12868.824 1985.5134 16139.121 4608063
12964.357 1985.4491 16138.599 6121045
0 0 0 0
0 0 0 0
0 0 0 0
0 0 0 0
0 0 0 0
0 0 0 0
0 0 0 0
0 0 0 0
13830.116 1985.7683 16141.193 13094865
13926.08 1985.7683 16141.193 13161427
14022.104 1985.777 16141.264 13357268
14118.119 1985.7839 16141.32 13290449
14214.083 1985.7839 16141.32 1974565
0 0 0 0
0 0 0 0
0 0 0 0
0 0 0 0
0 0 0 0
0 0 0 0
0 0 0 0
0 0 0 0
0 0 0 0
0 0 0 0
0 0 0 0
0 0 0 0
0 0 0 0
0 0 0 0
0 0 0 0
0 0 0 0
0 0 0 0
0 0 0 0
0 0 0 0
0 0 0 0
0 0 0 0
0 0 0 0
0 0 0 0
0 0 0 0
0 0 0 0
0 0 0 0
0 0 0 0
-3741.6824 564.1275 4374.0933 1060096
-3715.6775 564.1275 4374.0933 994304
-3740.8677 571.95496 4434.7852 1191680
-4169.1426 641.96008 4977.5859 1125888
-4139.5488 641.96008 4977.5859 1125888
-4187.5288 654.0766 5071.5347 1125888
-3344.4075 526.17279 4079.8027 1323267
-3320.1519 526.17279 4079.8027 1257217
-3904.2703 623.29651 4832.874 1060352
-3877.1899 623.56226 4834.9346 1257730
-3848.4448 623.56226 4834.9346 1257474
-3559.635 581.10699 4505.7476 1060096
