# .PCD v0.7 - Point Cloud Data file format
VERSION 0.7
FIELDS x y z rgb
SIZE 4 4 4 4
TYPE F F F U
COUNT 1 1 1 1
WIDTH 1322
HEIGHT 1
VIEWPOINT 0 0 0 1 0 0 0
POINTS 1322
DATA ascii
13925.379 -3771.8748 16140.381 1647651
14021.65 -3771.9592 16140.74 1779749
14116.89 -3771.7664 16139.915 1977129
14213.237 -3771.8704 16140.36 2438450
14309.295 -3771.896 16140.471 2635829
14405.686 -3772.009 16140.954 3227453
14501.52 -3771.9756 16140.811 3030330
14597.48 -3771.9756 16140.811 3359552
14694.222 -3772.1758 16141.668 3227709
14789.401 -3771.9751 16140.809 3293499
14885.339 -3771.9685 16140.781 3293757
14980.98 -3771.8882 16140.437 3425340
15064.344 -3768.7373 16126.953 3754305
0 0 0 0
0 0 0 0
0 0 0 0
0 0 0 0
0 0 0 0
0 0 0 0
0 0 0 0
0 0 0 0
0 0 0 0
0 0 0 0
-9121.0859 -2300.4861 10101.08 513
-9980.7969 -2534.0032 11126.418 329478
-9914.6475 -2534.0032 11126.418 987153
-9579.2715 -2464.7317 10822.257 658189
-9419.5518 -2440.0251 10713.774 724241
-9542.499 -2488.7021 10927.508 526863
-10196.145 -2677.4021 11756.061 1184796
-10365.517 -2740.6646 12033.836 724503
-10388.564 -2765.8489 12144.416 461070
-9828.125 -2634.9507 11569.663 11252409
-10068.9 -2718.5298 11936.646 13357783
-9662.4941 -2627.3208 11536.16 13162464
-9344.1562 -2558.9253 11235.847 11123915
-9471.6543 -2612.5176 11471.162 7109771
-9702.4375 -2695.5825 11835.888 10070713
-9871.5576 -2762.6042 12130.17 12636885
-9459.8887 -2666.8799 11709.859 12571089
-9314.0469 -2645.2322 11614.807 12505554
-9135.0732 -2613.781 11476.71 12374226
-8562.7197 -2468.4534 10838.599 12177103
-8428.4775 -2448.1777 10749.571 12242896
-8919.7021 -2610.6567 11462.992 11914704
-9946.5732 -2933.6199 12881.073 11849682
-8650.3662 -2571.1152 11289.371 11718866
-8231.2285 -2465.668 10826.368 11849938
-8558.0576 -2583.7739 11344.953 11718866
-8014.2495 -2438.8132 10708.453 11587281
-8731.5527 -2678.3723 11760.32 11456206
-8953.959 -2768.7659 12157.225 8692385
-11788.418 -3674.9089 16135.958 12507863
-11692.159 -3674.8062 16135.509 68107
-11006.644 -3487.9685 15315.133 8687506
-10762.739 -3439.1265 15100.675 10399415
-10824.538 -3487.9685 15315.133 9873585
-10624.118 -3452.4287 15159.082 11387593
-10533.993 -3452.4287 15159.082 10926784
-10443.868 -3452.4287 15159.082 12438741
-10614.032 -3539.2212 15540.176 1448487
-10521.642 -3539.2212 15540.176 1513756
-8581.123 -2912.0491 12786.359 132626
-9094.0527 -3113.6985 13671.771 527122
-8362.4619 -2889.0322 12685.296 329484
-8287.0449 -2889.0322 12685.296 131846
-8195.1787 -2883.2456 12659.888 395016
-7916.5146 -2811.0225 12342.767 132615
-7856.8423 -2815.9358 12364.34 1646114
-8376.8428 -3030.6619 13307.17 1581347
-8297.7275 -3030.6619 13307.17 3818309
-8206.3379 -3026.1355 13287.295 4147018
-7951.5913 -2960.6965 12999.963 516
-7723.7134 -2904.0757 12751.35 3619391
-7095.5923 -2694.3513 11830.481 5791329
-7025.2568 -2694.3513 11830.481 2
-7227.4473 -2799.9287 12294.056 198406
-7420.7886 -2904.1997 12751.894 1843235
-8541.4443 -3377.283 14829.13 258
-7649.2144 -3056.0398 13418.6 331023
-9102.3955 -3674.947 16136.127 3027507
-9006.8652 -3675.1121 16136.851 6977653
-8910.8721 -3675.0886 16136.749 4410442
-8607.2676 -3588.5095 15756.593 256
-8513.5898 -3588.5095 15756.593 512
-8419.9131 -3588.5095 15756.593 328963
-7997.2637 -3446.7263 15134.045 2106400
-7793.4551 -3397.1074 14916.177 0
-6149.3784 -2711.3191 11904.984 132097
-5922.354 -2641.6265 11598.976 0
-5642.0459 -2546.2451 11180.17 256
-5535.0537 -2527.739 11098.913 256
-5390.4849 -2491.4189 10939.438 513
-5311.5337 -2484.9102 10910.857 263683
-5260.2744 -2491.3555 10939.158 256
-5202.5303 -2494.8525 10954.513 256
-5164.979 -2508.2444 11013.314 256
-5076.8677 -2497.1116 10964.432 395269
-5023.6006 -2503.0503 10990.508 0
-4958.2588 -2503.0503 10990.508 256
-4976.1748 -2545.6421 11177.522 256
-5168.7998 -2679.9717 11767.343 66048
-5211.7354 -2739.3101 12027.889 592647
-4857.187 -2588.4741 11365.591 395268
-4757.8916 -2571.3293 11290.312 66048
-4690.7676 -2571.3293 11290.312 395267
-4611.499 -2564.5754 11260.655 329473
-4583.1094 -2586.3345 11356.196 132096
-4603.375 -2636.6121 11576.957 197889
-4450.8291 -2587.9343 11363.221 724233
-4308.1704 -2543.5935 11168.527 461062
-4205.5552 -2521.877 11073.173 461062
-4149.3096 -2527.7173 11098.817 461062
-4252.9878 -2632.7451 11559.979 855820
-4326.0396 -2721.9529 11951.676 66304
-4297.3857 -2749.0781 12070.778 395267
-4183.9272 -2721.9529 11951.676 592900
-4011.4758 -2654.8479 11657.028 1711382
-4276.999 -2880.3372 12647.116 922632
-4568.1069 -3131.4343 13749.646 1383694
-5092.9429 -3554.8215 15608.675 660226
-4824.8843 -3430.2217 15061.574 1713678
-3907.999 -2830.9065 12430.074 924930
-3834.0989 -2830.9065 12430.074 4478500
-3760.1987 -2830.9065 12430.074 3886353
-3807.1218 -2923.6934 12837.487 5465122
-3730.7993 -2923.6934 12837.487 6188841
-3213.677 -2571.04 11289.041 5201952
-3307.5708 -2702.6006 11866.703 4741146
-3237.0198 -2702.6006 11866.703 4214554
-3411.0127 -2911.3201 12783.158 1712658
-3381.7512 -2952.1204 12962.306 1251347
-3398.4539 -3035.8838 13330.098 5528405
-4017.9187 -3674.959 16136.18 3290675
-3922.6758 -3675.6067 16139.022 8028283
-3826.7249 -3675.6067 16139.022 10856872
-3730.0415 -3674.8855 16135.855 13028555
-3225.8906 -3262.0862 14323.317 10331554
-2972.5178 -3087.3701 13556.166 10198941
-3442.1787 -3674.814 16135.543 1447705
-3346.7461 -3675.3606 16137.943 1447705
-3250.4409 -3674.9531 16136.153 987154
-3119.0464 -3633.6418 15954.763 1052949
-2925.3254 -3514.8525 15433.177 855570
-2760.6516 -3424.4011 15036.019 1316123
-2657.5593 -3406.8398 14958.91 3750467
-2442.2571 -3239.2356 14222.983 1775903
-2453.0369 -3370.2222 14798.126 8748430
-2283.7556 -3254.3657 14289.419 8485514
-2322.4414 -3437.3616 15092.925 1183246
-2386.9285 -3674.7883 16135.431 460296
-2291.6792 -3675.8796 16140.222 1249816
-1644.6837 -2753.3823 12089.678 789263
-1469.1134 -2571.854 11292.615 920849
-1401.9757 -2571.854 11292.615 328967
-1322.1382 -2547.3853 11185.177 1118740
-1266.4128 -2569.2424 11281.147 1052947
0 0 0 0
0 0 0 0
0 0 0 0
0 0 0 0
0 0 0 0
0 0 0 0
0 0 0 0
0 0 0 0
0 0 0 0
0 0 0 0
-261.38403 -1270.3337 5577.8398 1709328
-289.53262 -1611.6006 7076.2896 1052168
-247.46211 -1611.6006 7076.2896 1446674
-208.47818 -1635.8192 7182.6299 8552059
-162.32468 -1601.7682 7033.1172 9933966
-100.74958 -1339.1118 5879.8335 9867660
-60.352116 -1228.3835 5393.6431 5722186
-28.285404 -1228.3835 5393.6431 8945786
3.77598 -1226.6541 5386.0493 8550775
31.715406 -1086.7739 4771.8569 8419704
60.085426 -1086.7739 4771.8569 5853264
93.453171 -1148.1765 5041.4663 5261383
121.66235 -1131.7693 4969.4248 9274500
162.12601 -1213.4973 5328.2798 1709076
215.53944 -1349.5922 5925.8516 4275262
259.418 -1396.1323 6130.2021 1907227
308.25067 -1454.5842 6386.8555 1578005
314.75162 -1322.3663 5806.3071 6577760
349.20871 -1322.1277 5805.2593 7498090
376.6344 -1297.7052 5698.0239 8550521
364.33862 -1151.7461 5057.1396 9273731
0 0 0 0
0 0 0 0
0 0 0 0
0 0 0 0
428.48676 -958.88391 4210.3115 2168860
453.57819 -959.01062 4210.8682 2367267
475.62836 -953.03033 4184.6094 2499108
489.26984 -931.6333 4090.6582 1906970
493.29135 -894.81244 3928.9834 9998995
563.23615 -975.49683 4283.2563 10195857
782.58514 -1296.7686 5693.9106 10524309
881.5708 -1400.2222 6148.1602 10458515
918.12341 -1400.2222 6148.1602 10589588
886.86322 -1300.7615 5711.4434 10918038
1044.4874 -1475.4565 6478.5024 10852243
1126.4379 -1534.6299 6738.3237 11312537
1188.7836 -1563.947 6867.0508 10982546
1259.2134 -1601.5996 7032.3774 10588561
1402.4463 -1726.455 7580.5981 2367523
1852.1917 -2209.1138 9699.8789 1184277
1962.264 -2269.729 9966.0303 1251355
2066.9153 -2320.7041 10189.854 1580320
2180.1479 -2378.1367 10442.031 1251356
2270.0476 -2407.6416 10571.584 1053976
2491.1016 -2570.9131 11288.483 1120027
2981.3049 -2996.1035 13155.429 1317149
3102.7966 -3038.4856 13341.522 1053977
3314.9968 -3165.3687 13898.647 1185563
3397.6284 -3165.3687 13898.647 1515299
3531.2954 -3211.7869 14102.462 988954
3931.2678 -3492.6448 15335.665 1054746
4182.3662 -3631.5049 15945.379 1252639
4277.166 -3631.5049 15945.379 1516068
4082.9038 -3391.4004 14891.116 1976874
3275.2393 -2662.7876 11691.891 2437939
2993.0261 -2382.7761 10462.403 2701365
3351.1001 -2613.5273 11475.596 2701364
3538.5698 -2704.6704 11875.791 3754559
4449.4409 -3334.3555 14640.641 5333846
4955.6812 -3642.4692 15993.521 9676179
5096.2812 -3675.2927 16137.645 5662805
5192.522 -3675.5034 16138.569 6978407
5288.3223 -3675.4009 16138.119 7503984
5384.3579 -3675.4622 16138.389 10792870
5480.3052 -3675.4622 16138.389 12568001
5576.7104 -3675.7642 16139.714 10396320
5672.6655 -3675.7642 16139.714 10791071
5767.7075 -3675.1824 16137.16 13093316
5747.3359 -3602.2812 15817.062 5000521
5889.4961 -3631.9583 15947.369 13751502
6055.6094 -3675.2322 16137.378 12303799
6152.5908 -3675.8538 16140.107 11711919
6248.6245 -3675.8984 16140.303 13619662
6345.4106 -3676.3777 16142.408 13619662
6240.2549 -3561.5859 15638.375 13619662
6315.5757 -3551.6584 15594.784 13619662
6426.2036 -3561.5859 15638.375 13619662
6501.0063 -3551.6584 15594.784 13684944
6823.2271 -3675.2795 16137.587 13290186
6919.8359 -3675.6333 16139.141 12961221
7015.7368 -3675.6067 16139.023 13619152
7080.1875 -3659.3262 16067.538 13684944
6910.0127 -3523.8296 15472.593 13685457
7002.002 -3523.8296 15472.593 13685457
7147.9604 -3550.6384 15590.307 13685457
7492.1646 -3673.9753 16131.86 13685457
7588.0732 -3673.9753 16131.86 13685457
7546.5312 -3608.2559 15843.296 13685457
7640.7246 -3608.2559 15843.296 13619664
7878.6963 -3675.3271 16137.796 13685457
7974.9355 -3675.4636 16138.395 13553871
8071.4062 -3675.7021 16139.441 13619664
8167.1665 -3675.6152 16139.06 13685203
8263.1182 -3675.6152 16139.06 13619666
7735.7188 -3401.5181 14935.542 13488340
0 0 0 0
8551.2676 -3675.7427 16139.619 3421751
8647.2227 -3675.7427 16139.619 9936285
8743.5361 -3675.8936 16140.282 2107688
8839.5801 -3675.9292 16140.438 3489081
8934.9775 -3675.6978 16139.423 2107688
9030.9307 -3675.6978 16139.423 2370604
9126.6172 -3675.5903 16138.95 2436396
9222.1602 -3675.4275 16138.236 3027762
9318.3115 -3675.5085 16138.593 3291960
9415.5703 -3676.0203 16140.838 3357497
9510.7217 -3675.7073 16139.465 3357752
9607.8154 -3676.1433 16141.379 2502958
9703.709 -3676.116 16141.26 1911591
9798.5869 -3675.7087 16139.472 3226425
9894.541 -3675.7087 16139.472 14538457
9990.9268 -3675.8679 16140.169 13684688
10086.725 -3675.8098 16139.915 13618896
10183.248 -3676.0142 16140.812 13750225
10279.209 -3676.0142 16140.812 13750226
10374.306 -3675.7078 16139.466 13487568
10470.84 -3675.9114 16140.361 921360
10567.994 -3676.3274 16142.188 1778981
10664.532 -3676.5229 16143.047 4082505
10761.109 -3676.7288 16143.95 2504240
10856.587 -3676.5586 16143.203 3819330
10952.648 -3676.5876 16143.33 5200471
11050.188 -3677.1074 16145.612 1450014
11146.178 -3677.1074 16145.612 726035
11238.513 -3675.9121 16140.363 1054489
0 0 0 0
11430.431 -3675.9121 16140.363 658445
11526.51 -3675.9504 16140.532 460553
11622.471 -3675.9504 16140.532 7238519
11718.626 -3676.0117 16140.802 10266022
11814.916 -3676.1143 16141.251 791574
11911.209 -3676.2156 16141.696 1515296
12006.517 -3676.0134 16140.81 1778468
12102.763 -3676.1001 16141.189 2042154
12198.644 -3676.0752 16141.08 1515809
12293.72 -3675.8096 16139.914 1450014
12387.59 -3675.1909 16137.197 1449758
12483.818 -3675.2756 16137.569 1318429
12581.604 -3675.814 16139.934 1122335
12677.56 -3675.814 16139.934 1517094
12774.041 -3675.9653 16140.597 7899271
12869.351 -3675.7791 16139.78 2766903
12965.412 -3675.8096 16139.913 3621956
13061.369 -3675.8096 16139.913 3358528
13157.358 -3675.8188 16139.954 3556675
13253.315 -3675.8188 16139.954 4938329
13349.612 -3675.9128 16140.367 4281165
13445.572 -3675.9128 16140.367 9149855
13541.53 -3675.9128 16140.367 8685968
13637.107 -3675.8096 16139.914 5792103
13732.479 -3675.6536 16139.229 4016974
13828.634 -3675.7073 16139.465 2897724
13924.973 -3675.8091 16139.911 2699830
14021.245 -3675.8916 16140.273 2239277
14116.693 -3675.7585 16139.69 2305583
14213.237 -3675.9114 16140.36 1713188
14309.295 -3675.9363 16140.471 2436911
14405.958 -3676.116 16141.26 2700338
14501.52 -3676.0139 16140.811 4279884
14597.48 -3676.0139 16140.811 2898487
14694.222 -3676.209 16141.668 2635058
14788.583 -3675.8096 16139.914 2438191
14884.325 -3675.7568 16139.683 2503984
14980.45 -3675.7983 16139.865 2767153
15074.561 -3675.3489 16137.89 2767411
15169.119 -3675.0129 16136.415 3030326
0 0 0 0
0 0 0 0
0 0 0 0
0 0 0 0
0 0 0 0
0 0 0 0
0 0 0 0
0 0 0 0
0 0 0 0
-9121.0859 -2240.4321 10101.08 66306
-9947.0928 -2459.5198 11088.845 197892
-9891.2588 -2462.032 11100.171 329478
-9579.2715 -2400.3904 10822.257 526604
-9522.2002 -2402.2244 10830.526 395018
-9802.627 -2489.8059 11225.391 658191
-9980.082 -2552.2546 11506.943 460813
-10152.908 -2614.373 11787.008 592914
-10268.768 -2662.5847 12004.371 592147
-9480.0752 -2475.2883 11159.938 329745
-9413.7256 -2475.2883 11159.938 1118234
-9662.4941 -2558.7349 11536.16 3684682
-9539.8535 -2544.3184 11471.162 2367533
-9471.6543 -2544.3184 11471.162 3291723
-8528.0791 -2307.4653 10403.302 6581374
-8650.8262 -2357.7773 10630.135 12899285
-9029.29 -2479.0383 11176.845 12701648
-8962.8408 -2479.0383 11176.845 12571087
-8754.9307 -2439.6194 10999.123 12439504
-8492.3867 -2384.2686 10749.571 12439761
-8349.9619 -2362.0579 10649.434 12374225
-8364.5684 -2384.2686 10749.571 12242895
-8801.2529 -2528.0586 11397.854 12177871
-8295.5947 -2401.3022 10826.368 12046547
-7957.3301 -2321.3975 10466.114 11718608
-7895.106 -2321.3975 10466.114 10008255
-8007.7725 -2373.2292 10699.8 10534600
-7950.5845 -2375.1484 10708.453 6585223
-7886.9199 -2375.1484 10708.453 2174255
-11788.872 -3579.114 16136.58 2110000
-11694.377 -3579.5552 16138.569 793620
-11598.429 -3579.5552 16138.569 3820098
-10915.591 -3396.9158 15315.133 1055251
-10672.962 -3349.3486 15100.675 5202266
-10989.967 -3478.0867 15681.095 5531750
-11212.596 -3578.9041 16135.634 1451299
-11116.875 -3578.9717 16135.938 7044479
-10614.032 -3446.8306 15540.176 7636875
-8657.1416 -2836.0305 12786.359 11978445
-8246.7256 -2725.5139 12288.09 6120552
-8437.8789 -2813.6147 12685.296 8095110
-8362.4619 -2813.6147 12685.296 3357501
-8331.9189 -2828.8506 12753.987 263432
-8256.0928 -2828.8506 12753.987 3817283
-7995.2437 -2764.8669 12465.515 1908773
-7856.8423 -2742.4263 12364.34 6976891
-8308.2422 -2927.376 13198.193 395273
-8641.3389 -3073.7712 13858.223 68365
-8558.9473 -3073.7712 13858.223 260
-7996.3027 -2899.6216 13073.062 518
-8903.9287 -3260.436 14699.808 132101
-7844.7622 -2901.0657 13079.572 10068645
-7651.9946 -2858.1099 12885.904 987923
-7575.3843 -2858.1099 12885.904 265226
-7420.7886 -2828.386 12751.894 257
-7249.9102 -2791.7788 12586.848 514
-7649.2144 -2976.2625 13418.6 771
-9102.5654 -3579.0803 16136.428 593421
-9007.3096 -3579.3503 16137.646 3685948
-8889.832 -3570.7007 16098.648 3554361
-7935.5103 -3222.0762 14526.862 3027505
-7602.4429 -3120.8059 14070.279 197635
-7762.7773 -3222.0762 14526.862 256
-7882.1362 -3308.427 14916.177 329221
-7280.7686 -3090.7842 13934.927 65792
-5951.1206 -2555.4089 11521.164 256
-5708.5151 -2479.7759 11180.17 0
-5555.4282 -2441.7058 11008.53 256
-5510.1421 -2450.6733 11048.96 512
-5390.4849 -2426.3811 10939.438 513
-5295.1724 -2412.5874 10877.248 256
-5230.5039 -2412.5874 10877.248 256
-5202.5303 -2429.7246 10954.513 66304
-5153.8242 -2437.4912 10989.528 197890
-5053.6406 -2420.7983 10914.268 329476
-4989.0859 -2420.9604 10914.998 66049
-4993.3052 -2454.939 11068.192 256
-4991.5874 -2486.8672 11212.142 256
-4983.2319 -2516.3081 11344.877 263683
-5211.7354 -2667.801 12027.889 1579797
-4855.2939 -2519.9199 11361.161 527109
-4700.9585 -2474.24 11155.211 329473
-4635.6768 -2474.7944 11157.711 395267
-4569.3408 -2474.7944 11157.711 256
-4535.2505 -2492.5159 11237.609 197888
-4468.4395 -2492.5159 11237.609 395267
-4401.6289 -2492.5159 11237.609 329475
-4308.1704 -2477.1936 11168.527 66304
-4247.0005 -2480.2478 11182.298 460806
-4227.4922 -2508.1165 11307.945 658441
-4283.3467 -2582.3206 11642.497 855820
-4321.9688 -2648.4023 11940.43 329474
-4351.3364 -2710.9253 12222.317 526853
-4278.6714 -2710.9253 12222.317 790025
-4432.6909 -2857.0322 12881.046 198145
-4424.5088 -2901.8933 13083.304 1120013
-4640.4229 -3097.967 13967.311 725508
-5092.9429 -3462.0237 15608.675 1844500
-5000.145 -3462.0237 15608.675 1845264
-3707.3865 -2615.4785 11791.99 1450506
-3459.8279 -2487.8772 11216.695 2701582
-3393.1416 -2487.8772 11216.695 3424781
-3326.4553 -2487.8772 11216.695 5464613
-3730.7993 -2847.3708 12837.487 6188333
-3490.4934 -2719.6038 12261.444 5596461
-3344.6943 -2661.5913 11999.893 5004333
-3237.0198 -2632.0498 11866.703 4674866
-3284.7183 -2730.3418 12309.856 1252883
-3107.6597 -2642.032 11911.709 1250836
-3595.8809 -3128.3928 14104.486 8422784
-4017.9565 -3579.0591 16136.332 10200471
-3922.2908 -3579.3042 16137.438 6450012
-3826.3491 -3579.3042 16137.438 11318954
-3730.1211 -3579.0293 16136.199 12371136
-3053.113 -3006.7747 13556.166 12107966
-2972.5178 -3006.7747 13556.166 10133151
-3442.2737 -3578.9829 16135.99 2039842
-3346.6763 -3579.3418 16137.607 1118998
-3250.3179 -3578.884 16135.543 2566187
-3119.0464 -3538.7864 15954.763 4539978
-2970.0859 -3475.4751 15669.321 461069
-2828.3657 -3416.8105 15404.828 921881
-2468.9756 -3082.4626 13897.407 5396831
-2047.63 -2644.9338 11924.792 12897235
0 0 0 0
0 0 0 0
0 0 0 0
-2337.1648 -3504.2456 15799.032 13487830
-2290.999 -3578.8586 16135.431 3025717
-1751.2172 -2855.1987 12872.779 2041121
-1545.3903 -2634.7622 11878.932 1382936
-1474.7667 -2634.7622 11878.932 1974303
-1292.6895 -2425.6282 10936.043 2237476
-1227.6716 -2425.6282 10936.043 2500393
0 0 0 0
0 0 0 0
0 0 0 0
0 0 0 0
0 0 0 0
0 0 0 0
0 0 0 0
0 0 0 0
0 0 0 0
0 0 0 0
0 0 0 0
-286.0676 -1550.7462 6991.6025 986891
-247.46211 -1569.5299 7076.2896 1775899
-208.47818 -1593.1165 7182.6299 2302496
-158.06282 -1518.9976 6848.4619 393728
-97.655899 -1264.1083 5699.2837 2169365
-60.352116 -1196.3169 5393.6431 3484709
-28.245583 -1194.6326 5386.0493 788487
3.77598 -1194.6326 5386.0493 1709846
33.060551 -1103.2938 4974.2451 2696999
63.150467 -1112.3945 5015.2759 4933192
97.29277 -1164.1459 5248.5991 4472896
130.44791 -1181.8192 5328.2798 8287863
179.11372 -1305.6514 5886.582 3484977
218.32321 -1331.3368 6002.3857 1446162
262.1152 -1373.8235 6193.939 1051405
299.95648 -1378.4954 6215.0024 1643542
332.30951 -1359.6865 6130.2021 4604482
367.89011 -1356.4966 6115.8198 9603723
376.6344 -1263.8289 5698.0239 9471880
378.14749 -1164.1931 5248.8115 9011072
0 0 0 0
0 0 0 0
0 0 0 0
0 0 0 0
429.6265 -936.3363 4221.5103 985100
454.72452 -936.3363 4221.5103 2432031
478.61298 -933.97589 4210.8682 2366496
494.46899 -916.95459 4134.127 2498594
491.48004 -868.25354 3914.5564 3748660
740.50201 -1249.0327 5631.3145 10196628
831.08832 -1341.1898 6046.8086 10327700
881.5708 -1363.6697 6148.1602 10459285
918.12341 -1363.6697 6148.1602 10590871
954.6759 -1363.6697 6148.1602 10656150
1051.2466 -1446.2389 6520.4268 10457746
1139.6339 -1512.0774 6817.2622 10523537
1180.1646 -1512.0774 6817.2622 10588046
1277.8969 -1582.9333 7136.7192 10194573
1414.9139 -1696.3337 7647.9893 1512212
1702.5586 -1977.6366 8916.2549 1446935
1909.8601 -2151.4453 9699.8789 1646113
2070.8059 -2264.3767 10209.034 2830898
2180.1479 -2316.0559 10442.031 3028533
2270.0476 -2344.7905 10571.584 2765618
2485.4387 -2498.1082 11262.822 3225915
2965.395 -2902.3193 13085.225 857111
3131.5952 -2986.6318 13465.351 922391
3226.6697 -3000.5991 13528.322 1251356
3397.6284 -3082.7375 13898.647 1251356
3627.1663 -3212.8645 14485.329 923161
3931.2678 -3401.47 15335.665 989211
4045.0188 -3420.5608 15421.737 1121053
4113.6172 -3401.47 15335.665 1318433
4100.272 -3316.9185 14954.461 1779495
3275.2393 -2593.2761 11691.891 2108974
3079.3325 -2387.49 10764.096 2833465
3351.1001 -2545.3018 11475.596 3359809
3538.5698 -2634.0654 11875.791 4017989
4860.5952 -3547.3833 15993.521 6649709
4999.6709 -3578.8721 16135.49 2307632
5096.29 -3579.356 16137.672 3754309
5192.522 -3579.5552 16138.569 3689543
5288.4702 -3579.5552 16138.569 4149836
5384.2681 -3579.4551 16138.119 7635580
5480.0547 -3579.3516 16137.651 4147781
5575.9976 -3579.3516 16137.651 5726811
5671.9404 -3579.3516 16137.651 7503991
5767.707 -3579.2422 16137.158 9214352
5863.5488 -3579.1824 16136.889 6053468
5319.7285 -3194.9524 14404.572 10133147
6055.6094 -3579.291 16137.378 13553871
6151.981 -3579.5413 16138.507 13553871
6249.397 -3580.3826 16142.301 13619662
6345.3682 -3580.3826 16142.301 10527391
6176.1538 -3432.9814 15477.736 13553869
6333.2295 -3468.6113 15638.375 13422284
6632.2139 -3579.8074 16139.707 13488077
6728.2856 -3579.8694 16139.987 13487306
6824.2422 -3579.8694 16139.987 11316138
6920.2651 -3579.9041 16140.143 13684942
7015.7368 -3579.6558 16139.023 13619151
6900.6621 -3473.4368 15660.13 13684945
6910.0127 -3431.8406 15472.593 13685457
7036.2056 -3448.6047 15548.175 13553871
7399.3306 -3579.5544 16138.566 13553871
7495.6982 -3579.7546 16139.469 13027527
7591.2271 -3579.5544 16138.566 13619664
7546.5312 -3514.063 15843.296 13554125
7782.5566 -3579.2935 16137.39 13553870
7879.3745 -3579.6919 16139.187 9474197
7974.9355 -3579.5164 16138.395 13553871
8071.4062 -3579.7488 16139.441 13553869
8167.3594 -3579.7488 16139.441 13619663
8263.3135 -3579.7488 16139.441 13619664
8359.0908 -3579.6733 16139.102 13619411
8455.042 -3579.6733 16139.102 13619154
8550.9932 -3579.6733 16139.102 13554385
8646.5977 -3579.5295 16138.454 11185581
8742.8086 -3579.637 16138.938 9081233
8838.4424 -3579.509 16138.361 11251884
8934.3896 -3579.509 16138.361 2435625
9030.5996 -3579.613 16138.831 3159604
9126.5488 -3579.613 16138.831 1251350
9222.2393 -3579.5125 16138.376 2304038
9318.4795 -3579.625 16138.885 2501674
9414.7588 -3579.7498 16139.447 3093811
9510.0879 -3579.5149 16138.389 2764846
9606.7461 -3579.7798 16139.583 856592
9701.9824 -3579.5149 16138.389 659215
9797.0205 -3579.1831 16136.892 921360
9894.3418 -3579.6829 16139.146 3879992
9990.9268 -3579.9099 16140.169 5980237
10086.884 -3579.9099 16140.169 8412525
10183.248 -3580.0527 16140.812 8872819
10278.352 -3579.7539 16139.466 8872819
8610.2158 -2971.0378 13395.045 10584462
8689.8535 -2971.0378 13395.045 10124936
10566.213 -3579.7539 16139.466 5128769
10664.242 -3580.4507 16142.607 1710620
10760.805 -3580.6475 16143.494 2633004
10856.484 -3580.5491 16143.051 3488313
10952.456 -3580.5483 16143.047 2304293
11050.188 -3581.1172 16145.612 2304552
11146.178 -3581.1172 16145.612 2764845
11239.126 -3580.1482 16141.243 988438
11334.788 -3580.053 16140.813 1975077
11431.067 -3580.1523 16141.262 1580577
11527.348 -3580.2507 16141.705 1777444
11623.316 -3580.251 16141.707 3356218
11720.259 -3580.5491 16143.051 460809
11815.906 -3580.45 16142.604 1777957
11910.887 -3580.1514 16141.259 988695
12006.517 -3580.052 16140.81 3159606
12102.479 -3580.052 16140.81 3423292
12198.821 -3580.1638 16141.313 3094329
12295.331 -3580.3228 16142.03 1778980
12390.552 -3580.1064 16141.056 1383965
12486.515 -3580.1064 16141.056 1252895
12581.952 -3579.957 16140.382 2766902
12677.56 -3579.8577 16139.934 5990759
12774.041 -3580.0046 16140.597 4344137
12869.288 -3579.8064 16139.701 4278860
12965.412 -3579.853 16139.913 1581348
13061.369 -3579.853 16139.913 3094848
13157.691 -3579.9531 16140.363 4739929
13254.017 -3580.052 16140.809 1515553
13349.979 -3580.052 16140.81 3886670
13445.944 -3580.053 16140.814 12570573
13542.278 -3580.1514 16141.258 13158859
13637.865 -3580.0522 16140.811 11710902
13733.061 -3579.8528 16139.911 7497329
13829.018 -3579.8528 16139.911 4143427
13924.973 -3579.8528 16139.911 2171179
14021.245 -3579.9331 16140.273 2039595
14116.497 -3579.7539 16139.466 1515304
14212.645 -3579.8025 16139.686 3356737
14310.833 -3580.3618 16142.207 6978173
14406.814 -3580.3645 16142.218 9279127
14502.325 -3580.251 16141.707 1316888
14597.073 -3579.9524 16140.36 2963252
14694.252 -3580.2495 16141.7 2106920
14789.404 -3580.0522 16140.811 2042153
14884.943 -3579.9504 16140.353 1976616
14980.902 -3579.9504 16140.353 2240044
15075.294 -3579.5786 16138.675 2503471
15169.538 -3579.1765 16136.862 2635313
15265.902 -3579.2761 16137.312 2569264
15360.989 -3579.0771 16136.415 2832435
0 0 0 0
15554.002 -3579.3398 16137.599 2963508
15650.379 -3579.4392 16138.047 3292474
0 0 0 0
0 0 0 0
0 0 0 0
0 0 0 0
-9675.1738 -2312.8323 10714.701 132099
-9902.1533 -2382.7798 11038.747 513
-9891.2588 -2396.0383 11100.171 132099
-9770.8965 -2382.7798 11038.747 263431
-9938.9199 -2440.1443 11304.502 197381
-10048.494 -2483.8425 11506.943 263432
-9735.8887 -2423.0679 11225.391 592398
-9911.6699 -2483.8425 11506.943 856597
-10086.446 -2545.2085 11791.234 987928
-9617.5977 -2443.8848 11321.83 857368
-9764.9238 -2498.8101 11576.283 725783
-9721.9551 -2505.4731 11607.151 1054239
-9627.2764 -2498.8101 11576.283 857375
-9045.4922 -2364.71 10955.035 4080720
-8528.0791 -2245.615 10403.302 12898261
-9368.4287 -2484.918 11511.925 12505297
-9299.9863 -2484.918 11511.925 12439247
-9390.2715 -2527.6433 11709.859 12308687
-8896.3916 -2412.5889 11176.845 11059912
-8689.5381 -2374.2266 10999.123 7112589
-8428.4775 -2320.3594 10749.571 10796741
-8286.6475 -2298.7439 10649.434 11718355
-8105.5288 -2265.8127 10496.872 10073785
-7992.5996 -2251.5803 10430.938 11718865
-7552.501 -2144.2383 9933.6514 8825001
-7585.2998 -2170.5229 10055.421 661530
-8014.2495 -2311.4836 10708.453 133390
-8194.0137 -2382.2563 11036.322 265491
-8128.3994 -2382.2563 11036.322 132620
-11789.267 -3483.2939 16137.12 198665
-11693.326 -3483.2939 16137.12 68359
-11597.783 -3483.4133 16137.672 1121813
-11501.106 -3483.1912 16136.643 2372650
-11405.17 -3483.1912 16136.643 596238
-10989.967 -3384.8579 15681.095 397829
-11212.873 -3483.0596 16136.033 661769
-11116.94 -3483.0596 16136.033 4544322
-10216.208 -3228.7124 14957.715 4677452
-9348.1494 -2980.3147 13806.959 6518890
-8333.3877 -2680.3313 12417.221 9941676
-9094.0527 -2951.1333 13671.771 8098960
-8362.4619 -2738.1973 12685.296 4610649
-8287.0449 -2738.1973 12685.296 2698545
-7989.896 -2664.26 12342.767 259
-8465.1758 -2848.9089 13198.193 790547
-7921.1328 -2690.7561 12465.515 4871508
-8308.2422 -2848.9089 13198.193 7109240
-8641.3389 -2991.3804 13858.223 198149
-8558.9473 -2991.3804 13858.223 2107178
-7996.3027 -2821.8987 13073.062 330252
-8498.0215 -3028.3909 14029.682 260
-8038.3174 -2892.9639 13402.287 3
-7756.1289 -2819.3525 13061.266 259
-7584.2695 -2784.762 12901.018 724495
-7507.5688 -2784.762 12901.018 790545
-7249.9102 -2716.9465 12586.848 258
-7512.9404 -2844.8831 13179.542 258
-7569.437 -2896.4849 13418.6 256
-7772.4019 -3005.8301 13925.165 513
-8889.832 -3474.9895 16098.648 329735
-8332.2715 -3292.4902 15253.181 3422520
-7602.4429 -3037.1541 14070.279 330246
-7212.9204 -2913.5999 13497.888 264454
-7132.6714 -2913.5999 13497.888 0
-6178.9043 -2552.7192 11826.029 256
-5816.3638 -2430.5986 11260.279 256
-5644.4492 -2386.2224 11054.696 256
-5555.4282 -2376.2571 11008.53 256
-5513.0029 -2386.2224 11054.696 256
-5390.0557 -2361.155 10938.566 257
-5298.2383 -2349.2786 10883.546 256
-5234.3511 -2349.646 10885.248 256
-5175.2803 -2352.2119 10897.135 512
-5126.5215 -2359.5889 10931.311 197890
-5053.6406 -2355.9099 10914.268 66560
-5007.8774 -2364.9419 10956.109 256
-5012.7861 -2398.4565 11111.373 256
-4976.1748 -2412.7351 11177.522 256
-4938.8188 -2427.0342 11243.766 66304
-5025.4849 -2503.509 11598.052 197888
-4788.6572 -2418.7166 11205.233 263681
-4700.9585 -2407.9192 11155.211 132096
-4635.6768 -2408.4587 11157.711 66304
-4535.6768 -2390.7148 11075.509 512
-4527.3521 -2421.481 11218.039 263681
-4460.6582 -2421.481 11218.039 395267
-4401.6289 -2425.7053 11237.609 329475
-4308.1704 -2410.7935 11168.527 512
-4286.3242 -2436.1155 11285.837 263683
-4227.4922 -2440.8877 11307.945 329476
-4283.3467 -2513.1028 11642.497 592648
-4321.9688 -2577.4133 11940.43 592645
-4351.3364 -2638.2603 12222.317 724232
-4493.0396 -2770.4417 12834.676 658695
-4432.6909 -2780.4507 12881.046 263681
-4424.5088 -2824.1094 13083.304 593416
-4895.5347 -3180.6763 14735.178 923146
-4988.6885 -3300.2566 15289.16 725509
-4897.79 -3300.2566 15289.16 265728
-3853.3586 -2645.5916 12256.281 1779470
-3566.707 -2495.9851 11563.195 1516810
-3393.1416 -2421.1909 11216.695 3491611
-3326.4553 -2421.1909 11216.695 4084001
-3575.6238 -2655.792 12303.536 4873265
-3589.001 -2721.4009 12607.483 2306838
-3431.0896 -2657.1562 12309.856 529666
-3357.9041 -2657.1562 12309.856 3160362
-3510.7705 -2840.0198 13157.012 1252366
-3064.1492 -2535.2139 11744.932 791814
-4113.853 -3483.0911 16136.18 6055764
-4018.1416 -3483.2844 16137.075 1976086
-3922.2908 -3483.3628 16137.438 4871483
-3826.3491 -3483.3628 16137.438 4410679
-3730.2869 -3483.2498 16136.916 3752755
-3247.5339 -3112.5173 14419.417 1119500
-3538.468 -3483.3069 16137.181 9344147
-3442.7285 -3483.5103 16138.122 3290937
-3346.6763 -3483.3992 16137.607 988182
-3191.2188 -3419.6245 15842.157 1119255
-3119.0464 -3443.9312 15954.763 329224
-2919.9519 -3325.2244 15404.828 198156
-2804.4197 -3297.0715 15274.404 329742
-2468.9756 -2999.8386 13897.407 2106159
-2262.6853 -2844.3799 13177.211 1578788
0 0 0 0
0 0 0 0
-2431.0945 -3410.3157 15799.032 6253177
-2386.9285 -3482.9294 16135.431 4475220
-2243.2354 -3410.3157 15799.032 2698291
-1696.6643 -2692.1069 12471.773 394764
-1558.3593 -2585.657 11978.62 1974050
-1500.9309 -2609.6294 12089.678 855568
-1271.2128 -2321.3914 10754.353 723982
0 0 0 0
0 0 0 0
0 0 0 0
0 0 0 0
0 0 0 0
0 0 0 0
0 0 0 0
0 0 0 0
0 0 0 0
0 0 0 0
0 0 0 0
0 0 0 0
0 0 0 0
0 0 0 0
0 0 0 0
0 0 0 0
0 0 0 0
-57.324886 -1105.8519 5123.1006 5064499
-28.442572 -1170.7192 5423.6123 655873
3.8550518 -1186.9569 5498.8369 459009
36.547169 -1186.9569 5498.8369 524546
67.160332 -1151.3177 5333.731 787975
98.87085 -1151.3177 5333.731 1182988
131.54724 -1159.8339 5373.1836 1116939
178.89259 -1269.0852 5879.3145 1182732
214.1111 -1270.6539 5886.582 1182734
262.1152 -1336.9988 6193.939 3419440
299.95648 -1341.5454 6215.0024 525318
350.03491 -1393.8226 6457.1875 2301986
388.42468 -1393.8226 6457.1875 3749173
377.06598 -1231.3619 5704.5527 6248793
374.43234 -1121.8562 5197.2437 9077635
370.31708 -1024.9453 4748.2827 10985119
0 0 0 0
0 0 0 0
0 0 0 0
429.6265 -911.23828 4221.5103 7498348
454.72452 -911.23828 4221.5103 1576978
480.53152 -912.58459 4227.7476 2169116
494.46899 -892.37604 4134.127 2169886
515.89612 -886.95795 4109.0264 2301985
547.0694 -898.02832 4160.3125 7959924
782.58514 -1229.0647 5693.9106 6971746
865.42407 -1302.8097 6035.5508 8090224
923.52405 -1334.9237 6184.3257 8155505
966.63751 -1343.7452 6225.1934 8747898
1125.2784 -1506.5916 6979.6143 9273985
1165.4789 -1504.9189 6971.8657 10392209
1180.1646 -1471.5469 6817.2622 10063501
1268.2173 -1528.835 7082.6621 9998734
1373.4552 -1602.4919 7423.894 592649
1621.6538 -1833.1696 8492.5586 3224884
1755.5682 -1924.6271 8916.2549 2699567
2068.2107 -2200.9197 10196.24 2371372
2168.6611 -2242.0994 10387.015 2568750
2242.2288 -2253.9751 10442.031 2568751
2379.4116 -2327.4365 10782.358 2700336
2552.3992 -2431.1477 11262.822 1976359
3026.114 -2808.6748 13011.799 1054746
3103.4729 -2808.6748 13011.799 1317405
3150.4248 -2781.8257 12887.415 988441
3652.4839 -3148.5696 14586.437 856598
3953.332 -3328.8743 15421.737 856855
4182.1079 -3441.6931 15944.395 1252126
4276.9019 -3441.6931 15944.395 2371120
4371.6958 -3441.6931 15944.395 1647397
3478.6367 -2680.4941 12417.975 1911081
3079.3325 -2323.4944 10764.096 1976871
3217.8413 -2378.5735 11019.262 2305837
3283.3542 -2378.5735 11019.262 2503986
3822.6355 -2715.0737 12578.172 2372658
4955.6812 -3452.2976 15993.521 3096382
5095.8213 -3483.0925 16136.187 3030591
5192.2681 -3483.4363 16137.78 2636087
5288.3223 -3483.5095 16138.119 2899259
5383.7783 -3483.1929 16136.651 3228480
5479.9082 -3483.3154 16137.22 3820104
5575.9976 -3483.4087 16137.651 4345932
5671.9404 -3483.4087 16137.651 7964031
5767.707 -3483.3022 16137.158 11253681
5863.5532 -3483.2463 16136.899 5069652
4936.7964 -2885.4944 13367.683 11713205
5140.646 -2957.0381 13699.125 12896710
6007.375 -3401.7095 15759.162 13158855
6248.4556 -3483.887 16139.868 12961732
6343.3237 -3483.2896 16137.1 13554125
6438.7217 -3482.9968 16135.742 13159625
6535.1973 -3483.2869 16137.087 12436412
6632.2139 -3483.8525 16139.707 12633536
6728.4722 -3484.0093 16140.435 12501181
6824.4458 -3484.0171 16140.47 13487820
6919.5942 -3483.6086 16138.578 13619149
6854.8823 -3403.8315 15768.993 13750735
6830.1001 -3345.7673 15499.999 13684945
6899.5254 -3334.7827 15449.11 13619664
7302.1729 -3483.0291 16135.894 13619661
7400.8057 -3484.3005 16141.783 12764352
7496.4648 -3484.1572 16141.119 13224904
7591.6523 -3483.8008 16139.469 13553870
7687.1772 -3483.6069 16138.569 13488077
7782.5566 -3483.3523 16137.39 10593697
7880.0547 -3484.0405 16140.578 4738632
7976.0146 -3484.0405 16140.578 12043205
8071.7261 -3483.9331 16140.081 10197658
8167.1509 -3483.7061 16139.028 10395294
8263.6182 -3483.9233 16140.036 12960967
8359.2783 -3483.8 16139.464 13619410
8455.043 -3483.7219 16139.104 13750740
8550.9932 -3483.7217 16139.102 11383218
8646.502 -3483.5432 16138.275 9738393
8742.5459 -3483.582 16138.454 10265506
8838.249 -3483.4858 16138.008 2632233
8933.7041 -3483.2944 16137.122 4213062
9030.1455 -3483.4883 16138.021 3160631
9126.292 -3483.5652 16138.376 3423545
9222.2393 -3483.5652 16138.376 2172709
9318.3223 -3483.6157 16138.611 1910818
9414.2705 -3483.6157 16138.611 2766128
9509.4629 -3483.3389 16137.328 8753297
9606.0352 -3483.5679 16138.389 9015448
9701.9824 -3483.5679 16138.389 8292493
0 0 0 0
0 0 0 0
9990.9248 -3483.9517 16140.167 13422032
10086.884 -3483.9521 16140.169 14540000
10182.842 -3483.9521 16140.169 4539461
8982.6592 -3044.6313 14104.919 11252660
8610.2158 -2891.4006 13395.045 12698052
8689.8535 -2891.4006 13395.045 13553359
10566.212 -3483.8 16139.465 13158857
10662.166 -3483.8 16139.465 12238012
10761.109 -3484.7683 16143.95 1447959
10857.09 -3484.7683 16143.95 2831409
10952.361 -3484.543 16142.906 2173477
11048.307 -3484.5339 16142.864 2107941
11144.281 -3484.5339 16142.864 1186585
11240.067 -3484.4761 16142.596 529426
11335.414 -3484.2834 16141.705 1976359
11433.61 -3484.9631 16144.853 4542289
11528.071 -3484.5024 16142.719 1251869
11624.288 -3484.5757 16143.057 725523
11720.259 -3484.574 16143.051 6582899
11815.581 -3484.3816 16142.158 9082519
11910.887 -3484.1873 16141.259 8491152
12006.517 -3484.0903 16140.81 4938329
12102.475 -3484.0891 16140.805 9808558
12197.762 -3483.8967 16139.913 9475735
12295.082 -3484.2832 16141.703 1712674
12390.707 -3484.1873 16141.258 1778982
12486.672 -3484.1873 16141.258 1976617
12582.207 -3484.0684 16140.707 3425347
12676.567 -3483.6284 16138.67 3689551
12772.517 -3483.6284 16138.67 10993088
12868.93 -3483.7539 16139.252 10398899
12965.772 -3483.9934 16140.36 10727864
13061.197 -3483.8511 16139.701 7567233
13156.988 -3483.8079 16139.501 8422284
13253.315 -3483.9055 16139.954 1511457
13349.982 -3484.0913 16140.814 2636096
13445.944 -3484.0913 16140.814 5859692
13541.907 -3484.0913 16140.814 12175045
13637.866 -3484.0911 16140.812 13423059
13732.479 -3483.7493 16139.229 13357523
13828.362 -3483.7314 16139.146 12962252
13924.313 -3483.7314 16139.146 12172738
14020.542 -3483.8 16139.465 12895176
14116.664 -3483.8413 16139.656 13948379
14212.619 -3483.8418 16139.657 6049369
14310.023 -3484.1946 16141.293 6845305
14406.804 -3484.3921 16142.207 9148058
14501.952 -3484.1946 16141.293 6713719
14597.073 -3483.9934 16140.36 4805465
14693.326 -3484.0632 16140.683 5332322
14788.984 -3483.9917 16140.353 3424067
14884.943 -3483.9917 16140.353 3226942
14980.902 -3483.9917 16140.353 5135197
15076.405 -3483.8867 16139.865 4806487
15169.979 -3483.3394 16137.33 4214350
15265.92 -3483.3394 16137.33 2898232
15361.633 -3483.2881 16137.092 3029818
15457.573 -3483.2881 16137.092 3160890
15554.376 -3483.4812 16137.988 4542541
15652.116 -3483.8811 16139.84 3029817
0 0 0 0
0 0 0 0
0 0 0 0
0 0 0 0
-9536.8008 -2216.9639 10561.461 263685
-9902.1533 -2317.1511 11038.747 66049
-10247.929 -2414.064 11500.433 513
-10146.668 -2406.2646 11463.277 256
-10304.05 -2460.1118 11719.801 256
-10312.256 -2478.833 11808.987 197892
-10242.048 -2478.833 11808.987 131846
-10025.873 -2443.2615 11639.527 263431
-9956.6729 -2443.2615 11639.527 461838
-9839.8574 -2431.4954 11583.475 527374
-9550.2852 -2376.5732 11321.83 593426
-9702.123 -2431.4954 11583.475 1251104
-9627.2764 -2429.9858 11576.283 1251619
-9162.5068 -2329.3274 11096.753 593689
-8947.8389 -2291.2515 10915.362 5859187
-9232.667 -2381.4583 11345.102 11781834
-9093.9092 -2362.9302 11256.834 12111826
-9087.8057 -2378.8506 11332.679 11980496
-8991.001 -2371.0896 11295.706 9482680
-8764.7188 -2328.8093 11094.286 3097423
-8774.8047 -2349.168 11191.273 5465971
-8632.8018 -2328.8093 11094.286 8231583
-8064.1162 -2192.1484 10443.242 7507600
-7733.042 -2118.46 10092.195 6125944
-7933.2568 -2190.303 10434.451 793626
-8234.376 -2291.3574 10915.867 860448
-10260.354 -2877.8015 13709.646 2054
-11375.885 -3216.2329 15321.909 68105
-11310.939 -3223.6853 15357.411 133899
-11788.887 -3387.2454 16136.602 594706
-11692.353 -3387.0723 16135.776 1796
-10789.704 -3151.4468 15013.273 199943
-11343.053 -3340.7046 15914.885 1056532
-11405.17 -3387.2539 16136.643 1386006
-11309.234 -3387.2544 16136.645 464647
-10215.128 -3085.7324 14700.215 2241570
-10652.459 -3245.6074 15461.848 464903
-10560.534 -3245.6074 15461.848 332034
-10436.066 -3235.5183 15413.784 463110
-10344.428 -3235.5183 15413.784 1977119
-10733.508 -3387.2212 16136.486 461831
-10636.981 -3387.0332 16135.59 7109238
-10541.051 -3387.0332 16135.59 5070687
-9008.2646 -2921.1047 13915.939 3030335
-8950.2402 -2929.1919 13954.466 4805975
-8756.1758 -2892.4907 13779.624 1121309
-8692.1455 -2898.4575 13808.05 329736
-8610.0527 -2898.4575 13808.05 1647396
-8603.5098 -2924.1353 13930.376 1515298
-8158.085 -2799.696 13337.557 1975331
-7968.3018 -2761.4067 13155.149 1028
-7733.3638 -2706.5549 12893.839 258
-7484.7212 -2645.7603 12604.217 256
-7878.9565 -2813.2837 13402.287 256
-7961.4678 -2871.7878 13680.997 3685178
-8249.3721 -3006.3523 14322.053 256
-7692.7769 -2832.7493 13495.02 256
-7612.5454 -2832.7493 13495.02 132099
-7236.5015 -2721.5002 12965.037 132099
-6792.9507 -2582.1946 12301.395 256
-6719.8159 -2582.1946 12301.395 66306
-7445.1392 -2892.3906 13779.147 329475
-7020.8506 -2757.9031 13138.459 197890
-6307.9019 -2505.7231 11937.091 197890
-5964.5684 -2396.2993 11415.804 256
-5832.3916 -2370.1665 11291.309 66048
-5725.021 -2353.6233 11212.497 66305
-5597.2119 -2328.1885 11091.328 256
-5531.271 -2328.1885 11091.328 256
-5362.9438 -2284.5728 10883.546 512
-5286.3076 -2279.4287 10859.039 512
-5213.1611 -2275.6804 10841.183 132097
-5148.707 -2275.6804 10841.183 66304
-5087.9355 -2277.3284 10849.034 256
-5054.1079 -2291.2336 10915.277 256
-5007.8774 -2299.8047 10956.109 256
-4942.7402 -2299.8047 10956.109 256
-4887.4648 -2304.4548 10978.262 256
-4822.1963 -2304.4548 10978.262 256
-4747.793 -2300.0295 10957.181 66304
-4669.5054 -2293.5735 10926.424 0
-4617.5059 -2300.0295 10957.181 256
-4552.4058 -2300.0513 10957.284 256
-4540.2739 -2327.2241 11086.733 66304
-4550.3438 -2366.7451 11275.009 131840
-4479.2529 -2364.603 11264.804 132096
-4420.519 -2369.0181 11285.837 329474
-4357.5361 -2371.2571 11296.503 263683
-4290.375 -2371.2571 11296.503 263683
-4302.7109 -2415.8928 11509.146 526855
-4297.4741 -2451.9451 11680.896 658441
-4228.7671 -2452.3738 11682.938 66304
-4339.1895 -2558.4336 12188.2 0
-4266.7275 -2558.4336 12188.2 461060
-4570.9019 -2788.176 13282.677 132352
-4662.1035 -2893.8022 13785.873 856587
-4680.7632 -2957.3755 14088.731 922891
-4498.8276 -2894.218 13787.853 462597
-4376.1445 -2867.5413 13660.768 791818
-3853.3586 -2572.7246 12256.281 922890
-3742.9961 -2547.2078 12134.721 528643
-3670.8516 -2547.2078 12134.721 595206
-3590.9736 -2541.7339 12108.644 1516307
-3518.9846 -2541.7339 12108.644 1121292
-3611.4504 -2662.9995 12686.344 1318415
-3557.9651 -2679.5215 12765.054 791817
-3482.0732 -2679.5215 12765.054 1646869
-3468.8435 -2728.8154 12999.886 1844250
-3391.5554 -2728.8154 12999.886 6844760
-4114.3145 -3387.5366 16137.989 4345891
-4018.3701 -3387.5374 16137.992 6714195
-3922.4246 -3387.5366 16137.989 7701100
-3826.2373 -3387.3223 16136.968 8162164
-3730.4705 -3387.478 16137.71 5858642
-3634.6599 -3387.6021 16138.3 3357487
-3538.468 -3387.3669 16137.181 1778203
-3442.2891 -3387.1321 16136.061 528142
-3014.562 -3051.2952 14536.158 527632
-2781.0044 -2897.9709 13805.731 921877
-3032.9487 -3256.6279 15514.35 856085
-2940.7114 -3256.6279 15514.35 855829
-2804.4197 -3206.261 15274.404 132107
-2606.2036 -3079.356 14669.838 198156
-2562.9941 -3133.1523 14926.12 198413
-2647.3203 -3352.3064 15970.155 779
-2579.1436 -3387.4673 16137.657 198415
-2483.2253 -3387.5002 16137.816 1843496
-2387.2043 -3387.3906 16137.294 7764611
-2291.0554 -3387.083 16135.827 4408908
-1629.5756 -2514.4407 11978.62 5659231
-1547.1261 -2496.3157 11892.274 2567728
-1476.4232 -2496.3157 11892.274 197894
0 0 0 0
0 0 0 0
0 0 0 0
0 0 0 0
0 0 0 0
0 0 0 0
0 0 0 0
0 0 0 0
0 0 0 0
0 0 0 0
0 0 0 0
0 0 0 0
0 0 0 0
0 0 0 0
0 0 0 0
0 0 0 0
0 0 0 0
0 0 0 0
0 0 0 0
-28.442572 -1138.4742 5423.6123 327936
3.8292198 -1146.5302 5461.9902 327937
34.133774 -1078.0427 5135.7207 459524
63.16946 -1053.0768 5016.7842 722696
96.465569 -1092.3701 5203.9751 328194
131.54724 -1127.8888 5373.1836 1972505
169.17737 -1167.1084 5560.0229 1116939
207.79236 -1199.1904 5712.8599 985609
266.91226 -1323.9691 6307.2964 2828070
315.82236 -1373.6007 6543.7383 525573
354.72672 -1373.6007 6543.7383 1051918
388.42468 -1355.4327 6457.1875 1051918
416.90378 -1323.9595 6307.2505 525063
398.63724 -1161.4812 5533.2153 525321
405.33139 -1090.957 5197.2437 590602
398.54694 -996.71539 4748.2827 459270
416.40192 -972.48535 4632.8525 459526
441.18173 -966.43121 4604.0107 722953
447.63245 -923.27905 4398.437 986125
465.10483 -906.36871 4317.8774 1051407
488.62158 -902.39026 4298.9243 1511701
501.78683 -880.64038 4195.3096 2103579
522.95874 -874.33661 4165.2788 2169629
532.17212 -849.51337 4047.0227 1644055
536.33344 -819.12189 3902.2395 11116963
583.78143 -854.61957 4071.3481 9208965
842.18604 -1183.8229 5639.6499 9669770
965.26099 -1304.8739 6216.3286 8683131
1078.2294 -1403.8386 6687.7896 8551289
1165.4789 -1463.4692 6971.8657 8419446
1213.7612 -1471.7544 7011.3354 8485752
1270.626 -1489.5503 7096.1138 8026488
1312.8143 -1489.5503 7096.1138 921358
1721.9017 -1892.8813 9017.5547 2435112
1901.672 -2027.3792 9658.293 923157
2068.2107 -2140.3 10196.24 1515551
2168.6611 -2180.3455 10387.015 1910566
2288.8132 -2237.4329 10658.975 857621
2413.8015 -2296.0447 10938.196 989207
2508.1467 -2323.1975 11067.552 2107688
2604.3679 -2350.6553 11198.358 659218
2719.667 -2393.5347 11402.633 790804
2780.1819 -2387.2861 11372.865 790805
3401.9309 -2851.8127 13585.837 659219
3739.2043 -3061.8491 14586.437 923161
3745.3247 -2997.3457 14279.146 1055004
3830.218 -2997.3457 14279.146 1318432
4163.854 -3187.7791 15186.357 1055259
4515.937 -3383.9517 16120.91 1055515
4444.0679 -3260.8904 15534.655 1516323
4084.5208 -2936.0505 13987.141 1911081
3283.3542 -2313.061 11019.262 2306353
3387.4958 -2339.7422 11146.369 2635574
4432.1772 -3002.5652 14304.011 2635573
4517.2183 -3002.5652 14304.011 2174511
4964.873 -3239.1377 15431.027 3358270
4835.1553 -3097.2766 14755.21 3885640
5383.7783 -3387.2559 16136.651 3359553
5479.7153 -3387.2559 16136.651 4543827
5575.8486 -3387.375 16137.22 8227462
5671.6763 -3387.3079 16136.899 12898251
5767.2944 -3387.1201 16136.004 9672853
0 0 0 0
3892.0747 -2212.2117 10538.822 12107705
4500.5435 -2517.53 11993.338 13488846
4966.7217 -2734.9714 13029.214 13423053
5811.4438 -3150.9819 15011.059 12501951
6342.6934 -3387.0134 16135.496 8752005
6438.9009 -3387.1592 16136.191 9476752
6534.8345 -3387.1592 16136.191 9410960
6632.4126 -3387.999 16140.191 11383469
6728.3765 -3388.002 16140.206 13554126
6824.4458 -3388.0574 16140.47 13619662
6880.8823 -3368.708 16048.29 13685199
6854.8823 -3310.0806 15768.993 13553869
7071.7056 -3368.708 16048.29 13619152
7206.2661 -3387.1086 16135.95 13619664
7303.854 -3387.8765 16139.607 13685457
7400.501 -3388.1936 16141.119 12764355
7496.4639 -3388.1934 16141.117 13487821
7592.2046 -3388.0938 16140.643 10134431
7687.5571 -3387.8259 16139.367 6714996
7782.0083 -3387.1721 16136.252 3292987
7878.9497 -3387.605 16138.315 2900029
7975.0273 -3387.6609 16138.58 2438965
8071.1997 -3387.7549 16139.028 3162432
8168.0557 -3388.1306 16140.817 6189167
8264.0176 -3388.1306 16140.817 6976887
8359.7441 -3388.0349 16140.363 13554643
8455.2324 -3387.8462 16139.464 5723219
8550.1396 -3387.4319 16137.489 8752788
8646.0811 -3387.4319 16137.489 2566952
8743.0508 -3387.8303 16139.388 3554362
8837.9971 -3387.4441 16137.549 3686974
8933.6172 -3387.322 16136.966 2765873
9030.1455 -3387.5435 16138.021 2501931
9126.7695 -3387.7954 16139.221 2107172
9222.1182 -3387.5735 16138.164 2107683
9317.4189 -3387.3391 16137.047 2437163
9413.4746 -3387.3811 16137.247 4213838
9509.541 -3387.426 16137.461 8556435
9606.2822 -3387.708 16138.805 11384510
9702.6445 -3387.8518 16139.49 10002856
9798.8535 -3387.9402 16139.911 12239560
9895.3613 -3388.1292 16140.811 8684939
9991.877 -3388.3167 16141.705 2303521
10088.124 -3388.4111 16142.154 3422775
10184.095 -3388.4111 16142.154 3753282
10278.922 -3388.0347 16140.361 7109750
10374.881 -3388.0347 16140.361 9609889
10470.548 -3387.9402 16139.911 9210768
10566.213 -3387.8467 16139.466 13619148
10662.166 -3387.8467 16139.466 1513750
10759.315 -3388.2234 16141.26 1975069
10856.045 -3388.4619 16142.397 1383448
10951.155 -3388.1956 16141.128 1515547
11047.118 -3388.1956 16141.128 2173477
11143.082 -3388.1956 16141.128 1778975
11238.821 -3388.1279 16140.806 2107682
11335.416 -3388.3174 16141.708 2239268
11431.384 -3388.3179 16141.71 2306089
11527.352 -3388.3179 16141.71 2305835
11623.318 -3388.3179 16141.71 7569790
11719.61 -3388.4119 16142.158 2831155
11815.255 -3388.3186 16141.713 2372144
11910.555 -3388.1287 16140.809 3358526
12006.851 -3388.2231 16141.259 3754057
12102.479 -3388.1287 16140.81 3819590
12197.676 -3387.9165 16139.799 7964549
12293.629 -3387.9158 16139.795 923415
12389.587 -3387.9165 16139.799 1845289
12485.324 -3387.8574 16139.517 5596518
12581.585 -3387.9402 16139.911 5728104
12676.839 -3387.7522 16139.016 5137508
12772.352 -3387.636 16138.462 6583929
12868.299 -3387.6362 16138.463 11913162
12964.333 -3387.6587 16138.569 10662325
13060.281 -3387.6587 16138.569 13028304
13154.762 -3387.2803 16136.769 13488086
13251.453 -3387.4731 16137.687 12830153
13350.347 -3388.2224 16141.255 10592940
13446.312 -3388.2224 16141.255 11777468
13541.899 -3388.1282 16140.807 10132903
13636.349 -3387.7527 16139.018 12963275
13533.169 -3338.6267 15904.986 13357780
13549.149 -3319.376 15813.276 13554386
13924.203 -3387.7527 16139.018 13488851
14020.542 -3387.8467 16139.465 13619412
14116.664 -3387.8867 16139.657 13685205
14212.619 -3387.8867 16139.657 11841718
14308.831 -3387.948 16139.948 4209218
14405.064 -3388.0132 16140.258 6383727
14501.022 -3388.0132 16140.258 3686470
14597.38 -3388.1057 16140.699 9542564
14693.799 -3388.2112 16141.201 4278095
14789.302 -3388.1057 16140.699 3356734
14885.718 -3388.2092 16141.192 3488831
14981.327 -3388.1292 16140.811 6120295
15076.872 -3388.0354 16140.364 6120294
15173.044 -3388.083 16140.592 5396055
15269.006 -3388.083 16140.592 8027773
15364.966 -3388.083 16140.592 4210755
0 0 0 0
0 0 0 0
0 0 0 0
0 0 0 0
0 0 0 0
0 0 0 0
0 0 0 0
-9536.8008 -2154.1729 10561.461 461064
-9760.2158 -2219.2495 10880.519 790029
-10214.819 -2338.1123 11463.277 263428
-10179.556 -2345.6907 11500.433 66306
-10244.762 -2376.6799 11652.366 329478
-10315.811 -2409.4556 11813.059 197892
-10436.812 -2454.428 12033.549 131589
-10245.934 -2426.1699 11895.006 197638
-9956.6729 -2374.061 11639.527 198407
-9839.8574 -2362.6284 11583.475 329994
-9343.0332 -2259.1482 11076.133 330253
-9702.123 -2362.6284 11583.475 791060
-9815.4258 -2407.3066 11802.523 1909030
-9745.2568 -2407.3066 11802.523 2501424
-9076.3262 -2258.3259 11072.102 4344401
-9021.666 -2261.125 11085.824 10596021
-8748.5547 -2208.8105 10829.338 8689052
-8678.1084 -2207.2686 10821.777 11586768
-8502.8086 -2178.835 10682.373 6454916
