# .PCD v0.7 - Point Cloud Data file format
VERSION 0.7
FIELDS x y z rgb
SIZE 4 4 4 4
TYPE F F F U
COUNT 1 1 1 1
WIDTH 1420
HEIGHT 1
VIEWPOINT 0 0 0 1 0 0 0
POINTS 1420
DATA ascii
-9243.8848 -1602.8428 12653.009 0
-9292.3652 -1624.4688 12823.726 0
-9307.3428 -1640.5471 12950.651 0
-9610.207 -1708.0612 13483.613 0
-9930.3008 -1779.7988 14049.918 0
-9340.0898 -1688.2166 13326.959 256
-9308.4756 -1696.8972 13395.484 256
-9381.3955 -1724.9484 13616.923 256
-9420.3418 -1747.1866 13792.475 256
-9499.1025 -1777.2648 14029.914 512
-9503.0508 -1793.7544 14160.085 256
-9522.9883 -1813.584 14316.621 256
-9456.5527 -1817.1736 14344.959 256
-9437.9648 -1830.1068 14447.054 256
-9425.2168 -1844.4203 14560.046 256
-9263.1602 -1829.5099 14442.343 256
-9017.7617 -1797.7065 14191.283 256
-8534.8838 -1717.5133 13558.229 256
-8387.665 -1703.9808 13451.403 256
-8231.6514 -1688.3844 13328.282 256
-7897.8979 -1635.674 12912.181 256
-7654.1626 -1600.7546 12636.525 256
-7552.2314 -1595.0936 12591.836 256
-7416.9385 -1582.2024 12490.071 256
-7341.7544 -1582.0027 12488.494 512
-7207.5552 -1568.9523 12385.473 512
-7214.9556 -1586.7743 12526.162 512
-7140.4844 -1586.7743 12526.162 512
-7066.0132 -1586.7743 12526.162 132352
-7169.4336 -1627.1479 12844.877 263937
-6956.8467 -1595.899 12598.194 329729
-6778.4741 -1571.9041 12408.775 395523
-6881.9116 -1613.451 12736.751 263936
-6806.188 -1613.451 12736.751 512
-6730.4644 -1613.451 12736.751 256
-6628.7222 -1607.1427 12686.952 512
-6524.8013 -1600.1548 12631.789 256
-6491.2451 -1610.4617 12713.152 256
-6435.709 -1615.4938 12752.877 256
-6457.2134 -1640.2156 12948.032 66304
-6115.7354 -1572.2189 12411.26 197888
-6041.9473 -1572.2189 12411.26 256
-6605.6353 -1740.1521 13736.942 256
-7663.9053 -2044.2107 16137.214 855818
-7567.9648 -2044.2107 16137.214 263427
-6344.582 -1735.7628 13702.293 256
-6050.3584 -1676.7987 13236.824 256
-5860.5215 -1645.5912 12990.469 256
-5675.688 -1614.9739 12748.773 256
-5599.8926 -1614.9739 12748.773 256
-5702.543 -1667.1426 13160.598 256
-5257.0425 -1558.281 12301.233 256
-5183.9082 -1558.281 12301.233 256
-5278.1455 -1609.3129 12704.084 256
-5240.6025 -1621.0632 12796.842 512
-5080.6343 -1594.7321 12588.981 256
-5042.2915 -1606.3608 12680.781 256
-5031.7598 -1627.3372 12846.369 256
-4961.9048 -1629.4784 12863.272 256
-4974.6587 -1659.24 13098.214 197633
-4981.9062 -1688.0823 13325.897 263681
-4902.6802 -1688.0823 13325.897 66048
-4917.8081 -1721.1039 13586.573 512
-4847.4243 -1724.8014 13615.763 132608
-5124.7422 -1854.4443 14639.178 132352
-5553.127 -2044.1765 16136.943 725515
-5457.188 -2044.1765 16136.943 66562
-5361.2495 -2044.1765 16136.943 768
-5188.1299 -2014.2124 15900.402 1282
-4965.6523 -1963.6174 15501.002 199171
-5015.1611 -2020.6974 15951.597 2633512
-4915.6938 -2018.7957 15936.584 1580823
-4856.0942 -2033.514 16052.773 593673
-4564.7207 -1949.8203 15392.086 396036
-4180.3145 -1822.1504 14384.245 922380
-4080.5276 -1815.8009 14334.123 922888
-3995.3074 -1815.8009 14334.123 1055236
-3871.8513 -1798.0448 14193.954 4609072
-4007.8608 -1902.675 15019.915 2963731
-3703.0776 -1798.0448 14193.954 3752996
-3956.6399 -1965.9642 15519.527 922884
-4018.4639 -2044.3572 16138.369 528640
-3916.136 -2041.0315 16112.116 791301
-3821.1733 -2041.4741 16115.61 2305557
-3725.3616 -2041.4741 16115.61 2832667
-3631.0757 -2042.3323 16122.385 3293216
-3533.7412 -2041.476 16115.625 5596486
-3442.584 -2044.2399 16137.443 4674871
-3342.1174 -2041.476 16115.625 3819053
-3250.7642 -2044.2799 16137.759 5068871
-2238.7891 -1450.7041 11452.01 4410432
-1945.4723 -1300.1796 10263.754 527111
0 0 0 0
0 0 0 0
0 0 0 0
0 0 0 0
0 0 0 0
0 0 0 0
0 0 0 0
0 0 0 0
0 0 0 0
0 0 0 0
0 0 0 0
0 0 0 0
0 0 0 0
0 0 0 0
0 0 0 0
0 0 0 0
0 0 0 0
0 0 0 0
0 0 0 0
0 0 0 0
0 0 0 0
0 0 0 0
0 0 0 0
0 0 0 0
0 0 0 0
-121.77168 -441.10327 3482.1155 1443592
-101.06953 -441.10327 3482.1155 458752
-81.658539 -448.18988 3538.0576 1708814
-64.766396 -478.81595 3779.8232 1314821
-47.392529 -536.53333 4235.4502 1247747
-22.951813 -554.41357 4376.5991 984835
3.1725042 -573.24457 4525.2524 854277
31.234566 -595.31891 4699.5098 1774607
61.953564 -623.27783 4920.2202 1445385
103.09433 -704.52234 5561.5728 1380363
148.06102 -766.10413 6047.7061 2103057
184.01633 -766.10413 6047.7061 2300697
221.27361 -770.63861 6083.5015 525313
279.91846 -837.92151 6614.6401 459522
316.35385 -830.33484 6554.7505 1118225
377.99976 -883.32532 6973.0625 1
430.45068 -906.47772 7155.8296 328454
473.48242 -907.41364 7163.2178 262917
543.11823 -954.97333 7538.6592 1512984
592.25787 -961.99054 7594.0537 394759
636.74091 -960.98578 7586.1226 920845
680.25812 -958.75269 7568.4941 1971477
725.25488 -958.75269 7568.4941 1901318
747.17535 -930.02899 7341.7461 2031618
757.65881 -891.02582 7033.8511 2032390
749.00983 -834.77948 6589.8369 1246470
788.18823 -834.77948 6589.8369 393216
827.36658 -834.77948 6589.8369 393732
793.61078 -764.51886 6035.1919 131072
762.41217 -702.6936 5547.1367 459268
736.6933 -650.8363 5137.77 853769
0 0 0 0
0 0 0 0
676.39374 -531.45697 4195.377 459268
701.33636 -531.45697 4195.377 327681
708.87231 -518.71954 4094.8262 853769
712.97498 -504.39899 3981.7786 788746
736.27264 -504.14218 3979.7512 789002
0 0 0 0
0 0 0 0
0 0 0 0
0 0 0 0
1975.4653 -1165.391 9199.7178 1514264
2249.2195 -1291.1394 10192.389 526857
2332.239 -1303.6733 10291.334 131842
2405.7339 -1310.3784 10344.265 460809
2525.4563 -1341.3014 10588.374 1
2704.3564 -1401.3859 11062.687 2
2885.2046 -1459.6027 11522.256 513
2861.5908 -1414.0823 11162.913 987665
2920.5898 -1410.5239 11134.823 790286
2945.8506 -1391.1904 10982.202 132356
3450.8059 -1594.3209 12585.736 131842
3803.5598 -1720.0024 13577.879 197892
4422.5645 -1958.3588 15459.488 132099
4633.8491 -2010.1425 15868.275 132357
4806.9971 -2043.6464 16132.758 527114
4823.6841 -2010.6229 15872.067 527628
4947.4048 -2022.6245 15966.811 264713
5042.3315 -2022.6245 15966.811 659984
5014.1646 -1974.1603 15584.228 792081
5106.8169 -1974.1603 15584.228 857874
5178.1606 -1966.0696 15520.358 2371878
5357.873 -1998.6877 15777.851 2766890
5451.6768 -1998.6877 15777.851 2306594
4566.1841 -1645.7324 12991.583 6057052
3908.3672 -1385.2123 10935.011 2174750
4645.4414 -1619.509 12784.573 3425074
5056.0679 -1734.2867 13690.642 3819831
4095.8264 -1382.6549 10914.822 9542808
3916.1577 -1301.3846 10273.267 13094860
3977.2351 -1301.3846 10273.267 11185322
6136.9873 -1977.7026 15612.191 13356749
6439.0195 -2044.119 16136.489 13553871
6526.6128 -2041.5094 16115.889 13619664
6402.3203 -1973.657 15580.255 13619664
6384.9473 -1940.2301 15316.379 13619407
6637.7266 -1988.6816 15698.86 11120298
6919.6611 -2044.4032 16138.733 5725528
7016.2295 -2044.5839 16140.158 11582651
7112.188 -2044.5839 16140.158 13488335
7208.3125 -2044.6312 16140.532 14079958
7303.6108 -2044.4462 16139.071 11250859
7399.8086 -2044.5139 16139.607 10987943
7495.7407 -2044.5081 16139.56 13422797
7592.2207 -2044.6498 16140.679 12436158
7687.7793 -2044.5426 16139.833 11646639
7783.7344 -2044.5426 16139.833 6120796
7879.4243 -2044.4736 16139.288 2633510
7974.9614 -2044.3669 16138.446 2041373
8070.4951 -2044.2622 16137.619 1712408
8166.2329 -2044.2107 16137.214 1712409
8261.8652 -2044.1348 16136.614 1843996
8287.4482 -2026.9276 16000.779 4080704
8293.2646 -2005.3317 15830.298 132868
8549.252 -2044.0333 16135.813 198917
8645.2451 -2044.0482 16135.93 1185555
8741.9561 -2044.2299 16137.365 593161
8837.627 -2044.1675 16136.872 396039
8933.5361 -2044.1608 16136.818 1777692
9029.3652 -2044.1362 16136.625 988176
9125.4111 -2044.1608 16136.818 329990
9221.6885 -2044.2358 16137.412 132099
9317.3877 -2044.1829 16136.993 513
9413.3271 -2044.1829 16136.993 132611
9509.2656 -2044.1829 16136.993 527882
9605.6113 -2044.2694 16137.677 1449238
9701.6992 -2044.2999 16137.917 1251859
9799.6748 -2044.7238 16141.263 1581593
9895.3965 -2044.6736 16140.867 2172961
9991.083 -2044.6173 16140.423 1449238
10086.645 -2044.5366 16139.786 593675
10182.133 -2044.4427 16139.045 396296
10278.653 -2044.5562 16139.939 593675
10374.609 -2044.5562 16139.939 396555
10470.096 -2044.4641 16139.214 1054999
10565.934 -2044.442 16139.04 5068625
10661.857 -2044.4369 16138.999 5792606
10757.949 -2044.4636 16139.21 3423800
10854.245 -2044.5284 16139.721 396038
10950.2 -2044.5284 16139.721 1383700
11045.704 -2044.4447 16139.061 923917
11140.069 -2044.1539 16136.765 660489
11235.059 -2043.9813 16135.402 594696
11330.988 -2043.9813 16135.402 529413
11426.918 -2043.9813 16135.402 726793
11520.572 -2043.5778 16132.217 793096
11619.35 -2044.0822 16136.198 858888
11716.906 -2044.3651 16138.433 1121804
11812.854 -2044.3651 16138.433 1253388
11908.575 -2044.3265 16138.127 792837
12003.853 -2044.2126 16137.229 793349
12099.793 -2044.2126 16137.229 1056777
12196.326 -2044.312 16138.013 1385486
12292.538 -2044.3566 16138.364 1451536
12388.73 -2044.397 16138.684 1188107
12484.765 -2044.4109 16138.793 1319950
12580.714 -2044.4109 16138.793 1517074
12677.738 -2044.5842 16140.161 1319954
12773.961 -2044.6266 16140.495 1386007
12870.638 -2044.7402 16141.394 6255464
12966.602 -2044.7402 16141.394 4870474
13061.894 -2044.6349 16140.562 857104
13155.686 -2044.2981 16137.902 725260
13251.479 -2044.2749 16137.719 593161
13347.422 -2044.2749 16137.719 856847
13443.621 -2044.3135 16138.024 790799
13539.755 -2044.3422 16138.25 725007
13636.146 -2044.4089 16138.778 527627
13733.764 -2044.6572 16140.737 659726
13829.028 -2044.5541 16139.924 725519
13924.984 -2044.5541 16139.924 263942
14020.94 -2044.5541 16139.924 726031
14116.263 -2044.4622 16139.198 726031
14211.245 -2044.3228 16138.098 726544
14307.19 -2044.3228 16138.098 1187350
14403.652 -2044.396 16138.676 3292981
14500.521 -2044.5255 16139.698 2766892
14596.711 -2044.5586 16139.959 1648665
14692.608 -2044.5504 16139.895 2701865
14787.864 -2044.4536 16139.13 2701863
14883.762 -2044.4462 16139.071 2504738
14979.768 -2044.4536 16139.13 2570531
15075.77 -2044.4603 16139.184 2109980
15171.722 -2044.4603 16139.184 1912858
15267.673 -2044.4603 16139.184 1517588
15362.233 -2044.2753 16137.723 2175776
15458.173 -2044.2747 16137.718 2306337
15553.386 -2044.1788 16136.961 2043165
15649.325 -2044.1788 16136.961 2503205
0 0 0 0
0 0 0 0
0 0 0 0
0 0 0 0
-9813.835 -1312.1418 10868.261 0
-9761.1152 -1313.7427 10881.521 512
-9696.4209 -1313.7427 10881.521 724488
-9686.6387 -1321.2324 10943.557 724232
-10086.494 -1385.0747 11472.353 1185039
-10482.938 -1449.3148 12004.443 395267
-10806.756 -1504.3258 12460.09 131840
-10732.677 -1504.3258 12460.09 329474
-11031.641 -1556.9761 12896.184 526853
-10367.188 -1473.4375 12204.247 592646
-10346.933 -1480.9235 12266.252 790024
-11479.781 -1654.7271 13705.84 131840
-10807.24 -1568.9216 12995.127 658440
-10360.781 -1514.9379 12547.988 329476
-9883.7666 -1455.6708 12057.089 66048
-10011.036 -1485.1863 12301.561 197890
-9694.4238 -1448.7996 12000.176 132097
-9922.1201 -1493.8217 12373.086 461062
-9860.54 -1495.639 12388.139 132097
-9727.9648 -1486.6342 12313.553 0
-9654.7578 -1486.6342 12313.553 256
-9659.3662 -1498.7079 12413.558 512
-9707.5664 -1517.783 12571.554 461318
-9632.8252 -1517.783 12571.554 263170
-9314.3262 -1479.0753 12250.944 131584
-9243.1572 -1479.3419 12253.152 328963
-9186.4414 -1481.9445 12274.709 131584
-9132.4863 -1485.0376 12300.329 0
-9173.6191 -1503.7676 12455.467 0
-9377.7734 -1549.743 12836.274 0
-9429.8926 -1571.142 13013.518 65792
-9681.8682 -1626.4689 13471.782 0
-9700.8848 -1643.2574 13610.839 0
-10402.678 -1776.9586 14718.264 0
-11308.434 -1948.0638 16135.502 256
-9497.1768 -1650.0425 13667.038 256
-9415.9219 -1650.0425 13667.038 256
-9450.0186 -1670.4323 13835.924 256
-9523.8301 -1698.2625 14066.437 256
-9537.4678 -1715.7604 14211.368 256
-9504.4395 -1725.1007 14288.734 256
-9456.5527 -1731.8889 14344.959 256
-9350.2734 -1728.0089 14312.822 256
-9129.0781 -1702.6251 14102.572 256
-8872.124 -1670.0398 13832.673 256
-8789.0488 -1669.8807 13831.356 256
-8590.8125 -1647.6324 13647.076 256
-8509.6777 -1647.6324 13647.076 256
-8373.6699 -1636.9059 13558.229 256
-7925.5288 -1564.3612 12957.354 256
-7813.1479 -1557.316 12899 256
-7810.7119 -1572.2627 13022.801 256
-8452.1797 -1718.4214 14233.41 256
-8399.4805 -1724.9772 14287.71 256
-7685.0415 -1594.3789 13205.986 512
-7606.5278 -1594.3789 13205.986 512
-7575.3501 -1604.4043 13289.024 512
-7402.3911 -1584.2961 13122.471 198144
-7324.374 -1584.2961 13122.471 198144
-6845.2559 -1496.6018 12396.114 66304
-6763.5874 -1494.8403 12381.523 198144
-6546.3164 -1462.7404 12115.645 256
-6630.9263 -1498.1305 12408.775 512
-6598.7217 -1507.6277 12487.439 66304
-6563.0142 -1516.5319 12561.191 329729
-6566.8281 -1534.8784 12713.152 256
-6513.8262 -1540.2178 12757.378 256
-6446.6533 -1542.2928 12774.564 256
-6483.7383 -1569.6571 13001.22 256
-6386.8105 -1564.8473 12961.379 256
-6483.5913 -1607.9602 13318.477 256
-6585.4248 -1653.408 13694.914 256
-6769.4873 -1720.8972 14253.916 256
-6982.9263 -1797.6603 14889.732 263426
-6553.4453 -1708.7584 14153.373 256
-6454.8301 -1704.9365 14121.718 256
-6140.1855 -1643.2014 13610.374 256
-5892.9653 -1598.1022 13236.824 256
-5727.6792 -1574.3021 13039.693 256
-5732.9043 -1597.3588 13230.667 256
-5349.7842 -1511.3469 12518.245 256
-5275.3599 -1511.3469 12518.245 256
-5348.0977 -1554.1108 12872.452 256
-5432.8643 -1601.663 13266.318 263424
-5273.9038 -1577.7042 13067.872 256
-5196.2114 -1577.7042 13067.872 256
-5171.6499 -1594.0809 13203.518 256
-5165.0571 -1616.5862 13389.926 66048
-5161.9019 -1640.889 13591.222 263936
-5081.0981 -1640.889 13591.222 512
-5010.2466 -1644.1548 13618.272 395522
-4966.3008 -1656.5022 13720.544 263936
-5009.1968 -1698.712 14070.16 132608
-4942.0596 -1704.4072 14117.333 256
-4743.165 -1664.074 13783.259 66817
-4762.6157 -1700.2728 14083.088 132867
-5049.0449 -1834.7852 15197.232 768
-4958.6934 -1834.7852 15197.232 395525
-4749.3198 -1789.9281 14825.688 593161
-4793.0264 -1840.5592 15245.058 395526
-4915.6938 -1924.0481 15936.584 66305
-4856.5146 -1938.2438 16054.163 66561
-4782.5073 -1946.9714 16126.454 132865
-4665.6216 -1938.2438 16054.163 197632
-4145.5806 -1758.17 14562.642 198657
-4161.9131 -1802.7466 14931.862 594178
-4201.0757 -1859.3704 15400.868 2240016
-4294.6226 -1943.1241 16094.587 2372111
-4202.2344 -1944.6508 16107.231 1713929
-4110.0967 -1946.3669 16121.445 1318406
-4014.5737 -1946.5239 16122.746 791048
-3722.5022 -1849.0579 15315.451 256
-3714.802 -1891.5001 15666.994 659206
-3540.3931 -1849.0579 15315.451 2042388
-3472.9805 -1861.7314 15420.424 3161889
-3439.1184 -1893.5651 15684.097 3359519
-3442.8413 -1948.4438 16138.649 2043665
-3252.6257 -1893.5651 15684.097 3951147
-3207.8481 -1922.6146 15924.71 3556141
-2051.3677 -1266.8719 10493.298 6253658
0 0 0 0
0 0 0 0
0 0 0 0
0 0 0 0
0 0 0 0
0 0 0 0
0 0 0 0
0 0 0 0
0 0 0 0
0 0 0 0
0 0 0 0
0 0 0 0
0 0 0 0
0 0 0 0
0 0 0 0
0 0 0 0
0 0 0 0
0 0 0 0
0 0 0 0
0 0 0 0
0 0 0 0
0 0 0 0
0 0 0 0
0 0 0 0
0 0 0 0
-149.89758 -442.30661 3663.5549 1443334
-128.11673 -442.30661 3663.5549 1443335
-107.79063 -448.35773 3713.6753 720896
-87.025276 -455.22852 3770.585 2364945
-65.125473 -458.8739 3800.7793 1971213
-48.87281 -527.32428 4367.7427 458752
-23.168156 -533.37421 4417.853 655616
3.217355 -554.06451 4589.2275 721923
32.239948 -585.64191 4850.7783 590080
63.231297 -606.27698 5021.6953 1445128
98.384583 -640.78241 5307.4985 1116679
148.93738 -734.47046 6083.5015 1708814
187.73083 -744.88745 6169.7837 2762017
231.47812 -768.34216 6364.0557 459778
282.28427 -805.34528 6670.5464 657158
332.19962 -831.00348 6883.0693 131074
397.03915 -884.27246 7324.2871 196611
441.1543 -885.41693 7333.7666 525063
491.81345 -898.30823 7440.5435 196610
557.76001 -934.69049 7741.8916 196610
609.8761 -944.11566 7819.959 262146
633.92383 -911.83209 7552.5596 459267
678.82587 -911.83209 7552.5596 1575180
723.72791 -911.83209 7552.5596 1639687
765.34119 -907.9306 7520.2437 1245185
790.8241 -886.38025 7341.7461 1442564
834.47278 -886.38025 7341.7461 786946
860.32098 -868.41223 7192.9199 1511698
903.08478 -868.41223 7192.9199 722953
913.84625 -839.02972 6949.5493 789002
0 0 0 0
0 0 0 0
0 0 0 0
0 0 0 0
0 0 0 0
0 0 0 0
721.07971 -502.88824 4165.3428 459011
750.83875 -506.25601 4193.2378 788232
775.76868 -506.25601 4193.2378 788488
0 0 0 0
0 0 0 0
0 0 0 0
0 0 0 0
0 0 0 0
2282.7349 -1248.8789 10344.265 526857
2365.6641 -1260.2955 10438.826 1118994
2444.7737 -1269.1455 10512.13 921615
2626.1401 -1329.3154 11010.507 1316373
2844.2229 -1404.6918 11634.837 329222
2827.7539 -1363.3998 11292.822 257
2887.502 -1359.9189 11263.991 395271
2810.689 -1293.7378 10715.823 0
2749.55 -1237.5453 10250.39 66049
3290.1858 -1448.7693 11999.925 132099
3843.5325 -1656.5057 13720.573 526857
4406.6504 -1859.7316 15403.859 1316373
4498.2305 -1859.7316 15403.859 66306
4589.8105 -1859.7316 15403.859 66820
4822.5317 -1915.8013 15868.275 198406
4880.043 -1901.4509 15749.413 264199
4959.5747 -1896.0592 15704.756 462090
5014.9648 -1881.808 15586.716 791309
5106.8169 -1881.5076 15584.228 1515543
3811.0195 -1379.0758 11422.665 1252623
0 0 0 0
0 0 0 0
3985.4827 -1369.0216 11339.388 2701089
4393.436 -1484.0513 12292.159 2306584
4606.9834 -1530.7229 12678.733 3688489
3910.4575 -1278.3776 10588.598 4279109
3699.3247 -1190.1954 9858.1992 13488843
3757.9346 -1190.1954 9858.1992 7633011
3816.5442 -1190.1954 9858.1992 12632769
4006.0801 -1230.4075 10191.269 12238011
6439.1079 -1948.21 16136.711 13553871
6535.0449 -1948.21 16136.711 13488078
6630.8916 -1948.1832 16136.489 13488078
6726.9023 -1948.2051 16136.671 13488334
6822.8604 -1948.2108 16136.719 7633014
6919.9033 -1948.5222 16139.298 5134165
7015.9131 -1948.5381 16139.429 7371384
7111.8662 -1948.5381 16139.429 1250573
7207.6592 -1948.4945 16139.069 6977125
7303.5566 -1948.4802 16138.95 7437927
7399.7036 -1948.5321 16139.38 9608589
7495.6812 -1948.5385 16139.433 7108202
7591.6353 -1948.5385 16139.433 9081995
7687.8032 -1948.5929 16139.883 2567719
7783.8662 -1948.6196 16140.105 2897453
7878.416 -1948.2716 16137.223 1712409
7973.9097 -1948.1626 16136.319 1186322
8069.8452 -1948.1626 16136.319 725001
8165.9292 -1948.1982 16136.614 527623
8261.8652 -1948.1982 16136.614 725001
8357.3457 -1948.0918 16135.732 527625
8453.2773 -1948.0918 16135.732 987919
8549.208 -1948.0918 16135.732 790797
8585.6016 -1934.6755 16024.607 66306
8687.2197 -1936.09 16036.324 592648
8722.2607 -1922.7972 15926.222 922383
8893.8857 -1939.576 16065.199 527625
8989.3984 -1939.576 16065.199 396039
9124.8652 -1948.1062 16135.853 197892
9221.0703 -1948.1638 16136.33 396039
9317.7021 -1948.3097 16137.538 592905
9413.6445 -1948.3097 16137.538 1281
9510.5254 -1948.502 16139.131 264452
9606.4004 -1948.4863 16139.002 1186066
9702.416 -1948.4994 16139.108 1251859
9798.835 -1948.5923 16139.879 1317652
9894.791 -1948.5923 16139.879 2041375
9990.8643 -1948.6151 16140.068 1120019
10086.821 -1948.6151 16140.068 396296
10183.039 -1948.6652 16140.481 922642
10279.125 -1948.6891 16140.68 1845027
10374.858 -1948.6464 16140.326 5398108
10470.601 -1948.6061 16139.992 5860716
10566.399 -1948.5769 16139.751 6780779
10662.354 -1948.5769 16139.751 8162702
10757.241 -1948.3834 16138.148 10333355
10853.701 -1948.4758 16138.913 5132878
10950.095 -1948.5546 16139.565 1054991
11045.711 -1948.4948 16139.071 1055247
11138.927 -1948.0165 16135.109 660489
11232.712 -1947.6451 16132.033 529159
11327.4 -1947.4352 16130.294 463366
11412.243 -1945.5502 16114.682 463110
11508.005 -1945.5427 16114.619 529160
11603.811 -1945.5427 16114.619 660488
11714.452 -1948.0096 16135.053 594695
11808.388 -1947.6812 16132.332 792329
11907.153 -1948.1481 16136.199 726536
12000.211 -1947.6812 16132.332 660742
12099.662 -1948.2512 16137.054 660743
12196.033 -1948.3203 16137.625 660999
12292.773 -1948.4467 16138.672 923659
12390.224 -1948.683 16140.629 660745
12486.228 -1948.6895 16140.684 528134
12582.611 -1948.7549 16141.226 1121300
12678.109 -1948.6835 16140.634 858390
12773.54 -1948.6027 16139.965 1976101
12869.585 -1948.6158 16140.074 6121322
12965.454 -1948.6027 16139.965 5266529
13060.87 -1948.5221 16139.297 5002332
13156.379 -1948.4564 16138.754 4805207
13252.559 -1948.4902 16139.034 3094588
13348.726 -1948.5217 16139.294 857368
13444.687 -1948.5228 16139.304 4016971
13540.63 -1948.5217 16139.294 6450029
13636.06 -1948.4468 16138.674 5857890
13731.972 -1948.4417 16138.63 395785
13829.726 -1948.6959 16140.737 1450786
13923.722 -1948.421 16138.46 6912889
14019.722 -1948.4282 16138.52 1118992
14116.613 -1948.5587 16139.6 1712668
14212.568 -1948.5587 16139.6 331527
14309.392 -1948.6772 16140.581 989714
14405.353 -1948.6772 16140.581 3555897
14501.001 -1948.6353 16140.233 1121810
14596.843 -1948.6196 16140.105 1319445
14692.45 -1948.5734 16139.722 2108702
14786.491 -1948.321 16137.632 1714199
14881.828 -1948.2417 16136.975 1583381
14977.768 -1948.2417 16136.975 1451283
15072.193 -1948.0463 16135.355 1188367
15168.094 -1948.0424 16135.324 1056526
15264.263 -1948.073 16135.578 1056269
15360.433 -1948.1035 16135.83 1451029
15456.374 -1948.1047 16135.84 1845787
15553.386 -1948.24 16136.961 1647896
15649.325 -1948.24 16136.961 1516568
0 0 0 0
0 0 0 0
0 0 0 0
0 0 0 0
-9825.8086 -1249.049 10881.521 0
-9816.2881 -1256.109 10943.026 329220
-9790.4131 -1261.1566 10987 256
-9740.9443 -1263.2123 11004.909 592647
-10022.535 -1308.5182 11399.606 724743
-10357.868 -1361.505 11861.221 592901
-10667.798 -1411.8563 12299.873 855816
-10732.677 -1430.2471 12460.09 921866
-11046.359 -1482.2798 12913.391 395267
-10367.188 -1400.8798 12204.247 197634
-10346.933 -1407.9972 12266.252 256
-11479.781 -1573.2419 13705.84 256
-11398.296 -1573.2419 13705.84 256
-10453.337 -1453.2035 12660.083 0
-10360.837 -1450.7904 12639.061 263683
-10011.036 -1412.05 12301.561 66048
-9826.7578 -1396.2582 12163.984 66048
-9922.1201 -1420.2603 12373.086 66304
-9998.2285 -1441.8441 12561.122 592649
-9806.9707 -1424.9058 12413.558 263683
-9727.1201 -1424.0203 12405.843 512
-9912.127 -1462.192 12738.389 132097
-9855.7334 -1465.0669 12763.435 198146
-9694.377 -1452.2622 12651.883 328707
-9227.0791 -1393.0677 12136.189 0
-9171.6426 -1395.6115 12158.35 0
-9110.1758 -1397.2706 12172.805 65792
-9163.2822 -1416.6698 12341.807 65792
-9151.6133 -1426.287 12425.59 0
-9476.7705 -1488.9822 12971.781 0
-9449.7549 -1496.9193 13040.928 0
-9695.2793 -1548.5173 13490.442 0
-9817.3232 -1581.0897 13774.207 0
-11407.008 -1852.5632 16139.243 921100
-11309.732 -1852.3464 16137.354 512
-11212.504 -1852.1339 16135.502 256
-9414.5498 -1568.5593 13665.045 66304
-9450.0186 -1588.174 13835.924 256
-9367.7598 -1588.174 13835.924 256
-9164.9883 -1567.5616 13656.353 256
-9419.1582 -1625.4337 14160.525 256
-9334.9697 -1625.4337 14160.525 256
-9128.5605 -1603.9584 13973.437 256
-8879.0928 -1574.4537 13716.396 256
-8674.5234 -1552.437 13524.59 256
-8671.9482 -1566.4967 13647.076 256
-8590.8125 -1566.4967 13647.076 256
-8511.2354 -1566.7836 13649.574 256
-8390.1201 -1559.3558 13584.866 256
-7895.875 -1481.7612 12908.873 256
-7774.9243 -1473.3844 12835.896 256
-7963.9351 -1524.1628 13278.27 256
-8508.2109 -1644.6306 14327.766 256
-8457.7344 -1651.4071 14386.802 256
-7831.9746 -1544.8481 13458.477 256
-7715.9575 -1537.6733 13395.971 256
-7603.8896 -1531.144 13339.089 256
-7443.2847 -1514.6007 13194.966 256
-7322.9585 -1505.9882 13119.935 256
-6866.3037 -1427.2786 12434.229 256
-6581.5859 -1382.9847 12048.349 66048
-6509.9551 -1382.9847 12048.349 512
-6672.9624 -1433.3865 12487.439 512
-6637.6943 -1441.8522 12561.191 512
-6691.2124 -1470.0164 12806.554 768
-6569.5615 -1459.9026 12718.444 132352
-6513.8262 -1464.3717 12757.378 256
-6445.4844 -1466.0785 12772.248 256
-6402.833 -1473.7394 12838.988 256
-6454.9419 -1503.6589 13099.644 66304
-6483.5913 -1528.7781 13318.477 256
-6455.1084 -1540.8802 13423.909 256
-6600.3677 -1595.2783 13897.817 256
-6684.7432 -1636.1536 14253.916 256
-6614.2026 -1639.6746 14284.589 256
-6524.1865 -1638.3961 14273.452 256
-6385.1538 -1624.6127 14153.373 256
-5929.8799 -1528.9233 13319.742 256
-5630.3359 -1471.3395 12818.08 256
-5822.5293 -1542.4413 13437.509 256
-5425.3906 -1457.2299 12695.16 256
-5173.7788 -1409.2535 12277.197 256
-5348.0977 -1477.5806 12872.452 256
-5432.8643 -1522.791 13266.318 256
-5285.1914 -1503.2224 13095.84 256
-5207.3325 -1503.2224 13095.84 256
-5244.6641 -1536.9794 13389.926 256
-5233.3198 -1557.2926 13566.891 256
-5169.4219 -1562.3582 13611.021 256
-5081.5991 -1560.2393 13592.562 256
-5025.1978 -1567.8552 13658.911 256
-5007.1626 -1587.8882 13833.435 0
-5025.9912 -1620.4757 14117.333 256
-5084.6938 -1667.2448 14524.777 256
-5553.3359 -1852.369 16137.551 512
-5457.0757 -1852.261 16136.609 132867
-5270.1279 -1820.8171 15862.675 256
-5032.2632 -1770.3147 15422.706 1646873
-4883.6621 -1749.923 15245.058 67329
-4793.0264 -1749.923 15245.058 1450263
-4670.6187 -1738.0999 15142.057 2831401
-4851.7319 -1840.9824 16038.352 4608327
-4782.5073 -1851.0953 16126.454 595723
-4565.3359 -1803.1869 15709.084 724745
-4471.9409 -1803.1869 15709.084 396289
-4292.6382 -1767.8081 15400.868 199680
-4201.0757 -1767.8081 15400.868 2305553
-4293.5439 -1846.9734 16090.545 1319426
-4198.9355 -1847.4373 16094.587 1977357
-4110.0967 -1850.5203 16121.445 1713165
-4014.5737 -1850.6697 16122.746 67584
-3601.1584 -1700.697 14816.208 1280
-3021.0281 -1462.496 12741.037 593415
-2890.2024 -1435.1473 12502.78 461829
-2767.2517 -1410.3683 12286.909 132609
-2561.4941 -1340.8977 11681.692 396293
-2621.1533 -1410.3683 12286.909 2107421
-2395.7468 -1326.0388 11552.244 461828
-2327.0654 -1326.0388 11552.244 1054733
-2037.3705 -1196.2678 10421.699 1316626
0 0 0 0
0 0 0 0
0 0 0 0
0 0 0 0
0 0 0 0
0 0 0 0
0 0 0 0
0 0 0 0
0 0 0 0
0 0 0 0
0 0 0 0
0 0 0 0
0 0 0 0
0 0 0 0
0 0 0 0
0 0 0 0
0 0 0 0
0 0 0 0
0 0 0 0
0 0 0 0
0 0 0 0
0 0 0 0
0 0 0 0
0 0 0 0
0 0 0 0
-150.43266 -422.02689 3676.6326 1443334
-127.90191 -419.82062 3657.4121 1114626
-109.44245 -432.81134 3770.585 655360
-87.025276 -432.81134 3770.585 3878436
-65.388496 -438.03925 3816.1296 1050884
-49.433521 -507.1088 4417.853 721665
-23.352877 -511.15201 4453.0767 655616
3.1248574 -511.63556 4457.2896 524801
30.912739 -533.88104 4651.0884 984323
63.911823 -582.62537 5075.7412 1971473
97.689629 -604.92462 5270.0088 327936
143.56949 -673.13464 5864.2441 1248522
193.64203 -730.5061 6364.0557 2432795
232.32076 -733.16534 6387.2222 590849
291.27783 -790.08179 6883.0693 65536
339.2496 -806.84906 7029.1436 131072
397.03915 -840.72748 7324.2871 262148
441.52731 -842.5274 7339.9678 590856
491.90137 -854.22485 7441.874 131073
557.76001 -888.66278 7741.8916 854541
609.8761 -897.62378 7819.959 393733
623.6687 -852.90552 7430.3804 1642516
667.84442 -852.90552 7430.3804 1444107
723.72791 -866.92999 7552.5596 917505
795.87256 -897.65656 7820.2446 1114113
810.05115 -863.22058 7520.2437 1311492
854.76111 -863.22058 7520.2437 459266
861.77686 -827.04553 7205.0923 196608
904.6131 -827.04553 7205.0923 723210
913.84625 -797.71271 6949.5493 920845
899.80786 -751.48224 6546.7964 722696
0 0 0 0
0 0 0 0
0 0 0 0
0 0 0 0
0 0 0 0
721.07971 -478.12411 4165.3428 327681
768.47632 -492.63269 4291.7393 656902
794.96667 -493.23749 4297.0083 722437
791.87335 -476.02087 4147.02 722694
0 0 0 0
0 0 0 0
0 0 0 0
0 0 0 0
2227.7979 -1158.8036 10095.316 0
2335.3203 -1182.8644 10304.931 513
2431.9277 -1200.3077 10456.895 132099
2593.3232 -1248.0614 10872.917 513
2714.2471 -1274.4885 11103.146 461064
2820.5344 -1292.9514 11263.991 1316373
2887.502 -1292.9514 11263.991 256
2810.689 -1230.0292 10715.823 256
2749.55 -1176.6039 10250.39 0
3227.4648 -1351.1686 11771.17 131840
3791.6143 -1553.6591 13535.236 1119249
4091.0266 -1641.5087 14300.567 1185041
4176.0474 -1641.5087 14300.567 198403
4125.5879 -1589.3169 13845.881 132356
4207.9053 -1589.3169 13845.881 264199
4447.0361 -1647.4083 14351.966 329992
4922.2979 -1789.1406 15586.716 462344
5014.9648 -1789.1406 15586.716 1778716
4946.1333 -1732.5697 15093.877 2634533
0 0 0 0
0 0 0 0
0 0 0 0
3880.4995 -1267.3198 11040.692 2372119
4315.2783 -1385.8702 12073.486 3096097
4387.0586 -1385.8702 12073.486 3360036
3746.0837 -1164.3358 10143.513 9149075
3587.9565 -1097.5194 9561.418 3028784
3563.7285 -1073.1067 9348.7383 9082764
3601.625 -1067.8634 9303.0596 7766909
3396.2974 -991.75452 8640.0117 10791334
6439.1079 -1852.2727 16136.711 12764356
6535.1133 -1852.292 16136.879 12961480
6630.9824 -1852.2727 16136.711 11580341
6706.4517 -1846.6367 16087.611 11777974
6822.8398 -1852.2679 16136.671 11777714
6919.8745 -1852.5618 16139.23 6447961
7015.8267 -1852.5618 16139.23 3884854
7111.7075 -1852.5433 16139.069 4477241
7207.6602 -1852.5437 16139.072 4806707
7303.4487 -1852.5024 16138.713 4477744
7399.3984 -1852.5024 16138.713 3162142
7495.4492 -1852.5277 16138.934 1713682
7591.6353 -1852.585 16139.433 1845783
7687.8032 -1852.6368 16139.883 3753271
7783.9175 -1852.6746 16140.212 1120784
7877.9756 -1852.2277 16136.319 725771
7973.9097 -1852.2277 16136.319 462086
8070.6055 -1852.4021 16137.84 1185811
8166.7109 -1852.439 16138.159 1120019
8262.6738 -1852.4426 16138.191 593675
8358.3848 -1852.3904 16137.737 922640
8454.251 -1852.3737 16137.592 1843742
8509.6846 -1843.5974 16061.134 2304293
8380.0312 -1795.3625 15640.919 988176
8465.8057 -1793.8339 15627.602 462089
8311.6445 -1742.0498 15176.467 67074
8372.9521 -1736.0535 15124.227 198660
8844.4844 -1814.3368 15806.22 396039
9084.9111 -1844.0641 16065.199 593418
9203.8623 -1848.7723 16106.218 659722
9317.8418 -1852.3953 16137.779 1646873
9414.0527 -1852.4479 16138.238 1317652
9510.9756 -1852.6381 16139.895 725515
9606.4775 -1852.5504 16139.131 527623
9702.4287 -1852.5504 16139.131 462087
9798.835 -1852.6362 16139.879 2830891
9894.791 -1852.6362 16139.879 3159345
9990.0713 -1852.511 16138.787 2041118
10086.821 -1852.658 16140.068 396038
10183.039 -1852.7053 16140.481 461833
10279.34 -1852.7668 16141.017 988181
10374.885 -1852.6924 16140.368 1515295
10470.817 -1852.6875 16140.326 3818565
10566.345 -1852.6121 16139.668 9409687
10662.076 -1852.5732 16139.33 7896701
10757.124 -1852.4174 16137.972 7567989
10853.068 -1852.4174 16137.972 1779226
10949.133 -1852.4376 16138.148 1713430
11043.064 -1852.0997 16135.205 1121294
11137.8 -1851.9015 16133.477 923661
11232.489 -1851.699 16131.713 528903
11327.394 -1851.5349 16130.283 331526
11412.243 -1849.744 16114.682 528135
11508.005 -1849.7368 16114.619 397317
11603.811 -1849.7368 16114.619 463110
11704.921 -1850.5754 16121.925 331524
11795.431 -1849.738 16114.63 397317
11904.299 -1851.7699 16132.332 726282
11999.902 -1851.7225 16131.918 660489
12097.774 -1852.0231 16134.537 397317
12197.356 -1852.5785 16139.376 68867
12293.445 -1852.5991 16139.555 1252886
12389.544 -1852.6206 16139.742 1845792
12486.601 -1852.7839 16141.166 6057313
12582.744 -1852.8105 16141.397 0
12678.109 -1852.723 16140.634 7639182
0 0 0 0
0 0 0 0
12964.736 -1852.5437 16139.072 7372682
13060.688 -1852.5437 16139.072 8096660
13156.379 -1852.5071 16138.754 11912142
13252.559 -1852.5393 16139.034 11912398
13348.726 -1852.5692 16139.294 11780042
13444.687 -1852.5703 16139.304 6647675
13540.639 -1852.5703 16139.304 6384500
13636.022 -1852.4928 16138.63 7240826
13731.593 -1852.4418 16138.185 5464415
13827.537 -1852.4418 16138.185 2635566
13923.565 -1852.4526 16138.279 2767151
14019.529 -1852.455 16138.299 2570026
14116.306 -1852.5637 16139.247 2898990
14212.568 -1852.6042 16139.6 2438438
14308.522 -1852.6042 16139.6 3622970
14405.042 -1852.6769 16140.233 2702121
14501.001 -1852.6769 16140.233 2109214
14596.561 -1852.6263 16139.793 1715225
14691.277 -1852.4703 16138.433 2109469
14786.491 -1852.3784 16137.632 1780503
14881.594 -1852.2738 16136.721 1583382
14976.122 -1852.0995 16135.203 1188110
15071.861 -1852.0763 16135 1187855
15167.826 -1852.0809 16135.04 924429
15264.052 -1852.1169 16135.355 726539
15360.192 -1852.1426 16135.578 989454
15445.861 -1850.9128 16124.865 1055503
15541.728 -1850.9128 16124.865 1187092
15649.325 -1852.3013 16136.961 1317395
0 0 0 0
0 0 0 0
0 0 0 0
0 0 0 0
-9786.5469 -1179.6228 10838.04 256
-9822.1182 -1191.7571 10949.525 256
-9908.1445 -1210.2159 11119.12 256
-10017.105 -1231.7429 11316.904 1024
-10174.435 -1259.5487 11572.376 264195
-10105.633 -1259.5487 11572.376 791304
-10303.755 -1293.0455 11880.136 527875
-10594.672 -1338.7302 12299.873 1251853
-11046.359 -1405.5061 12913.391 988427
-10713.926 -1372.749 12612.428 725255
-10638.941 -1372.749 12612.428 527365
-10274.007 -1335.0709 12266.252 330244
-10942.994 -1432.1692 13158.364 256
-10453.337 -1377.9358 12660.083 256
-10213.57 -1356.0947 12459.413 0
-10080.463 -1348.1993 12386.873 66304
-10021.058 -1350.1177 12404.498 256
-10193.652 -1383.553 12711.692 512
-10262.254 -1403.2677 12892.826 512
-10063.594 -1386.4587 12738.389 256
-9987.8613 -1386.4587 12738.389 256
-10182.299 -1424.2489 13085.595 256
-10117.582 -1426.0927 13102.534 0
-9845.3066 -1398.4822 12848.857 0
-9316.0049 -1333.6451 12253.152 0
-9243.1572 -1333.6451 12253.152 0
-9249.7305 -1345.1956 12359.275 0
-9176.252 -1345.1956 12359.275 131584
-9102.7725 -1345.1956 12359.275 0
-9377.7734 -1397.1127 12836.274 65792
-9539.4258 -1432.8562 13164.676 0
-9786.6973 -1482.158 13617.646 0
-9615.0742 -1468.3129 13490.442 0
-11412.918 -1757.5211 16147.605 131328
-11308.434 -1756.2039 16135.502 256
-9839.5947 -1541.1664 14159.799 256
-9150.8525 -1445.6578 13282.294 329476
-9645.6367 -1537.0885 14122.332 256
-9561.6748 -1537.0885 14122.332 256
-9150.5293 -1484.0259 13634.808 256
-9020.002 -1475.932 13560.444 256
-8948.0205 -1477.3583 13573.549 256
-8911.1963 -1484.6681 13640.709 256
-8830.0986 -1484.6681 13640.709 256
-8629.4209 -1464.376 13454.271 256
-8594.1152 -1472.0295 13524.59 256
-8567.5352 -1481.3364 13610.099 256
-8509.6777 -1485.3611 13647.076 256
-8390.1201 -1478.5901 13584.866 256
-7970.6289 -1418.3162 13031.087 256
-7774.9243 -1397.0714 12835.896 256
-7963.9351 -1445.2197 13278.27 256
-8484.4248 -1555.0884 14287.71 256
-8452.6465 -1564.9316 14378.147 256
-7909.4453 -1479.3232 13591.602 256
-7744.1665 -1463.361 13444.945 256
-7664.2329 -1463.361 13444.945 256
-7556.6724 -1458.0305 13395.971 256
-7364.8374 -1436.153 13194.966 256
-7035.2183 -1386.6469 12740.117 256
-6569.1172 -1308.8698 12025.523 256
-6497.6221 -1308.8698 12025.523 512
-6645.5562 -1353.563 12436.152 512
-6634.7886 -1366.574 12555.693 256
-6563.0142 -1367.1724 12561.191 768
-6589.6724 -1388.5255 12757.378 512
-6521.4189 -1390.1439 12772.248 132096
-6484.4697 -1398.5522 12849.501 512
-6483.7383 -1415.0654 13001.22 512
-6512.2773 -1438.4424 13216 256
-6477.291 -1448.1873 13305.534 256
-6404.4092 -1449.5959 13318.477 256
-6375.2988 -1461.0714 13423.909 256
-6517.7417 -1512.6521 13897.817 256
-6614.2026 -1554.7487 14284.589 256
-6529.2764 -1554.7487 14284.589 256
-6439.3267 -1553.5364 14273.452 256
-6021.9551 -1472.2441 13526.562 256
-5630.3359 -1395.1324 12818.08 256
-5868.4282 -1474.0808 13543.436 256
-5781.2563 -1472.3865 13527.869 256
-5527.2354 -1427.5514 13115.937 256
-5511.7363 -1443.9191 13266.318 256
-5487.8525 -1458.5336 13400.593 256
-5334.332 -1438.6169 13217.604 256
-5324.2705 -1457.3726 13389.926 256
-5292.7397 -1470.7318 13512.666 256
-5288.6396 -1492.2427 13710.302 256
-5217.5879 -1495.2401 13737.842 256
-5139.4937 -1496.2827 13747.421 256
-5042.2192 -1491.6847 13705.176 256
-5092.8481 -1531.4099 14070.16 256
-5025.9912 -1536.5443 14117.333 256
-5034.2129 -1565.1958 14380.575 256
-5554.6064 -1756.8286 16141.242 1251090
-5458.3198 -1756.725 16140.29 132355
-5362.3618 -1756.725 16140.29 395782
-5175.8198 -1726.509 15862.675 1025
-5018.6748 -1705.1592 15666.519 265738
-4793.0264 -1659.2871 15245.058 1581853
-4670.6187 -1648.0763 15142.057 7306867
-4834.7129 -1739.5065 15982.093 3688768
-4617.1821 -1694.5433 15568.983 4873041
-4524.6201 -1694.5433 15568.983 2568745
-4557.9409 -1742.6731 16011.186 660488
-4495.8696 -1755.6061 16130.011 264704
-4390.3096 -1751.7506 16094.587 1384460
-4304.0752 -1755.6061 16130.011 1187079
-4210.5659 -1756.6027 16139.167 1318919
-4113.8574 -1756.2794 16136.196 1120520
-4014.5737 -1754.8154 16122.746 1024
-3496.8923 -1565.9198 14387.227 512
-2964.5349 -1360.8148 12502.78 132354
-2647.1633 -1246.3829 11451.412 512
-2564.4026 -1239.2891 11386.236 132609
-2487.7173 -1234.8263 11345.233 593419
-2311.4517 -1179.3086 10835.152 132355
-2172.5503 -1140.2174 10475.994 513
-2107.7485 -1138.8564 10463.489 256
0 0 0 0
0 0 0 0
0 0 0 0
0 0 0 0
0 0 0 0
0 0 0 0
0 0 0 0
0 0 0 0
0 0 0 0
0 0 0 0
0 0 0 0
0 0 0 0
0 0 0 0
0 0 0 0
0 0 0 0
0 0 0 0
0 0 0 0
0 0 0 0
0 0 0 0
0 0 0 0
0 0 0 0
0 0 0 0
0 0 0 0
0 0 0 0
0 0 0 0
-167.98926 -390.1763 3584.8291 1114369
-150.43266 -400.16827 3676.6326 1377284
-127.90191 -398.07632 3657.4121 1048576
-109.74751 -411.53806 3781.0947 720896
-84.449448 -398.24707 3658.981 3022872
-65.535904 -416.28766 3824.7327 458752
-49.874794 -485.13574 4457.2896 458752
-23.456713 -486.83228 4472.877 524288
3.1357853 -486.83228 4472.877 1444617
32.239948 -527.96344 4850.7783 786944
63.911823 -552.44867 5075.7412 1774352
97.689629 -573.5929 5270.0088 722178
143.56949 -638.27008 5864.2441 525571
189.06165 -676.28564 6213.5205 2235672
237.51111 -710.72302 6529.9214 525056
297.45941 -765.05884 7029.1436 1050890
340.01505 -766.78497 7045.0029 262144
396.66656 -796.43451 7317.4141 721413
447.65741 -809.98083 7441.874 787463
494.16019 -813.70026 7476.0469 262144
563.38434 -851.13202 7819.959 196608
609.8761 -851.13202 7819.959 524804
623.6687 -808.72992 7430.3804 196608
662.73041 -802.53705 7373.4824 327680
712.02002 -808.72992 7430.3804 918533
815.4292 -872.07831 8012.4082 1246986
847.94189 -856.79712 7872.0083 984326
899.52942 -861.38037 7914.1182 1116426
941.54443 -856.79712 7872.0083 1116682
901.66974 -781.65759 7181.6484 2630692
913.84625 -756.39575 6949.5493 2762278
950.31567 -752.55695 6914.2798 722696
0 0 0 0
0 0 0 0
0 0 0 0
0 0 0 0
0 0 0 0
0 0 0 0
783.87305 -476.47598 4377.7261 196608
812.07355 -477.75482 4389.4756 722181
820.51361 -467.69058 4297.0083 525059
767.76764 -424.41132 3899.3708 788230
0 0 0 0
0 0 0 0
0 0 0 0
1534.8256 -756.99957 6955.0972 0
2261.0713 -1085.9386 9977.2959 66306
2396.5859 -1121.5986 10304.931 513
2593.3232 -1183.4189 10872.917 263685
2714.2471 -1208.4772 11103.146 513
2697.4949 -1172.5029 10772.624 131843
2887.502 -1225.9839 11263.991 1316373
3177.7798 -1318.6484 12115.367 724236
3249.8091 -1318.6484 12115.367 132098
3290.1858 -1306.0835 11999.925 132866
3361.5288 -1306.0835 11999.925 396294
3355.7593 -1276.7451 11730.371 2370082
3600.29 -1341.8925 12328.928 1712922
3666.4661 -1339.2908 12305.023 1186322
3739.6228 -1339.2908 12305.023 1120018
4389.6318 -1541.9181 14166.705 1252117
4532.3623 -1562.0819 14351.966 1450009
4575.8208 -1547.9188 14221.839 1779484
4452.8271 -1478.9832 13588.478 1516566
0 0 0 0
0 0 0 0
0 0 0 0
0 0 0 0
3946.1394 -1201.6797 11040.692 2174996
4223.603 -1265.1289 11623.645 4214319
3813.1472 -1123.7946 10325.105 3556902
3587.9565 -1040.6741 9561.418 5332800
3546.3157 -1012.5541 9303.0596 5462868
3380.5874 -950.41193 8732.1152 3422777
3251.6895 -900.34735 8272.1357 1974301
3169.1846 -864.42889 7942.1274 12172736
6457.8013 -1735.5758 15945.977 13028041
6552.605 -1735.5758 15945.977 12566721
6647.4082 -1735.5758 15945.977 8421506
6822.8398 -1756.3311 16136.671 8618121
6919.6914 -1756.5634 16138.805 13750992
7015.8267 -1756.6096 16139.23 10725536
7111.7075 -1756.5922 16139.069 4608558
7207.6592 -1756.5922 16139.069 4872249
7303.4487 -1756.5533 16138.713 2306583
7399.3984 -1756.5533 16138.713 2042899
7495.3999 -1756.5656 16138.825 2503453
7591.4004 -1756.5773 16138.934 2174233
7687.4658 -1756.6036 16139.175 2634531
7783.417 -1756.6036 16139.175 1910297
7878.5679 -1756.4249 16137.533 1580566
7974.8193 -1756.493 16138.159 659209
8070.7734 -1756.4948 16138.175 330245
8166.9785 -1756.5505 16138.688 922126
8262.9277 -1756.5505 16138.688 396038
8358.3086 -1756.4313 16137.592 922383
8414.1963 -1748.1095 16061.134 725004
8097.1846 -1663.3715 15282.584 659467
7730.748 -1570.4735 14429.064 2238243
8223.3438 -1652.2085 15180.022 67073
8159.9199 -1621.6681 14899.427 132097
8086.8257 -1589.8826 14607.39 198660
8808.6816 -1713.4003 15742.234 396039
9093.166 -1750.141 16079.799 725004
9203.8623 -1753.0164 16106.218 593417
9317.7021 -1756.4254 16137.538 725260
9414.0527 -1756.5016 16138.238 790796
9510.9756 -1756.6819 16139.895 198148
9606.8809 -1756.6726 16139.81 263941
9702.7871 -1756.6637 16139.728 1120529
9798.1719 -1756.5613 16138.787 2304547
9893.9453 -1756.53 16138.499 2765098
9989.8301 -1756.5189 16138.397 2041118
10086.313 -1756.6124 16139.256 856846
10183.039 -1756.7457 16140.481 1383705
10278.899 -1756.7289 16140.326 134156
10374.858 -1756.7289 16140.326 858391
10470.845 -1756.7335 16140.368 1846314
10566.804 -1756.7335 16140.368 2435879
10662.076 -1756.6204 16139.33 2239012
10757.124 -1756.4727 16137.972 2173988
10852.638 -1756.403 16137.332 1713436
10948.369 -1756.3694 16137.022 1055247
11041.025 -1755.847 16132.226 857868
11136.803 -1755.8263 16132.033 989454
11232.489 -1755.7914 16131.713 660489
11327.394 -1755.6359 16130.283 594696
11423.179 -1755.6184 16130.123 463110
11519.077 -1755.6184 16130.123 528903
11615.356 -1755.676 16130.653 265731
11704.921 -1754.7261 16121.925 331524
11795.431 -1753.932 16114.63 463109
11901.502 -1755.4462 16128.541 594437
11999.627 -1755.7733 16131.548 660744
12097.734 -1756.0929 16134.483 528902
12197.356 -1756.6254 16139.376 858125
12292.773 -1756.5488 16138.672 1318933
12389.303 -1756.6311 16139.428 924431
12485.979 -1756.7329 16140.363 397833
12582.563 -1756.8203 16141.166 68107
12676.539 -1756.5448 16138.634 9020839
0 0 0 0
0 0 0 0
12964.736 -1756.5923 16139.072 11187903
13060.688 -1756.5923 16139.072 659220
13157.868 -1756.7566 16140.58 1250838
13253.141 -1756.6653 16139.742 4675164
13349.096 -1756.6653 16139.742 4410962
13444.678 -1756.6165 16139.294 2634291
13540.63 -1756.6165 16139.294 792082
13635.646 -1756.4957 16138.185 2306086
13731.201 -1756.4459 16137.726 2174755
13826.452 -1756.3578 16136.917 2174750
13921.954 -1756.3026 16136.411 2109211
14017.831 -1756.2954 16136.344 2109210
14115.56 -1756.5186 16138.395 1911831
14211.736 -1756.547 16138.654 1846037
14307.817 -1756.5634 16138.805 1911830
14404.436 -1756.6447 16139.554 2240794
14500.39 -1756.6447 16139.554 2109466
14596.077 -1756.6128 16139.26 2306589
14690.158 -1756.3889 16137.203 2306588
14784.429 -1756.1907 16135.381 1122317
14880.195 -1756.1713 16135.203 1319696
14976.11 -1756.1698 16135.189 1253392
15071.861 -1756.1492 16135 858379
15167.789 -1756.1492 16135 989708
15263.497 -1756.1241 16134.77 923661
15346.972 -1754.7004 16121.689 923661
15442.819 -1754.7004 16121.689 857868
15554.083 -1756.4413 16137.685 923663
15651.941 -1756.6562 16139.658 1383188
0 0 0 0
0 0 0 0
0 0 0 0
0 0 0 0
-9786.5469 -1115.1877 10838.04 256
-9822.1182 -1126.6591 10949.525 256
-10039.433 -1159.2697 11266.454 512
-10211.77 -1187.09 11536.827 768
-10166.905 -1189.8666 11563.812 256
-9537.5371 -1123.809 10921.826 1054223
-10287.35 -1220.4685 11861.221 593670
-10216.832 -1220.4685 11861.221 132865
-10754.973 -1293.6823 12572.754 1054220
-10713.926 -1297.7645 12612.428 856840
-11099.455 -1353.9391 13158.364 659208
-10079.139 -1238.2054 12033.598 330242
-11498.138 -1422.625 13825.895 66048
-11389.88 -1419.3777 13794.335 263684
-10360.837 -1300.5049 12639.061 263683
-10139.496 -1282.02 12459.413 197890
-10269.228 -1307.9785 12711.692 256
-10338.906 -1326.6163 12892.826 256
-10429.821 -1348.2781 13103.347 256
-10384.78 -1352.5581 13144.943 0
-10260.097 -1346.4514 13085.595 256
-10203.034 -1349.1934 13112.242 256
-10117.582 -1348.1945 13102.534 256
-9957.2881 -1337.1298 12995.002 0
-9486.7109 -1283.8995 12477.679 0
-9390.3564 -1280.8751 12448.286 0
-9374.0723 -1288.8115 12525.418 65792
-9441.04 -1308.4127 12715.912 263170
-9430.1621 -1317.4547 12803.788 197379
-9497.5869 -1337.6722 13000.274 592135
-9814.1172 -1393.5945 13543.759 263170
-10871.257 -1556.4775 15126.75 0
-11505.491 -1661.024 16142.794 131585
-11410.636 -1661.1868 16144.376 0
-9778.9873 -1435.7245 13953.202 256
-9322.2754 -1380.3811 13415.344 256
-9150.8525 -1366.6909 13282.294 256
-9277.6895 -1397.6954 13583.614 256
-9561.6748 -1453.1272 14122.332 256
-9164.5254 -1405.109 13655.663 256
-9020.002 -1395.3114 13560.444 256
-8948.0205 -1396.6598 13573.549 256
-8911.1963 -1403.5703 13640.709 256
-8830.0986 -1403.5703 13640.709 256
-8669.2705 -1390.7794 13516.4 256
-8594.9697 -1391.7605 13525.935 256
-8647.2129 -1413.4445 13736.672 256
-8682.8096 -1432.7948 13924.729 256
-8653.3857 -1441.6852 14011.132 256
-8510.1963 -1431.6105 13913.22 256
-8093.9204 -1374.9478 13362.538 0
-8288.8613 -1422.0206 13820.021 256
-8211.2588 -1422.8109 13827.7 724488
-9013.4355 -1577.6031 15332.062 461059
-7909.4453 -1398.5173 13591.602 256
-7738.3696 -1382.3915 13434.881 256
-7658.4956 -1382.3915 13434.881 256
-7578.6216 -1382.3915 13434.881 256
-7480.6753 -1379.0599 13402.503 256
-7076.9868 -1318.6863 12815.757 256
-6799.8853 -1280.8428 12447.972 256
-6672.2134 -1270.6229 12348.649 256
-6645.5562 -1279.6266 12436.152 256
-6602.0693 -1285.5557 12493.775 256
-6691.2124 -1317.7393 12806.554 256
-6637.2573 -1322.1583 12849.501 256
-6560.8638 -1322.1583 12849.501 256
-6484.4697 -1322.1583 12849.501 256
-6471.9116 -1335.3293 12977.505 256
-6503.7734 -1358.0939 13198.743 256
-6393.0962 -1351.2864 13132.583 256
-6348.542 -1358.4597 13202.298 256
-6270.0513 -1358.4597 13202.298 256
-6196.7329 -1359.5947 13213.329 256
-6543.1934 -1454.0431 14131.232 256
-6605.3345 -1486.9442 14450.985 256
-6519.5166 -1486.9664 14451.201 256
-6045.2817 -1397.2164 13578.958 256
-5630.3359 -1318.9253 12818.08 256
-6009.3296 -1427.0208 13868.614 256
-5909.8335 -1422.9172 13828.734 256
-5700.8291 -1391.9596 13527.869 256
-5620.4023 -1391.9596 13527.869 256
-5577.5972 -1401.4122 13619.736 256
-5455.9951 -1391.0536 13519.064 256
-5394.6377 -1395.9746 13566.891 256
-5394.5752 -1417.1472 13772.657 256
-5359.835 -1429.7223 13894.869 256
-5415.7573 -1467.2535 14259.62 256
-5337.9209 -1469.1641 14278.187 256
-5253.0332 -1469.1641 14278.187 256
-5252.4858 -1493.1396 14511.196 256
-5166.2129 -1493.1396 14511.196 256
-5490.8267 -1613.9113 15684.924 789771
-5554.2349 -1660.7533 16140.163 0
-5457.0757 -1660.3877 16136.609 256
-5270.1279 -1632.2009 15862.675 396296
-5175.8198 -1632.2009 15862.675 1024
-5119.8062 -1644.5011 15982.215 256
-4828.3477 -1580.2108 15357.404 396040
-4403.5801 -1468.972 14276.321 512
-4318.7031 -1468.972 14276.321 1120786
-4305.1616 -1493.7225 14516.86 593161
-4127.4312 -1461.3531 14202.276 461573
-4487.9106 -1622.1696 15765.183 791560
-4495.8696 -1659.7087 16130.011 199168
-4401.4878 -1660.2803 16135.565 2437409
-4306.5181 -1660.6509 16139.167 3555883
-4210.8413 -1660.7593 16140.22 1713937
-4114.7515 -1660.7061 16139.703 2305050
-4017.9229 -1660.3451 16136.196 263937
-3803.5098 -1610.188 15648.739 512
-2747.5994 -1192.3414 11587.865 256
-2589.4888 -1152.629 11201.917 512
-2522.8901 -1152.629 11201.917 512
-2344.4932 -1100.167 10692.06 67075
-2280.926 -1100.167 10692.06 264196
-2172.5503 -1077.9347 10475.994 768
-2074.1711 -1059.4966 10296.802 658440
0 0 0 0
0 0 0 0
0 0 0 0
0 0 0 0
0 0 0 0
0 0 0 0
0 0 0 0
0 0 0 0
0 0 0 0
0 0 0 0
0 0 0 0
0 0 0 0
0 0 0 0
0 0 0 0
0 0 0 0
0 0 0 0
0 0 0 0
0 0 0 0
0 0 0 0
0 0 0 0
0 0 0 0
0 0 0 0
-198.75403 -316.1033 3072.075 655873
-180.48967 -316.1033 3072.075 1180675
-162.22534 -316.1033 3072.075 1114882
-169.83322 -372.91241 3624.179 1114369
-153.17516 -385.20648 3743.6599 1377541
-126.73972 -372.91241 3624.179 589824
-106.15758 -376.33197 3657.4121 720896
-84.032227 -374.63333 3640.9038 4141345
-68.726044 -412.70557 4010.9119 721667
-50.04921 -460.23978 4472.877 524288
-23.529205 -461.66214 4486.7002 458752
3.1454763 -461.66214 4486.7002 1444874
30.912739 -478.57697 4651.0884 656128
64.455383 -526.71387 5118.9102 1905936
108.70492 -603.40546 5864.2441 1445641
143.65019 -603.74475 5867.541 920070
180.48846 -610.35284 5931.7627 1051400
246.76454 -698.07806 6784.3271 459264
299.36874 -727.91119 7074.2627 327937
346.20288 -738.09271 7173.2129 262144
395.55716 -750.82465 7296.9487 787206
450.20285 -770.091 7484.1899 656390
489.39145 -761.82965 7403.9019 591109
511.5773 -730.64807 7100.8608 1182989
564.20801 -744.38788 7234.3926 459267
646.54498 -792.59814 7702.9277 1512211
658.29486 -753.62177 7324.1328 1117196
701.83887 -753.62177 7324.1328 1182733
