# .PCD v0.7 - Point Cloud Data file format
VERSION 0.7
FIELDS x y z rgb
SIZE 4 4 4 4
TYPE F F F U
COUNT 1 1 1 1
WIDTH 1338
HEIGHT 1
VIEWPOINT 0 0 0 1 0 0 0
POINTS 1338
DATA ascii
-7107.5869 -3578.8413 11508.252 527125
-6538.0889 -3324.084 10689.045 5001301
-6480.7485 -3327.2717 10699.296 2435629
-6417.1387 -3327.2717 10699.296 1284
-6420.0112 -3362.0879 10811.252 527115
-6401.1587 -3386.1162 10888.519 1184789
-6948.8359 -3713.3831 11940.89 10198944
-7458.1094 -4026.6711 12948.311 6515564
-6705.8779 -3658.2981 11763.756 3423036
-6286.8242 -3465.8359 11144.868 4015171
-6186.6089 -3446.917 11084.031 329993
-6172.2896 -3475.9639 11177.436 131842
-6105.8364 -3475.9639 11177.436 658188
-6192.1948 -3563.9143 11460.252 461064
-6413.5063 -3732.3577 12001.905 724236
-6400.8799 -3766.9194 12113.043 658957
-7449.5259 -4433.9336 14257.918 2171939
-8334.6836 -5017.8745 16135.659 1185556
-7689.0684 -4683.085 15059.099 2699566
-7599.5381 -4683.085 15059.099 6712682
-6684.3633 -4168.2305 13403.514 1185814
-6130.9199 -3869.2422 12442.075 330249
-6282.1792 -4013.1221 12904.74 395271
-6205.457 -4013.1221 12904.74 395271
-5760.7642 -3772.1731 12129.938 526857
-5663.7827 -3755.6848 12076.916 329478
-5444.6841 -3656.7563 11758.799 461578
-5152.084 -3505.2476 11271.602 329992
-4934.2617 -3401.2915 10937.316 395785
-4946.7266 -3455.4204 11111.375 395785
-4856.936 -3438.6196 11057.351 395785
-4890.0352 -3509.5554 11285.454 264199
-4763.1948 -3466.0798 11145.652 395785
-4583.2383 -3382.1812 10875.864 329992
-4545.3066 -3402.1877 10940.198 724750
-4480.2642 -3402.1877 10940.198 593164
-4574.0308 -3524.5593 11333.701 461578
-4544.502 -3554.1636 11428.897 790543
-4600.478 -3652.553 11745.282 790543
-4530.6489 -3652.553 11745.282 1119508
-4450.7373 -3644.2974 11718.735 395785
-4396.7251 -3657.3228 11760.62 659214
-4377.897 -3700.5095 11899.493 658700
-4337.5352 -3726.6143 11983.436 724750
-4307.2817 -3762.4199 12098.574 592907
-4235.3521 -3762.4199 12098.574 856849
-4061.5894 -3670.3945 11802.654 1448986
-3922.8169 -3607.3098 11599.797 1186584
-3786.1428 -3543.9314 11395.994 1581598
-3790.0964 -3612.2732 11615.757 2107172
-4321.6377 -4195.3179 13490.617 2832175
-4420.0361 -4371.98 14058.698 3687738
-4336.4531 -4371.98 14058.698 3292977
-4381.1895 -4503.8926 14482.881 4938568
-4295.0845 -4503.8926 14482.881 4148793
-4378.3359 -4685.1152 15065.627 6057043
-4593.7969 -5018.335 16137.141 4279861
-4497.8574 -5018.335 16137.141 5727304
-4402.1587 -5018.6099 16138.025 8359527
-4306.7026 -5019.1802 16139.857 8096103
-4210.7466 -5019.1802 16139.857 5266502
-4113.9385 -5018.1406 16136.515 3093815
-4018.3367 -5018.5586 16137.858 3027771
-3922.4111 -5018.582 16137.935 11447480
-3826.6914 -5018.877 16138.883 10526630
-3731.0613 -5019.3066 16140.266 13684689
-3634.8271 -5018.9263 16139.042 13684688
-3538.48 -5018.3643 16137.235 10987177
-3442.6721 -5018.5576 16137.856 3092024
-3346.5991 -5018.3643 16137.235 3157559
-3250.5063 -5018.1294 16136.479 3092284
-3154.3689 -5017.8086 16135.447 4144970
-3048.2119 -5001.0293 16081.492 2826801
-2952.6033 -5001.0293 16081.492 13682901
-2803.0925 -4906.6772 15778.09 7499902
-2709.2876 -4906.6772 15778.09 7500159
-2674.8667 -5018.083 16136.331 12037048
-2578.8872 -5017.9966 16136.053 10920365
-2482.8794 -5017.8462 16135.568 6051683
-2376.241 -4995.3354 16063.183 13485009
-1846.4567 -4044.156 13004.534 592911
-1916.1882 -4380.2974 14085.442 1316638
-1961.7726 -4689.4399 15079.532 4409163
-1872.1206 -4689.4399 15079.532 2829870
-1662.777 -4374.5464 14066.951 3158577
-1579.145 -4374.5464 14066.951 2501417
-1653.0396 -4835.3296 15548.662 3027503
-1481.6344 -4590.6689 14761.922 8158599
-1362.3657 -4486.9082 14428.266 921618
-1226.3956 -4310.502 13861.007 2303524
-1025.425 -3863.761 12424.45 2434344
-951.55823 -3863.761 12424.45 2566440
-811.20844 -3571.0906 11483.328 2631464
-697.54053 -3352.8833 10781.653 1710360
-663.32849 -3511.0837 11290.368 3947319
-542.34656 -3193.9131 10270.463 3815733
0 0 0 0
0 0 0 0
0 0 0 0
0 0 0 0
0 0 0 0
0 0 0 0
-43.977921 -1222.2428 3930.2883 2829099
-20.624289 -1223.0151 3932.772 5000008
2.9146214 -1292.8729 4157.4092 2564387
27.105637 -1268.2644 4078.2771 8088444
56.253742 -1389.3215 4467.5527 13619412
81.902458 -1374.0194 4418.3467 13553362
109.37543 -1389.3215 4467.5527 13553104
144.25452 -1474.3372 4740.9321 1909296
172.44067 -1474.3372 4740.9321 2962755
200.51663 -1473.5273 4738.3281 3487815
233.968 -1507.553 4847.7422 4540244
248.8909 -1427.8223 4591.3569 5460319
0 0 0 0
0 0 0 0
377.00467 -1627.3447 5232.9487 13619663
468.94141 -1869.8831 6012.8643 13488333
504.68951 -1869.8831 6012.8643 13684688
554.16199 -1917.3684 6165.5596 13684944
621.37769 -2016.5433 6484.4697 13553358
707.25006 -2161.1399 6949.4399 13619664
620.7995 -1792.272 5763.2949 9737362
0 0 0 0
0 0 0 0
0 0 0 0
1342.7914 -3175.5955 10211.56 5594707
1409.0477 -3188.1433 10251.909 5858394
1469.9982 -3188.1433 10251.909 5595479
1673.4727 -3484.9441 11206.313 5595737
1740.0973 -3484.9441 11206.313 3950912
1772.7256 -3419.3691 10995.448 8161666
1910.1731 -3553.4517 11426.608 3292733
2178.0615 -3912.6472 12581.65 2963515
2252.8628 -3912.6472 12581.65 3885385
2282.0598 -3835.989 12335.146 4806231
2149.1843 -3500.1536 11255.222 5201244
2134.6292 -3371.4775 10841.445 4740437
2154.4175 -3302.9971 10621.237 4280399
2217.5635 -3302.9971 10621.237 5069916
2332.9966 -3378.7207 10864.736 5793383
2654.6663 -3740.9958 12029.682 6056555
3150.4622 -4323.2065 13901.859 5267298
3298.7507 -4410.9751 14184.092 4148820
3383.0789 -4410.9751 14184.092 3820115
3467.4075 -4410.9751 14184.092 3425613
3769.5342 -4681.4639 15053.885 4478301
3747.731 -4546.4404 14619.699 4807266
3410.2659 -4043.2827 13001.727 5267817
3921.5676 -4546.4404 14619.699 5399404
4245.6802 -4815.4668 15484.791 5465196
4340.8315 -4818.8979 15495.823 4214617
4273.6636 -4645.7339 14938.991 5793391
4316.9565 -4597.2554 14783.101 6517113
4451.2964 -4645.7339 14938.991 6977665
4903.8267 -5017.9097 16135.772 11253692
4999.7651 -5017.9165 16135.794 13488591
4828.0542 -4754.3589 15288.289 13553869
5009.6528 -4842.0293 15570.205 13684944
4794.8618 -4550.3433 14632.249 13750737
4881.8545 -4550.3433 14632.249 13750737
4828.3477 -4421.6772 14218.506 13684944
5379.3794 -4841.5342 15568.612 13554127
5572.1479 -4930.1978 15853.724 13553871
5750.7393 -5003.5771 16089.685 12961734
5862.0479 -5016.9717 16132.757 13553871
5959.2271 -5018.0376 16136.184 13487821
6056.4351 -5019.0933 16139.578 13488078
6151.353 -5018.2476 16136.859 13553871
6247.8091 -5018.6641 16138.198 13356492
6314.2295 -4995.3057 16063.087 13684688
6170.6211 -4808.9609 15463.87 13750737
6243.3774 -4794.2324 15416.508 13750737
6303.6797 -4770.5049 15340.209 13750737
6408.9907 -4781.0303 15374.055 13750737
6514.7915 -4791.6196 15408.106 13750737
6617.1191 -4799.397 15433.115 13750737
6703.5459 -4795.5854 15420.859 13750737
6792.4932 -4793.6562 15414.655 13750737
6869.3062 -4783.3286 15381.445 13750737
6934.8003 -4765.4941 15324.096 13750737
6986.9492 -4739.0703 15239.126 13750737
7070.8096 -4734.5571 15224.613 13750737
7160.832 -4734.2319 15223.567 13750737
7251.8389 -4734.5571 15224.613 13750737
7781.6997 -5017.8604 16135.613 13750481
7877.8574 -5018.0049 16136.078 13554126
7975.2637 -5018.9316 16139.06 13684687
8070.2451 -5018.3286 16137.119 10526371
8167.1665 -5018.9316 16139.06 7896968
8263.252 -5019.0127 16139.32 5726308
8359.9443 -5019.4575 16140.749 8030603
8455.541 -5019.2412 16140.054 4345938
8551.043 -5018.9736 16139.194 4280658
8646.0283 -5018.4126 16137.39 3886412
8742.0654 -5018.4678 16137.567 3886926
8837.4854 -5018.1714 16136.613 3886924
8826.541 -4958.1328 15943.552 4084304
8918.0928 -4956.334 15937.768 4018255
9058.8428 -4981.6274 16019.103 3952717
9220.7266 -5017.8965 16135.729 4018509
9317.2764 -5018.229 16136.801 4017482
9413.5879 -5018.4282 16137.44 4214861
9509.7256 -5018.5317 16137.772 5925736
9605.5996 -5018.4956 16137.657 4412497
9701.4395 -5018.4424 16137.485 4083788
9797.54 -5018.5234 16137.747 7372669
9893.4834 -5018.5234 16137.747 6518127
9989.4268 -5018.5234 16137.747 5004118
10085.027 -5018.3525 16137.197 2898999
10179.472 -5017.6157 16134.827 2569261
10274.607 -5017.23 16133.587 2635054
10369.872 -5016.9131 16132.568 2700588
10465.518 -5016.7847 16132.156 2898737
10562.244 -5017.1733 16133.404 2701615
10658.977 -5017.5566 16134.638 3030835
10754.574 -5017.4038 16134.146 3491130
10850.356 -5017.3398 16133.939 3425080
10947.532 -5017.915 16135.789 3228215
11044.516 -5018.3926 16137.325 3820351
11141.013 -5018.6431 16138.131 4281411
11236.527 -5018.4502 16137.511 4346948
11332.734 -5018.5679 16137.889 4280897
11428.679 -5018.5679 16137.889 5267540
11524.622 -5018.5679 16137.889 4675149
11620.494 -5018.5361 16137.787 4608846
11716.759 -5018.6738 16138.229 13816789
11812.705 -5018.6738 16138.229 13422290
11908.651 -5018.6738 16138.229 13487823
12005.853 -5019.1982 16139.917 13619152
12101.809 -5019.1982 16139.917 13684689
12197.226 -5018.9766 16139.203 12367296
12293.66 -5019.1733 16139.836 9605790
12389.615 -5019.1733 16139.836 11712962
12485.905 -5019.3071 16140.267 5791849
12581.504 -5019.1641 16139.807 11189180
12676.756 -5018.8857 16138.911 9740449
12771.92 -5018.5767 16137.917 9739937
12867.822 -5018.5601 16137.864 10858164
12963.571 -5018.4839 16137.62 12897230
13059.188 -5018.3594 16137.219 13422546
13154.007 -5017.9316 16135.843 13619925
13250.599 -5018.1812 16136.646 13356241
13347.951 -5018.7134 16138.357 13684950
13444.026 -5018.7617 16138.513 13224400
13538.643 -5018.2681 16136.925 13487828
13633.646 -5017.9243 16135.819 13488596
0 0 0 0
13825.957 -5018.0859 16136.34 13423058
13922.021 -5018.1328 16136.489 13422800
14017.731 -5018.0518 16136.229 13554386
0 0 0 0
0 0 0 0
0 0 0 0
0 0 0 0
0 0 0 0
0 0 0 0
0 0 0 0
0 0 0 0
0 0 0 0
0 0 0 0
0 0 0 0
0 0 0 0
0 0 0 0
0 0 0 0
0 0 0 0
0 0 0 0
0 0 0 0
0 0 0 0
0 0 0 0
0 0 0 0
0 0 0 0
-10198.197 -3445.0427 11293.92 593165
-11451.874 -3894.1851 12766.349 395787
-11484.792 -3931.4353 12888.466 461580
-11163.127 -3846.9905 12611.63 329994
-10931.243 -3792.5537 12433.169 921619
-10899.714 -3807.3606 12481.711 789775
-10820.306 -3805.531 12475.713 5198429
-10513.397 -3723.1123 12205.519 6448488
-10429.743 -3719.158 12192.555 2171687
-10925.525 -3923.2168 12861.522 1975338
-10506.772 -3799.439 12455.741 3224641
-10405.957 -3789.6929 12423.79 1645605
-9495.3008 -3482.7664 11417.59 1447456
-9573.7969 -3536.8423 11594.868 12235454
-9915.7207 -3689.7263 12096.068 11514294
-9080.6357 -3403.6692 11158.285 591886
-9239.1689 -3488.5781 11436.643 3487293
-9171.1748 -3488.5781 11436.643 8753050
-9103.1816 -3488.5781 11436.643 9936808
-9421.8535 -3637.8738 11926.08 3028282
-9570.7305 -3723.3774 12206.387 4607828
-9452.5547 -3705.499 12147.777 7370622
-9283.918 -3667.4126 12022.917 5396321
-8615.9736 -3429.9636 11244.486 4343631
-8541.3203 -3426.834 11234.226 7634821
-8544.3896 -3455.083 11326.835 659222
-8579.7881 -3496.9578 11464.113 396052
-8511.6309 -3496.9578 11464.113 658710
-8450.793 -3499.989 11474.052 2501167
-8931.2695 -3729.0859 12225.102 1448478
-7751.0405 -3262.8557 10696.654 329742
-8341.4258 -3540.4304 11606.63 1382429
-7741.9824 -3313.4136 10862.398 1842725
-7797.229 -3365.1279 11031.935 724503
-8190.46 -3564.825 11686.604 4737365
-8120.9795 -3564.825 11686.604 723729
-7901.0127 -3498.1963 11468.174 1315868
-7832.8306 -3498.1963 11468.174 6975101
-7657.7949 -3450.0549 11310.353 10001316
-7974.7603 -3624.6853 11882.845 725013
-8283.3262 -3798.5854 12452.943 1645606
-8209.2891 -3798.5854 12452.943 6252137
-8135.2534 -3798.5854 12452.943 1711397
-7432.5928 -3502.3667 11481.847 4408399
-7866.978 -3741.4189 12265.533 6512492
-7950.9761 -3816.7461 12512.479 10328486
-7425.2134 -3598.0251 11795.444 7698562
-7276.6738 -3559.6667 11669.692 6514799
-6923.1748 -3419.3406 11209.66 1711649
-6544.3594 -3263.6614 10699.296 1119254
-6480.7485 -3263.6614 10699.296 460811
-6377.3193 -3243.4099 10632.905 3355704
-6190.7495 -3180.0457 10425.178 3355705
-6128.769 -3180.0457 10425.178 1316119
-6788.0669 -3558.1201 11664.623 12303555
-7117.7979 -3769.4666 12357.482 11514296
-6649.3682 -3558.1201 11664.623 1251098
-6194.2256 -3349.5042 10980.715 461323
-6128.9419 -3349.5042 10980.715 395272
-6172.2896 -3409.5107 11177.436 263685
-6105.8364 -3409.5107 11177.436 460809
-6544.9102 -3694.9038 12113.043 461064
-6472.895 -3694.9038 12113.043 592393
-6400.8799 -3694.9038 12113.043 198149
-7361.7661 -4297.9307 14089.952 922129
-7364.7588 -4349.166 14257.918 3028275
-7279.9912 -4349.166 14257.918 330762
-6764.0508 -4088.543 13403.514 724494
-6583.2803 -4026.7151 13200.822 198406
-5910.1279 -3658.5916 11994 395271
-5850.8633 -3666.1377 12018.738 329478
-5779.4082 -3666.1377 12018.738 329478
-5707.9536 -3666.1377 12018.738 66306
-5539.4453 -3603.0115 11811.79 395271
-5020.4321 -3307.3584 10842.548 789772
-4970.5781 -3317.1072 10874.508 658443
-4917.8452 -3325.1663 10900.928 526600
-4863.8491 -3332.575 10925.215 592393
-4846.3276 -3365.5139 11033.2 263685
-4890.0352 -3442.4602 11285.454 198149
-4822.9404 -3442.4602 11285.454 329478
-4685.9233 -3391.8486 11119.533 396042
-4598.5308 -3376.2222 11068.305 527371
-4532.7271 -3376.2222 11068.305 461578
-4574.0308 -3457.1775 11333.701 658957
-4538.3164 -3481.4702 11413.341 593164
-4470.4604 -3481.4702 11413.341 856593
-4405.6821 -3483.9038 11421.318 593164
-4402.1094 -3535.5701 11590.697 658957
-4396.7251 -3587.4026 11760.62 527371
-4363.6011 -3617.9111 11860.636 593164
-4307.1514 -3629.7637 11899.493 461578
-4236.4053 -3629.7637 11899.493 461578
-4081.4314 -3556.3711 11658.889 856849
-4061.5894 -3600.2246 11802.654 988435
-3991.4192 -3600.2246 11802.654 2239271
-3921.2493 -3600.2246 11802.654 923410
-4401.8433 -4115.1123 13490.617 3884605
-4434.0068 -4222.1118 13841.394 3161135
-4651.9312 -4513.3857 14796.281 1450520
-4504.2129 -4454.2974 14602.57 1187348
-4228.0923 -4263.4121 13976.789 2108449
-4144.9966 -4263.4121 13976.789 2042652
-4225.709 -4435.3477 14540.446 5793105
-4594.0063 -4922.6196 16137.877 6977890
-4498.1035 -4922.665 16138.025 5464644
-4402.8242 -4923.4097 16140.465 6254402
-4306.7319 -4923.2573 16139.967 7899473
-4211.002 -4923.5229 16140.837 5529664
-4114.416 -4922.7764 16138.39 3094593
-4018.0022 -4922.2046 16136.515 2962754
-3781.2776 -4745.5142 15557.27 2763837
-3826.4065 -4922.5601 16137.681 4079436
-3730.7412 -4922.9268 16138.883 13685200
-3634.8271 -4922.9756 16139.042 13553614
-3538.823 -4922.9014 16138.799 12894409
-3442.7283 -4922.6938 16138.119 11315381
-3346.6897 -4922.5576 16137.672 3290689
-3250.5591 -4922.2729 16136.74 4013900
-3086.3997 -4815.8242 15787.767 3684935
-2901.7959 -4669.7964 15309.042 3618115
-2726.4421 -4529.6797 14849.696 2565680
-2638.1567 -4529.6797 14849.696 2960442
-2549.8711 -4529.6797 14849.696 5854564
-2591.4253 -4768.6035 15632.964 5590620
-2578.8101 -4921.9155 16135.568 9011341
-2384.5535 -4727 15496.574 10195873
-2007.8086 -4140.124 13572.612 4209992
-1955.1191 -4200.2852 13769.84 4868434
-2157.937 -4838.6138 15862.479 1710879
-2084.0327 -4886.4517 16019.307 1776928
-1964.9899 -4827.9668 15827.575 2697774
-1778.0815 -4588.4668 15042.419 1842463
-1622.8209 -4409.5928 14456.015 3158323
-1582.5599 -4540.6689 14885.723 3421495
-1481.6344 -4502.9053 14761.922 789773
-1312.2294 -4239.1626 13897.292 1118740
-1094.5597 -3773.5801 12370.967 2303014
-1020.8759 -3773.0811 12369.331 2105891
-825.74048 -3288.7834 10781.653 2237475
0 0 0 0
0 0 0 0
0 0 0 0
0 0 0 0
0 0 0 0
0 0 0 0
0 0 0 0
0 0 0 0
0 0 0 0
-65.758675 -1170.6437 3837.7336 2762537
-43.977921 -1198.8761 3930.2883 2827816
-20.611263 -1198.8761 3930.2883 4670270
2.8591444 -1244.0179 4078.2771 2038040
28.166201 -1292.6927 4237.8481 10259098
56.369328 -1365.5608 4476.7324 11967915
81.902458 -1347.7511 4418.3467 13087940
109.37543 -1362.7606 4467.5527 13747664
144.22301 -1445.8351 4739.8965 1843505
172.44067 -1446.151 4740.9321 2764352
205.99321 -1484.8328 4867.7427 3224386
234.93329 -1484.8328 4867.7427 3553352
263.87338 -1484.8328 4867.7427 5131611
0 0 0 0
0 0 0 0
272.30133 -1152.9208 3779.6321 11512243
417.20517 -1631.7831 5349.4917 13619663
449.0094 -1631.7831 5349.4917 13488076
540.43768 -1834.1351 6012.8643 13619151
621.37769 -1977.9913 6484.4697 13618893
727.06555 -2179.2161 7144.147 13487564
791.98578 -2242.7803 7352.5303 10526879
0 0 0 0
0 0 0 0
0 0 0 0
1342.7914 -3114.8848 10211.56 11188135
1505.2424 -3340.6838 10951.8 8688261
1469.9982 -3127.1926 10251.909 4872009
1642.485 -3355.0225 10998.806 5267282
1692.8069 -3325.4204 10901.761 5200723
1757.6208 -3325.4204 10901.761 6385000
1848.3575 -3372.7214 11056.829 2766390
1978.1074 -3485.5176 11426.608 3029308
2175.3428 -3705.7871 12148.721 3095102
2282.0598 -3762.6528 12335.146 4213581
2072.7859 -3311.1948 10855.125 4346194
2137.3225 -3311.1948 10855.125 3885386
2219.4365 -3337.6277 10941.78 3293506
2268.4028 -3314.1267 10864.736 3490885
2332.9966 -3314.1267 10864.736 4016973
2526.656 -3492.5303 11449.6 5135455
2655.7119 -3574.6167 11718.704 4938333
2935.1448 -3849.7405 12620.646 4148819
3090.6409 -3952.6455 12957.999 3162183
3216.6924 -4013.8037 13158.495 3228234
3469.8486 -4226.894 13857.071 4675680
3693.198 -4394.6313 14406.968 4544351
3410.2659 -3965.9836 13001.727 4544864
3885.96 -4419.0303 14486.953 4083801
3972.0889 -4419.0303 14486.953 4346715
4266.9565 -4646.3276 15232.104 5004388
4273.6636 -4556.9175 14938.991 6451318
4337.0337 -4530.3374 14851.854 6319987
4451.2964 -4556.9175 14938.991 6254192
4903.5146 -4921.6646 16134.745 11648191
4737.1611 -4663.4653 15288.289 13553873
4828.0542 -4663.4653 15288.289 13553613
5009.6528 -4749.46 15570.205 13421772
5102.2217 -4749.46 15570.205 13619151
4194.0474 -3834.5066 12570.703 13684944
4268.7837 -3834.5066 12570.703 13487565
5357.2769 -4729.4624 15504.646 13619664
5471.939 -4748.9741 15568.612 13619664
5725.6777 -4886.5308 16019.566 13488076
5863.0669 -4921.9136 16135.562 13488078
5959.3882 -4922.2368 16136.621 13290702
6056.3579 -4923.0757 16139.372 12303805
6151.8843 -4922.7349 16138.254 13488078
6248.0752 -4922.9272 16138.885 13553870
6333.5869 -4914.8271 16112.33 13750737
6170.6562 -4717.0513 15463.958 13750737
6248.9678 -4706.7881 15430.312 13750737
6335.0327 -4702.5771 15416.508 13750737
6417.916 -4696.1582 15395.466 13750737
6522.6387 -4705.6753 15426.665 13750737
6623.4956 -4712.1787 15447.986 13750737
6715.5518 -4712.3286 15448.477 13750737
6807.5547 -4712.438 15448.835 13750737
6899.4028 -4712.438 15448.835 13750737
6991.2495 -4712.438 15448.835 13750737
7004.8965 -4660.4102 15278.271 13750737
7084.2363 -4652.8608 15253.523 13750737
7589.8384 -4921.9297 16135.613 13750737
7685.769 -4921.9297 16135.613 13750737
7781.9243 -4922.0708 16136.078 13750737
0 0 0 0
0 0 0 0
7938.9634 -4842.3145 15874.61 13553874
8166.1846 -4922.3887 16137.119 13290704
8263.252 -4923.0601 16139.32 6448231
8359.2168 -4923.0674 16139.345 4281171
8454.1455 -4922.4712 16137.39 4478296
8432.0869 -4854.5366 15914.678 4346965
8526.7041 -4854.5366 15914.678 4084049
8654.1221 -4873.0059 15975.227 3557705
8448.5977 -4705.6348 15426.532 3228483
8498.209 -4682.436 15350.48 3228483
8589.4717 -4682.436 15350.48 3227969
8939.2236 -4821.8662 15807.574 3227968
9107.6025 -4861.5796 15937.768 3227968
9316.3838 -4921.8203 16135.255 3491139
9413.0879 -4922.2251 16136.583 3556675
9509.415 -4922.4272 16137.246 3293758
9605.458 -4922.4805 16137.42 3556674
9701.4004 -4922.4805 16137.42 2898744
9797.9316 -4922.7769 16138.392 3951943
9893.8789 -4922.7769 16138.392 5135960
9990.7842 -4923.249 16139.939 5069652
10085.736 -4922.7588 16138.332 2964019
10181.683 -4922.7588 16138.332 2832433
10275.267 -4921.6265 16134.62 2635054
10371.191 -4921.6265 16134.62 2569261
10465.518 -4920.875 16132.156 2503466
10561.428 -4920.875 16132.156 2569516
10658.832 -4921.5649 16134.418 2570029
10754.437 -4921.4189 16133.939 2701614
10849.938 -4921.2285 16133.315 2898993
10945.854 -4921.2285 16133.315 2899506
11043.782 -4922.125 16136.254 3031091
11140.039 -4922.2671 16136.72 3162676
11236.393 -4922.4497 16137.318 3557435
11332.734 -4922.6235 16137.889 3952195
11428.862 -4922.7026 16138.148 5991527
11524.654 -4922.6372 16137.934 3621439
11620.615 -4922.644 16137.956 9083032
11716.942 -4922.8047 16138.483 11514806
11812.705 -4922.7275 16138.229 13684948
11908.651 -4922.7275 16138.229 13619411
12004.889 -4922.8467 16138.621 13750228
12101.481 -4923.1089 16139.48 12300729
12197.435 -4923.1089 16139.48 4998990
12293.987 -4923.3491 16140.267 6251624
12391.056 -4923.7896 16141.712 5923428
12486.865 -4923.7275 16141.508 4540746
12582.831 -4923.7275 16141.508 6847609
12676.329 -4922.7695 16138.367 11449780
12771.84 -4922.6011 16137.815 9671573
12868.03 -4922.6953 16138.124 13619923
12963.571 -4922.5415 16137.62 13553872
13059.874 -4922.6772 16138.065 13422799
13154.661 -4922.2441 16136.646 12698306
13250.724 -4922.2905 16136.798 13882579
13347.313 -4922.5312 16137.586 13619151
13442.99 -4922.4346 16137.269 13488593
13538.643 -4922.3291 16136.925 13553873
13633.558 -4921.96 16135.713 13422801
0 0 0 0
13817.744 -4919.2271 16126.754 13685457
13921.479 -4922.0049 16135.86 13685457
14016.67 -4921.7446 16135.008 13685457
0 0 0 0
0 0 0 0
0 0 0 0
0 0 0 0
0 0 0 0
0 0 0 0
0 0 0 0
0 0 0 0
0 0 0 0
0 0 0 0
0 0 0 0
0 0 0 0
0 0 0 0
0 0 0 0
0 0 0 0
0 0 0 0
0 0 0 0
0 0 0 0
0 0 0 0
0 0 0 0
0 0 0 0
-10198.197 -3377.8972 11293.92 1514266
-10381.05 -3461.2512 11572.612 1777182
-11238.106 -3772.0107 12611.63 921619
-11005.162 -3718.6353 12433.169 1447456
-10144.034 -3450.8391 11537.799 1052437
-9949.3721 -3407.6611 11393.435 393990
-10005.117 -3450.2439 11535.809 1117974
-9936.5342 -3450.2439 11535.809 6513262
-9867.9502 -3450.2439 11535.809 11648448
-10456.479 -3681.6057 12309.362 2305586
-10438.446 -3701.1599 12374.741 4804953
-10167.876 -3630.8142 12139.542 5726311
-10015.998 -3602.1489 12043.701 8291214
-9857.1523 -3570.5474 11938.041 13358036
-9786.1768 -3570.5474 11938.041 13291730
-8878.4961 -3263.0393 10909.896 10398639
-9043.0332 -3347.969 11193.856 10070958
-8976.4824 -3347.969 11193.856 10861500
-8806.2988 -3309.0283 11063.658 11452611
-8608.7344 -3259.1355 10896.843 3357506
-8849.0781 -3375.5288 11286.001 1449509
-9510.9785 -3655.7334 12222.859 1843756
-9150.6328 -3544.3079 11850.31 7830660
-9080.1787 -3544.3079 11850.31 2830135
-8759.0713 -3445.7031 11520.628 921620
-8795.7529 -3487.4041 11660.054 1119518
-8372.1494 -3345.8206 11186.672 1119517
-8305.6426 -3345.8206 11186.672 1448226
-8239.1338 -3345.8206 11186.672 790809
-8297.4336 -3396.9158 11357.508 1185310
-7910.5151 -3265.0847 10916.734 659222
-7845.6123 -3265.0847 10916.734 987162
-7516.373 -3154.1589 10545.856 1710630
-7614.1514 -3222.0676 10772.907 2237232
-8280.5625 -3533.7969 11815.167 6316654
-8602.6445 -3702.658 12379.75 12238280
-8037.1177 -3489.1013 11665.729 11053493
-7566.5317 -3313.4016 11078.281 12042696
-7500.6685 -3313.4016 11078.281 4216155
-8724.3223 -3888.0894 12999.735 3027257
-8662.2686 -3894.9387 13022.637 1184534
-8230.8184 -3734.3169 12485.602 526609
-8004.7876 -3664.8186 12253.234 3158844
-7286.5928 -3366.6472 11256.306 1777190
-7326.5234 -3416.4744 11422.901 1119003
-7794.0562 -3668.4968 12265.533 6579315
-7607.1953 -3614.3618 12084.534 8882325
-7535.3496 -3614.3618 12084.534 9407896
-7284.959 -3527.8979 11795.444 9344924
-6628.2866 -3241.0901 10836.508 5198425
-6563.8608 -3241.0901 10836.508 1052689
-6665.8589 -3324.0813 11113.987 5000784
-6599.7827 -3324.0813 11113.987 2698285
-6415.4204 -3263.9016 10912.778 5133397
-6350.541 -3263.9016 10912.778 4213327
-6321.2852 -3282.4001 10974.627 9608353
-6259.5088 -3284.2207 10980.715 5068119
-6252.1738 -3314.9453 11083.441 2106921
-6424.8452 -3442.7817 11510.86 527886
-6891.3979 -3732.5439 12479.673 132099
-7505.1641 -4109.2153 13739.065 263428
-7267.0913 -4022.6467 13449.625 592393
-7000.6978 -3918.3008 13100.746 461578
-6601.6763 -3736.5396 12493.031 461578
-6095.7109 -3489.4229 11666.803 2172196
-6015.7466 -3483.2837 11646.277 461578
-5965.7905 -3494.5801 11684.046 593164
-5896.3257 -3494.5801 11684.046 461064
-5983.9131 -3588.77 11998.968 197892
-6028.4048 -3659.075 12234.031 395271
-5938.5879 -3648.5798 12198.94 66306
-5629.9463 -3501.7202 11707.92 66306
-5523.9751 -3478.8193 11631.351 395271
-5352.8062 -3413.7576 11413.818 658443
-5178.3599 -3344.9084 11183.623 329478
-5092.9087 -3332.501 11142.139 592650
-4929.6157 -3268.1606 10927.019 395271
-4863.8491 -3267.6211 10925.215 592650
-5012.772 -3413.2522 11412.129 263685
-4818.1411 -3325.74 11119.533 256
-4752.0322 -3325.74 11119.533 132099
-4789.0713 -3398.9473 11364.3 329478
-4721.5078 -3398.9473 11364.3 198149
-4471.3027 -3265.5579 10918.315 132613
-4492.8057 -3329.5996 11132.438 527371
-4512.2632 -3394.0183 11347.82 659212
-4366.5352 -3334.2578 11148.013 1448728
-4405.6821 -3416.001 11421.318 856591
-4402.1094 -3466.6602 11590.697 198660
-4333.1992 -3466.6602 11590.697 66820
-4150.584 -3374.2234 11281.637 330245
-4111.8413 -3397.6321 11359.903 1645850
-4044.303 -3397.6321 11359.903 1382678
-4051.1328 -3461.1694 11572.339 527625
-3985.7139 -3464.1086 11582.166 790543
-4112.4033 -3637.0542 12160.405 659467
-4017.5315 -3616.7312 12092.456 923150
-4152.355 -3806.2163 12725.994 2963499
-4109.0488 -3836.4226 12826.989 3555889
-4505.8281 -4286.4292 14331.575 2963752
-4732.1367 -4588.4858 15341.495 2108186
-4690.7642 -4637.7603 15506.241 1976601
-4764.3584 -4804.9556 16065.257 3621424
-4689.6992 -4826.417 16137.013 5727047
-4593.77 -4826.4272 16137.047 6713940
-4497.624 -4826.2056 16136.306 9805693
-4401.8916 -4826.4272 16137.047 4739631
-4306.2861 -4826.8018 16138.298 6319173
-4210.3765 -4826.8442 16138.439 6187591
-4103.0576 -4813.5034 16093.836 2371642
-3873.7698 -4653.022 15557.27 2437691
-3742.7578 -4605.6221 15398.789 2896961
-3651.208 -4605.6221 15398.789 3752010
-3730.4634 -4826.6172 16137.681 11447732
-3635.0042 -4827.2593 16139.827 13619410
-3538.8594 -4827.0015 16138.966 13488078
-3442.625 -4826.6035 16137.636 13553619
-3346.677 -4826.5962 16137.61 8882828
-3250.7344 -4826.5962 16137.61 2698294
-2715.1636 -4153.998 13888.794 2501173
-2224.1816 -3509.564 11734.145 2237744
-2161.3308 -3520.8232 11771.79 2895415
-2084.6562 -3509.564 11734.145 2698036
-2077.7012 -3618.9634 12099.919 2171178
-1938.5641 -3497.7161 11694.531 2170408
-1836.2399 -3436.3396 11489.321 5854817
-1999.4771 -3886.3936 12994.065 3354422
-1922.2236 -3886.3936 12994.065 12959433
-1823.7756 -3841.7476 12844.792 3880254
-1882.8555 -4139.5298 13840.421 855053
-1852.1136 -4258.0278 14236.617 1710366
-1767.4729 -4258.0278 14236.617 1250586
-1778.0815 -4499.0356 15042.419 1382428
-1752.7557 -4669.8306 15613.468 2105637
-1465.9332 -4124.0669 13788.721 1842721
-1374.1882 -4094.9609 13691.406 2434600
-1256.7211 -3980.7151 13309.427 1974049
-986.94275 -3336.2446 11154.655 1316119
-860.3208 -3117.7078 10423.982 1381912
0 0 0 0
0 0 0 0
0 0 0 0
0 0 0 0
0 0 0 0
0 0 0 0
0 0 0 0
0 0 0 0
0 0 0 0
-100.61687 -1303.8746 4359.4741 2630693
-67.171227 -1172.4835 3920.1714 2630693
-43.864719 -1172.4835 3920.1714 1841178
-20.325066 -1159.187 3875.7144 6184269
2.8234961 -1204.563 4027.4282 5986140
28.166201 -1267.4974 4237.8481 7170415
56.6217 -1344.9398 4496.7749 7893626
83.916733 -1353.9828 4527.0098 8683911
115.35513 -1409.2517 4711.7998 9210770
146.1613 -1436.7078 4803.5986 2434867
183.97043 -1512.7729 5057.9209 2500661
217.36519 -1536.266 5136.4692 2435380
247.90292 -1536.266 5136.4692 5921896
271.22217 -1496.4387 5003.3076 3815752
297.82715 -1480.821 4951.0903 5065818
312.99719 -1416.2712 4735.2695 5395039
309.77676 -1286.0276 4299.8032 4605005
335.3403 -1286.0276 4299.8032 13290956
363.91721 -1296.7654 4335.7046 13684944
389.69418 -1296.7654 4335.7046 12762560
528.21033 -1648.6459 5512.209 11380652
602.06879 -1769.3944 5915.9287 10132893
0 0 0 0
0 0 0 0
0 0 0 0
0 0 0 0
1286.9062 -2927.0635 9786.5684 6911080
1351.964 -2942.022 9836.5811 5266511
1414.6606 -2950.8147 9865.9795 6714212
1473.3167 -2950.8147 9865.9795 4806471
1550.4587 -2986.4219 9985.0312 5200720
1695.6165 -3145.5803 10517.174 3424314
1767.9089 -3163.0513 10575.588 3687491
1938.78 -3349.6367 11199.432 3358274
2015.8188 -3367.1006 11257.821 3029309
2097.8975 -3391.5891 11339.698 3292480
2147.491 -3363.6709 11246.354 4016202
2229.6943 -3386.9734 11324.267 3818824
2297.0203 -3386.9734 11324.267 2700858
2451.8169 -3512.2771 11743.216 3095617
2508.7244 -3494.2964 11683.099 3424837
2483.8125 -3366.3923 11255.454 3621962
2552.7908 -3369.113 11264.55 4806748
2934.1062 -3773.3716 12616.18 4148821
3062.2976 -3840.0642 12839.165 2570304
3143.6394 -3846.1934 12859.657 3294029
3141.4783 -3752.2925 12545.702 3294029
3250.9321 -3792.9717 12681.712 3425615
3344.7556 -3813.9841 12751.967 3557202
3787.2991 -4222.8931 14119.144 3425872
3972.0889 -4332.9009 14486.953 3623249
4266.9565 -4555.7686 15232.104 5465196
4483.478 -4687.4619 15672.418 5991537
4711.6636 -4825.7388 16134.745 8097168
4807.5894 -4825.7388 16134.745 6780791
4221.3638 -4154.4077 13890.165 7766403
4332.7778 -4182.2393 13983.218 12502472
5095.6904 -4826.0464 16135.773 9869722
5191.853 -4826.2612 16136.491 13356748
5287.876 -4826.3408 16136.758 13554127
5383.7139 -4826.2515 16136.458 13619408
5460.4648 -4809.354 16079.963 13553358
5535.1963 -4791.29 16019.566 11974839
5630.437 -4791.29 16019.566 13619664
5761.4399 -4821.2163 16119.624 13619664
5863.0078 -4825.9346 16135.398 13553871
5959.3882 -4826.2998 16136.621 13553871
6056.0576 -4826.8838 16138.572 13619664
6152.0308 -4826.9033 16138.638 13619664
6247.979 -4826.9033 16138.638 13685457
6342.9053 -4826.125 16136.035 13750737
6170.6562 -4625.1133 15463.958 13750737
6273.978 -4633.521 15492.069 13684944
6592.3579 -4798.2144 16042.717 13619151
6717.4341 -4819.5215 16113.957 13684944
6813.0171 -4819.3667 16113.439 13750737
6646.9922 -4636.7266 15502.786 13750737
6739.1602 -4636.7266 15502.786 13750737
7109.8618 -4825.7798 16134.881 13750737
7205.7954 -4825.7847 16134.897 13750737
7301.7339 -4825.792 16134.922 13750737
7398.0234 -4826.0293 16135.715 13750737
7494.1104 -4826.1289 16136.049 13750737
7590.1377 -4826.189 16136.249 13750737
7685.7866 -4826.0098 16135.65 13750737
0 0 0 0
0 0 0 0
0 0 0 0
7919.0596 -4736.0317 15834.812 13554130
8167.2754 -4827.0942 16139.275 13028559
8107.3442 -4736.0317 15834.812 5463392
8358.5195 -4826.7119 16137.999 4675418
8454.6973 -4826.8452 16138.443 4018257
8549.7031 -4826.3135 16136.666 4017488
7524.7695 -4200.6021 14044.615 3885903
7608.2686 -4200.6021 14044.615 3820366
7465.7061 -4077.1462 13631.843 3425095
7083.0537 -3826.6328 12794.257 3228226
7159.1191 -3826.6328 12794.257 3030590
8248.2031 -4362.4106 14585.617 2964284
8373.5439 -4382.6265 14653.209 2767162
8686.7148 -4499.7227 15044.717 2701112
9412.5605 -4826.0186 16135.681 2766904
9508.6396 -4826.0938 16135.931 2635319
9604.7246 -4826.1699 16136.187 2701111
9700.8955 -4826.2881 16136.581 3951178
9797.6895 -4826.7104 16137.993 3424831
9894.8281 -4827.2925 16139.939 2767415
9991.5977 -4827.6855 16141.254 2964535
10086.998 -4827.4155 16140.351 4280395
10182.393 -4827.1484 16139.457 3293498
10276.178 -4826.1304 16136.053 2438446
10370.665 -4825.457 16133.802 2372395
10444.121 -4815.1001 16099.175 2503467
10491.342 -4792.9463 16025.104 2108967
10586.615 -4792.9463 16025.104 2109479
10753.947 -4825.2783 16133.206 2438444
10810.852 -4807.9287 16075.197 2504492
10906.927 -4808.1509 16075.939 2570028
11013.857 -4813.1128 16092.529 2636077
11137.033 -4825.0278 16132.367 2701871
11235.434 -4826.0967 16135.941 2833458
11332.18 -4826.4429 16137.1 3162424
11428.862 -4826.7568 16138.148 4807250
11525.129 -4826.8916 16138.599 6913142
11621.34 -4827 16138.962 4344907
11717.29 -4827 16138.962 11977152
11813.749 -4827.208 16139.656 13357777
11909.703 -4827.208 16139.656 13619923
12005.171 -4827.0117 16139 5788502
12101.119 -4827.0107 16138.997 6646894
12197.309 -4827.1055 16139.312 4014915
12293.788 -4827.312 16140.004 3687491
12390.899 -4827.7617 16141.509 7701889
12485.909 -4827.3926 16140.273 4017481
12584.283 -4828.3193 16143.372 9018780
12676.356 -4826.832 16138.4 11056307
12771.672 -4826.5938 16137.604 13488849
12867.598 -4826.5874 16137.583 13422799
12963.353 -4826.5176 16137.349 13553871
13059.483 -4826.5874 16137.583 13619406
13155.382 -4826.5718 16137.529 11908024
13251.324 -4826.5718 16137.529 5394516
13347.05 -4826.4937 16137.269 8289923
13443.821 -4826.792 16138.266 5066068
13540.826 -4827.1689 16139.526 13290188
13636.331 -4827.0103 16138.995 13488081
13730.272 -4826.3042 16136.635 13619666
13825.969 -4826.2207 16136.354 13619664
13921.905 -4826.2207 16136.354 13619664
14009.5 -4823.3491 16126.754 13685457
0 0 0 0
0 0 0 0
0 0 0 0
0 0 0 0
0 0 0 0
0 0 0 0
0 0 0 0
0 0 0 0
0 0 0 0
0 0 0 0
0 0 0 0
0 0 0 0
0 0 0 0
0 0 0 0
0 0 0 0
0 0 0 0
0 0 0 0
0 0 0 0
0 0 0 0
0 0 0 0
0 0 0 0
-9993.3252 -3244.2417 11067.035 593420
-10403.225 -3399.6953 11597.332 1646110
-10449.846 -3437.7153 11727.028 4343880
-9592.8838 -3176.9944 10837.636 5988451
-10017.108 -3339.9241 11393.435 11646394
-9888.1016 -3319.356 11323.271 12765901
-9719.1191 -3284.9949 11206.056 12174281
-9021.0244 -3070.0886 10472.949 9279390
-8958.7598 -3070.0886 10472.949 3752010
-10456.479 -3608.4231 12309.362 5396325
-10438.446 -3627.5884 12374.741 1119517
-10087.602 -3530.5459 12043.701 1052701
-9320.0049 -3285.2148 11206.807 3619658
-9857.1523 -3499.5723 11938.041 9278367
-9392.9766 -3358.9622 11458.38 7765124
-9109.584 -3281.4187 11193.856 11716293
-8859.876 -3214.9568 10967.137 6519163
-8794.6738 -3214.9568 10967.137 3621193
-8045.5146 -2963.0645 10107.859 9477279
-8608.7344 -3194.3508 10896.843 8689820
-8988.7998 -3360.6682 11464.199 858142
-9299.6396 -3503.4478 11951.261 2962495
-8997.4531 -3415.7024 11651.938 1185310
-8928.1787 -3415.7024 11651.938 7698563
-8759.0713 -3377.2097 11520.628 1711138
-8690.5771 -3377.2097 11520.628 2172207
-8234.9785 -3225.5837 11003.387 3422787
-8169.5605 -3225.5837 11003.387 4014410
-7980.4707 -3176.3601 10835.472 1974571
-8039.3643 -3225.8403 11004.263 724502
-7973.9404 -3225.8403 11004.263 395793
-7885.23 -3216.3418 10971.86 1185054
-7678.1992 -3158.0195 10772.907 461330
-7676.1733 -3183.7437 10860.659 5921639
-8646.5811 -3616.6489 12337.422 6186099
-9479.3252 -3998.8879 13641.349 7763855
-8037.1177 -3419.7454 11665.729 13356245
-7378.6328 -3166.8926 10803.175 10265256
-7500.6685 -3247.5383 11078.281 329994
-8739.6924 -3817.5156 13022.637 1516074
-8662.2686 -3817.5156 13022.637 2764858
-8272.2676 -3678.5183 12548.478 1777448
-7553.4404 -3389.4373 11562.34 2106158
-7286.5928 -3299.7253 11256.306 328967
-7326.5234 -3348.562 11422.901 3815749
-8474.8691 -3909.6497 13336.932 5461088
-8454.5264 -3937.1008 13430.575 5263969
-8745.8887 -4111.6143 14025.891 12371147
-7952.2109 -3774.4788 12875.825 10530997
-8308.1553 -3981.7551 13582.904 4802381
-7115.1353 -3443.4602 11746.627 5066071
-6888.7422 -3366.9419 11485.601 5856357
-6820.4565 -3366.9419 11485.601 5461341
-6978.8062 -3479.9519 11871.11 2632238
-6350.541 -3199.022 10912.778 132618
-6175.2456 -3142.8271 10721.081 461840
-6628.3276 -3408.6016 11627.714 6779507
-6833.4834 -3551.1392 12113.95 5134167
-6761.4634 -3551.1392 12113.95 528144
-6891.3979 -3658.3486 12479.673 790800
-7406.5273 -3974.6011 13558.5 658443
-7147.6543 -3877.8857 13228.576 658443
-7000.6978 -3840.4131 13100.746 526857
-6725.8779 -3731.1653 12728.07 461064
-6076.5425 -3409.3054 11630.115 329478
-5868.1025 -3330.2529 11360.443 770
-5938.2539 -3409.3054 11630.115 198406
-5515.5498 -3203.926 10929.508 1777437
-5983.9131 -3517.4326 11998.968 198405
-6011.1138 -3576.0537 12198.94 329478
-5739.6592 -3456.2642 11790.305 66306
-5473.9849 -3337.0369 11383.586 724236
-5292.9434 -3267.0637 11144.888 526857
-5115.166 -3197.3569 10907.098 1579545
-5169.3364 -3272.7058 11164.135 132099
-5102.9624 -3272.7058 11164.135 329478
-5036.5884 -3272.7058 11164.135 395271
-4897.8491 -3225.0559 11001.587 592650
-5234.4614 -3493.3542 11916.829 132099
-4788.7461 -3239.7446 11051.694 513
-4723.0405 -3239.7446 11051.694 514
-4821.437 -3353.8977 11441.103 263427
-4753.417 -3353.8977 11441.103 132099
-4432.5601 -3172.9126 10823.711 724749
-4492.8057 -3263.4141 11132.438 658958
-4476.7861 -3300.3979 11258.6 856336
-4409.8506 -3300.3979 11258.6 1053715
-4345.9478 -3302.7021 11266.461 1382680
-4278.9648 -3302.7021 11266.461 593164
-4185.6245 -3282.0339 11195.956 395785
-4119.0615 -3282.0339 11195.956 856336
-4111.8413 -3330.0942 11359.903 922640
-4119.9336 -3392.3687 11572.339 1251605
-4057.0806 -3397.3494 11589.329 1383705
-3988.179 -3397.3494 11589.329 2042144
-3947.3315 -3421.6677 11672.286 1647896
-3877.9363 -3421.6677 11672.286 2766629
-3986.3894 -3581.4497 12217.349 3424811
-3913.7542 -3581.4497 12217.349 3556650
-4505.8281 -4201.2236 14331.575 4017455
-4732.1367 -4497.2764 15341.495 4214576
-4881.3208 -4730.229 16136.163 4017705
-4785.9292 -4730.7656 16137.993 5925693
-4689.9844 -4730.7656 16137.993 6583878
-4593.77 -4730.4883 16137.047 5728315
-4484.4238 -4716.3877 16088.946 7241049
-4118.7427 -4426.2026 15099.042 9610111
-3983.6458 -4376.4043 14929.165 6978644
-3939.207 -4426.2026 15099.042 6648658
-4077.6992 -4688.6636 15994.37 2304818
-3758.7251 -4425.0894 15095.243 2173491
-3626.084 -4373.3535 14918.758 2304053
-3537.3875 -4373.3535 14918.758 4869204
-3559.6577 -4514.0718 15398.789 13685205
-3634.2107 -4730.271 16136.305 13619406
-3538.2759 -4730.271 16136.305 13619665
-3442.3411 -4730.271 16136.305 13684947
-3346.677 -4730.6533 16137.61 10398123
-3250.7344 -4730.6533 16137.61 3817286
-2754.9607 -4131.1011 14092.366 2106155
-2268.9407 -3509.0229 11970.279 2171948
-2197.7739 -3509.0229 11970.279 2303533
-2091.2625 -3450.7017 11771.329 2369326
-2086.5598 -3562.1489 12151.508 1579040
-1999.1603 -3535.3479 12060.081 1447454
-1836.2399 -3368.0325 11489.321 1447197
-1801.4965 -3431.9736 11707.442 2171178
-1940.7761 -3845.9043 13119.479 5000026
-1993.9618 -4116.749 14043.407 12697545
-1943.7047 -4188.3647 14287.709 15591659
-1852.1136 -4173.3877 14236.617 1317662
-1722.6282 -4067.4998 13875.403 6777708
-1566.3146 -3884.4263 13250.889 1578777
-1811.3595 -4730.0366 16135.507 1381656
-1484.1204 -4092.2373 13959.791 1513498
-1374.1882 -4013.562 13691.406 1579291
-1159.9124 -3601.0366 12284.164 1776670
-986.94275 -3269.9268 11154.655 1316119
-844.47076 -2999.4373 10231.938 1381912
0 0 0 0
0 0 0 0
0 0 0 0
0 0 0 0
0 0 0 0
0 0 0 0
0 0 0 0
0 0 0 0
-124.50236 -1257.4259 4289.439 2499358
-103.69689 -1317.0764 4492.9238 2499106
-67.171227 -1149.177 3920.1714 2433312
0 0 0 0
-22.207666 -1241.3796 4234.7007 7039073
2.9688077 -1241.3796 4234.7007 9144455
29.487059 -1300.5602 4436.5825 8881542
56.469288 -1314.6571 4484.6709 8683395
83.658424 -1322.9835 4513.0747 8881287
115.35513 -1381.2388 4711.7998 3947328
147.85027 -1424.421 4859.1069 2829108
190.50824 -1535.3934 5237.666 2303024
221.09019 -1531.5321 5224.4937 2368818
240.80028 -1462.5878 4989.3047 8487051
268.39154 -1451.3854 4951.0903 1776423
293.3595 -1429.6134 4876.8198 4342606
312.99719 -1388.1188 4735.2695 4803157
316.71841 -1288.7092 4396.1553 5066070
335.43701 -1260.8278 4301.0435 5986912
363.91721 -1270.9884 4335.7046 10526625
389.69418 -1270.9884 4335.7046 10395036
481.17642 -1471.9907 5021.3809 10000535
0 0 0 0
0 0 0 0
0 0 0 0
0 0 0 0
991.70374 -2315.4773 7898.7544 6909798
1293.4828 -2883.5405 9836.5811 7567982
1351.964 -2883.5405 9836.5811 5134155
1403.2739 -2868.8796 9786.5684 5397838
1443.2155 -2833.0696 9664.4092 5463888
1531.9725 -2892.1587 9865.9795 5595220
1652.3452 -3004.3748 10248.781 4279110
1744.6168 -3059.3318 10436.255 3226427
1850.2867 -3133.2019 10688.247 3094590
1940.0381 -3176.1062 10834.605 3291968
2071.9475 -3283.053 11199.432 2765624
2167.4182 -3327.3999 11350.712 3160895
2388.3569 -3555.8701 12130.089 3029309
2453.6592 -3546.022 12096.493 2503223
2491.6453 -3498.3813 11933.979 2372150
2508.7244 -3424.8374 11683.099 2766908
2483.3323 -3298.8372 11253.276 4214099
2550.7295 -3299.4756 11255.454 3688270
2890.2893 -3643.135 12427.774 2634813
2964.1758 -3643.135 12427.774 2569534
2928.4978 -3511.7488 11979.579 3030088
2950.998 -3454.7114 11785.007 2635329
3216.0659 -3677.7051 12545.702 3227210
3514.4553 -3927.8303 13398.951 3030600
3638.9868 -3976.8672 13566.23 3096907
3856.1201 -4122.7837 14063.993 4412508
4454.792 -4661.7725 15902.638 4873315
4615.312 -4729.377 16133.257 5399656
4711.8164 -4729.9673 16135.27 6057072
4807.1455 -4729.377 16133.257 6846841
4559.7632 -4398.2388 15003.649 6648179
4332.7778 -4099.105 13983.218 12830921
4993.6172 -4635.3647 15812.554 13356236
5191.6221 -4730.1152 16135.773 13619407
5287.876 -4730.4033 16136.758 11645871
5384.2075 -4730.7495 16137.938 13422540
5480.1519 -4730.7495 16137.938 13684943
5575.0166 -4729.833 16134.812 10988201
5670.9429 -4729.833 16134.812 13619664
5767.0781 -4730.0049 16135.398 13619664
5863.2227 -4730.1787 16135.991 13553871
5959.9429 -4730.8037 16138.123 13488078
6056.0576 -4730.9355 16138.572 13422285
6151.8174 -4730.7905 16138.078 13553871
6247.7632 -4730.7905 16138.078 13685457
6342.9053 -4730.1914 16136.035 13750737
6439.1904 -4730.4507 16136.919 13684944
6535.2349 -4730.5273 16137.181 13619151
6630.6724 -4730.1685 16135.957 13619151
6717.4341 -4723.7192 16113.957 13684944
6783.1143 -4702.8359 16042.717 13750737
6646.9922 -4544.5581 15502.786 13750737
6735.1367 -4541.8452 15493.531 13750737
6811.8652 -4531.6099 15458.617 13750737
6898.2671 -4527.9971 15446.292 13750737
6990.0991 -4527.9971 15446.292 13750737
7398.0234 -4730.0977 16135.715 13750737
7494.2173 -4730.2632 16136.28 13750737
7590.1519 -4730.2632 16136.28 13750737
0 0 0 0
0 0 0 0
0 0 0 0
0 0 0 0
8069.7983 -4730.2476 16136.226 13488336
8167.2754 -4731.1416 16139.275 7501689
8262.1855 -4730.5444 16137.238 4870741
8358.3848 -4730.6904 16137.737 5792101
8454.4756 -4730.7734 16138.021 6646895
8550.4209 -4730.7734 16138.021 6580845
8646.3516 -4730.7661 16137.995 4277833
8742.2969 -4730.7661 16137.995 3949380
7951.5571 -4256.1587 14518.973 4410700
8037.8765 -4256.1587 14518.973 3951433
8161.4878 -4275.6953 14585.617 4411986
8649.2744 -4483.6025 15294.849 3160635
8635.3369 -4429.8052 15111.331 2305840
9316.4072 -4729.9746 16135.295 3226684
9412.707 -4730.1611 16135.931 2832184
9508.8301 -4730.2559 16136.254 3095612
9604.8877 -4730.3164 16136.461 2437425
9701.0664 -4730.4346 16136.864 2437168
9798.3203 -4731.0698 16139.032 2437423
9895.6338 -4731.7217 16141.255 2437936
9991.6006 -4731.7231 16141.259 3293243
10087.556 -4731.7183 16141.244 3556158
10182.426 -4731.2104 16139.511 3095092
10274.744 -4729.5371 16133.802 2569006
10348.14 -4719.2642 16098.759 2174249
10368 -4684.9897 15981.838 1976871
10463.017 -4684.9897 15981.838 1976870
10581.88 -4695.5718 16017.936 1845284
10692.683 -4702.4194 16041.296 2042917
10810.852 -4712.3574 16075.197 2371882
10906.424 -4712.3574 16075.197 2503467
11001.995 -4712.3574 16075.197 2570029
11098.078 -4712.5752 16075.939 2570029
11235.657 -4730.2583 16136.262 2372396
11332.71 -4730.7246 16137.854 2438704
11429.114 -4730.9155 16138.505 3162683
11525.729 -4731.1899 16139.439 2502444
11621.571 -4731.144 16139.284 8227723
11717.29 -4731.0498 16138.962 11253175
11813.217 -4731.04 16138.929 11185840
11909.167 -4731.04 16138.929 4212038
12004.975 -4730.9839 16138.737 6055527
12100.145 -4730.6787 16137.696 4936531
12196.104 -4730.6851 16137.719 4542286
12292.808 -4730.978 16138.717 2963255
12389.673 -4731.3276 16139.91 2634547
12485.909 -4731.4341 16140.273 2634547
12584.283 -4732.3423 16143.372 7305849
12677.261 -4731.2231 16139.554 7371642
12771.947 -4730.7534 16137.952 7698297
12867.598 -4730.6455 16137.583 5922915
12962.817 -4730.3818 16136.684 6384236
0 0 0 0
0 0 0 0
0 0 0 0
0 0 0 0
13444.449 -4731.0664 16139.02 8094341
13540.826 -4731.2148 16139.526 5923684
13636.319 -4731.0557 16138.982 12370368
13732.1 -4730.9966 16138.78 13291213
13826.987 -4730.6333 16137.542 12040888
13923.156 -4730.7104 16137.805 12764354
14018.871 -4730.6333 16137.542 12435390
0 0 0 0
0 0 0 0
0 0 0 0
0 0 0 0
0 0 0 0
0 0 0 0
0 0 0 0
0 0 0 0
0 0 0 0
0 0 0 0
0 0 0 0
0 0 0 0
0 0 0 0
0 0 0 0
0 0 0 0
0 0 0 0
0 0 0 0
0 0 0 0
0 0 0 0
0 0 0 0
0 0 0 0
-9993.3252 -3178.4451 11067.035 66819
-10747.116 -3440.8481 11980.697 1119511
-10691.936 -3446.0205 11998.707 1712163
-10265.325 -3330.7458 11597.332 2369836
-9955.4219 -3252.0361 11323.271 8751501
-9785.7422 -3218.3716 11206.056 12831183
-9414.6621 -3117.5542 10855.02 12701395
-9021.0244 -3007.824 10472.949 10662839
-8958.7598 -3007.824 10472.949 2174511
-10456.479 -3535.2405 12309.362 8619670
-10438.446 -3554.0176 12374.741 12568784
-9977.4951 -3421.1885 11912.244 9871529
-9320.0049 -3218.5872 11206.807 6646896
-9292.0654 -3232.0439 11253.661 1548
-9786.1768 -3428.5974 11938.041 659483
-9237.8711 -3260.1423 11351.497 3490636
-9241.7676 -3285.5198 11439.859 924452
-8794.6738 -3149.7542 10967.137 5201512
-8660.1201 -3124.7312 10880.009 8688282
-8628.4258 -3136.7244 10921.768 1909547
-8921.2256 -3267.7588 11378.017 2107189
-9066.7275 -3346.4285 11651.938 3685971
-8980.1924 -3340.0095 11629.586 5395815
-8928.1787 -3346.4285 11651.938 1775908
-8759.0713 -3308.7166 11520.628 8288909
-8356.498 -3181.5242 11077.757 1906722
-8234.9785 -3160.165 11003.387 1907750
-8044.8906 -3111.9402 10835.472 10264234
-7975.3003 -3109.9241 10828.452 11186359
-8196.0996 -3222.0325 11218.802 4015179
-8199.5693 -3249.8433 11315.637 856858
-8049.4395 -3216.7322 11200.348 790298
-7740.7427 -3119.1738 10860.659 329748
-7885.5132 -3204.2383 11156.845 9870245
-8932.4434 -3660.4436 12745.307 7699588
-9479.3252 -3917.7861 13641.349 659735
-8780.8945 -3660.4436 12745.307 10529717
-7911.5039 -3326.7332 11583.36 10993345
-6576.3721 -2789.6016 9713.1201 3425351
-8818.5508 -3773.8398 13140.142 1121059
-8662.2686 -3740.0925 13022.637 197899
-8584.8447 -3740.0925 13022.637 3551805
-8156.5884 -3585.8564 12485.602 7236985
-7484.6987 -3320.6963 11562.34 10860220
-7326.5234 -3280.6497 11422.901 1447197
-8474.8691 -3830.3577 13336.932 328969
-8779.708 -4005.6116 13947.148 1249313
-9317.9541 -4291.7114 14943.319 854040
-8855.2598 -4117.8633 14337.998 197637
-8429.3799 -3957.9209 13781.094 11646146
-8347.4473 -3957.9209 13781.094 13291476
-8188.5078 -3921.0464 13652.7 12896462
-6975.4614 -3373.6233 11746.627 7964039
-7129.7734 -3483.1274 12127.909 1251353
-6238.9854 -3079.0874 10721.081 396301
-6386.8618 -3184.6028 11088.476 264460
-6844.2188 -3448.2415 12006.439 198151
-7367.6021 -3751.053 13060.8 197892
-7566.5952 -3893.4001 13556.438 658186
-7199.6006 -3744.447 13037.799 724237
-7143.2222 -3755.5588 13076.488 592650
-7044.5737 -3744.447 13037.799 132099
-6915.2534 -3716.6035 12940.85 461064
-6601.6763 -3587.9902 12493.031 513
-5951.5127 -3271.4348 11390.816 256
-5722.5269 -3181.7708 11078.614 513
-5656.6616 -3181.7708 11078.614 395271
-5515.5498 -3138.9473 10929.508 592650
-5814.2832 -3348.4067 11658.825 526857
-5809.7559 -3386.1675 11790.305 526857
-5615.9224 -3313.168 11536.127 724234
-5469.6011 -3266.7402 11374.47 1119248
-5356.5845 -3239.29 11278.892 1908765
-5115.166 -3132.511 10907.098 1251091
-5159.1519 -3200.0149 11142.139 329476
-5102.9624 -3206.332 11164.135 329478
-5036.5884 -3206.332 11164.135 329478
-4917.4116 -3172.2678 11045.527 592650
-5234.4614 -3422.5054 11916.829 197892
-4747.3818 -3146.6221 10956.231 526855
-4691.0337 -3152.5295 10976.8 132097
-4708.6929 -3209.0398 11173.563 1776919
-4560.5137 -3152.5295 10976.8 2172190
-4432.5601 -3108.5625 10823.711 922381
-4592.9165 -3268.4707 11380.496 461832
-4525.2559 -3268.4707 11380.496 724749
-4457.5957 -3268.4707 11380.496 789773
-4338.6812 -3230.3098 11247.623 723980
-4278.9648 -3235.72 11266.461 462088
-4434.5688 -3406.7144 11861.847 1317141
-4179.3789 -3262.5566 11359.903 1646106
-4141.1924 -3285.8457 11440.994 659722
-4119.9336 -3323.5679 11572.339 922894
-4057.0806 -3328.4473 11589.329 791820
-3988.179 -3328.4473 11589.329 1055249
-4143.6191 -3518.9705 12252.711 1779483
-4032.8462 -3486.1841 12138.553 1911322
-3986.3894 -3508.8145 12217.349 1450768
-3888.5122 -3486.1841 12138.553 2635294
-4800.4141 -4385.1196 15268.558 4082988
-4916.5117 -4577.7378 15939.236 4740920
-4881.7002 -4634.6558 16137.419 3886637
-4786.0034 -4634.8926 16138.243 5202485
-4690.0571 -4634.8926 16138.243 5991487
-4593.8711 -4634.6509 16137.4 4083236
-4484.4238 -4620.7344 16088.946 4871979
