# .PCD v0.7 - Point Cloud Data file format
VERSION 0.7
FIELDS x y z rgb
SIZE 4 4 4 4
TYPE F F F U
COUNT 1 1 1 1
WIDTH 1427
HEIGHT 1
VIEWPOINT 0 0 0 1 0 0 0
POINTS 1427
DATA ascii
0 0 0 0
0 0 0 0
0 0 0 0
0 0 0 0
-1618.1034 72.309662 7184.5615 9978880
-1644.9595 75.502907 7501.8364 10109440
-1605.0518 75.724304 7523.8345 9976320
-1560.3204 75.724304 7523.8345 9713408
-1504.3033 75.160423 7467.8081 9581312
-1468.374 75.596436 7511.1289 9252608
-1474.585 78.297348 7779.4873 8531200
-1416.6044 77.654366 7715.6021 5443328
-1370.7329 77.654366 7715.6021 1441792
-1324.8616 77.654366 7715.6021 720896
-1420.3385 86.236397 8568.2969 393216
-1395.7053 87.893089 8732.9033 393216
-1253.9004 82.013947 8148.7622 393216
-1242.2869 84.519928 8397.752 327680
-1192.36 84.519928 8397.752 262144
-1158.673 85.721397 8517.1279 262144
-1154.1742 89.290779 8871.7754 262144
-1116.9919 90.552444 8997.1318 262144
-1063.5015 90.552444 8997.1318 196608
-1011.8258 90.715149 9013.2979 393216
-963.42261 91.205841 9062.0527 393216
-908.63647 91.114624 9052.9893 458752
-886.30334 94.471085 9386.4814 458752
-805.70508 91.650818 9106.2646 393216
-751.5658 91.650818 9106.2646 787716
-648.3681 85.203911 8465.7109 1247752
-641.26953 91.36335 9077.7021 458752
-547.70605 85.203911 8465.7109 524288
-421.40146 72.189087 7172.5811 655360
-368.12024 70.161499 6971.124 655360
-323.13602 69.401428 6895.604 524288
-275.95789 67.880798 6744.5176 524288
0 0 0 0
0 0 0 0
0 0 0 0
-85.264183 50.082329 4976.0923 1116928
-55.679935 50.082329 4976.0923 919552
-25.594101 49.119705 4880.4478 1313024
3.4215198 49.119705 4880.4478 2431232
32.437141 49.119705 4880.4478 8484393
70.401184 56.272251 5591.1123 65792
103.90047 56.412643 5605.0615 0
145.39165 59.770306 5938.6724 65793
204.35298 67.594505 6716.0718 262144
250.8931 69.423866 6897.8335 262144
299.86826 71.318344 7086.0659 327680
345.04672 71.954346 7149.2578 196608
387.57431 71.958664 7149.6865 196608
432.24615 72.3209 7185.6772 0
474.96698 72.3209 7185.6772 0
518.97443 72.500626 7203.5352 0
571.80957 73.792183 7331.8618 0
617.89465 74.09137 7361.5889 0
672.13849 75.26458 7478.1562 0
717.77435 75.3881 7490.4297 0
760.05341 75.16523 7468.2856 0
804.45441 75.16523 7468.2856 65536
848.79181 75.159592 7467.7256 196608
894.74506 75.290489 7480.731 196608
933.28247 74.814514 7433.439 393216
1007.5112 77.113335 7661.8462 458752
1057.6248 77.44738 7695.0361 458752
1103.5959 77.462975 7696.5854 458752
1129.7963 76.144821 7565.6157 393216
1167.223 75.655266 7516.9741 196608
1213.8064 75.77343 7528.7153 65792
1258.7635 75.785278 7529.8921 256
1305.5782 75.904312 7541.7197 256
1357.4818 76.301483 7581.1812 256
1446.6851 78.702286 7819.7207 256
1519.514 80.09053 7957.6553 256
1556.1708 79.545952 7903.5464 0
1603.1595 79.545952 7903.5464 0
1655.1664 79.787849 7927.5811 131585
1660.9036 77.847664 7734.8071 256
1666.5275 76.006851 7551.9077 0
1741.802 77.355904 7685.9468 0
1787.4969 77.355904 7685.9468 256
1827.5962 77.119774 7662.4854 65536
1873.1519 77.119774 7662.4854 65536
0 0 0 0
0 0 0 0
0 0 0 0
0 0 0 0
0 0 0 0
0 0 0 0
0 0 0 0
2829.0437 97.50425 9687.8516 0
2989.5835 100.98144 10033.338 256
3072.8618 101.7639 10111.083 512
3132.9751 101.7639 10111.083 593670
3246.0532 103.4519 10278.799 856837
3330.1255 104.17017 10350.166 593921
3426.4927 105.24001 10456.463 1646859
3735.7268 112.69312 11196.991 1581319
3902.1475 115.65253 11491.033 1778697
4677.75 136.25449 13538.008 660736
4804.8423 137.58905 13670.607 2371344
4438.8223 124.99358 12419.143 2831894
4393.9473 121.70549 12092.444 2108429
3628.6445 98.889786 9825.5156 593414
0 0 0 0
0 0 0 0
0 0 0 0
3569.5674 91.394547 9080.8018 395009
3695.106 93.199219 9260.1113 263424
3649.78 90.704582 9012.248 1448202
3541.7339 86.745941 8618.9248 1842958
3424.2217 82.671677 8214.1123 1908239
3473.0566 82.671677 8214.1123 131840
3713.9927 87.180984 8662.1494 526080
3818.8901 88.41729 8784.9873 657409
4153.165 94.859276 9425.0518 723715
4507.0439 101.57155 10091.972 987144
4957.439 110.25401 10954.645 329984
5462.668 119.91496 11914.54 66560
5965.9272 129.28589 12845.62 512
6427.812 137.53467 13665.203 256
6969.8223 147.27055 14632.544 256
6862.5981 143.21736 14229.826 256
7028.6699 144.89691 14396.702 1776921
7253.6597 147.73601 14678.791 0
7086.644 142.61853 14170.327 256
7170.8901 142.61853 14170.327 132353
6955.564 136.72964 13585.218 256
6665.9741 129.53287 12870.159 256
6529.1011 125.43336 12462.838 256
6603.1963 125.43336 12462.838 0
6535.7959 122.77536 12198.745 256
6608.3208 122.77536 12198.745 256
7161.8125 131.6142 13076.955 256
7848.6323 142.68706 14177.137 256
8302.3184 149.33133 14837.299 0
8359.5039 148.77913 14782.434 855820
8447.3887 148.77913 14782.434 256
8601.7441 149.93776 14897.553 131842
8690.3135 149.93776 14897.553 256
9011.2344 153.90616 15291.846 256
9397.1104 158.89359 15787.389 658440
9595.0459 160.63599 15960.51 987404
9689.9355 160.63599 15960.51 855818
9744.5186 159.97427 15894.763 256
9839.0176 159.97427 15894.763 256
9833.3066 158.36044 15734.416 263428
10180.233 162.40257 16136.035 724233
10277.381 162.42175 16137.94 256
10373.371 162.42247 16138.012 256
10469.315 162.42247 16138.012 526851
10565.872 162.43187 16138.945 1447953
10662.436 162.44121 16139.873 1447955
10758.613 162.44456 16140.206 256
10854.037 162.43655 16139.411 256
10841.175 160.82234 15979.026 0
11041.608 162.3728 16133.078 256
11143.319 162.45729 16141.472 256
11239.637 162.46239 16141.978 2107428
11335.605 162.46239 16141.978 2764844
11431.34 162.45905 16141.646 1383450
11527.662 162.46407 16142.145 4344646
11623.685 162.46481 16142.219 1053456
11720.962 162.48294 16144.02 512
11816.776 162.48065 16143.792 461320
11913.355 162.48882 16144.604 66050
12008.734 162.48065 16143.792 724493
12104.122 162.47269 16143.002 1579802
12197.574 162.4391 16139.664 461321
12293.066 162.43298 16139.057 856336
12388.268 162.42314 16138.079 256
12484.212 162.42314 16138.079 256
12580.496 162.42751 16138.513 256
12670.865 162.35605 16131.412 256
12756.093 162.22023 16117.918 256
12851.919 162.22023 16117.918 256
12949.645 162.24403 16120.283 256
13058.857 162.41039 16136.811 256
13155.259 162.41609 16137.379 256
13251.2 162.41609 16137.379 256
13348.564 162.43343 16139.1 256
13444.183 162.4294 16138.699 256
13539.938 162.42706 16138.468 256
13636.481 162.43416 16139.174 512
13732.597 162.4361 16139.365 256
13828.973 162.44107 16139.86 512
13925.615 162.44907 16140.654 1281
14022.288 162.45734 16141.476 1251346
14117.419 162.44771 16140.52 1777946
14213.123 162.44479 16140.229 396294
14309.092 162.4449 16140.241 923920
14405.785 162.45322 16141.066 1516059
14502.571 162.46242 16141.981 1120790
14597.871 162.45499 16141.242 6518898
14693.557 162.4519 16140.936 10329761
14789.8 162.45499 16141.242 4672334
14885.766 162.455 16141.244 2962747
14981.402 162.45146 16140.892 2040873
15076.699 162.44431 16140.181 8358544
15172.481 162.4424 16139.992 7635076
15267.839 162.43602 16139.358 3028282
15363.051 162.42819 16138.581 1712935
15458.999 162.42819 16138.581 5266781
0 0 0 0
0 0 0 0
0 0 0 0
0 0 0 0
0 0 0 0
0 0 0 0
-13357.829 236.83449 14793.031 8487806
-13269.881 236.83449 14793.031 8750978
-13181.932 236.83449 14793.031 8553598
-13519.211 244.52568 15273.435 8488063
-14188.243 258.362 16137.672 8422269
-14091.863 258.35397 16137.171 8356220
-13995.921 258.35394 16137.169 8290427
-13899.927 258.35294 16137.105 8093050
-13803.985 258.35291 16137.104 7961461
-13708.054 258.35306 16137.112 7829876
-13615.019 258.40817 16140.557 7566704
-13514.978 258.33017 16135.684 7435119
-13419.043 258.33011 16135.681 7369326
-13076.136 253.54134 15836.566 7040360
-13227.699 258.34024 16136.312 6579810
-13132.035 258.34558 16136.646 5790295
-13036.099 258.34558 16136.646 5066571
-12941.143 258.36517 16137.869 3421747
-12845.398 258.36917 16138.119 1512982
-12749.814 258.3765 16138.578 526344
-12653.866 258.3765 16138.578 65793
-12557.886 258.37585 16138.537 526344
-12461.902 258.37512 16138.491 723467
-12365.628 258.36829 16138.064 986893
-12269.071 258.35541 16137.261 1118478
-12173.131 258.35541 16137.261 986893
-12077.872 258.37 16138.172 921100
-11981.323 258.35699 16137.359 855307
-11859.331 257.79071 16101.988 855307
-11696.182 256.31329 16009.706 723721
-11602.371 256.3436 16011.599 657928
-11538.563 257.04276 16055.271 592135
-11496.353 258.23874 16129.973 526342
-11405.169 258.34549 16136.642 328963
-11309.605 258.35403 16137.174 66048
-11225.784 258.63324 16154.614 131072
-11129.741 258.63324 16154.614 855046
-11029.097 258.52539 16147.877 1117443
-10929.941 258.4509 16143.224 2368274
-10721.209 255.761 15975.209 2369042
-10587.737 254.83449 15917.338 2105872
-10493.104 254.83449 15917.338 1184775
-10090.658 247.29092 15446.156 0
-9199.9736 227.53369 14212.091 65536
-7796.251 194.60414 12155.262 0
-7909.6064 199.28082 12447.375 0
-7856.5312 199.8131 12480.621 197632
-8830.3262 226.72061 14161.305 256
-8921.8818 231.27644 14445.867 0
-8751.9941 229.07773 14308.533 0
-8666.9268 229.07773 14308.533 0
-8939.8838 238.6346 14905.47 0
-9131.3994 246.18712 15377.212 0
-8669.9746 236.11076 14747.827 0
-8149.8931 224.2148 14004.787 0
-8066.6304 224.2148 14004.787 256
-7983.3682 224.2148 14004.787 256
-8443.9111 239.64868 14968.811 0
-8463.251 242.75607 15162.902 256
-7915.0366 229.47562 14333.387 256
-7829.8208 229.47562 14333.387 256
-7610.6133 225.5054 14085.4 256
-7496.1904 224.58618 14027.985 256
-7412.79 224.58618 14027.985 256
-7346.1621 225.10013 14060.086 256
-7329.6484 227.17917 14189.945 256
-7187.2231 225.35858 14076.23 256
-7079.332 224.59074 14028.269 256
-6995.9302 224.59074 14028.269 256
-6928.0566 225.09525 14059.782 256
-6844.4673 225.09525 14059.782 256
-6811.7876 226.79024 14165.653 256
-6718.1416 226.47241 14145.802 256
-6629.6714 226.32327 14136.485 256
-6518.1787 225.37424 14077.208 256
-6169.7402 216.10126 13498.004 256
-6084.6235 215.92854 13487.215 256
-5984.9321 215.22707 13443.4 256
-6050.2729 220.52176 13774.114 256
-6284.8452 232.21454 14504.463 256
-6259.1064 234.4808 14646.017 256
-6191.1367 235.20659 14691.352 256
-6106.6294 235.31593 14698.18 256
-6016.4487 235.20659 14691.352 256
-5619.564 222.9272 13924.361 256
-5282.7549 212.69939 13285.518 256
-4962.1465 202.8233 12668.644 256
0 0 0 0
-3881.7673 163.63115 10220.644 256
-4441.2339 190.19203 11879.675 256
-4370.606 190.19203 11879.675 256
-4077.8921 180.36896 11266.111 0
-3753.6738 168.80107 10543.564 0
-3610.2505 165.10863 10312.929 0
-3482.2461 162.00592 10119.129 1
-3422.0852 162.00592 10119.129 0
-3307.113 159.36467 9954.1523 0
-3247.9326 159.36467 9954.1523 0
-3066.7705 153.26834 9573.3672 131584
-2826.3596 143.92441 8989.7314 262400
-2323.5205 120.59927 7532.8086 655360
-2435.6365 128.90305 8051.4746 2297856
-2387.7683 128.90305 8051.4746 6503938
-2259.3979 124.46827 7774.4717 4794624
0 0 0 0
0 0 0 0
0 0 0 0
0 0 0 0
0 0 0 0
-1121.9159 70.453094 4400.604 917504
-1121.9924 72.14019 4505.9824 1048576
0 0 0 0
0 0 0 0
-1381.8564 95.703758 5977.7979 9979392
-1602.6339 113.92422 7115.8755 9911808
-1587.5886 115.91459 7240.1968 9844736
-1567.0786 117.60579 7345.8315 9384960
-1546.1851 119.36436 7455.6743 8925440
-1501.859 119.36436 7455.6743 8333824
-1468.374 120.25218 7511.1289 4787968
-1492.0054 126.01994 7871.3916 1245184
-1445.2078 126.01994 7871.3916 720896
-1553.1244 139.96227 8742.25 393216
-1501.1493 139.96227 8742.25 327680
-1427.2354 137.8434 8609.9023 262144
-1395.7053 139.81262 8732.9033 262144
-1273.2136 132.47005 8274.2744 196608
-1242.2869 134.44691 8397.752 196608
-1192.7358 134.48929 8400.3994 196608
-1206.9193 142.03595 8871.7754 196608
-1170.4823 144.04291 8997.1318 196608
-1116.9919 144.04291 8997.1318 262144
-1065.4124 144.30171 9013.2979 327680
-1013.5441 144.54677 9028.6045 393216
-970.59937 146.16302 9129.5586 393216
-942.10858 150.27632 9386.4814 458752
-896.83295 152.06166 9497.9961 393216
-848.38483 153.51286 9588.6406 328448
-801.8642 155.54709 9715.7002 3618350
-695.23901 145.33281 9077.7021 5525834
-641.26953 145.33281 9077.7021 327680
-547.70605 135.53491 8465.7109 458752
-442.30301 120.52777 7528.3423 589824
-371.75299 112.70816 7039.918 524288
-325.78326 111.30214 6952.0957 655616
-283.31766 110.85863 6924.3936 393216
-235.85985 107.97884 6744.5176 262144
-152.67017 84.210236 5259.8955 262656
0 0 0 0
-85.264183 79.66658 4976.0923 590592
-55.679935 79.66658 4976.0923 722432
-25.683159 78.407204 4897.4297 1050624
3.4334252 78.407204 4897.4297 3484672
32.550007 78.407204 4897.4297 8485171
70.629753 89.803596 5609.2651 65536
110.08459 95.077362 5938.6724 65792
146.8382 96.023308 5997.7578 328708
204.35298 107.52342 6716.0718 65536
257.40506 113.29971 7076.8677 131072
303.50842 114.82414 7172.0859 65536
346.84631 115.05563 7186.5444 65536
392.37482 115.88331 7238.2427 131841
435.40817 115.88331 7238.2427 256
478.01984 115.78117 7231.8633 0
529.97406 117.77202 7356.2139 0
582.15918 119.50672 7464.5664 0
628.66541 119.91248 7489.9106 0
675.7179 120.36188 7517.9805 0
724.16748 120.98892 7557.1465 0
767.17316 120.68629 7538.2441 0
811.99005 120.68629 7538.2441 65536
856.80707 120.68629 7538.2441 196608
902.09662 120.74956 7542.1953 196608
945.2644 120.53627 7528.8735 458752
1010.9211 123.08029 7687.7769 458752
1088.2596 126.76499 7917.9287 524288
1135.334 126.76499 7917.9287 458752
1144.2106 122.66985 7662.1406 393216
1170.0156 120.63371 7534.959 196608
1214.3646 120.58916 7532.1772 65536
1259.1455 120.58916 7532.1772 0
1312.3019 121.36375 7580.5591 0
1400.1946 125.1927 7819.7207 0
1472.2035 127.40101 7957.6553 0
1519.6156 127.40953 7958.1875 0
1556.1708 126.53474 7903.5464 0
1608.0347 126.91953 7927.5811 0
1686.7284 129.33972 8078.7505 0
1734.7588 129.33972 8078.7505 0
1696.1067 123.05099 7685.9468 0
1772.186 125.1975 7820.021 0
1814.6582 124.92077 7802.7358 0
1861.0477 124.92077 7802.7358 256
1891.4894 123.87633 7737.4985 131328
2043.5408 130.65678 8161.0156 196608
1906.4141 119.0625 7436.8193 196608
1901.0117 116.03401 7247.6558 196608
1944.101 116.03401 7247.6558 393216
0 0 0 0
0 0 0 0
2706.562 151.47002 9461.041 131072
2990.0725 163.92958 10239.283 1710868
3108.853 167.04086 10433.619 256
3163.6458 166.65958 10409.803 512
3184.9429 164.56221 10278.799 768
3246.0532 164.56221 10278.799 462082
3321.6284 165.28198 10323.757 856835
3416.1399 166.90077 10424.869 1449227
3774.0085 181.09935 11311.732 988931
4261.4702 200.91049 12549.166 1646601
4515.3027 209.21481 13067.865 133120
4592.9951 209.21481 13067.865 2041619
4211.8101 188.66025 11783.998 2106648
3898.3975 171.76439 10728.657 4081453
0 0 0 0
0 0 0 0
0 0 0 0
0 0 0 0
0 0 0 0
3610.4705 144.85747 9048.0107 394496
3658.2043 144.61794 9033.0498 263424
3533.7927 137.67845 8599.5996 1447951
3211.4026 123.33356 7703.5967 3487277
3241.5764 122.74188 7666.6392 65792
3766.6609 140.64648 8784.9873 197120
3851.4468 141.84552 8859.8809 459776
4153.165 150.89383 9425.0518 526081
4572.6929 163.92456 10238.97 592388
4797.6655 169.73 10601.586 460803
5462.668 190.75021 11914.54 1185293
5855.2051 201.8399 12607.218 856586
6427.812 218.77809 13665.203 512
6969.8223 234.26511 14632.544 256
6943.0771 230.48932 14396.702 512
7028.6699 230.48932 14396.702 1580318
7002.397 226.86507 14170.327 6384231
7086.644 226.86507 14170.327 7501942
7170.8901 226.86507 14170.327 3356981
6739.3291 210.73599 13162.881 3422262
6407.9712 198.07452 12372.026 2895916
6083.0552 185.89729 11611.42 1119250
6152.0884 185.89729 11611.42 65793
6379.6479 190.63432 11907.302 256
6480.0122 191.5083 11961.892 256
7237.4399 211.57114 13215.046 256
7848.6323 226.97411 14177.137 256
8319.8779 238.04559 14868.68 131841
8408.2754 238.04559 14868.68 256
8557.2627 239.74307 14974.706 256
8556.7236 237.25955 14819.582 329220
8644.8311 237.25955 14819.582 197890
9165.542 249.01271 15553.702 512
9605.3926 258.35617 16137.309 132097
9595.0459 255.52565 15960.51 197890
9647.791 254.41428 15891.092 263683
9646.2158 251.90593 15734.416 256
9691.1973 250.64989 15655.963 0
9809.2549 251.28979 15695.932 0
10064.913 255.40939 15953.248 256
9980.8574 250.91193 15672.329 263684
10074.034 250.91193 15672.329 395269
10435.085 257.52267 16085.246 526853
10564.872 258.35794 16137.419 461060
10661.822 258.38239 16138.945 724232
10758.084 258.38986 16139.411 0
10853.711 258.38211 16138.928 256
10945.693 258.28845 16133.078 256
11046.195 258.39572 16139.779 256
11143.286 258.42206 16141.424 197891
11239.881 258.43652 16142.328 2436135
11335.852 258.43652 16142.328 1185556
11431.822 258.43652 16142.328 4344134
11527.715 258.43478 16142.219 1118993
11624.981 258.46362 16144.02 256
11721.18 258.46838 16144.318 197891
11816.21 258.4476 16143.019 512
11911.14 258.42493 16141.603 0
12006.243 258.40634 16140.442 256
12101.721 258.39606 16139.8 256
12196.817 258.37787 16138.663 256
12287.963 258.27689 16132.356 256
12383.665 258.27252 16132.084 256
12478.421 258.24866 16130.593 256
12573.307 258.22781 16129.29 256
12621.086 257.24713 16068.035 256
12747.014 257.86206 16106.446 256
12851.919 258.04575 16117.918 256
12962.92 258.34821 16136.811 1053199
13060.068 258.37219 16138.308 0
13155.729 258.36652 16137.954 131841
13252.643 258.38541 16139.135 256
13348.564 258.38486 16139.1 256
13444.516 258.38486 16139.1 256
13539.938 258.37473 16138.468 256
13636.428 258.38501 16139.11 256
13732.38 258.38501 16139.11 256
13828.55 258.3891 16139.365 256
13924.842 258.39542 16139.76 0
14021.172 258.40231 16140.189 256
14117.129 258.40231 16140.189 256
14212.769 258.39651 16139.828 256
14308.791 258.39771 16139.902 513
14405.295 258.40756 16140.517 770
14501.75 258.41635 16141.066 1286
14597.149 258.4064 16140.444 1187614
14693.119 258.40656 16140.455 6516852
14789.361 258.4115 16140.764 8293523
14885.433 258.41339 16140.883 7108737
14981.402 258.41354 16140.892 4871776
15078.199 258.42786 16141.785 4542808
15173.684 258.41962 16141.271 8951455
15268.438 258.39914 16139.992 8025729
0 0 0 0
0 0 0 0
0 0 0 0
0 0 0 0
0 0 0 0
0 0 0 0
0 0 0 0
-14311.781 345.70151 15745.807 592647
-14218.167 345.70151 15745.807 987149
-9241.0967 226.17783 10301.813 4934983
-9179.8506 226.17783 10301.813 8751231
-11867.819 294.36942 13407.763 8619645
-12368.135 308.8537 14067.485 8685183
-12976.006 326.23938 14859.357 8685185
-12887.663 326.23938 14859.357 8685185
-12967.061 330.51489 15054.097 8619391
-13627.163 349.75421 15930.396 8553599
-13708.054 354.29266 16137.112 8487806
-13615.019 354.36829 16140.557 8422013
-13514.978 354.26129 16135.684 8290427
-13419.043 354.26123 16135.681 8290427
-13257.259 352.51019 16055.926 8093304
-13185.544 353.14609 16084.888 8027511
-13094.404 353.26715 16090.403 7961718
-13035.828 354.27509 16136.312 7961461
-12940.024 354.27866 16136.474 7764339
-12763.554 352.05725 16035.295 7763826
0 0 0 0
0 0 0 0
0 0 0 0
-12460.576 354.28519 16136.772 6382688
-12364.68 354.28641 16136.827 5790038
-12269.094 354.29654 16137.289 5065802
-12173.514 354.30707 16137.769 3684149
-12077.925 354.31747 16138.242 1842202
-11981.637 354.30737 16137.782 526343
-11885.387 354.29822 16137.365 131586
-11789.445 354.29822 16137.365 460551
-11693.558 354.29984 16137.438 526344
-11597.615 354.29984 16137.438 526342
-11501.186 354.28479 16136.753 263171
-11405.455 354.2912 16137.046 460550
-11313.37 354.41196 16142.546 1052940
-11221.104 354.52899 16147.877 0
-11125.1 354.52899 16147.877 986884
-11025.918 354.42685 16143.224 1118469
-10927.735 354.35529 16139.965 1447430
-10721.209 350.73804 15975.209 1185027
-10587.737 349.46747 15917.338 1316615
-10493.104 349.46747 15917.338 789762
-10090.658 339.12262 15446.156 256
-9199.9736 312.02853 14212.091 256
-7988.6548 273.45667 12455.242 256
-7930.7324 274.01385 12480.621 0
-7856.5312 274.01385 12480.621 0
-8034.3638 282.88788 12884.81 0
-8519.8926 302.87097 13794.987 0
-8437.8779 302.87097 13794.987 0
-7918.167 287.00601 13072.38 256
-8963.3174 328.10959 14944.54 1382156
-9372.166 346.51062 15782.661 1052935
-9278.334 346.51062 15782.661 395265
-7937.3369 299.45789 13639.53 329219
-7717.9419 294.18616 13399.416 256
-7792.5229 300.1268 13669.998 0
-7934.6221 308.82056 14065.976 0
-7888.0132 310.27661 14132.296 256
-7544.4751 299.95856 13662.334 256
-7419.7744 298.21124 13582.749 256
-7283.8242 295.96841 13480.594 256
-7203.6782 295.96841 13480.594 256
-7128.521 296.17569 13490.034 256
-7115.7173 299.00778 13619.029 256
-7034.7485 299.00778 13619.029 256
-6882.0728 295.92447 13478.592 256
-6675.6782 290.43137 13228.396 256
-6574.4053 289.43527 13183.026 256
-6547.2139 291.71585 13286.901 256
-6527.5156 294.39011 13408.706 256
-6447.7969 294.39011 13408.706 256
-6384.4258 295.14578 13443.126 256
-6330.2695 296.35205 13498.068 256
-6256.603 296.66425 13512.286 256
-6164.8086 296.11377 13487.215 256
-6060.6099 294.94513 13433.986 256
-5965.5723 294.19708 13399.914 256
-5905.0073 295.15182 13443.4 256
-6284.8452 318.44763 14504.463 256
-6252.5264 321.21741 14630.619 256
-6172.0322 321.55545 14646.017 256
-6115.6851 323.17923 14719.976 256
-6042.7251 323.9595 14755.516 256
-5758.0542 313.24542 14267.518 256
-5452.7593 301.07224 13713.06 256
-5177.2656 290.19992 13217.854 592648
-4557.3125 259.38699 11814.405 0
-4457.9766 257.70505 11737.796 0
-4441.2339 260.82001 11879.675 256
-4144.8721 247.34912 11266.111 256
0 0 0 0
0 0 0 0
-3256.5603 204.23969 9302.5879 0
-3201.2537 204.23969 9302.5879 0
-3114.1978 202.17845 9208.7041 0
-3012.3662 199.06703 9066.9873 0
-2958.4604 199.06703 9066.9873 262144
-2853.4163 195.56219 8907.3516 918528
-2368.3052 165.38391 7532.8086 4860420
-2323.5205 165.38391 7532.8086 7028480
-2333.1858 169.33574 7712.8037 4135936
-2273.8862 168.34039 7667.4683 1048576
0 0 0 0
0 0 0 0
0 0 0 0
0 0 0 0
-1234.7994 101.59857 4627.5513 851968
-1148.0787 96.615906 4400.604 917504
-1167.0302 100.50101 4577.5601 1048576
-1249.9258 110.20979 5019.77 1048576
-1112.6005 100.50101 4577.5601 7878144
-1200.2275 111.13477 5061.9004 9649152
-1492.6207 141.76341 6456.9556 9517056
-1595.207 155.50609 7082.8989 9450240
-1560.3281 156.23009 7115.8755 9121280
-1533.7639 157.85017 7189.666 8136704
-1523.4056 161.27881 7345.8315 5512960
-1484.973 161.84998 7371.8467 1048576
-1968.4305 221.06754 10069.053 918784
-1936.1776 224.26562 10214.718 393216
-1848.7039 221.06754 10069.053 262144
-1704.3 210.61987 9593.1895 262144
-1478.4236 189.03166 8609.9023 262144
-1447.6249 191.73218 8732.9033 262144
-1395.7053 191.73218 8732.9033 196608
-1335.422 190.53883 8678.5498 196608
-1253.9078 186.09859 8476.3086 196608
-1209.3097 186.9948 8517.1279 196608
-1225.1945 197.73048 9006.1113 196608
-1171.6506 197.73048 9006.1113 196608
-1116.9919 197.53336 8997.1318 196608
-1063.5015 197.53336 8997.1318 393216
-1013.5441 198.22433 9028.6045 458752
-966.17999 199.52814 9087.9893 458752
-931.30823 203.71906 9278.875 458752
-886.30334 206.08157 9386.4814 393216
-827.31622 205.29199 9350.5186 328192
-771.72479 205.29199 9350.5186 1051656
-695.40558 199.35005 9079.8779 525569
-661.21558 205.5014 9360.0557 393216
-565.22803 191.81206 8736.542 524288
-479.52524 179.19556 8161.8931 655360
-395.39948 164.39383 7487.7129 589824
-331.36761 155.25063 7071.2637 524288
-289.327 155.25063 7071.2637 458752
-244.76247 153.66609 6999.0918 458752
-197.59305 149.46205 6807.6084 458752
0 0 0 0
0 0 0 0
-52.449638 102.91261 4687.4023 459008
-24.581728 102.91261 4687.4023 656128
3.4105468 106.80731 4864.7959 3617794
32.333111 106.80731 4864.7959 6709799
70.57682 123.05994 5605.0615 131072
104.27535 123.50395 5625.2847 131585
146.8382 131.68166 5997.7578 328964
203.82352 147.07028 6698.6699 131584
256.285 154.6976 7046.0747 196608
305.49683 158.4958 7219.0728 196608
353.03589 160.59729 7314.7905 65536
401.22253 162.50012 7401.459 65536
445.80759 162.71228 7411.1226 256
490.58151 162.94902 7421.9058 256
539.32196 164.35548 7485.9658 256
585.20276 164.74246 7503.5918 0
631.02142 165.05836 7517.9805 0
694.95782 169.75812 7732.0425 0
742.53357 170.12621 7748.8076 0
785.52222 169.46172 7718.542 0
831.41101 169.46172 7718.542 65536
876.07562 169.22522 7707.77 196608
921.90039 169.22522 7707.77 196608
967.72522 169.22522 7707.77 458752
1034.3802 172.70308 7866.1772 524288
1106.2683 176.716 8048.9556 458752
1098.6149 168.21696 7661.8462 458752
1129.7963 166.1042 7565.6157 393216
1174.776 166.1042 7565.6157 131072
1246.6589 169.76784 7732.4849 65792
1290.9785 169.55084 7722.6016 256
1357.4901 172.16327 7841.5903 0
1417.38 173.79027 7915.6963 0
1483.418 176.04234 8018.272 0
1532.964 176.25793 8028.0923 0
1586.7941 176.93822 8059.0771 0
1638.698 177.37015 8078.7505 0
1693.2507 178.05602 8109.9897 0
1741.4669 178.05602 8109.9897 0
1778.9287 176.98605 8061.2563 0
1826.8551 176.98605 8061.2563 0
1889.4567 178.37143 8124.3564 0
1969.9956 181.33891 8259.5176 0
1995.0214 179.17628 8161.0156 65536
2140.8748 187.71046 8549.7246 196608
2191.7051 187.71046 8549.7246 196608
1950.6279 163.27646 7436.8193 196608
1994.8419 163.27646 7436.8193 196608
2160.2708 172.98268 7878.9126 196608
2249.0413 176.2688 8028.5869 262144
2580.229 198.02296 9019.4326 196608
2990.0725 224.80495 10239.283 197120
3156.6824 232.59587 10594.139 855305
3223.3682 232.86322 10606.316 512
3198.8733 226.65961 10323.757 768
3260.251 226.65961 10323.757 1024
3330.1255 227.23941 10350.166 1024
3416.1399 228.87953 10424.869 1251851
3774.0085 248.35074 11311.732 1120261
4469.8677 288.9924 13162.854 791040
4723.5669 300.14017 13670.607 396032
4250.1611 265.49139 12092.444 132864
3862.4946 237.26196 10806.667 1317639
3816.3406 230.5912 10502.831 593667
0 0 0 0
0 0 0 0
0 0 0 0
0 0 0 0
0 0 0 0
3566.2627 196.21806 8937.2236 328960
3608.0093 195.60071 8909.1045 263936
3175.3037 169.6519 7727.2046 4211511
0 0 0 0
0 0 0 0
3766.6609 192.87569 8784.9873 327680
3889.9331 196.46376 8948.415 525312
4004.2356 199.50812 9087.0771 460032
4647.3408 228.46788 10406.119 526082
4898.0566 237.62987 10823.425 263168
5372.9683 257.29013 11718.898 512
5533.5029 261.58548 11914.54 256
6527.3003 304.66522 13876.711 256
6969.8223 321.25964 14632.544 66304
7056.8164 321.25964 14632.544 198147
7389.9912 332.33044 15136.79 724493
7326.7959 325.52441 14826.794 0
7414.9458 325.52441 14826.794 0
7503.0952 325.52441 14826.794 0
6739.3291 288.99298 13162.881 0
6407.9712 271.62964 12372.026 0
6238.063 261.42654 11907.302 1909024
6241.5835 258.63892 11780.333 4673357
6379.6479 261.42654 11907.302 7831676
6480.0122 262.62506 11961.892 9081999
7148.2261 286.5618 13052.147 7963262
7541.6621 299.08728 13622.65 6647145
7955.6074 312.15134 14217.684 4344135
7703.6426 299.08728 13622.65 3225653
7954.0811 305.5975 13919.174 1514009
8116.2236 308.61621 14056.669 987407
8199.7939 308.61621 14056.669 329477
8588.9678 320.0022 14575.271 526856
9061.2129 334.22479 15223.073 256
9151.7188 334.22479 15223.073 256
9235.7822 333.99185 15212.463 66049
9692.3633 347.10403 15809.688 526855
9691.1973 343.72897 15655.963 855820
9833.3066 345.45142 15734.416 66305
9877.3564 343.72897 15655.963 256
9973.7754 343.84412 15661.208 256
10074.034 344.08829 15672.329 66304
10437.291 353.22858 16088.646 592646
10564.503 354.28699 16136.854 592646
10661.338 354.3168 16138.212 197634
10758.084 354.34314 16139.411 66305
10854.037 354.34314 16139.411 256
10949.807 354.33722 16139.142 256
11045.759 354.33722 16139.142 256
11142.478 354.36163 16140.253 0
11239.071 354.38168 16141.166 329733
11335.256 354.38855 16141.479 512
11431.618 354.40085 16142.04 199688
11527.587 354.40085 16142.04 7570043
11624.368 354.4256 16143.168 4935240
11720.235 354.42233 16143.019 66304
11814.728 354.37787 16140.993 256
11910.284 354.36578 16140.442 256
12005.446 354.34225 16139.371 256
12100.891 354.32733 16138.691 256
12192.052 354.18823 16132.356 256
12287.963 354.18823 16132.356 256
12383.665 354.18228 16132.084 256
12478.421 354.14954 16130.593 256
12573.307 354.12094 16129.29 256
12651.257 353.61938 16106.446 256
12747.014 353.61938 16106.446 256
12844.682 353.67203 16108.844 256
12964.122 354.31891 16138.308 0
13060.709 354.33624 16139.098 256
13156.882 354.34222 16139.369 512
13253.332 354.3555 16139.975 1580828
13349.039 354.34891 16139.674 3685690
13444.994 354.34891 16139.674 3027247
13541.547 354.36453 16140.386 65793
13638.861 354.39975 16141.989 0
13732.473 354.33893 16139.219 0
13828.973 354.353 16139.86 0
13924.194 354.33429 16139.008 0
14020.145 354.33429 16139.008 0
14115.699 354.32431 16138.554 512
14211.88 354.33011 16138.818 256
14308.663 354.35077 16139.759 257
14404.681 354.35229 16139.828 1515809
14501.734 354.37915 16141.051 1029
14596.407 354.34781 16139.624 726037
14692.08 354.341 16139.314 989723
14788.032 354.341 16139.314 1911340
14885.17 354.3692 16140.598 3423804
14981.191 354.37067 16140.665 1056028
15077.644 354.3822 16141.19 529428
15172.709 354.36118 16140.233 4675929
15266.967 354.32175 16138.438 10659751
0 0 0 0
0 0 0 0
0 0 0 0
0 0 0 0
0 0 0 0
0 0 0 0
0 0 0 0
-12314.238 377.99805 13548.111 9475214
-11182.825 345.52832 12384.339 8554111
-11109.197 345.52832 12384.339 7764595
-10746.06 336.46365 12059.445 8488318
-10900.487 343.59125 12314.911 8553854
-10827.271 343.59125 12314.911 8619647
-11300.839 361.06094 12941.055 8619392
-11223.9 361.06094 12941.055 8685185
-12172.81 394.28909 14132.011 8553599
-12874.99 419.93185 15051.092 8619392
-13532.454 444.46481 15930.396 8553599
-13388.387 442.83234 15871.885 8553599
-13254.518 441.51633 15824.718 8422013
-13305.21 446.37335 15998.802 8356220
-13257.259 447.96716 16055.926 8356220
-13190.065 448.92908 16090.403 8224634
-13131.765 450.20996 16136.312 8224634
-13035.959 450.21448 16136.474 8158841
-12940.024 450.21448 16136.474 8093048
-12763.554 447.39154 16035.295 8093048
0 0 0 0
0 0 0 0
0 0 0 0
-12460.576 450.22284 16136.772 7566704
-12364.638 450.22284 16136.772 7500912
-12269.068 450.2363 16137.256 7434861
-12173.457 450.24847 16137.692 7434861
-12077.793 450.25888 16138.065 7435118
-11981.847 450.25888 16138.065 7369068
-11885.693 450.25098 16137.782 7040360
-11789.646 450.24698 16137.64 6842981
-11693.674 450.24588 16137.6 6579552
-11597.731 450.24588 16137.6 5921622
-11501.681 450.24164 16137.447 4934727
-11405.893 450.24771 16137.665 4211004
-11309.562 450.23227 16137.111 1710615
-11213.666 450.23401 16137.174 0
-11119.776 450.31708 16140.15 592129
-11023.204 450.29193 16139.251 460544
-10926.662 450.26764 16138.38 65536
-10682.37 444.10049 15917.338 256
-10274.321 430.95432 15446.156 256
-10182.489 430.95432 15446.156 256
-9360.3604 399.76459 14328.262 256
-8298.1045 357.65237 12818.887 256
-7796.251 339.13696 12155.262 0
-7830.1421 343.79803 12322.322 256
-7756.8828 343.79803 12322.322 256
-7683.6226 343.79803 12322.322 256
-7929.1138 358.19757 12838.427 0
-8103.2285 369.62128 13247.873 256
-7898.6812 363.82739 13040.21 256
-7821.1533 363.82739 13040.21 1185285
-9584.8857 450.33737 16140.879 1317124
-9485.9961 450.19846 16135.899 922368
-7196.0898 345.01025 12365.771 724740
-7091.5078 343.50558 12311.84 256
-7049.0532 345.01025 12365.771 0
-7558.6157 373.8494 13399.416 0
-7694.3467 384.6163 13785.32 256
-7390.7637 373.41867 13383.978 256
-7210.7168 368.28687 13200.045 256
-7132.2383 368.28687 13200.045 256
-7050.0396 368.09256 13193.081 256
-6898.5195 364.23386 13054.778 256
-7065.6987 377.30576 13523.298 256
-6962.207 376.05844 13478.592 256
-6784.333 370.71762 13287.168 256
-6675.6782 369.07788 13228.396 256
-6555.8018 366.77127 13145.723 256
-6503.5571 368.23828 13198.304 256
-6462.7373 370.396 13275.64 256
-6420.981 372.55264 13352.938 256
-6355.9751 373.39755 13383.221 256
-6276.4082 373.39755 13383.221 256
-6244.9941 376.29904 13487.215 256
-6159.582 375.98004 13475.781 256
-6078.3994 375.91412 13473.419 256
-5965.5723 373.86331 13399.914 256
-5989.3188 380.43192 13635.345 256
-6326.417 407.35742 14600.402 256
-6259.1064 408.63007 14646.017 256
-6316.6689 418.20602 14989.234 0
-6227.5532 418.20602 14989.234 0
-6232.9707 424.64639 15220.069 256
-5655.4302 390.9751 14013.231 256
-5378.104 377.36191 13525.311 256
-5177.2656 368.78375 13217.854 66049
-4941.0532 357.3826 12809.217 2500645
-4487.0728 329.62692 11814.405 0
-4200.7153 313.49814 11236.321 256
0 0 0 0
0 0 0 0
0 0 0 0
0 0 0 0
-2959.7605 239.96677 8600.8281 131072
-2571.9958 212.19415 7605.4097 262144
-2772.9324 232.86562 8346.3105 853504
-2482.8074 212.30052 7609.2222 5257495
-2685.8894 233.92812 8384.3926 3545348
-2400.1848 212.99763 7634.2075 2756352
-2265.3357 204.90559 7344.1748 1114112
-2221.3057 204.87177 7342.9624 1245184
0 0 0 0
0 0 0 0
0 0 0 0
0 0 0 0
-1200.5083 122.78934 4400.9849 983040
-1234.7994 129.11064 4627.5513 720896
-1198.457 128.16631 4593.7046 1048576
-1248.7897 136.66335 4898.2534 1245184
-1259.739 141.15327 5059.1802 5708288
-1229.6608 141.15327 5059.1802 8860928
-1200.2275 141.22917 5061.9004 8991744
-1370.098 165.36392 5926.9321 8072704
-1488.869 184.44263 6610.7461 7548160
-1491.7916 189.81538 6803.3149 5515520
-1511.3462 197.66281 7084.5806 3155712
-1478.8311 198.95497 7130.894 393984
-1860.4224 257.67963 9235.6885 131584
-2035.2052 290.46078 10410.623 1579021
-1973.311 290.46078 10410.623 131328
-1859.7323 282.60675 10129.119 131072
-1702.7798 267.41531 9584.6328 65536
-1478.4236 240.21992 8609.9023 131072
-1427.2354 240.21992 8609.9023 65536
-1453.7274 253.78081 9095.9473 65536
-1342.7334 243.46091 8726.0645 65536
-1283.8257 242.13524 8678.5498 65536
-1232.0811 242.10611 8677.5059 65536
-1222.9648 250.81708 8989.7227 196608
-1171.6506 251.27434 9006.1113 196608
-1116.072 250.81708 8989.7227 393216
-1060.0193 250.20189 8967.6729 393216
-1006.7039 250.20189 8967.6729 458752
-970.59937 254.71855 9129.5586 458752
-924.02594 256.86023 9206.3193 393216
-882.90765 260.88342 9350.5186 262144
-867.63049 273.59604 9806.1602 196864
-822.04419 277.89404 9960.208 592129
-716.86371 261.14954 9360.0557 4408118
-662.00647 261.46188 9371.251 1249034
-584.96735 252.26578 9041.6465 393216
-513.28687 243.75323 8736.542 589824
-398.80011 210.70712 7552.1113 327680
-343.56125 204.55116 7331.4712 524288
-290.09097 197.81221 7089.9355 458752
-247.81729 197.71486 7086.4463 1182212
-204.16176 196.2493 7033.918 327680
-157.11992 189.93517 6807.6084 393216
0 0 0 0
0 0 0 0
0 0 0 0
0 0 0 0
30.502647 128.04584 4589.3867 4209670
66.078125 146.41541 5247.7842 131072
103.9784 156.50089 5609.2651 131584
152.95125 174.30658 6247.4521 460290
203.82352 186.89574 6698.6699 328705
256.285 196.58847 7046.0747 65536
309.96295 204.35973 7324.6094 65792
357.68518 206.77345 7411.1226 131840
407.72617 209.85118 7521.4336 131584
469.85739 217.92822 7810.9282 256
497.47043 209.98215 7526.127 256
544.58685 210.90053 7559.0439 256
601.34552 215.12839 7710.5776 0
650.39587 216.19502 7748.8076 0
697.07068 216.38315 7755.5498 0
748.97534 218.07063 7816.0322 0
794.20282 217.73039 7803.8379 256
833.62378 215.92375 7739.0845 0
877.29993 215.35059 7718.542 131072
925.64581 215.92375 7739.0845 196608
987.1015 219.3559 7862.0986 393216
1089.5319 231.17146 8285.5898 458752
1132 229.79274 8236.1738 458752
1154.1216 224.56927 8048.9556 393216
1132.726 211.63126 7585.2344 262144
1200.6871 215.73961 7732.4849 131072
1264.2493 218.78371 7841.5903 0
1325.0446 221.14948 7926.3838 0
1404.0404 226.2861 8110.4893 0
1452.2594 226.2861 8110.4893 0
1500.4786 226.2861 8110.4893 0
1542.6533 225.40292 8078.835 0
1601.082 226.87633 8131.644 0
1668.1853 229.45651 8224.1221 0
1717.08 229.45651 8224.1221 0
1764.4679 229.26073 8217.1055 0
1799.4542 227.50755 8154.2681 256
1901.5642 234.11026 8390.9209 0
1953.9261 234.40726 8401.5654 256
2027.0406 237.117 8498.6875 256
2049.4773 233.91098 8383.7783 256
2178.4875 242.73187 8699.9346 460803
2168.7495 236.04251 8460.1758 658181
2001.9684 212.95155 7632.5562 855048
2113.4285 219.82501 7878.9126 328193
2201.3091 224.00099 8028.5869 196608
2342.3315 233.29256 8361.6133 393216
2507.6057 244.56316 8765.5713 327680
2559.7195 244.56316 8765.5713 262144
3055.9878 286.15225 10256.197 1447441
3163.6458 290.43793 10409.803 256
3218.644 289.81744 10387.563 461060
3292.1824 290.85828 10424.869 512
3386.5854 293.67001 10525.646 1280
3464.3232 294.96075 10571.909 1054471
3848.884 321.86359 11536.154 2172951
4261.4702 350.12704 12549.166 527872
4022.3044 324.79065 11641.064 396800
3837.4807 304.62509 10918.296 397313
3753.8984 293.03345 10502.831 792075
3738.417 287.05017 10288.38 9214352
0 0 0 0
0 0 0 0
0 0 0 0
0 0 0 0
0 0 0 0
3485.6387 243.71515 8735.1768 263168
3537.5718 243.71515 8735.1768 328960
3034.6541 206.04265 7384.9292 1513234
0 0 0 0
0 0 0 0
3805.1394 247.60875 8874.7305 131072
4034.9524 258.97223 9282.0176 328192
4004.2356 253.53331 9087.0771 393984
4389.4624 274.22458 9828.6885 328961
4709.208 290.33514 10406.119 256
4962.4048 301.97815 10823.425 256
5387.1382 323.62796 11599.393 256
6527.3003 387.16614 13876.711 256
6609.8013 387.16614 13876.711 512
6617.957 382.86508 13722.554 1250323
7613.9619 435.12234 15595.546 0
7442.6909 420.21735 15061.323 256
7532.2344 420.21735 15061.323 256
7551.5864 416.34738 14922.617 263683
7640.3057 416.34738 14922.617 395269
7048.7212 379.70074 13609.139 256
6171.5464 328.6763 11780.333 132096
5912.853 311.3656 11159.888 512
6516.9004 339.36618 12163.477 256
6826.0869 351.56583 12600.733 0
7385.2769 376.23679 13484.984 0
7768.3257 391.50089 14032.077 771
8300.4219 413.87244 14833.911 66050
8388.6143 413.87244 14833.911 197893
8032.6738 392.18808 14056.706 1844772
8116.2236 392.18701 14056.669 3423546
8199.7939 392.18701 14056.669 5858915
8283.3643 392.18701 14056.669 7635325
8346.0166 391.20648 14021.524 9279894
9002.6973 417.81415 14975.189 9410964
9235.7822 424.43417 15212.463 7962748
9692.3633 441.09702 15809.688 6778218
9813.542 442.32239 15853.608 5264723
9957.877 444.5582 15933.742 3093296
10064.913 445.10242 15953.248 2500647
10159.76 445.10242 15953.248 1645338
10373.06 450.24393 16137.528 855822
10469.002 450.24393 16137.528 855565
10565.392 450.26297 16138.212 921870
10661.677 450.27725 16138.725 460806
10757.761 450.28293 16138.928 328963
10853.056 450.25571 16137.952 0
10949.124 450.26083 16138.135 2
11045.758 450.28888 16139.141 3
11141.833 450.29385 16139.318 3
11239.03 450.34372 16141.106 259
11335.268 450.35461 16141.496 4
11431.733 450.37433 16142.203 65794
11527.587 450.36978 16142.04 1381911
11624.368 450.40125 16143.168 1315861
11719.451 450.36691 16141.938 263430
11814.719 450.34024 16140.981 263429
11910.597 450.33704 16140.866 131842
12005.446 450.29529 16139.371 66050
12101.3 450.29163 16139.238 257
12197.34 450.29486 16139.354 2
12293.081 450.28708 16139.076 256
12388.521 450.26849 16138.409 0
12484.075 450.25433 16137.902 256
12580.021 450.25433 16137.902 256
12676.855 450.28595 16139.036 256
12772.244 450.26617 16138.327 256
12868.081 450.2623 16138.188 256
12964.986 450.29562 16139.382 256
13060.938 450.29562 16139.382 256
13158.083 450.33633 16140.842 256
13254.149 450.33994 16140.97 256
13349.629 450.32361 16140.386 256
13445.587 450.32361 16140.386 258
13542.167 450.34424 16141.125 329221
13639.215 450.38007 16142.408 1118995
13734.388 450.35391 16141.471 197635
13830.369 450.35437 16141.488 131586
13926.234 450.3512 16141.374 0
14020.145 450.28516 16139.008 256
14115.006 450.25043 16137.763 256
14211.759 450.276 16138.68 66563
14308.585 450.30365 16139.67 66563
14404.619 450.30612 16139.759 770
14500.494 450.30365 16139.67 514
14595.881 450.28613 16139.042 514
14691.524 450.2767 16138.704 66564
14787.783 450.28613 16139.042 263947
14884.017 450.29465 16139.347 725781
14981.68 450.34607 16141.19 1541
15077.644 450.34607 16141.19 265485
15172.709 450.31934 16140.233 528914
15268.292 450.30835 16139.838 396814
15364.247 450.30835 16139.838 924184
0 0 0 0
0 0 0 0
0 0 0 0
0 0 0 0
0 0 0 0
0 0 0 0
-13980.976 520.60968 15381.854 8685438
-13889.525 520.60968 15381.854 8619902
-11768.851 444.04575 13119.708 8817025
-11314.218 429.74036 12697.044 8685697
-11238.73 429.74036 12697.044 8751233
-10827.271 416.80682 12314.911 8685696
-9666.0078 374.63617 11068.943 8619647
-9052.0928 353.24695 10436.98 8619391
-11088.627 435.70691 12873.33 8553599
-11193.402 442.88068 13085.286 8553599
-11969.326 476.89557 14090.284 8553599
-12915.17 518.20776 15310.889 8356220
-13225.743 534.43591 15790.363 8158841
-13305.21 541.49072 15998.802 8224634
-13210.092 541.49072 15998.802 8224634
-13146.945 542.81067 16037.802 8224634
-13089.915 544.40436 16084.888 8224634
-13014.917 545.26868 16110.426 8158841
-12941.525 546.21368 16138.347 8093048
-12845.47 546.20905 16138.209 8027257
-12749.433 546.20514 16138.094 7829878
-12653.367 546.19989 16137.94 7698292
-12557.422 546.19989 16137.94 7632499
-12461.478 546.19989 16137.94 7566706
-12365.413 546.19464 16137.783 7566706
-12269.158 546.18079 16137.374 7369324
-12173.457 546.19159 16137.692 7303532
-12077.652 546.19781 16137.878 7237739
-11981.711 546.198 16137.882 7106153
-11885.975 546.20752 16138.164 6974567
-11789.702 546.19238 16137.717 7040360
-11693.733 546.19116 16137.682 6909030
-11597.815 546.19238 16137.717 6908774
-11501.964 546.19672 16137.845 6909030
-11406.02 546.19672 16137.845 6974566
-11275.452 544.5246 16088.441 6974822
-10893.153 530.56317 15675.938 6843750
-10799.956 530.56317 15675.938 6909029
-9881.6904 489.67764 14467.941 3027244
-9616.3662 480.7142 14203.108 0
-8911.5908 449.4295 13278.776 0
-9530.7314 484.95007 14328.262 256
-9445.5459 484.95007 14328.262 256
-9115.4561 472.26184 13953.377 256
-8218.4307 429.69849 12695.806 0
-8079.1689 426.33276 12596.363 256
-7905.1958 421.05524 12440.435 256
-7802.167 419.49243 12394.26 0
-7683.6226 417.05765 12322.322 0
-7859.5464 430.71323 12725.787 256
-8091.313 447.72424 13228.393 256
-7779.7407 434.70905 12843.848 512
-8963.3174 505.8085 14944.54 512
-9585.0273 546.30743 16141.117 132096
-9488.249 546.26056 16139.73 512
-7275.0928 423.12308 12501.53 512
-7122.5718 418.52817 12365.771 512
-7125.459 423.06467 12499.805 256
-7115.4658 426.92392 12613.83 0
-7043.2168 427.09027 12618.744 256
-6877.8867 421.55518 12455.205 256
-6803.686 421.54584 12454.929 256
-6748.105 422.70261 12489.107 256
-6673.8545 422.70261 12489.107 256
-6628.229 424.5361 12543.279 256
-7019.2632 454.69745 13434.422 256
-6939.3911 454.69745 13434.422 256
-6835.5107 453.10596 13387.4 256
-6707.48 449.85724 13291.414 256
-6576.6533 446.34134 13187.533 256
-6482.9038 445.28726 13156.391 256
-6425.0889 446.70587 13198.304 256
-6285.5532 442.40756 13071.307 256
-6066.8286 432.35825 12774.391 256
-6154.8608 444.1925 13124.045 256
-6238.606 456.01733 13473.419 256
-6158.5029 456.01733 13473.419 256
-6079.0386 456.06531 13474.836 256
-6042.3882 459.36942 13572.459 256
-5989.7485 461.53094 13636.323 256
-6345.6719 495.66492 14644.841 256
-6419.4307 508.40198 15021.168 0
-6406.9038 514.56842 15203.359 132097
-6533.5322 532.24744 15725.701 592647
-6609.0991 546.21967 16138.523 256
-5813.8667 487.57483 14405.812 0
-5452.7593 464.12814 13713.06 256
-5203.8008 449.66043 13285.6 592392
-5058.2402 443.81912 13113.013 328707
-4456.3081 397.12527 11733.402 395014
-4049.4602 366.6077 10831.735 256
-3441.9758 316.64621 9355.5801 0
0 0 0 0
0 0 0 0
0 0 0 0
-2770.1655 272.45386 8049.8799 1115648
-2535.8213 253.79002 7498.4414 7820545
-2526.7798 257.41043 7605.4097 4333312
-2482.8074 257.53946 7609.2222 983040
-2585.5886 273.17847 8071.2891 983040
-2400.1848 258.38513 7634.2075 1179648
-2264.9617 248.52773 7342.9624 1441792
-2107.0508 235.74445 6965.2695 4657920
0 0 0 0
0 0 0 0
0 0 0 0
-1117.3334 135.67731 4008.7012 1114112
-1151.5802 142.88362 4221.6177 851968
-1222.2863 155.03555 4580.6567 655360
-1195.053 155.03555 4580.6567 1048576
-1248.7897 165.78484 4898.2534 2819584
-1259.739 171.23151 5059.1802 7876608
-1229.6608 171.23151 5059.1802 7941632
-1228.6193 175.37628 5181.6411 6955776
-1241.5771 181.78397 5370.9614 3743744
-1334.8607 200.6012 5926.9321 2762496
-1319.9603 203.74025 6019.6782 2961921
-1451.3441 230.26297 6803.3149 2566918
-1943.9767 317.26343 9373.8174 256
-1970.769 331.12885 9783.4824 197120
-1950.3202 337.65872 9976.4131 0
-1828.235 326.45004 9645.2432 65536
-1739.3982 320.6445 9473.7139 65536
-1628.6111 310.26865 9167.1504 65536
-1510.9264 297.81476 8799.1895 196608
-1510.3112 308.37036 9111.0635 65536
-1462.1698 309.64658 9148.7705 65536
-1401.3521 308.23322 9107.0117 65536
-1342.8442 307.23474 9077.5107 65536
-1270.6122 302.88113 8948.8799 196608
-1219.2451 303.33804 8962.3799 196608
-1171.6506 304.81815 9006.1113 262144
-1120.7208 305.53079 9027.167 393216
-1057.6682 302.84402 8947.7832 458752
-1013.3828 305.53079 9027.167 458752
-966.83368 307.79752 9094.1387 458752
-917.19873 309.29211 9138.2979 393216
-862.86902 309.29211 9138.2979 196608
-867.63049 331.89639 9806.1602 262400
-820.73511 336.57339 9944.3467 65536
-749.95496 331.42139 9792.126 1841425
-662.00647 317.17657 9371.251 985346
-572.17291 299.32755 8843.8867 524288
-519.59357 299.32755 8843.8867 393216
-424.08572 271.81305 8030.9468 1511437
-356.92603 257.7916 7616.6709 393216
-300.1282 248.26669 7335.25 458752
-255.84563 247.61584 7316.02 458752
-207.08607 241.47786 7134.6685 393216
-164.17082 240.74811 7113.1064 393216
0 0 0 0
0 0 0 0
0 0 0 0
0 0 0 0
0 0 0 0
65.461197 175.95667 5198.7891 65536
104.27535 190.39171 5625.2847 0
161.22919 222.89336 6585.5732 0
204.94461 227.96823 6735.5151 986633
254.39091 236.71686 6994 65536
318.29214 254.56821 7521.4336 65536
375.2807 263.17389 7775.6958 256
440.03262 274.73907 8117.3989 256
493.40161 277.61356 8202.3281 197888
542.16675 277.61356 8202.3281 512
573.88593 269.60559 7965.7251 256
621.24438 269.60559 7965.7251 0
668.12793 269.41406 7960.0669 0
704.52106 265.29758 7838.4419 0
750.85632 265.20346 7835.6611 131584
798.05829 265.40857 7841.7217 512
851.58551 267.57855 7905.835 66048
919.7959 273.89377 8092.4238 0
961.10699 271.96939 8035.5659 131072
1008.8807 271.96939 8035.5659 393216
1117.0129 287.50491 8494.5762 458752
1132 278.75909 8236.1738 393216
1060.9941 250.44046 7399.4761 393216
1132.726 256.7276 7585.2344 196608
1266.8557 276.134 8158.6133 131072
1322.3015 277.59106 8201.6631 0
1416.5923 286.8092 8474.0205 256
1462.8387 286.00095 8450.1406 0
1469.8163 277.82379 8208.5391 0
1518.6183 277.82379 8208.5391 0
1608.6387 285.1297 8424.3984 0
1709.1019 293.78952 8680.2598 0
1778.6779 296.78784 8768.8486 0
1853.2054 300.41812 8876.1084 65792
1858.8492 292.98999 8656.6377 0
1852.2316 284.08154 8393.4297 0
1903.9764 284.35687 8401.5654 0
2010.0536 292.52518 8642.9043 0
2083.1572 295.60721 8733.9658 256
2135.0833 295.60721 8733.9658 256
2193.4529 296.47818 8759.6992 256
2230.2112 294.45541 8699.9346 65536
2219.0474 286.34061 8460.1758 0
2235.562 282.07785 8334.2295 196608
2285.1113 282.07785 8334.2295 262144
2342.3315 283.00467 8361.6133 262144
0 0 0 0
0 0 0 0
0 0 0 0
3097.75 344.98846 10192.977 2237213
3320.0044 362.64603 10714.685 256
3379.2383 362.16718 10700.536 256
3413.2717 359.05508 10608.587 512
3464.3232 357.81369 10571.909 527619
3592.4927 364.43973 10767.681 1580817
3953.095 394 11641.064 1581585
4017.6582 393.54486 11627.617 1976601
3863.3845 372.03189 10991.997 6648164
3753.8984 355.47568 10502.831 5134927
0 0 0 0
0 0 0 0
0 0 0 0
0 0 0 0
0 0 0 0
3191.0383 274.75409 8117.8428 7369061
3485.6387 295.64819 8735.1768 131328
3537.5718 295.64819 8735.1768 394753
3034.6541 249.94812 7384.9292 526083
0 0 0 0
0 0 0 0
4043.2122 319.16458 9429.9883 196608
4163.6504 324.1767 9578.0752 196608
4155.3398 319.16458 9429.9883 327936
4389.4624 332.65887 9828.6885 394497
4537.8945 339.38983 10027.561 131328
4886.9624 360.7572 10658.878 256
5236.6914 381.62573 11275.456 0
6367.5811 458.17459 13537.156 256
6609.8013 469.66705 13876.711 256
6449.1479 452.60248 13372.523 1711129
7878.1938 546.16028 16136.768 263428
7974.1313 546.16028 16136.768 0
7532.2344 509.76108 15061.323 256
7551.5864 505.0665 14922.617 256
7422.5708 490.67297 14497.35 0
7508.7617 490.67297 14497.35 0
7278.5894 470.23431 13893.472 0
7007.6016 447.64703 13226.111 0
7086.2344 447.64703 13226.111 0
6966.4678 435.25137 12859.871 0
7148.2261 441.75912 13052.147 256
7225.8252 441.75912 13052.147 512
7026.2407 424.99329 12556.787 512
6942.9756 415.54175 12277.533 257
7015.9692 415.54175 12277.533 258
7689.5986 450.74991 13317.788 258
8199.7939 475.75784 14056.669 258
8283.3643 475.75784 14056.669 256
8816.3496 501.31229 14811.696 256
9482.5752 533.86261 15773.423 256
9598.3691 535.09003 15809.688 132356
9793.3271 540.664 15974.377 198149
9888.2988 540.664 15974.377 592908
