# .PCD v0.7 - Point Cloud Data file format
VERSION 0.7
FIELDS x y z rgb
SIZE 4 4 4 4
TYPE F F F U
COUNT 1 1 1 1
WIDTH 1380
HEIGHT 1
VIEWPOINT 0 0 0 1 0 0 0
POINTS 1380
DATA ascii
-4113.7427 -3099.2715 16135.746 5660725
-4018.6016 -3099.8813 16138.922 5265715
-3922.6511 -3099.8813 16138.922 6121535
-3826.7136 -3099.8918 16138.977 2831890
-3730.7483 -3099.8796 16138.913 3818789
-3634.8079 -3099.8882 16138.957 6582617
-3538.7585 -3099.8015 16138.507 7832438
-3442.3062 -3099.3474 16136.142 396806
-3346.3557 -3099.3318 16136.061 770
-3250.4224 -3099.3318 16136.061 264201
-3154.6667 -3099.5068 16136.972 198150
-3058.4966 -3099.2722 16135.75 1184787
-2597.9202 -2717.8008 14149.694 1185044
-2365.9307 -2557.9353 13317.387 1119252
-2286.7554 -2557.9353 13317.387 329736
-2391.9666 -2771.5854 14429.714 1053716
-2306.1777 -2771.5854 14429.714 1382937
-2204.9866 -2752.3591 14329.616 1448987
-1848.9296 -2400.6677 12498.604 1251095
-1732.4364 -2343.6003 12201.493 1514269
-1494.6841 -2110.3391 10987.065 4541518
-1404.9901 -2074.3547 10799.72 197636
0 0 0 0
0 0 0 0
0 0 0 0
0 0 0 0
0 0 0 0
0 0 0 0
0 0 0 0
0 0 0 0
0 0 0 0
0 0 0 0
0 0 0 0
0 0 0 0
-358.01242 -1302.2123 6779.7114 262400
-295.19431 -1209.9446 6299.3384 131072
-239.52173 -1124.4071 5854.0039 65792
0 0 0 0
0 0 0 0
0 0 0 0
0 0 0 0
0 0 0 0
-27.397167 -1003.4507 5224.2681 327680
3.6656327 -1004.2923 5228.6499 196608
33.978691 -981.96112 5112.3872 196608
61.930779 -944.70325 4918.4111 1840920
91.409103 -947.15894 4931.1963 131072
122.54209 -961.40363 5005.3584 1380368
157.3064 -993.00464 5169.8828 1511697
216.70482 -1144.3613 5957.8916 525315
270.36383 -1227.1393 6388.8589 459524
311.84103 -1241.0431 6461.2466 2499108
365.18784 -1293.9542 6736.7178 328195
427.33224 -1364.4978 7103.9888 2498853
476.41193 -1384.3867 7207.5371 196610
515.08124 -1373.2385 7149.4961 65540
525.62708 -1294.527 6739.6997 65540
503.56104 -1152.3378 5999.4194 65540
533.17542 -1139.4006 5932.0649 131077
557.98389 -1118.4357 5822.915 65541
548.74548 -1035.6626 5391.9736 131076
550.99127 -982.50488 5115.2183 196610
579.21143 -978.80194 5095.9395 459270
547.86084 -879.80316 4580.522 853769
537.49268 -822.28009 4281.0396 1050378
548.73962 -801.53119 4173.0142 1708308
560.27808 -782.98462 4076.4553 1905430
584.51373 -782.98462 4076.4553 1511699
611.1936 -786.12848 4092.8228 5196109
635.52655 -786.12848 4092.8228 328454
0 0 0 0
894.0257 -1027.224 5348.0396 1513241
1199.7191 -1331.1212 6930.2207 1710620
1267.9417 -1360.1056 7081.1221 1118740
1422.9962 -1477.3778 7691.6763 922130
1510.2496 -1519.1466 7909.1377 593422
1793.8666 -1749.9493 9110.7666 658960
1848.0327 -1749.9493 9110.7666 527374
2022.407 -1860.5363 9686.5156 527373
2114.0754 -1891.0199 9845.2227 593166
2288.6411 -1992.0144 10371.03 396044
2493.8435 -2113.6758 11004.437 462349
2598.4709 -2146.0532 11173.003 1252379
2761.3467 -2223.7241 11577.382 2699823
2776.3755 -2181.4509 11357.294 2634031
3071.2473 -2355.8423 12265.229 397068
3144.1675 -2355.8423 12265.229 462606
3217.0879 -2355.8423 12265.229 1055000
3869.2153 -2770.5896 14424.529 2106663
4068.2336 -2849.9321 14837.61 725011
4442.7124 -3046.2141 15859.514 791574
4578.5879 -3074.1357 16004.883 1449504
4672.4746 -3073.3025 16000.545 1186847
4757.812 -3066.9917 15967.688 1186846
4803.6001 -3035.9321 15805.982 1318944
4895.7593 -3034.8091 15800.136 2503732
5096.2256 -3099.6023 16137.469 2832697
5188.1904 -3097.228 16125.107 3425345
4190.6304 -2456.3198 12788.346 4148813
4266.6611 -2456.3198 12788.346 3885384
4669.252 -2641.03 13750.002 6648175
5575.2871 -3099.2424 16135.595 7832187
5671.6895 -3099.5002 16136.938 4937295
0 0 0 0
0 0 0 0
4996.7559 -2598.7805 13530.039 12897482
5288.8589 -2707.1211 14094.093 12239299
5301.2622 -2671.1499 13906.815 12041406
5383.9424 -2671.1499 13906.815 12698820
5466.6221 -2671.1499 13906.815 13554126
5900.2246 -2840.0659 14786.244 13619662
6449.458 -3058.8645 15925.375 13028038
6631.4082 -3099.6555 16137.746 11054248
6728.2876 -3100.0872 16139.993 7041131
6824.2446 -3100.0872 16139.993 12435901
6920.6602 -3100.2927 16141.063 13422796
7016.375 -3100.1831 16140.492 12303802
7112.335 -3100.1831 16140.492 13093575
7208.2949 -3100.1831 16140.492 13159624
7304.4937 -3100.2849 16141.022 12370107
7400.1509 -3100.1567 16140.355 13423053
7495.9033 -3100.0713 16139.911 526599
7591.0146 -3099.7261 16138.114 5661011
7688.0283 -3100.1567 16140.355 5398344
7783.9863 -3100.1567 16140.355 5135180
7880.7319 -3100.4658 16141.965 2766634
7976.6997 -3100.4658 16141.965 2701100
8072.6958 -3100.4763 16142.02 3556397
8168.6587 -3100.4741 16142.008 4741928
8264.6377 -3100.478 16142.028 5136684
8360.2363 -3100.3408 16141.313 5399091
8455.3428 -3100.0261 16139.676 2436900
8549.8164 -3099.489 16136.88 2371110
8630.6387 -3094.0701 16108.666 1976352
8741.6924 -3099.489 16136.88 2107429
8815.7588 -3091.8181 16096.942 1910564
8911.459 -3091.8181 16096.942 1976100
9007.1602 -3091.8181 16096.942 2173222
9126.0107 -3099.6812 16137.879 1909794
8928.9365 -3001.1917 15625.113 1317400
9314.6562 -3098.6023 16132.263 1448986
9413.458 -3099.5542 16137.218 2106659
9509.3984 -3099.5542 16137.218 2107685
9605.7451 -3099.6853 16137.901 2436650
9701.6895 -3099.6853 16137.901 726804
9800.2158 -3100.5022 16142.154 461833
9896.0381 -3100.4561 16141.913 5002836
9992.0049 -3100.4558 16141.912 4737864
10087.68 -3100.3652 16141.441 3356978
10183.072 -3100.1912 16140.535 2172960
10278.743 -3100.104 16140.081 1317651
10374.053 -3099.9104 16139.073 1121043
10470.005 -3099.9104 16139.073 989457
10564.063 -3099.3552 16136.183 857617
10659.997 -3099.3552 16136.183 792078
10757.904 -3099.9236 16139.142 660749
10853.819 -3099.9136 16139.089 1384983
10948.331 -3099.5056 16136.966 1582104
11044.05 -3099.4438 16136.645 1713946
11131.628 -3097.1182 16124.536 1779739
11213.944 -3093.3809 16105.078 1779483
11331.666 -3099.3909 16136.368 1450775
11428.46 -3099.6235 16137.58 1516570
11525.362 -3099.8816 16138.924 1318422
11621.821 -3100.0176 16139.631 1187092
11719.106 -3100.3694 16141.463 660238
11815.401 -3100.4561 16141.913 1186584
11911.604 -3100.5173 16142.232 1449755
12007.297 -3100.4453 16141.858 857621
12100.701 -3099.7888 16138.439 726035
12193.754 -3099.053 16134.609 660242
12279.474 -3096.4797 16121.212 660242
12375.319 -3096.4797 16121.212 791828
12471.325 -3096.5198 16121.421 858135
12567.173 -3096.5198 16121.421 857878
12674.497 -3099.3267 16136.033 989464
12772.788 -3099.8992 16139.015 989976
12868.739 -3099.8992 16139.015 1187358
12964.722 -3099.9065 16139.053 1977645
13060.05 -3099.7588 16138.283 2898746
0 0 0 0
0 0 0 0
0 0 0 0
0 0 0 0
13540.516 -3099.9268 16139.157 12172733
13636.946 -3100.0354 16139.724 13619410
13732.695 -3099.9888 16139.481 13356751
13828.649 -3099.9888 16139.481 10000283
13924.215 -3099.9023 16139.031 13750484
14020.292 -3099.9307 16139.178 12303293
14116.221 -3099.9253 16139.15 11908279
9469.9688 -2065.5669 10753.968 13552847
9533.9033 -2065.5669 10753.968 5064012
9597.8389 -2065.5669 10753.968 3161403
12778.012 -2731.7795 14222.473 3490875
14596.082 -3099.947 16139.264 2109476
14691.245 -3099.7805 16138.397 3162937
14787.193 -3099.7805 16138.397 7506822
14884.129 -3099.9866 16139.47 7700860
14980.915 -3100.1592 16140.367 3292473
15076.818 -3100.1475 16140.307 3227194
15173.47 -3100.2888 16141.043 3424061
15269.529 -3100.3083 16141.146 3359038
15364.753 -3100.1594 16140.369 3490880
15460.704 -3100.1575 16140.359 2438193
0 0 0 0
0 0 0 0
0 0 0 0
0 0 0 0
0 0 0 0
0 0 0 0
-9524.2275 -1963.2086 10547.536 256
-9631.1162 -1998.3988 10736.6 256
-9948.2012 -2077.9644 11164.072 256
-9908.4766 -2083.5681 11194.18 256
-9890.1689 -2093.7815 11249.053 256
-9894.9678 -2109.0593 11331.135 329478
-9853.0225 -2114.5151 11360.445 790029
-9812.0977 -2120.2664 11391.345 526598
-9771.0186 -2126.0642 11422.494 1118734
-9888.293 -2166.6401 11640.493 526853
-9819.0869 -2166.6401 11640.493 790026
-10111.404 -2246.9785 12072.119 2763816
-10039.632 -2246.9785 12072.119 2369058
-9362.4434 -2110.5042 11338.896 2172193
-9295.0303 -2110.5042 11338.896 2698537
-9235.5645 -2112.322 11348.662 2106659
-8942.4697 -2060.3381 11069.375 132355
-8851.3008 -2054.4521 11037.752 790801
-8785.6777 -2054.4521 11037.752 67078
-9322.0781 -2196.2896 11799.786 1284
-10006.616 -2375.4436 12762.31 1029
-9930.7412 -2375.4436 12762.31 67078
-10269.271 -2475.333 13298.976 1029
-9685.1787 -2352.6555 12639.879 259
-9610.0312 -2352.6555 12639.879 132614
-9414.4492 -2322.9395 12480.226 263942
-9344.0137 -2323.8752 12485.253 66820
-9668.3486 -2423.7925 13022.069 66820
-9771.4199 -2469.4058 13267.131 132097
-10545.181 -2686.635 14434.218 197890
-11255.693 -2891.1833 15533.174 512
-11494.29 -2976.8945 15993.666 66304
-11505.065 -3004.5405 16142.197 658439
-11406.64 -3003.8938 16138.722 724232
-11311.858 -3004.2039 16140.388 65792
-11217.024 -3004.5051 16142.007 256
-11121.056 -3004.5051 16142.007 768
-11026.032 -3004.7629 16143.392 768
-10929.911 -3004.7231 16143.179 1792
-10833.862 -3004.7029 16143.069 1187084
-10736.381 -3004.2815 16140.806 2240286
-10640.329 -3004.2559 16140.668 924425
-10543.293 -3003.9497 16139.021 1516049
-10446.89 -3003.8198 16138.324 132864
-9987.665 -2898.3972 15571.931 768
-9895.0859 -2898.3972 15571.931 512
-10143.158 -2999.1208 16113.079 1383192
-10047.361 -2999.1208 16113.079 263686
-9966.2061 -3003.5334 16136.786 3093300
-9870.0723 -3003.4739 16136.466 4409159
-8514.625 -2616.4409 14057.093 1
-8232.3574 -2554.7793 13725.81 131843
-7960.5952 -2495.176 13405.585 329478
-6882.918 -2179.2058 11708.002 256
-7243.1826 -2316.6982 12446.695 66306
-7291.9351 -2356.3652 12659.81 256
-7361.3828 -2403.6165 12913.672 256
-7189.4238 -2372.21 12744.937 256
-7050.5845 -2351.179 12631.945 256
-6682.2744 -2252.3486 12100.97 256
-6518.9116 -2221.199 11933.616 256
-6447.9629 -2221.199 11933.616 256
-6377.0142 -2221.199 11933.616 256
-6223.7798 -2192.2156 11777.898 256
-6194.7466 -2206.8176 11856.351 256
-6140.1992 -2212.562 11887.213 256
-6123.4229 -2232.2095 11992.771 256
-6052.1226 -2232.2095 11992.771 256
-5804.0601 -2166.2368 11638.326 256
-5592.6567 -2112.5195 11349.725 256
-5488.7568 -2098.5938 11274.906 256
-5461.8223 -2114.1145 11358.293 256
-5309.2549 -2080.7861 11179.233 132096
-5190.9561 -2060.2136 11068.705 256
-5113.5991 -2055.5703 11043.759 256
-5070.2275 -2064.6458 11092.518 256
-4989.0684 -2058.3701 11058.801 131840
-4901.8633 -2049.3992 11010.604 512
-4839.9624 -2050.9077 11018.708 0
-4800.0659 -2061.9099 11077.819 256
-4736.7666 -2063.0256 11083.812 512
-4644.2451 -2051.2659 11020.632 256
-4604.9741 -2063.0256 11083.812 256
-4663.7778 -2119.7021 11388.313 66304
-4690.189 -2163.1094 11621.522 263683
-4705.228 -2202.4912 11833.105 0
-4649.1792 -2209.2874 11869.619 256
-4606.8218 -2222.8999 11942.753 0
-4415.2856 -2163.8293 11625.392 256
-4298.5127 -2140.1025 11497.916 256
-4230.1543 -2140.1025 11497.916 256
-4191.3784 -2155.3145 11579.644 256
-4154.9575 -2172.2656 11670.717 768
-4223.7324 -2245.7246 12065.382 659209
-4152.0005 -2245.7246 12065.382 198658
-4202.3604 -2312.9224 12426.409 396294
-3897.604 -2183.5764 11731.484 133122
-3827.8569 -2183.5764 11731.484 133122
-3732.5293 -2168.7131 11651.63 1280
-3802.8738 -2251.3689 12095.705 330755
-3642.9971 -2198.2883 11810.526 594183
-3480.687 -2141.6245 11506.094 1054478
-3393.3552 -2129.7471 11442.28 198659
-3450.2588 -2209.7605 11872.161 330243
-3288.2888 -2150.0085 11551.138 527367
-3035.1021 -2026.7942 10889.156 922124
-3022.4338 -2062.3245 11080.045 1185806
-2967.5066 -2069.96 11121.068 2173216
-3352.771 -2391.9932 12851.225 7174258
-4113.7427 -3003.3398 16135.746 7964291
-4017.9175 -3003.4197 16136.175 5397848
-3922.5413 -3003.8469 16138.47 3621940
-3826.5938 -3003.8469 16138.47 2766878
-3730.6458 -3003.8469 16138.47 5661512
-3634.8079 -3003.9375 16138.957 5529160
-3538.8574 -3003.9375 16138.957 5331277
-3442.3455 -3003.4475 16136.325 65793
-3346.3203 -3003.3669 16135.892 1578776
-3250.4219 -3003.3982 16136.06 66059
-3154.4888 -3003.3984 16136.061 2171436
-3058.4966 -3003.3406 16135.75 1711400
-2390.2744 -2423.1731 13018.742 5198423
-2312.8743 -2423.1731 13018.742 131846
-2692.0254 -2918.0579 15677.561 395016
-2377.5823 -2669.6458 14342.94 1052946
-2151.3496 -2505.4822 13460.956 461323
-1906.5667 -2306.1953 12390.266 461579
-1768.8871 -2225.6489 11957.523 1316887
-1565.3539 -2052.0298 11024.736 1382680
-1384.8112 -1894.6906 10179.416 2172197
0 0 0 0
0 0 0 0
0 0 0 0
0 0 0 0
0 0 0 0
0 0 0 0
0 0 0 0
0 0 0 0
0 0 0 0
0 0 0 0
0 0 0 0
0 0 0 0
0 0 0 0
0 0 0 0
-274.32541 -1089.6034 5854.0039 196608
-233.34349 -1061.498 5703.0054 328706
0 0 0 0
0 0 0 0
0 0 0 0
0 0 0 0
0 0 0 0
-27.379217 -971.75378 5220.8452 327680
3.660161 -971.75378 5220.8452 196608
33.090324 -926.68811 4978.7251 196608
61.918995 -915.28766 4917.4751 1643283
92.163773 -925.41925 4971.9082 196608
122.54209 -931.64539 5005.3584 1182475
157.3064 -962.26819 5169.8828 1972248
216.70482 -1108.9399 5957.8916 722694
274.00726 -1205.1808 6474.9556 1183501
318.39636 -1227.9102 6597.0708 1315090
380.38074 -1306.0687 7016.9854 657159
429.73679 -1329.7028 7143.9619 2105122
476.41193 -1341.536 7207.5371 65538
498.67029 -1288.3346 6921.707 65538
496.97556 -1186.0781 6372.3242 65540
503.56104 -1116.6694 5999.4194 65540
534.22076 -1106.2976 5943.6953 65540
567.68427 -1102.6586 5924.1445 65540
590.94598 -1080.7869 5806.6362 65540
606.28735 -1047.6432 5628.5688 196611
639.75079 -1047.6432 5628.5688 196611
611.10425 -950.98889 5109.2837 327938
575.09326 -852.57068 4580.522 853256
557.95624 -789.76727 4243.104 1511186
573.54938 -776.72144 4173.0142 1708051
589.91534 -765.76068 4114.1265 1577492
611.1936 -761.79547 4092.8228 1840921
608.64435 -729.57214 3919.6997 986638
0 0 0 0
0 0 0 0
1195.6089 -1285.4999 6906.4775 1644827
1334.1689 -1386.8486 7450.9844 329224
1435.7847 -1444.5148 7760.8013 329737
1456.2616 -1419.4994 7626.4033 395787
1509.8354 -1427.2821 7668.2168 329996
1695.3534 -1555.6824 8358.0605 264201
1902.1989 -1695.7832 9110.7666 329994
1936.2339 -1678.3339 9017.0176 395787
2288.6411 -1930.3557 10371.03 330507
2453.6316 -2015.2244 10826.996 1054230
2641.3308 -2113.9285 11357.294 1712673
2719.2031 -2122.0054 11400.688 1778721
2650.0588 -2017.7513 10840.572 2042405
3071.2473 -2282.9221 12265.229 2766129
3214.4534 -2333.9556 12539.411 2634799
3289.0037 -2333.9556 12539.411 2831665
3935.4822 -2730.814 14671.573 1120793
4226.1201 -2868.8997 15413.452 2107688
4442.7124 -2951.9248 15859.514 725779
4578.5879 -2978.9824 16004.883 1054745
4662.8794 -2972.0593 15967.688 791831
4767.6021 -2978.175 16000.545 923673
4821.1973 -2952.7385 15863.886 1318687
4998.6631 -3002.6868 16132.237 2108973
5096.2256 -3003.6604 16137.469 2306352
5188.9023 -3001.7717 16127.321 2701365
5270.5195 -2993.6694 16083.791 3162430
5146.5527 -2871.1648 15425.622 4741204
4449.5562 -2438.864 13103.042 9015951
4750.9995 -2559.2825 13750.002 7830138
5671.167 -3003.2849 16135.451 9084821
4470.7109 -2328.1763 12508.361 10464162
0 0 0 0
5169.0444 -2605.1731 13996.555 13357005
5288.8589 -2623.3279 14094.093 13159627
5157.6357 -2518.3408 13530.039 13158857
5261.4219 -2529.5652 13590.343 13422285
5342.2202 -2529.5652 13590.343 13159113
5839.9136 -2724.0254 14635.102 12303804
6213.5581 -2855.7634 15342.876 13553869
6631.4082 -3003.7122 16137.746 13224905
6728.4575 -3004.2061 16140.399 13619664
6824.437 -3004.2153 16140.449 13619661
6921.29 -3004.6033 16142.533 11053735
7016.6235 -3004.3296 16141.063 13027267
7112.5859 -3004.3296 16141.063 13094088
7208.2368 -3004.1992 16140.363 5528658
7304.3979 -3004.2825 16140.81 4477510
7400.1519 -3004.198 16140.356 4872015
7496.1108 -3004.198 16140.356 2964017
7592.0693 -3004.1978 16140.355 12108219
7688.0283 -3004.1978 16140.355 12173242
7783.9209 -3004.1726 16140.22 5659478
7880.0972 -3004.2554 16140.665 8029054
7975.6851 -3004.1152 16139.911 1713181
8072.5381 -3004.449 16141.705 3425318
8167.1841 -3003.9629 16139.094 4741668
8264.627 -3004.5054 16142.008 5333550
8359.5508 -3004.1296 16139.989 4609067
8454.8721 -3003.9038 16138.776 3358249
8550.1562 -3003.6702 16137.521 989452
8645.2734 -3003.3838 16135.982 1317651
8742.0342 -3003.6682 16137.51 1514778
8837.9473 -3003.6582 16137.457 2501674
8933.8887 -3003.6582 16137.457 1580572
8963.2607 -2981.5146 16018.488 659470
9039.3584 -2975.2158 15984.647 988435
8953.4424 -2916.2781 15667.998 2040866
9219.4453 -2971.999 15967.364 988433
9410.5674 -3002.6914 16132.263 1975328
9509.3984 -3003.6138 16137.218 2567465
9605.7451 -3003.741 16137.901 1580570
9701.3809 -3003.6455 16137.388 1580312
9798.0703 -3003.875 16138.621 1711900
9896.0381 -3004.4878 16141.913 3488568
9992.0049 -3004.4875 16141.912 922640
10087.975 -3004.4878 16141.913 1975581
10183.538 -3004.3687 16141.272 2041631
10278.821 -3004.1694 16140.203 1383444
10374.524 -3004.0957 16139.807 1384216
10470.48 -3004.0957 16139.807 1318422
10565.798 -3003.9143 16138.832 726285
10661.317 -3003.793 16138.181 726285
10758.595 -3004.165 16140.179 1121300
10855.251 -3004.3582 16141.217 1253141
10950.465 -3004.1523 16140.111 1187348
11045.723 -3003.9622 16139.089 1253140
11140.169 -3003.5562 16136.908 1253141
11235.824 -3003.4805 16136.502 1450520
11333.461 -3003.9314 16138.924 1582106
11430.254 -3004.1526 16140.113 1647129
11526.212 -3004.1526 16140.113 1121043
11621.821 -3004.063 16139.631 726285
11719.106 -3004.4041 16141.463 1186582
11815.635 -3004.5471 16142.232 989206
11911.604 -3004.5471 16142.232 1515548
12006.758 -3004.3428 16141.134 1121048
12100.172 -3003.7097 16137.733 923925
12193.274 -3003.0105 16133.976 857620
12287.921 -3002.699 16132.302 857620
12383.832 -3002.699 16132.302 791571
12475.391 -3001.6516 16126.676 791572
12538.042 -2993.7183 16084.053 660499
12669.928 -3002.311 16130.218 594449
12770.43 -3003.3933 16136.033 660243
12868.156 -3003.812 16138.283 726036
12965.21 -3004.0686 16139.662 726294
13061.247 -3004.0874 16139.763 792598
0 0 0 0
0 0 0 0
0 0 0 0
0 0 0 0
13540.516 -3003.9749 16139.157 2372395
13637.826 -3004.2739 16140.765 3226677
13733.345 -3004.1772 16140.244 5858399
13829.037 -3004.1191 16139.934 4015429
13924.992 -3004.1191 16139.934 7897472
14020.949 -3004.1191 16139.934 2567724
14116.595 -3004.053 16139.578 5069142
14212.352 -3004.0112 16139.354 6187878
14307.668 -3003.8777 16138.636 5662303
14403.355 -3003.8235 16138.344 5530459
14500.13 -3003.9946 16139.264 3293752
14595.299 -3003.8333 16138.397 3030580
14691.245 -3003.8333 16138.397 2899250
14787.193 -3003.8333 16138.397 2372137
14884.758 -3004.1599 16140.151 4280394
14980.715 -3004.1599 16140.151 2503984
15076.818 -3004.1887 16140.307 2503984
15172.83 -3004.1995 16140.364 3161400
15269.433 -3004.3259 16141.043 2569006
15364.748 -3004.1995 16140.364 2964533
15460.704 -3004.1985 16140.359 2043688
0 0 0 0
0 0 0 0
0 0 0 0
0 0 0 0
0 0 0 0
0 0 0 0
-9514.5293 -1898.5653 10536.796 256
-9582.9404 -1924.8899 10682.894 256
-9695.4375 -1960.4802 10880.416 256
-9650.2734 -1964.4547 10902.473 256
-9853.1523 -2019.3165 11206.95 256
-9786.5234 -2019.3165 11206.95 256
-9709.0869 -2017.0713 11194.488 256
-9642.5322 -2017.0713 11194.488 330244
-9342.7051 -1967.9347 10921.787 1185553
-9888.293 -2097.4343 11640.493 1317648
-9819.0869 -2097.4343 11640.493 2106903
-10111.404 -2175.2065 12072.119 4606781
-9192.8223 -1991.7354 11053.877 4672574
-9127.1045 -1991.7354 11053.877 4145724
-9011.7471 -1980.8245 10993.323 460806
-8963.8135 -1984.6824 11014.734 198404
-8916.9229 -1988.8297 11037.752 770
-8768.6172 -1970.2515 10934.645 395785
-8703.6084 -1970.2515 10934.645 132613
-9128.2344 -2081.9253 11554.42 770
-9174.5859 -2108.3638 11701.149 132356
-9007.0869 -2085.6863 11575.293 329992
-9854.8662 -2299.5681 12762.31 66564
-9332.4922 -2194.5723 12179.597 66306
-9473.7979 -2245.2217 12460.694 263429
-9414.4492 -2248.741 12480.226 132099
-9340.251 -2248.741 12480.226 513
-9475.9893 -2299.6897 12762.985 256
-9529.7822 -2331.4136 12939.048 256
-10385.049 -2561.3254 14215.03 256
-10878.581 -2705.0618 15012.748 394240
-11597.717 -2907.7388 16137.579 920583
-11505.331 -2908.6379 16142.569 2038806
-11407.817 -2908.2446 16140.388 1643790
-11313.198 -2908.5891 16142.3 788481
-11217.619 -2908.6909 16142.863 1776403
-11122.009 -2908.7859 16143.392 1250316
-11026.223 -2908.8362 16143.67 512
-10930.239 -2908.835 16143.664 1792
-10833.862 -2908.728 16143.069 2568481
-10737.414 -2908.5999 16142.358 1186828
-10640.437 -2908.3245 16140.83 1187342
-10543.304 -2908.0015 16139.038 1536
-10446.89 -2907.873 16138.324 2048
-9991.0576 -2806.7708 15577.22 792076
-9766.4912 -2769.354 15369.562 1843991
-9979.7988 -2856.5649 15853.572 1844248
-10047.361 -2903.324 16113.079 461576
-9966.0635 -2907.5542 16136.555 592907
-9871.083 -2907.8359 16138.118 10267305
-9774.1367 -2907.5381 16136.466 7570305
-6625.8062 -1990.5334 11047.207 594192
-6560.127 -1990.5334 11047.207 256
-6795.6001 -2082.8359 11559.474 0
-7194.3613 -2227.5828 12362.801 513
-7125.9585 -2229.1775 12371.65 256
-7225.0498 -2283.748 12674.511 256
-7149.6968 -2283.748 12674.511 66048
-7113.6509 -2296.4377 12744.937 256
-6831.355 -2229.0496 12370.941 256
-6614.0767 -2181.6406 12107.828 256
-6558.4209 -2187.0857 12138.047 256
-6627.2446 -2234.6252 12401.885 256
-6553.5122 -2234.6252 12401.885 256
-6563.252 -2263.4116 12561.646 256
-6488.5698 -2263.4116 12561.646 256
-6206.1377 -2190.0984 12154.768 256
-6125.688 -2187.1755 12138.546 256
-5804.0601 -2097.0439 11638.326 256
-5603.3013 -2048.9346 11371.326 256
-5574.3926 -2063.2578 11450.817 256
-5556.4688 -2082.051 11555.117 256
-5487.77 -2082.051 11555.117 132096
-5419.0718 -2082.051 11555.117 132096
-5135.7119 -1998.5173 11091.517 263425
-5108.7793 -2013.895 11176.86 256
-5019.3628 -2004.722 11125.952 256
-4923.3208 -1992.6224 11058.801 256
-4839.9624 -1985.3984 11018.708 256
-4774.4531 -1985.3984 11018.708 256
-4725.5581 -1992.4034 11057.585 256
-4644.2451 -1985.7451 11020.632 256
-4634.0679 -2009.7469 11153.839 0
-4684.3389 -2061.0422 11438.521 197890
-4690.189 -2094.0161 11621.522 198147
-4705.228 -2132.1399 11833.105 197890
-4677.8247 -2151.8967 11942.753 131841
-4606.8218 -2151.8967 11942.753 66049
-4419.3467 -2096.6399 11636.084 197890
-4310.6885 -2077.6125 11530.485 256
-4218.8457 -2066.2056 11467.178 132097
-4119.9194 -2050.8979 11382.222 256
-4082.4944 -2066.2056 11467.178 396037
-4067.5134 -2093.5854 11619.132 256
-3972.8687 -2080.1987 11544.839 330244
-4046.7603 -2156.1394 11966.299 67072
-3897.604 -2113.8293 11731.484 512
-3904.4746 -2156.1394 11966.299 512
-3750.0779 -2109.3115 11706.41 1280
-3685.853 -2112.3909 11723.5 67584
-3862.5344 -2256.3152 12522.262 1252112
-3480.687 -2073.2175 11506.094 857611
-3096.3328 -1881.2559 10440.73 2699813
-3034.2598 -1881.2559 10440.73 3752245
-3136.5188 -1985.2705 11017.999 593671
-3071.0139 -1985.2705 11017.999 1909275
-3033.6243 -2003.8422 11121.068 1778201
-3124.6306 -2109.9417 11709.908 2304287
-3055.0117 -2109.9417 11709.908 5858139
-4113.6782 -2907.3633 16135.495 8424839
-4017.811 -2907.4082 16135.746 9675166
-3921.8025 -2907.3516 16135.43 2305065
-3826.0493 -2907.4856 16136.175 3688511
-3730.1423 -2907.5066 16136.291 6320747
-3634.8062 -2907.9854 16138.948 5004632
-3538.8574 -2907.9868 16138.957 4872021
-3442.7498 -2907.8542 16138.221 11977415
-3346.7273 -2907.7881 16137.854 10067877
-3250.4224 -2907.4651 16136.061 9740201
-3154.4888 -2907.4651 16136.061 11845321
-3058.5508 -2907.4604 16136.035 3750980
-1971.7755 -1935.0657 10739.368 2961464
-1907.927 -1935.0657 10739.368 3817026
-2269.5864 -2381.5686 13217.401 1381913
-2237.2507 -2431.8359 13496.38 1777182
-1980.2302 -2232.5315 12390.266 527114
-1839.978 -2154.5583 11957.523 131844
-1574.9628 -1918.3524 10646.611 257
-1476.3669 -1873.5573 10398.004 131843
0 0 0 0
0 0 0 0
0 0 0 0
0 0 0 0
0 0 0 0
0 0 0 0
0 0 0 0
0 0 0 0
0 0 0 0
0 0 0 0
0 0 0 0
0 0 0 0
0 0 0 0
0 0 0 0
0 0 0 0
0 0 0 0
0 0 0 0
0 0 0 0
0 0 0 0
0 0 0 0
0 0 0 0
0 0 0 0
-26.997828 -927.61035 5148.1196 393216
3.5467751 -911.57263 5059.1118 262144
33.090324 -897.08813 4978.7251 196608
61.930779 -886.22058 4918.4111 1116939
91.742577 -891.76575 4949.186 327937
125.82684 -926.06219 5139.5273 525316
168.42973 -997.40161 5535.4521 1775123
205.78522 -1019.4248 5657.6777 590851
277.04572 -1179.6227 6546.7559 722437
322.26828 -1203.144 6677.2959 1577234
380.38074 -1264.3507 7016.9854 526087
429.73679 -1287.2299 7143.9619 1709594
474.79459 -1294.2764 7183.0688 65538
503.97833 -1260.4585 6995.3843 65538
525.62708 -1214.3882 6739.6997 65539
526.37677 -1129.9801 6271.2456 65540
537.72687 -1077.9894 5982.7041 65540
571.86127 -1075.2922 5967.7349 65540
591.7323 -1047.6569 5814.3623 65540
625.47577 -1046.2777 5806.708 131075
659.99011 -1046.2648 5806.6362 131074
674.80157 -1016.5712 5641.8408 196609
657.04706 -942.95319 5233.27 524804
564.28198 -773.20868 4291.2095 656390
582.75098 -763.97479 4239.9629 1576722
598.35913 -751.91168 4173.0142 1576978
606.84991 -732.22137 4063.7354 1511441
608.00305 -705.52429 3915.5698 4670019
0 0 0 0
0 0 0 0
0 0 0 0
1236.6698 -1244.439 6906.4775 461067
1422.9962 -1385.9194 7691.6763 329481
1432.5557 -1351.7889 7502.2563 264201
1491.1021 -1364.549 7573.0728 724752
1555.4252 -1381.6924 7668.2168 724239
1809.824 -1561.8967 8668.3281 526603
1864.9989 -1564.9506 8685.2764 526347
2267.6775 -1851.5798 10276.032 329994
2453.6316 -1950.8549 10826.996 856338
2600.635 -2014.8766 11182.309 1120023
2708.853 -2046.4062 11357.294 725778
2773.4695 -2044.2643 11345.406 462863
2891.9861 -2081.0095 11549.338 1778722
3218.1514 -2262.0044 12553.836 1778977
3536.1743 -2429.2009 13481.756 2041893
3965.4077 -2663.6895 14783.137 2305065
4226.1201 -2777.2622 15413.452 2831665
4455.1899 -2865.6616 15904.057 2107686
4581.2886 -2885.53 16014.324 1713184
4644.2979 -2865.6616 15904.057 726035
4757.812 -2877.127 15967.688 1055000
4821.1973 -2858.4236 15863.886 1647396
4998.6631 -2906.7761 16132.237 1187358
5093.021 -2905.8904 16127.321 1253407
5188.1904 -2905.4915 16125.107 1451296
5270.5195 -2898.0469 16083.791 3228217
5365.7046 -2897.8103 16082.479 5465423
0 0 0 0
0 0 0 0
5247.1421 -2689.9766 14929.026 6845804
5335.8994 -2689.9766 14929.026 10201753
4851.8828 -2405.9495 13352.714 14212828
5205.0659 -2539.5347 14094.093 13423311
5516.1333 -2648.6641 14699.748 13488849
5603.5273 -2648.6641 14699.748 8688269
5383.9424 -2505.79 13906.815 12240322
5274.3345 -2417.6492 13417.645 13488335
5712.5278 -2579.4946 14315.866 13422540
6213.5581 -2764.5457 15342.876 13553612
6631.7876 -2907.9355 16138.672 12435388
6728.6543 -2908.332 16140.872 13553869
6824.6162 -2908.332 16140.872 11908787
6921.3535 -2908.658 16142.681 13488591
7017.2627 -2908.6313 16142.533 8159348
7112.6201 -2908.3801 16141.14 6911847
7208.0166 -2908.1514 16139.87 6320207
7304.5474 -2908.3801 16141.14 5201723
7400.562 -2908.4004 16141.252 5268030
7496.9434 -2908.562 16142.149 5859912
7592.0693 -2908.2393 16140.356 7044213
7688.8818 -2908.562 16142.149 13161420
7783.9209 -2908.2144 16140.22 13423308
7879.7285 -2908.1589 16139.911 14014160
7975.2437 -2907.9978 16139.018 5329983
8071.1421 -2907.979 16138.913 7569761
8167.0928 -2907.979 16138.913 5202230
8263.4297 -2908.115 16139.668 5464388
8359.2256 -2908.0598 16139.361 2173467
8454.5947 -2907.8591 16138.247 1778457
8550.501 -2907.8455 16138.172 1515031
8646.0977 -2907.728 16137.521 1646362
8742.4092 -2907.8506 16138.201 857105
8838.3545 -2907.8506 16138.201 1317400
8934.123 -2907.7927 16137.879 1251607
9030.0459 -2907.7859 16137.841 593677
9039.3584 -2880.1829 15984.647 1383194
8953.4424 -2823.1274 15667.998 1777949
9054.8428 -2825.7017 15682.284 2172707
9314.376 -2877.0686 15967.364 1975841
9485.6484 -2900.4116 16096.915 2568492
9606.1328 -2907.9143 16138.554 4213574
9701.3809 -2907.7041 16137.388 2173733
9798.458 -2908.0413 16139.259 2437160
9895.6172 -2908.3958 16141.227 2239013
9991.6748 -2908.4231 16141.378 1516058
10087.974 -2908.5193 16141.912 1581594
10183.941 -2908.5193 16141.912 3489847
10278.948 -2908.2471 16140.401 2634795
10374.701 -2908.1895 16140.081 2634795
10470.995 -2908.283 16140.601 923663
10566.436 -2908.1399 16139.807 660236
10663.786 -2908.5205 16141.918 725515
10759.443 -2908.4363 16141.451 922894
10855.845 -2908.5532 16142.1 922894
10951.374 -2908.4363 16141.451 659465
11046.328 -2908.1699 16139.973 660235
11141.771 -2908.0359 16139.229 726285
11237.575 -2907.9976 16139.016 1186579
11335.195 -2908.4258 16141.394 1646874
11431.16 -2908.4258 16141.394 1778460
11527.415 -2908.499 16141.799 1909792
11622.993 -2908.4016 16141.258 330760
11719.433 -2908.5195 16141.913 462861
11816.306 -2908.7422 16143.149 2436651
11913.348 -2909.0027 16144.595 2699823
12008.171 -2908.7214 16143.033 1252377
12101.688 -2908.1306 16139.755 1383963
12193.317 -2907.0994 16134.031 1186584
12288.946 -2907.0303 16133.647 1186327
12384.21 -2906.8765 16132.795 1120791
12480.08 -2906.8665 16132.738 989205
12575.994 -2906.8665 16132.738 857877
12673.979 -2907.3416 16135.375 857620
12771.17 -2907.6287 16136.969 923671
12868.002 -2907.8306 16138.09 1055257
12964.722 -2908.0042 16139.053 1450015
13061.029 -2908.0835 16139.493 1845027
13154.867 -2907.616 16136.898 1845538
13248.885 -2907.1946 16134.559 2042147
13348.487 -2907.9958 16139.006 1845537
13444.438 -2907.9958 16139.006 1713695
13541.062 -2908.1406 16139.81 1780517
13637.865 -2908.3208 16140.811 2240814
13733.826 -2908.3208 16140.811 4873305
13829.787 -2908.3208 16140.811 5465442
13926.245 -2908.4243 16141.385 3820616
14021.707 -2908.3201 16140.807 2701362
14116.693 -2908.1191 16139.69 2569775
14212.352 -2908.0583 16139.354 4478029
14307.953 -2907.9871 16138.958 2767155
14403.399 -2907.8855 16138.394 2306091
14499.303 -2907.8765 16138.344 2109483
14595.083 -2907.8435 16138.16 2239784
14691.245 -2907.8862 16138.397 2437676
14788.265 -2908.0969 16139.567 1911076
14884.859 -2908.2222 16140.262 1516319
14980.915 -2908.241 16140.367 1911077
15077.575 -2908.376 16141.117 2108200
15173.538 -2908.376 16141.117 2306347
15268.795 -2908.2415 16140.369 2503984
15364.748 -2908.2405 16140.364 2569261
15458.99 -2907.9172 16138.57 10727597
0 0 0 0
0 0 0 0
0 0 0 0
0 0 0 0
0 0 0 0
0 0 0 0
-9514.5293 -1835.9213 10536.796 256
-9507.3906 -1846.7025 10598.673 256
-9562.3525 -1869.7705 10731.065 256
-9630.75 -1895.7932 10880.416 256
-9679.8389 -1918.3412 11009.824 263683
-9692.4814 -1933.9242 11099.259 131840
-9452.2959 -1898.9286 10898.41 0
-9560.5059 -1933.9242 11099.259 922379
-9216.2305 -1877.2406 10773.938 1777687
-9360.1299 -1919.8947 11018.74 1514768
-9294.6211 -1919.8947 11018.74 1580815
-9092.2031 -1891.4143 10855.284 2699041
-9027.666 -1891.4143 10855.284 3356459
-8781.2783 -1853.0399 10635.045 1316881
-8718.0498 -1853.0399 10635.045 790539
-8946.3896 -1915.4661 10993.323 256
-8881.0303 -1915.4661 10993.323 66564
-8586.6162 -1865.6969 10707.686 132356
-8785.6777 -1923.2073 11037.752 527371
-8981.2842 -1980.8214 11368.413 66307
-9174.5859 -2038.797 11701.149 514
-9260.2646 -2073.5593 11900.659 263942
-9841.1797 -2220.6045 12744.586 770
-9364.9033 -2129.5312 12221.896 66307
-9292.2402 -2129.5312 12221.896 66306
-9399.7158 -2171.1394 12460.694 131842
-9274.5635 -2159.2498 12392.456 256
-9668.3486 -2268.9529 13022.069 256
-9557.9492 -2261.1509 12977.291 256
-10259.475 -2446.8643 14043.146 66048
-10509.193 -2526.9858 14502.983 66048
-11006.844 -2668.5427 15315.412 526340
-11501.774 -2811.7964 16137.579 986377
-11405.832 -2811.7964 16137.579 1183755
-11313.198 -2812.6189 16142.3 526337
-11217.619 -2812.717 16142.863 1710611
-11121.257 -2812.6189 16142.3 1184523
-11026.032 -2812.8091 16143.392 256
-10928.284 -2812.3533 16140.776 768
-10832.437 -2812.3828 16140.945 768
-10736.474 -2812.3828 16140.945 1449488
-10639.255 -2812.0505 16139.038 1713175
-10543.293 -2812.0476 16139.021 397058
-10446.675 -2811.8682 16137.991 68096
-9809.0869 -2664.7261 15293.508 199424
-9766.4912 -2677.9778 15369.562 199424
-9979.7988 -2762.3113 15853.572 462342
-9885.5449 -2762.3113 15853.572 593672
-9965.1494 -2811.3599 16135.074 199173
-9871.083 -2811.8901 16138.118 1778974
-8028.7417 -2309.5266 13254.932 5266518
-7306.0669 -2122.4766 12181.406 132355
-6952.5254 -2039.9911 11708.002 1024
-7048.9229 -2089.1924 11990.381 512
-7194.3613 -2154.0825 12362.801 512
-7125.9585 -2155.6245 12371.65 66049
-7315.6294 -2236.0811 12833.41 256
-7239.3315 -2236.0811 12833.41 66561
-8256.3574 -2577.3838 14792.229 197634
-6942.5083 -2190.573 12572.229 724490
-6867.7627 -2190.573 12572.229 256
-6952.8262 -2242.1074 12867.996 256
-6876.3223 -2242.1074 12867.996 256
-6799.8184 -2242.1074 12867.996 256
-6877.27 -2293.4485 13162.656 256
-6740.3745 -2273.6682 13049.132 256
-6499.9565 -2218.1003 12730.214 256
-6230.9839 -2151.364 12347.198 256
-6043.1616 -2111.3892 12117.773 256
-5686.1694 -2010.6312 11539.499 256
-5648.3843 -2021.6624 11602.81 256
-5593.4497 -2026.7524 11632.022 256
-5598.0293 -2053.8044 11787.28 132096
-5455.1387 -2026.7524 11632.022 512
-5195.8193 -1955.1937 11221.33 256
-5123.835 -1953.1847 11209.799 256
-5042.8228 -1947.6359 11177.953 256
-4971.1421 -1945.5911 11166.218 256
-4857.5728 -1926.8748 11058.801 256
-4800.0659 -1930.1887 11077.819 256
-4736.7666 -1931.2328 11083.812 256
-4700.3804 -1943.4342 11153.839 256
-4694.7134 -1968.8677 11299.809 66304
-4684.3389 -1993.037 11438.521 66304
-4690.189 -2024.923 11621.522 256
-4800.0195 -2103.3257 12071.495 132097
-4677.8247 -2080.8938 11942.753 592646
-4606.8218 -2080.8938 11942.753 197890
-4419.3467 -2027.4601 11636.084 197890
-4338.3384 -2021.947 11604.443 263683
-4225.9644 -2001.4014 11486.527 256
-4151.231 -1998.3 11468.728 768
-4083.0461 -1998.3 11468.728 1024
-4068.8782 -2025.1857 11623.03 512
-3994.2661 -2022.3956 11607.019 330244
-3925.2593 -2022.3956 11607.019 256
-3897.604 -2044.0825 11731.484 768
-3860.8091 -2061.679 11832.475 132866
-3758.1101 -2044.0825 11731.484 67329
-3900.7988 -2161.814 12407.173 264964
-3827.0347 -2161.814 12407.173 1792
-3404.3533 -1960.844 11253.758 923403
-3061.0867 -1798.4747 10321.882 1646868
-2976.7385 -1784.696 10242.803 791560
-3136.5188 -1919.7655 11017.999 3226414
-3150.3684 -1969.3719 11302.702 3357491
-3140.3335 -2005.8846 11512.258 1580823
-3361.0322 -2194.6892 12595.852 7633781
-3003.4465 -2005.8846 11512.258 4015938
-4113.6616 -2811.4219 16135.43 8425357
-4017.7322 -2811.4219 16135.43 10661805
-3594.9856 -2577.1365 14790.811 987922
-3527.8743 -2592.4392 14878.636 922638
-3730.1353 -2811.5664 16136.26 1909533
-3634.4709 -2811.7756 16137.461 1712414
-3538.6958 -2811.908 16138.221 1778209
-3442.9182 -2812.0457 16139.011 258
-3346.968 -2812.0461 16139.014 131846
-3250.7522 -2811.8169 16137.698 518
-3154.4836 -2811.5273 16136.035 5988711
-3058.5354 -2811.5132 16135.955 8949650
-1675.9823 -1590.5092 9128.3164 1052947
-1621.7119 -1590.5092 9128.3164 2
-2269.5864 -2302.9873 13217.401 1316889
-2040.8467 -2145.1541 12311.558 263944
-1880.3909 -2050.022 11765.572 1028
-1638.2598 -1855.0554 10646.611 2
-1497.9349 -1764.3287 10125.91 513
-1303.9052 -1600.1001 9183.3613 131843
0 0 0 0
0 0 0 0
0 0 0 0
0 0 0 0
0 0 0 0
0 0 0 0
0 0 0 0
0 0 0 0
0 0 0 0
0 0 0 0
0 0 0 0
0 0 0 0
0 0 0 0
0 0 0 0
0 0 0 0
0 0 0 0
0 0 0 0
0 0 0 0
0 0 0 0
0 0 0 0
0 0 0 0
0 0 0 0
-25.112734 -834.37115 4788.6577 787458
3.435009 -853.7171 4899.689 590594
32.683235 -856.81616 4917.4751 327937
62.318287 -862.34143 4949.186 853512
95.270912 -895.50635 5139.5273 590596
135.51994 -964.49182 5535.4521 591365
171.32948 -981.09686 5630.7524 1379594
211.05882 -1011.0509 5802.6655 1971731
275.81641 -1135.639 6517.707 1445388
318.39636 -1149.4673 6597.0708 1051658
380.38074 -1222.6327 7016.9854 131072
446.66245 -1293.7831 7425.3345 1446677
480.57321 -1266.8036 7270.4922 460295
512.17981 -1238.7045 7109.2241 2
534.06818 -1193.1774 6847.9331 2
561.21454 -1165.0149 6686.3022 65540
563.66107 -1092.6958 6271.2456 65540
572.45276 -1040.8878 5973.9067 65540
590.95331 -1011.7552 5806.708 65540
625.46808 -1011.7427 5806.6362 65538
659.99011 -1011.7427 5806.6362 131074
688.59607 -1003.1243 5757.1729 196608
722.82404 -1003.1243 5757.1729 262144
564.52032 -748.01202 4293.022 524804
589.79443 -747.69623 4291.2095 656390
602.21405 -731.78632 4199.8989 1314320
602.38599 -702.85297 4033.843 1314317
608.64435 -682.96472 3919.6997 1117196
0 0 0 0
0 0 0 0
0 0 0 0
0 0 0 0
1317.4268 -1240.764 7121.0449 395017
1415.2867 -1291.4282 7411.8193 460810
1459.3521 -1291.4282 7411.8193 723982
1427.9491 -1226.6014 7039.7622 592396
1784.2445 -1489.0143 8545.8135 460810
1843.1558 -1495.5901 8583.5537 526603
2263.5374 -1787.2172 10257.271 197895
2446.2908 -1880.8414 10794.604 593166
2587.1758 -1938.311 11124.436 790802
2667.1172 -1948.3948 11182.309 527886
2787.2483 -1986.6337 11401.771 659472
2891.9861 -2012.3456 11549.338 199691
3218.1514 -2187.3682 12553.836 1647136
3694.4739 -2454.2051 14085.277 1318171
3965.4077 -2575.7996 14783.137 1186840
4151.0386 -2637.9121 15139.616 1318426
4345.4873 -2702.8728 15512.441 1845026
4581.2886 -2790.3206 16014.324 2173991
4705.9072 -2807.8679 16115.034 2897713
4808.3774 -2811.7637 16137.392 3424314
4904.2134 -2811.7031 16137.044 858644
4999.5684 -2811.3745 16135.159 2701109
5094.9194 -2811.0564 16133.332 2438449
5189.978 -2810.5913 16130.663 2438701
5285.8794 -2810.5913 16130.663 3557432
5383.6523 -2811.5688 16136.274 5531469
0 0 0 0
0 0 0 0
4362.0928 -2162.4648 12410.908 7042404
4603.1035 -2243.9856 12878.776 6516827
4679.6714 -2243.9856 12878.776 14409950
5274.9219 -2488.699 14283.246 11712179
5638.835 -2618.2429 15026.73 7961721
5728.1729 -2618.2429 15026.73 10856357
5167.3257 -2325.6191 13347.291 12961989
5246.6792 -2325.6191 13347.291 11646131
5839.9136 -2550.0061 14635.102 13225417
6213.5581 -2673.3281 15342.876 13489359
6631.8999 -2812.0342 16138.944 7634295
6728.6543 -2812.3701 16140.872 9213070
6824.6162 -2812.3701 16140.872 13423052
6921.3535 -2812.6851 16142.681 13817041
7016.3457 -2812.292 16140.425 5595728
7112.3052 -2812.292 16140.425 8885629
7208.0347 -2812.2026 16139.911 5333062
7304.5474 -2812.4167 16141.14 5135178
7401.334 -2812.7297 16142.937 4805960
7497.1533 -2812.6716 16142.603 2042659
7592.814 -2812.5559 16141.938 3425854
7689.0991 -2812.6719 16142.604 3623210
7784.4229 -2812.4375 16141.26 13950935
7879.5693 -2812.1458 16139.584 5594970
7975.5234 -2812.1458 16139.584 10267538
8071.1421 -2812.0288 16138.913 6385992
8167.0928 -2812.0288 16138.913 3622183
8263.0908 -2812.0452 16139.007 3160365
8358.582 -2811.8904 16138.119 1646614
8454.5234 -2811.8892 16138.111 1778460
8550.501 -2811.8994 16138.172 1186066
8646.4873 -2811.9126 16138.247 1712156
8742.5312 -2811.9441 16138.427 1448986
8838.3545 -2811.9048 16138.201 593675
8933.9209 -2811.7849 16137.514 1580570
9029.7686 -2811.7554 16137.345 2106914
9067.2588 -2793.7461 16033.985 1646363
8953.4424 -2729.9768 15667.998 2041378
9054.8428 -2732.4661 15682.284 2239013
9413.7988 -2811.8352 16137.803 2107939
9509.7432 -2811.8352 16137.803 2502440
9606.1865 -2811.9817 16138.643 2634282
9702.082 -2811.9661 16138.554 2502953
9798.3262 -2812.051 16139.042 2963247
9894.5176 -2812.1191 16139.433 1252887
9990.9814 -2812.2629 16140.258 1054995
10087.386 -2812.3875 16140.972 1712668
10183.604 -2812.4583 16141.378 2436904
10279.074 -2812.3228 16140.601 1976353
10374.744 -2812.2439 16140.148 1779230
10470.748 -2812.2563 16140.22 2042145
10566.706 -2812.2563 16140.22 594699
10663.779 -2812.5505 16141.908 726544
10759.443 -2812.4709 16141.451 2964019
10855.743 -2812.5576 16141.948 8293509
10951.374 -2812.4709 16141.451 0
11047.445 -2812.498 16141.606 462856
11142.284 -2812.2134 16139.973 265991
11239.447 -2812.5151 16141.705 1976867
11335.414 -2812.5151 16141.705 4410693
11431.063 -2812.4373 16141.258 1910816
11527.126 -2812.4609 16141.394 1383447
11622.993 -2812.4373 16141.258 1252119
11719.587 -2812.5884 16142.125 857874
11816.097 -2812.717 16142.863 1318425
11912.281 -2812.7668 16143.149 1910305
12006.758 -2812.4155 16141.134 1054999
12101.688 -2812.1753 16139.755 1252377
12193.277 -2811.1689 16133.979 1515806
12288.461 -2811.0002 16133.011 1515549
12384.21 -2810.9626 16132.795 1449756
12480.125 -2810.9626 16132.795 1186584
12578.78 -2811.5759 16136.313 1055254
12676.381 -2811.9451 16138.434 1121047
12773.985 -2812.3098 16140.526 1319194
12869.059 -2812.116 16139.414 1253401
12965.075 -2812.1299 16139.493 1779743
13061.029 -2812.1299 16139.493 1451548
13152.959 -2811.27 16134.559 1451548
13248.885 -2811.27 16134.559 1385755
13348.487 -2812.0449 16139.006 1386010
13444.438 -2812.0449 16139.006 1451549
13540.815 -2812.1335 16139.515 1518113
13637.456 -2812.2751 16140.327 2109993
13733.826 -2812.3594 16140.811 1912358
13829.787 -2812.3594 16140.811 2372652
13925.248 -2812.2578 16140.229 2701617
14020.512 -2812.1189 16139.431 3096632
14116.135 -2812.053 16139.052 2833460
14212.458 -2812.1267 16139.476 2504497
14308.412 -2812.1267 16139.476 2241068
14403.988 -2812.0532 16139.053 2306349
14499.624 -2811.9917 16138.701 1976614
14595.083 -2811.8975 16138.16 1976614
14692.372 -2812.1543 16139.634 1318683
14788.58 -2812.2026 16139.911 1252890
14884.758 -2812.2444 16140.151 1187353
14980.715 -2812.2444 16140.151 1911333
15077.704 -2812.4368 16141.255 2701361
15173.538 -2812.4128 16141.117 2635317
15269.097 -2812.3381 16140.688 6847610
15364.748 -2812.2817 16140.364 8163216
0 0 0 0
0 0 0 0
0 0 0 0
0 0 0 0
0 0 0 0
0 0 0 0
0 0 0 0
-9550.3535 -1779.9537 10576.469 256
-9513.4717 -1784.8314 10605.452 256
-9567.7158 -1806.9843 10737.084 256
-9682.0654 -1840.8627 10938.39 256
-9684.7725 -1853.829 11015.436 132097
-9692.4814 -1867.936 11099.259 263683
-9452.2959 -1834.1344 10898.41 395269
-9560.5059 -1867.936 11099.259 526853
-9237.9209 -1817.4537 10799.294 592391
-9480.0684 -1878.1467 11159.931 921866
-9413.7188 -1878.1467 11159.931 1185036
-8975.4473 -1803.4171 10715.889 1184779
-8781.4834 -1777.0582 10559.264 1316621
-8489.8438 -1730.4111 10282.087 66817
-8668.3711 -1779.6127 10574.442 1514517
-8697.7441 -1798.6882 10687.789 256
-8670.2715 -1806.2021 10732.437 256
-8677.4258 -1821.0945 10820.927 0
-8999.1689 -1902.7239 11305.968 131843
-9244.1533 -1969.2303 11701.149 329735
-9609.1943 -2062.5144 12255.442 197892
-9586.1221 -2073.283 12319.429 198149
-9754.7402 -2125.9954 12632.645 256
-9439.6377 -2073.283 12319.429 256
-9260.0811 -2049.75 12179.597 256
-9348.2402 -2085.573 12392.456 513
-9274.5635 -2085.573 12392.456 263685
-9655.2402 -2188.5618 13004.414 66306
-9827.2773 -2245.5386 13342.971 256
-10261.982 -2363.9514 14046.577 256
-10381.539 -2411.1135 14326.815 131584
-10556.273 -2471.9775 14688.469 65792
-10915.79 -2577.4883 15315.412 131584
-11064.132 -2634.4912 15654.123 197377
-11311.866 -2716.3286 16140.399 0
-11216.055 -2716.3645 16140.612 66048
-11097.225 -2710.7776 16107.417 263682
-10870.347 -2678.4709 15915.45 0
-10775.726 -2678.4709 15915.45 256
-10829.448 -2715.6709 16136.491 768
-10736.474 -2716.4204 16140.945 198912
-10639.255 -2716.0994 16139.038 3687470
-10543.227 -2716.0796 16138.92 397825
-10408.464 -2705.989 16078.962 67328
-9072.5146 -2380.533 14145.105 1024
-8988.418 -2380.533 14145.105 1536
-9372.123 -2505.5979 14888.239 199170
-9554.3516 -2578.6697 15322.433 198658
-9101.835 -2480.1855 14737.239 512
-9014.2188 -2480.1855 14737.239 512
-7802.1538 -2167.7666 12880.85 512
-7604.3804 -2133.7603 12678.784 132354
-7349.875 -2082.9949 12377.137 256
-7196.5801 -2060.1765 12241.55 512
-7528 -2177.0693 12936.126 512
-7465.8711 -2181.3877 12961.785 256
-7771.5957 -2294.397 13633.286 256
-8399.1416 -2505.8008 14889.445 256
-8907.7197 -2685.8372 15959.22 0
-8168.4141 -2489.4399 14792.229 66305
-7567.1772 -2331.304 13852.587 197891
-7284.2397 -2268.8291 13481.362 256
-7204.0894 -2268.8291 13481.362 256
-7188.4976 -2289.3896 13603.533 256
-7068.4805 -2276.7825 13528.621 256
-6965.7217 -2269.5081 13485.396 256
-6669.9878 -2198.4585 13063.221 256
-6288.4761 -2097.1294 12461.124 256
-6043.1616 -2039.3457 12117.773 256
-5740.4751 -1960.573 11649.707 256
-5673.3662 -1961.3169 11654.127 256
-5668.1079 -1983.7257 11787.28 256
-5612.8442 -1988.9756 11818.475 66048
-5450.6323 -1955.9799 11622.414 256
-5303.4937 -1927.6151 11453.872 256
-5231.7598 -1926.2759 11445.914 256
-5162.7446 -1925.9155 11443.772 256
-4990.5444 -1886.5392 11209.799 256
-4873.4907 -1867.2257 11095.039 256
-4862.9233 -1888.7413 11222.884 256
-4826.9048 -1900.8328 11294.73 256
-4776.2471 -1907.4194 11333.868 512
-4708.8643 -1907.4194 11333.868 256
-4664.7588 -1916.9851 11390.708 256
-4737.3955 -1975.5149 11738.492 256
-4800.0195 -2031.5574 12071.495 256
-4749.3223 -2040.6108 12125.291 395522
-4474.9941 -1952.3762 11601.002 1250831
-4406.0229 -1952.3762 11601.002 131841
-4330.0962 -1949.2451 11582.397 256
-4245.6489 -1942.1152 11540.031 256
-4157.6738 -1933.111 11486.527 131841
-4120.5176 -1947.8284 11573.979 512
-4073.5911 -1958.349 11636.492 66048
-4067.6501 -1989.2771 11820.267 197633
-4046.7603 -2013.8534 11966.299 512
-4209.353 -2132.2524 12669.824 66818
-3904.4746 -2013.8534 11966.299 461832
-3790.4619 -1991.3315 11832.475 67075
-3685.853 -1972.9919 11723.5 66560
-3524.2913 -1922.8713 11425.684 791049
-3158.4058 -1757.1097 10440.73 1317387
-2982.0017 -1692.2291 10055.21 1515532
-2999.7202 -1737.1083 10321.882 3293222
-3205.657 -1895.1337 11260.867 4280122
-3150.3684 -1902.1742 11302.702 856844
-2960.9087 -1826.7444 10854.498 1120017
-3241.1814 -2044.2131 12146.696 5726557
-3003.4465 -1937.4412 11512.258 1581851
-4113.9268 -2715.6672 16136.47 9544089
-4017.7322 -2715.4922 16135.43 5398873
-3410.8674 -2361.7161 14033.296 1910561
-3327.4355 -2361.7161 14033.296 132869
-3730.1353 -2715.6318 16136.26 527625
-3634.1243 -2715.5747 16135.921 856846
-3538.1917 -2715.5747 16135.921 1185812
-3442.259 -2715.5747 16135.921 593934
-3346.9673 -2716.0947 16139.011 2173479
-3250.7522 -2715.874 16137.698 1844772
-3154.5085 -2715.6152 16136.162 3226940
-3058.5354 -2715.5806 16135.955 2567730
-2962.6025 -2715.5806 16135.955 4738639
-2362.3679 -2237.8579 13297.332 527629
-2269.5864 -2224.4062 13217.401 658444
-2032.6704 -2063.6575 12262.234 131842
-1840.3436 -1937.9023 11514.998 256
-1600.005 -1749.9191 10398.004 256
-1358.5028 -1545.5024 9183.3613 66306
0 0 0 0
0 0 0 0
0 0 0 0
0 0 0 0
0 0 0 0
0 0 0 0
0 0 0 0
0 0 0 0
0 0 0 0
0 0 0 0
0 0 0 0
0 0 0 0
0 0 0 0
0 0 0 0
0 0 0 0
0 0 0 0
0 0 0 0
0 0 0 0
0 0 0 0
0 0 0 0
0 0 0 0
0 0 0 0
0 0 0 0
-22.902817 -734.98199 4367.2563 1641734
3.3571689 -805.90125 4788.6577 1576202
33.297642 -843.13782 5009.9175 1773068
64.821899 -866.37921 5148.0176 2102546
100.41557 -911.65802 5417.0635 1905425
138.18672 -949.91388 5644.3799 721665
175.53639 -970.88885 5769.0127 1247495
219.06091 -1013.5775 6022.668 2695455
273.34189 -1087.0485 6459.2319 1314829
311.7438 -1087.0485 6459.2319 3748915
376.46399 -1168.755 6944.7319 262145
435.02509 -1217.0793 7231.874 65536
478.02057 -1217.0793 7231.874 65536
516.16577 -1205.749 7164.5503 986638
554.44617 -1196.438 7109.2241 657674
574.78101 -1152.4645 6847.9331 723468
600.96649 -1125.2629 6686.3022 328454
629.17188 -1104.9844 6565.8071 789005
591.7323 -978.52094 5814.3623 197380
626.30029 -978.52094 5814.3623 460296
663.35345 -982.2005 5836.2266 196866
700.50287 -985.64984 5856.7227 196610
708.34393 -949.48657 5641.8408 262146
590.24084 -755.40662 4488.6191 196608
595.59503 -729.28638 4333.4131 524804
602.21405 -706.81677 4199.8989 1116941
601.77704 -678.18433 4029.7651 1313807
625.13776 -677.53693 4025.9182 1248527
0 0 0 0
0 0 0 0
0 0 0 0
0 0 0 0
0 0 0 0
1338.5795 -1179.7571 7010.106 526857
1380.2566 -1179.7571 7010.106 658443
1414.0819 -1173.2427 6971.3975 1842462
1528.9592 -1232.4319 7323.0991 263431
1835.0518 -1438.207 8545.8135 329224
2245.7998 -1712.7076 10176.894 66052
2337.3623 -1735.772 10313.941 329224
2510.4678 -1816.6643 10794.604 263688
2653.3137 -1872.1732 11124.436 1053717
2773.4695 -1909.3611 11345.406 330251
2848.1875 -1914.2448 11374.425 264457
3218.1514 -2112.7324 12553.836 1383195
3583.4746 -2299.2441 13662.089 922644
3809.8696 -2390.3247 14203.287 1054229
3910.3555 -2400.1719 14261.8 856849
4170.7065 -2505.6438 14888.513 857617
4549.7437 -2676.5535 15904.057 463371
4712.2036 -2715.6882 16136.596 2174244
4808.3774 -2715.8223 16137.392 2898985
4904.3188 -2715.8223 16137.392 4280636
5000.8281 -2716.1309 16139.225 2569516
5096.8179 -2716.1506 16139.343 1780000
5192.7324 -2716.1309 16139.225 3030578
5287.7178 -2715.6343 16136.274 3622969
5384.2681 -2715.9448 16138.119 5004875
