# .PCD v0.7 - Point Cloud Data file format
VERSION 0.7
FIELDS x y z rgb
SIZE 4 4 4 4
TYPE F F F U
COUNT 1 1 1 1
WIDTH 1352
HEIGHT 1
VIEWPOINT 0 0 0 1 0 0 0
POINTS 1352
DATA ascii
-2333.4958 -5707.6909 15164.764 9078948
-2336.1755 -5943.8989 15792.345 7629693
-2291.0669 -6073.209 16135.908 10392742
-2063.7964 -5709.8403 15170.475 4540501
-1874.5619 -5423.3022 14409.171 5396835
-1788.8954 -5423.3022 14409.171 3225160
-1584.7706 -5046.1157 13407.024 2501950
-1263.135 -4234.9917 11251.949 1646637
-1075.7531 -3808.4404 10118.646 1975346
-1096.6353 -4112.3384 10926.072 1975604
-1044.9976 -4165.436 11067.147 1844019
-966.71826 -4112.3384 10926.072 1845046
-913.40302 -4165.436 11067.147 1779509
-883.26801 -4340.6934 11532.788 2371900
-838.74091 -4468.7695 11873.073 1977399
-703.13885 -4090.5505 10868.184 2898501
-599.32458 -3839.4263 10200.971 3030342
0 0 0 0
0 0 0 0
0 0 0 0
0 0 0 0
0 0 0 0
0 0 0 0
-65.522736 -1439.2579 3823.9641 3883340
-42.788208 -1439.2579 3823.9641 3356997
-20.433693 -1466.5317 3896.428 3028288
2.6551845 -1425.4768 3787.3491 4804700
25.363367 -1436.3121 3816.1375 5068383
48.675041 -1454.9545 3865.6685 5331555
74.655296 -1515.8223 4027.3879 5397093
101.80901 -1565.168 4158.4946 5528681
127.86858 -1581.6959 4202.4077 4936547
157.40155 -1628.7628 4327.46 5264999
196.00955 -1743.3187 4631.8232 5594478
223.54704 -1743.3187 4631.8232 5857907
247.66841 -1719.6001 4568.8052 6187129
263.3349 -1647.6681 4377.6895 6581374
276.95462 -1577.0217 4189.9888 6975874
0 0 0 0
0 0 0 0
917.78625 -4115.5083 10934.493 13750739
982.79492 -4115.5083 10934.493 13619920
1023.0392 -4018.24 10676.062 13750737
1055.1014 -3902.0771 10367.429 13750737
1129.0444 -3945.0757 10481.671 13750737
1197.7516 -3966.2378 10537.896 13750737
1266.8755 -3986.6074 10592.017 13750737
1336.5811 -4006.7917 10645.645 13750737
1398.424 -4002.646 10634.63 13750737
1414.1244 -3872.5002 10288.846 13750737
1351.2555 -3546.9104 9423.7861 13750737
1540.0913 -3881.6414 10313.133 13750737
1601.4056 -3881.6414 10313.133 13750737
1692.2693 -3950.6238 10496.412 13750737
1830.9152 -4122.2812 10952.489 13750737
1991.5557 -4329.9683 11504.292 13750737
2117.908 -4451.79 11827.961 13750737
2193.2666 -4462.04 11855.193 13750737
3081.6594 -6074.2104 16138.569 13619664
3178.3142 -6075.5615 16142.158 13685200
3273.5378 -6074.1768 16138.479 12499899
0 0 0 0
0 0 0 0
3561.1042 -6073.7051 16137.226 12106170
0 0 0 0
3753.1936 -6074.0425 16138.123 13619664
3848.4824 -6073.0054 16135.368 13619664
3944.4595 -6073.0801 16135.565 13684944
4040.646 -6073.4648 16136.588 13684944
4136.5825 -6073.4648 16136.588 13750737
4232.519 -6073.4648 16136.588 13684944
4327.1357 -6071.6123 16131.667 13750737
3870.99 -5313.7969 14118.227 13750737
3934.6948 -5286.6138 14046.003 13750737
4018.2021 -5286.6138 14046.003 13750737
4101.7095 -5286.6138 14046.003 13750737
4281.4106 -5408.1221 14368.839 13750737
4379.0552 -5423.2529 14409.04 13750737
4582.2759 -5566.0459 14788.428 13750737
4817.937 -5742.1255 15256.253 13750737
4922.9111 -5758.8198 15300.608 13750737
5037.0781 -5785.4678 15371.408 13750737
5104.8438 -5758.8198 15300.608 13750737
5153.0586 -5711.436 15174.714 13750737
5239.9751 -5707.8398 15165.159 13750737
5330.1362 -5707.8398 15165.159 13750737
5420.4565 -5708.0078 15165.605 13750737
5533.5376 -5731.7461 15228.675 13750737
5601.3721 -5708.6064 15167.196 13750737
5684.1221 -5701.1616 15147.415 13750737
5775.3662 -5702.3345 15150.532 13750737
5865.4399 -5702.3345 15150.532 13750737
5954.9551 -5701.7993 15149.109 13750737
6040.8984 -5697.9111 15138.779 13750737
6124.9399 -5692.3696 15124.056 13750737
6214.8564 -5692.3696 15124.056 13750737
6309.7241 -5696.8389 15135.931 13750737
6400.9028 -5697.8999 15138.749 13750737
6503.0391 -5708.5498 15167.045 13750737
6655.6299 -5762.5928 15310.633 13750737
7105.9116 -6069.4482 16125.917 13750737
7201.8047 -6069.4648 16125.96 13750737
7297.6685 -6069.4575 16125.94 13750737
7393.4976 -6069.4204 16125.843 13750737
0 0 0 0
0 0 0 0
0 0 0 0
0 0 0 0
0 0 0 0
0 0 0 0
0 0 0 0
0 0 0 0
0 0 0 0
0 0 0 0
0 0 0 0
6926.4404 -4920.3687 13072.928 12699595
8645.5283 -6073.4155 16136.457 9477536
0 0 0 0
8833.0693 -6070.4399 16128.551 6123636
8930.2754 -6071.3354 16130.93 5136484
9028.9531 -6073.2017 16135.889 5070691
9125.4639 -6073.5869 16136.912 4939105
9218.0205 -6071.3589 16130.993 5136483
9316.9648 -6073.3413 16136.261 5531238
9414.2051 -6074.1841 16138.499 6122861
9511.334 -6074.938 16140.502 5596260
9607.085 -6074.8062 16140.152 4938330
9702.793 -6074.6504 16139.737 4609622
9794.0078 -6071.7109 16131.929 5925739
9893.3506 -6073.8188 16137.529 4412500
9990.8711 -6074.7793 16140.081 4675929
10088.027 -6075.5015 16141.999 5794667
10183.996 -6075.5015 16141.999 5596517
10279.282 -6075.0981 16140.927 4676185
10375.244 -6075.0981 16140.927 5398884
10471.205 -6075.0972 16140.925 6518135
10567.382 -6075.2202 16141.252 12108485
10663.347 -6075.2202 16141.252 13620182
10759.018 -6075.0547 16140.812 13619413
10854.304 -6074.6768 16139.808 13554133
10950.242 -6074.6675 16139.783 12369353
11046.899 -6075.0532 16140.809 9474727
11142.861 -6075.0532 16140.809 10263466
11238.819 -6075.0513 16140.803 3421249
11337.209 -6076.3525 16144.261 5266526
11434.275 -6076.9292 16145.792 5858661
11528.954 -6076.2373 16143.954 4477779
11624.518 -6076.0195 16143.375 4017227
11718.959 -6075.2231 16141.26 3095869
11814.596 -6075.0552 16140.813 3951691
11910.555 -6075.0537 16140.81 4675158
12006.517 -6075.0537 16140.81 4938331
12104.16 -6075.8979 16143.053 3358790
12195.793 -6073.7358 16137.308 3358536
12286.658 -6071.228 16130.645 3358535
12388.106 -6073.9478 16137.87 3358793
12484.667 -6074.2476 16138.667 3753549
12580.616 -6074.2476 16138.667 4082770
12677.855 -6074.8657 16140.31 7701127
12774.514 -6075.1987 16141.194 10266537
12870.175 -6075.0557 16140.814 13029329
12966.137 -6075.0557 16140.814 13488596
13061.992 -6075.0059 16140.683 13423058
13157.955 -6075.0073 16140.687 13684947
13252.657 -6074.4302 16139.153 13684946
13348.609 -6074.4302 16139.153 13619664
13444.823 -6074.5488 16139.468 13619664
13540.943 -6074.624 16139.668 13159114
13636.729 -6074.5488 16139.468 13553870
13732.138 -6074.3071 16138.826 13553870
13824.661 -6072.8018 16134.827 13619661
13917.899 -6071.6299 16131.713 13685457
14006.951 -6068.6587 16123.819 13685457
0 0 0 0
0 0 0 0
0 0 0 0
0 0 0 0
0 0 0 0
0 0 0 0
0 0 0 0
0 0 0 0
0 0 0 0
0 0 0 0
0 0 0 0
0 0 0 0
0 0 0 0
0 0 0 0
0 0 0 0
0 0 0 0
0 0 0 0
0 0 0 0
0 0 0 0
0 0 0 0
0 0 0 0
-9555.832 -3920.123 10582.536 264201
-9865.1621 -4073.8433 10997.511 791056
-10250.514 -4261.2168 11503.334 1515035
-10182.123 -4261.2168 11503.334 1384220
-9843.2266 -4147.2446 11195.661 1252635
-9949.1768 -4220.4238 11393.211 397069
-9809.5029 -4189.6987 11310.267 397070
-9617.627 -4136.0996 11165.574 462864
-9500.4111 -4114.0869 11106.149 1055000
-9222.4814 -4021.6824 10856.7 1844774
-9304.1484 -4085.8911 11030.034 1384221
-9093.3896 -4021.6824 10856.7 792087
-8903.8203 -3965.9941 10706.367 1055005
-8790.1396 -3943.5496 10645.777 791324
-8541.8018 -3859.9297 10420.042 1054496
-8626.0088 -3926.4587 10599.64 1580843
-8660.5527 -3971.1948 10720.406 10792116
-8596.8174 -3971.1948 10720.406 9147807
-8533.0811 -3971.1948 10720.406 5003108
-8720.6904 -4089.0476 11038.556 3290439
-8655.0625 -4089.0476 11038.556 11711422
-8589.4355 -4089.0476 11038.556 13488598
-8931.123 -4284.4448 11566.038 3621444
-8525.4033 -4121.5459 11126.286 7634564
-8819.4248 -4297.0293 11600.011 8949656
-8378.248 -4114.25 11106.59 6580852
-8042.9712 -3980.9829 10746.83 4738647
-7925.0469 -3954.0256 10674.058 4804952
-7861.5874 -3954.0256 10674.058 3226177
-7897.2871 -4004.3047 10809.788 594200
-8384.7734 -4286.3662 11571.225 725273
-8527.2861 -4395.2812 11865.245 2106153
-9044.793 -4700.9121 12690.309 3817539
-9066.4551 -4751.8081 12827.704 4014918
-8507.1074 -4496.4722 12138.414 922133
-7857.0742 -4188.4238 11306.826 659218
-7337.6372 -3945.2788 10650.445 724753
-7161.8281 -3884.2695 10485.748 658959
-7210.9976 -3945.2788 10650.445 724752
-7409.2222 -4089.6426 11040.161 724752
-7530.6353 -4193.8105 11321.367 593167
-7463.3262 -4193.8105 11321.367 988437
-7396.2412 -4193.9375 11321.71 1975076
-7573.9526 -4334.1499 11700.219 4343627
-7729.6748 -4464.2617 12051.462 593425
-7658.0259 -4464.2617 12051.462 724753
-7264.1089 -4274.6211 11539.519 658961
-7416.1367 -4405.6919 11893.351 921618
-7345.4272 -4405.6919 11893.351 6909040
-7294.5488 -4417.7021 11925.772 5067095
-7091.2671 -4336.7437 11707.222 12040126
-6379.5757 -3940.1748 10636.667 11053496
-6295.856 -3927.3982 10602.176 7434354
-6253.0996 -3940.1748 10636.667 264715
-6482.2856 -4126.3184 11139.169 659732
-6416.0605 -4126.3184 11139.169 1318175
-6177.583 -4014.3838 10836.997 1514784
-6472.6631 -4250.4658 11474.311 5133142
-6404.4448 -4250.4658 11474.311 1446681
-5767.311 -3868.8259 10444.058 9410713
-5705.2183 -3868.8259 10444.058 1777182
-6151.9497 -4217.6665 11385.768 1121050
-6109.9951 -4235.5078 11433.931 1318429
-5960.4639 -4178.3379 11279.599 3489597
-5527.1865 -3918.6953 10578.683 989207
-5316.7808 -3812.9077 10293.104 1383195
-5356.3403 -3886.0049 10490.433 790802
-5324.249 -3908.2297 10550.43 1645857
-5373.8379 -3991.6562 10775.643 2369836
-5620.5059 -4225.251 11406.242 4145990
-6170.5752 -4695.4209 12675.485 461583
-5852.3486 -4508.3296 12170.424 1251099
-6019.8564 -4695.4209 12675.485 4607055
-6526.6724 -5155.2676 13916.86 8225417
-5040.1162 -4032.1877 10885.06 12172486
-5291.2744 -4288.1787 11576.118 1907763
-5222.4512 -4288.1787 11576.118 14672356
-4859.2842 -4043.2642 10914.961 5068375
-4640.1338 -3913.1736 10563.776 857881
-4965.6323 -4245.1353 11459.921 1186589
-5225.3818 -4529.3418 12227.148 1053976
-5127.2827 -4507.0103 12166.863 922390
-5079.9941 -4529.3418 12227.148 1053976
-4854.6284 -4391.2432 11854.345 1317148
-4977.4072 -4568.6279 12333.202 922390
-4874.0449 -4540.644 12257.659 988696
-4679.7075 -4425.7729 11947.56 988953
-4608.6758 -4425.7729 11947.56 1383711
-4530.7974 -4419.0947 11929.532 1121052
-4528.5591 -4487.1528 12113.257 1252638
-4456.542 -4487.1528 12113.257 2502960
-4355.7095 -4457.6621 12033.646 2963767
-4139.0825 -4306.7031 11626.126 1187358
-4082.2905 -4319.749 11661.343 2305583
-4925.7236 -5302.292 14313.76 1647654
-4955.689 -5428.3306 14654.007 1713447
-4748.2681 -5294.2007 14291.917 2042925
-4389.749 -4983.6421 13453.551 2964281
-4344.9961 -5024.3838 13563.534 7897982
-5073.7832 -5978.0713 16138.054 10792112
-4977.9331 -5978.186 16138.363 7962242
-4881.7764 -5977.9292 16137.67 7829888
-4785.4346 -5977.4312 16136.326 13356235
-4689.6304 -5977.5977 16136.775 13619150
-4593.6929 -5977.5977 16136.775 13750737
-4278.0664 -5685.6274 15348.589 13750737
-4147.7578 -5632.5889 15205.409 13750737
-3844.8545 -5337.5835 14409.03 13750737
-3737.4006 -5306.6475 14325.517 13750737
-3652.2317 -5306.6475 14325.517 13750737
-3520.1472 -5236.8525 14137.103 13750737
-3402.1443 -5185.104 13997.405 13750737
-3296.27 -5149.709 13901.855 13750737
-3190.7166 -5113.0083 13802.779 13750737
-2960.5273 -4869.3726 13145.075 13750737
-2847.5027 -4810.4585 12986.034 13750737
-2737.22 -4753.0225 12830.982 13750737
-2660.9363 -4753.0225 12830.982 13750737
-2961.1562 -5445.3901 14700.059 13750737
-2818.0796 -5339.8823 14415.236 13750737
-2699.8501 -5276.3154 14243.634 13750737
-2432.7886 -4908.3506 13250.298 13750737
-2198.8162 -4584.752 12376.729 13750737
-2073.4653 -4473.0737 12075.25 13685201
-1797.5166 -4016.8489 10843.651 13684945
-1733.0481 -4016.8489 10843.651 13288143
-2430.0654 -5850.0093 15792.345 8881563
-2386.9619 -5977.1831 16135.655 5263707
-2291.0505 -5977.2344 16135.794 8290187
-2035.9318 -5543.7734 14965.648 6251112
-1849.3567 -5265.8662 14215.426 8225674
-1587.2318 -4735.9194 12784.813 2173235
-1340.7289 -4201.6211 11342.452 5462887
-1273.2949 -4201.6211 11342.452 5199461
-1187.5688 -4137.8857 11170.396 1843763
-1121.1578 -4137.8857 11170.396 1646896
-1055.8615 -4142.2598 11182.203 1515311
-966.71826 -4047.3801 10926.072 1383981
-897.83789 -4029.7781 10878.555 1581360
-850.41272 -4113.2153 11103.798 1647151
-799.38885 -4191.8271 11316.013 2503230
-703.13885 -4025.9363 10868.184 2503230
-599.32458 -3778.7783 10200.971 3358536
0 0 0 0
0 0 0 0
0 0 0 0
0 0 0 0
0 0 0 0
0 0 0 0
-65.522736 -1416.5233 3823.9641 4145996
-43.006798 -1423.7599 3843.4995 3685448
-20.156124 -1423.7599 3843.4995 3291204
2.676496 -1414.2206 3817.7476 4475734
25.374067 -1414.2206 3817.7476 5068129
50.027473 -1471.7593 3973.0759 3883855
73.648514 -1471.7593 3973.0759 4541786
94.639992 -1431.972 3865.6685 5331046
124.93964 -1521.0537 4106.1479 4673374
154.48167 -1573.2977 4247.1831 4738911
194.21756 -1700.0947 4589.4771 4805219
227.02783 -1742.4973 4703.9443 5068135
254.14552 -1736.6986 4688.2905 5331307
274.83121 -1692.4371 4568.8052 5594222
282.25793 -1581.8319 4270.2217 6055028
0 0 0 0
0 0 0 0
912.96606 -4029.2263 10877.064 13554385
977.63318 -4029.2263 10877.064 13619664
981.8512 -3795.5474 10246.239 13750736
1042.7679 -3795.5474 10246.239 13750737
1118.571 -3846.7415 10384.439 13750737
1197.7516 -3903.5869 10537.896 13750737
1266.8755 -3923.6348 10592.017 13750737
1336.5811 -3943.5005 10645.645 13750737
1383.606 -3897.6772 10521.943 13750737
1443.6522 -3890.9133 10503.684 13684944
1478.7769 -3820.3269 10313.133 13619151
2409.6523 -5977.3467 16136.098 13684944
2504.03 -5973.6353 16126.078 13684944
1765.7996 -4057.166 10952.489 13684944
2389.7007 -5295.3916 14295.131 13619151
2474.6892 -5295.3916 14295.131 13684944
2888.9087 -5976.4951 16133.799 13684944
2984.8284 -5976.4951 16133.799 13684944
3081.8306 -5978.5942 16139.466 13619408
3177.7668 -5978.562 16139.378 12500672
3273.6289 -5978.396 16138.93 11514291
3369.4854 -5978.229 16138.479 10658726
3465.1638 -5977.7646 16137.226 8619143
3561.3015 -5978.0957 16138.12 11185071
3657.2473 -5978.0957 16138.12 11580341
3753.2966 -5978.2612 16138.566 12828611
3848.5291 -5977.1494 16135.565 13619152
3945.0842 -5978.0957 16138.12 13355978
4040.9177 -5977.9297 16137.672 13552845
4136.8452 -5977.9077 16137.611 10459297
4232.7876 -5977.9077 16137.611 13684943
4327.8101 -5976.6367 16134.181 13619405
4231.269 -5716.6118 15432.232 13619151
3954.9265 -5229.8604 14118.227 13684944
4077.3391 -5279.6816 14252.722 13750737
4195.9844 -5322.6953 14368.839 13750737
4367.5645 -5429.8027 14657.979 13750737
4472.1372 -5451.0439 14715.321 13750737
4723.3999 -5646.8384 15243.877 13750737
4870.2847 -5712.8262 15422.014 13750737
4962.4287 -5713.3511 15423.431 13750737
5053.6606 -5712.8262 15422.014 13750737
5097.4995 -5659.6997 15278.596 13750737
5155.4355 -5623.811 15181.713 13750737
5239.9751 -5617.6787 15165.159 13750737
5335.9546 -5623.811 15181.713 13750737
5442.999 -5641.207 15228.675 13750737
5537.7437 -5645.4951 15240.25 13750737
5628.3511 -5645.4951 15240.25 13750737
5713.5625 -5640.168 15225.87 13750737
5801.4302 -5637.5889 15218.906 13750737
5887.3804 -5633.2539 15207.204 13750737
5982.3916 -5637.5889 15218.906 13750737
6067.249 -5632.3687 15204.815 13750737
6142.6816 -5618.6807 15167.864 13750737
6207.4526 -5595.7783 15106.037 13750737
6292.9644 -5591.959 15095.728 13750737
6400.9028 -5607.8955 15138.749 13750737
6514.1963 -5628.0166 15193.066 13750737
7009.9438 -5973.4937 16125.697 13750737
7105.9014 -5973.5669 16125.894 13750737
7201.7856 -5973.5752 16125.917 13750737
7297.6426 -5973.562 16125.882 13750737
0 0 0 0
0 0 0 0
0 0 0 0
0 0 0 0
0 0 0 0
0 0 0 0
0 0 0 0
0 0 0 0
0 0 0 0
0 0 0 0
0 0 0 0
6808.8643 -4814.4663 12996.854 7635071
8549.8643 -5977.6699 16136.97 6913146
8646.4648 -5978.1274 16138.205 6255732
8741.7422 -5977.6699 16136.97 6057584
8834.5449 -5975.5483 16131.243 5991793
8928.959 -5974.5508 16128.551 5202021
9023.3555 -5973.5635 16125.885 5004898
9119.3975 -5973.6738 16126.183 4610140
9216.8857 -5974.7202 16129.007 4873567
9317.2051 -5977.561 16136.676 5070689
9414.6475 -5978.5171 16139.257 6912635
9511.1279 -5978.8486 16140.152 5070173
9606.5527 -5978.5171 16139.257 5070173
9700.7998 -5977.4668 16136.422 4609622
9797.4082 -5977.877 16137.529 4675159
9894.7598 -5978.7285 16139.828 4741723
9991.5986 -5979.2573 16141.256 4807514
10088.027 -5979.5327 16141.999 5794153
10183.996 -5979.5327 16141.999 5004637
10279.28 -5979.1348 16140.925 5201506
10375.243 -5979.1348 16140.925 4411990
10471.183 -5979.1216 16140.889 5068638
10567.007 -5979.0439 16140.679 6711666
10663.347 -5979.2559 16141.252 11840184
10758.349 -5978.7212 16139.809 12432065
10854.304 -5978.7207 16139.808 11905980
10950.259 -5978.7207 16139.808 9012630
11047.514 -5979.4238 16141.705 10461617
11143.48 -5979.4238 16141.705 2302506
11241.948 -5980.7544 16145.297 2830652
11337.931 -5980.751 16145.288 7700101
11433.925 -5980.7544 16145.297 5135198
11528.54 -5980.0425 16143.375 3622473
11623.635 -5979.5884 16142.149 3030333
11718.635 -5979.0938 16140.813 3030075
11814.267 -5978.9268 16140.363 3688262
11910.224 -5978.9258 16140.36 6911864
12005.851 -5978.7603 16139.914 5131602
12102.475 -5979.0903 16140.805 3291714
12197.205 -5978.4868 16139.176 3292743
12292.476 -5978.1558 16138.281 3293512
12388.747 -5978.3125 16138.705 3359304
12484.696 -5978.3125 16138.705 3425096
12580.967 -5978.4653 16139.117 3426122
12678.601 -5979.2588 16141.259 10793654
12774.564 -5979.2588 16141.259 10333613
12870.476 -5979.2334 16141.19 13094863
12966.137 -5979.0938 16140.814 13423314
13061.58 -5978.8569 16140.175 13423056
13157.119 -5978.6665 16139.661 13553872
13252.657 -5978.4785 16139.153 13553870
13348.869 -5978.5947 16139.468 13751249
13445.195 -5978.7607 16139.915 12830407
13541.153 -5978.7612 16139.917 10330277
13636.729 -5978.5947 16139.468 11974331
13732.303 -5978.4292 16139.02 13619662
13826.887 -5977.8384 16137.425 13553869
13917.899 -5975.7222 16131.713 13619664
14012.461 -5975.1479 16130.162 13685457
0 0 0 0
0 0 0 0
0 0 0 0
0 0 0 0
0 0 0 0
0 0 0 0
0 0 0 0
0 0 0 0
0 0 0 0
0 0 0 0
15077.285 -5979.0908 16140.807 4674648
15172.827 -5978.9258 16140.361 4608343
0 0 0 0
0 0 0 0
0 0 0 0
0 0 0 0
0 0 0 0
0 0 0 0
0 0 0 0
0 0 0 0
0 0 0 0
-9702.0342 -3916.2214 10744.447 1027
-10133.109 -4117.3335 11296.213 461835
-10350.579 -4233.7568 11615.629 1712158
-9821.1143 -4044.1694 11095.481 1054228
-9843.2266 -4080.6833 11195.661 594447
-9949.1768 -4152.688 11393.211 331277
-9684.0098 -4069.7173 11165.574 397070
-9537.1592 -4035.6672 11072.155 265484
-9262.3281 -3946.6121 10827.826 265741
-9197.9541 -3946.6121 10827.826 1449758
-9165.1895 -3960.2703 10865.299 1120794
-8941.3564 -3890.9766 10675.186 1317662
-8918.667 -3908.8484 10724.219 1054747
-8807.3408 -3887.8508 10666.61 725528
-8571.917 -3811.3701 10456.779 593945
-8479.8516 -3797.9797 10420.042 1053980
-8417.9014 -3797.9797 10420.042 1185567
-8496.9082 -3862.0481 10595.818 6647161
-8433.9141 -3862.0481 10595.818 2831170
-8474.417 -3909.7986 10726.825 1841712
-8516.2715 -3958.9014 10861.543 7169923
-8522.623 -3992.1248 10952.693 13226714
-9448.7764 -4460.0254 12236.414 7043197
-8525.4033 -4055.3975 11126.286 1975601
-8430.1328 -4041.436 11087.982 3752266
-8255.0566 -3988.6943 10943.282 1318182
-8164.7271 -3976.3879 10909.519 2106927
-8099.8672 -3976.3879 10909.519 6778998
-7899.228 -3909.1934 10725.165 6317678
-7835.4644 -3909.1934 10725.165 3882819
-8295.4961 -4172.6641 11448.018 856600
-8527.2861 -4324.7388 11865.245 527376
-9044.793 -4625.4644 12690.309 6646638
-9066.4551 -4675.5435 12827.704 4672591
-8507.1074 -4424.3057 12138.414 1184535
-7643.1816 -4009.0107 10999.021 593166
-7343.2695 -3884.9385 10658.62 593166
-7274.3169 -3881.959 10650.445 461580
-7210.9976 -3881.959 10650.445 593166
-7167.2427 -3892.5847 10679.599 724752
-7069.3594 -3873.7405 10627.897 724754
-7277.9482 -4024.0056 11040.161 790034
-7914.6606 -4415.8716 12115.274 395275
-8407.0684 -4733.6831 12987.214 3816255
-7474.9307 -4247.8467 11654.286 461067
-7405.6431 -4247.8467 11654.286 592399
-7429.7617 -4301.9307 11802.669 1711392
-7359.5918 -4301.9307 11802.669 2302757
-7146.3145 -4217.4746 11570.958 1446940
-7301.5063 -4350.9463 11937.146 1579300
-6421.9219 -3864.3652 10602.176 5593184
0 0 0 0
0 0 0 0
0 0 0 0
-6781.7559 -4247.6621 11653.779 594964
-6765.4297 -4281.1743 11745.722 1580320
-6258.2109 -4001.5085 10978.438 1777698
-6113.1538 -3949.9548 10836.997 922902
-6281.2729 -4101.8135 11253.633 2041639
-5814.6128 -3837.9543 10529.716 4476495
-5752.0103 -3837.9543 10529.716 726546
-5643.1255 -3806.7332 10444.058 858133
-6027.5244 -4111.2778 11279.599 1186586
-5561.9561 -3836.4041 10525.462 1713186
-5495.9766 -3834.03 10518.949 331277
-5418.709 -3823.6362 10490.433 1120281
-5366.5938 -3830.9561 10510.515 1251868
-5437.9019 -3927.5918 10775.643 3488830
-5523.9863 -4037.3311 11076.721 3356474
-5620.5059 -4157.4375 11406.242 856597
-5998.6924 -4491.3691 12322.407 1448734
-5766.0825 -4370.5845 11991.026 3290682
-5779.9922 -4435.9727 12170.424 1382943
-5707.6357 -4435.9727 12170.424 1120286
-5170.105 -4069.7976 11165.795 6449521
-5309.7178 -4234.063 11616.469 1250842
-5240.6548 -4234.063 11616.469 5463137
-4838.0244 -3960.9663 10867.208 3160380
-4640.1338 -3850.3691 10563.776 857368
-4878.0259 -4103.3101 11257.738 1383454
-5334.3784 -4549.6099 12482.195 1383194
-4920.6724 -4255.9741 11676.584 988181
-4925.106 -4320.7656 11854.345 1053717
-4854.6284 -4320.7656 11854.345 1251352
-4729.7734 -4271.6553 11719.606 1119767
-4660.0977 -4271.6553 11719.606 1382939
-4506.7329 -4193.7783 11505.945 1119768
-4438.3267 -4193.7783 11505.945 1317147
-4484.3721 -4303.6167 11807.295 1186588
-4439.9512 -4328.748 11876.244 1186332
-4351.7759 -4311.3433 11828.493 1384224
-4208.2031 -4237.5825 11626.126 1581602
-4139.0825 -4237.5825 11626.126 1647652
-4088.1697 -4256.54 11678.137 1911080
-4768.3311 -5050.4868 13856.389 2766645
-4955.689 -5341.2085 14654.007 2700592
-4811.7607 -5278.8882 14483.025 4411465
-4550.0884 -5082.7676 13944.954 5398614
-4777.6475 -5436.0161 14914.118 2371880
-5073.5537 -5881.8604 16137.325 11450292
-4977.7192 -5881.9858 16137.67 5462618
-4881.7764 -5881.9858 16137.67 3093301
-4785.7007 -5881.8232 16137.223 13883088
-4689.6304 -5881.6602 16136.775 13618895
-4593.6929 -5881.6602 16136.775 13750737
-4354.1128 -5693.8203 15621.424 13750737
-4261.2236 -5693.8003 15621.367 13750737
-4057.3469 -5542.1738 15205.369 13750737
-3755.2131 -5246.3633 14393.791 13750737
-3656.5229 -5227.6128 14342.349 13750737
-3571.2444 -5227.5996 14342.312 13750737
-3435.6719 -5152.1641 14135.349 13750737
-3318.9255 -5101.8857 13997.405 13750737
-3235.686 -5101.8525 13997.314 13750737
-2966.0288 -4800.125 13169.502 13750737
-2847.5359 -4733.3081 12986.186 13750737
-2770.2971 -4733.2529 12986.034 13750737
-2716.5159 -4774.4229 13098.986 13750737
-2964.8347 -5364.6499 14718.319 13750737
-2868.4771 -5348.144 14673.034 13750737
-2699.8501 -5191.6328 14243.634 13750737
-2272.3992 -4511.1685 12376.729 13750737
-2145.2561 -4401.2832 12075.25 13750737
-1980.35 -4203.6294 11532.973 13750738
-1795.2073 -3947.3025 10829.721 13684946
-1698.5685 -3873.7461 10627.913 13619154
-1936.7664 -4587.6372 12586.526 13684693
-2243.3372 -5527.3735 15164.764 13882590
-2280.9026 -5855.252 16064.322 3486786
-2035.9318 -5454.7983 14965.648 9078919
-1849.3567 -5181.3511 14215.426 4804950
-1408.163 -4134.187 11342.452 4015947
-1274.76 -3930.7698 10784.361 3489350
-1240.8065 -4028.7026 11053.048 2304309
-1194.9186 -4096.6729 11239.529 1646894
-1122.3428 -4075.7781 11182.203 1646641
-1063.027 -4103.438 11258.09 1581103
-983.22119 -4050.4062 11112.593 1581614
-916.42786 -4047.2002 11103.798 1844787
-873.45782 -4156.8745 11404.697 2371385
-805.65375 -4156.8745 11404.697 3292487
-699.46161 -3940.6055 10811.347 3950161
-606.05737 -3759.9006 10315.569 3554889
0 0 0 0
0 0 0 0
0 0 0 0
0 0 0 0
0 0 0 0
0 0 0 0
-64.596382 -1374.0835 3769.9011 3685957
-42.788208 -1393.7888 3823.9641 3685961
-19.770159 -1374.0835 3769.9011 3883594
2.6551845 -1380.4431 3787.3491 5462880
25.33877 -1389.5872 3812.4368 4146767
49.332184 -1428.0118 3917.8574 3620683
72.624939 -1428.0118 3917.8574 4015442
94.639992 -1408.9895 3865.6685 4541530
124.54357 -1491.8969 4093.1309 6515577
152.15871 -1524.7687 4183.3174 4607325
190.6546 -1642.121 4505.2822 4804961
220.40773 -1664.5353 4566.7773 5199721
254.14552 -1708.8253 4688.2905 5528429
271.40063 -1644.4875 4511.7749 6054773
282.25793 -1556.4443 4270.2217 6384506
0 0 0 0
0 0 0 0
912.96606 -3964.5586 10877.064 13685202
977.63318 -3964.5586 10877.064 13619409
962.98694 -3662.8774 10049.379 13750736
1038.2982 -3718.6226 10202.32 13750737
1113.6729 -3768.4285 10338.966 13750737
1194.5461 -3830.657 10509.694 13750737
1266.8755 -3860.6624 10592.017 13750737
1336.5811 -3880.209 10645.645 13750737
1381.2048 -3828.4661 10503.684 13750737
1443.6522 -3828.4661 10503.684 13684944
2314.0408 -5882.2314 16138.344 13619151
2409.9878 -5882.2314 16138.344 11974326
2505.5859 -5881.4131 16136.098 13684944
2596.5613 -5870.2036 16105.344 13684944
2698.1589 -5882.9521 16140.32 13619151
2793.9697 -5882.6401 16139.465 13619151
2889.9233 -5882.6401 16139.465 13553358
2985.877 -5882.6406 16139.466 13158600
3081.8306 -5882.6406 16139.466 13619664
3177.6079 -5882.314 16138.569 10066585
3273.5378 -5882.2812 16138.479 11382447
3369.4854 -5882.2812 16138.479 12303549
3465.5298 -5882.4453 16138.93 7369590
3561.4001 -5882.313 16138.566 8488590
3657.2473 -5882.1504 16138.12 8883348
3753.4016 -5882.4775 16139.019 9014928
3849.1384 -5882.1504 16138.12 13553105
3945.2017 -5882.3252 16138.601 12959684
4040.9177 -5881.9868 16137.672 10987185
4136.8452 -5881.9648 16137.611 13685198
4232.8032 -5881.9868 16137.672 13619150
4328.73 -5881.9648 16137.611 13750737
4423.3296 -5880.1797 16132.714 13684944
4115.4878 -5354.8359 14691.395 13684944
4115.2534 -5243.2515 14385.254 13750737
4290.1768 -5354.8359 14691.395 13750737
4407.416 -5391.4053 14791.725 13750737
4510.8486 -5409.9854 14842.7 13750737
4732.8799 -5567.3613 15274.473 13750737
4891.9917 -5646.1919 15490.75 13750737
4962.7266 -5621.9922 15424.357 13750737
5054.4287 -5621.9922 15424.357 13750737
5132.4697 -5607.0674 15383.41 13750737
5172.4937 -5551.8608 15231.946 13750737
5279.9038 -5569.6377 15280.719 13750737
5371.5571 -5570.4722 15283.009 13750737
5714.2056 -5827.2402 15987.47 13750737
5573.3521 -5590.606 15338.247 13750737
5652.4438 -5578.6655 15305.487 13750737
5743.439 -5578.6655 15305.487 13750737
5850.0225 -5593.5703 15346.379 13750737
6061.7012 -5706.9624 15657.479 13750737
6102.0063 -5658.0195 15523.201 13750737
6083.1855 -5556.5283 15244.752 13750737
6157.646 -5541.9717 15204.815 13750737
0 0 0 0
0 0 0 0
6412.8662 -5528.2051 15167.045 13750737
6532.7388 -5553.4526 15236.313 13750737
7009.9404 -5877.6196 16125.689 13750737
7105.8442 -5877.646 16125.763 13750737
7201.7559 -5877.6787 16125.852 13750737
7297.6123 -5877.665 16125.815 13750737
0 0 0 0
0 0 0 0
0 0 0 0
0 0 0 0
0 0 0 0
0 0 0 0
0 0 0 0
0 0 0 0
0 0 0 0
0 0 0 0
6731.5942 -4737.1963 12996.854 8489103
8454.6553 -5882.2388 16138.363 7636361
8550.6025 -5882.2388 16138.363 6123380
8646.5498 -5882.2388 16138.363 6123380
8742.4951 -5882.2383 16138.361 5793645
8838.2295 -5882.0962 16137.972 5399658
8930.4482 -5879.6436 16131.243 4675680
9025.9189 -5879.3604 16130.466 4675679
9120.7529 -5878.6729 16128.58 4346715
9217.7197 -5879.3604 16130.466 4281431
9317.9043 -5882.0649 16137.887 5004898
9414.6475 -5882.5645 16139.257 4609368
9510.7217 -5882.6401 16139.465 4543575
9606.6758 -5882.6401 16139.465 4477782
9702.6299 -5882.6401 16139.465 4280404
9798.0391 -5882.314 16138.569 4280147
9894.7598 -5882.7725 16139.828 3755086
9991.5986 -5883.2935 16141.256 4149331
10087.564 -5883.2939 16141.258 3623500
10183.529 -5883.2939 16141.258 4478810
10279.258 -5883.1597 16140.889 5728622
10375.22 -5883.1597 16140.889 5992307
10471.131 -5883.1309 16140.811 13226452
10567.007 -5883.083 16140.679 13357267
10662.463 -5882.8047 16139.915 13488083
10758.349 -5882.7656 16139.809 13619669
10854.305 -5882.7656 16139.809 13225172
10950.938 -5883.1299 16140.809 8159883
11047.817 -5883.6187 16142.149 7568515
11144.098 -5883.7827 16142.599 3620420
11241.941 -5884.7627 16145.288 4542287
11336.675 -5884.1108 16143.5 5134680
11432.011 -5883.7812 16142.595 4740179
11527.665 -5883.6187 16142.149 3490115
11622.581 -5883.085 16140.686 3030844
11718.542 -5883.085 16140.686 2899004
11813.262 -5882.4673 16138.99 3557191
11909.233 -5882.4775 16139.019 10138547
12005.042 -5882.4082 16138.827 7040628
12101.761 -5882.7817 16139.853 7765128
12197.205 -5882.5347 16139.176 5132896
12293.157 -5882.5347 16139.176 4673111
12389.091 -5882.5269 16139.153 3094077
12485.729 -5882.8491 16140.038 2370868
12581.685 -5882.8491 16140.038 7306369
12678.954 -5883.458 16141.708 4608856
12774.92 -5883.458 16141.708 5266526
12870.528 -5883.2944 16141.259 11581370
12966.438 -5883.2695 16141.19 12107202
13061.992 -5883.0845 16140.683 11711675
13157.955 -5883.0854 16140.687 9869728
13253.916 -5883.0854 16140.687 7697020
13349.611 -5882.9683 16140.365 4212298
13445.195 -5882.8047 16139.915 5593689
13541.151 -5882.8047 16139.915 8093566
13637.489 -5882.9683 16140.365 13619921
13732.701 -5882.6489 16139.488 12632513
13828.655 -5882.6489 16139.488 13356492
13923.442 -5882.1558 16138.136 13488077
14012.489 -5879.2617 16130.195 13619664
14107.038 -5878.6992 16128.651 13553871
0 0 0 0
0 0 0 0
0 0 0 0
0 0 0 0
0 0 0 0
0 0 0 0
0 0 0 0
0 0 0 0
0 0 0 0
15077.285 -5883.1294 16140.807 6515830
15172.83 -5882.9683 16140.364 5200739
15268.787 -5882.9668 16140.361 4871514
15363.038 -5882.313 16138.566 5595237
0 0 0 0
0 0 0 0
0 0 0 0
0 0 0 0
0 0 0 0
0 0 0 0
0 0 0 0
-9579.7998 -3803.8076 10609.079 770
-9843.3008 -3934.3389 10973.14 198406
-9981.7373 -4016.2905 11201.708 659726
-9915.1406 -4016.2905 11201.708 462347
-10072.227 -4107.5098 11456.125 264456
-9939.6904 -4081.0576 11382.349 330505
-9642.9697 -3986.3694 11118.257 330504
-9537.1592 -3969.8398 11072.155 396041
-9471.332 -3969.8398 11072.155 264712
-9222.4814 -3892.5903 10856.7 462093
-9165.1895 -3895.6733 10865.299 594192
-8982.4248 -3845.0898 10724.219 725524
-8918.667 -3845.0898 10724.219 923161
-8829.1797 -3833.918 10693.059 660248
-8462.1641 -3701.1973 10322.893 593943
-8300.3281 -3656.9355 10199.443 791325
-8185.7915 -3633.0144 10132.726 1251877
-7992.0298 -3573.3162 9966.2236 1514024
-7932.7241 -3573.2922 9966.1562 5526627
-8474.417 -3846.0244 10726.825 6382198
-8420.502 -3850.5332 10739.399 13160147
-8488.8047 -3911.4253 10909.232 13488599
-8591.5518 -3989.2483 11126.286 10926266
-8359.0889 -3911.4253 10909.232 4936798
-8170.7563 -3853.197 10746.83 3028289
-8229.5869 -3911.5278 10909.519 3752271
-8164.7271 -3911.5278 10909.519 330261
-8099.8672 -3911.5278 10909.519 2568249
-8011.1665 -3899.9221 10877.149 9738915
-7897.2871 -3875.7705 10809.788 6514544
-8108.6724 -4012.1628 11190.196 265233
-8456.7754 -4219.019 11767.133 593942
-9044.793 -4550.0171 12690.309 1251354
-9066.4551 -4599.2793 12827.704 10791596
-8990.1914 -4599.2793 12827.704 921616
-7857.0742 -4053.9797 11306.826 593681
-8019.022 -4173.2441 11639.463 527633
-7436.646 -3903.8533 10888.113 724752
-7230.7358 -3829.0918 10679.599 724752
-7110.4702 -3798.7607 10595.004 593166
-7041.3374 -3795.4502 10585.77 593168
-7006.1738 -3810.5547 10627.897 658961
-7598.9722 -4170.582 11632.038 331023
-9570.9756 -5301.1299 14785.213 6910324
-8329.8555 -4656.4702 12987.214 8358022
-7499.9316 -4231.7603 11802.669 527115
-7486.8457 -4264.2734 11893.351 396301
-7359.5918 -4231.7603 11802.669 7896963
-7051.5215 -4093.6516 11417.474 5593437
-7077.5225 -4148.6821 11570.958 921110
-7230.5366 -4279.9766 11937.146 3026489
0 0 0 0
0 0 0 0
0 0 0 0
-6992.0107 -4307.9194 12015.081 134671
-6920.5776 -4307.9194 12015.081 3028793
-6514.9282 -4097.7065 11428.783 2633779
-6192.9414 -3936.2388 10978.438 1581090
-6376.5063 -4096.083 11424.256 2238763
-5841.5571 -3792.8472 10578.51 1382685
-5778.665 -3792.8472 10578.51 1711904
-5643.1255 -3744.6401 10444.058 791058
-5675.3442 -3807.9192 10620.547 791058
-5561.9561 -3773.8271 10525.462 988434
-5499.3794 -3773.8271 10525.462 922642
-5429.0815 -3768.4678 10510.515 2172709
-5489.606 -3854.8479 10751.435 2633260
-5589.8403 -3971.4771 11076.721 791057
-5637.9668 -4053.4236 11305.275 1250581
-5936.5752 -4319.6045 12047.672 856592
-5998.6924 -4418.1089 12322.407 2172199
-5750.9854 -4288.0381 11959.631 3093817
-5679.8823 -4288.0381 11959.631 4673101
-5608.7788 -4288.0381 11959.631 4475725
-5258.1353 -4071.5789 11355.912 1119512
-5377.4863 -4218.1582 11764.731 527374
-5328.187 -4234.5659 11810.493 6187371
-5237.5972 -4218.1582 11764.731 5002841
-4664.0435 -3807.0808 10618.209 726039
-4878.0259 -4036.3794 11257.738 988953
-5306.5605 -4452.0615 12417.104 1055256
-4576.5298 -3893.7537 10859.945 2633519
-4841.7188 -4178.3267 11653.639 988694
-4772.4346 -4178.3267 11653.639 1448988
-4749.4028 -4219.418 11768.245 856851
-4674.4058 -4214.8804 11755.59 1186073
-4558.9629 -4173.1831 11639.292 1317402
-4489.7642 -4173.1831 11639.292 1383194
-4501.0879 -4249.1992 11851.308 1120795
-4439.9512 -4258.1401 11876.244 1186331
-4351.7759 -4241.0195 11828.493 1383966
-4227.0288 -4187.1104 11678.137 1778981
-4151.6201 -4181.0889 11661.343 2108458
-4103.7993 -4203.1182 11722.784 2174251
-4359.8638 -4542.5259 12669.415 2240813
-4710.7197 -4994.3672 13929.631 2832945
-4627.9043 -4994.3672 13929.631 4872527
-4550.0884 -4999.8608 13944.954 4609870
-4986.0825 -5580.6367 15564.777 2504237
-5073.3149 -5785.6475 16136.565 2832949
-4977.3784 -5785.6475 16136.565 3819332
-4881.4419 -5785.6475 16136.565 3357241
-4785.7007 -5785.8828 16137.223 10132637
-4689.6304 -5785.7222 16136.775 13685201
0 0 0 0
-4238.1582 -5451.7881 15205.409 13685457
-4261.2236 -5600.9268 15621.367 13685201
-4057.3574 -5451.7881 15205.409 13750737
-3755.2131 -5160.7881 14393.791 13750737
-3669.6431 -5160.7954 14393.812 13750737
-3571.2581 -5142.3501 14342.366 13750737
-3435.6719 -5068.1255 14135.349 13750737
-3332.6848 -5039.4727 14055.434 13750737
-3249.0801 -5039.4087 14055.255 13750737
-2966.0569 -4721.873 13169.627 13750737
-2887.7324 -4721.8286 13169.502 13750737
-2794.397 -4696.5522 13099.005 13750737
-2721.8267 -4705.7271 13124.595 13750737
-2991.9978 -5325.4937 14853.165 13750737
-2873.7603 -5270.5981 14700.059 13684944
-2095.5752 -3963.9233 11055.653 13750736
-2029.8462 -3963.9233 11055.653 13619151
-2068.4517 -4174.4878 11642.932 13619407
-1980.35 -4135.0625 11532.973 13619151
-1795.2073 -3882.917 10829.721 13619153
-1869.8042 -4194.7095 11699.332 13619154
-1843.9847 -4296.6187 11983.562 13619413
-1861.9362 -4512.8066 12586.526 6446446
-1978.118 -4995.1519 13931.82 7564411
-2035.9318 -5365.8237 14965.648 10922164
-1663.2411 -4583.9009 12784.813 3817283
-1408.163 -4066.7532 11342.452 3949895
-1272.3077 -3859.2153 10763.615 4410703
-1261.7407 -4029.8508 11239.529 3686213
-1208.312 -4075.0198 11365.509 2107181
-1122.3428 -4009.2969 11182.203 3949387
-1055.8615 -4009.2969 11182.203 2567991
-978.70111 -3966.022 11061.506 2173748
-912.93732 -3966.022 11061.506 1581610
-917.01831 -4292.9976 11973.464 2436921
-805.65375 -4089.0706 11404.697 2502971
-699.46161 -3876.3289 10811.347 3424330
-593.21167 -3620.1785 10096.925 3949904
0 0 0 0
0 0 0 0
0 0 0 0
0 0 0 0
0 0 0 0
0 0 0 0
0 0 0 0
-42.18327 -1351.6704 3769.9011 3685190
-19.770159 -1351.6704 3769.9011 3619396
2.6513698 -1355.9753 3781.9077 5396829
25.374067 -1368.8253 3817.7476 3949387
49.332184 -1404.7191 3917.8574 3488840
72.624939 -1404.7191 3917.8574 4212306
97.246498 -1424.1796 3972.134 4344407
124.54357 -1467.562 4093.1309 5199716
148.87837 -1467.562 4093.1309 4936290
185.65039 -1572.9373 4387.0298 4673117
220.40773 -1637.3845 4566.7773 4870499
252.04979 -1667.0908 4649.6299 5462636
273.159 -1628.1444 4541.0059 5923187
282.25793 -1531.0566 4270.2217 6121077
0 0 0 0
0 0 0 0
924.14606 -3947.6492 11010.264 13684945
1003.7252 -4003.9758 11167.362 13750739
981.8512 -3673.7139 10246.239 13750736
1042.7679 -3673.7139 10246.239 13750737
1113.6729 -3706.9604 10338.966 13750737
1206.9977 -3807.4521 10619.244 13750737
1257.7072 -3770.2061 10515.362 13750737
1356.4634 -3873.6963 10804.004 13750737
1383.606 -3772.5657 10521.943 13750737
1446.1619 -3772.5657 10521.943 13684944
2314.0933 -5786.4165 16138.711 13684944
2410.0425 -5786.4165 16138.711 11447983
2505.9346 -5786.2847 16138.344 13487566
2602.3879 -5787.4102 16141.483 13290187
2698.1589 -5786.9937 16140.32 13290187
2794.0474 -5786.8477 16139.914 12632256
2890.0034 -5786.8477 16139.914 13553871
2985.96 -5786.8477 16139.914 13553358
3081.6594 -5786.3657 16138.569 12435133
0 0 0 0
3273.4504 -5786.1792 16138.05 9935516
3369.5793 -5786.4946 16138.93 10725805
3465.6479 -5786.6919 16139.479 9476254
3561.0088 -5785.7285 16136.793 7634568
3656.9521 -5785.7373 16136.817 7239809
3753.2966 -5786.3647 16138.566 7830920
3849.1384 -5786.2046 16138.12 11251895
3945.0842 -5786.2046 16138.12 7961992
4040.6931 -5785.7227 16136.776 9540770
4136.6143 -5785.6997 16136.712 13224397
4232.5684 -5785.7227 16136.776 13684944
4328.5444 -5785.7739 16136.919 13619149
4423.5488 -5784.5527 16133.513 13750737
4323.0181 -5533.1138 15432.232 13750737
4231.5342 -5303.4644 14791.725 13750737
4329.1851 -5315.3862 14824.976 13750737
4538.5327 -5461.2378 15231.766 13750737
4633.7241 -5466.7056 15247.015 13750737
4832.8511 -5592.2295 15597.11 13750737
4912.0996 -5576.9243 15554.424 13750737
4962.7266 -5530.29 15424.357 13750737
5054.4287 -5530.29 15424.357 13750737
5178.7827 -5565.3799 15522.225 13750737
5401.1074 -5702.6807 15905.167 13750737
5498.4951 -5705.6147 15913.35 13750737
5619.1558 -5732.1899 15987.47 13750737
5723.3823 -5741.3955 16013.145 13750737
5814.7637 -5737.6255 16002.629 13750737
5667.4175 -5502.207 15346.032 13750737
5903.8867 -5640.9727 15733.058 13750737
6147.709 -5782.3252 16127.301 13750737
6090.9614 -5640.9727 15733.058 13750737
6152.9062 -5612.1567 15652.688 13750737
6083.1855 -5465.894 15244.752 13750737
0 0 0 0
0 0 0 0
0 0 0 0
0 0 0 0
6532.7388 -5462.8687 15236.313 13750737
7009.8843 -5781.7017 16125.562 13750737
7105.7842 -5781.7246 16125.626 13750737
7201.6079 -5781.6875 16125.521 13750737
7297.4648 -5781.6763 16125.49 13750737
0 0 0 0
0 0 0 0
0 0 0 0
0 0 0 0
0 0 0 0
0 0 0 0
0 0 0 0
0 0 0 0
0 0 0 0
0 0 0 0
6731.5942 -4659.9268 12996.854 13486291
8454.7637 -5786.3657 16138.568 6317169
8550.6025 -5786.292 16138.363 5662833
8646.5498 -5786.292 16138.363 6057336
8742.6904 -5786.4199 16138.721 5464684
8838.6406 -5786.4209 16138.724 6780283
8934.0762 -5786.0879 16137.795 5068892
9029.2676 -5785.606 16136.45 4673621
9125.2031 -5785.606 16136.45 4213075
9221.2646 -5785.6851 16136.671 4477527
9319.1973 -5786.9238 16140.127 4477529
9415.1543 -5786.9238 16140.127 4017232
9510.7217 -5786.687 16139.465 4082768
9606.6758 -5786.687 16139.465 3885644
9702.6299 -5786.687 16139.465 4149071
9798.8564 -5786.8477 16139.914 3754313
9895.3633 -5787.1704 16140.813 3951693
9991.5986 -5787.3291 16141.256 3885901
10087.564 -5787.3296 16141.258 3885645
10183.529 -5787.3296 16141.258 3886158
10278.229 -5786.6177 16139.271 4871770
10374.356 -5786.7153 16139.545 6449007
10471.131 -5787.1685 16140.809 13357267
10567.092 -5787.1685 16140.809 13554131
10662.365 -5786.7954 16139.768 13423058
10758.32 -5786.7949 16139.767 13488593
10854.305 -5786.8101 16139.809 10198691
10951.196 -5787.3047 16141.188 6119780
11048.125 -5787.8101 16142.599 7239545
11145.019 -5788.2891 16143.934 4476491
11241.317 -5788.4531 16144.391 5003349
11336.675 -5788.1333 16143.5 4872276
11431.695 -5787.6494 16142.149 3491138
11525.229 -5786.4258 16138.736 3293248
11621.177 -5786.4258 16138.736 3029820
11717.658 -5786.688 16139.469 2833209
11813.143 -5786.458 16138.827 3556421
11909.092 -5786.458 16138.827 3491142
12005.042 -5786.458 16138.827 4674395
12101.239 -5786.5767 16139.157 12039107
12198.208 -5787.0591 16140.504 11180463
12294.719 -5787.3184 16141.227 5857646
12390.684 -5787.3184 16141.227 8952225
12486.646 -5787.3184 16141.227 10269367
12582.636 -5787.3296 16141.258 7173760
12678.954 -5787.4912 16141.708 5727080
12774.92 -5787.4912 16141.708 6977917
12871.244 -5787.6514 16142.155 10925754
12967.216 -5787.6523 16142.157 6781052
13062.095 -5787.1694 16140.811 7174782
13157.691 -5787.0093 16140.363 4081997
13253.653 -5787.0093 16140.365 4148047
13349.979 -5787.1685 16140.809 4214095
13445.571 -5787.0093 16140.365 3029820
13541.9 -5787.1685 16140.809 12898512
13636.352 -5786.5273 16139.02 5067860
13732.431 -5786.5811 16139.17 7834504
13828.655 -5786.6953 16139.488 5134939
13924.608 -5786.6953 16139.488 8686735
14021.071 -5786.9053 16140.073 6513254
14116.6 -5786.7295 16139.584 9408144
14211.369 -5786.2471 16138.238 11447985
14307.315 -5786.2471 16138.238 14014168
14404.756 -5786.8467 16139.911 9212313
14500.851 -5786.9023 16140.066 11976388
0 0 0 0
0 0 0 0
0 0 0 0
0 0 0 0
0 0 0 0
15075.936 -5786.6499 16139.362 10726582
15172.827 -5787.0083 16140.361 4937054
15268.787 -5787.0083 16140.361 5594981
15363.038 -5786.3647 16138.566 5661028
0 0 0 0
0 0 0 0
0 0 0 0
0 0 0 0
0 0 0 0
0 0 0 0
0 0 0 0
-9595.3252 -3746.7959 10626.272 1026
-10133.109 -3983.0151 11296.213 1027
-9981.7373 -3949.6929 11201.708 593677
-9998.791 -3983.0151 11296.213 396298
-10119.442 -4058.3354 11509.828 330505
-9942.0205 -4014.3269 11385.017 264714
-9859.832 -4008.4314 11368.296 198921
-9537.1592 -3904.0132 11072.155 67078
-9471.332 -3904.0132 11072.155 198921
-9229.7861 -3831.0759 10865.299 133129
-9165.1895 -3831.0759 10865.299 396300
-9107.3496 -3833.9209 10873.367 725012
-8938.1191 -3789.5789 10747.608 527634
-8978.0596 -3833.9209 10873.367 593426
-8717.3369 -3749.5825 10634.176 593426
-8356.3262 -3620.5593 10268.253 725015
-8168.6445 -3565.2886 10111.501 725530
-7991.9751 -3514.0408 9966.1562 2041390
-7919.0654 -3507.9902 9948.9971 1909294
-8484.3506 -3786.6841 10739.399 12172743
-8516.2715 -3829.7517 10861.543 13488340
-8488.8047 -3846.5669 10909.232 13422804
-8159.6372 -3725.877 10566.944 12963537
-8027.1704 -3693.8296 10476.055 11386304
-7969.8643 -3696.1375 10482.601 9084322
-8229.5869 -3846.668 10909.519 1976110
-8189.9961 -3858.5725 10943.282 1317929
-8099.8672 -3846.668 10909.519 462108
-8055.9341 -3856.686 10937.932 6250869
-7929.8784 -3827.2329 10854.399 14146012
-8108.6724 -3945.634 11190.196 2237738
-8456.7754 -4149.0605 11767.133 526867
-8821.7998 -4364.2524 12377.438 264466
-8748.2129 -4364.2524 12377.438 5727593
-8781.5508 -4418.0469 12530.005 6846841
-8291.5762 -4207.228 11932.103 199179
-8802.1709 -4504.8511 12776.189 923416
-7967.1792 -4113.0044 11664.875 724753
-7880.6226 -4104.0444 11639.463 922389
-7227.3896 -3797.1992 10769.221 790547
-7133.7954 -3781.5254 10724.769 527373
-7223.0889 -3863.3894 10956.942 790545
-7598.9722 -4101.4263 11632.038 1119511
-7933.5317 -4321.3262 12255.695 593681
-7649.2695 -4205.1123 11926.101 461839
-7499.9316 -4161.5903 11802.669 856341
-7429.7617 -4161.5903 11802.669 396304
-7323.6079 -4141.2432 11744.962 1053208
-7206.5474 -4114.2773 11668.484 7438210
-6705.3076 -3865.3237 10962.429 461839
-7202.9434 -4192.9443 11891.592 1318179
-6574.9585 -3865.3237 10962.429 461328
-6581.3159 -3907.7976 11082.889 1448993
-6219.9878 -3730.6013 10580.343 396304
-6762.2427 -4097.269 11620.248 659217
-7379.9365 -4517.6865 12812.592 1185562
-7303.7627 -4517.6865 12812.592 1711906
-6446.981 -4029.759 11428.783 10529194
-6376.5063 -4028.1628 11424.256 5463902
-5814.6128 -3712.7502 10529.716 2042153
-5752.0103 -3712.7502 10529.716 1121050
-5715.7729 -3729.9551 10578.51 397070
-5839.0786 -3852.8147 10926.951 527886
-5747.8564 -3835.2935 10877.26 659472
-5730.6162 -3867.3003 10968.034 856339
-5553.5259 -3790.9275 10751.435 790801
-5489.606 -3790.9275 10751.435 922386
-5589.8403 -3905.6228 11076.721 1251094
-5663.9604 -4004.5886 11357.397 1250837
-6001.6694 -4294.5566 12179.774 1185301
-5998.6924 -4344.8486 12322.407 1119509
-5856.8452 -4294.5566 12179.774 2435883
-5679.8823 -4216.9346 11959.631 3423291
-5608.7788 -4216.9346 11959.631 1581344
-5516.6069 -4200.8911 11914.13 1515551
-5445.7744 -4200.8911 11914.13 1055000
-5374.9414 -4200.8911 11914.13 1318172
-5257.9702 -4164.3491 11810.493 2041896
-4944.9561 -3969.449 11257.738 1055513
-4832.3589 -3932.2881 11152.346 726034
-4766.0552 -3932.2881 11152.346 1054230
-4699.751 -3932.2881 11152.346 1646366
-4737.0835 -4020.2415 11401.79 922642
-4669.2969 -4020.2415 11401.79 1185815
-4749.4028 -4149.4521 11768.245 1251609
-4660.0977 -4132.3027 11719.606 527886
-4550.6509 -4096.5015 11618.071 1383195
-4434.8315 -4053.7717 11496.885 791058
-4366.4795 -4053.7717 11496.885 988438
-4430.6289 -4178.7397 11851.308 396558
-4529.3921 -4340.9214 12311.27 1252124
-4265.4424 -4155.1006 11784.263 1186845
-4173.4941 -4133.4233 11722.784 1712932
-4103.7993 -4133.4233 11722.784 1976873
-4219.4189 -4323.3003 12261.295 1647907
-4256.7856 -4438.2646 12587.345 3030328
-4275.6694 -4537.728 12869.432 2964791
-4725.6553 -5106.6768 14483.025 1714468
-5168.9277 -5689.355 16135.556 2372400
-4893.5454 -5488.0996 15564.777 2832181
-4977.0762 -5689.3652 16135.586 2832181
-4881.6411 -5689.9429 16137.223 5792605
-4785.9668 -5690.2588 16138.12 13159370
-4689.7002 -5689.8696 16137.016 13422542
0 0 0 0
-4354.1128 -5508.0732 15621.424 13488078
-4261.2393 -5508.0732 15621.424 13684944
-4168.3652 -5508.0732 15621.424 13750737
-3823.2639 -5167.1846 14654.631 13750737
-3736.1382 -5167.1846 14654.631 13750737
-3626.5522 -5135.3799 14564.43 13750737
-3435.6719 -4984.0869 14135.349 13750737
-3340.4277 -4967.4238 14088.09 13750737
-3249.1213 -4955.9092 14055.434 13750737
-3142.7986 -4920.2778 13954.38 13750737
-2887.7644 -4643.5835 13169.647 13750737
-2842.2107 -4697.7031 13323.137 13750737
-2827.8186 -4807.9077 13635.687 13684945
-3044.5327 -5329.1445 15113.965 13619151
-2945.3435 -5312.3115 15066.226 13684687
-2095.3425 -3897.7617 11054.426 13684430
-2029.6208 -3897.7617 11054.426 12829637
-1964.1173 -3898.1946 11055.653 12960717
-1951.1624 -4006.5618 11362.993 9209491
-1795.2073 -3818.5312 10829.721 12039871
-1777.9619 -3922.532 11124.677 13816535
-1843.9847 -4225.373 11983.562 13553363
-1944.5404 -4634.8662 13144.925 13222605
-2291.0735 -5689.4956 16135.954 13618902
-2195.3052 -5689.9219 16137.164 6317418
-1764.1367 -4781.3496 13560.366 4474702
-1280.5425 -3636.8643 10314.496 2764338
-1219.2198 -3636.8643 10314.496 3159097
-1261.7407 -3963.0286 11239.529 3225146
-1214.3403 -4027.4424 11422.212 4277833
-1140.7408 -4007.4487 11365.509 3159352
-1049.2887 -3918.2712 11112.593 3488830
-976.43689 -3891.2349 11035.915 3686979
-910.82526 -3891.2349 11035.915 4673875
-917.01831 -4221.812 11973.464 2963260
-805.65375 -4021.2666 11404.697 2436661
-696.42969 -3795.5288 10764.483 3883852
0 0 0 0
0 0 0 0
0 0 0 0
0 0 0 0
0 0 0 0
0 0 0 0
0 0 0 0
0 0 0 0
0 0 0 0
-19.770159 -1329.2573 3769.9011 3488067
2.6727726 -1344.2552 3812.4368 4936790
27.049913 -1435.0336 4069.8928 2699063
51.739273 -1448.8308 4109.0229 2962237
72.624939 -1381.4263 3917.8574 3948877
97.246498 -1400.5641 3972.134 4343122
123.10931 -1426.6069 4045.9939 4606293
147.16386 -1426.6069 4045.9939 5067104
185.96916 -1549.5114 4394.5625 4080468
219.81721 -1605.9198 4554.5425 4541277
250.73515 -1630.8964 4625.3784 5199462
273.159 -1601.1469 4541.0059 5528942
291.19952 -1553.3667 4405.4971 5857394
0 0 0 0
0 0 0 0
910.96436 -3826.8159 10853.217 13553872
989.60516 -3882.1902 11010.264 13750739
1012.7866 -3726.6265 10569.07 13750736
991.74127 -3436.009 9744.8506 13750737
1052.2151 -3444.3167 9768.4121 13750737
1159.6095 -3597.3115 10202.32 13750737
1223.7579 -3607.6082 10231.522 13750737
1320.2239 -3707.6892 10515.362 13750737
1401.0072 -3756.6697 10654.275 13750737
2217.0938 -5687.7725 16131.067 13619151
2314.0933 -5690.4673 16138.711 13619664
2409.8918 -5690.1113 16137.701 9869720
0 0 0 0
2601.9119 -5690.4038 16138.531 11317935
2697.9412 -5690.5757 16139.018 10067098
2794.0474 -5690.8916 16139.914 12303804
2890.0034 -5690.8916 16139.914 10922149
2985.96 -5690.8916 16139.914 13356746
0 0 0 0
0 0 0 0
3273.4504 -5690.2339 16138.05 8028803
3369.5664 -5690.5225 16138.867 9213078
3465.5166 -5690.5225 16138.867 8226442
3560.7703 -5689.4097 16135.712 7305343
3568.5352 -5552.2329 15746.665 7174014
3752.6697 -5689.4658 16135.871 7436674
3848.8279 -5689.7998 16136.817 6976638
3944.8728 -5689.9541 16137.255 7832205
4040.6772 -5689.7627 16136.712 7634311
4136.6143 -5689.7627 16136.712 7962247
4232.6572 -5689.9048 16137.115 11579573
4328.5972 -5689.9048 16137.115 13619150
