# .PCD v0.7 - Point Cloud Data file format
VERSION 0.7
FIELDS x y z rgb
SIZE 4 4 4 4
TYPE F F F U
COUNT 1 1 1 1
WIDTH 1440
HEIGHT 1
VIEWPOINT 0 0 0 1 0 0 0
POINTS 1440
DATA ascii
8069.1021 -1276.5006 16134.833 1119760
8164.8608 -1276.4746 16134.504 1185296
8260.4072 -1276.4163 16133.767 395524
8356.3271 -1276.4163 16133.767 132097
8452.5205 -1276.4575 16134.288 395269
8548.8203 -1276.5139 16135 197634
8644.3662 -1276.4575 16134.288 263684
8740.0664 -1276.4249 16133.876 395269
8835.4707 -1276.3505 16132.935 526855
8931.3848 -1276.3505 16132.935 724234
9027.6494 -1276.3998 16133.559 987150
9124.3945 -1276.5155 16135.021 0
9219.7148 -1276.4314 16133.958 1580311
9316.9033 -1276.6051 16136.153 527623
9413.0391 -1276.6326 16136.501 1054479
9509.9473 -1276.7631 16138.15 858128
9606.1465 -1276.7968 16138.576 2897711
9703.1699 -1276.9381 16140.363 7370094
9799.1289 -1276.9381 16140.363 3095091
9894.959 -1276.9216 16140.154 9083794
9991.0459 -1276.938 16140.361 7567220
10086.863 -1276.92 16140.136 4936784
10182.82 -1276.92 16140.136 6976111
10279.064 -1276.9557 16140.585 1448473
10376.338 -1277.1173 16142.628 258
10473.167 -1277.2217 16143.947 258
10573.045 -1277.6927 16149.902 258
0 0 0 0
0 0 0 0
10854.066 -1276.8663 16139.455 9606808
10952.151 -1277.1149 16142.598 258
11047.205 -1277.0087 16141.256 2304040
11143.796 -1277.0804 16142.162 257
11239.449 -1277.0446 16141.708 0
11335.416 -1277.0446 16141.708 0
11429.976 -1276.8873 16139.721 256
11524.275 -1276.704 16137.402 769
11620.034 -1276.6838 16137.149 264965
11716.273 -1276.7164 16137.562 857613
11812.089 -1276.7028 16137.388 923405
11908.034 -1276.7032 16137.394 1450004
12003.971 -1276.7028 16137.388 989965
12099.006 -1276.6072 16136.18 1318930
12194.564 -1276.5679 16135.683 661254
12290.496 -1276.5679 16135.683 529924
12406.013 -1278.5864 16161.197 529668
12521.951 -1280.6171 16186.864 924682
12603.449 -1279.1212 16167.957 1318929
12676.893 -1276.8369 16139.084 1253394
12775.984 -1277.151 16143.053 594955
12870.174 -1276.9738 16140.812 4677723
12966.852 -1277.0443 16141.705 8622735
13061.365 -1276.9022 16139.909 7569279
13159.408 -1277.1047 16142.469 659212
13255.38 -1277.1047 16142.469 266253
13348.509 -1276.8328 16139.031 859415
0 0 0 0
0 0 0 0
0 0 0 0
0 0 0 0
0 0 0 0
0 0 0 0
14018.18 -1276.6519 16136.745 13554387
14116.113 -1276.8325 16139.028 13422801
14210.486 -1276.6907 16137.235 13554386
14307.406 -1276.7782 16138.341 13554387
14401.639 -1276.6262 16136.42 13422801
14497.574 -1276.6262 16136.42 13488594
14592.8 -1276.5641 16135.635 13554386
14688.73 -1276.5641 16135.635 13488593
14784.583 -1276.5573 16135.549 13488337
14880.513 -1276.5573 16135.549 13619667
14976.443 -1276.5573 16135.549 9342865
15075.255 -1276.8013 16138.634 8618888
15171.204 -1276.8013 16138.634 12040123
15265.94 -1276.7001 16137.354 13817558
15361.88 -1276.6997 16137.351 6644838
0 0 0 0
0 0 0 0
0 0 0 0
0 0 0 0
0 0 0 0
0 0 0 0
0 0 0 0
-9816.8945 -795.47101 10871.648 658439
-9752.2598 -795.47101 10871.648 658696
-9646.9258 -792.12909 10825.976 66048
-9504.2412 -785.65485 10737.492 0
-9425.1641 -784.3866 10720.158 0
-9301.3926 -779.35602 10651.406 0
-9226.2402 -778.35828 10637.771 256
-9192.3994 -780.85602 10671.907 65792
-9301.168 -795.58673 10873.23 66048
-9236.5234 -795.58673 10873.23 256
-9252.1953 -802.55347 10968.444 256
-9518.6172 -831.52417 11364.385 256
-9486.1299 -834.61023 11406.562 256
-9671.6914 -857.06342 11713.428 256
-9495.6602 -847.56708 11583.643 256
-9426.792 -847.56708 11583.643 256
-9308.2588 -843.06879 11522.164 0
-8961.8516 -817.71173 11175.611 256
-8844.7324 -813.05322 11111.944 256
-8778.6689 -813.05322 11111.944 256
-8933.3232 -833.65045 11393.445 256
-8865.5859 -833.65045 11393.445 256
-8857.8291 -839.33398 11471.121 256
-9062.333 -865.37476 11827.019 0
-9301.6582 -895.17389 12234.281 256
-9479.6914 -919.49774 12566.714 256
-9687.4219 -947.11145 12944.108 256
-9820.2568 -967.78632 13226.671 256
-9680.7197 -961.73608 13143.982 256
-9397.5723 -941.20428 12863.375 256
-9349.7695 -944.09961 12902.946 256
-9278.082 -944.61108 12909.937 256
-9196.3467 -944.09961 12902.946 256
-9124.5762 -944.61108 12909.937 256
-8903.3047 -929.52319 12703.73 256
-8682.6045 -914.23706 12494.816 256
-8533.8955 -906.33295 12386.792 256
-8240.5039 -882.79169 12065.055 256
-8053.7871 -870.36517 11895.222 256
-7983.0664 -870.36517 11895.222 256
-7958.4639 -875.43817 11964.555 256
-7887.3315 -875.43817 11964.555 256
-7778.96 -871.26733 11907.552 131841
-7708.1665 -871.26733 11907.552 592648
-7861.373 -896.82117 12256.795 66048
-7727.4668 -889.79309 12160.742 256
-7752.2944 -901.08246 12315.033 256
-7922.0112 -929.58887 12704.629 256
-7849.3799 -929.93256 12709.326 256
-7602.3804 -909.42444 12429.042 256
-7251.9399 -876.01825 11972.482 256
-7077.6411 -863.43817 11800.552 256
-6958.8101 -857.4408 11718.586 256
-6889.1396 -857.4408 11718.586 256
-6634.2051 -834.14673 11400.228 256
-6566.4277 -834.14673 11400.228 256
-6592.1289 -846.14539 11564.212 256
-6615.6997 -858.12067 11727.877 256
-6546.6841 -858.21368 11729.148 256
-6528.1787 -865.00146 11821.917 256
-6474.1948 -867.18481 11851.757 256
-6405.145 -867.3761 11854.371 256
-6415.1699 -878.39899 12005.02 256
-6352.2959 -879.57581 12021.104 256
-6218.127 -870.79517 11901.099 256
-6147.3716 -870.79517 11901.099 256
-6028.6816 -863.92603 11807.219 256
-5851.6265 -848.43256 11595.471 256
-5590.7886 -820.27722 11210.673 256
-5419.0938 -804.6792 10997.496 66048
-5407.313 -812.73578 11107.605 0
-5461.0254 -830.95715 11356.636 256
-5452.3267 -840.01935 11480.487 256
-5577.395 -870.1814 11892.711 256
-5668.457 -895.74432 12242.078 256
-5604.1899 -897.10748 12260.707 256
-5625.5781 -912.39874 12469.692 256
-5601.8662 -920.6861 12582.955 256
-5612.9985 -935.00201 12778.61 256
-5514.5918 -931.21375 12726.836 256
-5445.4121 -932.32404 12742.01 256
-5488.2378 -952.9129 13023.397 256
-5411.6963 -953.06897 13025.53 256
-5266.1797 -940.90588 12859.297 256
-5273.4766 -956.08966 13066.813 256
-5366.8018 -987.55774 13496.886 256
-5474.3911 -1022.6459 13976.433 256
-5637.1099 -1069.2727 14613.678 256
-6128.1987 -1180.6212 16135.47 256
-6032.436 -1180.6539 16135.917 857105
-5810.022 -1155.499 15792.128 7766909
-5217.397 -1054.681 14414.255 10663085
-5131.7002 -1054.681 14414.255 791311
-5648.7061 -1180.6539 16135.917 7504250
-4661.2651 -991.0976 13545.265 8686984
-4580.7349 -991.0976 13545.265 1119761
-4612.4277 -1015.8129 13883.048 199168
-4556.2842 -1021.7319 13963.942 66560
-5072.9014 -1158.6941 15835.795 2765604
-5073.665 -1180.7828 16137.68 3884340
-4977.8604 -1180.8156 16138.127 3622189
-4881.7856 -1180.7843 16137.7 4609337
-4785.627 -1180.7312 16136.974 6846049
-4689.2549 -1180.6221 16135.483 7109991
-3671.1355 -943.59186 12896.006 5267275
-3260.9243 -856.03314 11699.348 2634783
-2779.4324 -745.53802 10189.218 512
-2640.0784 -723.93671 9893.9941 256
-2600.8613 -729.43524 9969.1426 256
-2486.0654 -713.49915 9751.3447 0
-2364.6746 -694.86414 9496.6611 0
-2231.9871 -671.91675 9183.041 65536
-1976.2448 -609.84528 8334.7148 65536
-1886.3634 -597.08014 8160.2544 196608
-1739.6899 -565.19037 7724.4194 196608
-1603.1243 -534.94427 7311.0469 196608
-1616.7731 -554.53406 7578.7793 196608
-1533.5934 -541.08386 7394.957 196608
-1438.1255 -522.37628 7139.2817 196608
-1362.2648 -509.86945 6968.3516 196608
-1320.8361 -509.86945 6968.3516 394240
-1189.4894 -474.0354 6478.6099 131072
-1083.8478 -446.38974 6100.7788 327680
-941.80334 -401.3179 5484.7847 327680
0 0 0 0
0 0 0 0
0 0 0 0
0 0 0 0
0 0 0 0
0 0 0 0
0 0 0 0
0 0 0 0
0 0 0 0
0 0 0 0
0 0 0 0
0 0 0 0
0 0 0 0
0 0 0 0
0 0 0 0
-238.1299 -227.50172 3109.2507 851968
-219.67746 -227.53581 3109.7166 721924
-202.31187 -228.80536 3127.0676 3812909
-184.66034 -229.97574 3143.063 327680
-165.53642 -229.36946 3134.7771 918532
0 0 0 0
0 0 0 0
0 0 0 0
-134.79312 -339.79703 4643.9829 655616
-108.67179 -344.51575 4708.4736 721152
-89.815079 -383.53058 5241.6865 655616
-60.22514 -393.81882 5382.2954 655361
-28.225897 -393.81882 5382.2954 589825
3.7560871 -392.0173 5357.6738 655618
37.190025 -409.42328 5595.5601 589825
73.498718 -427.09747 5837.1123 655617
108.20197 -427.09747 5837.1123 655618
140.09651 -418.70309 5722.3872 655618
173.05354 -416.14413 5687.4136 655618
206.86679 -416.14413 5687.4136 721154
252.09799 -435.88611 5957.2261 721154
283.56937 -429.90381 5875.4663 721154
308.9895 -417.06592 5700.0122 786947
342.72638 -416.8819 5697.4971 721154
363.21686 -402.06775 5495.0327 589824
398.5365 -404.75919 5531.8169 393216
435.31854 -408.41241 5581.7451 327680
467.3685 -407.42294 5568.2222 393216
481.71075 -392.14893 5359.4731 459008
512.60522 -391.40897 5349.3604 524545
569.41937 -409.39072 5595.1152 919048
592.25635 -402.3075 5498.3096 1707534
624.94531 -402.3075 5498.3096 3154723
657.20953 -402.04764 5494.7578 4142132
702.60645 -409.46591 5596.1431 4339255
728.22113 -405.20587 5537.9214 3878446
740.07434 -393.98831 5384.6118 4405562
691.56189 -352.897 4823.0195 4274233
708.00134 -346.90231 4741.0903 3880758
762.59546 -359.34564 4911.1528 3157294
791.79364 -359.34564 4911.1528 3091500
752.14337 -329.21091 4499.3032 3223087
723.24982 -305.69247 4177.8784 1512726
665.71442 -272.03183 3717.8408 131072
0 0 0 0
0 0 0 0
0 0 0 0
0 0 0 0
0 0 0 0
0 0 0 0
0 0 0 0
0 0 0 0
0 0 0 0
0 0 0 0
0 0 0 0
2812.7686 -821.90918 11232.978 591365
2507.7742 -715.79291 9782.6934 591365
2501.2314 -697.74323 9536.0098 525314
2587.7485 -705.87817 9647.1895 525828
2679.5999 -715.08386 9773.0029 920843
2825.7773 -738.08875 10087.409 986636
2888.3806 -738.76166 10096.605 1117195
2945.7222 -738.08875 10087.409 986634
2982.1362 -732.30365 10008.345 657669
3033.9006 -730.44061 9982.8828 723462
3205.5647 -756.96228 10345.353 1052427
3267.0708 -756.96228 10345.353 1118220
3267.6301 -743.10217 10155.928 1184012
3322.9297 -741.96783 10140.425 1118220
3240.6252 -710.69623 9713.0371 920841
3079.2236 -663.47656 9067.6895 920843
3001.0249 -635.50104 8685.3506 1118222
3052.6619 -635.50104 8685.3506 1184272
3060.0344 -626.43945 8561.5059 6315870
3064.4375 -617.07642 8433.542 1447189
3110.3735 -616.24359 8422.1592 1183501
3085.1951 -601.57074 8221.627 2499105
3213.7878 -616.87128 8430.7383 393729
3331.0039 -629.55164 8604.04 1510925
3344.9885 -622.63306 8509.4844 1576720
3168.2463 -580.94794 7939.7764 1642511
3584.4463 -647.61584 8850.9219 919046
3337.5679 -594.28693 8122.0801 1971221
3649.8767 -640.62799 8755.4199 1642767
3434.144 -594.28693 8122.0801 1577744
3896.2983 -664.91443 9087.3408 1117708
3950.325 -664.91443 9087.3408 723463
4261.7241 -707.65057 9671.4131 1974041
6959.4707 -1140.222 15583.338 1514003
7302.1045 -1180.6411 16135.742 66048
7397.9697 -1180.6306 16135.599 527108
7493.2544 -1180.5287 16134.206 461315
7589.1768 -1180.5287 16134.206 132352
7685.0986 -1180.5287 16134.206 132098
7781.019 -1180.5283 16134.202 1053454
7877.2495 -1180.5746 16134.833 856588
7973.8208 -1180.67 16136.139 395781
8069.8501 -1180.6841 16136.33 1119760
8165.7856 -1180.6841 16136.33 1251346
8261.7197 -1180.6841 16136.33 987918
8356.6035 -1180.5355 16134.3 66562
8452.5205 -1180.5347 16134.288 0
8548.9375 -1180.6029 16135.22 131841
8644.7832 -1180.5917 16135.066 724234
8740.7109 -1180.5917 16135.066 66049
8835.6699 -1180.4623 16133.299 725004
8931.5488 -1180.4573 16133.229 922383
9027.8438 -1180.5068 16133.907 1514518
9123.7656 -1180.5068 16133.907 329988
9219.6855 -1180.5068 16133.907 132609
9316.875 -1180.6676 16136.104 396293
9413.0391 -1180.6967 16136.501 198659
9510.8369 -1180.9277 16139.66 3753019
9607.0635 -1180.9611 16140.116 3489334
9703.1699 -1180.9792 16140.363 857871
9798.583 -1180.9135 16139.465 3884607
9894.5361 -1180.9135 16139.465 8226947
9991.0449 -1180.979 16140.36 10134428
10086.911 -1180.9683 16140.213 9937572
10182.181 -1180.8883 16139.121 7765887
10278.133 -1180.8883 16139.121 1579035
10376.05 -1181.1122 16142.18 257
10472.311 -1181.1449 16142.628 4
10568.85 -1181.2083 16143.494 3
10635.886 -1178.0027 16099.685 3
10758.112 -1180.9127 16139.455 257
10855.878 -1181.1099 16142.149 3
10950.939 -1181.0118 16140.811 2764334
11046.9 -1181.0118 16140.811 592907
11143.796 -1181.1108 16142.162 2042144
11239.614 -1181.0948 16141.944 1911072
11334.374 -1180.9691 16140.225 1977633
11429.976 -1180.9321 16139.721 2504230
11523.77 -1180.7107 16136.694 2636582
11619.565 -1180.6964 16136.498 1846807
11715.017 -1180.6475 16135.83 2109724
11811.561 -1180.7087 16136.667 1516817
11908.03 -1180.7615 16137.388 1319183
12003.971 -1180.7615 16137.388 858378
12098.607 -1180.6342 16135.647 595207
12194.816 -1180.661 16136.015 661001
12316.917 -1183.1748 16170.37 858380
12413.055 -1183.1748 16170.37 858380
12520.768 -1184.2697 16185.334 858379
12598.179 -1182.5035 16161.197 1384468
12676.707 -1180.8684 16138.849 1450005
12773.926 -1180.9855 16140.45 330245
12870.174 -1181.0121 16140.812 197891
12966.852 -1181.0774 16141.705 462090
13062.096 -1181.0121 16140.812 1712671
13159.524 -1181.1437 16142.611 660242
13255.497 -1181.1437 16142.611 463377
13348.509 -1180.8817 16139.031 200978
0 0 0 0
0 0 0 0
0 0 0 0
0 0 0 0
0 0 0 0
0 0 0 0
0 0 0 0
14113.761 -1180.6846 16136.338 13553871
14209.373 -1180.6577 16135.971 13553872
14305.306 -1180.6577 16135.971 13553872
14401.069 -1180.6439 16135.781 13619665
14497.001 -1180.6439 16135.781 13554128
14592.8 -1180.6333 16135.635 13423056
14688.73 -1180.6333 16135.635 13488594
14784.662 -1180.6333 16135.635 13488339
14883.408 -1180.8566 16138.688 9409432
14979.42 -1180.8616 16138.756 2698546
15075.613 -1180.8807 16139.018 3027770
15171.565 -1180.8807 16139.018 3817540
15267.517 -1180.8807 16139.018 2434858
0 0 0 0
0 0 0 0
0 0 0 0
0 0 0 0
0 0 0 0
0 0 0 0
0 0 0 0
0 0 0 0
-9687.1504 -721.17694 10727.964 790025
-9704.623 -727.26611 10818.544 987404
-9640.3037 -727.26611 10818.544 1184785
-9575.9844 -727.26611 10818.544 921613
-9425.1641 -720.65222 10720.158 855820
-9361.4297 -720.65222 10720.158 790283
-9316.5117 -722.11066 10741.854 921613
-9310.2783 -726.60822 10808.758 789771
-9301.168 -730.94232 10873.23 526342
-9236.5234 -730.94232 10873.23 329220
-9252.1953 -737.34302 10968.444 65792
-9332.4473 -749.01776 11142.113 0
-9724.7773 -786.08569 11693.523 256
-9671.6914 -787.42377 11713.428 256
-9683.8994 -794.1358 11813.273 256
-9613.667 -794.1358 11813.273 256
-9765.791 -812.63879 12088.518 256
-9502.4033 -796.58398 11849.691 513
-9066.2764 -765.70032 11390.277 256
-9085.9258 -773.13464 11500.867 256
-9071.415 -777.75281 11569.565 256
-9002.6299 -777.75281 11569.565 256
-9327.8301 -812.05182 12079.785 256
-9374.3936 -822.43768 12234.281 0
-9305.7344 -822.79822 12239.644 256
-9487.0703 -845.44263 12576.495 256
-9698.8994 -871.18604 12959.444 256
-9820.2568 -889.15009 13226.671 256
-9680.7197 -883.59143 13143.982 256
-9363.2363 -861.56848 12816.377 256
-9287.04 -861.56848 12816.377 256
-9269.0293 -867.01117 12897.34 256
-9090.5391 -857.40845 12754.493 256
-8983.3613 -854.4267 12710.138 256
-8733.1484 -837.67468 12460.941 256
-8564.3252 -828.50964 12324.605 256
-8473.2344 -826.77112 12298.744 256
-8454.6289 -832.13654 12378.558 256
-8325.4619 -826.61884 12296.479 256
-8029.5972 -804.3056 11964.555 256
-8038.019 -812.34564 12084.156 256
-7966.1758 -812.34564 12084.156 256
-8088.811 -832.35803 12381.853 256
-8015.1978 -832.35803 12381.853 256
-7898.7266 -827.86615 12315.033 256
-7788.5034 -823.95111 12256.795 256
-7715.6338 -823.95111 12256.795 256
-7833.9604 -844.56366 12563.42 256
-7846.4785 -854.05634 12704.629 256
-7719.4268 -848.39417 12620.4 256
-7402.0186 -821.49457 12220.252 256
-7101.4478 -795.94891 11840.245 256
-7008.415 -793.38617 11802.121 256
-6937.3262 -793.28064 11800.552 256
-6733.1919 -777.80396 11570.326 256
-6631.2373 -773.93311 11512.745 256
-6619.2539 -780.59174 11611.796 256
-6675.2671 -795.49384 11833.475 256
-6629.1089 -798.4079 11876.822 256
-6528.1787 -794.71686 11821.917 256
-6470.4761 -796.26526 11844.95 256
-6405.145 -796.89862 11854.371 256
-6379.7788 -802.57349 11938.789 256
-6301.585 -801.65576 11925.137 256
-6206.2524 -798.51202 11878.372 256
-6098.8789 -793.72882 11807.219 256
-5983.7207 -787.80933 11719.162 256
-5889.2993 -784.51263 11670.122 256
-5761.9766 -776.70233 11553.939 256
-5524.1377 -753.62659 11210.673 256
-5498.4365 -759.28131 11294.79 256
-5520.5815 -771.76459 11480.487 256
-5528.3877 -782.53082 11640.642 256
-5487.5601 -786.59875 11701.155 256
-5642.8892 -819.24976 12186.859 256
-5570.4351 -819.24976 12186.859 256
-5537.9639 -825.20758 12275.486 256
-5551.4424 -838.263 12469.692 256
-5563.6797 -851.48181 12666.331 256
-5509.0518 -854.6897 12714.05 256
-5445.4121 -856.56921 12742.01 256
-5361.8799 -855.32861 12723.555 256
-5326.9487 -861.91626 12821.55 256
-5210.5903 -855.32861 12723.555 256
-5273.4766 -878.40381 13066.813 256
-5346.0815 -903.81207 13444.777 256
-5329.2935 -914.64941 13605.989 256
-5433.1519 -946.84613 14084.937 256
-6128.1987 -1084.6913 16135.47 258
-6032.3232 -1084.7009 16135.614 5331034
0 0 0 0
0 0 0 0
0 0 0 0
-5648.9419 -1084.7666 16136.59 2504236
0 0 0 0
0 0 0 0
-4784.5908 -968.1098 14401.246 528905
-5264.9155 -1084.7089 16135.731 513
-5169.1812 -1084.7501 16136.346 8226689
-5073.8062 -1084.8699 16138.127 8425352
-4977.9189 -1084.8828 16138.318 10333604
-4881.8369 -1084.8527 16137.87 5596506
-4785.709 -1084.811 16137.251 6516834
-4689.5083 -1084.7507 16136.354 4543297
-3671.1355 -866.92145 12896.006 2502689
-3260.9243 -786.47729 11699.348 329988
-2779.4324 -684.96027 10189.218 1280
-2640.0784 -665.11414 9893.9941 256
-2555.9421 -658.59149 9796.9658 0
-2421.135 -638.40381 9496.6611 65792
-2289.3423 -618.06598 9194.123 0
-2189.0422 -605.4433 9006.3525 65536
-2007.9906 -569.29352 8468.6016 65536
-1886.3634 -548.56519 8160.2544 196608
-1739.6899 -519.2666 7724.4194 65536
-1718.5168 -526.85455 7837.2949 196608
-1671.9219 -526.85455 7837.2949 196608
-1618.1857 -524.53967 7802.8594 196608
-1526.6572 -509.47607 7578.7793 196608
-1363.0592 -468.71381 6972.415 196864
-1320.8435 -468.44333 6968.3916 65536
-1271.1409 -465.41409 6923.3291 262656
0 0 0 0
0 0 0 0
-870.49835 -353.01663 5251.3457 327680
0 0 0 0
0 0 0 0
0 0 0 0
0 0 0 0
0 0 0 0
0 0 0 0
0 0 0 0
0 0 0 0
0 0 0 0
0 0 0 0
0 0 0 0
0 0 0 0
0 0 0 0
0 0 0 0
-235.9281 -207.08376 3080.502 4465962
-220.42969 -209.76352 3120.3652 5252396
-203.34673 -211.28937 3143.063 3148303
-185.99611 -212.81773 3165.7986 6242630
-165.97397 -211.28937 3143.063 589824
0 0 0 0
0 0 0 0
0 0 0 0
-136.66498 -316.52255 4708.4736 458752
-110.71531 -322.47461 4797.0142 524288
-92.240753 -361.88382 5383.251 458752
-60.353256 -362.58926 5393.7451 458752
-28.94768 -371.0719 5519.9297 524545
3.9228611 -376.1561 5595.5601 524288
38.313854 -387.52301 5764.6504 458752
77.544373 -413.9931 6158.4097 589825
114.1584 -413.99515 6158.4399 655618
144.62657 -397.12073 5907.4219 655618
189.84357 -419.42542 6239.2183 590082
221.25241 -408.91833 6082.9194 721154
258.52875 -410.68433 6109.189 721154
294.84958 -410.68433 6109.189 655618
322.93274 -400.46875 5957.2261 655361
343.13049 -383.46033 5704.2153 655360
377.04364 -383.46033 5704.2153 655360
433.2439 -404.25623 6013.5674 589824
443.28384 -382.09317 5683.8779 589824
476.20712 -381.39722 5673.5254 524288
503.7493 -376.76865 5604.6724 524288
513.57434 -360.28537 5359.4731 524288
569.41937 -376.12619 5595.1152 524288
602.6839 -376.12619 5595.1152 458752
635.94843 -376.12619 5595.1152 524288
657.20953 -369.37976 5494.7578 589824
702.60645 -376.19528 5596.1431 524288
711.20569 -363.58276 5408.5239 589824
725.44354 -354.81924 5278.1611 458752
748.83026 -351.07175 5222.4146 327680
712.93164 -320.9346 4774.1055 196609
748.91028 -324.22281 4823.0195 196866
728.80554 -303.88388 4520.4648 196609
726.57538 -292.17957 4346.356 262146
710.6626 -275.96594 4105.168 328197
0 0 0 0
0 0 0 0
0 0 0 0
0 0 0 0
0 0 0 0
0 0 0 0
0 0 0 0
0 0 0 0
0 0 0 0
0 0 0 0
0 0 0 0
0 0 0 0
2449.6133 -657.63202 9782.6934 262913
2550.8174 -668.91956 9950.6025 0
2793.2148 -715.88232 10649.203 131585
2794.8577 -700.42719 10419.298 131328
2799.2856 -686.32501 10209.52 65536
2859.9839 -686.32501 10209.52 197120
2964.2964 -696.57379 10361.977 328706
2948.4077 -678.7345 10096.605 328961
2974.5496 -671.0896 9982.8828 263170
3033.9006 -671.0896 9982.8828 65792
3301.3977 -716.2475 10654.636 65793
3303.3486 -703.17865 10460.229 197122
3355.2134 -701.02161 10428.141 394755
3392.6973 -695.99261 10353.331 460290
3388.3899 -682.72235 10155.928 526083
3180.1379 -629.54376 9364.8623 723464
3070.4387 -597.36908 8886.2432 921100
3123.2698 -597.36908 8886.2432 986895
3060.0344 -575.53888 8561.5059 1052431
3064.4375 -566.93671 8433.542 920589
3124.3479 -568.71515 8459.998 788489
3220.7063 -576.9668 8582.7461 854538
3213.7878 -566.74817 8430.7383 722181
3331.0039 -578.39825 8604.04 1115912
3328.3579 -569.19775 8467.1768 1379341
3202.428 -539.5022 8025.4365 1445388
3250.1414 -539.5022 8025.4365 1773840
3180.3337 -520.27667 7739.4453 1707792
3226.3469 -520.27667 7739.4453 1511951
3111.175 -494.64972 7358.2275 1446672
0 0 0 0
4099.291 -633.92407 9430.0225 1776919
6866.8237 -1047.5747 15583.338 790280
6961.1934 -1047.834 15587.194 856074
7053.8633 -1047.834 15587.194 395522
7397.4185 -1084.6189 16134.395 66304
7493.0459 -1084.5762 16133.758 1776920
7588.5703 -1084.5197 16132.917 263937
7684.4849 -1084.5197 16132.917 527108
7779.9785 -1084.4609 16132.044 132097
7876.979 -1084.6112 16134.278 263939
7975.4585 -1084.959 16139.453 264196
8070.1299 -1084.7866 16136.889 988432
8164.6665 -1084.6003 16134.118 790284
8260.332 -1084.5669 16133.618 263426
8355.9268 -1084.5248 16132.992 592648
8451.8418 -1084.5248 16132.992 526855
8550.3086 -1084.8484 16137.808 1118992
8644.8662 -1084.6746 16135.22 592648
8740.7109 -1084.6642 16135.066 592393
8836.0898 -1084.5968 16134.064 0
8931.8662 -1084.5793 16133.804 526855
9027.4648 -1084.5406 16133.229 263427
9123.3818 -1084.5406 16133.229 395269
9219.6855 -1084.5863 16133.907 1024
9316.8945 -1084.7363 16136.139 330504
9415.1484 -1085.0037 16140.116 1777950
9511.1064 -1085.0037 16140.116 725262
9607.0635 -1085.0037 16140.116 726545
9702.0957 -1084.9001 16138.576 1055001
9798.2842 -1084.9268 16138.974 7633534
9894.2354 -1084.9268 16138.974 7172216
9990.4902 -1084.9598 16139.465 3092793
10086.229 -1084.9368 16139.121 3026482
10182.181 -1084.9368 16139.121 2960433
10278.938 -1085.0216 16140.385 657679
10375.457 -1085.0803 16141.258 5
10472.311 -1085.1725 16142.628 5
10568.85 -1085.2307 16143.494 260
10661.566 -1084.8988 16138.558 3
10759.909 -1085.1403 16142.149 6186603
10855.878 -1085.1403 16142.149 5461596
10950.939 -1085.0503 16140.811 3093044
11046.284 -1084.9897 16139.909 1119765
11142.863 -1085.0503 16140.811 2107683
11238.729 -1085.041 16140.674 1318931
11334.021 -1084.9771 16139.721 1384978
11429.817 -1084.9619 16139.496 1385232
11523.329 -1084.7322 16136.078 1056268
11619.084 -1084.7155 16135.83 727303
11714.897 -1084.7045 16135.666 463874
11811.561 -1084.7717 16136.667 398082
11920.895 -1085.9922 16154.821 397571
12016.939 -1085.9922 16154.821 463107
12038 -1079.2695 16054.817 331778
12220.78 -1087.0374 16170.37 265985
12330.82 -1088.2644 16188.622 265986
12424.541 -1088.0433 16185.334 331524
12497.381 -1086.0111 16155.103 463623
12578.224 -1084.6998 16135.598 661261
12676.352 -1084.8879 16138.396 1912355
12773.362 -1084.9783 16139.739 3951428
12869.884 -1085.0261 16140.45 4608846
12966.847 -1085.1101 16141.699 197636
13062.818 -1085.1104 16141.704 199434
13159.524 -1085.1714 16142.611 792342
13255.494 -1085.1711 16142.608 1121049
13348.509 -1084.9307 16139.031 1713700
0 0 0 0
0 0 0 0
0 0 0 0
0 0 0 0
0 0 0 0
0 0 0 0
14017.116 -1084.6947 16135.521 2895672
13652.073 -1049.2655 15608.488 5265242
13744.87 -1049.2655 15608.488 10726062
14229.007 -1078.9396 16049.909 13094095
14324.429 -1078.9396 16049.909 13422543
14419.851 -1078.9396 16049.909 13751249
14592.742 -1084.698 16135.57 11842488
14690.994 -1084.8694 16138.12 9144980
14786.938 -1084.8694 16138.12 2499884
14883.058 -1084.8821 16138.308 2107178
14979.151 -1084.8927 16138.466 2566958
15075.611 -1084.9297 16139.016 1515810
15171.562 -1084.9297 16139.016 923671
15267.091 -1084.8997 16138.569 2634032
0 0 0 0
0 0 0 0
0 0 0 0
0 0 0 0
0 0 0 0
0 0 0 0
0 0 0 0
0 0 0 0
-9687.1504 -657.39624 10727.964 2105885
-9623.3691 -657.39624 10727.964 2040092
-9543.2832 -656.27496 10709.666 2040093
-9395.668 -650.4635 10614.83 1645336
-9364.7178 -652.70483 10651.406 1447957
-9361.4297 -656.91791 10720.158 1316371
-9374.5391 -662.34717 10808.758 1316371
-9314.375 -662.63861 10813.514 1053199
-9301.168 -666.29797 10873.23 1184785
-9464.9326 -682.77478 11142.113 1118992
-9398.6895 -682.77478 11142.113 1053199
-9332.4473 -682.77478 11142.113 987406
-9701.4795 -714.84784 11665.51 526855
-9334.4365 -692.75494 11304.979 329735
-9625.4238 -719.53137 11741.939 197892
-9613.667 -723.90259 11813.273 256
-9765.791 -740.76923 12088.518 66306
-9502.4033 -726.13428 11849.691 131843
-9730.4199 -749.11212 12224.664 256
-9685.208 -751.24274 12259.433 256
-9596.3721 -749.99609 12239.089 256
-9466.2197 -745.47681 12165.339 256
-9376.5508 -744.10046 12142.879 256
-9256.0127 -740.23413 12079.785 0
-9301.6582 -749.70148 12234.281 256
-9591.749 -779.17542 12715.263 256
-9710.6807 -795.10315 12975.185 256
-9652.6279 -796.67853 13000.895 256
-9575.334 -796.67853 13000.895 256
-9075.207 -761.2121 12422.122 256
-9187.459 -776.95032 12678.952 256
-9112.0791 -776.95032 12678.952 256
-8984.0312 -772.42212 12605.057 256
-8823.7832 -765.02594 12484.359 256
-8604.1318 -752.31024 12276.854 256
-8381.5352 -739.11731 12061.56 256
-8471.6738 -753.51282 12296.479 256
-8454.6289 -758.54254 12378.558 256
-8381.0342 -758.54254 12378.558 256
-8316.6738 -759.38562 12392.315 256
-8253.9395 -760.39368 12408.766 256
-8169.3223 -759.38562 12392.315 256
-8106.3931 -760.39368 12408.766 256
-8058.271 -762.82196 12448.393 256
-8091.6562 -773.0824 12615.832 256
-7821.7983 -754.29187 12309.191 256
-7715.6338 -751.08112 12256.795 256
-7725.3521 -759.19733 12389.243 256
-7796.1045 -773.52563 12623.064 256
-7611.2441 -762.52417 12443.533 256
-7368.8984 -745.49115 12165.573 256
-7129.4751 -728.41895 11886.975 256
-7031.0542 -725.55542 11840.245 256
-6960.6611 -725.55542 11840.245 256
-6834.0425 -719.63483 11743.628 256
-6764.2231 -719.63483 11743.628 256
-6740.4531 -724.58502 11824.409 256
-6682.8486 -725.96411 11846.914 256
-6632.4336 -728.16187 11882.779 256
-6544.6567 -726.26086 11851.757 256
-6456.6973 -724.29803 11819.726 256
-6400.0552 -725.84375 11844.95 256
-6329.6333 -725.84375 11844.95 256
-6245.8984 -724.29987 11819.756 256
-6111.3369 -716.75977 11696.71 256
-6043.2485 -716.93201 11699.521 256
-5973.6919 -716.93201 11699.521 256
-5892.3267 -715.49817 11676.122 256
-5782.688 -710.55591 11595.471 256
-5624.3203 -699.43457 11413.982 256
-5556.4609 -699.43457 11413.982 256
-5598.6572 -713.45941 11642.852 256
-5514.7036 -711.55835 11611.829 256
-5384.0723 -703.50989 11480.487 256
-5603.8223 -741.62531 12102.487 256
-5534.2227 -741.94073 12107.635 256
-5492.5488 -746.05768 12174.818 256
-5496.627 -756.58209 12346.565 256
-5521.0947 -770.23596 12569.381 256
-5509.0518 -779.10107 12714.05 256
-5454.8472 -782.1673 12764.087 256
-5403.1768 -785.68848 12821.55 256
-5411.6963 -798.18817 13025.53 256
-5334.2559 -798.18817 13025.53 256
-5273.4766 -800.71796 13066.813 256
-5346.0815 -823.87909 13444.777 256
-5266.1484 -823.87909 13444.777 0
-5234.7974 -831.5968 13570.721 257
-5447.9014 -878.99799 14344.255 258
0 0 0 0
0 0 0 0
0 0 0 0
-5744.8784 -988.83002 16136.59 4741455
-5649.0063 -988.84125 16136.773 8885644
-3432.7097 -611.2666 9975.1807 3424303
-3793.0698 -687.31067 11216.134 198148
-4183.7456 -771.66785 12592.748 791825
-4718.395 -886.13818 14460.774 1974304
-5169.5811 -988.8916 16137.595 9609889
-5074.0615 -988.97412 16138.94 11518914
-4977.9956 -988.95117 16138.566 7110779
-4881.8369 -988.90851 16137.87 6650225
-4785.627 -988.85364 16136.974 4082494
-4689.3071 -988.77325 16135.663 3292718
-3330.4802 -716.92145 11699.348 133120
-2796.293 -614.77118 10032.371 256
-2496.0393 -560.71997 9150.3164 256
-2441.6379 -560.71997 9150.3164 0
-2493.4575 -585.66931 9557.4619 65792
-2436.6357 -585.66931 9557.4619 65536
-2340.3298 -575.95233 9398.8916 65536
-2189.0422 -551.89801 9006.3525 131072
-2039.7269 -527.14722 8602.4473 65536
-1926.6926 -510.74088 8334.7148 65536
-1664.5509 -452.89859 7390.7935 526342
-1752.8792 -489.86255 7994.0039 65536
-1664.5758 -478.14948 7802.8594 65536
-1618.1857 -478.14948 7802.8594 65536
-1546.1342 -470.34314 7675.4688 65536
-1363.0592 -427.26086 6972.415 65536
-1320.8435 -427.01431 6968.3916 65536
-1271.1409 -424.25296 6923.3291 197120
0 0 0 0
0 0 0 0
-870.49835 -321.7959 5251.3457 1245952
0 0 0 0
0 0 0 0
0 0 0 0
0 0 0 0
0 0 0 0
0 0 0 0
0 0 0 0
0 0 0 0
0 0 0 0
0 0 0 0
0 0 0 0
0 0 0 0
0 0 0 0
-235.36078 -174.75003 2851.7231 8145232
-235.9281 -188.76932 3080.502 7420225
-220.42969 -191.21208 3120.3652 6958388
-203.34673 -192.60297 3143.063 7090233
-184.90759 -192.86086 3147.2715 7354433
-165.10042 -191.58929 3126.5208 7224903
0 0 0 0
0 0 0 0
0 0 0 0
-136.66498 -288.52939 4708.4736 1050630
-110.71531 -293.95502 4797.0142 853251
-88.372391 -316.04453 5157.4897 590337
-62.10302 -340.10446 5550.1206 459009
-29.852322 -348.82516 5692.4326 327680
4.0833912 -356.92053 5824.54 393216
39.726624 -366.27618 5977.2134 458752
78.760681 -383.29895 6255.0059 458752
117.93991 -389.88235 6362.4395 458752
155.92 -390.26685 6368.7139 393216
193.59286 -389.88235 6362.4395 393216
231.84691 -390.60269 6374.1948 393216
271.81927 -393.60886 6423.2524 393216
305.55615 -387.95734 6331.0259 458752
322.93274 -365.05136 5957.2261 458752
351.2403 -357.80862 5839.0327 458752
388.50217 -360.17007 5877.5688 589824
455.84027 -387.72369 6327.2129 524288
493.45865 -387.72473 6327.23 589824
532.34833 -388.65375 6342.3906 655361
570.0556 -388.65375 6342.3906 589824
607.76288 -388.65375 6342.3906 524288
649.99628 -391.37906 6386.8647 524288
654.49921 -372.33896 6076.1514 589824
686.2876 -370.00125 6038.0029 589824
705.74994 -361.5809 5900.5923 589824
724.54724 -353.63336 5770.8975 524288
711.20569 -331.42758 5408.5239 458752
710.71478 -316.87231 5170.9985 458752
748.83026 -320.02304 5222.4146 262144
746.70801 -306.41135 5000.2871 327681
776.4361 -306.41135 5000.2871 262144
794.36395 -301.92624 4927.0952 262144
818.92139 -300.19037 4898.7676 262144
752.41565 -266.33926 4346.356 262144
0 0 0 0
0 0 0 0
0 0 0 0
0 0 0 0
0 0 0 0
0 0 0 0
0 0 0 0
0 0 0 0
0 0 0 0
0 0 0 0
0 0 0 0
0 0 0 0
2432.3494 -595.24634 9713.748 263170
2550.8174 -609.7605 9950.6025 1118479
2747.9448 -641.99359 10476.61 263171
2810.2312 -641.99359 10476.61 0
2872.5176 -641.99359 10476.61 0
3080.8318 -673.9375 10997.898 1381650
3111.3706 -666.47308 10876.088 131584
3055.4211 -641.16357 10463.065 198145
2982.1362 -613.29883 10008.345 1251592
3234.6492 -652.21637 10643.435 2503188
3358.4011 -664.17603 10838.603 3359512
3357.0977 -651.41925 10630.427 2766861
3420.2981 -651.41925 10630.427 3226900
3527.5562 -659.65802 10764.874 725248
3732.7793 -685.59631 11188.157 1975055
3298.3721 -595.20276 9713.0371 2961438
3080.5769 -546.33582 8915.584 1711120
3157.7197 -550.54413 8984.2588 0
3092.9578 -530.28302 8653.6201 0
3074.0505 -518.41809 8459.998 0
3036.3154 -503.811 8221.627 3750457
3085.1951 -503.811 8221.627 3815736
3134.075 -503.811 8221.627 196608
3329.8381 -527.0603 8601.0293 524289
3344.9885 -521.45056 8509.4844 1313548
3202.428 -491.78873 8025.4365 1379339
3215.4507 -486.53955 7939.7764 1576204
3156.4968 -470.70892 7681.4375 1576205
3147.5557 -462.68143 7550.4385 1446159
2948.1345 -427.2735 6972.6211 2368030
0 0 0 0
3745.9661 -528.05322 8617.2324 790536
7110.2578 -988.78033 16135.778 724744
7206.6719 -988.8465 16136.858 856073
7240.4209 -980.42542 15999.437 264706
7397.5894 -988.71838 16134.768 1449491
7493.5151 -988.71838 16134.768 1646102
7589.1768 -988.68402 16134.206 1185550
7684.458 -988.6015 16132.86 659465
7779.9785 -988.55151 16132.044 921868
7877.0435 -988.69653 16134.411 197635
7972.9673 -988.69653 16134.411 256
8068.8911 -988.69653 16134.411 256
8164.4536 -988.65289 16133.698 790027
8260.0498 -988.61414 16133.066 461062
8213.1006 -971.71143 15857.233 132097
8307.375 -971.71143 15857.233 197890
8550.3086 -988.90472 16137.808 263683
8645.2109 -988.78564 16135.865 66049
8741.1436 -988.78564 16135.865 0
8836.2021 -988.68787 16134.27 66048
8931.8662 -988.6593 16133.804 256
9027.8438 -988.66571 16133.907 263427
9123.3818 -988.62415 16133.229 395013
9219.6855 -988.66571 16133.907 198658
9316.8945 -988.80243 16136.139 1185553
9414.6709 -988.99591 16139.297 658952
9511.1045 -989.04602 16140.113 396549
9606.5146 -988.98962 16139.193 463114
9701.2373 -988.86432 16137.148 1712925
9797.1768 -988.86432 16137.148 9146767
9893.8398 -988.93665 16138.329 3554365
9990.4893 -989.00616 16139.464 12963535
10086.443 -989.00616 16139.464 13291474
10182.181 -988.98517 16139.121 9212566
10278.133 -988.98517 16139.121 3157555
10375.457 -989.11615 16141.258 5
10471.876 -989.159 16141.958 4
10568.259 -989.19781 16142.591 260
10663.812 -989.159 16141.958 1516324
10758.127 -989.00702 16139.477 12372169
10854.469 -989.0423 16140.054 10265509
10950.338 -989.03442 16139.924 10003875
11045.98 -989.00635 16139.466 6187619
11141.858 -988.99957 16139.355 3095088
11237.812 -988.99957 16139.355 529158
11333.16 -988.94678 16138.495 397572
11427.815 -988.83502 16136.671 463876
11523.329 -988.79871 16136.078 397827
11618.994 -988.77588 16135.705 397828
11714.807 -988.76575 16135.541 68352
11829.72 -990.35498 16161.475 1792
11906.667 -988.76575 16135.541 2048
11861.881 -977.17365 15946.371 2048
11931.85 -975.1438 15913.246 1536
12218.025 -990.67676 16166.726 133890
12330.82 -992.01855 16188.622 68354
12410.257 -990.67676 16166.726 2048
12451.598 -986.33783 16095.919 68098
12578.105 -988.76007 16135.447 594954
12676.352 -988.94073 16138.396 792592
12772.999 -988.99493 16139.28 134151
12869.457 -989.03375 16139.914 2635056
12965.844 -989.06665 16140.45 3423032
13061.731 -989.06116 16140.361 133640
13158.785 -989.14355 16141.705 1796
13252.913 -989.00623 16139.465 68619
0 0 0 0
0 0 0 0
0 0 0 0
0 0 0 0
0 0 0 0
13825.256 -988.76453 16135.521 462861
13921.312 -988.77356 16135.667 528654
14017.242 -988.77356 16135.667 660751
13652.073 -956.46869 15608.488 2897973
13744.87 -956.46869 15608.488 1450785
14229.007 -983.51837 16049.909 1119253
14324.429 -983.51837 16049.909 1513754
14491.744 -988.42206 16129.931 922131
14595.001 -988.92072 16138.069 658704
14690.994 -988.92383 16138.12 1053977
14787.111 -988.9353 16138.308 593680
14883.471 -988.96277 16138.756 330508
14979.42 -988.96277 16138.756 330505
15075.611 -988.97876 16139.016 396298
15171.562 -988.97876 16139.016 331532
15264.47 -988.78143 16135.797 857875
0 0 0 0
0 0 0 0
0 0 0 0
0 0 0 0
0 0 0 0
0 0 0 0
0 0 0 0
0 0 0 0
-9571.9404 -586.5556 10600.376 2237727
-9606.6455 -592.58386 10709.32 2040092
-9542.9756 -592.58386 10709.32 2105887
-9464.5439 -591.66107 10692.643 2237473
-8908.3496 -560.65729 10132.335 2237473
-9329.6611 -591.17053 10683.778 1382164
-9374.5391 -598.08606 10808.758 461062
-9314.375 -598.34924 10813.514 461062
-9250.085 -598.34924 10813.514 1184784
-9688.7686 -631.11212 11405.612 1184785
-9398.6895 -616.5318 11142.113 1053199
-9332.4473 -616.5318 11142.113 855820
-9193.4121 -611.68854 11054.585 921869
-9111.6172 -610.61151 11035.12 658441
-9267.2266 -625.5437 11304.979 256
-9742.5361 -662.43176 11971.628 256
-9671.3613 -662.43176 11971.628 512
-9462.54 -652.9339 11799.98 132097
-9589.6475 -666.64697 12047.807 256
-9685.208 -678.35693 12259.433 256
-9538.5469 -673.15045 12165.339 256
-9448.7432 -671.90765 12142.879 256
-9376.5508 -671.90765 12142.879 256
-8581.624 -619.716 11199.658 0
-9237.2842 -672.28021 12149.612 256
-9715.0713 -712.62561 12878.743 256
-9733.79 -719.67065 13006.063 256
-9652.6279 -719.38464 13000.895 256
-9570.2676 -719.00403 12994.017 256
-8991.6006 -681.02673 12307.682 256
-8975.5674 -685.39001 12386.536 256
-8901.9258 -685.39001 12386.536 256
-8775.2344 -681.27142 12312.104 256
-8693.5625 -680.60815 12300.116 256
-8452.4473 -667.34497 12060.421 256
-8296.0645 -660.60205 11938.562 256
-8309.041 -667.34497 12060.421 256
-8281.2607 -670.90326 12124.728 256
-8325.4619 -680.40686 12296.479 256
-8370.7852 -690.17139 12472.945 256
-8290.8389 -689.68964 12464.239 256
-8169.3223 -685.70984 12392.315 256
-8050.9302 -681.92236 12323.867 256
-7977.6611 -681.92236 12323.867 256
-8064.501 -695.73517 12573.495 256
-7821.7983 -681.11029 12309.191 256
-7708.3335 -677.5694 12245.199 256
-7723.3052 -685.35822 12385.961 256
-7771.2241 -696.2489 12582.78 256
-7611.3989 -688.55786 12443.786 256
-7368.8984 -673.16339 12165.573 256
-7129.4751 -657.74756 11886.975 256
-7045.126 -656.47308 11863.941 256
-6976.9712 -656.69708 11867.99 256
-6845.5249 -650.90753 11763.359 256
-6775.5884 -650.90753 11763.359 256
-6753.2817 -655.53088 11846.914 256
-6689.373 -656.17084 11858.479 256
-6631.6704 -657.43976 11881.411 256
-6518.6743 -653.19537 11804.706 256
-6420.4727 -650.35718 11753.413 256
-6350.5952 -650.35718 11753.413 256
-6245.8179 -646.74329 11688.103 256
-6168.374 -645.91034 11673.049 256
-6111.3369 -647.2196 11696.71 256
-6052.3804 -648.35333 11717.199 256
-5983.7207 -648.46191 11719.162 256
-5913.0566 -648.35333 11717.199 256
-5819.917 -645.74835 11670.122 256
-5663.9399 -636.02435 11494.387 256
-5670.8022 -644.5719 11648.86 256
-5623.4683 -647.09442 11694.448 256
-5529.437 -644.23944 11642.852 256
-5360.2549 -632.44507 11429.701 256
-5601.1436 -669.35248 12096.701 256
-5534.2227 -669.95746 12107.635 256
-5492.5488 -673.67493 12174.818 256
-5499.1484 -683.4917 12352.229 256
-5521.0947 -695.50751 12569.381 256
-5530.7329 -706.28125 12764.087 256
-6032.271 -781.0448 14115.232 256
-6509.2578 -854.69415 15446.241 256
-6417.4258 -854.69415 15446.241 256
-5965.2183 -806.0014 14566.254 256
-5491.0762 -752.86664 13605.989 256
-5410.1846 -752.86664 13605.989 256
-4666.6172 -659.25067 11914.14 256
-4595.7847 -659.25067 11914.14 0
-4524.9512 -659.25067 11914.14 2
0 0 0 0
0 0 0 0
0 0 0 0
-5744.8784 -892.89355 16136.59 6517095
-5318.9937 -840.74066 15194.07 2701093
-3859.7527 -620.62762 11216.134 6187359
-3936.7847 -644.14246 11641.1 462599
-4166.4331 -693.91711 12540.639 397322
-4698.9717 -796.87091 14401.246 2304549
-5169.8931 -893.00311 16138.569 11058104
-5074.0615 -893.02362 16138.94 11847875
-4977.0776 -892.83813 16135.589 7505789
-4881.1465 -892.83813 16135.589 1847073
-4589.3022 -856.28406 15474.974 5135431
-3837.5627 -730.67041 13204.854 3819827
0 0 0 0
-2305.073 -457.60794 8270.002 768
-2255.9055 -457.60794 8270.002 256
-2572.0181 -533.35553 9638.9307 65792
-2514.7119 -533.35553 9638.9307 0
-2404.7017 -521.9165 9432.2031 0
-2319.1636 -515.36969 9313.8867 0
-2215.9214 -504.47202 9116.9414 196608
-2041.1194 -476.32828 8608.3203 65536
-1988.5829 -476.00327 8602.4473 0
-1874.6914 -460.58704 8323.8408 131585
-1967.2531 -496.43289 8971.6562 65536
-1705.3525 -442.336 7994.0039 65536
-1618.1857 -431.75931 7802.8594 65536
-1546.1342 -424.71033 7675.4688 65536
-1363.0592 -385.80792 6972.415 131072
-1321.6062 -385.80792 6972.415 65536
-1280.1532 -385.80792 6972.415 327680
-1134.2789 -353.28464 6384.6465 1443328
-1096.3204 -353.28464 6384.6465 6831620
-1012.8499 -338.09259 6110.0918 6239232
0 0 0 0
0 0 0 0
0 0 0 0
0 0 0 0
0 0 0 0
0 0 0 0
0 0 0 0
0 0 0 0
0 0 0 0
0 0 0 0
0 0 0 0
0 0 0 0
0 0 0 0
-235.36078 -157.79575 2851.7231 7092033
-234.15924 -169.1769 3057.406 7222332
-219.57251 -171.98921 3108.231 7155512
-203.619 -174.14946 3147.2715 7221561
-184.90759 -174.14946 3147.2715 7024953
-165.10042 -173.00125 3126.5208 6763324
0 0 0 0
0 0 0 0
-161.21251 -255.08417 4609.9434 2102806
-140.45499 -267.76141 4839.0493 327680
-114.67863 -274.93735 4968.7349 1313545
-89.444527 -288.84409 5220.0605 524544
-60.838783 -300.85562 5437.1362 1116675
-29.106007 -307.10745 5550.1206 2103313
3.9389346 -310.89038 5618.4868 458752
39.470734 -328.60962 5938.7129 787204
78.760681 -346.11118 6255.0059 1115912
118.05623 -352.40305 6368.7139 524288
156.05418 -352.70633 6374.1948 458752
196.22322 -356.83926 6448.8862 919046
253.97462 -386.36899 6982.5547 1313546
294.54486 -385.13596 6960.271 525058
317.08453 -363.53479 6569.8896 1379339
327.22458 -334.01492 6036.3994 458752
354.09232 -325.71744 5886.4448 327680
398.52405 -333.61588 6029.1875 393216
471.19354 -361.89865 6540.3208 524288
524.3681 -372.03775 6723.5571 458752
557.20117 -367.33054 6638.4868 393216
596.66876 -367.33054 6638.4868 393216
634.82794 -366.57492 6624.8315 393216
654.27698 -355.7348 6428.9263 458752
687.96802 -353.40741 6386.8647 458752
690.6236 -336.21454 6076.1514 458752
722.18524 -334.10367 6038.0029 458752
757.16931 -333.70105 6030.7271 458752
701.74255 -295.29037 5336.5596 393216
717.78156 -288.9743 5222.4146 393216
769.58746 -296.98456 5367.1772 262144
801.49683 -296.98456 5367.1772 262144
847.28082 -301.9288 5456.5308 262144
934.26434 -320.64844 5794.8369 262144
999.49249 -330.83548 5978.9395 262144
1035.0389 -330.83548 5978.9395 262144
981.48224 -303.30054 5481.3213 262144
0 0 0 0
0 0 0 0
0 0 0 0
0 0 0 0
0 0 0 0
0 0 0 0
0 0 0 0
0 0 0 0
0 0 0 0
0 0 0 0
0 0 0 0
2431.8157 -537.3775 9711.6172 592132
2502.0103 -540.06622 9760.208 658183
2647.8323 -558.58746 10094.929 197378
2707.8494 -558.58746 10094.929 460549
2872.5176 -579.70721 10476.61 789514
3080.8318 -608.55188 10997.898 65792
3111.3706 -601.81171 10876.088 263169
3176.032 -601.81171 10876.088 592646
3198.7271 -594.01837 10735.244 1250573
3263.5178 -594.1944 10738.426 2040846
3509.8208 -626.77777 11327.28 1975815
3577.1643 -626.77777 11327.28 3818518
3975.5828 -683.71552 12356.273 3752725
3765.7939 -635.88629 11491.893 132352
3834.1167 -635.88629 11491.893 1448966
3385.3672 -551.63153 9969.2197 2237709
3081.4709 -493.47342 8918.1719 5198652
3190.3843 -502.27271 9077.1953 0
3244.3511 -502.27271 9077.1953 256
3298.3174 -502.27271 9077.1953 0
3104.5798 -465.15927 8406.4717 6909288
3154.5588 -465.15927 8406.4717 2434077
3204.5378 -465.15927 8406.4717 854276
3329.8381 -475.92484 8601.0293 393216
3345.9734 -470.99796 8511.9902 1181961
3230.3279 -447.94412 8095.3555 1444875
3219.9338 -439.94794 7950.8467 1379851
3102.666 -417.79199 7550.4385 1445387
3067.4282 -407.15625 7358.2275 5724246
2875.7524 -376.34677 6801.4307 1907735
0 0 0 0
4886.5752 -622.00873 11241.094 1250831
6388.9819 -802.27667 14498.94 659207
7206.1621 -892.84528 16135.718 1251599
7299.0664 -892.47516 16129.029 1909272
7335.5415 -885.30432 15999.437 132096
7493.0459 -892.73688 16133.758 66816
7588.1592 -892.64203 16132.044 395266
7666.2612 -890.57324 16094.657 132097
7761.9482 -890.57324 16094.657 0
7876.9194 -892.75885 16134.156 256
7972.8413 -892.75885 16134.156 256
8068.7446 -892.75671 16134.118 256
8122.1191 -888.10449 16050.041 256
8115.3813 -877.06372 15850.509 0
8102.2656 -865.59497 15643.243 256
8187.1655 -864.73907 15627.775 256
8427.126 -880.09625 15905.314 256
8644.7061 -892.80127 16134.922 512
8740.6318 -892.80127 16134.922 0
8836.0898 -892.75378 16134.064 921613
8932.0107 -892.75378 16134.064 66305
9027.9326 -892.75378 16134.064 66304
9124.165 -892.78424 16134.615 131841
9219.2539 -892.70331 16133.152 131842
9316.8945 -892.86859 16136.139 132611
9412.9883 -892.88373 16136.413 198660
9510.1191 -892.99597 16138.441 66818
9604.8594 -892.88373 16136.413 792080
9700.4863 -892.85541 16135.9 331531
9796.3408 -892.84833 16135.772 5332572
0 0 0 0
0 0 0 0
10085.254 -892.94727 16137.562 5398628
10181.331 -892.95905 16137.774 11977926
10278.351 -893.05261 16139.465 4079170
10377.763 -893.35034 16144.845 2
10474.914 -893.44977 16146.642 260
10569.369 -893.31952 16144.288 514
10664.167 -893.22028 16142.494 198150
10758.127 -893.05328 16139.477 1515033
10854.081 -893.05328 16139.477 792078
10950.034 -893.05328 16139.477 1646874
11045.463 -893.0108 16138.709 791565
11141.006 -892.97821 16138.12 1055762
11237.212 -892.9989 16138.495 331525
11331.903 -892.89996 16136.706 134145
11427.396 -892.86523 16136.078 199425
11523.302 -892.8631 16136.039 2048
11618.644 -892.81757 16135.218 1024
11714.572 -892.81757 16135.218 512
11496.808 -869.10394 15706.658 768
11579.623 -868.31171 15692.341 512
11672.918 -868.31171 15692.341 512
11766.214 -868.31171 15692.341 1280
12026.458 -880.5351 15913.246 67585
12260.208 -890.64313 16095.919 1280
12355.903 -890.64313 16095.919 1280
12411.528 -887.77704 16044.122 68353
12578.105 -892.83032 16135.447 397320
12677.047 -893.04242 16139.28 397320
12772.999 -893.04242 16139.28 67845
12868.952 -893.04242 16139.28 1281
12964.693 -893.02789 16139.018 770
13061.369 -893.07751 16139.914 1796
13158.785 -893.17664 16141.705 1796
13252.913 -893.05261 16139.465 199689
13347.756 -892.97827 16138.122 988948
13442.785 -892.91748 16137.021 68362
13539.274 -892.95367 16137.677 397324
13636.324 -893.02625 16138.987 265738
13742.161 -893.66913 16150.606 331275
13839.721 -893.76855 16152.403 331275
13935.41 -893.74664 16152.007 199176
14020.685 -893.06171 16139.629 67589
14115.711 -893.00299 16138.568 265482
14211.265 -892.97821 16138.12 528655
14307.211 -892.97821 16138.12 726034
14403.156 -892.97821 16138.12 857364
14499.057 -892.9754 16138.069 594448
14595.048 -892.97821 16138.12 396300
14693.597 -893.13647 16140.98 198921
14789.561 -893.13647 16140.981 198664
14896.763 -893.81104 16153.17 1540
14992.799 -893.81104 16153.17 1539
15075.611 -893.02783 16139.016 132613
15171.986 -893.05273 16139.466 133126
15264.893 -892.87445 16136.245 462347
14490.561 -842.2887 15222.047 463115
0 0 0 0
0 0 0 0
0 0 0 0
0 0 0 0
0 0 0 0
0 0 0 0
0 0 0 0
-9464.1299 -517.63678 10480.981 2369058
-9418.6846 -518.56543 10499.785 3158574
-9528.1143 -528.09033 10692.643 2369057
-9464.5439 -528.09033 10692.643 2303264
-8830.2871 -496.03259 10043.546 2303266
-8770.5752 -496.03259 10043.546 921613
-9214.4736 -524.71027 10624.204 0
-9314.375 -534.05988 10813.514 66049
-9259.7363 -534.61713 10824.796 1382164
-9688.7686 -563.30255 11405.612 1382164
-9290.3721 -543.9469 11013.703 1711129
-9259.1338 -545.96594 11054.585 1447957
-9100.3115 -540.43707 10942.638 1250578
-9111.6172 -545.00464 11035.12 658441
-9267.2266 -558.33246 11304.979 0
-9742.5361 -591.25708 11971.628 256
-9265.4785 -566.44348 11469.209 256
-9214.6074 -567.51001 11490.803 256
-9182.6377 -569.76526 11536.467 256
-9610.8721 -600.8241 12165.339 256
-9538.5469 -600.8241 12165.339 256
-9161.1318 -581.46002 11773.26 256
-9111.0889 -582.73621 11799.1 256
-8581.624 -553.13092 11199.658 0
-9234.4033 -599.86029 12145.823 256
-9417.3838 -616.56793 12484.115 256
-9733.79 -642.34601 13006.063 256
-9652.6279 -642.0907 13000.895 256
-9469.7607 -635.01135 12857.554 256
-8908.1572 -602.2132 12193.464 256
-8863.7578 -604.12799 12232.235 256
-8791.0332 -604.12799 12232.235 256
-8718.3096 -604.12799 12232.235 256
-8666.7432 -605.60651 12262.171 256
-8452.4473 -595.6424 12060.421 256
-8296.0645 -589.62402 11938.562 256
-8225.0869 -589.62402 11938.562 256
-8175.6392 -591.18085 11970.085 256
-8209.1768 -598.81836 12124.728 256
-8370.7852 -616.01624 12472.945 256
-8253.9395 -612.84656 12408.766 256
-8169.3223 -612.03406 12392.315 256
-7975.418 -602.94476 12208.277 256
-7902.8364 -602.94476 12208.277 256
-7894.9795 -607.92871 12309.191 256
-7738.4731 -601.45251 12178.062 256
-7666.0713 -601.45251 12178.062 256
-7619.2368 -603.47754 12219.065 256
-7771.2241 -621.4408 12582.78 256
-7696.416 -621.4408 12582.78 256
-7537.2632 -614.5636 12443.533 256
-7144.5122 -588.31439 11912.046 256
-7047.5298 -586.13861 11867.99 256
-6976.9712 -586.13861 11867.99 256
-6845.5249 -580.97107 11763.359 256
-6775.5884 -580.97107 11763.359 256
-6725.3091 -582.67419 11797.844 256
-6661.1338 -583.19647 11808.419 256
-6623.6992 -586.09613 11867.13 256
-6508.644 -582.11597 11786.541 256
-6420.4727 -580.47986 11753.413 256
-6295.1548 -575.41229 11650.807 256
-6225.8882 -575.41229 11650.807 256
-6168.374 -576.5108 11673.049 256
-6126.3535 -579.09882 11725.45 256
-6056.6421 -579.09882 11725.45 256
-5997.4058 -580.112 11745.965 256
-5927.6187 -580.11646 11746.056 256
-5857.7852 -580.11646 11746.056 256
-5706.7861 -571.98138 11581.339 256
-5670.8022 -575.31616 11648.86 256
-5623.4683 -577.56769 11694.448 256
-5529.437 -575.01941 11642.852 256
-5394.6885 -568.11853 11503.124 256
-5593.001 -596.56573 12079.116 461060
-5564.9312 -601.2923 12174.818 256
