# .PCD v0.7 - Point Cloud Data file format
VERSION 0.7
FIELDS x y z rgb
SIZE 4 4 4 4
TYPE F F F U
COUNT 1 1 1 1
WIDTH 1367
HEIGHT 1
VIEWPOINT 0 0 0 1 0 0 0
POINTS 1367
DATA ascii
14214.428 -4827.8228 16141.712 2964536
14309.596 -4827.5532 16140.811 3556418
14405.44 -4827.5142 16140.68 6517358
14501.115 -4827.4185 16140.36 13358289
14596.671 -4827.2852 16139.914 13488849
14692.217 -4827.1504 16139.465 13553872
0 0 0 0
0 0 0 0
0 0 0 0
0 0 0 0
0 0 0 0
0 0 0 0
0 0 0 0
0 0 0 0
0 0 0 0
0 0 0 0
0 0 0 0
0 0 0 0
0 0 0 0
0 0 0 0
0 0 0 0
-9006.9814 -2943.4136 10040.825 3290956
-10181.129 -3349.3145 11425.469 263185
-9564.3145 -3167.5327 10805.359 724256
-9464.083 -3155.5327 10764.424 4608353
-9663.5098 -3243.9624 11066.082 1580843
-9967.9346 -3369.0925 11492.938 13753826
-9899.6064 -3369.0925 11492.938 9415334
-8792.6729 -3013.1719 10278.79 2042410
-8805.4365 -3038.6653 10365.755 4279636
-8989.3467 -3123.9949 10656.839 7044482
-8925.9893 -3123.9949 10656.839 7768717
-9064.0898 -3195.0071 10899.082 1515303
-8930.8906 -3170.7229 10816.241 1777702
-8912.1631 -3187.0217 10871.842 1251874
-9001.7002 -3242.5571 11061.289 2238255
-8935.9375 -3242.5571 11061.289 9344921
-8897.2041 -3252.438 11094.995 4278606
-8871.8047 -3267.3772 11145.957 2633780
-8760.2598 -3250.5757 11088.643 1580064
-8539.165 -3192.5618 10890.74 1185051
-8142.6733 -3067.5845 10464.407 2236710
-8120.1279 -3082.6438 10515.779 921368
-8057.6089 -3082.6438 10515.779 330002
-8663.3447 -3340.3008 11394.721 2237744
-9570.2197 -3719.0439 12686.722 13619414
-9620.8682 -3768.427 12855.181 12372432
-9417.4932 -3718.3042 12684.198 1711650
-8936.0264 -3556.687 12132.876 4671830
-9093.707 -3648.9011 12447.444 12372690
-8480.7764 -3430.8796 11703.711 9741997
-7919.1748 -3230.1873 11019.092 7044227
-7381.4644 -3035.9736 10356.573 2964804
-7188.4463 -2981.4556 10170.597 660508
-7690.4741 -3216.7329 10973.195 857371
-8199.8105 -3459.1196 11800.046 3225666
-8292.75 -3528.5151 12036.773 1250335
-8221.1885 -3528.5151 12036.773 6645870
-8175.9585 -3539.9165 12075.666 592398
-8373.4326 -3657.533 12476.89 8093577
-8240.7168 -3631.7354 12388.887 197639
-7821.1958 -3477.9355 11864.231 460814
-7643.2388 -3429.7327 11699.798 11251897
-7633.0537 -3456.6196 11791.518 13356754
-8941.9434 -4086.8843 13941.529 12896206
-7311.084 -3372.769 11505.479 7962504
-6511.9482 -3032.4814 10344.661 10199980
-6392.856 -3005.4072 10252.303 3160385
-6954.4375 -3300.8901 11260.279 1034
-6682.0454 -3202.4282 10924.397 1186076
-6596.4683 -3192.4446 10890.341 198409
-6467.498 -3161.0547 10783.261 527371
-6416.5532 -3167.5532 10805.43 395784
-6390.0581 -3186.375 10869.636 1053458
-6410.0913 -3229.02 11015.109 2435111
-6330.8394 -3222.0146 10991.213 197636
-6390.0181 -3286.0513 11209.659 461064
-6429.0806 -3340.9841 11397.051 132099
-6377.1606 -3349.3027 11425.428 65793
-6027.4463 -3199.7139 10915.138 197636
-6112.085 -3279.958 11188.874 395271
-6102.5806 -3310.8916 11294.397 658443
-6115.8262 -3354.9937 11444.843 790029
-6233.4443 -3457.989 11796.188 461064
-6163.313 -3457.989 11796.188 790029
-6093.8877 -3458.3899 11797.556 197890
-6529.2749 -3748.6262 12787.635 2237985
-6514.645 -3784.2905 12909.296 3159343
-6147.9482 -3613.855 12327.892 2040862
-5585.2744 -3322.7188 11334.743 1052941
-5434.1035 -3272.2671 11162.638 197889
-5520.1592 -3365.1855 11479.609 263683
-5451.9097 -3365.1855 11479.609 197634
-5551.0571 -3469.8208 11836.551 395270
-5217.4111 -3303.1416 11267.96 329476
-5150.4194 -3303.1416 11267.96 329476
-5083.4287 -3303.1416 11267.96 461318
-5013.9556 -3301.5073 11262.386 1185554
-4871.0728 -3250.8369 11089.534 988174
-4805.1421 -3250.8369 11089.534 659209
-4743.9644 -3254.0969 11100.654 527881
-4703.519 -3271.8708 11161.287 724492
-4637.1621 -3271.8708 11161.287 593163
-4659.0537 -3335.041 11376.778 461577
-4511.5513 -3277.0308 11178.888 395528
-4364.9878 -3217.9771 10977.439 987923
-4222.894 -3160.4768 10781.289 593164
-4163.0435 -3163.7041 10792.299 988176
-4161.7124 -3212.2012 10957.735 791053
-4219.4019 -3308.5195 11286.306 527882
-3976.3838 -3168.3499 10808.146 1120019
-4035.5029 -3268.2695 11149.002 792078
-3964.6501 -3264.5078 11136.169 792078
-3902.9351 -3268.2695 11149.002 463625
-3916.6941 -3336.4546 11381.6 1055760
-3867.8962 -3352.811 11437.396 3227947
-3724.9866 -3286.7136 11211.919 4478260
-3731.8994 -3352.811 11437.396 3754787
-4135.4883 -3784.3574 12909.523 4412713
-3733.3274 -3480.946 11874.501 4544041
-3680.1021 -3497.4553 11930.819 4412197
-4881.1597 -4730.0732 16135.632 5728056
-4451.0933 -4399.7886 15008.937 6057020
-4361.8608 -4399.7886 15008.937 7372643
-3935.0537 -4052.1672 13823.101 4675902
-4090.7063 -4302.3042 14676.39 11714484
-4094.7454 -4400.4136 15011.068 132358
-4005.5005 -4400.4136 15011.068 923678
-3113.7356 -3498.6799 11934.997 1712938
-2883.4116 -3315.4351 11309.896 1975852
-2860.0781 -3367.1257 11486.229 5331283
-3209.3745 -3870.7678 13204.295 9933974
-3826.5308 -4730.8276 16138.205 13619409
-3730.585 -4730.8276 16138.205 13357265
-3203.7488 -4169.9839 14225.006 13619154
-3004.1331 -4016.1826 13700.347 13815762
-3442.3064 -4730.2236 16136.144 2237741
-2856.6948 -4038.0454 13774.926 2500402
-2570.7095 -3741.0427 12761.766 3684674
-2438.7844 -3656.991 12475.04 1909029
-2346.4026 -3628.8213 12378.946 2698544
-2122.9258 -3389.5181 11562.614 3027765
-2028.4816 -3347.1099 11417.948 2698544
-1960.5988 -3347.1099 11417.948 2434602
-1933.8463 -3419.8457 11666.07 1776414
-2013.1088 -3692.4456 12595.986 6383467
-1938.222 -3692.4456 12595.986 5331033
-1895.4563 -3756.0972 12813.12 987156
-1819.7355 -3757.0398 12816.337 2236711
0 0 0 0
0 0 0 0
-1537.9414 -3631.4138 12387.79 8949393
-1285.4913 -3187.991 10875.147 526600
0 0 0 0
0 0 0 0
0 0 0 0
0 0 0 0
0 0 0 0
0 0 0 0
0 0 0 0
0 0 0 0
0 0 0 0
0 0 0 0
-326.00558 -1809.7563 6173.5957 1710096
0 0 0 0
0 0 0 0
0 0 0 0
0 0 0 0
0 0 0 0
0 0 0 0
0 0 0 0
0 0 0 0
0 0 0 0
0 0 0 0
0 0 0 0
0 0 0 0
99.140579 -1187.089 4049.4998 3485745
124.8426 -1202.7601 4102.9585 9143686
154.47369 -1244.9745 4246.9639 8288637
210.96007 -1461.3589 4985.1128 2236195
242.64702 -1473.8046 5027.5684 2170661
279.53207 -1511.6304 5156.603 1513500
300.09433 -1462.4341 4988.7803 3355448
308.86166 -1369.778 4672.7041 8421253
0 0 0 0
0 0 0 0
0 0 0 0
0 0 0 0
0 0 0 0
337.25986 -971.45654 3313.9158 9539473
368.42978 -1002.6655 3420.3787 9605268
376.66415 -971.45654 3313.9158 4868428
409.09998 -1002.6655 3420.3787 2368297
407.54733 -951.56104 3246.0466 3355192
431.88129 -962.78607 3284.3384 3289398
453.72696 -967.73303 3301.2139 3355191
455.57001 -931.37585 3177.1892 3487032
465.8941 -914.56226 3119.833 7171181
0 0 0 0
934.02441 -1698.2888 5793.3486 9276556
976.29462 -1712.0144 5840.1704 9473679
1042.2255 -1764.8632 6020.4521 9539216
1130.1262 -1850.17 6311.459 9670801
1285.2048 -2036.4396 6946.877 10065816
1341.4968 -2059.4531 7025.3833 10197402
1367.9294 -2036.6216 6947.498 10000536
1425.0325 -2059.4531 7025.3833 10197917
1721.5798 -2417.175 8245.6748 2172459
2366.2104 -3230.2812 11019.412 2370611
2553.3481 -3391.8455 11570.555 1910319
2628.0183 -3399.4519 11596.502 2042932
2707.9785 -3413.3369 11643.867 1977139
2679.5813 -3293.3528 11234.567 1977139
2721.6357 -3263.6873 11133.37 1977139
2731.1023 -3197.2808 10906.838 2174518
2774.7971 -3173.0955 10824.335 2635583
2991.8611 -3343.7676 11406.547 2043190
3110.0928 -3398.8657 11594.502 2372155
3638.9023 -3890.5449 13271.76 2437948
3888.1399 -4068.7917 13879.812 3030599
4524.3281 -4636.1445 15815.214 2636097
4605.7656 -4623.5078 15772.105 4412761
4432.3047 -4360.6001 14875.253 4807517
3963.7954 -3823.3826 13042.65 5399140
3373.1301 -3191.2129 10886.139 5268067
3332.3259 -3093.2578 10551.986 5661542
3428.3674 -3123.604 10655.506 13226962
3772.3162 -3374.6211 11511.796 13292240
3990.6401 -3506.3135 11961.037 13291213
3975.2598 -3431.6489 11706.335 13619921
4044.8572 -3431.6489 11706.335 13553871
4736.1455 -3950.1682 13475.152 13488079
5235.0103 -4293.6172 14646.755 10263965
5322.0894 -4293.6172 14646.755 11579825
5953.7759 -4725.9082 16121.424 13356236
6051.3735 -4727.2764 16126.09 13619151
6150.8862 -4730.0747 16135.636 13553358
6248.4131 -4731.2832 16139.759 13619151
6343.8218 -4730.8755 16138.367 13684944
6369.7817 -4679.4604 15962.977 13619151
6535.0283 -4730.3779 16136.67 13158600
6631.6338 -4730.8545 16138.296 13355979
6726.9023 -4730.3779 16136.67 13619151
6761.0933 -4687.5679 15990.634 13684944
6761.2925 -4622.7056 15769.369 13750737
6854.4771 -4622.3223 15768.062 13750737
6947.6851 -4621.9644 15766.841 13750737
7040.7793 -4621.5415 15765.399 13750737
7133.811 -4621.0898 15763.857 13750737
6964.9253 -4453.1865 15191.092 13750737
7239.2622 -4569.3389 15587.32 13684942
7495.2324 -4671.1084 15934.486 13685457
7688.0317 -4731.4604 16140.363 9869210
7783.9907 -4731.4604 16140.363 13027272
7878.5088 -4730.5952 16137.412 12106942
7974.4502 -4730.5952 16137.412 9016984
8070.3911 -4730.5952 16137.412 6187883
8167.0532 -4731.0127 16138.836 6778736
8264.4746 -4731.855 16141.709 12305090
8359.2812 -4731.1987 16139.47 13423312
8455 -4731.0669 16139.021 13094093
8550.7354 -4730.9478 16138.614 6912119
8646.0459 -4730.5986 16137.423 8557457
8742.6562 -4730.9609 16138.659 11912644
8838.7744 -4731.0508 16138.966 6319726
8934.7236 -4731.0508 16138.966 8226695
9030.9775 -4731.2095 16139.507 12568265
9126.9316 -4731.2095 16139.507 11119792
9222.8857 -4731.2095 16139.507 7303024
9319.4062 -4731.4976 16140.489 7500917
9414.8398 -4731.2324 16139.586 6448741
9511.5127 -4731.5903 16140.807 5858401
9607.4746 -4731.5903 16140.807 13555670
9703.708 -4731.7231 16141.259 5924201
9799.6748 -4731.7246 16141.264 7042938
9894.9678 -4731.4033 16140.169 13031893
9990.9268 -4731.4033 16140.169 13160911
10086.445 -4731.1973 16139.466 13226447
10182.112 -4731.0649 16139.014 12964302
10279.779 -4731.8545 16141.708 4277574
10375.747 -4731.855 16141.709 2501933
10471.131 -4731.5913 16140.811 2633263
10566.505 -4731.3281 16139.911 2502447
10662.461 -4731.3281 16139.911 2897461
10759.016 -4731.5913 16140.81 2437167
10854.072 -4731.1968 16139.464 1976873
10926.688 -4721.1138 16105.067 1976359
11022.438 -4721.1138 16105.067 1779493
11143.76 -4731.9727 16142.11 2043177
11238.822 -4731.5908 16140.809 2701620
11335.719 -4731.981 16142.139 5859683
11431.58 -4731.936 16141.986 727316
11527.266 -4731.8193 16141.589 2109228
11623.196 -4731.8052 16141.54 2767158
11717.783 -4731.2485 16139.641 2635571
11813.02 -4730.9609 16138.659 2241070
11909.692 -4731.2485 16139.641 1121818
12005.841 -4731.3252 16139.901 2569265
12101.727 -4731.2969 16139.807 2570038
12197.866 -4731.3687 16140.051 1780009
12293.823 -4731.3687 16140.051 1845800
12305.616 -4699.2285 16030.411 1977899
12356.274 -4682.3101 15972.697 2240814
12501.285 -4701.1304 16036.899 2175021
12676.366 -4730.8896 16138.415 2438450
12773.508 -4731.3315 16139.924 2899770
12869.812 -4731.4595 16140.36 4084301
12966.134 -4731.5913 16140.811 4544596
13062.82 -4731.8545 16141.707 2044719
13158.42 -4731.7222 16141.256 1978669
13253.283 -4731.3291 16139.915 2109742
13302.614 -4714.8032 16083.542 2175535
13388.654 -4711.4326 16072.042 2306864
13503.997 -4718.3467 16095.629 2175791
13636.728 -4731.1973 16139.466 2636600
13733.063 -4731.3291 16139.915 2636597
13829.021 -4731.3291 16139.915 2965561
13925.749 -4731.5913 16140.811 3754565
14021.713 -4731.5923 16140.812 3754565
14117.674 -4731.5923 16140.812 3557185
14214.428 -4731.856 16141.712 3886150
14309.479 -4731.5532 16140.68 4609618
14405.44 -4731.5532 16140.68 3952202
14501.429 -4731.562 16140.71 3622466
14596.671 -4731.3286 16139.914 9411739
14692.217 -4731.1973 16139.465 13423056
0 0 0 0
0 0 0 0
0 0 0 0
0 0 0 0
0 0 0 0
0 0 0 0
0 0 0 0
0 0 0 0
0 0 0 0
0 0 0 0
0 0 0 0
0 0 0 0
0 0 0 0
0 0 0 0
0 0 0 0
-10249.057 -3281.3867 11425.469 13226712
-10193.424 -3285.3496 11439.267 11845318
-9550.6191 -3098.8484 10789.888 9609127
-9486.4707 -3098.8484 10789.888 1120801
-9809.7305 -3226.261 11233.525 68119
-10488.561 -3473.1628 12093.214 3621965
-10416.663 -3473.1628 12093.214 529690
-9759.9766 -3276.8252 11409.586 133646
-9160.8926 -3097.2146 10784.198 6386040
-9096.7783 -3097.2146 10784.198 7372422
-8899.4502 -3051.5369 10625.153 2502968
-9064.0898 -3130.2092 10899.082 4476501
-8999.291 -3130.2092 10899.082 7173243
-8912.1631 -3122.3855 10871.842 4869980
-9132.5762 -3222.9827 11222.11 5132897
-8754.1768 -3112.1775 10836.298 3026746
-9190.124 -3291.3826 11460.272 7501443
-8676.6719 -3130.7036 10900.805 7435391
-8729.6475 -3173.522 11049.894 7106170
-8539.165 -3127.8132 10890.74 8291470
-8351.1709 -3082.3247 10732.354 7172730
-8297.376 -3086.0486 10745.32 8620432
-8223.5566 -3082.3247 10732.354 6581103
-8866.2988 -3349.2217 11661.663 3159363
-9595.1553 -3653.1121 12719.778 2303799
-9620.8682 -3691.9993 12855.181 3883336
-8509.0479 -3291.4866 11460.635 8622489
-7889.2974 -3076.3877 10711.682 2042160
-8550.3584 -3361.2981 11703.711 2436406
-8029.8691 -3182.5837 11081.445 6450549
-7963.146 -3182.2478 11080.275 7437957
-7481.4868 -3014.7056 10496.91 8558231
0 0 0 0
-7535.4878 -3087.9824 10752.053 395539
-8160.3613 -3372.6609 11743.275 4343120
-8246.4248 -3437.6421 11969.533 9936297
-8175.2622 -3437.6421 11969.533 9411489
-8175.9585 -3468.123 12075.666 4673884
-8377.1377 -3584.9397 12482.409 3225151
-8428.2344 -3639.0439 12670.795 263439
-7712.7969 -3360.1741 11699.798 789019
-7627.854 -3353.4104 11676.247 789015
-7558.4351 -3353.4104 11676.247 12106692
-9724.7139 -4354.5049 15161.96 11712190
-9625.2402 -4350.2866 15147.274 13290965
-9016.5723 -4113.6777 14323.424 12243154
-6280.9087 -2892.8931 10072.771 8951194
-6954.4375 -3233.9446 11260.279 461324
-6682.0454 -3137.4795 10924.397 773
-6722.6948 -3187.5483 11098.732 527372
-6730.8301 -3223.041 11222.313 66563
-6833.6738 -3305.0491 11507.857 263942
-6969.6997 -3404.9263 11855.62 6515817
-6899.2144 -3404.9263 11855.62 3949376
-6451.3472 -3216.7563 11200.432 4738636
-6384.7568 -3216.7563 11200.432 526857
-6425.0981 -3271.1978 11389.99 67077
-6305.623 -3244.5654 11297.26 66306
-6238.458 -3244.5654 11297.26 197635
-6199.5112 -3259.4016 11348.918 263685
-6165.9932 -3277.4495 11411.759 395271
-6328.2017 -3401.0923 11842.271 526857
-6237.3706 -3389.991 11803.618 329478
-5895.2085 -3240.4856 11283.054 132099
-5791.624 -3220.189 11212.384 512
-6023.748 -3388.2502 11797.556 263940
-6433.1719 -3661.1738 12747.85 330245
-5705.626 -3285.832 11440.945 3356979
-5637.6064 -3285.832 11440.945 263426
-5580.0361 -3291.9966 11462.41 395266
-5520.1592 -3296.9363 11479.609 66048
-5621.4292 -3399.4495 11836.551 3882804
-5551.0571 -3399.4495 11836.551 1513999
-5217.4111 -3236.1506 11267.96 396293
-5150.4194 -3236.1506 11267.96 395524
-5080.9136 -3234.5496 11262.386 592648
-4966.9741 -3204.2412 11156.855 856590
-4871.0728 -3184.9067 11089.534 461831
-4805.1421 -3184.9067 11089.534 725003
-4730.5459 -3179.083 11069.256 856845
-4615.209 -3145.3293 10951.729 527624
-4534.041 -3134.23 10913.082 922126
-4578.7593 -3211.0923 11180.71 790798
-4498.3481 -3201.1731 11146.172 988176
-4312.4126 -3114.7397 10845.22 922384
-4247.9346 -3114.7397 10845.22 264200
-4242.0708 -3158.3801 10997.171 527625
-4161.7124 -3147.0542 10957.735 461832
-4050.4861 -3111.6553 10834.479 396296
-3976.3838 -3104.0925 10808.146 1383192
-4504.7202 -3574.2883 12445.322 1120273
-3973.0972 -3205.1145 11159.896 594698
-3906.7488 -3205.1145 11159.896 463622
-3858.3025 -3220.0557 11211.919 1385233
-3867.8962 -3284.8127 11437.396 4609338
-3724.9866 -3220.0557 11211.919 2175760
-3731.8994 -3284.8127 11437.396 3820325
-4029.3782 -3612.4756 12578.287 4017957
-3243.8911 -2963.2546 10317.763 3951904
-3484.0676 -3243.9968 11295.28 4281124
-3489.1799 -3312.6055 11534.169 4609831
-3693.302 -3576.6914 12453.69 4083489
-3619.2615 -3576.6914 12453.69 4872750
-3935.0537 -3969.9854 13823.101 5201717
-4130.3838 -4255.9326 14818.742 4411954
-4401.6953 -4634.3423 16136.327 594188
-4305.7549 -4634.3364 16136.307 792085
-3632.325 -3998.6069 13922.759 791317
-3347.4395 -3770.927 13129.999 1119767
-3287.8774 -3792.2644 13204.295 9343891
-3809.6499 -4501.563 15674.002 13750994
-3826.5308 -4634.8818 16138.205 13619410
-3730.4336 -4634.6938 16137.551 13619411
-3634.283 -4634.4282 16136.626 13488592
-3538.3462 -4634.4282 16136.626 13619154
-3442.4094 -4634.4282 16136.626 13682894
-3241.4062 -4488.9248 15629.997 6969961
-2881.6702 -4108.52 14305.466 8813194
-2494.8374 -3665.1704 12761.766 11773875
-2391.4543 -3623.4866 12616.627 3094587
-2139.894 -3347.3181 11655.034 1712163
-2070.6016 -3347.3181 11655.034 2435115
-1960.5988 -3279.2271 11417.948 1908258
-1933.8463 -3350.4875 11666.07 2105636
-1998.0901 -3590.5703 12502.015 1250070
-1923.7622 -3590.5703 12502.015 2697262
-1895.9321 -3680.8433 12816.337 1381146
-1819.7355 -3680.8433 12816.337 2631726
-2195.2239 -4634.4111 16136.567 4342602
-2099.3682 -4634.5894 16137.188 1381397
-2003.3522 -4634.4136 16136.575 8224393
0 0 0 0
0 0 0 0
0 0 0 0
0 0 0 0
0 0 0 0
0 0 0 0
0 0 0 0
0 0 0 0
0 0 0 0
0 0 0 0
-416.28757 -2034.9619 7085.5386 2103571
-374.16205 -2034.9619 7085.5386 1709585
-289.30188 -1773.0526 6173.5957 2697254
0 0 0 0
0 0 0 0
0 0 0 0
0 0 0 0
0 0 0 0
0 0 0 0
0 0 0 0
0 0 0 0
0 0 0 0
0 0 0 0
72.162498 -1118.0413 3892.9104 7170410
100.29215 -1176.5227 4096.5371 3419953
124.8426 -1178.3669 4102.9585 6775650
155.05728 -1224.3331 4263.0083 4868683
210.96007 -1431.7211 4985.1128 3552057
253.7151 -1509.7769 5256.8955 2039588
284.56506 -1507.6378 5249.4478 1184535
308.69647 -1473.8445 5131.7827 1315864
308.86166 -1341.9974 4672.7041 9342352
0 0 0 0
0 0 0 0
0 0 0 0
0 0 0 0
0 0 0 0
0 0 0 0
0 0 0 0
0 0 0 0
388.24872 -932.26239 3246.0466 1447193
407.54733 -932.26239 3246.0466 2170918
439.15515 -959.14648 3339.6543 3223349
459.01031 -959.14648 3339.6543 3223605
458.38239 -918.11975 3196.8032 3289396
474.45926 -912.48663 3177.1892 3158066
475.30679 -879.11694 3060.9995 10000537
0 0 0 0
0 0 0 0
1005.1234 -1667.5168 5806.1309 10131610
1070.3987 -1716.8479 5977.8965 9934487
1167.6495 -1812.6469 6311.459 9605265
1321.1935 -1987.1482 6919.0557 9671058
1327.844 -1936.8467 6743.9106 10066073
1380.9866 -1955.3212 6808.2378 9803414
1466.3197 -2017.0242 7023.0811 2106665
2335.9961 -3124.3567 10878.705 1778731
2566.6538 -3340.3726 11630.851 1712940
2645.1787 -3352.2551 11672.225 1581611
2914.7769 -3599.488 12533.066 1581611
2793.4519 -3363.675 11711.988 1712941
2770.9111 -3255.3877 11334.941 1844783
2731.1023 -3132.4363 10906.838 1779760
2774.7971 -3108.7417 10824.335 1779760
2942.6079 -3222.0227 11218.769 1911345
3110.0928 -3329.9333 11594.502 2437690
3696.7253 -3872.2085 13482.651 2372665
4173.4912 -4278.8262 14898.455 3557709
4616.1211 -4634.2725 16136.084 3755086
4621.8271 -4545.5342 15827.106 3952465
4699.5352 -4529.7378 15772.105 4676186
4520.7422 -4272.1626 14875.253 4873310
3290.7773 -3050.1599 10620.359 8491669
3332.3259 -3030.5234 10551.986 11912135
3377.1731 -3014.5566 10496.392 13094352
3491.7173 -3060.2542 10655.506 13357520
3840.7571 -3306.1802 11511.796 10462889
3994.4121 -3378.2495 11762.734 8292752
4044.8572 -3362.0515 11706.335 11121333
4232.6357 -3458.6211 12042.581 9542555
4418.0254 -3550.0588 12360.957 7634558
5008.1982 -3958.4409 13782.905 10922665
5738.1396 -4462.3682 15537.531 13290954
6049.6226 -4630.062 16121.424 13619151
6150.8628 -4634.126 16135.574 13487565
6247.3765 -4634.5591 16137.081 13619151
6343.3164 -4634.5591 16137.081 13553358
6439.7686 -4634.9282 16138.367 13619151
6535.687 -4634.9077 16138.296 13158600
6631.6338 -4634.9077 16138.296 13684944
6666.0244 -4592.4995 15990.634 13684944
6673.5259 -4533.0186 15783.528 13750737
6761.2256 -4528.9072 15769.213 13750737
6854.6069 -4528.6621 15768.36 13750737
6947.6851 -4528.2261 15766.841 13750737
7040.1919 -4527.4341 15764.084 13750737
6850.2231 -4347.3945 15137.203 13750737
6964.9253 -4362.8711 15191.092 13750737
7239.2622 -4476.668 15587.32 13619151
7504.7725 -4582.1982 15954.767 13553870
7688.4575 -4635.7583 16141.258 13093834
7784.4229 -4635.7593 16141.26 8158592
7878.2905 -4634.5254 16136.965 6846581
7974.2734 -4634.5513 16137.054 5266781
8070.2124 -4634.5513 16137.054 6123373
8167.0532 -4635.0625 16138.836 5399907
8263.9375 -4635.5869 16140.661 6387316
8359.5137 -4635.3735 16139.919 5464157
8455.2354 -4635.2446 16139.47 7438204
8551.1885 -4635.2446 16139.47 5596513
8647.0059 -4635.1719 16139.216 4412497
8743.3857 -4635.3984 16140.004 8229263
8839.3428 -4635.3984 16140.004 7111039
8935.0234 -4635.2554 16139.507 9544354
9030.9775 -4635.2554 16139.507 7701890
9126.9316 -4635.2554 16139.507 8754063
9223.2002 -4635.4141 16140.058 4345418
9319.9219 -4635.7935 16141.381 3688515
9415.8867 -4635.7935 16141.381 3359550
9511.6475 -4635.6943 16141.035 6582636
9607.7441 -4635.7588 16141.259 2634800
9703.709 -4635.7593 16141.26 7766141
9799.9395 -4635.8853 16141.699 5200469
9896.2207 -4636.0322 16142.211 5794667
9992.4355 -4636.146 16142.607 8291724
10088.16 -4636.0322 16142.211 6712692
10181.873 -4635.0049 16138.634 6317419
0 0 0 0
10375.169 -4635.6299 16140.81 6713460
10471.131 -4635.6299 16140.81 2701113
10566.506 -4635.3726 16139.914 6188653
10662.461 -4635.3716 16139.911 13622490
10759.315 -4635.7588 16141.259 6186083
10854.678 -4635.5015 16140.363 2042407
10950.938 -4635.6299 16140.81 1779492
11047.514 -4635.8867 16141.705 1845286
11144.095 -4636.1421 16142.595 3688259
11239.679 -4635.9824 16142.038 4148810
11335.729 -4636.0161 16142.155 4873047
11431.372 -4635.8833 16141.692 793881
11527.549 -4635.9673 16141.986 1977386
11623.06 -4635.7847 16141.35 3359552
11717.07 -4635.0122 16138.659 4475722
11812.69 -4634.8828 16138.21 3951692
11908.637 -4634.8828 16138.21 12042691
12005.771 -4635.3418 16139.807 4999758
12101.727 -4635.3418 16139.807 2370606
12197.006 -4635.085 16138.913 1976360
12214.94 -4605.6689 16036.489 1911336
12261.313 -4587.3477 15972.697 1910823
12349.316 -4584.7646 15963.702 1714470
12451.237 -4587.3477 15972.697 1780263
12622.37 -4615.1987 16069.672 2175278
12773.499 -4635.3716 16139.911 2372400
12870.172 -4635.6299 16140.811 2438450
12966.854 -4635.8872 16141.707 2504243
13063.143 -4636.0015 16142.104 2306864
13159.151 -4636.0156 16142.154 2043949
13253.646 -4635.4995 16140.356 1912106
13348.125 -4634.9858 16138.568 2241071
13388.654 -4615.8794 16072.042 2109485
13540.022 -4634.9858 16138.568 2372657
13637.11 -4635.3735 16139.917 2636085
13733.066 -4635.3735 16139.918 2505013
13829.786 -4635.6294 16140.809 3623492
13926.139 -4635.7593 16141.262 3952200
14022.487 -4635.8867 16141.704 4938838
14118.065 -4635.7588 16141.259 3820871
14214.029 -4635.7588 16141.259 3952456
14309.479 -4635.5923 16140.68 4149833
14405.44 -4635.5923 16140.68 4282447
14501.429 -4635.6011 16140.71 6255723
14596.669 -4635.3721 16139.913 11057589
14692.217 -4635.2432 16139.465 13421772
14787.759 -4635.1143 16139.016 13684944
0 0 0 0
0 0 0 0
0 0 0 0
15169.886 -4634.6025 16137.232 9935524
15266.608 -4634.8394 16138.058 9474717
15363.486 -4635.1206 16139.038 8619408
15461.126 -4635.627 16140.801 6318445
0 0 0 0
0 0 0 0
0 0 0 0
0 0 0 0
0 0 0 0
0 0 0 0
0 0 0 0
-10261.434 -3217.3401 11439.267 9148834
-10193.424 -3217.3401 11439.267 11188672
-9550.6191 -3034.6995 10789.888 12441044
-9486.4707 -3034.6995 10789.888 3228998
-9809.7305 -3159.4744 11233.525 1845805
-10259.369 -3326.9424 11828.959 266261
-9891.5918 -3229.8186 11483.634 133135
-9823.3184 -3229.8186 11483.634 329485
-9170.3281 -3036.2231 10795.305 723732
-9096.7783 -3033.0996 10784.198 459531
-8889.9775 -2985.1868 10613.845 1118752
-9064.0898 -3065.4109 10899.082 132117
-9041.8799 -3079.9175 10950.66 4408406
-9112.7285 -3126.5632 11116.509 13751259
-9132.5762 -3156.2639 11222.11 9477545
-8838.6748 -3077.1704 10940.893 4477279
-8773.6279 -3077.1704 10940.893 10196653
-8676.6719 -3065.8955 10900.805 9543339
-8729.6475 -3107.8274 11049.894 9345443
-8577.998 -3076.9949 10940.269 9083810
-8335.3291 -3012.792 10711.995 3948869
-8297.376 -3022.1648 10745.32 9345185
-8204.7939 -3011.6306 10707.866 12897746
-8663.3447 -3204.8113 11394.721 592911
-8796.9678 -3279.8901 11661.663 659738
-8727.6348 -3279.8901 11661.663 856859
-8509.0479 -3223.3501 11460.635 197638
-8004.6289 -3056.7456 10868.272 263
-8384.3418 -3227.803 11476.468 1449513
-8316.1113 -3227.803 11476.468 1712425
-7963.146 -3116.3723 11080.275 1317151
-7805.1704 -3080.0281 10951.054 3491147
-7694.9019 -3062.0571 10887.157 398107
-7789.8755 -3126.1467 11115.027 133395
-9139.8467 -3699.283 13152.817 4409939
-9061.6494 -3699.283 13152.817 9014935
-8453.0908 -3480.8865 12376.307 2897213
-8447.6113 -3509.1755 12476.89 527380
-8430.3096 -3533.0122 12561.64 7567235
-8320.2227 -3518.042 12508.413 7896971
-7991.2461 -3409.4138 12122.187 132883
-7516.0879 -3235.8738 11505.163 395285
-7447.6865 -3235.8738 11505.163 10396328
-9724.7139 -4264.3628 15161.96 13291732
-9771.4531 -4324.9478 15377.371 12765905
-9016.5723 -4028.521 14323.424 9412003
-7830.5142 -3531.9583 12557.894 9278880
-7664.0117 -3490.134 12409.187 5725547
-6450.5371 -2966.0791 10545.907 1250582
-6722.6948 -3121.5635 11098.732 66569
-6817.3442 -3196.8909 11366.56 263431
-6957.1899 -3295.1326 11715.858 395530
-6969.6997 -3334.4414 11855.62 658444
-6899.2144 -3334.4414 11855.62 2040353
-7155.9971 -3494.2444 12423.802 3883071
-6520.4028 -3217.0928 11438.388 856079
-6425.0981 -3203.481 11389.99 66564
-6305.623 -3177.4001 11297.26 132356
-6321.9058 -3219.9021 11448.376 131842
-6253.8418 -3219.9021 11448.376 197636
-6165.9932 -3209.6035 11411.759 987408
-6115.8262 -3218.9082 11444.843 329478
-6174.3369 -3286.2659 11684.333 263685
-5858.2847 -3153.5283 11212.384 66050
-5765.6782 -3139.4009 11162.153 66304
-6235.2554 -3434.6167 12211.795 66304
-6162.6528 -3434.6167 12211.795 197890
-5673.3442 -3199.6062 11376.214 197890
-5648.1831 -3223.8491 11462.41 132097
-5580.0361 -3223.8491 11462.41 132097
-5686.2539 -3325.8337 11825.017 263937
-5803.2642 -3436.7629 12219.426 461059
-5730.6167 -3436.7629 12219.426 658692
-5173.9609 -3142.7671 11174.122 922122
-5099.6353 -3137.9109 11156.855 1908761
-4996.4868 -3114.9573 11075.244 263682
-4825.1797 -3048.3313 10838.355 855818
-4763.4453 -3050.062 10844.509 197634
-4805.1421 -3118.9763 11089.534 526855
-4663.8037 -3069.3486 10913.082 527111
-4579.5127 -3056.3943 10867.023 790796
-4514.9048 -3056.3943 10867.023 987920
-4490.3467 -3083.8992 10964.817 329732
-4398.6704 -3065.4404 10899.187 724235
-4293.3169 -3036.7551 10797.196 724493
-4229.1245 -3036.7551 10797.196 395786
-4223.9995 -3079.8225 10950.322 330246
-4098.8799 -3035.3777 10792.299 198917
-4031.4241 -3032.9004 10783.491 396296
-3886.4177 -2971.0581 10563.61 1317398
-4504.7202 -3500.2971 12445.322 1647130
-4211.3716 -3327.0034 11829.176 265734
-4276.9663 -3436.2065 12217.448 200195
-4067.311 -3324.2207 11819.281 2240288
-3879.6348 -3226.5764 11472.107 1846295
-3629.3691 -3072.4524 10924.118 3228711
-3488.699 -3007.1807 10692.044 3097374
-3425.1316 -3007.1807 10692.044 5005114
-3243.8911 -2901.9124 10317.763 2241809
-2847.1443 -2596.0837 9230.3867 4939570
-3489.1799 -3244.0317 11534.169 4807727
-2797.8577 -2653.4302 9434.2822 3425561
-3776.718 -3655.0342 12995.49 4017184
-3935.0537 -3887.803 13823.101 6451784
-4328.7588 -4368.0049 15530.46 5135669
-4401.5376 -4538.2446 16135.748 923405
-4305.7549 -4538.4014 16136.307 1515030
-3820.8135 -4119.0322 14645.237 2698276
-3730.6899 -4115.6641 14633.261 7238249
-4018.6499 -4539.1919 16139.116 12040631
-3922.4768 -4538.9355 16138.205 13290445
-3826.5308 -4538.9355 16138.205 13619153
-3730.3301 -4538.626 16137.104 13685203
-3203.7488 -4000.8406 14225.006 13684947
-3538.2781 -4538.4038 16136.315 13619408
-3442.3433 -4538.4038 16136.315 13553612
-3241.4062 -4396 15629.997 6577525
-2881.6702 -4023.47 14305.466 13155530
-2494.8374 -3589.2983 12761.766 13814742
-2459.1841 -3648.9758 12973.949 7498869
-2222.2783 -3404.2266 12103.743 1249816
-2070.6016 -3278.0254 11655.034 987414
-1947.8398 -3190.4456 11343.644 1316121
-1878.786 -3187.7097 11333.915 1842465
-1892.2308 -3329.9512 11839.655 1710877
-1901.7372 -3475.9851 12358.88 2105637
-1895.9321 -3604.6467 12816.337 1119000
-1772.9076 -3511.887 12486.53 526349
-2195.3979 -4538.8345 16137.845 12628675
-2099.4539 -4538.8345 16137.845 1643039
-2003.4077 -4538.603 16137.022 16119544
0 0 0 0
0 0 0 0
0 0 0 0
0 0 0 0
0 0 0 0
0 0 0 0
0 0 0 0
0 0 0 0
0 0 0 0
-483.28156 -2100.946 7469.9224 4604461
-416.28757 -1992.8365 7085.5386 1314570
-374.16205 -1992.8365 7085.5386 1380876
-379.5994 -2278.3018 8100.5122 2434082
-311.56302 -2141.6711 7614.7212 2039583
-254.97415 -2050.6514 7291.0996 1446935
0 0 0 0
0 0 0 0
0 0 0 0
0 0 0 0
0 0 0 0
0 0 0 0
0 0 0 0
52.824524 -1179.9202 4195.2114 9342092
75.065178 -1138.9382 4049.4998 6315613
102.70792 -1179.9202 4195.2114 3092014
128.55823 -1188.3188 4225.0728 8947333
155.05728 -1198.9884 4263.0083 3946555
216.46088 -1438.6426 5115.1001 3486774
253.79056 -1478.9629 5258.459 1973538
284.35132 -1475.3195 5245.5049 1381145
313.0358 -1463.6234 5203.9194 986642
307.48557 -1308.3616 4651.8853 7763062
0 0 0 0
0 0 0 0
0 0 0 0
0 0 0 0
0 0 0 0
382.21109 -1056.2795 3755.6067 9671058
401.08737 -1047.2665 3723.5608 9605524
0 0 0 0
0 0 0 0
386.27527 -865.31122 3076.6179 1446937
439.15515 -939.29126 3339.6543 2499625
459.15567 -939.58875 3340.7117 3025970
478.73184 -939.02905 3338.7219 3091761
481.104 -906.11206 3221.6853 3092017
499.81305 -905.3064 3218.8208 2302499
0 0 0 0
0 0 0 0
0 0 0 0
0 0 0 0
0 0 0 0
1294.6686 -1906.9434 6780.1455 10526111
1334.9784 -1906.9434 6780.1455 10263708
1402.7369 -1945.0031 6915.4668 10527138
1615.1656 -2175.7793 7735.9932 2830901
2081.1487 -2725.8816 9691.8838 1778729
2566.6538 -3271.2236 11630.851 1844524
2645.1787 -3282.8604 11672.225 1581611
2914.7769 -3524.9756 12533.066 1450026
3027.4297 -3569.9509 12692.977 1647661
2812.2952 -3235.6116 11504.23 1713197
2838.3005 -3187.9983 11334.941 1582381
2875.9092 -3155.3242 11218.769 1911347
3041.1604 -3261.0007 11594.502 2174516
3616.5674 -3792.05 13482.651 2569274
3919.553 -4020.6233 14295.345 3227717
4376.7925 -4394.3677 15624.194 3623245
4562.6152 -4485.7344 15949.049 3294022
4711.9253 -4538.2148 16135.643 3096901
4715.9233 -4451.4375 15827.106 3557194
3963.7954 -3668.2981 13042.65 5070177
3158.5049 -2866.9563 10193.476 3820620
3314.769 -2952.1526 10496.392 5530211
3377.1731 -2952.1526 10496.392 11121846
3515.6624 -3017.4558 10728.577 9080980
3579.4465 -3017.4558 10728.577 3687492
3975.2598 -3292.4543 11706.335 8621966
4044.8572 -3292.4543 11706.335 5528669
4178.7632 -3343.915 11889.305 6186083
4418.0254 -3476.5691 12360.957 12764869
5008.1982 -3876.498 13782.905 13488592
5727.4673 -4361.8662 15508.634 13619152
6049.6226 -4534.2153 16121.424 12040119
6151.437 -4538.6196 16137.081 12171705
6247.3774 -4538.6201 16137.083 13684944
6343.3169 -4538.6201 16137.083 12895683
6439.7686 -4538.981 16138.367 12895681
6535.687 -4538.9609 16138.296 13685198
6630.7822 -4538.3784 16136.225 13684944
6663.6255 -4495.812 15984.88 13750737
6668.2651 -4435.6816 15771.087 13750737
6760.8599 -4434.9155 15768.36 13750737
6854.0767 -4434.5718 15767.141 13750737
6677.9038 -4262.2954 15154.609 13750737
6760.229 -4257.3999 15137.203 13750737
6850.0303 -4257.2798 15136.776 13750737
6941.082 -4257.9297 15139.087 13750737
7055.2412 -4272.5562 15191.092 13750737
7495.2324 -4481.6387 15934.486 13619408
7646.4014 -4514.9609 16052.964 13619410
7784.4219 -4539.7939 16141.258 12565440
7878.0718 -4538.4609 16136.518 4737618
7974.937 -4538.9897 16138.397 4413531
8070.8838 -4538.9897 16138.397 5136740
8167.0532 -4539.1128 16138.836 6057841
8263.7832 -4539.5415 16140.359 6781306
8359.8984 -4539.626 16140.661 5070944
8455.9355 -4539.6675 16140.807 8491409
8551.8975 -4539.6675 16140.807 4741464
8647.8584 -4539.6675 16140.807 4807770
8743.7881 -4539.6509 16140.748 4807771
8839.9404 -4539.7485 16141.095 5663591
8936.1504 -4539.8735 16141.541 6783352
9032.1787 -4539.9058 16141.654 4149065
9127.2432 -4539.4565 16140.058 3293500
9223.7012 -4539.7031 16140.934 4477776
9320.3604 -4540.0425 16142.142 3490108
9416.1455 -4539.9536 16141.824 4147781
9511.7812 -4539.7954 16141.262 3621694
9607.7451 -4539.7954 16141.262 3622980
9703.9727 -4539.918 16141.699 7239543
9799.7646 -4539.8374 16141.411 2372147
9896.2207 -4540.062 16142.211 5794411
9992.4355 -4540.1738 16142.608 3161919
10088.408 -4540.1738 16142.608 2174253
10183.529 -4539.7949 16141.26 11384245
0 0 0 0
10374.593 -4539.416 16139.914 2171943
10470.55 -4539.416 16139.914 3487806
10566.506 -4539.416 16139.914 4014659
10662.461 -4539.4155 16139.911 3620929
10759.315 -4539.7944 16141.259 2502961
10854.678 -4539.5425 16140.363 1911080
10951.244 -4539.7949 16141.26 1910823
11048.122 -4540.1699 16142.595 1976359
11144.098 -4540.1714 16142.6 2371373
11239.438 -4539.9165 16141.692 1976359
11335.405 -4539.9165 16141.692 2568753
11431.264 -4539.8735 16141.54 1187612
11527.23 -4539.8735 16141.54 925208
11623.196 -4539.8735 16141.54 2902862
11716.744 -4538.937 16138.21 12897483
11812.035 -4538.6851 16137.314 9804700
11908.637 -4538.937 16138.21 12500672
12005.771 -4539.3862 16139.807 9804700
12101.727 -4539.3862 16139.807 3685952
12196.406 -4538.9111 16138.119 2042155
12291.67 -4538.6592 16137.224 1976874
12305.616 -4508.6182 16030.411 1845289
12349.316 -4489.856 15963.702 1648421
12518.54 -4516.6689 16059.035 1977642
12614.367 -4516.7949 16059.483 1977642
12723.069 -4521.4941 16076.192 2175021
12869.812 -4539.542 16140.36 2241071
12966.854 -4539.9204 16141.707 2175278
13063.044 -4539.998 16141.983 1846313
13159.151 -4540.0464 16142.154 1714727
13253.646 -4539.5405 16140.356 1846313
13349.238 -4539.416 16139.914 1846313
13445.193 -4539.416 16139.913 1846313
13541.15 -4539.416 16139.913 2438193
13637.863 -4539.668 16140.809 2570036
13733.825 -4539.668 16140.809 2636084
13829.787 -4539.668 16140.811 3622977
13926.521 -4539.9199 16141.704 3426367
14022.886 -4540.0483 16142.162 3360830
14118.065 -4539.7944 16141.259 3294781
14212.848 -4539.417 16139.917 3557953
14308.8 -4539.416 16139.913 3951941
14404.76 -4539.417 16139.917 4609871
14501.118 -4539.543 16140.364 4806481
14596.669 -4539.416 16139.913 6977137
14692.626 -4539.416 16139.913 10594725
14788.171 -4539.29 16139.465 6648173
14884.538 -4539.416 16139.913 13554388
14979.661 -4539.1636 16139.016 12237501
15075.611 -4539.1636 16139.016 7435384
15171.984 -4539.29 16139.465 5924200
15267.938 -4539.29 16139.465 11056827
15363.893 -4539.29 16139.465 8095884
15461.132 -4539.6675 16140.807 4874334
0 0 0 0
0 0 0 0
0 0 0 0
0 0 0 0
0 0 0 0
0 0 0 0
0 0 0 0
0 0 0 0
-9761.3096 -3015.8254 10954.339 132100
-9696.1826 -3015.8254 10954.339 592651
-10129.479 -3171.8992 11521.243 264716
-9809.7305 -3092.688 11233.525 133388
-9742.9434 -3092.688 11233.525 134417
-9676.1572 -3092.688 11233.525 1031
-9823.3184 -3161.5452 11483.634 264463
-9170.3281 -2972.042 10795.305 198161
-8962.6191 -2925.198 10625.153 131855
-8690.9844 -2856.6763 10376.264 724250
-8826.875 -2922.0847 10613.845 7039611
-9365.8564 -3122.8359 11343.03 12764621
-9199.2949 -3089.5454 11222.11 13357268
-9047.0137 -3060.5991 11116.97 12963025
-8838.6748 -3012.1235 10940.893 11647938
-8773.6279 -3012.1235 10940.893 12306126
-8405.3838 -2907.2539 10559.976 2897472
-8552.9141 -2980.5442 10826.187 4081489
-8425.1445 -2958.281 10745.32 4541013
-8335.3291 -2949.1062 10711.995 3948873
-8379.6738 -2987.6226 10851.897 4145995
-8315.1562 -2987.6226 10851.897 7174013
-8604.4521 -3115.741 11317.261 593941
-8645.3213 -3155.2131 11460.635 266005
-8448.1104 -3107.7319 11288.169 857628
-8380.999 -3107.7319 11288.169 1910061
-8313.8887 -3107.7319 11288.169 6055022
-7967.9521 -3002.6589 10906.514 1579551
-8009.0806 -3042.9209 11052.757 3686214
-7943.3691 -3042.9209 11052.757 594199
-7877.6572 -3042.9209 11052.757 199184
-7855.9575 -3060.0645 11115.027 265232
-7789.8755 -3060.0645 11115.027 265232
-8160.3613 -3233.0269 11743.275 4804436
-8526.6709 -3407.3059 12376.307 6318189
-8161.4888 -3289.7656 11949.367 4146510
-8379.5098 -3407.3059 12376.307 1645607
-7984.335 -3275.3794 11897.112 1118751
-7895.3335 -3267.8174 11869.646 3289664
-7824.7651 -3267.8174 11869.646 3420223
-7415.2021 -3124.9568 11350.734 1250851
-7447.6865 -3167.4722 11505.163 1842475
-9156.0605 -3930.1326 14275.362 11317694
-9101.7295 -3943.3643 14323.424 10992067
-8986.3184 -3930.1326 14275.362 6515061
-8660.7422 -3823.8569 13889.34 11054520
-7664.0117 -3416.3579 12409.187 13357528
-6441.6992 -2899.4031 10531.459 13619927
-6396.2056 -2907.1836 10559.72 4344396
-6817.3442 -3129.3137 11366.56 592398
-6879.8472 -3189.6211 11585.613 1906976
-6969.6997 -3263.9563 11855.62 4340288
-6904.0557 -3266.2463 11863.938 7630196
-7517.1191 -3592.9885 13050.76 2435884
-6520.4028 -3149.0884 11438.388 462092
-6221.7163 -3036.5042 11029.449 263942
-6156.1431 -3036.5042 11029.449 513
-6238.458 -3110.2346 11297.26 132099
-6317.8096 -3184.0771 11565.477 1052945
-6249.0503 -3184.0771 11565.477 1908767
-6336.2368 -3264.4209 11857.308 256
-6174.3369 -3216.7996 11684.333 66050
-5858.2847 -3086.8677 11212.384 197892
-5791.624 -3086.8677 11212.384 197890
-6007.4238 -3239.1687 11765.585 592393
-5410.9634 -2951.9326 10722.262 592648
-5609.9482 -3096.9736 11249.092 0
-5976.9927 -3339.4116 12129.695 0
-5544.1743 -3135.4209 11388.743 329476
-5679.7627 -3251.8142 11811.517 263681
-5615.9512 -3255.5308 11825.017 461572
-5539.3169 -3251.8142 11811.517 527108
-5128.1772 -3049.1118 11075.244 329730
-4829.2451 -2908.7205 10565.303 1053452
-4818.0674 -2940.2312 10679.759 526852
-4776.8198 -2953.9885 10729.729 329219
-4779.752 -2995.8086 10881.632 197890
-4819.4634 -3062.1453 11122.585 395269
-4663.8037 -3004.4673 10913.082 461062
-4561.6064 -2980.0886 10824.532 855820
-4497.251 -2980.0886 10824.532 724234
-4478.582 -3010.8015 10936.09 461318
-4398.6704 -3000.6416 10899.187 592391
-4312.4126 -2985.7842 10845.22 395269
-4229.8413 -2973.0664 10799.025 263685
-4223.9995 -3014.7197 10950.322 198660
-4215.6802 -3055.8811 11099.832 198660
-4083.7761 -3007.3423 10923.525 527881
-4018.8328 -3007.3423 10923.525 922640
-4422.2388 -3363.5706 12217.448 397320
-4349.6025 -3363.5706 12217.448 331527
-4312.229 -3391.3022 12318.178 1319190
-3904.3271 -3123.5605 11345.663 1121553
-3836.8743 -3123.5605 11345.663 1582612
-3769.4209 -3123.5605 11345.663 1319691
-3743.2253 -3158.3718 11472.107 2570006
-3425.1316 -2943.6133 10692.044 3360285
-5073.3374 -4442.5581 16136.638 3558430
-4977.4009 -4442.5581 16136.638 3492380
-3971.165 -3614.1064 13127.466 4018212
-2797.8577 -2597.3406 9434.2822 3690528
-3665.6848 -3472.5884 12613.432 5202485
-3699.4561 -3577.7722 12995.49 6254404
-4497.7837 -4442.624 16136.878 6648906
-4401.5376 -4442.313 16135.748 1976089
-4306.0845 -4442.8066 16137.541 2502938
-4209.6743 -4442.313 16135.748 8096360
-4114.6021 -4443.2407 16139.118 6977364
-4018.6504 -4443.2407 16139.118 7437401
-3809.6499 -4315.1899 15674.002 5790040
-3716.4636 -4315.1899 15674.002 13685455
-3730.3301 -4442.686 16137.104 13619408
-3460.7273 -4230.3994 15366.019 13685202
-3369.3721 -4230.3994 15366.019 13554127
-3051.77 -3938.4202 14305.466 13684686
-3184.3772 -4227.3677 15355.005 9009559
-2893.1809 -3954.1523 14362.608 2695215
-2807.791 -3954.1523 14362.608 10983847
-2459.1841 -3571.8418 12973.949 14010835
-2222.2783 -3332.2668 12103.743 7238779
-2112.6182 -3273.844 11891.536 988442
-1905.5327 -3055.1731 11097.26 657936
-1878.786 -3120.3262 11333.915 1052949
-1974.8995 -3401.9663 12356.912 987156
-1973.9576 -3531.7219 12828.222 2500393
-1981.4153 -3687.5396 13394.195 2500392
-1772.9076 -3437.6514 12486.53 1645085
-2195.2239 -4442.5386 16136.567 855569
-1887.3591 -3994.0525 14507.538 3224118
-1286.1626 -2852.1343 10359.766 11580088
0 0 0 0
0 0 0 0
0 0 0 0
0 0 0 0
0 0 0 0
0 0 0 0
0 0 0 0
0 0 0 0
-527.69232 -2056.5352 7469.9224 2104340
-484.86987 -2063.2942 7494.4731 1841163
-438.87073 -2056.5352 7469.9224 1051397
-511.9028 -2668.8289 9693.9473 1184013
-414.95502 -2437.856 8854.9883 1118738
-331.43961 -2230.1421 8100.5122 1513239
-266.29138 -2096.3994 7614.7212 1710620
0 0 0 0
0 0 0 0
0 0 0 0
0 0 0 0
0 0 0 0
0 0 0 0
0 0 0 0
52.977448 -1158.3221 4207.3564 8352630
72.162498 -1071.7523 3892.9104 5457994
103.00526 -1158.3221 4207.3564 3747376
124.18184 -1123.6019 4081.2427 5327178
154.65933 -1170.6315 4252.0674 3748918
216.46088 -1408.2319 5115.1001 2433830
253.16534 -1444.1334 5245.5049 1578780
284.35132 -1444.1334 5245.5049 1052949
315.53732 -1444.1334 5245.5049 2500137
316.58441 -1318.6023 4789.5396 8684935
0 0 0 0
337.11432 -1190.0359 4322.5498 9539472
354.61871 -1163.1582 4224.9224 9079178
0 0 0 0
0 0 0 0
0 0 0 0
0 0 0 0
0 0 0 0
0 0 0 0
0 0 0 0
441.73273 -924.83264 3359.2561 2039074
462.82324 -927.07373 3367.3962 2631211
479.01712 -919.72723 3340.7117 2894126
498.58145 -919.17944 3338.7219 2960177
503.36331 -892.46423 3241.6848 3025967
0 0 0 0
0 0 0 0
0 0 0 0
0 0 0 0
0 0 0 0
0 0 0 0
1300.2175 -1818.0289 6603.6001 10263195
0 0 0 0
1466.3197 -1933.5157 7023.0811 3554110
2081.1487 -2668.2605 9691.8838 3358014
2488.1208 -3104.0999 11274.977 1778986
2577.3147 -3131.0222 11372.766 1910059
2951.9666 -3494.4878 12692.977 2765624
3027.4297 -3494.4878 12692.977 1449509
3265.8767 -3678.0405 13359.692 1318437
3130.863 -3442.2708 12503.31 1713448
3221.3291 -3459.594 12566.232 2043440
3884.4951 -4077.2507 14809.737 2832700
3972.5432 -4077.2507 14809.737 3030591
4109.4658 -4126.3262 14987.993 3096640
4376.7925 -4301.4775 15624.194 2701627
4506.0415 -4336.4683 15751.29 2964542
4678.0093 -4410.3081 16019.498 3030336
4773.2495 -4410.3081 16019.498 3491143
4575.2065 -4144.6265 15054.466 4214609
3252.3652 -2889.7485 10496.392 4477780
3502.5315 -3053.436 11090.951 4740695
3568.4702 -3053.436 11090.951 7570565
3752.1436 -3152.3503 11450.236 3622987
3758.8074 -3101.6758 11266.171 4083024
3895.0852 -3157.8564 11470.236 4872538
3963.2786 -3157.8564 11470.236 4872539
4126.4829 -3232.2783 11740.557 13225169
4637.2305 -3571.9272 12974.259 13291469
5043.748 -3821.4893 13880.739 13619661
5587.4521 -4165.2856 15129.505 13619407
5830.5142 -4277.6187 15537.531 11251115
6151.0962 -4442.4341 16136.187 7566453
6247.0303 -4442.4341 16136.187 12566979
6343.3164 -4442.6797 16137.081 13619920
6439.2373 -4442.667 16137.035 13487565
6534.7837 -4442.4004 16136.065 13619152
6607.4238 -4426.7944 16079.381 13553358
6663.6255 -4400.7773 15984.88 13619151
6559.9019 -4271.3594 15514.797 13750737
6529.6255 -4192.6919 15229.054 13750737
6615.3281 -4189.6279 15217.924 13750737
6677.9038 -4172.1968 15154.609 13750737
6761.583 -4168.2397 15140.236 13750737
6851.0757 -4167.9233 15139.087 13750737
6948.7661 -4172.5376 15155.847 13750737
7038.8721 -4172.5376 15155.847 13750737
7338.0542 -4294.9082 15600.332 13619665
7646.4014 -4419.522 16052.964 13553871
7784.4219 -4443.8301 16141.258 13488592
7879.2402 -4443.1836 16138.911 13223884
7973.8628 -4442.4443 16136.225 4999763
8070.4961 -4442.8286 16137.621 4739413
8167.1431 -4443.2119 16139.014 5004125
8263.7832 -4443.5825 16140.359 3754058
8360.5137 -4443.9922 16141.848 5859178
8456.7168 -4444.1162 16142.298 4741210
8552.6875 -4444.1162 16142.298 3556936
8648.3398 -4443.9526 16141.705 4083279
8744.0303 -4443.8125 16141.194 2899518
8839.8154 -4443.7222 16140.867 4676443
8935.9473 -4443.8066 16141.175 2965567
9031.9111 -4443.8066 16141.175 4872792
9127.875 -4443.8066 16141.175 2635572
9223.2002 -4443.4995 16140.058 3950914
9319.7217 -4443.7686 16141.035 4016449
9415.6846 -4443.7686 16141.035 4739146
9511.5195 -4443.7085 16140.817 4542023
9607.4805 -4443.7085 16140.817 4278341
9703.707 -4443.8301 16141.258 4080965
9799.7646 -4443.8721 16141.41 3225400
9895.7305 -4443.8721 16141.411 1580317
9991.8916 -4443.9595 16141.729 4870483
10087.858 -4443.9595 16141.729 1973796
10183.529 -4443.8301 16141.26 7369079
0 0 0 0
10373.729 -4443.0898 16138.57 14011605
10470.55 -4443.46 16139.914 12499392
10566.798 -4443.583 16140.36 10330789
10663.351 -4443.8301 16141.258 2765619
10730.915 -4432.1006 16098.653 2107945
10826.626 -4432.1006 16098.653 1779753
10950.636 -4443.5835 16140.363 1582626
11047.515 -4443.9536 16141.707 2109486
11143.71 -4444.0444 16142.038 3820105
11239.679 -4444.0444 16142.038 5859689
11335.405 -4443.9497 16141.692 1252898
11431.048 -4443.8237 16141.235 1055004
11526.783 -4443.7354 16140.915 1251098
11621.358 -4443.2051 16138.987 4670279
0 0 0 0
0 0 0 0
0 0 0 0
10903.525 -4035.4807 14658.018 7634818
12098.735 -4442.332 16135.817 3358270
12197.376 -4443.3188 16139.402 2042410
12293.716 -4443.4585 16139.909 2041897
12389.672 -4443.4585 16139.909 1121050
12486.672 -4443.8301 16141.259 1910566
12582.636 -4443.8301 16141.259 1845543
12622.37 -4424.1216 16069.672 2240557
12773.817 -4443.5698 16140.313 1846313
12870.487 -4443.8159 16141.207 1911849
12967.075 -4444.0293 16141.983 2109484
13063.143 -4444.063 16142.104 2043692
13159.382 -4444.1543 16142.437 1846056
13254.386 -4443.8301 16141.259 1780263
13349.238 -4443.46 16139.914 2701365
13445.193 -4443.46 16139.913 1912106
13541.15 -4443.46 16139.913 2109484
13637.863 -4443.7061 16140.809 2635827
13733.825 -4443.7061 16140.809 2898740
13829.786 -4443.7061 16140.809 4083014
13926.521 -4443.9526 16141.704 3227962
14023.199 -4444.1782 16142.524 2636081
14118.065 -4443.8301 16141.259 2833461
14213.22 -4443.5767 16140.339 3096635
14308.404 -4443.3374 16139.468 3360063
14404.358 -4443.3374 16139.468 4741459
14500.312 -4443.3374 16139.468 4083015
14597.078 -4443.584 16140.364 4871761
14693.44 -4443.7061 16140.809 6516330
14788.994 -4443.5835 16140.363 3818819
14884.539 -4443.46 16139.914 2831924
14980.495 -4443.46 16139.913 4411471
15076.032 -4443.3359 16139.465 4674900
15171.984 -4443.3359 16139.465 6254443
15270.058 -4443.9526 16141.705 4609620
15366.028 -4443.9536 16141.708 5463900
15461.132 -4443.7056 16140.807 6649201
0 0 0 0
0 0 0 0
0 0 0 0
0 0 0 0
0 0 0 0
0 0 0 0
0 0 0 0
0 0 0 0
-9734.8965 -2942.7148 10924.698 66825
-9699.3994 -2951.678 10957.974 198411
-10305.04 -3157.1899 11720.927 133132
-10087.353 -3111.5369 11551.442 67341
-10018.677 -3111.5369 11551.442 1288
-9891.5918 -3093.2717 11483.634 3883595
-9823.3184 -3093.2717 11483.634 3093818
-8814.3633 -2794.9866 10376.264 264210
-8826.498 -2818.561 10463.782 328980
-8690.9844 -2794.9866 10376.264 986913
-8845.5957 -2865.0457 10636.354 4999775
-9365.8564 -3055.3982 11343.03 8355732
-9216.541 -3028.4937 11243.148 7698568
-9046.6377 -2994.3816 11116.509 11383228
-8980.9199 -2994.5056 11116.97 13226709
-8468.166 -2844.4719 10559.976 12240331
-8405.3838 -2844.4719 10559.976 1382182
-8903.9727 -3035.8755 11270.553 592669
-8646.4531 -2970.4263 11027.575 3356745
-8471.7207 -2932.6348 10887.276 11056064
-8406.9932 -2932.6348 10887.276 7437704
-8483.4395 -2982.2632 11071.52 3620680
-8604.4521 -3048.4568 11317.261 1908772
-8537.168 -3048.4568 11317.261 329484
-8448.1104 -3040.6206 11288.169 988699
-8350.5801 -3029.5842 11247.197 659219
-8313.8887 -3040.6206 11288.169 1580577
-7941.9775 -2928.24 10870.961 7898760
-8105.7983 -3013.1621 11186.23 658959
-8039.293 -3013.1621 11186.23 923160
-7986.7715 -3018.447 11205.851 330511
-7920.1504 -3018.447 11205.851 330255
-7760.7197 -2982.7766 11073.426 527636
-7694.8848 -2982.7766 11073.426 5725284
-8526.6709 -3333.7253 12376.307 329737
-8161.4888 -3218.7231 11949.367 2436150
-8379.5098 -3333.7253 12376.307 7107710
-7984.335 -3204.6477 11897.112 6908277
-7320.8857 -2964.624 11006.035 13422549
-7482.6855 -3057.4734 11350.734 11121076
-7296.8325 -3008.6665 11169.541 8028814
-7347.7197 -3057.4734 11350.734 856342
-8559.6436 -3594.7847 13345.479 2699326
-8480.3008 -3594.7847 13345.479 3685966
-7904.625 -3382.4031 12557.021 2632766
-7855.1528 -3393.2817 12597.407 10857403
-7957.6753 -3470.6606 12884.673 11976137
-6151.2319 -2708.8745 10056.576 10332339
-6091.4424 -2708.8745 10056.576 5267303
-6651.061 -2987.0564 11089.314 461843
-6879.8472 -3120.7412 11585.613 1381403
-7129.6973 -3266.781 12127.78 14210778
-6904.0557 -3195.7119 11863.938 14474462
-6865.1562 -3210.5063 11918.862 4542800
-6520.4028 -3081.084 11438.388 1283
-6222.1099 -2971.1189 11030.146 1026
-6156.5327 -2971.1189 11030.146 132099
-6115.0444 -2982.8694 11073.77 132099
-6037.6968 -2977.1934 11052.698 66306
-5706.4492 -2844.8162 10561.254 658442
-6243.8032 -3147.3325 11684.333 256
-5782.6929 -2947.6943 10943.185 512
-5821.0532 -3001.0122 11141.125 132097
-5806.084 -3027.7476 11240.378 131841
-6007.4238 -3169.219 11765.585 1448213
