# .PCD v0.7 - Point Cloud Data file format
VERSION 0.7
FIELDS x y z rgb
SIZE 4 4 4 4
TYPE F F F U
COUNT 1 1 1 1
WIDTH 1323
HEIGHT 1
VIEWPOINT 0 0 0 1 0 0 0
POINTS 1323
DATA ascii
8864.8516 -5087.2905 15196.758 13619150
8876.0898 -5042.3486 15062.509 13750737
9045.5488 -5087.2905 15196.758 13619151
9626.3115 -5360.375 16012.517 13619151
9235.3018 -5092.2827 15211.671 13684944
9176.4736 -5010.7769 14968.197 13619151
9200.082 -4975.4185 14862.574 13684944
9282.417 -4972.1899 14852.93 13750737
9365.5703 -4969.4561 14844.764 13750737
9443.2256 -4963.8833 14828.117 13750737
9526.1094 -4961.1377 14819.915 13750737
9512.8984 -4908.8545 14663.734 13750737
9600.0781 -4908.8545 14663.734 13750737
9972.2158 -5053.252 15095.079 13750737
10560.38 -5303.5649 15842.814 13750737
10062.491 -5008.8438 14962.423 13750737
10143.839 -5005.0898 14951.209 13750737
10232.729 -5005.0898 14951.209 13750737
11141.013 -5402.4263 16138.132 13619151
11238.03 -5402.9409 16139.67 13553871
11334.486 -5403.1807 16140.385 11250605
11430.445 -5403.1807 16140.385 13751249
11525.903 -5402.9448 16139.682 13619411
11622.181 -5403.0947 16140.13 12369345
11719.607 -5403.7729 16142.154 12962255
11814.591 -5403.3218 16140.807 13357010
11910.223 -5403.1719 16140.359 12764873
12006.182 -5403.1719 16140.359 11186352
12101.807 -5403.0229 16139.914 6778223
12196.744 -5402.5713 16138.566 5397598
12294.057 -5403.1709 16140.357 9280155
12390.36 -5403.3218 16140.807 8622995
12486.284 -5403.3047 16140.757 11781576
12581.322 -5402.9082 16139.572 13422290
12676.145 -5402.4263 16138.132 13226706
12772.09 -5402.4263 16138.132 13488336
12867.311 -5402.1221 16137.224 13488082
12961.812 -5401.5215 16135.431 12566982
13057.741 -5401.5215 16135.431 12106687
13156.867 -5402.8345 16139.352 5926254
13252.82 -5402.8345 16139.352 8950676
13348.473 -5402.7129 16138.989 3952206
13443.908 -5402.5059 16138.369 6781306
13539.854 -5402.5059 16138.369 12439249
13636.172 -5402.6519 16138.807 11449017
13732.032 -5402.6177 16138.703 13291221
13827.597 -5402.4668 16138.254 13093840
13922.575 -5402.0913 16137.132 12633289
14018.127 -5401.9414 16136.684 9933977
14116.07 -5402.71 16138.979 3026226
14212.594 -5402.9272 16139.629 2765622
14306.502 -5402.1543 16137.32 2568756
14401.276 -5401.7168 16136.013 2569010
14497.209 -5401.7168 16136.013 2569011
14595.545 -5402.6064 16138.67 3753028
14689.452 -5401.856 16136.428 3555649
14722.521 -5378.8867 16067.814 2502960
14252.019 -5173.4209 15454.047 2371117
14343.898 -5173.4209 15454.047 2305581
14995.632 -5374.0586 16053.393 2239530
15170.162 -5402.2231 16137.525 2240559
15268.918 -5403.2188 16140.499 2701367
15364.878 -5403.2188 16140.499 5858660
15461.221 -5403.3525 16140.899 3950404
15557.411 -5403.4321 16141.137 1582114
15652.204 -5403.0278 16139.93 2240299
0 0 0 0
0 0 0 0
0 0 0 0
0 0 0 0
-9541.6953 -3474.5623 10566.881 329476
-9478.8721 -3474.5623 10566.881 263427
-9262.2363 -3417.8049 10394.27 66304
-9217.3281 -3424.0786 10413.349 512
-9218.4893 -3447.667 10485.086 132098
-9006.0908 -3391.1626 10313.244 1284
-8944.7754 -3391.1626 10313.244 513
-9226.3018 -3522.0386 10711.266 256
-9162.6201 -3522.0386 10711.266 256
-8937.4678 -3459.5359 10521.182 263942
-8874.916 -3459.5359 10521.182 593164
-8812.3652 -3459.5359 10521.182 263685
-8718.4766 -3447.1455 10483.501 132614
-8656.1494 -3447.1455 10483.501 771
-8606.8945 -3452.3894 10499.448 198150
-8544.4727 -3452.3894 10499.448 132615
-8472.9443 -3448.6829 10488.176 198408
-8503.3506 -3486.7192 10603.853 1317402
-8491.9941 -3508.071 10668.787 2699054
-8651.001 -3600.6509 10950.343 527114
-9393.2734 -3939.2385 11980.06 263943
-9322.0488 -3939.2385 11980.06 771
-9104.0732 -3876.7485 11790.014 771
-8725.6152 -3744.4207 11387.577 515
-9508.0693 -4112.1006 12505.771 515
-8766.6465 -3821.3281 11621.469 790545
-8875.0234 -3899.3008 11858.601 263430
-8810.6533 -3902.0166 11866.859 197892
-8787.5518 -3923.2007 11931.285 513
-8022.7021 -3610.8816 10981.456 513
-8587.5957 -3896.8423 11851.124 66563
-8157.1948 -3732.1577 11350.283 527371
-8483.5723 -3913.8625 11902.886 264199
-8412.8057 -3913.8625 11902.886 329992
-8144.4243 -3821.1467 11620.917 66820
-8025.7012 -3797.6609 11549.492 66563
-7957.0366 -3797.6609 11549.492 132615
-7958.603 -3831.4722 11652.319 66822
-7894.3086 -3833.8916 11659.677 527373
-7824.9888 -3833.8916 11659.677 527373
-7648.1426 -3780.7378 11498.025 329993
-7552.0127 -3766.886 11455.898 395789
-7462.4888 -3756.1069 11423.117 725010
-7252.3306 -3683.853 11203.378 856343
-6983.0186 -3579.9338 10887.338 1053722
-6907.3799 -3574.2878 10870.168 5658468
-7625.665 -3983.239 12113.875 8619409
-7553.645 -3983.239 12113.875 13093589
-7739.6211 -4120.5972 12531.61 11909313
-6575.4873 -3534.8367 10750.188 13291991
-6511.5752 -3534.8367 10750.188 11516091
-7099.9673 -3892.4536 11837.776 3422789
-7234.355 -4005.8379 12182.603 9606812
-7161.9268 -4005.8379 12182.603 460816
-6231.0938 -3520.8069 10707.521 197385
-9217.7676 -5262.1523 16003.321 8552847
-9122.624 -5262.1523 16003.321 11054774
-6750.6519 -3934.981 11967.111 12568527
-6582.2505 -3877.6877 11792.87 8818576
-7739.1494 -4608.3179 14014.871 594707
-7655.8271 -4608.3179 14014.871 330253
-6659.0244 -4052.4106 12324.24 1711905
-6585.7534 -4052.4106 12324.24 6580841
-6474.9321 -4029.0452 12253.181 10855862
-6478.1528 -4076.9182 12398.772 4802645
-6181.8081 -3935.1965 11967.767 2696753
-5918.5479 -3811.4807 11591.521 3948105
-5849.6328 -3811.4807 11591.521 2040358
-5780.7183 -3811.4807 11591.521 8226182
-5534.8442 -3693.396 11232.4 3818563
-5625.646 -3799.8345 11556.102 1580574
-5533.6729 -3783.9229 11507.712 1514780
-5352.7305 -3706.0149 11270.776 1514781
-5100.3091 -3576.0144 10875.418 1514524
-5008.396 -3556.6592 10816.555 5527896
-4984.5356 -3585.7556 10905.043 462605
-5151.874 -3754.9758 11419.677 856592
-5083.9805 -3754.9758 11419.677 1317400
-5016.0879 -3754.9758 11419.677 1185814
-4634.5308 -3516.9495 10695.789 330506
-4939.2197 -3800.3081 11557.543 330506
-4733.3984 -3693.3267 11232.189 856850
-4612.5444 -3650.5295 11102.034 593166
-4438.9478 -3564.1411 10839.309 593166
-4601.8335 -3749.3579 11402.592 922131
-4467.3999 -3694.2493 11234.995 593166
-4346.668 -3648.97 11097.291 659216
-4280.6914 -3648.97 11097.291 1250842
-4672.2759 -4045.1116 12302.042 3026993
-5250.6978 -4618.1841 14044.877 528148
-5150.3799 -4603.1538 13999.166 856083
-4580.5615 -4161.1211 12654.852 921359
-4505.3247 -4161.1211 12654.852 1447705
-4381.3892 -4115.3789 12515.739 988180
-4980.6284 -4759.0591 14473.309 3817280
-4894.5806 -4759.0591 14473.309 2304038
-4720.5244 -4671.957 14208.411 1054484
-3834.3245 -3864.0203 11751.305 725006
-3765.9927 -3865.594 11756.091 1054228
-3529.0283 -3690.8616 11224.692 593934
-3399.5398 -3623.9641 11021.243 659727
-3343.1333 -3633.8745 11051.383 726033
-3231.9517 -3583.4507 10898.033 660240
-3404.905 -3852.4448 11716.102 397068
-3333.8516 -3850.8303 11711.191 1449756
-3264.2253 -3850.8303 11711.191 1054998
-3180.0483 -3833.2908 11657.85 988692
-2991.1165 -3685.8823 11209.55 1646365
-3144.2651 -3962.8997 12052.018 856849
-3152.0293 -4065.3274 12363.522 1185814
-2947.0923 -3891.7651 11835.683 1646365
-2866.7864 -3878.3186 11794.789 1514779
-2804.9143 -3889.7612 11829.588 989205
-2849.8647 -4053.7397 12328.282 989462
-2870.0251 -4190.1831 12743.235 1252890
-2635.7041 -3952.4133 12020.127 792596
-2562.2266 -3949.3083 12010.684 989719
-2313.4431 -3668.0696 11155.377 1516832
-2263.9241 -3695.4973 11238.791 1517346
-2330.176 -3919.3184 11919.479 1583395
-2444.5417 -4240.645 12896.7 1517346
-2367.8672 -4240.645 12896.7 3162173
-2633.2935 -4873.8208 14822.322 1977898
-2770.7144 -5305.7212 16135.823 2372654
-2463.5337 -4886.686 14861.448 5333848
-2375.1782 -4886.686 14861.448 6320482
-2483.0969 -5306.1021 16136.981 6912618
-2387.2542 -5306.3159 16137.632 8031101
-2291.3115 -5306.3159 16137.632 10594722
-2195.7954 -5307.3472 16140.768 13553612
-2099.8401 -5307.3618 16140.812 13421770
-2003.8231 -5307.2158 16140.368 12303291
-1907.8641 -5307.2158 16140.368 13619662
-1811.9052 -5307.2158 16140.368 13619406
-1716.1364 -5307.8042 16142.157 13684944
-1619.7002 -5306.2759 16137.51 13750737
-1376.1683 -4792.3145 14574.444 13749969
-1289.5193 -4792.3145 14574.444 13553356
-1324.2037 -5275.7153 16044.569 10328244
-1066.062 -4576.9653 13919.521 9211796
-940.26398 -4376.6157 13310.217 8421767
-861.13104 -4376.6157 13310.217 5789790
-796.03619 -4455.1826 13549.155 10063509
-796.297 -4958.3994 15079.544 13684947
-614.82288 -4314.1006 13120.095 13487313
-490.01584 -3937.9617 11976.177 5393764
-426.31091 -4008.4517 12190.551 13223122
-347.61243 -3937.9617 11976.177 13419986
-300.30551 -4278.3853 13011.478 3748676
-190.0358 -3646.7876 11090.654 2629419
-118.86249 -3492.9133 10622.69 2235426
-54.326096 -3406.2896 10359.249 2565164
7.4907393 -3513.3274 10684.773 2369838
86.602974 -4284.5303 13030.165 6317673
145.56438 -3801.2522 11560.414 3028020
207.83134 -3686.6099 11211.763 3553851
264.73218 -3555.5759 10813.261 4145991
331.33517 -3580.5947 10889.348 3817026
386.81009 -3496.8347 10634.616 2040100
0 0 0 0
0 0 0 0
484.13623 -2936.655 8930.9902 3093300
580.0351 -3170.6196 9642.5264 2698026
637.36261 -3170.6196 9642.5264 3158834
669.29944 -3054.7346 9290.0957 3158064
568.5426 -2397.0613 7289.9717 3420977
0 0 0 0
0 0 0 0
0 0 0 0
0 0 0 0
0 0 0 0
0 0 0 0
0 0 0 0
0 0 0 0
0 0 0 0
0 0 0 0
0 0 0 0
0 0 0 0
0 0 0 0
0 0 0 0
0 0 0 0
0 0 0 0
678.0025 -1245.0519 3786.4668 8618631
701.38837 -1246.6057 3791.1921 4210501
730.9068 -1258.6232 3827.7397 10724521
795.60858 -1328.6711 4040.7708 7632765
894.24445 -1449.6222 4408.6084 4080202
946.13287 -1490.0624 4531.5957 4409426
982.4397 -1504.4033 4575.2095 3356223
970.52222 -1446.1154 4397.9434 5790049
0 0 0 0
0 0 0 0
0 0 0 0
883.01123 -1187.7258 3612.126 10921640
868.38116 -1140.3145 3467.938 10526882
869.25122 -1114.984 3390.9028 10527139
871.23883 -1092.2028 3321.6204 10592675
858.69812 -1052.6222 3201.2473 10592676
877.73041 -1052.6222 3201.2473 10395041
897.05927 -1052.9703 3202.3059 10263713
871.75317 -1002.0002 3047.2952 10460833
887.83722 -999.71112 3040.3333 10263200
902.2099 -995.62476 3027.906 2433836
931.71124 -1008.0667 3065.7446 3684419
939.32129 -996.80042 3031.4814 4541011
937.22076 -975.84747 2967.759 4803669
935.20667 -955.75726 2906.6604 4737873
949.55347 -952.81305 2897.7065 4869201
916.14111 -902.90466 2745.9246 4803921
0 0 0 0
0 0 0 0
2624.8494 -2455.6494 7468.1504 10921637
2677.4109 -2463.1577 7490.9844 11381676
2672.1782 -2418.1206 7354.0176 11776433
2299.8064 -2047.6489 6227.3345 11842484
2785.0168 -2440.3735 7421.6929 8158593
3740.4355 -3226.4419 9812.2939 3292996
3800.3799 -3227.8071 9816.4463 3293000
3866.7793 -3234.531 9836.8945 3227466
4113.1006 -3389.3152 10307.626 3557199
4254.6567 -3454.4924 10505.844 3951957
4317.1167 -3454.4924 10505.844 3622992
4387.0942 -3460.4221 10523.877 4083543
4386.8193 -3411.5508 10375.249 4478814
4448.5034 -3411.5508 10375.249 4215388
4761.8828 -3601.936 10954.251 3557714
4857.1431 -3624.4224 11022.637 2965065
5019.3491 -3695.6003 11239.104 3162443
5012.168 -3641.8311 11075.581 4478303
5078.0151 -3641.8311 11075.581 4083543
5175.2148 -3664.0283 11143.087 4017750
5241.4639 -3664.0283 11143.087 4411738
5418.2764 -3740.353 11375.206 4280921
5339.2964 -3640.3936 11071.208 5596778
5233.4302 -3524.7605 10719.544 5991535
5138.9194 -3419.4658 10399.32 8096912
5202.7588 -3420.7891 10403.345 9146002
5413.8789 -3517.78 10698.314 13488850
5834.2754 -3746.9209 11395.181 13488592
7031.4136 -4463.9185 13575.723 13553871
7623.2803 -4784.7446 14551.423 13619664
8061.9653 -5003.3057 15216.112 12830148
8152.4297 -5003.3057 15216.112 13619664
8364.9922 -5077.4175 15441.503 13553871
8517.4863 -5113.8555 15552.318 11777460
8613.4111 -5115.9111 15558.57 13619151
8651.0859 -5083.6943 15460.592 13619149
9073.8486 -5276.0669 16045.639 13684686
8834.9209 -5083.6943 15460.592 11776695
8738.8154 -4976.6177 15134.95 13750735
8828.7969 -4976.6177 15134.95 13684942
8869.7148 -4949.2407 15051.69 13684944
9512.2959 -5254.7812 15980.904 13684944
9648.1064 -5277.0967 16048.77 10197915
9235.3018 -5001.8447 15211.671 13684944
9199.9775 -4934.3936 15006.536 13619151
9199.833 -4886.9238 14862.172 13750737
9282.3887 -4883.8706 14852.885 13750737
9365.5215 -4881.1748 14844.688 13750737
9443.2256 -4875.7261 14828.117 13750737
9526.1094 -4873.0293 14819.915 13750737
9034.4717 -4579.1807 13926.26 13750737
9504.9561 -4773.8989 14518.439 13750737
9982.0771 -4968.416 15110.006 13750737
10690.073 -5273.3521 16037.382 13684944
10728.564 -5245.5537 15952.841 13619151
10822.385 -5245.0571 15951.331 13685200
11045.071 -5306.4819 16138.137 13619407
11141.913 -5306.9087 16139.435 13685457
11238.03 -5306.9863 16139.67 5987163
11334.487 -5307.2212 16140.386 7566199
11430.446 -5307.2212 16140.386 8751500
11526.405 -5307.2212 16140.386 13159630
11622.181 -5307.1372 16140.13 13290703
11718.63 -5307.3599 16140.807 13423314
11814.591 -5307.3599 16140.807 13422801
11910.553 -5307.3599 16140.807 10396584
12007.002 -5307.5757 16141.462 8753552
12102.968 -5307.5757 16141.462 8423818
12198.1 -5307.2129 16140.359 9871008
12294.059 -5307.2129 16140.359 3685951
12390.705 -5307.5073 16141.256 7634817
12486.284 -5307.3438 16140.757 11976639
12581.196 -5306.9009 16139.41 13161169
12676.145 -5306.4805 16138.132 11319992
12771.736 -5306.3335 16137.685 7962241
12867.128 -5306.106 16136.993 8687763
12961.812 -5305.5918 16135.431 3096635
13057.741 -5305.5918 16135.431 3622976
13156.867 -5306.8813 16139.352 8624532
13252.82 -5306.8813 16139.352 8227980
13348.772 -5306.8813 16139.352 4149844
13444.424 -5306.7627 16138.989 6122604
13540.374 -5306.7627 16138.989 4016201
13636.229 -5306.7246 16138.875 12963792
13732.032 -5306.668 16138.703 13094866
13827.597 -5306.5205 16138.254 8685964
13922.575 -5306.1519 16137.132 11383739
14018.566 -5306.1709 16137.19 7106424
14116.07 -5306.7593 16138.979 6251115
14212.7 -5307.0127 16139.75 2371380
14308.656 -5307.0127 16139.75 3687493
14404.476 -5306.9634 16139.6 4674642
14501.235 -5307.2573 16140.495 5069400
14597.195 -5307.2573 16140.495 10923438
14691.493 -5306.6572 16138.67 5921887
14786.98 -5306.4912 16138.165 2437679
14818.048 -5283.3589 16067.814 2305838
14881.907 -5272.1396 16033.695 2108717
15042.33 -5295.0557 16103.387 2240045
15174.226 -5307.7021 16141.848 4478034
15270.617 -5307.8496 16142.296 4938073
15366.16 -5307.7021 16141.848 6385776
15462.43 -5307.8057 16142.162 4543572
15555.233 -5306.7251 16138.877 1780009
15650.96 -5306.6494 16138.646 1319972
0 0 0 0
0 0 0 0
0 0 0 0
0 0 0 0
-9403.0586 -3362.1682 10413.349 256
-9341.1484 -3362.1682 10413.349 256
-9279.2383 -3362.1682 10413.349 256
-9252.0879 -3374.8477 10452.619 256
-9191.8867 -3375.5608 10454.828 197633
-9067.3486 -3352.4968 10383.394 198146
-9005.6162 -3352.4968 10383.394 132097
-9226.3018 -3458.3569 10711.266 131841
-9188.0205 -3467.9441 10740.959 770
-8948.5859 -3401.2102 10534.27 395785
-8885.9561 -3401.2102 10534.27 461578
-9001.9268 -3470.0569 10747.502 1251094
-8934.7031 -3468.7651 10743.502 527373
-8782.1592 -3434.0923 10636.112 1251097
-8896.6348 -3504.0862 10852.898 1711648
-8832.1113 -3504.0862 10852.898 198410
-8742.9551 -3494.2412 10822.406 1053719
-9112.4258 -3668.906 11363.38 3817282
-9044.8662 -3668.906 11363.38 2896692
-9464.498 -3868.0137 11980.06 5594204
-10158.112 -4182.9634 12955.525 1974561
-12555.633 -5209.731 16135.642 922387
-10508.54 -4393.8979 13608.835 132101
-9981.0859 -4205.7373 13026.061 66822
-9346.3418 -3969.0703 12293.054 2369320
-8766.6465 -3752.2354 11621.469 1711388
-8875.0234 -3828.7983 11858.601 461321
-8810.6533 -3831.4646 11866.859 329991
-9416.9648 -4128.1865 12785.87 724493
-8143.9023 -3599.1575 11147.354 329992
-8143.3857 -3628.4568 11238.102 395785
-8157.1948 -3664.6772 11350.283 724750
-8446.6787 -3826.384 11851.124 329992
-8412.8057 -3843.0967 11902.886 198406
-8169.2197 -3763.48 11656.297 66820
-8099.9199 -3763.48 11656.297 198406
-8187.856 -3837.1672 11884.521 264201
-8130.7695 -3843.5823 11904.391 198408
-8059.9946 -3843.5823 11904.391 461580
-8051.2979 -3873.448 11996.891 395787
-7780.9731 -3776.854 11697.719 198408
-7579.7842 -3712.3789 11498.025 526603
-7352.5713 -3633.8687 11254.862 921621
-7415.7954 -3698.7773 11455.898 790033
-7010.7695 -3529.1753 10930.604 1579810
-7066.0259 -3590.2703 11119.829 856345
-7752.6045 -3976.3259 12315.525 1381913
-8179.3823 -4235.2207 13117.378 2501170
-7739.6211 -4046.0933 12531.61 1644833
-6659.6934 -3515.3726 10887.854 2632497
-6593.5723 -3514.6316 10885.56 5922927
-6528.854 -3514.6316 10885.56 855828
-7132.8394 -3878.2136 12011.65 8948634
-7173.9355 -3940.0046 12203.03 3024694
-6258.5854 -3472.4006 10754.762 1446694
-6892.9478 -3863.833 11967.111 855575
-7055.5605 -3996.2344 12377.186 2567736
-6750.6519 -3863.833 11967.111 1580066
-6316.644 -3653.9331 11317.006 14871018
-7442.3828 -4351.4795 13477.455 66050
-7362.2559 -4351.4795 13477.455 3028537
-6659.0244 -3979.1399 12324.24 593426
-6585.7534 -3979.1399 12324.24 1579807
-7863.8872 -4804.8511 14881.644 6185319
-7517.0615 -4645.2021 14387.177 12500934
-6181.3203 -3863.7397 11966.822 13554129
-5662.7192 -3580.7939 11090.479 10329245
-5552.542 -3552.4888 11002.812 8488583
-5534.4668 -3583.1372 11097.736 3356731
-5534.8442 -3626.6165 11232.4 462353
-5705.3174 -3783.9709 11719.761 594449
-5556.9419 -3731.1299 11556.102 922130
-5465.2563 -3715.5066 11507.712 1842975
-5396.8398 -3715.5066 11507.712 461578
-5256.3501 -3665.25 11352.057 724493
-5125.8042 -3620.7102 11214.107 527885
-5066.8794 -3626.2537 11231.277 791056
-4992.4624 -3620.7102 11214.107 462091
-4886.1416 -3591.5652 11123.84 462091
-4740.1157 -3532.0352 10939.463 527884
-4828.6724 -3648.0767 11298.868 593679
-4615.9912 -3536.5957 10953.587 791315
-4550.8696 -3536.5957 10953.587 528143
-4546.5396 -3584.5249 11102.034 2764335
-5222.3237 -4177.9717 12940.064 1119510
-4534.042 -3681.5662 11402.592 329994
-4346.668 -3582.9934 11097.291 1185304
-4280.6914 -3582.9934 11097.291 1645855
-5410.2388 -4599.3262 14245.09 5659229
-5320.2417 -4594.7441 14230.897 5856607
-5167.1973 -4534.6836 14044.877 593937
-4790.6807 -4273.312 13235.354 593166
-4586.9038 -4159.8687 12883.995 658959
-4510.3047 -4159.8687 12883.995 856594
-4951.875 -4646.0342 14389.754 724750
-4862.2476 -4642.1426 14377.7 1646365
-4391.7632 -4267.9878 13218.864 791056
-3834.3245 -3794.1555 11751.305 330505
-3765.9927 -3795.7009 11756.091 462091
-3516.1353 -3610.8872 11183.684 659470
-3399.5398 -3558.4397 11021.243 527884
-3334.0154 -3558.4397 11021.243 396298
-3252.7324 -3541.2827 10968.104 593677
-3293.7771 -3659.3284 11333.717 725517
-3318.6667 -3763.9814 11657.85 1580826
-3358.2529 -3890.123 12048.537 660238
-3320.0864 -3929.7339 12171.22 857617
-3243.6111 -3924.7559 12155.802 2107940
-3171.3416 -3924.7559 12155.802 1252374
-2959.5723 -3748.0896 11608.629 1317397
-2890.5559 -3748.0896 11608.629 1185556
-2863.1187 -3803.3228 11779.698 1317400
-2804.9143 -3819.4307 11829.588 1054485
-2803.6577 -3915.907 12128.395 1384220
-2859.5627 -4099.4224 12696.781 989461
-2733.8772 -4025.5056 12467.845 792339
-2564.2412 -3880.9502 12020.127 1318683
-2404.1794 -3743.0127 11592.905 1187354
-2287.1189 -3665.8567 11353.937 990232
-2330.176 -3848.4536 11919.479 1713955
-2259.3115 -3848.4536 11919.479 1912360
-2246.3503 -3950.2793 12234.854 2241325
-2495.1809 -4534.6948 14044.912 2372910
-2770.8225 -5209.9922 16136.452 5991779
-2674.7825 -5209.7896 16135.823 9413530
-2578.9841 -5210.0586 16136.658 9344912
-2483.1162 -5210.2041 16137.107 9081997
-2387.4233 -5210.7422 16138.774 10200990
-2291.4324 -5210.6479 16138.482 11186861
-2195.6445 -5211.0273 16139.657 13225931
-2099.6897 -5211.0273 16139.657 10330535
-2003.735 -5211.0273 16139.657 7038839
-1907.2878 -5209.6826 16135.492 7959937
-1811.3578 -5209.6826 16135.492 9605785
-1715.6395 -5210.3257 16137.484 13685456
-1619.6978 -5210.3257 16137.484 13553614
-1376.1683 -4705.6655 14574.444 13684688
-1181.672 -4312.1128 13355.529 13881298
-1159.6143 -4536.4473 14050.34 5000277
-1019.3969 -4297.4829 13310.217 7828864
-808.31927 -3694.429 11442.431 2828853
-738.71802 -3686.5793 11418.119 4606542
-796.03619 -4374.6294 13549.155 5066325
-764.02435 -4671.4248 14468.395 6049118
-624.2594 -4301.1157 13321.468 11706801
-536.82025 -4236.0981 13120.095 7232106
-460.48697 -4251.5107 13167.831 4073269
-347.61243 -3866.76 11976.177 14143708
-281.32343 -3935.4849 12189.031 12169407
-190.80956 -3595.4309 11135.812 11973310
-115.91471 -3344.7009 10359.249 9606047
-51.569019 -3174.9558 9833.5127 4211273
9.4257298 -4340.9487 13444.84 2304302
89.785454 -4361.6636 13508.997 2304044
144.51454 -3705.6028 11477.038 2830644
208.38876 -3629.6619 11241.833 1843492
264.73218 -3491.2881 10813.261 2698801
331.33517 -3515.8545 10889.348 3554110
0 0 0 0
0 0 0 0
0 0 0 0
0 0 0 0
580.58167 -3116.2256 9651.6123 2369063
637.96313 -3116.2256 9651.6123 4869452
669.29944 -2999.5024 9290.0957 3092271
616.35773 -2551.6714 7903.0674 3289134
0 0 0 0
0 0 0 0
0 0 0 0
1117.0819 -3543.9763 10976.447 2763046
0 0 0 0
0 0 0 0
0 0 0 0
0 0 0 0
0 0 0 0
0 0 0 0
0 0 0 0
0 0 0 0
0 0 0 0
0 0 0 0
0 0 0 0
0 0 0 0
0 0 0 0
700.47113 -1222.4652 3786.2341 6250082
741.54956 -1253.8616 3883.4756 9736854
795.60858 -1304.6477 4040.7708 6381926
919.19128 -1463.1208 4531.5957 3948101
999.67749 -1545.9233 4788.0527 4474704
1028.1437 -1545.9233 4788.0527 3290430
970.52222 -1419.9684 4397.9434 5263961
0 0 0 0
0 0 0 0
0 0 0 0
0 0 0 0
868.38116 -1119.6965 3467.938 7960443
869.25122 -1094.8242 3390.9028 8815495
851.37158 -1047.9991 3245.876 9407632
869.03851 -1046.0364 3239.7969 10131611
888.29999 -1046.0364 3239.7969 10329246
892.83856 -1029.0671 3187.2393 10065821
870.29242 -982.2345 3042.1887 10000540
884.20819 -977.62299 3027.906 10526884
864.94684 -937.24524 2902.8474 9407636
920.21167 -977.62299 3027.906 3618623
939.32129 -978.7774 3031.4814 3618366
937.22076 -958.20331 2967.759 4802900
951.64563 -954.9729 2957.7537 4671312
952.48755 -938.47632 2906.6604 4737358
948.07318 -917.48114 2841.6338 4803151
0 0 0 0
0 0 0 0
2509.5779 -2305.3579 7140.1826 10790822
2628.4565 -2374.3992 7354.0176 11250603
2521.7473 -2240.7314 6940.021 11250602
2378.1125 -2079.0854 6439.3687 11184554
2847.689 -2450.1729 7588.7051 7368305
3749.813 -3176.0479 9836.8945 3292229
3832.7705 -3196.4587 9900.1113 2963264
3891.6292 -3196.4587 9900.1113 2964295
4113.1006 -3328.0334 10307.626 3030344
4192.3389 -3342.3494 10351.965 3096393
4235.6641 -3328.0334 10307.626 3096650
4323.3477 -3348.4822 10370.96 3491408
4385.0063 -3348.4822 10370.96 3491408
4448.5034 -3349.8672 10375.249 4017752
4555.6006 -3383.5969 10479.718 2833735
4775.8359 -3499.3147 10838.12 2701638
4720.3877 -3412.6436 10569.682 3096650
4904.707 -3499.3147 10838.12 3228493
5084.0796 -3580.2544 11088.808 3557712
5175.2148 -3597.7795 11143.087 3491663
5241.4639 -3597.7795 11143.087 5530989
5418.2764 -3672.7244 11375.206 5662317
5339.2964 -3574.5718 11071.208 5399397
5047.7529 -3338.2358 10339.225 5661800
5072.459 -3314.2156 10264.828 7174014
5202.7588 -3358.9385 10403.345 13292497
5347.2803 -3411.6838 10566.709 13357777
5839.3589 -3682.3792 11405.109 13357263
6483.8247 -4041.854 12518.479 13487821
7623.2803 -4698.2324 14551.423 13619664
8106.8706 -4940.2061 15300.866 13422285
8150.3105 -4911.5645 15212.158 11316909
8240.752 -4911.5645 15212.158 13553871
7150.8159 -4215.6865 13056.876 12171962
8438.124 -4921.1826 15241.947 13159113
8651.0859 -4991.7769 15460.592 13553869
9124.7627 -5209.7402 16135.671 13619405
9220.6934 -5209.7402 16135.671 12500671
8738.8154 -4886.6362 15134.95 13684942
9345.5752 -5172.667 16020.848 13684941
8918.7783 -4886.6362 15134.95 13619151
9571.75 -5192.0205 16080.789 13421772
9649.8467 -5182.6167 16051.665 13158600
9172.8838 -4878.2129 15108.861 13619151
9111.4736 -4798.564 14862.172 13750737
9197.5596 -4797.3784 14858.499 13750737
9281.9033 -4795.3149 14852.108 13750737
9360.2979 -4790.2461 14836.408 13750737
9438.002 -4784.9209 14819.915 13750737
8931.7852 -4486.394 13895.314 13750737
9009.8428 -4484.1279 13888.295 13750737
9117.2676 -4496.3853 13926.26 13750737
9860.21 -4819.0225 14925.534 13684942
10757.225 -5210.5317 16138.123 13684686
10853.475 -5210.6777 16138.574 12237755
10949.469 -5210.6992 16138.643 12960965
11045.959 -5210.9556 16139.435 10197400
11142.075 -5211.0312 16139.67 11711925
11238.177 -5211.0991 16139.881 7765630
11334.735 -5211.3765 16140.739 8228493
11430.523 -5211.2974 16140.494 4542799
11526.405 -5211.2622 16140.386 5926506
11621.857 -5211.0352 16139.682 9084315
11717.386 -5210.8452 16139.093 12567749
11813.336 -5210.8452 16139.093 9936542
11909.891 -5211.1084 16139.909 5660767
12006.536 -5211.4072 16140.835 6780021
12102.296 -5211.3213 16140.567 4543830
12198.018 -5211.2188 16140.251 9281696
12294.059 -5211.2539 16140.359 8820630
12389.934 -5211.2188 16140.251 8820373
12486.284 -5211.3823 16140.757 12898000
12581.196 -5210.9473 16139.41 11318455
12676.093 -5210.5137 16138.066 6779504
12772.09 -5210.5347 16138.132 4674382
12867.592 -5210.3545 16137.574 4871505
12964.146 -5210.6011 16138.337 4477002
13060.481 -5210.7559 16138.817 4740947
13157.233 -5211.0737 16139.801 5464413
13253.189 -5211.0737 16139.801 3884613
13349.956 -5211.3901 16140.781 9871519
13446.395 -5211.5747 16141.354 5989221
13542.736 -5211.7202 16141.804 3687493
13637.104 -5211.1094 16139.911 8096396
13733.058 -5211.1079 16139.907 9412258
13829.013 -5211.1079 16139.907 8030347
13924.366 -5210.8823 16139.208 8689308
14020.317 -5210.8813 16139.206 13686744
14116.496 -5210.9653 16139.465 4277067
14212.928 -5211.1411 16140.009 7635077
14309.99 -5211.5435 16141.256 4937304
14406.758 -5211.8335 16142.154 4016201
14502.727 -5211.8335 16142.154 9740193
14596.672 -5211.1113 16139.917 6845044
14691.906 -5210.855 16139.124 3489857
14787.442 -5210.7085 16138.67 2568754
14882.514 -5210.4009 16137.718 2306095
14913.571 -5187.8301 16067.812 2239789
15078.544 -5211.8335 16142.154 2239532
15174.944 -5211.981 16142.611 3489598
15270.617 -5211.8794 16142.296 1515808
15366.587 -5211.8794 16142.296 1318175
15462.559 -5211.8794 16142.296 2371121
15554.803 -5210.6309 16138.431 1713449
0 0 0 0
0 0 0 0
0 0 0 0
0 0 0 0
0 0 0 0
-9403.0586 -3300.2578 10413.349 256
-9345.7461 -3301.8828 10418.475 256
-9314.2314 -3312.7039 10452.619 256
-9254.043 -3313.4041 10454.828 256
-9191.8867 -3313.4041 10454.828 256
-9107.3652 -3305.2871 10429.218 66561
-9091.3789 -3322.103 10482.276 1281
-9206.4639 -3387.3762 10688.234 768
-9188.5908 -3404.2971 10741.625 67074
-9053.6211 -3377.7678 10657.917 1317397
-9046.9365 -3399.0635 10725.111 132357
-9001.9268 -3406.1599 10747.502 3028017
-9360.6211 -3567.2034 11255.645 1646365
-8874.1328 -3406.1599 10747.502 3356726
-8921.6045 -3449.2161 10883.358 1580572
-9126.958 -3554.3872 11215.206 1712159
-9179.9834 -3601.3472 11363.38 1646367
-9571.2041 -3782.6626 11935.486 1909797
-12844.556 -5114.2495 16137.061 6185574
-12748.391 -5114.1592 16136.775 9346978
-12236.958 -4946.2148 15606.858 4806231
-12555.633 -5113.7998 16135.642 7766918
-12051.384 -4946.2148 15606.858 2634037
-10479.279 -4334.3521 13676.239 4541006
-9346.3418 -3895.9846 12293.054 7831167
-9201.4229 -3865.8054 12197.828 592908
-9200.1699 -3895.9846 12293.054 660242
-9402.9502 -4013.7407 12664.61 198406
-9546.1562 -4107.7627 12961.279 593164
-8779.2549 -3808.5037 12017.023 724750
-8623.2168 -3771.5054 11900.282 593164
-8238.8975 -3633.2266 11463.969 790543
-8249.3809 -3668.1943 11574.304 922129
-8213.5137 -3682.9675 11620.917 198406
-8468.1621 -3829.3643 12082.845 329992
-8339.793 -3803.5811 12001.49 593164
-8268.4414 -3803.5811 12001.49 461581
-8197.0889 -3803.5811 12001.49 527373
-8122.623 -3802.1233 11996.891 922132
-8132.7349 -3840.5806 12118.236 461580
-8123.9248 -3870.7102 12213.305 395787
-8148.4341 -3917.4014 12360.63 132616
-8036.292 -3898.6489 12301.46 1053719
-8259.2686 -4043.6213 12758.893 922133
-7366.6079 -3640.0183 11485.398 1120026
-7377.979 -3679.7456 11610.751 3290941
-7752.6045 -3903.1067 12315.525 4935255
-8249.3389 -4192.7905 13229.568 2303533
-8013.8872 -4112.3291 12975.688 1777707
-6817.123 -3532.2114 11145.234 5135461
-6750.8613 -3532.2114 11145.234 2436402
-6528.854 -3449.9138 10885.56 2502715
-6470.4873 -3453.303 10896.254 3487814
-7474.3989 -4029.4331 12714.125 13817055
-6705.5322 -3651.8706 11522.796 12305358
-6637.0254 -3651.8706 11522.796 3621966
-6717.7114 -3734.8157 11784.515 1118742
-6647.6489 -3734.8157 11784.515 328711
-6316.644 -3586.6501 11317.006 592399
-7420.1074 -4258.5674 13437.116 527634
-6699.1582 -3886.6436 12263.579 461841
-6620.6294 -3883.3481 12253.181 1316892
-6553.3374 -3886.6436 12263.579 2566704
-6762.8516 -4056.0276 12798.039 2368560
-7296.3511 -4425.7886 13964.751 8420494
-6218.9067 -3815.6555 12039.589 7170945
-5918.5479 -3673.6511 11591.521 4735834
-5531.2627 -3473.7097 10960.644 8683412
-5466.0981 -3473.7097 10960.644 2832442
-5694.3506 -3662.426 11556.102 792342
-5625.646 -3662.426 11556.102 527628
-5556.9419 -3662.426 11556.102 1316887
-5164.9663 -3446.6997 10875.418 3093298
-5396.8398 -3647.0898 11507.712 1185301
-5284.4214 -3616.9724 11412.682 1185301
-5188.8589 -3597.7588 11352.057 1251094
-5148.6528 -3616.9263 11412.536 856336
-5080.8018 -3616.9263 11412.536 790287
-4886.1416 -3525.4307 11123.84 987922
-4615.3164 -3375.7168 10651.445 1120022
-4650.1592 -3448.5178 10881.155 659213
-4610.0396 -3466.9973 10939.463 856593
-4550.8696 -3471.4734 10953.587 724751
-4578.0332 -3542.8928 11178.938 724751
-5161.978 -4053.6509 12790.539 1382681
-5085.9351 -4053.6509 12790.539 593165
-4754.439 -3846.9563 12138.354 527628
-4682.2729 -3846.9563 12138.354 461066
-5410.2388 -4514.6353 14245.09 10791595
-5510.2505 -4671.2139 14739.144 395530
-5244.7402 -4517.981 14255.646 659475
-4790.6807 -4194.624 13235.354 132361
-4562.3979 -4061.4543 12815.162 461580
-4510.3047 -4083.2695 12883.995 461581
-4947.7271 -4556.6631 14377.7 461578
-4509.2227 -4225.8252 13333.803 658957
-4162.2412 -3970.4524 12528.021 396298
-3801.5808 -3692.4868 11650.953 396298
-3732.3123 -3692.4868 11650.953 462091
-3503.3459 -3531.5049 11143.005 659470
-3362.7773 -3455.1431 10902.06 462091
-3317.9409 -3476.0745 10968.104 527884
-3252.7324 -3476.0745 10968.104 856849
-3147.9033 -3432.8672 10831.772 988433
-3285.198 -3657.4114 11540.28 791054
-3249.3577 -3694.6724 11657.85 725261
-3180.0483 -3694.6724 11657.85 856847
-3240.4446 -3848.7253 12143.935 988433
-3168.2456 -3848.7253 12143.935 1448984
-3007.1194 -3738.1792 11795.127 1186068
-2936.9099 -3738.0718 11794.789 856847
-2866.7864 -3738.0718 11794.789 1054228
-2804.9143 -3749.1006 11829.588 856849
-2764.9924 -3790.7905 11961.132 594447
-2776.5696 -3907.1497 12328.282 726033
-2715.2583 -3924.4705 12382.935 1055511
-2633.4236 -3912.2659 12344.426 1187097
-2477.4858 -3786.1174 11946.388 1845284
-2335.2563 -3674.0898 11592.905 1779491
-2330.176 -3777.5894 11919.479 1385758
-2247.9099 -3758.5259 11859.327 3688770
-2246.3503 -3877.5398 12234.854 5925989
-2391.0413 -4265.4175 13458.729 2636597
-2770.8225 -5114.0566 16136.452 2570802
-2674.8867 -5114.0566 16136.452 3295038
-2578.9841 -5114.1221 16136.658 5465687
-2483.2732 -5114.5874 16138.126 7635574
-2387.3801 -5114.7002 16138.482 7437682
-2291.3818 -5114.5874 16138.127 5660247
-2195.3625 -5114.416 16137.586 6778215
-2099.4395 -5114.4634 16137.734 7109749
-2003.4454 -5114.3335 16137.326 4741212
-1907.2878 -5113.7524 16135.492 4543066
-1811.3578 -5113.7524 16135.492 4541526
-1715.4995 -5113.9658 16136.166 6249327
-1619.5653 -5113.9658 16136.166 13618895
-1523.6313 -5113.9658 16136.166 13618898
-1289.5193 -4619.0166 14574.444 13488082
-1331.7384 -5113.8696 16135.862 12957386
-876.34778 -3626.4006 11442.431 6577006
-794.81592 -3565.8196 11251.278 9277852
-727.92389 -3565.8196 11251.278 4344145
-685.5517 -3698.0872 11668.624 4870230
-703.45929 -4221.9155 13321.468 5000278
-624.2594 -4221.9155 13321.468 3486782
-538.52582 -4171.3066 13161.779 6445929
-418.81412 -3795.5586 11976.177 2761516
-347.61243 -3795.5586 11976.177 2959156
-281.32343 -3863.0173 12189.031 9932450
-190.80956 -3529.2253 11135.812 6840947
-124.09877 -3514.9136 11090.654 7303282
-75.929482 -4588.6792 14478.722 6712181
10.770183 -4868.7915 15362.563 3159098
92.797729 -4424.9868 13962.22 1975337
156.4277 -3937.2178 12423.156 1908774
214.29427 -3663.7927 11560.414 1842981
264.73218 -3427.0005 10813.261 1842724
0 0 0 0
0 0 0 0
0 0 0 0
0 0 0 0
0 0 0 0
0 0 0 0
618.2309 -2964.2339 9353.0869 2894892
673.83759 -2964.2339 9353.0869 3092012
616.35773 -2504.6853 7903.0674 3223081
0 0 0 0
0 0 0 0
992.04932 -3281.0251 10352.663 3881267
1280.0592 -3986.2483 12577.863 3223599
0 0 0 0
0 0 0 0
0 0 0 0
0 0 0 0
0 0 0 0
0 0 0 0
0 0 0 0
0 0 0 0
0 0 0 0
0 0 0 0
0 0 0 0
0 0 0 0
641.23767 -1134.9568 3581.1445 6183517
700.47113 -1199.955 3786.2341 4472902
742.21283 -1231.8741 3886.949 9210512
795.60858 -1280.6241 4040.7708 7434617
946.94269 -1479.5391 4668.4097 4276553
1009.7543 -1532.7532 4836.3169 4803669
1038.5076 -1532.7532 4836.3169 2895928
970.52222 -1393.8214 4397.9434 3356478
0 0 0 0
0 0 0 0
0 0 0 0
0 0 0 0
0 0 0 0
0 0 0 0
851.37158 -1028.7015 3245.876 10921125
870.66919 -1028.7015 3245.876 10921125
889.96686 -1028.7015 3245.876 10855590
892.83856 -1010.1181 3187.2393 10789541
896.58356 -993.27441 3134.092 10591650
847.68866 -919.98706 2902.8474 10394270
847.47534 -901.40381 2844.2114 10394527
868.97449 -906.1897 2859.3127 5986654
923.22974 -944.29559 2979.5488 3684159
940.94397 -944.29559 2979.5488 3356221
951.76929 -937.50995 2958.1377 4605774
957.51849 -926.06116 2922.0132 4605771
959.46436 -911.40747 2875.7761 4671309
918.1106 -856.85608 2703.6497 4736844
0 0 0 0
950.25842 -856.85608 2703.6497 10592674
2480.4868 -2199.4712 6940.021 10526625
2396.7495 -2090.448 6596.019 10987172
2378.1125 -2040.8015 6439.3687 11052711
2847.689 -2405.0559 7588.7051 6908269
3758.0518 -3124.4143 9858.5068 3357248
3957.4248 -3239.645 10222.096 2766142
3913.9246 -3155.5754 9956.8301 2898242
4103.6436 -3259.241 10283.927 2766656
4164.7847 -3259.241 10283.927 2503741
4206.2207 -3244.0442 10235.976 2503742
4267.0767 -3244.0442 10235.976 2569536
4327.9326 -3244.0442 10235.976 2898245
4406.5176 -3257.1489 10277.326 3161673
4453.6455 -3246.9614 10245.181 2635329
4570.0088 -3286.8442 10371.023 3029831
4610.5732 -3271.8748 10323.79 2898499
4783.2271 -3349.804 10569.682 3622736
5078.0151 -3510.1365 11075.581 3294026
5101.5156 -3481.2393 10984.4 5070436
5166.8213 -3481.2393 10984.4 4938849
5217.1147 -3471.2507 10952.885 6188401
5123.7881 -3367.1282 10624.345 6056557
5047.7529 -3276.7661 10339.225 6976633
5140.9082 -3297.0874 10403.345 9475995
5350.2744 -3390.571 10698.314 13489108
5347.2803 -3348.8621 10566.709 13357521
5711.7896 -3535.6069 11155.948 10725290
6441.9468 -3941.8032 12437.625 13094348
6188.6816 -3743.8567 11813.041 13422544
6589.8374 -3941.8032 12437.625 13290958
7131.1445 -4218.2603 13309.933 12106943
7210.2754 -4218.2603 13309.933 7304827
7150.8159 -4138.0596 13056.876 13618894
7983.5688 -4570.3462 14420.875 13619149
8469.2812 -4796.8877 15135.685 13619149
8743.0039 -4899.8589 15460.592 13619151
8649.2529 -4796.8877 15135.685 13355722
8738.8154 -4796.6548 15134.95 13619151
9323.3271 -5065.3311 15982.708 13553358
9418.3477 -5065.3311 15982.708 13684944
9578.7334 -5100.1338 16092.521 13224393
9649.8467 -5087.1855 16051.665 13619151
8999.8115 -4698.0405 14823.79 13684944
9104.6562 -4706.6802 14851.052 13750737
9193.3848 -4706.9028 14851.754 13750737
9276.7891 -4704.4209 14843.924 13750737
9253.793 -4648.5376 14667.594 13750737
8852.1143 -4405.2461 13899.933 13750737
8930.6787 -4403.2373 13893.595 13750737
9009.4463 -4401.3643 13887.685 13750737
9092.0127 -4401.3643 13887.685 13750737
9860.21 -4730.2856 14925.534 13750480
10757.525 -5114.7295 16138.574 13553871
10853.776 -5114.8716 16139.023 13619406
10950.335 -5115.1558 16139.92 13488334
11046.117 -5115.0752 16139.666 7829883
11142.221 -5115.1431 16139.881 5857887
11237.264 -5114.7275 16138.569 5462874
11334.26 -5115.2002 16140.062 5858403
11430.217 -5115.2002 16140.062 6516590
11526.174 -5115.2002 16140.062 6384746
11621.717 -5115.0186 16139.486 8556174
11717.386 -5114.8936 16139.093 5200986
11813.629 -5115.02 16139.492 9543580
11910.399 -5115.3711 16140.6 9741475
12006.536 -5115.4458 16140.835 4675669
12102.32 -5115.3711 16140.6 5727844
12198.212 -5115.3418 16140.508 5662308
12294.171 -5115.3418 16140.508 6451823
12389.934 -5115.2607 16140.251 11320248
12485.588 -5115.1362 16139.858 5528409
12581.196 -5114.9941 16139.41 4148300
12676.411 -5114.6968 16138.471 4213577
12772.252 -5114.6538 16138.337 4872019
12868.2 -5114.6538 16138.337 4674126
12965.944 -5115.3638 16140.576 4476748
13061.906 -5115.3638 16140.576 4081989
13156.432 -5114.8062 16138.817 4476233
13253.381 -5115.1919 16140.034 4805198
13350.685 -5115.708 16141.662 9804698
13446.65 -5115.708 16141.662 2567469
13542.736 -5115.7524 16141.804 4807258
13637.104 -5115.1528 16139.911 4478039
13733.058 -5115.1519 16139.907 5530470
13829.018 -5115.1528 16139.911 4543834
13925.152 -5115.2192 16140.119 8095884
14021.111 -5115.2192 16140.119 2500660
14117.671 -5115.4375 16140.81 2630446
14214.817 -5115.8638 16142.153 2565165
14310.786 -5115.8638 16142.153 2891825
14406.758 -5115.8638 16142.154 4737624
14502.727 -5115.8638 16142.154 7040632
14597.476 -5115.436 16140.805 2831417
14691.906 -5114.9033 16139.124 2634291
14787.035 -5114.6191 16138.226 2371631
14751.12 -5069.3037 15995.242 2305839
14913.571 -5092.3027 16067.812 2174511
15078.544 -5115.8638 16142.154 3030331
15174.944 -5116.0088 16142.611 3228482
15270.058 -5115.7212 16141.705 8885912
15366.886 -5116.0078 16142.608 5594977
15462.023 -5115.7319 16141.737 1910059
0 0 0 0
0 0 0 0
0 0 0 0
0 0 0 0
0 0 0 0
0 0 0 0
-9428.5752 -3247.1357 10441.607 256
-9366.498 -3247.1357 10441.607 256
-9357.5059 -3265.6624 10501.183 256
-9254.043 -3251.2471 10454.828 256
-9161.0244 -3240.3308 10419.726 256
-9071.7744 -3230.6084 10388.462 0
-9091.3789 -3259.7827 10482.276 256
-9201.4658 -3322.0276 10682.433 256
-9431.3574 -3428.6914 11025.425 197634
-9302.2295 -3405.416 10950.58 527111
-9059.5879 -3339.9641 10740.109 263943
-9001.9268 -3342.2632 10747.502 264455
-8938.0293 -3342.2632 10747.502 1251606
-9590.417 -3612.0369 11614.996 6778989
-8921.6045 -3384.5117 10883.358 330250
-9126.958 -3487.71 11215.206 68104
-9847.752 -3790.8428 12189.972 331277
-10702.065 -4150.25 13345.694 791571
-12844.556 -5018.3101 16137.061 133642
-12748.389 -5018.2212 16136.773 1908769
-12236.958 -4853.4277 15606.858 2108208
-12556.514 -5018.2212 16136.773 7174269
-12051.384 -4853.4277 15606.858 11910327
-11162.555 -4530.3521 14567.964 2242619
-10113.463 -4136.6724 13302.033 1187615
-9273.2568 -3822.8994 12293.054 68621
-9478.2451 -3938.4458 12664.61 659217
-9402.9502 -3938.4458 12664.61 1843489
-9546.1562 -4030.7043 12961.279 132614
-9414.2158 -4007.3428 12886.157 527371
-8565.8467 -3676.134 11821.109 527371
-8281.8906 -3583.6736 11523.791 724750
-8213.3779 -3583.6736 11523.791 922129
-8502.4697 -3741.0159 12029.747 395785
-8602.6748 -3817.2151 12274.775 856336
-8396.3262 -3757.5286 12082.845 1119508
-8324.4902 -3757.5286 12082.845 395788
-8470.2236 -3856.5901 12401.392 395787
-8396.4941 -3856.5901 12401.392 724752
-8196.5371 -3798.0986 12213.305 987411
-8221.9219 -3843.9141 12360.63 526603
-8755.2764 -4130.1836 13281.169 329224
-8335.123 -3967.7661 12758.893 856084
-8597.3555 -4130.1836 13281.169 6185063
-7740.8848 -3753.2041 12068.939 7304570
-7377.979 -3610.7166 11610.751 133388
-7752.6045 -3829.8875 12315.525 1120023
-7917.1836 -3948.4834 12696.887 9476510
-7606.1655 -3829.8875 12315.525 4542039
-6778.3242 -3446.2241 11081.803 5595495
-6712.4399 -3446.2241 11081.803 5331043
-6528.854 -3385.196 10885.56 3948870
-6471.3335 -3388.9651 10897.679 2501686
-6509.0752 -3443.2024 11072.087 4540499
-6705.5322 -3583.3643 11522.796 1514014
-6637.0254 -3583.3643 11522.796 856085
-6568.5195 -3583.3643 11522.796 9279132
-6383.9268 -3519.3674 11317.006 13028302
-6265.4414 -3490.8394 11225.27 259
-6210.9521 -3497.7368 11247.45 921878
-6334.5586 -3606.1721 11596.138 724241
-6265.6167 -3606.1721 11596.138 3290424
-6556.9946 -3815.8613 12270.423 1119257
-6484.0439 -3815.8613 12270.423 1185051
-6442.3394 -3834.4597 12330.228 2302760
-6369.0332 -3834.4597 12330.228 8289930
-6295.7266 -3834.4597 12330.228 1052187
-6075.7495 -3744.0767 12039.589 13027799
-5732.1377 -3574.4426 11494.107 7369606
-5696.6812 -3595.1926 11560.832 2829617
-5627.9492 -3595.1926 11560.832 790033
-5559.2163 -3595.1926 11560.832 5922657
-5013.0293 -3282.5532 10555.497 2370089
-5579.5088 -3699.802 11897.218 658186
-5286.1265 -3550.2661 11416.364 856335
-5216.5698 -3549.1208 11412.682 1119508
-5148.7183 -3549.1208 11412.682 593166
-5080.8018 -3549.0754 11412.536 724493
-4849.625 -3433.4438 11040.707 2106404
-4740.1157 -3401.9587 10939.463 329993
-4650.1592 -3383.8264 10881.155 198406
-4585.4678 -3383.8264 10881.155 329992
-4520.7764 -3383.8264 10881.155 2501161
-4923.8447 -3739.03 12023.361 1251094
-4911.3062 -3784.4502 12169.415 1119508
-4609.0923 -3604.6785 11591.335 725006
-4695.627 -3728.0967 11988.203 1515295
-4682.2729 -3774.7905 12138.354 2633776
-5058.0703 -4141.5859 13317.835 1053460
-5508.6567 -4582.2598 14734.881 2237484
-5422.6221 -4583.5854 14739.144 394762
-5242.3623 -4504.0005 14483.228 329225
-4586.9038 -4006.6707 12883.995 198922
-4510.3047 -4006.6707 12883.995 658956
-4588.4961 -4146.5518 13333.803 658700
-4236.7236 -3895.9695 12528.021 264199
-4057.2021 -3797.6501 12211.862 461578
-3796.9382 -3618.7939 11636.726 461578
-3656.5049 -3549.6265 11414.309 461578
-3489.4868 -3451.5481 11098.923 264199
-3383.1492 -3410.866 10968.104 264199
-3334.9507 -3428.3523 11024.334 395785
-3316.9692 -3478.2256 11184.709 724750
-3301.011 -3532.3047 11358.607 527882
-3233.4807 -3532.3047 11358.607 527882
-3173.0764 -3540.2549 11384.173 725004
-3105.3945 -3540.2549 11384.173 922383
-3038.5554 -3541.2373 11387.332 1251348
-2970.8545 -3541.2373 11387.332 658954
-3060.5142 -3733.1841 12004.562 790797
-2936.9939 -3668.054 11795.127 988176
-2862.6646 -3662.6748 11777.83 593934
-2819.6912 -3698.1509 11891.908 1054228
-2803.6577 -3771.6936 12128.395 528140
-2735.8235 -3777.5928 12147.364 857105
-2715.9177 -3851.7856 12385.941 792081
-2641.6384 -3850.8503 12382.935 1449755
-2598.8394 -3897.0676 12531.552 1187353
-2527.8315 -3902.4644 12548.906 1318937
-2391.8296 -3804.8 12234.854 4082757
-2280.7112 -3741.8337 12032.377 3030068
-2418.5466 -4096.4609 13172.729 2108966
-2531.8296 -4431.8447 14251.2 2043431
-2770.8022 -5018.0845 16136.334 2570030
-2674.8672 -5018.0845 16136.334 2898479
-2578.9841 -5018.1851 16136.658 5859667
-2483.2732 -5018.6416 16138.126 6254168
-2387.3274 -5018.6416 16138.127 7240554
-2291.3052 -5018.4736 16137.586 6713699
-2195.3093 -5018.3521 16137.195 7897972
-2099.4448 -5018.5322 16137.775 6121820
-2003.4454 -5018.3926 16137.326 4345683
-1907.4392 -5018.2212 16136.773 3820628
-1811.5016 -5018.2212 16136.773 3885911
-1592.0502 -4656.9287 14974.989 4012109
-1503.0197 -4656.9287 14974.989 13619407
-1523.7002 -5018.2588 16136.895 13684690
-1427.7621 -5018.2593 16136.896 13684689
-1331.7384 -5017.9375 16135.862 13749972
-1235.8062 -5017.9375 16135.862 13158099
-808.72443 -3560.1553 11448.165 1513503
-740.66187 -3560.1553 11448.165 5330784
-767.8855 -4064.5173 13070.01 3358020
-703.45929 -4142.7158 13321.468 3159873
-616.77625 -4093.0559 13161.779 3423046
-493.40692 -3750.1306 12059.057 3224897
-399.01508 -3548.2915 11410.015 2435123
-346.76071 -3715.2314 11946.833 2434094
-275.73346 -3715.2314 11946.833 2368043
-200.98906 -3647.7683 11729.896 7893893
-158.03796 -4392.2212 14123.786 7169143
-74.068123 -4392.2212 14123.786 13680331
10.770183 -4777.4565 15362.563 9270406
83.970764 -3928.9661 12634.126 5725540
156.4277 -3863.3586 12423.156 9872553
212.74872 -3569.1345 11477.038 1843750
0 0 0 0
0 0 0 0
0 0 0 0
0 0 0 0
0 0 0 0
0 0 0 0
0 0 0 0
470.95563 -2215.7327 7124.9902 2894892
569.37177 -2457.6992 7903.0674 2960425
0 0 0 0
0 0 0 0
0 0 0 0
0 0 0 0
0 0 0 0
0 0 0 0
0 0 0 0
0 0 0 0
0 0 0 0
0 0 0 0
0 0 0 0
0 0 0 0
0 0 0 0
0 0 0 0
0 0 0 0
0 0 0 0
0 0 0 0
641.23767 -1113.6659 3581.1445 5986394
689.11615 -1158.3579 3724.8577 4933451
741.54956 -1207.6849 3883.4756 10395296
776.86792 -1227.0013 3945.5901 4934223
953.26733 -1461.4805 4699.5898 3750206
1030.698 -1535.1948 4936.6284 3092534
1060.0476 -1535.1948 4936.6284 2698032
1004.6068 -1415.7069 4552.3984 3487548
0 0 0 0
0 0 0 0
0 0 0 0
0 0 0 0
0 0 0 0
0 0 0 0
851.37158 -1009.4039 3245.876 8487042
904.25 -1048.3356 3371.0659 9013386
906.56335 -1028.2277 3306.4065 9276300
887.66412 -985.4248 3168.7676 9736851
896.58356 -974.64136 3134.092 9802644
877.39746 -934.36664 3004.5833 10000280
847.47534 -884.49408 2844.2114 9802386
868.97449 -889.19031 2859.3127 10395039
923.22974 -926.58136 2979.5488 2368039
923.29785 -909.20465 2923.6714 3290169
951.76929 -919.92297 2958.1377 3750210
957.51849 -908.68896 2922.0132 4473675
959.46436 -894.31012 2875.7761 4473673
945.13281 -865.52838 2783.2246 4473672
934.18457 -840.78217 2703.6497 4474184
0 0 0 0
2314.7205 -2013.9814 6476.2319 12237756
2396.7495 -2051.2329 6596.019 12039862
2378.1125 -2002.5176 6439.3687 11842740
2284.6277 -1893.3182 6088.2231 6908270
3758.0518 -3065.8027 9858.5068 2895928
3859.021 -3099.8274 9967.918 2436408
4018.1978 -3178.8721 10222.096 2239543
4114.4385 -3206.5127 10310.979 2174521
4162.5469 -3196.3818 10278.401 2240057
4176.4219 -3160.637 10163.459 2240571
4222.8369 -3150.1855 10129.852 2240571
4270.4072 -3140.8782 10099.923 2174778
4375.7358 -3173.7214 10205.534 2174778
4436.4111 -3173.7214 10205.534 2503744
4534.4976 -3200.124 10290.436 2964550
4610.5732 -3210.4968 10323.79 2701890
4795.0864 -3295.1138 10595.888 4873059
4942.1216 -3352.1155 10779.185 4544605
5086.8784 -3406.1328 10952.885 4280919
5252.2114 -3472.3877 11165.937 4346966
5217.1147 -3406.1328 10952.885 5005153
5151.0908 -3321.5691 10680.958 4610143
5039.6797 -3210.1541 10322.688 7964040
5101.0513 -3210.1541 10322.688 12043975
5297.7476 -3294.3037 10593.282 13291731
5360.7275 -3294.3037 10593.282 13423316
5711.7896 -3469.2817 11155.948 10331306
6483.8247 -3893.0024 12518.479 5200482
6188.6816 -3673.6248 11813.041 8555929
6258.9131 -3673.6248 11813.041 4082260
6271.5581 -3640.1995 11705.558 7634568
6341.1504 -3640.1995 11705.558 11909565
7150.8159 -4060.4331 13056.876 13356496
7529.1064 -4229.3252 13599.971 12896456
8236.2412 -4577.3867 14719.212 12500929
8619.3594 -4739.9473 15241.947 13619406
8686.0723 -4726.9385 15200.115 13553869
8966.3916 -4829.2446 15529.095 13619151
9284.0713 -4949.3828 15915.415 13553358
9379.5439 -4949.8315 15916.858 13487565
9552.3203 -4990.6597 16048.146 13619151
9647.7305 -4990.6597 16048.146 13684944
9016.3623 -4618.3867 14851.052 13750737
9071.459 -4601.5469 14796.901 13750737
9079.3877 -4561.3345 14667.594 13750737
9038.9746 -4497.8325 14463.394 13750737
8825.3662 -4350.1562 13988.521 13750737
8854.834 -4323.9351 13904.203 13750737
8931.8203 -4321.1885 13895.37 13750737
9014.4326 -4321.1885 13895.37 13750737
9113.625 -4329.064 13920.696 13750737
9571.3398 -4505.5679 14488.268 13750481
10742.059 -5011.5654 16115.371 13685456
10853.776 -5018.9209 16139.023 13553871
10950.513 -5019.2803 16140.181 13619408
11046.47 -5019.2803 16140.181 13091269
11142.428 -5019.2803 16140.181 4732746
11237.264 -5018.7793 16138.569 4344917
11332.973 -5018.6733 16138.229 4344914
11429.264 -5018.8247 16138.716 5595236
11525.711 -5019.0415 16139.412 6582643
11621.987 -5019.1807 16139.86 7372929
11717.942 -5019.1807 16139.86 4741207
11813.753 -5019.1191 16139.662 5662309
11909.734 -5019.1304 16139.698 3885642
12006.337 -5019.4009 16140.567 4543315
12101.96 -5019.2612 16140.118 4017228
12198.018 -5019.3022 16140.251 4148814
12294.514 -5019.522 16140.957 7899273
12390.476 -5019.522 16140.957 5070685
12486.672 -5019.6157 16141.259 3951177
12581.938 -5019.3374 16140.363 6648176
12677.027 -5018.9932 16139.257 2371373
12773.212 -5019.0845 16139.55 4673869
12869.294 -5019.1338 16139.709 4541514
12965.121 -5019.0845 16139.55 5133392
13060.481 -5018.8564 16138.817 5264722
13155.817 -5018.6226 16138.064 5199184
13251.764 -5018.6226 16138.064 4542026
13349.338 -5019.2349 16140.034 4936275
13444.037 -5018.7656 16138.525 3751746
