# .PCD v0.7 - Point Cloud Data file format
VERSION 0.7
FIELDS x y z rgb
SIZE 4 4 4 4
TYPE F F F U
COUNT 1 1 1 1
WIDTH 1423
HEIGHT 1
VIEWPOINT 0 0 0 1 0 0 0
POINTS 1423
DATA ascii
2664.3259 -4092.7593 9932.6719 4479330
2668.9407 -4010.9485 9734.127 4874085
0 0 0 0
0 0 0 0
0 0 0 0
0 0 0 0
2197.2664 -2979.1165 7229.9844 4079439
2075.6987 -2760.2927 6698.9238 3882317
2015.9265 -2630.3376 6383.5376 6974588
0 0 0 0
0 0 0 0
0 0 0 0
0 0 0 0
0 0 0 0
0 0 0 0
0 0 0 0
0 0 0 0
0 0 0 0
0 0 0 0
0 0 0 0
0 0 0 0
0 0 0 0
0 0 0 0
0 0 0 0
0 0 0 0
0 0 0 0
0 0 0 0
0 0 0 0
0 0 0 0
0 0 0 0
0 0 0 0
1798.0248 -1637.1431 3973.1646 5925248
1753.1085 -1575.5472 3823.678 4740714
0 0 0 0
0 0 0 0
0 0 0 0
0 0 0 0
1778.3136 -1500.8881 3642.4885 13685457
1771.34 -1477.0159 3584.5535 13685457
1787.1499 -1472.4834 3573.5535 13685457
1810.2258 -1473.9734 3577.1697 13685457
1831.4929 -1473.9734 3577.1697 13422543
1884.5906 -1499.2961 3638.6252 13619664
1876.7181 -1476.0897 3582.3057 13618638
0 0 0 0
0 0 0 0
0 0 0 0
0 0 0 0
0 0 0 0
0 0 0 0
0 0 0 0
0 0 0 0
0 0 0 0
0 0 0 0
1343.8671 -939.68439 2280.5098 6976633
1361.2155 -942.30823 2286.8774 6713463
1383.4318 -948.21661 2301.2163 4936285
1434.6117 -973.66669 2362.981 3751758
1436.7595 -965.66803 2343.5691 3817297
1443.8201 -961.09314 2332.4663 3750990
1453.9434 -958.62476 2326.4758 4277333
1467.7749 -958.62476 2326.4758 5198690
1487.5802 -962.48987 2335.856 5198433
1501.4675 -962.48987 2335.856 5198175
1502.6282 -954.40637 2316.2383 5264223
1497.2972 -942.38409 2287.0615 5264224
1504.7659 -938.56146 2277.7844 5067615
0 0 0 0
0 0 0 0
0 0 0 0
0 0 0 0
0 0 0 0
6867.0942 -4063.7556 9862.2832 4083288
6925.7285 -4063.7556 9862.2832 4873572
6943.0425 -4039.7141 9803.9375 4544096
7001.3301 -4039.7141 9803.9375 4675939
7059.6167 -4039.7141 9803.9375 4478560
7099.7021 -4029.3838 9778.8672 3557461
7169.6265 -4036.019 9794.9697 3689044
7333.1494 -4094.812 9937.6533 3622994
7493.7305 -4151.0356 10074.103 5464426
7560.2217 -4154.6616 10082.902 5399144
7794.9258 -4249.9429 10314.14 6319475
7856.2461 -4249.9429 10314.14 5859693
7834.6499 -4205.4355 10206.125 5661288
7976.0537 -4248.4341 10310.478 11912907
7984.8735 -4220.6943 10243.156 13161170
8132.2778 -4266.0742 10353.288 9739677
8193.8311 -4266.0742 10353.288 10989485
8043.9272 -4156.8013 10088.095 9738905
8103.9043 -4156.8013 10088.095 13620176
8014.6553 -4080.8201 9903.6973 13423310
8073.5356 -4080.8201 9903.6973 13488589
8686.2578 -4358.7363 10578.169 13554128
10157.501 -5060.3633 12280.939 13422286
10623.618 -5254.8062 12752.831 9211533
10303.527 -5060.3633 12280.939 13488078
10669.396 -5203.1807 12627.541 13619664
10744.47 -5203.1807 12627.541 13619664
10688.045 -5139.9419 12474.067 13750481
10202.354 -4872.5605 11825.163 13750737
10099.771 -4790.5557 11626.147 13684944
11646.756 -5486.7764 13315.798 13684944
11754.168 -5499.9932 13347.873 13553358
11833.524 -5499.9932 13347.873 13619151
11974.964 -5528.6562 13417.435 13619151
11917.191 -5465.5752 13264.344 13750737
11822.021 -5386.2837 13071.912 13750737
12035.63 -5447.7939 13221.191 13750737
12114.232 -5447.7939 13221.191 13750737
12105.576 -5408.8057 13126.571 13684944
10966.887 -4868.6499 11815.672 13619151
12432.252 -5484.0576 13309.198 13553358
12551.054 -5501.4482 13351.403 13619151
12590.506 -5484.0576 13309.198 13619151
12269.161 -5310.7134 12888.511 13750737
0 0 0 0
0 0 0 0
0 0 0 0
0 0 0 0
0 0 0 0
0 0 0 0
0 0 0 0
0 0 0 0
0 0 0 0
-5150.957 -2347.4927 5780.5078 256
-5119.4927 -2348.8242 5783.7871 256
-5099.979 -2355.6938 5800.7031 256
-5133.6938 -2387.4109 5878.8037 256
-5234.4258 -2450.9424 6035.2446 512
-5036.0303 -2374.3223 5846.5742 132354
-5001.2705 -2374.3223 5846.5742 856590
-4855.0913 -2321.0564 5715.4111 396294
-4850.5098 -2335.2097 5750.2622 1185811
-4848.0674 -2350.6013 5788.1626 528136
-4823.5654 -2355.4404 5800.0786 264964
-4794.2456 -2357.98 5806.332 330500
-4759.7251 -2357.98 5806.332 331013
-4762.6055 -2376.6436 5852.29 1450006
-4692.7896 -2359.0378 5808.9375 1844763
-4676.3472 -2368.2007 5831.5 857612
-4641.6772 -2368.2007 5831.5 858126
-4661.9111 -2396.4238 5900.9971 1515544
-4688.5391 -2428.3862 5979.7021 1055249
-4864.1338 -2538.5828 6251.0518 133122
-4826.9692 -2538.5828 6251.0518 1024
-4639.6475 -2458.9998 6055.0854 198658
-4679.5762 -2499.5559 6154.9517 1778460
-5016.2446 -2700.5015 6649.7637 133123
-4852.6382 -2633.177 6483.9824 768
-5004.1074 -2737.1118 6739.9131 768
-4976.2402 -2743.8406 6756.4824 512
-5122.834 -2847.6575 7012.123 512
-5081.1445 -2847.6575 7012.123 1024
-5039.4556 -2847.6575 7012.123 329734
-5015.1187 -2857.5444 7036.4688 330246
-5883.9644 -3380.8015 8324.9463 512
-6271.2544 -3633.8972 8948.1738 512
-5635.375 -3293.3733 8109.6611 256
-5529.1499 -3259.1782 8025.459 256
-5727.8687 -3405.7034 8386.2646 256
-5729.1089 -3436.3528 8461.7363 256
-5714.251 -3457.804 8514.5586 256
-5783.0259 -3530.6987 8694.0557 256
-6246.9312 -3848.3223 9476.1777 513
-6329.896 -3934.9185 9689.4141 66307
-6366.6895 -3994.1399 9835.2422 198149
-6461.8174 -4091.3948 10074.725 132613
-6490.812 -4148.2041 10214.613 513
-6446.1538 -4158.5723 10240.143 513
-6409.5063 -4174.3545 10279.006 256
-6348.395 -4174.3545 10279.006 770
-6350.7241 -4216.4756 10382.725 462091
-6289.5298 -4216.8335 10383.606 857106
-6227.7969 -4216.8335 10383.606 1712670
-6200.4805 -4240.3706 10441.564 1778719
-6303.2495 -4354.2461 10721.974 1120789
-6239.5049 -4354.2461 10721.974 1581597
-6116.7856 -4312.666 10619.587 132613
-6120.3335 -4360.1724 10736.567 264712
-6350.498 -4571.8252 11257.745 528140
-6130.3862 -4460.373 10983.303 1777951
-6157.897 -4528.6265 11151.372 792083
-5889.1919 -4378.1533 10780.843 2634030
-5823.9004 -4377.2534 10778.628 1252377
-6319.5439 -4802.625 11826.07 989462
-7800.1948 -5994.5591 14761.11 1186586
-8430.6807 -6552.8218 16135.786 1252379
-8334.749 -6552.8218 16135.786 726546
-8238.8174 -6552.8218 16135.786 1384733
-8143.0591 -6552.9614 16136.13 1187354
-8047.125 -6552.9614 16136.13 1582112
-7693.292 -6340.4136 15612.749 2306350
-7600.4697 -6340.4136 15612.749 2042667
-7760.0142 -6553.5444 16137.565 1121309
-7663.249 -6552.8403 16135.832 857883
-7566.2295 -6551.8989 16133.514 1252387
-6704.897 -5880.5854 14480.46 4804441
-5870.6885 -5215.9082 12843.746 6449015
-4932.2002 -4439.8423 10932.747 8291472
-4856.3262 -4429.9209 10908.317 5662578
-4802.2041 -4439.8423 10932.747 1714734
-4872.0547 -4566.2261 11243.957 1847093
-4805.2061 -4566.2261 11243.957 2043957
-4825.1904 -4649.9048 11450.009 3951182
-4951.7012 -4840.103 11918.357 3555664
-4323.5508 -4287.4624 10557.524 7634831
-4260.7827 -4287.4624 10557.524 4607325
-4509.5317 -4605.6157 11340.951 10987960
-4445.604 -4609.2422 11349.881 3820114
-4374.6816 -4605.6157 11340.951 1385771
-4266.4873 -4562.0229 11233.607 1319722
-4301.1929 -4672.2715 11505.085 6912898
-4255.6489 -4697.5015 11567.212 596511
-4186.8784 -4697.5015 11567.212 1452075
-3834.9175 -4374.4673 10771.767 4346966
-3697.4065 -4289.2373 10561.896 2504506
-3667.5259 -4328.0781 10657.537 1056800
-3530.4236 -4239.5269 10439.487 2767418
-3485.001 -4259.8701 10489.581 4609623
-3366.3767 -4189.8472 10317.155 1977901
-3360.2739 -4259.8701 10489.581 1319716
-3349.532 -4326.5488 10653.771 1911339
-3429.1177 -4514.7222 11117.133 1845803
-3350.0647 -4497.3262 11074.297 1253667
-3349.5969 -4586.8447 11294.729 1714216
-3337.843 -4664.2549 11485.345 8227979
-3237.5125 -4618.5376 11372.77 1385508
-3031.0405 -4416.2222 10874.585 1517094
-2978.1445 -4433.7246 10917.683 2109230
-2901.7358 -4416.2222 10874.585 1582887
-2816.2092 -4383.7295 10794.574 1912109
-2879.2822 -4586.4263 11293.698 5727333
-3092.4312 -5043.5674 12419.371 10594734
-2829.8411 -4728.1919 11642.784 1251357
-2944.7578 -5043.5674 12419.371 1186335
-2777.458 -4879.373 12015.057 1778729
-2700.1169 -4868.7197 11988.823 2765623
-2735.9041 -5067.0068 12477.089 2173485
-2661.7244 -5067.0068 12477.089 1515811
-2731.7988 -5349.4897 13172.68 1712677
-2592.8716 -5227.2944 12871.784 1448992
-2323.4045 -4826.4922 11884.841 1646884
-2211.9392 -4739.0635 11669.556 791574
-2069.1228 -4576.6294 11269.574 1910825
-2048.9749 -4683.7305 11533.302 1845032
-1853.1204 -4382.6943 10792.025 1385250
-1956.2147 -4792.4478 11801.01 1714216
-1923.0663 -4886.4946 12032.592 1582116
-1868.2244 -4930.5562 12141.09 1121567
-1837.4282 -5044.1704 12420.855 1582888
-1787.8916 -5113.6978 12592.062 1911596
-1794.1891 -5355.978 13188.656 1451045
-1711.0957 -5341.3584 13152.657 1582888
-1593.14 -5211.3018 12832.403 1582631
-1516.8479 -5211.3018 12832.403 1516838
-1405.22 -5083.4727 12517.635 1517095
-1259.6392 -4811.6514 11848.297 1977902
-1120.2631 -4532.7324 11161.481 2110003
-1096.4219 -4715.5938 11611.763 2372917
-1027.3868 -4715.5938 11611.763 2241332
-973.86792 -4791.9419 11799.764 2767421
-887.37842 -4705.3169 11586.457 2438711
-809.92749 -4656.0723 11465.196 2504505
-741.76379 -4656.0723 11465.196 2701884
-626.22778 -4328.625 10658.885 5004896
-570.89642 -4390.4463 10811.114 4807518
-601.24017 -5210.4248 12830.244 2636608
-562.90662 -5587.0513 13757.655 2900039
-500.88385 -5816.6392 14322.997 3821141
-449.2355 -6285.4331 15477.363 3755348
-357.21826 -6285.4331 15477.363 3952984
-232.14073 -5501.8828 13547.936 4019290
-151.59448 -5501.8828 13547.936 4808549
-58.796352 -4553.1128 11211.667 5530987
7.860127 -4553.1128 11211.667 12962765
72.910255 -4454.9614 10969.978 13423057
0 0 0 0
0 0 0 0
0 0 0 0
490.57971 -6547.5996 16122.927 13685457
586.4538 -6547.8101 16123.445 13750737
682.30896 -6547.7788 16123.368 13750737
775.83014 -6528.1172 16074.952 13750737
871.31622 -6527.4873 16073.403 13750737
960.68036 -6485.6528 15970.388 13750737
1037.6604 -6375.2573 15698.549 13750737
1115.4762 -6287.7935 15483.176 13750737
1207.403 -6287.1431 15481.573 13750737
1299.2592 -6286.2422 15479.356 13750737
1384.3086 -6254.7056 15401.7 13750737
1475.876 -6254.7056 15401.7 13750737
1612.4745 -6434.397 15844.176 13750737
1706.9019 -6435.2622 15846.306 13750737
1800.8705 -6434.397 15844.176 13750737
1884.0266 -6396.9062 15751.856 13750737
1951.0211 -6310.6909 15539.558 13750737
2004.4207 -6190.2847 15243.068 13750737
2095.0449 -6190.2847 15243.068 13750737
2171.4309 -6149.9585 15143.768 13750737
2259.4758 -6144.5498 15130.449 13750737
2302.5432 -6021.9233 14828.492 13750481
2436.8374 -6138.1318 15114.646 13553871
2697.3799 -6552.77 16135.659 13422030
2793.4231 -6553.0337 16136.309 9801636
2860.1768 -6486.8506 15973.339 9407900
2955.1428 -6486.8506 15973.339 8026759
3081.1245 -6552.8145 16135.769 8290446
2743.4368 -5658.4556 13933.483 8817559
2208.8975 -4422.4102 10889.822 6778486
2230.2979 -4338.106 10682.229 5857639
2317.6931 -4383.2808 10793.469 6910071
2394.3188 -4406.2017 10849.911 4147024
2443.1533 -4378.1191 10780.76 3160130
2344.8411 -4094.5266 10082.436 4936798
2404.7839 -4094.5266 10082.436 4213845
2477.1741 -4115.2046 10133.354 5135716
2559.1877 -4150.5078 10220.286 4938854
2546.2209 -4033.7068 9932.6719 3031114
2605.2734 -4033.7068 9932.6719 3754837
2652.269 -4015.4529 9887.7236 3754836
2463.6707 -3649.0427 8985.4688 4610144
0 0 0 0
0 0 0 0
0 0 0 0
2154.2822 -2936.1321 7229.9844 3882316
2197.2664 -2936.1321 7229.9844 8290444
2072.8738 -2716.7634 6689.8071 6645620
2112.6465 -2716.7634 6689.8071 4737623
1851.9364 -2337.4968 5755.894 4935003
0 0 0 0
0 0 0 0
0 0 0 0
0 0 0 0
0 0 0 0
0 0 0 0
0 0 0 0
0 0 0 0
0 0 0 0
0 0 0 0
0 0 0 0
0 0 0 0
0 0 0 0
0 0 0 0
0 0 0 0
0 0 0 0
0 0 0 0
0 0 0 0
0 0 0 0
0 0 0 0
1738.3621 -1580.7483 3892.4631 4673901
1825.9143 -1638.5492 4034.7932 4740974
1757.9534 -1557.1056 3834.2449 4280931
0 0 0 0
0 0 0 0
0 0 0 0
0 0 0 0
1805.8918 -1502.1726 3698.9768 13685457
1823.9454 -1498.9363 3691.0078 13685457
1831.0685 -1486.9011 3661.3721 13619664
1867.8335 -1498.9363 3691.0078 13553615
1906.4443 -1512.1561 3723.5603 13421772
1884.5906 -1477.6636 3638.6255 10921382
1906.2233 -1477.6636 3638.6252 13685714
0 0 0 0
0 0 0 0
0 0 0 0
0 0 0 0
0 0 0 0
0 0 0 0
0 0 0 0
0 0 0 0
0 0 0 0
0 0 0 0
1383.6516 -953.5437 2348.0232 5788766
1397.6113 -953.5437 2348.0232 5590873
1411.5709 -953.5437 2348.0232 5524566
1448.3191 -968.78699 2385.5586 4143686
1457.5476 -965.50531 2377.4775 4079440
1463.6758 -960.25244 2364.543 3750989
1453.9434 -944.79327 2326.4758 3488330
1465.5477 -943.3595 2322.9456 3948111
1500.6296 -956.92395 2356.3467 5132382
1530.0424 -966.65564 2380.3103 5000795
1515.3549 -948.60248 2335.856 5066588
1516.3988 -940.63574 2316.2383 5132381
1506.8928 -926.32697 2281.0042 5066588
1470.8518 -896.10712 2206.5903 5001308
0 0 0 0
0 0 0 0
0 0 0 0
0 0 0 0
5605.4136 -3269.2666 8050.3008 4938598
6810.104 -3938.2561 9697.6328 4346974
6869.0894 -3939.0193 9699.5117 4084315
6954.022 -3954.5247 9737.6924 4215391
7018.4331 -3958.2007 9746.7441 3228752
7039.1323 -3937.3657 9695.4404 3030860
7098.4165 -3938.2769 9697.6836 2833225
7215.0054 -3970.7104 9777.5488 2833479
7493.7305 -4091.1423 10074.103 4345944
7560.2217 -4094.7161 10082.902 5135717
7638.4897 -4104.561 10107.146 5465448
7853.4561 -4187.1353 10310.478 5925228
7895.5928 -4176.998 10285.515 5859431
7976.0537 -4187.1353 10310.478 6122092
8131.1958 -4236.0239 10430.861 7898501
8193.21 -4236.0239 10430.861 5923683
8337.373 -4278.1768 10534.66 10134948
8400.0049 -4278.1768 10534.66 10199199
8310.0986 -4201.0635 10344.774 13291723
8163.8809 -4096.8247 10088.095 13488591
8073.5356 -4021.9399 9903.6973 13488336
8240.6719 -4075.4785 10035.532 13553871
10157.501 -4987.3496 12280.939 13619664
10627.38 -5180.8208 12757.346 13159368
9827.7344 -4757.0454 11713.834 12501954
10539.721 -5065.7798 12474.067 13554127
10739.993 -5125.9697 12622.279 13619406
10558.837 -5004.5391 12323.268 13750734
10030.65 -4721.4355 11626.147 13750737
9832.2051 -4596.354 11318.146 13684944
11868.752 -5510.6841 13569.607 13619151
12091.684 -5576.2881 13731.152 13619151
11984.414 -5489.7554 13518.072 13684944
12064.782 -5489.7554 13518.072 13619151
11917.191 -5386.7148 13264.344 13750737
11833.921 -5313.9111 13085.071 13750737
11949.494 -5330.7646 13126.571 13750737
12114.232 -5369.1904 13221.191 13750737
12105.576 -5330.7646 13126.571 13553358
12649.696 -5534.6909 13628.722 13619151
12900.006 -5608.2871 13809.946 13619151
12985.286 -5609.6587 13813.325 13619151
12892.216 -5534.4502 13628.13 13750737
12541.336 -5350.1982 13174.425 13750737
12345.768 -5234.0791 12888.49 13750737
0 0 0 0
0 0 0 0
0 0 0 0
0 0 0 0
0 0 0 0
0 0 0 0
0 0 0 0
0 0 0 0
-5006.3164 -2248.1724 5618.1895 512
-5095.124 -2303.4214 5756.2563 256
-5060.9014 -2303.4214 5756.2563 527882
-4973.042 -2278.843 5694.835 264707
-5070.79 -2339.563 5846.5742 67073
-5071.7734 -2356.168 5888.0703 2502437
-5036.7676 -2356.168 5888.0703 2107934
-4810.2905 -2265.9724 5662.6714 331780
-4819.0049 -2286.0771 5712.9131 134145
-4858.0483 -2320.957 5800.0786 1187089
-4901.356 -2358.3879 5893.6182 1647638
-4866.3169 -2358.3879 5893.6182 1384211
-4796.9321 -2341.6221 5851.7202 2699817
-4774.6045 -2347.75 5867.0342 463878
-4773.3613 -2364.4124 5908.6729 464133
-4738.2324 -2364.4124 5908.6729 3227690
-4641.6772 -2333.5308 5831.5 3490863
-4603.939 -2331.9768 5827.6162 2437920
-4585.5098 -2340.2537 5848.3003 1384721
-4701.3179 -2417.6892 6041.812 923917
-4591.6431 -2379.4685 5946.2983 594696
-4556.2905 -2379.4685 5946.2983 199683
-4783.3921 -2517.6035 6291.4985 2371106
-4931.7925 -2616.1675 6537.8101 1186832
-4823.5933 -2579.0981 6445.1733 1515799
-5016.4092 -2703.6714 6756.4824 1712154
-5169.7227 -2808.7937 7019.1831 66304
-5127.9917 -2808.7937 7019.1831 256
-5081.1445 -2805.9685 7012.123 256
-5042.0059 -2807.3882 7015.6714 1580311
-5122.9956 -2876.2773 7187.8252 1777689
-5342.8706 -3024.958 7559.3784 921869
-5628.75 -3213.8472 8031.4136 512
-5581.001 -3213.8472 8031.4136 0
-5384.8506 -3127.6519 7816.0112 256
-5143.3481 -3013.3855 7530.459 0
-5002.689 -2956.7131 7388.8345 256
-5599.584 -3338.811 8343.6982 256
-5663.6299 -3407.1826 8514.5586 256
-5731.3374 -3479.01 8694.0557 256
-6178.7651 -3784.7385 9458.0723 66305
-6254.3369 -3866.2146 9661.6807 66305
-6441.2646 -4018.6753 10042.681 131842
-6399.1958 -4029.7822 10070.437 132613
-6365.5005 -4046.4219 10112.02 66563
-6409.5063 -4113.2432 10279.006 67076
-6302.4351 -4083.4646 10204.59 769
-6350.7241 -4154.7471 10382.725 1283
-6322.4072 -4176.8198 10437.885 527884
-6227.2681 -4154.7471 10382.725 1515293
-6201.4346 -4178.9355 10443.171 1120791
-6303.2495 -4290.501 10721.974 1450012
-6239.5049 -4290.501 10721.974 1646365
-6116.7856 -4249.5298 10619.587 132869
-6120.3335 -4296.3403 10736.567 462091
-6350.498 -4504.895 11257.745 658957
-6253.1978 -4483.1221 11203.334 922129
-6186.5908 -4483.1221 11203.334 922642
-6170.5444 -4520.1592 11295.891 1580829
-6809.1421 -5042.8398 12602.071 1975843
-6734.2192 -5042.8398 12602.071 660240
-7800.1948 -5906.8003 14761.11 1778721
-8318.9072 -6371.2852 15921.859 1121304
-8224.248 -6371.2852 15921.859 1450526
-8070.6772 -6325.1162 15806.483 1911334
-8143.0591 -6457.0278 16136.13 3293244
-8048.0269 -6457.751 16137.938 1582883
-7693.292 -6247.5913 15612.749 1319198
-7600.4697 -6247.5913 15612.749 2371632
-7759.397 -6457.0879 16136.281 989724
-7663.249 -6456.9082 16135.832 332823
-7565.6304 -6455.4702 16132.237 2635579
-7212.2803 -6232.9854 15576.248 5726569
-6618.8062 -5794.4951 14480.46 12436940
-4932.2002 -4374.8438 10932.747 3751490
-4837.6958 -4348.3218 10866.469 2635841
-4802.2041 -4374.8438 10932.747 2767683
-4757.7817 -4393.8462 10980.233 1780788
-4755.2715 -4452.6211 11127.112 2438972
-4707.2549 -4469.8438 11170.152 3161669
-4622.9639 -4452.6211 11127.112 1643552
-4127.6528 -4033.2764 10079.169 13751006
-4525.7935 -4487.4609 11214.177 6382448
-4513.0825 -4541.7637 11349.881 12371407
-4551.707 -4650.1621 11620.768 3623505
-4333.2744 -4495.2363 11233.607 1451821
-4337.0552 -4569.5869 11419.411 1385771
-4269.1636 -4569.5869 11419.411 9478051
-4005.8904 -4357.0767 10888.347 1056801
-4015.4666 -4439.2295 11093.647 1780524
-3804.4424 -4276.1719 10686.166 1780523
-3697.4065 -4226.4443 10561.896 2898747
-3684.7913 -4284.793 10707.71 1385764
-3530.4236 -4177.4614 10439.487 2175280
-3485.001 -4197.5063 10489.581 2635831
-3422.6372 -4197.5063 10489.581 1517350
-3421.0417 -4273.415 10679.276 1516838
-3349.532 -4263.209 10653.771 1780009
-3359.7131 -4358.5889 10892.125 858907
-3363.0229 -4448.6279 11117.133 1780010
-3425.4773 -4622.0815 11550.595 1714216
-3356.8059 -4622.0815 11550.595 2832440
-3246.3813 -4563.3901 11403.925 1648423
-2966.6836 -4259.1743 10643.688 1385251
-2966.3882 -4351.5693 10874.585 1187873
-2875.0632 -4311.5703 10774.627 1648424
-2811.0051 -4311.5703 10774.627 1384997
-2879.2822 -4519.2817 11293.698 6254194
-3098.0071 -4978.6914 12441.765 7240070
-2672.2124 -4399.457 10994.255 13029326
-2848.8909 -4807.9404 12015.057 527373
-2897.6458 -5015.9927 12534.979 1252126
-2583.4053 -4590.0752 11470.61 1580836
-2515.2092 -4590.0752 11470.61 1448991
-2548.1279 -4779.7446 11944.595 5594207
-2593.4937 -5004.3057 12505.774 2172971
-2653.4834 -5271.1743 13172.68 1317406
-2355.1785 -4820.8716 12047.372 1448482
-2160.0383 -4560.1157 11395.742 7104889
-2067.168 -4505.3682 11258.928 4477013
-2000.2306 -4505.3682 11258.928 858137
-1964.7225 -4578.6118 11441.964 1253151
-1956.2147 -4722.2876 11801.01 923931
-1947.4235 -4875.9429 12184.995 1845034
-1894.3218 -4926.2407 12310.689 1187104
-1862.7549 -5038.8345 12592.062 1187616
-1890.1119 -5326.9233 13311.996 1911083
-1820.0923 -5353.7612 13379.064 924958
-1607.1083 -4943.3071 12353.339 1188130
-1533.6643 -4943.3071 12353.339 1385252
-1479.6407 -5009.0518 12517.635 1780010
-1438.0651 -5126.1318 12810.218 1516838
-1359.3253 -5116.4229 12785.955 1319460
-1236.6934 -4930.5698 12321.508 1451302
-1253.8922 -5313.9062 13279.467 1648681
-1027.3868 -4646.5586 11611.763 5069661
-956.26306 -4636.4321 11586.457 2175283
-878.09131 -4587.9087 11465.196 3293763
-809.00226 -4582.6675 11452.099 4149844
-740.91638 -4582.6675 11452.099 1716016
-625.32794 -4259.1265 10643.569 5794414
-623.99756 -4728.564 11816.694 2307642
-540.2511 -4613.3447 11528.761 2307643
-494.76752 -4838.854 12092.31 3162953
-481.11353 -5505.2578 13757.655 3624019
-437.55234 -6032.3447 15074.847 3492176
-358.58478 -6217.1079 15536.57 3557969
-254.99854 -5955.1499 14881.937 4150619
-154.66724 -5531.2246 13822.546 4413790
-70.053421 -5345.4268 13358.236 5925745
7.860127 -4486.4565 11211.667 12437706
0 0 0 0
0 0 0 0
0 0 0 0
0 0 0 0
490.58624 -6451.8301 16123.143 13685457
586.46136 -6452.0337 16123.651 13750737
682.31171 -6451.9478 16123.435 13750737
775.83112 -6432.5547 16074.972 13750737
871.32886 -6432.0205 16073.637 13750737
964.84595 -6418.4155 16039.638 13750737
1037.7917 -6282.7202 15700.536 13750737
1131.0029 -6281.9824 15698.691 13750737
1220.2261 -6260.8945 15645.992 13750737
1313.0758 -6260.084 15643.967 13750737
1406.0835 -6260.084 15643.967 13750737
1499.0913 -6260.084 15643.967 13750737
1612.6912 -6341.0518 15846.306 13750737
1725.0974 -6408.6465 16015.227 13750737
1812.2917 -6380.4087 15944.66 13750737
1899.3917 -6354.6636 15880.321 13750737
1987.5326 -6334.6724 15830.364 13750737
2028.1832 -6171.9722 15423.775 13750737
2119.8816 -6171.9722 15423.775 13750737
2186.5999 -6102.2573 15249.559 13750737
2277.2627 -6102.2573 15249.559 13750737
2349.4307 -6054.5947 15130.449 13750737
2032.0837 -5043.6655 12604.134 13619152
2641.5562 -6323.2114 15801.724 13619152
2793.4348 -6457.126 16136.376 13684434
2889.2864 -6456.9385 16135.908 13157584
2955.1428 -6391.8853 15973.339 5524314
3081.1245 -6456.8828 16135.769 11843266
2743.4368 -5575.6172 13933.483 4144710
2256.437 -4451.4526 11124.192 5726565
2273.6404 -4357.667 10889.822 5068380
2338.3833 -4357.667 10889.822 5265503
2394.3188 -4341.6963 10849.911 5199452
2443.1533 -4314.0249 10780.76 5923688
2505.8618 -4311.6392 10774.799 4674134
2479.6453 -4160.1812 10396.304 5200478
2541.4541 -4160.1812 10396.304 4477782
2534.1438 -4049.7241 10120.271 5069921
2546.2209 -3974.6541 9932.6719 4807263
2553.1965 -3895.2043 9734.127 4544093
2541.5535 -3791.5017 9474.9736 3426125
2407.3926 -3513.4863 8780.2119 4149594
0 0 0 0
0 0 0 0
0 0 0 0
2319.7524 -3115.3704 7785.3193 9015446
2366.0386 -3115.3704 7785.3193 4606030
2072.8738 -2676.9907 6689.8071 5066840
2112.6465 -2676.9907 6689.8071 4803415
1838.9454 -2287.1191 5715.5171 4999769
0 0 0 0
0 0 0 0
0 0 0 0
0 0 0 0
0 0 0 0
0 0 0 0
0 0 0 0
0 0 0 0
0 0 0 0
0 0 0 0
0 0 0 0
0 0 0 0
0 0 0 0
0 0 0 0
0 0 0 0
0 0 0 0
0 0 0 0
0 0 0 0
0 0 0 0
0 0 0 0
0 0 0 0
1761.5039 -1557.6066 3892.4631 3886175
1757.9534 -1534.3099 3834.2449 4214112
1754.1685 -1511.408 3777.0127 4671070
0 0 0 0
0 0 0 0
1817.0579 -1507.6934 3767.7297 13619662
1839.458 -1507.6934 3767.7297 13619664
1853.9977 -1501.3281 3751.823 13619664
1876.2861 -1501.3143 3751.7886 13684687
1884.3069 -1490.0187 3723.5608 13553615
1906.4446 -1490.0187 3723.5608 12566207
1909.3917 -1475.1923 3686.5095 12895172
1906.2233 -1456.0309 3638.6252 12303292
0 0 0 0
0 0 0 0
0 0 0 0
0 0 0 0
0 0 0 0
0 0 0 0
0 0 0 0
0 0 0 0
0 0 0 0
0 0 0 0
0 0 0 0
1361.2155 -915.11603 2286.8774 12500935
1372.0781 -913.29639 2282.3303 12631752
1412.0409 -930.69293 2325.8042 12434374
1457.5476 -951.37048 2377.4775 6577001
1471.6824 -951.37048 2377.4775 3882316
1477.7336 -946.19458 2364.543 3553611
1475.3915 -935.79254 2338.5483 3488074
1500.6296 -942.91486 2356.3467 3816268
1514.785 -943.00586 2356.5742 4935004
1515.3549 -934.71527 2335.856 4935001
1518.6567 -928.24512 2319.6873 4935002
1511.8542 -915.771 2288.5144 4869210
1521.6514 -913.4845 2282.8003 4935002
1456.0339 -866.36548 2165.0498 4804186
0 0 0 0
0 0 0 0
0 0 0 0
0 0 0 0
6029.2471 -3435.6455 8585.6875 3359822
6688.8823 -3779.5278 9445.0508 3359054
6832.5928 -3828.5894 9567.6553 3095885
6981.1235 -3879.5198 9694.9307 2636105
6983.3447 -3848.9753 9618.6006 2635847
7098.4165 -3880.6213 9697.6836 2701638
7349.6108 -3985.5745 9959.9619 3030858
7475.5737 -4021.4814 10049.693 4807267
7560.2217 -4034.7703 10082.902 4675680
7468.897 -3954.6746 9882.7432 4544093
7698.5796 -4044.4714 10107.146 4346968
7758.6694 -4044.4714 10107.146 5597035
7956.7427 -4115.8477 10285.515 5728617
8194.043 -4206.271 10511.483 5267808
8352.6465 -4255.2339 10633.842 5530724
8337.373 -4215.5459 10534.66 12241351
8400.0049 -4215.5459 10534.66 11976376
8311.9766 -4140.4971 10347.113 8226946
8181.021 -4045.3237 10109.275 13422543
8409.2227 -4127.8389 10315.48 13488592
8470.5518 -4127.8389 10315.48 13553871
8531.8799 -4127.8389 10315.48 13619661
10627.38 -5104.9746 12757.346 13356495
9827.7344 -4687.4033 11713.834 11316656
10539.721 -4991.6182 12474.067 13619662
10739.993 -5050.9263 12622.279 13554127
10441.005 -4876.2432 12185.746 13750736
9622.5068 -4463.0137 11153.084 13684688
9688.8145 -4463.0137 11153.084 13684943
12010.049 -5494.6528 13731.152 13158600
12818.602 -5824.9751 14556.63 12697281
12173.319 -5494.6528 13731.152 13619663
12108.368 -5428.9292 13566.909 13619405
12173.301 -5421.9243 13549.404 13685197
11833.921 -5236.1172 13085.071 13684944
11750.835 -5165.3979 12908.344 13619151
12630.807 -5516.187 13784.967 13618894
12712.762 -5516.187 13784.967 12698049
12939.953 -5578.8027 13941.444 13619151
12903.162 -5527.5347 13813.325 13619151
13079.996 -5567.8506 13914.074 13750737
13064.214 -5526.1826 13809.946 13750737
12595.567 -5294.6699 13231.395 13750737
12619.662 -5271.8726 13174.425 13750737
12762.219 -5298.54 13241.066 13750737
12840.94 -5298.54 13241.066 13750737
0 0 0 0
0 0 0 0
0 0 0 0
0 0 0 0
0 0 0 0
0 0 0 0
-5006.3164 -2214.7708 5618.1895 856590
-4990.9849 -2222.8188 5638.6045 725004
-4935.21 -2212.8413 5613.2949 330503
-4901.8369 -2212.8413 5613.2949 1792
-4907.8936 -2230.7627 5658.7563 264963
-4938.3169 -2260.0837 5733.1338 133892
-4938.9863 -2276.1001 5773.7627 1515541
-4760.8628 -2209.3684 5604.4849 1910554
-4789.2295 -2238.197 5677.6143 2304
-4858.0483 -2286.4741 5800.0786 2560
-4904.3564 -2324.7708 5897.2256 1055755
-4891.4683 -2335.3567 5924.0786 859145
-4701.5757 -2260.9756 5735.3965 3886128
-4774.6045 -2312.8689 5867.0342 2570012
-4739.7236 -2312.8689 5867.0342 793858
-4747.8574 -2334.0151 5920.6753 991239
-4712.6577 -2334.0151 5920.6753 2372892
-4571.2754 -2281.031 5786.271 3228455
-4585.5098 -2305.4839 5848.3003 2505243
-4558.9224 -2309.6289 5858.8154 2109717
-4524.0898 -2309.6289 5858.8154 2174743
-4489.2578 -2309.6289 5858.8154 2832422
-4780.9072 -2478.9104 6288.23 529157
-4861.9121 -2540.7798 6445.1733 1450515
-4823.5933 -2540.7798 6445.1733 2305825
-4980.6836 -2644.5334 6708.3643 3095086
-4976.2407 -2663.5024 6756.4829 132866
-5282.9556 -2850.6812 7231.2974 1024
-5020.0063 -2731.0186 6927.7505 659721
-5042.0059 -2765.6782 7015.6714 1317395
-5205.0278 -2878.916 7302.9209 1449233
-5342.8706 -2980.0154 7559.3784 2107416
-5357.1597 -3013.3323 7643.8931 3686444
-5232.8896 -2968.615 7530.459 4212789
-5070.2466 -2901.1689 7359.3696 3488811
-4949.896 -2856.959 7247.2227 2634274
-4906.8096 -2856.959 7247.2227 3555121
-4977.4014 -2923.7341 7416.6108 3883319
-5530.9287 -3277.9155 8315.0586 256
-5500.373 -3289.2056 8343.6982 512
-5706.2598 -3443.3796 8734.79 512
-6122.5342 -3728.5078 9458.0723 512
-6427.186 -3950.3157 10020.73 132097
-6381.5586 -3958.9688 10042.681 770
-6365.5005 -3986.3032 10112.02 132613
-6415.2368 -4055.7542 10288.195 198663
-6389.1157 -4078.1233 10344.938 264456
-6439.6221 -4150.3135 10528.062 512
-6388.5449 -4157.8071 10547.073 67076
-6227.7969 -4093.3665 10383.606 1054228
-6227.3384 -4134.0439 10486.793 988435
-6303.2495 -4226.7559 10721.974 988435
-6250.4341 -4234.1597 10740.755 1054227
-6171.2261 -4223.6528 10714.103 2304293
-6441.4165 -4454.5527 11299.825 2041121
-6130.9897 -4284.564 10868.615 3028016
-6307.0552 -4454.5527 11299.825 922641
-6237.7021 -4453.002 11295.891 725263
-6277.6255 -4530.2773 11491.915 1448986
-6944.7612 -5066.8647 12853.07 659213
-7166.1992 -5286.5942 13410.457 726033
-7800.1948 -5819.0415 14761.11 1252377
-8232.2373 -6211.2324 15755.979 1318170
-8138.5635 -6211.2324 15755.979 1318170
-8044.8906 -6211.2324 15755.979 528141
-8142.7373 -6360.8423 16135.492 529424
-8046.8921 -6360.9092 16135.662 1121562
-7464.9883 -5972.1226 15149.43 594963
-6591.4092 -5337.644 13539.954 857880
-6495.8135 -5325.2676 13508.559 463124
-7278.5112 -6041.6206 15325.725 397330
-7187.3955 -6041.6206 15325.725 2042412
-7212.2803 -6140.3804 15576.248 2766135
-7119.6753 -6140.3804 15576.248 5002584
-5273.0205 -4607.6602 11688.211 8622998
-4856.3262 -4300.2148 10908.317 529688
-4802.2041 -4309.8457 10932.747 2767936
-4757.7817 -4328.5654 10980.233 1911856
-4755.2715 -4386.4673 11127.112 2635322
-4689.1177 -4386.4673 11127.112 1253668
-4361.8379 -4138.6997 10498.603 8818851
-4127.6528 -3973.3528 10079.169 13160917
-4673.187 -4564.7632 11579.395 12242900
-4604.3447 -4564.7632 11579.395 3622219
-4908.1821 -4939.8477 12530.868 1516329
-4208.3511 -4300.7822 10909.756 1319721
-4337.0552 -4501.6958 11419.411 1188648
-4248.4995 -4479.9058 11364.138 4939104
-3921.0173 -4201.4004 10657.655 792346
-3889.2688 -4235.8315 10744.997 1780012
-3794.2917 -4201.4004 10657.655 1253666
-3662.915 -4124.8096 10463.368 1582888
-3634.6133 -4163.6504 10561.896 1122080
-3615.7979 -4214.916 10691.939 1319458
-3552.2314 -4214.916 10691.939 1911595
-3488.6648 -4214.916 10691.939 530199
-3428.4346 -4219.0215 10702.354 1121565
-3349.532 -4199.8696 10653.771 1187358
-3359.7131 -4293.832 10892.125 2108717
-3365.0698 -4385.2007 11123.899 1977388
-3425.4773 -4553.4097 11550.595 1977129
-3385.3982 -4592.1948 11648.979 2109227
-3091.1892 -4280.6802 10858.764 1254175
-2966.6836 -4195.8945 10643.688 1713700
-2903.4038 -4195.8945 10643.688 1648164
-2846.1418 -4204.7847 10666.24 2371374
-2782.728 -4204.7847 10666.24 3424577
-2802.9402 -4334.0933 10994.255 3621957
-2792.8733 -4421.6382 11216.33 4806232
-2672.2124 -4334.0933 10994.255 462865
-2573.4053 -4278.4907 10853.21 6780529
-2851.2168 -4862.2915 12334.131 989466
-2479.1543 -4339.4028 11007.725 1777699
-2406.8062 -4326.9907 10976.238 921362
0 0 0 0
-2477.114 -4708.7305 11944.595 1645341
-2720.345 -5323.707 13504.6 1316894
-2498.8176 -5038.8975 12782.126 1907745
-2134.1055 -4438.4307 11258.928 13878738
-1936.3179 -4157.4814 10546.246 722698
-2000.2306 -4438.4307 11258.928 1779755
-1979.5586 -4544.647 11528.365 858138
-1950.3391 -4638.1543 11765.564 857881
-2004.5861 -4944.4966 12542.66 3489087
-2048.3989 -5247.7798 13311.996 6252136
-1862.7549 -4963.9712 12592.062 988697
-1666.1353 -4625.9224 11734.536 4344395
-1820.0923 -5274.2192 13379.064 1187103
-1607.1083 -4869.8633 12353.339 1253153
-1533.6643 -4869.8633 12353.339 1647911
-1507.2018 -5026.5474 12750.798 2174255
-1440.5557 -5058.7173 12832.403 1516325
-1431.3916 -5307.6304 13463.818 1121566
-1331.1614 -5228.354 13262.719 1319460
-1302.8956 -5439.5435 13798.441 1647911
-1121.9904 -4999.0293 12680.993 9479589
-848.57513 -4053.1809 10281.668 659986
-878.09131 -4519.7446 11465.196 1781037
-809.92749 -4519.7446 11465.196 4807774
-740.91638 -4514.5811 11452.099 1517610
-642.04034 -4307.9849 10928.027 2241592
-623.99756 -4658.3101 11816.694 2373178
-546.63452 -4598.5024 11664.98 2110263
-477.28296 -4598.5024 11664.98 3623503
-483.92615 -5455.1709 13838.084 3755604
-426.75092 -5796.019 14702.71 3624018
-358.58478 -6124.7388 15536.57 3360590
-268.26038 -6171.7832 15655.908 4084570
-166.52127 -5866.6729 14881.937 4281436
-71.048241 -5340.7905 13547.936 5397865
7.860127 -4419.7998 11211.667 12502729
0 0 0 0
0 0 0 0
0 0 0 0
394.73053 -6355.9878 16123.178 13685457
490.60632 -6356.2339 16123.802 13619921
586.4668 -6356.2339 16123.802 13750737
682.31171 -6356.0889 16123.435 13750737
777.15717 -6347.8159 16102.448 13750737
871.33032 -6336.4688 16073.664 13750737
964.84668 -6323.0601 16039.65 13750737
1045.8887 -6237.6665 15823.033 13750737
1137.228 -6222.7119 15785.098 13750737
1231.0747 -6222.7119 15785.098 13750737
1324.7161 -6221.7466 15782.648 13750737
1407.9136 -6175.1025 15664.327 13750737
1501.0424 -6175.1025 15664.327 13750737
1630.0953 -6314.2573 16017.319 13750737
1725.3213 -6314.2515 16017.306 13750737
1820.3104 -6313.4258 16015.21 13750737
1914.9883 -6311.6553 16010.72 13750737
2001.8826 -6285.6138 15944.66 13750737
2034.078 -6097.9458 15468.604 13750737
2125.7625 -6097.1406 15466.562 13750737
2186.5999 -6011.5947 15249.559 13750737
2277.2627 -6011.5947 15249.559 13750737
2349.4307 -5964.6396 15130.449 13750737
2032.0837 -4968.7305 12604.134 13750737
2564.49 -6047.5303 15340.716 13619665
2793.4231 -6361.1641 16136.309 13685202
2860.1768 -6296.9194 15973.339 13157066
2955.1428 -6296.9194 15973.339 6974069
2854.0986 -5892.2588 14946.84 11512245
2743.4368 -5492.7788 13933.483 5985373
2502.582 -4863.6914 12337.683 5200222
2295.8372 -4334.8345 10996.136 4607828
2323.8403 -4266.2256 10822.096 4279120
2362.9502 -4221.1538 10707.764 4476500
2443.1533 -4249.9302 10780.76 4936793
2507.248 -4249.9302 10780.76 4015692
2569.9211 -4247.5806 10774.799 5200222
2550.2512 -4112.5581 10432.29 4476498
2512.8372 -3956.0125 10035.182 3753548
2526.5754 -3885.3906 9856.0361 4609370
2543.7593 -3823.1487 9698.1475 3491405
2517.3396 -3699.5847 9384.7031 3754577
2295.1021 -3299.8372 8370.668 6645363
0 0 0 0
0 0 0 0
0 0 0 0
0 0 0 0
2150.1951 -2789.1055 7075.0991 8621206
2072.8738 -2637.218 6689.8071 4540758
2177.4507 -2718.1128 6895.0127 4671830
2152.4192 -2637.218 6689.8071 4868439
0 0 0 0
0 0 0 0
0 0 0 0
0 0 0 0
0 0 0 0
0 0 0 0
0 0 0 0
0 0 0 0
0 0 0 0
0 0 0 0
0 0 0 0
0 0 0 0
0 0 0 0
0 0 0 0
0 0 0 0
0 0 0 0
0 0 0 0
0 0 0 0
0 0 0 0
0 0 0 0
0 0 0 0
1696.7791 -1478.0823 3749.4382 3754076
1757.9534 -1511.5143 3834.2449 4082269
1754.1685 -1488.9526 3777.0127 4608351
1888.957 -1583.0968 4015.8274 8421259
1797.7209 -1487.8284 3774.1611 12434886
1874.1782 -1531.9843 3886.1709 12565957
1873.3773 -1512.6816 3837.2061 12434115
1881.2672 -1500.7765 3807.0066 12434115
1895.8213 -1494.4077 3790.8506 12368066
1918.3589 -1494.4077 3790.8506 12105922
1931.5665 -1487.2239 3772.6277 12105919
1928.5819 -1467.8809 3723.5603 12303042
1931.3092 -1453.2749 3686.5095 12435139
0 0 0 0
0 0 0 0
0 0 0 0
0 0 0 0
0 0 0 0
0 0 0 0
0 0 0 0
0 0 0 0
0 0 0 0
0 0 0 0
0 0 0 0
0 0 0 0
0 0 0 0
0 0 0 0
1417.7526 -911.64667 2312.5659 11051436
1468.2941 -935.07782 2372.0037 5983068
1470.1125 -927.32947 2352.3484 3881030
1484.0979 -927.32947 2352.3484 3421508
1500.7745 -928.99536 2356.5742 3290181
1500.8085 -920.42365 2334.8306 3619144
1514.6896 -920.42365 2334.8306 4869211
1525.2941 -918.45056 2329.8254 4803418
1539.1455 -918.45056 2329.8254 4803416
1534.3478 -907.42133 2301.8477 4869209
1503.5464 -881.34442 2235.6985 4803929
1468.9058 -853.49365 2165.0498 4738136
0 0 0 0
0 0 0 0
0 0 0 0
0 0 0 0
5701.1357 -3173.5439 8050.3008 3161161
6170.8599 -3406.4192 8641.0332 2766661
6809.1553 -3727.7356 9456.1133 2503749
6865.375 -3727.7356 9456.1133 2504518
7105.52 -3826.7917 9707.3887 3754583
7349.6108 -3926.3599 9959.9619 4412253
7416.4673 -3930.4094 9970.2344 3886166
7383.2383 -3881.7747 9846.8633 2965063
7400.3203 -3860.1484 9792.0039 3294028
7491.4648 -3877.1899 9835.2334 3293770
7586.4087 -3895.9189 9882.7432 4478555
7735.4497 -3941.928 9999.4541 4413017
7858.3389 -3974.0098 10080.835 7307652
8239.0527 -4135.0029 10489.225 5334114
8301.4141 -4135.0029 10489.225 9477786
8373.5459 -4139.833 10501.478 10923692
8435.9795 -4139.833 10501.478 13358032
8549.7432 -4164.8374 10564.905 8685447
8903.5566 -4305.5591 10921.873 12304061
8968.4902 -4305.5591 10921.873 13553871
8575.1123 -4087.1157 10367.75 13619664
8674.0186 -4104.7515 10412.487 13553871
9390.8086 -4412.4624 11193.055 13488078
10280.612 -4796.5649 12167.404 13488078
10368.558 -4803.7959 12185.746 13553871
10425.289 -4796.5649 12167.404 13619150
9623.7812 -4397.2881 11154.562 13619149
9832.2051 -4461.7754 11318.146 13684942
12141.785 -5472.3916 13881.768 11776446
12930.776 -5788.6494 14684.016 13619408
12306.847 -5472.3916 13881.768 13750737
12108.368 -5348.27 13566.909 13684942
12173.301 -5341.3696 13549.404 13750736
11412.824 -4974.7695 12619.454 13618895
11084.114 -4799.9336 12175.948 13684944
11827.579 -5088.6538 12908.344 10724259
14880.403 -6360.8174 16135.43 13158600
14976.333 -6360.8174 16135.43 13619151
13215.921 -5577.4023 14148.146 13684944
12982.109 -5444.0786 13809.946 13750737
12624.084 -5260.6689 13344.692 13750737
12596.295 -5216.3071 13232.159 13750737
12674.467 -5216.1021 13231.64 13750737
12831.621 -5248.2046 13313.073 13750737
12967.555 -5271.2866 13371.626 13750737
0 0 0 0
0 0 0 0
0 0 0 0
0 0 0 0
0 0 0 0
0 0 0 0
-4849.249 -2112.9314 5441.9258 791054
-4922.5732 -2159.2869 5561.3159 527882
-4896.9136 -2162.5566 5569.7373 67586
-4865.0337 -2163.1052 5571.1499 1538
-4856.7744 -2174.2356 5599.8164 67073
-4848.7695 -2185.634 5629.1738 133378
-4887.4277 -2218.3713 5713.4897 67585
-4938.7529 -2257.3564 5813.8975 528903
-4797.0762 -2208.0537 5686.9165 2304
-4946.7007 -2293.0869 5905.9219 1792
-4721.7192 -2204.4419 5677.6143 1056016
-4738.0688 -2228.0027 5738.2959 792585
-4654.6938 -2204.6716 5678.2056 398338
-4620.9351 -2204.6716 5678.2056 1318158
-4587.1768 -2204.6716 5678.2056 2174745
-4717.5474 -2284.1394 5882.8774 859398
-4682.5718 -2284.1394 5882.8774 1056265
-4607.5991 -2264.4819 5832.249 990728
-4591.3066 -2273.5847 5855.6934 1583376
-4542.0371 -2266.3716 5837.1157 1978133
-4521.6792 -2273.5847 5855.6934 2438938
-4380.6172 -2219.7463 5717.0312 3031583
-4295.854 -2193.8169 5650.2495 3359782
-4275.2095 -2200.4812 5667.4136 2043669
-4610.5825 -2391.9521 6160.5532 2701605
-4691.2021 -2453.2659 6318.4688 1516307
-4780.2476 -2520.0112 6490.3735 1779481
-4932.166 -2621.2576 6751.1372 1713434
-4933.2446 -2643.342 6808.0161 1911070
-5147.1348 -2780.7644 7161.9521 264963
-5177.4653 -2820.4832 7264.249 1120272
-5111.3779 -2807.9036 7231.8501 858129
-5116.772 -2834.7114 7300.8945 2568742
-5159.5962 -2882.8918 7424.9849 2108443
-4992.0029 -2813.3198 7245.7998 3753268
-4948.9243 -2813.3198 7245.7998 1845270
-4876.6411 -2796.572 7202.665 2437408
-4910.1558 -2840.7358 7316.4106 3686708
-4913.3745 -2868.0051 7386.6436 592902
-5526.0859 -3254.7441 8382.7031 512
-5758.4058 -3422.4412 8814.6123 256
-6099.2266 -3658.2969 9422.0664 66304
-6057.4028 -3666.8887 9444.1953 131841
-6208.8472 -3793.7322 9770.8848 1053714
-6499.1509 -4008.6189 10324.332 790286
-6437.7695 -4008.6189 10324.332 66821
-6419.5679 -4035.7642 10394.246 264711
-6528.8896 -4144.3862 10674.006 988178
-6490.7983 -4160.6475 10715.887 593677
-6311.647 -4085.9146 10523.41 922129
-6227.3384 -4071.697 10486.793 1908768
-6299.6104 -4160.6069 10715.782 1711645
-6455.3965 -4307.0542 11092.963 396553
-6474.3745 -4364.3042 11240.411 1317653
-6441.4165 -4387.3726 11299.825 1514774
-6184.0083 -4256.4395 10962.603 2633256
-6206.189 -4317.2075 11119.112 2172706
-6140.083 -4317.2075 11119.112 1317911
-6156.2031 -4375.6514 11269.637 988178
-6229.709 -4476.6187 11529.682 462091
-6827.7017 -4960.9175 12777.01 659470
-7039.3276 -5172.2266 13321.244 1186327
-7477.5225 -5556.7134 14311.502 923412
-7392.4365 -5556.7134 14311.502 331786
-7307.3506 -5556.7134 14311.502 2700589
-7742.73 -5957.1523 15342.846 1449241
-6783.4702 -5281.3301 13602.243 3490363
-7350.4561 -5791.8086 14916.998 1516319
-7500.4287 -5982.1567 15407.246 133898
-6625.9341 -5350.0195 13779.155 200719
-6346.9248 -5188.8916 13364.165 792345
-5891.5444 -4877.6582 12562.573 2503733
-6167.9434 -5172.0586 13320.811 2240561
-5911.7212 -5021.6841 12933.517 2570296
-5899.6787 -5077.4976 13077.266 3161662
-5701.936 -4972.8462 12807.732 2372146
-5249.9409 -4640.6187 11952.069 2240561
-4724.0913 -4233.0962 10902.481 1714218
-4637.2231 -4213.063 10850.885 2372149
-4500.6006 -4146.6235 10679.769 1581866
-4452.1211 -4160.6558 10715.908 2635321
-4358.728 -4132.5117 10643.423 10858164
-4462.1255 -4292.8652 11056.418 10731717
-4955.4761 -4838.7837 12462.45 1845805
-5086.4106 -5042.0215 12985.896 1846317
-4649.5688 -4680.0288 12053.571 858909
-4406.6729 -4504.9746 11602.713 793116
-4213.7866 -4376.291 11271.285 2305842
-3895.0603 -4110.644 10587.102 1187103
-3889.2688 -4171.9502 10744.997 989724
-3825.3867 -4171.9502 10744.997 1252896
-3762.3855 -4172.9263 10747.512 1845290
-3600.7073 -4062.6023 10463.368 1647396
-3525.9399 -4048.1819 10426.229 792344
-3463.9529 -4048.1819 10426.229 1911338
-3595.5042 -4278.4829 11019.377 1121822
-3529.9907 -4278.4829 11019.377 1121565
-3449.2175 -4259.6377 10970.84 2766390
-3474.5959 -4373.6851 11264.573 1780008
-3407.625 -4373.6851 11264.573 1385251
-3475.552 -4550.2979 11719.445 1056028
-3153.3369 -4212.9014 10850.47 793625
-3076.0527 -4195.4775 10805.593 1451298
-3014.6619 -4199.4492 10815.822 1582628
-2936.9841 -4180.4121 10766.792 1451554
-2872.9727 -4180.4121 10766.792 1649446
-2782.728 -4141.3711 10666.24 4280910
-2750.5259 -4188.9048 10788.665 4739669
-2795.7927 -4359.5063 11228.056 7502208
-2729.0391 -4359.5063 11228.056 7634048
-2750.9216 -4504.6494 11601.876 1317918
-2885.1294 -4845.9219 12480.835 1778469
-2975.2356 -5129.1821 13210.381 1647141
-2896.696 -5129.1821 13210.381 3686467
-2879.9031 -5241.5635 13499.822 11777978
-3346.3616 -6265.144 16136.089 1776928
-2871.0173 -5533.8369 14252.583 1579809
-2608.4985 -5180.7412 13343.173 1317665
-2182.9373 -4471.52 11516.55 5397599
-2159.3015 -4566.3306 11760.737 6186597
-2193.2844 -4793.4111 12345.592 3621449
-2098.322 -4744.6509 12220.008 923933
-1911.0194 -4476.1074 11528.365 726298
-2142.9927 -5206.1709 13408.668 594452
-2063.2744 -5206.1709 13408.668 8226954
-1983.5563 -5206.1709 13408.668 3949893
-1623.063 -4438.373 11431.18 2569270
-1403.538 -4005.8 10317.072 331538
-1626.1245 -4853.1733 12499.511 923932
-1460.0818 -4566.2954 11760.647 2502963
-1485.4634 -4879.3359 12566.894 1516068
-1431.3947 -4950.7402 12750.798 1121310
-1431.3916 -5227.584 13463.818 1187616
-1331.1614 -5149.5034 13262.719 1977389
-1362.1587 -5601.1978 14426.073 2043696
-1235.2032 -5420.4502 13960.552 1517352
-1152.2039 -5420.4502 13960.552 1911854
-994.18549 -5040.1333 12981.032 1846576
-942.24701 -5178.8447 13338.288 1648940
-863.33038 -5181.1445 13344.212 1714220
-783.99542 -5181.1445 13344.212 2043444
-618.33795 -4546.4438 11709.519 2438714
-546.63452 -4529.1509 11664.98 2504250
-477.28296 -4529.1509 11664.98 2767681
-413.9115 -4595.5459 11835.983 3096648
-426.75092 -5708.6074 14702.71 3096904
-358.47217 -6030.4756 15531.692 2833991
-255.32706 -5785.6401 14901.11 3425871
-154.17868 -5349.9141 13778.884 3951444
-78.144577 -5785.6401 14901.11 13357013
10.643286 -5894.5293 15181.558 13553875
100.90187 -5894.5293 15181.558 13488592
201.41281 -6210.6655 15995.777 13685457
298.87415 -6260.1387 16123.198 13685457
394.74585 -6260.3745 16123.804 13685457
490.6084 -6260.3994 16123.87 13619921
586.46643 -6260.3691 16123.791 13750737
681.46112 -6252.4263 16103.334 13750737
777.17847 -6252.2539 16102.89 13750737
869.72968 -6229.4414 16044.136 13750737
964.8493 -6227.7168 16039.693 13750737
1059.9274 -6226.0576 16035.421 13750737
1155.2625 -6226.0576 16035.421 13750737
1250.0652 -6223.4082 16028.597 13750737
1345.333 -6223.2847 16028.279 13750737
1440.4407 -6222.4854 16026.221 13750737
1535.4929 -6221.562 16023.842 13750737
1630.2931 -6219.7832 16019.261 13750737
1725.2844 -6218.8916 16016.964 13750737
1820.285 -6218.123 16014.985 13750737
1915.2588 -6217.3452 16012.981 13750737
2010.1764 -6216.4668 16010.72 13750737
2034.05 -6005.8984 15468.393 13750737
2126.0142 -6005.8984 15468.393 13684945
2217.978 -6005.8984 15468.393 13619151
2409.5967 -6265.0029 16135.725 13750737
2340.999 -5853.603 15076.15 13619151
2054.5667 -4947.9404 12743.587 13553614
2370.7153 -5506.2617 14181.562 13619151
2653.7095 -5951.8726 15329.247 13553620
2522.241 -5469.1797 14086.056 10456989
2605.9863 -5469.1797 14086.056 12760516
3081.1318 -6265.0347 16135.807 13551311
3177.0542 -6265.0156 16135.758 4674137
2593.3962 -4964.1733 12785.395 7630717
2266.3879 -4214.6938 10855.086 8156546
2297.6392 -4154.5088 10700.077 3818828
2372.0242 -4173.4585 10748.882 3818827
2435.9294 -4173.4585 10748.882 4345168
2511.7297 -4193.3179 10800.03 4344913
2575.939 -4193.3179 10800.03 3621190
2551.7104 -4052.8528 10438.259 3424323
2553.8906 -3960.0068 10199.131 4608601
2614.5271 -3960.0068 10199.131 4673366
2195.5703 -3250.0715 8370.668 3750724
0 0 0 0
0 0 0 0
0 0 0 0
0 0 0 0
0 0 0 0
0 0 0 0
1798.3398 -2297.5193 5917.3384 4144971
2307.3667 -2891.28 7446.5889 4737108
2567.7451 -3156.9771 8130.9004 4737108
2840.3777 -3427.6433 8828.0098 4802390
2407.5601 -2852.6265 7347.0352 4276557
0 0 0 0
0 0 0 0
0 0 0 0
0 0 0 0
0 0 0 0
0 0 0 0
0 0 0 0
2575.9788 -2665.3252 6864.6343 10789548
2833.9067 -2886.4678 7434.1948 10789291
2824.1658 -2832.3716 7294.8682 10921134
2808.3879 -2773.9492 7144.3994 11052462
2765.1926 -2690.5898 6929.7046 11446705
0 0 0 0
0 0 0 0
0 0 0 0
0 0 0 0
0 0 0 0
0 0 0 0
0 0 0 0
0 0 0 0
1720.1476 -1475.8403 3801.0764 4475487
1794.9126 -1520.0175 3914.856 4475999
1816.7227 -1518.7928 3911.7021 4542044
1948.4154 -1608.3009 4142.2329 7765640
1910.3368 -1557.1874 4010.5884 11119283
1956.8455 -1575.4344 4057.5842 11250867
1903.3776 -1513.7272 3898.655 11118767
1926.5562 -1513.7272 3898.655 10658217
1916.9609 -1488.2823 3833.1211 10526631
1939.7498 -1488.2823 3833.1211 10461349
1962.5388 -1488.2823 3833.1211 10790058
2011.9375 -1508.2301 3884.4973 10855850
1993.394 -1477.3708 3805.0181 11184559
1971.7925 -1444.963 3721.5508 11710902
1993.918 -1444.963 3721.5508 11974074
1986.8579 -1424.0448 3667.675 12303040
0 0 0 0
0 0 0 0
0 0 0 0
0 0 0 0
0 0 0 0
0 0 0 0
0 0 0 0
0 0 0 0
0 0 0 0
0 0 0 0
0 0 0 0
0 0 0 0
0 0 0 0
1447.42 -899.24585 2316.0378 6378339
1481.2137 -911.56909 2347.7769 3290948
1449.5616 -883.76166 2276.1577 3224131
1470.1246 -888.00842 2287.0955 3158595
1491.0873 -892.41644 2298.4485 3553094
1528.6104 -906.56586 2334.8909 4606039
1550.8064 -911.45251 2347.4766 4606039
1562.1145 -909.90997 2343.5037 4606037
1568.7161 -905.67743 2332.6025 4540244
1571.3231 -899.23303 2316.0049 4474452
1484.7311 -842.29742 2169.3652 4474707
0 0 0 0
0 0 0 0
0 0 0 0
0 0 0 0
5002.2554 -2719.6853 7004.6406 3029575
6222.2329 -3355.0459 8641.0332 2964039
7092.1016 -3792.7668 9768.3984 3557463
7222.437 -3831.0964 9867.1172 3820119
7439.292 -3914.3323 10081.494 3293776
7324.6958 -3823.2324 9846.8633 3096396
7337.4722 -3799.5334 9785.8262 3030857
7432.9912 -3818.717 9835.2334 3228236
7491.4648 -3818.717 9835.2334 3227978
7550.5503 -3819.0264 9836.0312 4675933
7625.5186 -3827.303 9857.3477 6123122
7605.0366 -3787.9114 9755.8936 9477021
8195.1494 -4050.9392 10433.33 7700612
8146.2451 -3996.5156 10293.16 13424339
8204.0928 -3994.886 10288.963 13423054
8263.9814 -3994.2661 10287.366 13422797
8120.0308 -3895.8564 10033.909 13422800
8980.1719 -4277.1157 11015.855 13817300
9887.0117 -4674.9355 12040.453 12238011
9461.707 -4441.6772 11439.689 13553614
9354.0732 -4359.811 11228.84 13553357
9420.832 -4359.811 11228.84 13553356
9949.1367 -4571.9043 11775.093 11908022
10019.142 -4571.9043 11775.093 12368574
10055.775 -4556.7808 11736.143 13684944
9876.0664 -4444.5068 11446.977 13422798
9808.6387 -4383.9526 11291.018 13619406
9875.7676 -4383.9526 11291.018 11974079
11560.201 -5097.0444 13127.608 13618898
10737.143 -4702.3989 12111.187 13684944
11462.354 -4986.5698 12843.078 13684942
11487.55 -4964.46 12786.134 13684943
14593.13 -6265.1099 16136 13684944
11084.114 -4727.5439 12175.948 13487565
14784.473 -6264.8882 16135.43 13224393
13480.364 -5675.4492 14617.311 13619151
13538.866 -5663.5679 14586.709 13619151
13208.864 -5490.354 14140.592 13750737
13201.575 -5452.6206 14043.407 13750737
12702.883 -5213.6729 13427.989 13750737
12782.716 -5213.6729 13427.989 13750737
12862.549 -5213.6729 13427.989 13750737
13009.733 -5240.8042 13497.867 13685201
13166.769 -5271.5474 13577.048 13619665
0 0 0 0
0 0 0 0
0 0 0 0
0 0 0 0
0 0 0 0
-4738.3057 -2019.5033 5282.1807 988431
-4841.1973 -2077.1228 5432.8892 659465
-4816.8955 -2080.5776 5441.9258 66305
-4898.1558 -2129.9832 5571.1499 1536
-4863.8003 -2129.4431 5569.7373 1536
-4831.9116 -2129.9832 5571.1499 133379
-4787.7422 -2125.0798 5558.3247 330757
-4823.23 -2155.7102 5638.4414 68355
-4830.8862 -2174.2434 5686.9165 331782
-4786.4062 -2169.4075 5674.2676 529672
-4752.6709 -2169.4075 5674.2676 1318930
-4616.5278 -2122.3279 5551.1274 2240287
-4738.0688 -2193.887 5738.2959 661255
-4727.9985 -2205.1018 5767.6289 596229
-4693.7085 -2205.1018 5767.6289 793350
-4659.4185 -2205.1018 5767.6289 2241305
-4712.2349 -2246.6313 5876.2529 3162407
-4642.2734 -2229.8074 5832.249 1385995
-4588.3848 -2220.509 5807.9282 1451789
