# .PCD v0.7 - Point Cloud Data file format
VERSION 0.7
FIELDS x y z rgb
SIZE 4 4 4 4
TYPE F F F U
COUNT 1 1 1 1
WIDTH 1390
HEIGHT 1
VIEWPOINT 0 0 0 1 0 0 0
POINTS 1390
DATA ascii
-5117.6006 168.08434 6024.4365 256
-5282.2236 174.71407 6262.0576 256
-5306.1567 176.75143 6335.0806 256
-5284.4292 177.28607 6354.2427 256
-5348.7705 180.73671 6477.9194 256
-5322.2783 181.14584 6492.584 256
-5309.6074 182.03481 6524.4458 0
-5335.2583 184.26035 6604.2129 256
-5411.1226 188.26593 6747.7803 256
-5523.9722 193.62778 6939.958 65536
-5827.3062 205.79749 7376.1411 65536
-5915.5703 210.4987 7544.6421 525569
-5870.7153 210.4987 7544.6421 657153
-5945.2202 214.8114 7699.2163 1512717
-5802.8501 211.29413 7573.1509 3354663
-5805.4214 213.04076 7635.7534 3552295
-5760.0249 213.04076 7635.7534 5658441
-5699.0464 212.45987 7614.9331 6184788
-5653.7734 212.45987 7614.9331 263168
-5608.5005 212.45987 7614.9331 724739
-5445.1045 207.94875 7453.2461 1119241
-5654.938 217.73418 7803.9736 1185034
-5601.9121 217.47682 7794.7495 1382413
-5436.7915 212.82715 7628.0967 921862
-5358.377 211.52197 7581.3174 1053704
-5296.9155 210.86955 7557.9336 659460
-5343.2642 214.53461 7689.2949 856582
-5396.1846 218.52904 7832.4624 1054218
-5349.6182 218.52904 7832.4624 1251340
-5360.751 220.90669 7917.6816 856583
-5318.9141 221.12436 7925.4839 987655
-5271.7949 221.12436 7925.4839 856322
-5184.3784 219.41884 7864.355 790787
-5230.8296 223.39957 8007.0308 1185287
-5481.9092 236.27298 8468.4365 1448459
-5602.0728 243.69017 8734.2822 1448714
-5624.9292 246.97374 8851.9707 1316872
-5785.3125 256.41473 9190.3525 1053445
-5985.2573 267.80591 9598.6318 1382152
-5979.4917 270.12344 9681.6963 1250567
-6016.1348 274.42044 9835.708 1118724
-6047.4595 278.55679 9983.9629 1250312
-6045.4097 281.22266 10079.512 1052933
-6084.5503 285.8772 10246.339 1052934
-6108.3584 289.89822 10390.459 1052677
-6100.6836 292.49194 10483.423 921093
-6060.7778 293.57803 10522.35 657922
-6072.4585 297.21158 10652.583 592129
-6076.04 300.52115 10771.203 788738
-6274.8506 313.66013 11242.127 591360
-8579.4775 433.47845 15536.626 591360
-8487.1074 433.47845 15536.626 525568
-8394.7383 433.47845 15536.626 393984
-8622.4727 450.19156 16135.652 196864
-8526.8955 450.21021 16136.321 262656
-8431.2217 450.22418 16136.822 131584
-8335.5156 450.23672 16137.271 197376
-8239.5752 450.23672 16137.271 197376
-8144.1387 450.26459 16138.27 263424
-8048.2026 450.2652 16138.291 263168
-7951.8989 450.24493 16137.565 197632
-7855.9561 450.24493 16137.565 329216
-7759.4688 450.21332 16136.432 329216
-7663.5337 450.21332 16136.432 394752
-7567.2832 450.19458 16135.761 460289
-7471.5664 450.20749 16136.225 525825
-7375.7236 450.21307 16136.424 525569
-7279.7993 450.21378 16136.449 328193
-7183.8633 450.21378 16136.449 196864
-7088.0498 450.22159 16136.728 65536
-6992.083 450.21964 16136.658 526086
-6896.5298 450.24466 16137.556 591624
-6800.7759 450.25714 16138.003 196867
-6704.8477 450.25827 16138.044 131330
-6608.9023 450.25827 16138.044 263172
-6512.894 450.25391 16137.887 5263174
-6416.7656 450.241 16137.424 11382171
-6320.8237 450.241 16137.424 10000772
-6224.8823 450.241 16137.424 12830385
-6128.6826 450.22198 16136.743 12764591
-5592.1079 417.33737 14958.101 12633774
-5085.3193 385.64877 13822.326 12567725
-4441.9253 342.3895 12271.838 12700082
-3862.4746 302.69647 10849.171 8224881
-5608.9092 447.0271 16022.233 658434
-5553.9937 450.29785 16139.462 10658961
-5457.9541 450.29074 16139.207 12632494
-5361.8535 450.27829 16138.762 12107180
-5265.9043 450.27829 16138.762 11844011
-5169.9551 450.27829 16138.762 11646633
-5075.4707 450.40836 16143.423 11317929
-4981.0391 450.5481 16148.432 11318700
-4885.0317 450.5481 16148.432 11252651
-4787.0332 450.36072 16141.716 11186859
-4690.4146 450.29813 16139.473 11252909
-4594.3818 450.29041 16139.195 11253168
-4498.4736 450.29483 16139.354 11253424
-4402.521 450.29483 16139.354 10990252
-4306.5679 450.29483 16139.354 11056045
-4210.0781 450.23743 16137.296 10990252
-4114.5767 450.28549 16139.019 10990252
-4018.802 450.30524 16139.727 10990252
-3923.0076 450.32367 16140.388 10792873
-3826.8916 450.30524 16139.727 10661287
-3730.5667 450.26059 16138.126 10398115
-3634.6206 450.26059 16138.126 10266529
-3538.6738 450.26041 16138.12 10200222
-3442.6765 450.25366 16137.878 10068893
-3346.7041 450.24982 16137.741 10068637
-3250.7607 450.24982 16137.741 9805722
-3154.6047 450.21948 16136.653 9674136
-2765.2964 407.03674 14588.909 7240051
-2380.5681 361.75348 12965.877 6122083
0 0 0 0
-1621.6456 263.49121 9443.9854 4014912
-2153.8555 362.51837 12993.292 256
-2076.6067 362.51837 12993.292 256
-1999.358 362.51837 12993.292 256
-1863.3984 351.44525 12596.412 512
-1916.6957 376.63409 13499.225 463361
-1576.2657 323.27533 11586.753 2442520
-1507.3793 323.27533 11586.753 1984272
-1428.2053 320.96341 11503.89 1195271
-1405.1367 331.66174 11887.337 2049047
-1355.3893 336.86264 12073.745 2177306
-1232.5934 323.47476 11593.901 1280
-1157.8402 321.8558 11535.874 512
-1059.7844 313.14737 11223.749 512
-1002.768 316.2099 11333.516 256
-1006.6944 340.31549 12197.502 256
-1235.8621 450.21777 16136.592 790025
-1139.9255 450.21777 16136.592 1514515
-1034.6669 446.1976 15992.502 461572
-909.53748 431.92749 15481.037 256
-668.33167 353.11484 12656.253 0
-569.12457 338.84814 12144.91 256
-467.10126 318.51505 11416.136 256
-399.22916 318.51505 11416.136 256
-327.11633 314.43866 11270.031 256
-255.37852 308.71558 11064.905 256
-186.72458 304.04236 10897.409 256
-120.29438 299.94794 10750.658 256
-57.922501 308.16116 11045.035 256
8.0458593 320.20187 11476.595 256
83.69458 351.33813 12592.572 198146
150.30569 333.04623 11936.959 132098
228.74342 344.28833 12339.896 66048
320.57309 365.33206 13094.14 461062
394.8389 362.04712 12976.401 263427
569.42651 436.78986 15655.312 256
682.83289 450.19427 16135.749 132096
762.04242 440.52747 15789.275 1185294
596.84717 307.18921 11010.198 2106394
653.15027 302.94269 10857.996 395524
694.09528 292.97745 10500.823 5396300
0 0 0 0
457.2901 163.59328 5863.4688 987147
0 0 0 0
0 0 0 0
0 0 0 0
0 0 0 0
0 0 0 0
0 0 0 0
0 0 0 0
0 0 0 0
0 0 0 0
0 0 0 0
0 0 0 0
0 0 0 0
0 0 0 0
390.22058 67.529327 2420.3691 1442560
420.50015 70.181335 2515.4216 1311488
435.45505 70.181335 2515.4216 1245952
450.40991 70.181335 2515.4216 851968
461.22498 69.557007 2493.0447 1114112
475.23349 69.438171 2488.7854 1638656
0 0 0 0
0 0 0 0
0 0 0 0
0 0 0 0
0 0 0 0
0 0 0 0
2363.5403 283.54755 10162.839 986112
2446.1062 286.13797 10255.686 197632
2503.9382 285.77951 10242.837 197376
0 0 0 0
2345.083 255.2343 9148.0439 1316361
2405.4985 255.87552 9171.0254 197632
2680.6416 278.82281 9993.4971 65792
2794.0559 284.31775 10190.445 65536
2355.7932 234.63333 8409.6689 65792
2247.4253 219.18813 7856.0854 65792
2239.2444 213.94402 7668.1279 65536
2284.8337 213.94402 7668.1279 65536
2330.3865 213.94067 7668.0083 65536
2293.6562 206.52844 7402.3408 65536
2278.3853 201.29117 7214.6274 256
2319.2214 201.11281 7208.2349 0
2351.9307 200.24898 7177.2734 0
2354.488 196.89447 7057.0425 0
2367.6665 194.53008 6972.2979 65536
2360.4177 190.59761 6831.3516 0
2193.2783 174.10579 6240.2559 65536
2288.4414 178.63826 6402.7075 131072
2347.7253 180.26747 6461.1011 590848
2601.6177 196.54645 7044.5684 393216
2738.3979 203.6022 7297.4595 524288
2781.7834 203.6022 7297.4595 589824
2797.7188 201.62396 7226.5557 589824
2840.6829 201.62396 7226.5557 524288
2706.9333 189.26822 6783.7041 458752
2740.6157 188.81017 6767.2866 393216
2731.8411 185.48268 6648.0239 262144
3040.1411 203.47139 7292.77 262144
3649.2432 240.80325 8630.8096 262656
4135.1875 269.08572 9644.502 197376
4192.5269 269.08572 9644.502 263168
4291.0166 271.69119 9737.8877 1250570
4447.0015 277.81927 9957.5283 921608
4474.3179 275.85355 9887.0732 2237206
3603.2971 219.27213 7859.0962 2434070
3128.1086 187.91861 6735.3315 722944
3102.8696 184.04637 6596.5439 2167562
3072.2551 179.95596 6449.936 3613206
2843.2605 164.48961 5895.5952 3809044
3415.0542 195.16335 6994.9956 3282701
3456.6414 195.16335 6994.9956 1705986
3437.0701 191.75139 6872.7051 1114624
3411.6873 188.09914 6741.8022 393216
3023.6252 164.76807 5905.5757 196608
3226.8779 173.82558 6230.2124 131072
3676.0586 195.77481 7016.9111 256
3780.9797 199.10306 7136.2017 512
3429.4771 178.58928 6400.9517 512
2975.7939 153.26312 5493.2183 768
3008.4526 153.26312 5493.2183 1792
3127.7324 157.62859 5649.6841 1280
3088.0591 153.9756 5518.7549 1280
3023.5295 149.1731 5346.6245 1280
3055.3169 149.1731 5346.6245 1024
3458.0444 167.09744 5989.0645 1280
3487.2021 166.78902 5978.0098 1280
3489.8167 165.23006 5922.1343 1280
3480.7043 163.15259 5847.6738 1024
3346.939 155.33107 5567.3369 1280
3078.7366 141.4846 5071.0557 67072
3108.8855 141.4846 5071.0557 1024
3271.5767 147.45865 5285.1758 66560
3426.3223 152.96429 5482.5078 1024
3458.9172 152.96429 5482.5078 132096
3192.3164 139.85643 5012.6987 197376
3252.9473 141.19455 5060.6597 197376
3385.7581 145.61243 5219.0039 197376
3416.7864 145.61243 5219.0039 197376
3212.115 135.65807 4862.2222 262912
3642.8618 152.47768 5465.0669 197376
3675.5149 152.48439 5465.3071 131840
3737.1287 153.68193 5508.2295 197376
3769.877 153.68193 5508.2295 768
3892.0515 157.2961 5637.7671 263936
4306.0454 172.54163 6184.1934 768
4397.3257 174.70746 6261.8208 512
4379.5791 172.54163 6184.1934 768
4471.7817 174.70746 6261.8208 768
5626.5464 218.00786 7813.7822 768
6617.6812 254.31096 9114.9492 768
6315.4653 240.72585 8628.0352 768
6086.5127 230.12971 8248.251 512
5758.9253 216.00339 7741.939 768
5530.457 205.78934 7375.8491 512
5139.9404 189.75356 6801.0991 512
5133.6416 188.04176 6739.7451 512
4987.4551 181.27216 6497.1108 256
5011.4175 180.74326 6478.1543 0
5064.7095 181.27216 6497.1108 0
5125.5518 182.06125 6525.3936 196608
5035.0435 177.50285 6362.0127 262144
5116.7456 179.03816 6417.041 262144
5154.8965 179.03816 6417.041 327936
5431.0918 187.2451 6711.1919 459777
4824.0747 165.10431 5917.6274 196864
4627.8184 157.24068 5635.7808 65536
4661.3247 157.24068 5635.7808 65536
4784.6914 160.25031 5743.6509 65536
4577.6797 152.23056 5456.2095 393216
3957.3987 130.67712 4683.6968 655360
3998.5059 131.11197 4699.2822 1639936
4140.9497 134.84059 4832.9224 1902080
3828.0161 123.79166 4436.9092 2033153
4198.416 134.84059 4832.9224 1771009
4860.5376 155.04486 5557.0786 720896
5064.4785 160.45959 5751.1528 524288
4926.6143 155.04486 5557.0786 393216
5220.9844 163.2144 5849.8896 65536
6080.0312 188.81152 6767.335 256
6368.0249 196.45497 7041.2891 0
6450.5283 197.70055 7085.9336 0
6612.9292 201.36285 7217.1973 0
6869.7715 207.83513 7449.1743 256
7367.8535 221.47609 7938.0903 263427
7552.5249 225.58232 8085.2646 256
9110.5195 270.39624 9691.4746 0
9186.6729 270.9429 9711.0674 921611
9244.4072 270.9429 9711.0674 256
8402.0879 244.72707 8771.4463 256
8138.5088 235.5876 8443.8711 0
8188.71 235.5876 8443.8711 512
0 0 0 0
0 0 0 0
0 0 0 0
0 0 0 0
0 0 0 0
0 0 0 0
0 0 0 0
-4417.1841 168.90186 4990.3486 256
-5087.2188 195.83765 5786.1895 256
-5066.8735 196.38242 5802.2852 256
-4911.5171 191.66599 5662.9341 256
-4788.2583 188.14568 5558.9238 256
-4742.2148 187.63156 5543.7334 256
-5117.6006 203.90129 6024.4365 256
-5283.4917 211.99463 6263.5605 256
-5299.2734 214.13713 6326.8628 256
-5275.5669 214.70314 6343.5864 256
-5237.8525 214.70314 6343.5864 256
-5306.5757 219.09772 6473.4282 256
-5286.7539 219.87398 6496.3633 0
-5305.5854 222.28107 6567.4824 65792
-5507.1455 232.43614 6867.5229 65792
-5600.4453 238.13951 7036.0337 65536
-5625.7505 241.01573 7121.0142 394496
-5706.9502 246.34833 7278.5703 592132
-5718.2212 248.72081 7348.667 723203
-5945.2202 260.58539 7699.2163 1183496
-5899.4463 260.58539 7699.2163 2170132
-5781.603 257.37711 7604.4248 3222818
-5760.0249 258.43744 7635.7534 4604470
-5724.6484 258.89059 7649.1421 5591108
-5880.4922 268.06799 7920.2954 2696213
-5949.4268 273.39966 8077.8247 2564373
-6182.7754 286.43512 8462.9688 2038543
-6007.5962 280.60294 8290.6523 2301716
-5627.1274 265.00629 7829.8354 1249798
-5555.5703 263.81879 7794.7495 1184006
-5509.228 263.81879 7794.7495 1841424
-5409.6899 261.24976 7718.8462 2038804
-5442.7505 265.09521 7832.4624 2039316
-5444.2437 267.45618 7902.2192 1381643
-5349.6182 265.09521 7832.4624 1645328
-5294.334 264.65936 7819.5854 1053191
-5589.6235 281.896 8328.8564 1447949
-5388.3721 274.17535 8100.7432 1579791
-5340.2109 274.17535 8100.7432 1579534
-5488.7871 284.3681 8401.8965 1184775
-5643.2632 295.05658 8717.6963 526594
-5602.0728 295.61792 8734.2822 855041
-5691.2466 303.13345 8956.335 1249799
-5836.0781 313.78342 9270.9971 1447434
-6037.0522 327.68381 9681.6963 1842702
-6034.2822 330.6864 9770.4102 1775627
-6016.1348 332.89645 9835.708 1578248
-6047.4595 337.91425 9983.9629 1841420
-6045.4097 341.14816 10079.512 1907214
-6075.0776 346.25467 10230.388 1775628
-6022.98 346.75696 10245.229 1644555
-6100.6836 354.81882 10483.423 1709835
-6096.0308 358.20779 10583.553 1578250
-6060.5483 359.83701 10631.689 1381127
-6019.6807 361.17743 10671.293 1644045
-5956.2368 361.17743 10671.293 1315080
-6065.2905 371.75003 10983.67 1249287
-6039.564 374.202 11056.115 1183494
-5973.832 374.202 11056.115 1315080
-5908.1001 374.202 11056.115 1446666
-5878.2568 376.50064 11124.03 1380872
-8430.5508 546.11853 16135.536 1512456
-8334.6201 546.11853 16135.536 1381129
-8238.6895 546.11853 16135.536 1380873
-8142.9741 546.133 16135.962 657666
-8047.041 546.133 16135.962 723460
-6902.459 474.10501 14007.835 526592
-6319.2534 439.34763 12980.897 526337
-5948.6689 418.69604 12370.729 657922
-5954.2271 424.33356 12537.295 723459
-5876.3267 424.09088 12530.124 591618
-7259.7295 530.65741 15678.724 525826
-7375.313 546.11829 16135.527 788739
-7279.7993 546.14948 16136.449 722946
-7183.8633 546.14948 16136.449 1051911
-7088.0498 546.15894 16136.728 986118
-6991.7373 546.12958 16135.86 986118
-6895.9863 546.14392 16136.285 920325
-6800.1201 546.14941 16136.448 722947
-6704.1851 546.14941 16136.448 722947
-6608.249 546.14941 16136.448 657155
-6512.5327 546.16785 16136.992 525824
-6416.9492 546.19812 16137.887 591361
-6321.0967 546.20599 16138.119 459522
-6225.0801 546.19977 16137.936 524546
-6129.1348 546.19971 16137.935 2629915
-6032.5303 546.13995 16136.168 4077872
-5722.6479 526.4577 15554.639 10855572
-5003.1421 467.82632 13822.326 11448478
-4920.9639 467.82632 13822.326 131329
-5649.6069 546.21857 16138.49 2761748
-5553.9941 546.25153 16139.464 3683104
-5458.0405 546.25153 16139.464 9407094
-5361.939 546.23639 16139.018 11909285
-5265.9878 546.23639 16139.018 10593686
-5169.811 546.21252 16138.312 11975596
-5073.8047 546.20612 16138.123 13028287
-4977.8589 546.20612 16138.123 6448219
-4882.1436 546.23187 16138.884 10659484
-4785.918 546.20038 16137.954 10264985
-4690.1021 546.21539 16138.397 11449770
-4594.4585 546.25159 16139.466 11778735
-4498.4736 546.24774 16139.354 11186854
-4402.521 546.24774 16139.354 11121320
-4306.5669 546.24762 16139.35 10924199
-4210.0781 546.17816 16137.296 10726821
-4114.2339 546.19086 16137.673 10989995
-4018.5139 546.22125 16138.569 11055788
-3922.5657 546.22125 16138.569 11253424
-3826.6172 546.22125 16138.569 11318960
-3730.4614 546.19086 16137.672 11121838
-3634.6196 546.20599 16138.12 11122094
-3538.6738 546.20599 16138.12 11187375
-3442.6765 546.19781 16137.878 11187631
-3346.7041 546.19318 16137.741 10924459
-3250.7607 546.19318 16137.741 10726823
-3154.781 546.18689 16137.556 10463908
-3058.5842 546.14142 16136.212 10398115
-2058.1501 379.40396 11209.812 10332580
0 0 0 0
0 0 0 0
-2097.2944 428.21866 12652.084 256
-2013.1768 426.33441 12596.412 256
-1938.2876 426.33441 12596.412 592646
-1863.3984 426.33441 12596.412 5396300
-1930.1276 460.09256 13593.825 2765861
-1612.7179 401.23077 11854.703 1713169
-1464.5271 381.01331 11257.361 594946
-1381.3987 376.5968 11126.872 265473
-1379.9733 395.13016 11674.456 198656
-1241.3163 374.25183 11057.588 132352
-1174.5804 373.93497 11048.226 197632
-1111.6058 374.84888 11075.228 66304
-1070.1489 383.59079 11333.516 131840
-1033.4915 395.34351 11680.759 512
-1019.5847 418.1192 12353.687 256
-1235.8551 546.15125 16136.502 512
-1139.9192 546.15125 16136.502 200961
-1043.9144 546.11523 16135.438 2375195
-934.12427 538.13055 15899.523 2310170
-724.26605 464.2103 13715.487 2110998
-622.64972 449.71176 13287.116 398336
-543.65411 449.71176 13287.116 462339
-464.65848 449.71176 13287.116 0
-343.8136 400.91241 11845.297 0
-262.2695 384.60474 11363.474 256
-187.55363 370.46805 10945.793 256
-123.58831 373.82697 11045.035 66048
-60.185688 388.43341 11476.595 724233
8.5685406 413.66718 12222.147 395524
83.69458 426.20447 12592.572 1053195
150.30569 404.01477 11936.959 1251341
229.01152 418.14197 12354.358 1120266
320.57309 443.18036 13094.14 1382670
394.8389 439.1954 12976.401 724743
471.98724 439.1954 12976.401 132096
662.50171 529.86505 15655.312 263936
524.04266 367.49652 10857.996 592386
569.23462 355.40775 10500.823 2369299
504.4465 283.82797 8385.9385 1577734
460.16046 235.6227 6961.6719 1116672
0 0 0 0
457.2901 198.45323 5863.4688 10979358
492.15005 198.45323 5863.4688 13544472
0 0 0 0
0 0 0 0
0 0 0 0
0 0 0 0
0 0 0 0
0 0 0 0
0 0 0 0
0 0 0 0
0 0 0 0
0 0 0 0
0 0 0 0
0 0 0 0
403.53699 84.714607 2502.9648 1245696
418.41779 84.714607 2502.9648 1245952
433.29861 84.714607 2502.9648 786432
447.75479 84.634346 2500.5935 1048576
459.29913 84.026527 2482.635 1310720
0 0 0 0
0 0 0 0
0 0 0 0
0 0 0 0
0 0 0 0
0 0 0 0
2071.3306 309.35101 9140.0381 2765589
2423.729 352.72778 10421.642 198400
2612.4983 370.7225 10953.311 329216
2608.7744 361.19083 10671.689 131584
2579.5002 348.65833 10301.405 256
2561.8135 338.23694 9993.4971 256
2602.7644 335.85452 9923.1064 131840
2661.7603 335.85452 9923.1064 256
2507.3274 309.50858 9144.6934 256
2355.7932 284.63116 8409.6689 0
2339.6772 276.80917 8178.5615 66048
2470.4805 286.33392 8459.9785 65536
2419.4902 274.82877 8120.0488 262912
2618.7661 291.64526 8616.9062 0
2534.2131 276.8136 8178.6924 65536
2350.5361 251.91687 7443.0972 256
2356.0686 247.84389 7322.7578 256
2399.6047 247.84389 7322.7578 256
2514.4128 255.07408 7536.3804 65536
2564.7449 255.62491 7552.6543 197120
2416.8027 236.73502 6994.5366 328448
2250.3755 216.70415 6402.7075 131584
2288.4414 216.70415 6402.7075 1117705
2347.7253 218.68051 6461.1011 262144
2586.0928 237.00557 7002.5303 393216
2638.3657 237.96532 7030.8872 458752
2679.6877 237.92284 7029.6318 1182213
2731.4697 238.7961 7055.4331 458752
2795.502 240.69772 7111.6182 458752
2706.2478 229.54109 6781.9858 393216
2692.3167 225.00705 6648.0239 262144
2669.6826 219.88739 6496.7593 262144
2978.8137 241.84976 7145.6562 196608
4115.5601 329.44373 9733.6943 196864
4135.1875 326.42496 9644.502 65792
4048.8979 315.24222 9314.0986 256
4270.6523 328.02155 9691.6748 256
4338.2759 328.77966 9714.0742 1316105
4474.3179 334.63495 9887.0732 1118726
3094.1509 228.41125 6748.6045 1118213
3128.1086 227.96204 6735.3315 1445892
3102.8696 223.26466 6596.5439 1247232
3061.4297 217.53342 6427.209 1442816
3099.6411 217.53342 6427.209 1311232
3405.9824 236.12166 6976.4146 1769984
3447.4592 236.12166 6976.4146 1704704
3468.7024 234.7523 6935.9561 1901824
3411.6873 228.18103 6741.8022 2165765
3023.6252 199.87836 5905.5757 2692111
3034.3289 198.28346 5858.4531 2890260
3262.5339 210.77649 6227.5698 2694166
3593.5811 229.55869 6782.5063 2103310
3429.4771 216.64471 6400.9517 1380360
3215.5889 200.90378 5935.8721 788739
3101.5391 191.67456 5663.1875 526080
3127.7324 191.21753 5649.6841 198400
2991.7424 180.96027 5346.6245 768
2929.9656 175.36041 5181.1719 1024
2960.7693 175.36041 5181.1719 1024
3394.2109 198.96231 5878.5103 1024
3451.4578 200.25601 5916.7339 1280
3522.7432 202.32994 5978.0098 1280
3521.8108 200.25601 5916.7339 1024
3346.939 188.43044 5567.3369 67328
2614.6265 145.76022 4306.6094 1024
2763.3865 152.55936 4507.4956 768
2883.3633 157.65408 4658.0234 66560
3033.0264 164.25961 4853.1895 512
3119.7703 167.36523 4944.9478 512
3271.615 173.8727 5137.2163 512
3623.1667 190.77522 5636.6157 512
3656.6401 190.77325 5636.5576 512
3690.1511 190.77325 5636.5576 512
3552.0681 181.98206 5376.814 66048
3643.022 184.97716 5465.3071 66048
3784.5562 190.46487 5627.4463 66048
3817.9536 190.46191 5627.3589 66048
3877.3447 191.74448 5665.2529 768
3911.0266 191.74448 5665.2534 512
4678.8276 227.42859 6719.5708 512
4342.812 209.30838 6184.1934 768
0 0 0 0
3973.9968 188.34369 5564.7739 512
4670.439 219.52332 6486.0024 512
6617.6812 308.50186 9114.9492 512
6315.4653 292.02191 8628.0352 512
5712.8975 262.03137 7741.939 512
5557.9463 252.88681 7471.7554 512
5530.457 249.64079 7375.8491 512
5231.4067 234.28424 6922.1265 512
5080.7598 225.76163 6670.3188 512
5020.7109 221.36557 6540.4331 256
5003.2319 218.89955 6467.5728 0
5020.647 217.98619 6440.5869 65792
4997.2197 215.32678 6362.0127 196608
4858.3359 207.76978 6138.7344 262144
4894.8325 207.76978 6138.7344 196608
5010.4307 211.10255 6237.2036 1841425
5315.8789 222.32645 6568.8232 1381134
4583.3408 190.29146 5622.3228 855304
4383.1685 180.66312 5337.8447 986888
4078.3313 166.89018 4930.9116 0
4107.6465 166.89018 4930.9116 65536
0 0 0 0
4130.8652 165.47162 4888.9995 655616
3998.5059 159.05051 4699.2822 1771264
4140.9497 163.57365 4832.9224 1836288
0 0 0 0
4198.416 163.57365 4832.9224 1442560
4771.8589 184.65172 5455.6914 655360
4944.6484 190.04619 5615.0757 458752
4926.6143 188.08324 5557.0786 327680
5220.9844 197.99364 5849.8896 65536
5878.2935 221.44539 6542.7915 0
6370.7314 238.41869 7044.2822 0
6447.4478 239.71385 7082.5493 256
6622.3926 244.62067 7227.5249 256
6774.3213 248.61949 7345.6733 0
6876.5718 250.75558 7408.7861 256
7227.7642 261.88437 7737.5962 256
7959.2222 286.56351 8466.7617 66048
9168.1377 328.01477 9691.4746 0
9246.1885 328.74118 9712.9375 256
8020.9556 283.40897 8373.5586 256
8071.4297 283.43326 8374.2754 256
8167.8345 285.06021 8422.3457 256
0 0 0 0
0 0 0 0
0 0 0 0
0 0 0 0
0 0 0 0
0 0 0 0
0 0 0 0
-5121.6191 230.23814 5786.1895 256
-5188.3794 234.8165 5901.2495 256
-5228.8892 238.26106 5987.8159 256
-5193.29 238.26106 5987.8159 256
-4817.978 222.56795 5593.4268 256
-4742.2148 220.59059 5543.7334 256
-5117.6006 239.71825 6024.4365 256
-5336.8887 251.75209 6326.8628 256
-5325.3525 252.99101 6357.9985 256
-5284.4292 252.84157 6354.2427 256
-5202.2598 250.70229 6300.48 256
-5302.3267 257.37781 6468.2451 256
-5286.7539 258.49667 6496.3633 256
-5319.2959 262.00189 6584.4541 66048
-5538.7329 274.83282 6906.9126 263424
-5610.646 280.48065 7048.8496 394497
-5580.2832 281.0621 7063.4624 789254
-5592.6655 283.82166 7132.8135 855304
-5663.6768 289.62146 7278.5703 525569
-5766.7671 297.1636 7468.1147 1972756
-5973.9585 310.22879 7796.46 1972497
-5685.2681 297.54575 7477.7178 1907216
-5736.3926 302.58752 7604.4248 2827289
-5691.1821 302.58752 7604.4248 5392956
-5880.4922 315.15631 7920.2954 3023633
-6126.2168 330.97586 8317.8613 4339747
-6182.7754 336.74982 8462.9688 3287060
-6001.3252 329.54883 8281.998 3879713
-5761.7285 319.00928 8017.1255 3156504
-5584.6099 311.78201 7835.4941 2038541
-5538.0259 311.78201 7835.4941 2235922
-5504.8999 312.54611 7854.6973 2630681
-5479.5029 313.76584 7885.3511 2367508
-5472.5444 316.07159 7943.2974 2301715
-5425.3193 316.07159 7943.2974 2564887
-5507.3198 323.66623 8134.1602 1973006
-5797.0659 343.7128 8637.957 2499351
-5537.0151 331.22845 8324.209 2236435
-5539.3169 334.35461 8402.7734 2236692
-5488.7871 334.3197 8401.8965 1973776
-5438.8354 334.3197 8401.8965 1381899
-5744.4946 356.38135 8956.335 1448203
-5785.3452 362.27371 9104.418 1776912
-5730.1665 362.20734 9102.749 2171668
-5927.0366 378.22372 9505.2627 1777167
-5979.4917 385.2442 9681.6963 2105362
-6012.1855 391.11551 9829.251 2039313
-5957.7393 391.37778 9835.8408 2170899
-6045.4097 401.07367 10079.512 2499864
-5985.8091 401.09546 10080.06 2565399
-5925.8804 401.09546 10080.06 2368019
-5962.0693 407.66769 10245.229 2368019
-6060.7778 418.69461 10522.35 2302227
-6033.1084 421.12994 10583.553 2368019
-5983.1919 422.04736 10606.608 2302227
-5769.6235 411.31754 10336.954 1775627
-5866.1821 422.7037 10623.104 1643785
-5828.5962 424.56641 10669.915 1840907
-5886.8394 433.52722 10895.113 1643785
-5811.4565 432.7373 10875.261 1775885
-5746.7998 432.7373 10875.261 1907471
-5854.0977 445.83289 11204.37 1973263
-6409.3818 493.74005 12408.341 1709834
-6629.2627 516.62469 12983.461 1841675
-6552.0718 516.62469 12983.461 1776139
-6474.8823 516.62469 12983.461 1776138
-6095.7642 492.24344 12370.729 1710858
-5807.2656 474.6738 11929.181 1645322
-5672.4951 469.3905 11796.404 1185027
-5602.3623 469.3905 11796.404 1513735
-5514.8862 467.91901 11759.423 1513991
-5801.8315 498.58594 12530.124 1513735
-6253.5522 544.39496 13681.366 1382150
-6227.7026 549.28925 13804.365 1513738
-6090.8735 544.39496 13681.366 1118980
-5624.0913 509.4783 12803.864 987140
-5705.9766 523.98846 13168.522 987397
-5627.6865 523.98846 13168.522 1052933
-5532.9761 522.43811 13129.56 1118470
-5454.9175 522.43811 13129.56 1052676
-6263.2476 608.56329 15294.001 1184263
-6512.1704 642.07104 16136.094 1447433
-6416.5938 642.10675 16136.992 1644041
-6321.0059 642.14246 16137.889 1775625
-6225.0801 642.14429 16137.936 1972489
-6129.1348 642.14429 16137.935 2170125
-6032.5303 642.07391 16136.168 2104591
-5799.9648 627.29657 15764.793 1709576
-5630.1714 618.93439 15554.639 1446922
-5537.6943 618.93439 15554.639 2631191
-5649.3193 642.13367 16137.669 2235918
-5553.9937 642.20502 16139.462 3682848
-5457.8896 642.18738 16139.018 4077349
-5361.4917 642.13379 16137.672 3288864
-5265.9878 642.18738 16139.018 3026462
-5169.75 642.15173 16138.123 9014395
-5073.8047 642.15173 16138.123 7501930
-4977.7222 642.13409 16137.68 6383706
-4881.7793 642.13409 16137.68 2107163
-4785.7021 642.11609 16137.227 1448721
-4689.7617 642.11609 16137.227 3290156
-4594.0742 642.15149 16138.115 5132873
-4498.1289 642.15149 16138.115 7106915
-4402.1118 642.14099 16137.854 7830638
-4305.5693 642.05182 16135.611 7370859
-4209.7432 642.06775 16136.012 5265741
-4114.1187 642.11597 16137.224 2896425
-4018.2905 642.13385 16137.673 3489077
-3922.3477 642.13385 16137.673 2370341
-3826.4045 642.13379 16137.672 1580826
-3730.4614 642.13379 16137.672 1712159
-3634.6196 642.15167 16138.12 1515037
-3538.6738 642.15167 16138.12 1383195
-3442.6765 642.14197 16137.878 1251867
-3346.7041 642.13654 16137.741 1449500
-3250.7607 642.13654 16137.741 1252121
-3154.6936 642.11139 16137.108 1120535
-1903.5765 399.60983 10042.724 1186070
-1640.5417 355.54388 8935.2881 988177
0 0 0 0
0 0 0 0
-1814.3347 435.51663 10945.108 792586
-1808.1611 450.18057 11313.633 923914
-1760.9346 455.36169 11443.842 1055242
-1699.9329 457.254 11491.398 1186057
-1907.6013 534.59875 13435.173 1383690
-1478.3195 432.3996 10866.773 1383690
-1441.3536 440.85364 11079.234 1647372
-1372.7971 439.99225 11057.588 1778188
-1309.6154 440.85364 11079.234 1711883
-1241.3163 439.99225 11057.588 1711626
-1174.5804 439.61975 11048.226 1711627
-1083.6772 429.62189 10796.967 1579531
-1019.4862 429.62189 10796.967 1382154
-947.16321 425.96469 10705.057 1448203
-935.38708 450.97171 11333.516 1382154
-1221.5922 634.67694 15950.271 1316874
-945.00793 532.29877 13377.371 987909
-818.82153 503.60474 12656.253 528385
-743.57654 503.60474 12656.253 462592
-668.33167 503.60474 12656.253 67072
-523.21716 444.27676 11165.263 512
-456.83658 444.27676 11165.263 1977619
-403.37845 458.9805 11534.787 3096357
-329.83347 452.17056 11363.645 265473
-262.2695 452.16379 11363.474 512
-187.52753 435.48325 10944.27 512
-122.47784 435.54385 10945.793 512
-59.597176 452.19955 11364.373 462340
7.9671841 452.19955 11364.373 1580817
75.531548 452.19955 11364.373 1054986
145.08621 458.4892 11522.439 198144
215.51448 462.61954 11626.24 461826
285.88568 464.65109 11677.297 1054216
322.34433 421.54019 10593.863 922887
378.05246 413.58115 10393.841 1447685
306.30722 288.01599 7238.2227 1248768
340.02872 280.33884 7045.2861 919808
436.49365 320.40158 8052.1152 13021223
423.80109 280.33884 7045.2861 12887828
438.91663 264.22321 6640.2788 12755720
462.42673 255.40376 6418.6348 13215232
499.19846 254.69516 6400.8267 13411584
517.2514 245.21295 6162.5259 13344256
0 0 0 0
0 0 0 0
0 0 0 0
0 0 0 0
0 0 0 0
0 0 0 0
0 0 0 0
0 0 0 0
0 0 0 0
0 0 0 0
0 0 0 0
0 0 0 0
387.61646 95.666145 2404.2168 1180416
404.61032 96.308861 2420.3691 786432
429.54501 98.732658 2481.2822 720896
444.29697 98.732658 2481.2822 983040
0 0 0 0
0 0 0 0
0 0 0 0
0 0 0 0
0 0 0 0
0 0 0 0
0 0 0 0
2071.3306 363.6911 9140.0381 1976591
2572.3208 440.11066 11060.562 1515530
2612.4983 435.84296 10953.311 462336
2608.7744 424.63699 10671.689 855814
2581.0034 410.14191 10307.408 256
2640.7449 409.90302 10301.405 0
2621.2275 397.65106 9993.4971 256
2661.7603 394.85013 9923.1064 256
2438.1733 353.84033 8892.4756 198144
2291.0535 325.43298 8178.5615 198144
2339.6772 325.43298 8178.5615 198145
2628.3171 358.13788 9000.4785 592900
2888.5759 385.74756 9694.3467 198145
2962.0452 387.82065 9746.4463 198144
3025.8228 388.56961 9765.2686 790280
2830.0842 356.59131 8961.6113 855560
2868.144 354.70908 8914.3086 592388
2645.0193 321.17999 8071.6777 263425
2570.7532 306.59937 7705.248 592132
2586.2173 303.04355 7615.8857 657922
2501.9011 288.11942 7240.8223 460032
2458.3872 278.31946 6994.5366 328192
2420.5254 269.47479 6772.2583 393216
2440.1489 267.21463 6715.457 458752
2507.5791 270.1781 6789.9336 524288
2637.8948 279.71594 7029.6318 458752
2679.6877 279.71594 7029.6318 393216
2731.4697 280.74261 7055.4331 787714
2795.502 282.97827 7111.6182 459008
2837.7827 282.97827 7111.6182 525312
2746.5686 269.86188 6781.9858 263168
2936.3308 284.33267 7145.6562 262912
3101.5857 296.05148 7440.165 263168
4087.2856 384.65234 9666.8223 197632
4135.1875 383.76422 9644.502 256
4178.9556 382.52197 9613.2832 256
4270.6523 385.64124 9691.6748 256
4181.002 372.51978 9361.9141 790021
3684.0359 323.92868 8140.7563 790018
3094.1509 268.5336 6748.6045 1446919
3063.6511 262.48294 6596.5439 1380098
3023.218 255.74495 6427.209 1247232
2506.145 209.35776 5261.437 1509120
2548.937 210.30751 5285.3057 1771008
3355.9771 273.52277 6873.9893 1835520
3427.4663 275.98849 6935.9561 1704960
3371.6052 268.26291 6741.8022 1770240
3174.5374 249.61572 6273.1733 1770240
3116.9556 242.24207 6087.8633 1836032
3022.2888 232.18861 5835.207 1835776
3120.5085 237.01379 5956.4702 1704960
3159.1768 237.25827 5962.6143 1836288
3190.3245 236.93878 5954.585 1639680
3177.2842 233.3806 5865.1631 1639680
3094.1438 224.80646 5649.6841 1639937
3012.3254 216.51155 5441.2217 1903107
2940.2493 209.08568 5254.5996 2364169
2918.5581 205.36125 5160.9995 2759440
2926.3391 203.76649 5120.9214 2431247
3164.083 218.05244 5479.9463 1840395
3214.8284 219.29156 5511.0869 1249029
3472.333 234.46696 5892.4648 526082
3444.4922 230.2639 5786.8364 329216
3279.0046 217.03329 5454.3335 856323
0 0 0 0
0 0 0 0
2651.6792 170.45432 4283.7422 512
2649.8838 168.71843 4240.1172 512
2982.8567 188.12917 4727.9346 512
3502.3308 218.83032 5499.4956 256
3609.0742 223.41411 5614.6919 256
3656.6204 224.28296 5636.5273 256
3667.4739 222.90585 5601.9189 512
3571.3542 215.11034 5406.0073 512
3689.2346 220.22861 5534.6357 512
3784.5562 223.92162 5627.4463 512
3817.9536 223.91814 5627.3589 512
4585.4692 266.59579 6699.9053 512
4627.314 266.71179 6702.8198 768
4384.8555 250.57883 6297.3774 66048
3895.2925 220.71748 5546.9224 3028259
0 0 0 0
3973.9968 221.42783 5564.7739 512
4670.439 258.08438 6486.0024 768
5145.3584 281.99973 7087.0259 512
5187.4922 281.99973 7087.0259 512
5176.6812 279.14471 7015.2759 512
5218.3892 279.14471 7015.2759 512
5396.2793 286.3717 7196.8994 512
5231.4067 275.4382 6922.1265 512
5112.4971 267.07648 6711.9854 256
5040.3896 261.27029 6566.0684 256
5003.2319 257.35104 6467.5728 65792
4931.04 251.70332 6325.6377 196608
4997.2197 253.15074 6362.0127 196608
4851.4751 243.92133 6130.0654 196608
5122.9009 255.64752 6424.7607 131072
5227.0151 258.91266 6506.8174 2763555
5315.8789 261.37994 6568.8232 2237980
4583.3408 223.71773 5622.3228 1515541
4049.0154 196.20583 4930.9116 2239777
0 0 0 0
0 0 0 0
0 0 0 0
4130.8652 194.53809 4888.9995 786688
3998.5059 186.98904 4699.2822 1837056
4188.998 194.53809 4888.9995 1705472
0 0 0 0
4397.5327 201.42717 5062.1313 3221270
4842.4956 220.30083 5536.4512 3814439
5151.4263 232.77286 5849.8896 2565658
5800.4956 260.34409 6542.7915 921352
5839.3945 260.34409 6542.7915 987147
6053.1953 268.09036 6737.4653 328962
6405.3394 281.82159 7082.5493 0
6652.4653 290.78305 7307.7627 66048
6695.9121 290.78305 7307.7627 66048
6774.3213 292.29156 7345.6733 768
6817.9932 292.29156 7345.6733 132096
7552.5249 321.72061 8085.2646 131840
7841.0991 331.90082 8341.1064 66304
7890.6895 331.90082 8341.1064 256
7876.2622 329.22488 8273.8574 256
7925.4526 329.22488 8273.8574 256
8070.7383 333.19211 8373.5586 256
8188.71 335.98993 8443.8711 66304
0 0 0 0
0 0 0 0
0 0 0 0
0 0 0 0
0 0 0 0
0 0 0 0
0 0 0 0
-5177.5127 267.52673 5849.3354 256
-5316.0605 276.54309 6046.4736 256
-5337.7212 279.5603 6112.4438 256
-5358.6372 282.57965 6178.46 256
-5157.6909 273.86029 5987.8159 256
-4755.0957 254.23831 5558.791 256
-4887.4199 263.14212 5753.4678 256
-5336.8887 289.36703 6326.8628 256
-5328.3394 290.95416 6361.5645 256
-5294.5581 291.17636 6366.4224 256
-5252.6968 290.95416 6361.5645 256
-5306.5757 296.0704 6473.4282 256
-5358.4424 301.14828 6584.4541 256
-5425.5405 307.16327 6715.9683 256
-5538.7329 315.89636 6906.9126 66048
-5610.646 322.388 7048.8496 394498
-5580.2832 323.05634 7063.4624 328704
-5587.5244 325.92831 7126.2563 328960
-5663.6768 332.89456 7278.5703 788739
-5680.0728 336.42877 7355.8433 1117704
-5709.1279 340.77341 7450.8369 722690
-5747.8418 345.767 7560.0195 1577737
-5871.2441 355.97403 7783.1904 3353627
-5691.1821 347.79794 7604.4248 5063217
-5871.855 361.71259 7908.6616 4602406
-6126.2168 380.42786 8317.8613 4076058
-6107.061 382.32455 8359.3311 4141594
-6001.3252 378.78763 8281.998 4142110
-5958.3062 379.18341 8290.6523 4208162
-5847.2407 375.2193 8203.9785 3945504
-5534.0264 358.10739 7829.8354 3551261
-5464.9204 356.63544 7797.6519 3156247
-5479.5029 360.64645 7885.3511 3485471
-5517.0552 366.25159 8007.9038 1972233
-5470.0161 366.28976 8008.7388 2564372
-5422.4019 366.28976 8008.7388 2893336
-5797.0659 395.06784 8637.957 2170383
-5537.0151 380.71817 8324.209 1973004
-5487.5254 380.71817 8324.209 1710089
-5530.9727 387.22476 8466.4717 1907468
-5480.6372 387.22476 8466.4717 1709834
-5518.8296 393.53754 8604.4971 2236692
-5785.3452 416.40204 9104.418 2894621
-5730.1665 416.32568 9102.749 2170899
-5716.2344 419.27328 9167.1963 1907726
-5669.3657 419.83856 9179.5557 1578503
-5950.8633 444.9679 9728.9961 2302739
-5893.0215 444.9679 9728.9961 2631701
-5735.4561 437.36334 9562.7266 2105614
-5678.5591 437.35995 9562.6523 2566422
-5783.1372 449.91901 9837.25 2435859
-5932.3408 466.24197 10194.143 2764823
-5919.1738 470.00891 10276.505 2173200
-5858.0771 470.00891 10276.505 2238994
-5551.3398 450.09283 9841.0498 2107408
-5466.6294 447.94571 9794.1045 1910031
-5388.6875 446.31299 9758.4053 1843468
-5330.6709 446.31299 9758.4053 1843469
-5336.4312 451.71143 9876.4404 1909519
-5248.0586 449.1734 9820.9473 1843469
-5440.9521 470.92221 10296.474 1843726
-5505.0928 481.89542 10536.397 1909262
-5442.4512 481.89542 10536.397 1712140
-5327.3657 477.19775 10433.686 1515017
-5279.9434 478.52179 10462.635 1580810
-5217.7402 478.52179 10462.635 1449738
-5159.8418 478.92133 10471.371 1318152
-5240.4307 492.34164 10764.799 1252360
-5176.4307 492.34164 10764.799 1318665
-5134.4277 494.45996 10811.115 1253129
-5070.1528 494.45996 10811.115 1121286
-5209.4443 514.56744 11250.755 1384458
-5433.0312 543.63269 11886.251 1318665
-5362.3643 543.63269 11886.251 1187080
-5291.6973 543.63269 11886.251 1252874
-4794.752 499.24698 10915.781 1384203
-4729.854 499.24698 10915.781 1318410
-4702.0098 503.2124 11002.482 1252876
-4568.2183 495.79126 10840.223 1318668
-4353.7124 479.2724 10479.046 1318412
-4308.7812 481.21222 10521.46 1449741
-4623.6294 523.98193 11456.598 1449740
-4555.5166 523.98193 11456.598 1581325
-5493.1089 641.41534 14024.22 1515273
-5409.731 641.41534 14024.22 1318149
-5326.353 641.41534 14024.22 1383688
-4730.4648 578.71582 12653.326 1252360
-4672.2993 580.83685 12699.702 1253130
-4596.7959 580.83685 12699.702 1449995
-4521.2925 580.83685 12699.702 1384971
-4519.3979 590.45374 12909.97 1385226
-5552.6958 737.98621 16135.691 1253639
-5456.7646 737.98621 16135.691 1122566
-5181.4121 713.2865 15595.646 1385996
-5247.5366 735.55194 16082.468 1452045
-5151.9214 735.55194 16082.468 1188618
-4506.4761 655.56683 14333.635 1583121
-4421.2588 655.56683 14333.635 1649168
-3736.4751 564.9184 12351.652 1322514
-3419.283 527.32568 11529.708 1783063
-3204.4504 504.30392 11026.348 1717270
-3255.5842 523.05139 11436.252 1520147
-3187.5923 523.05139 11436.252 1454611
-3119.6006 523.05139 11436.252 1520403
-2583.3125 442.78455 9681.2578 1454868
-4209.6172 737.97876 16135.529 1257746
-4113.8101 738.00079 16136.012 1257491
-3192.1006 586.32281 12819.649 1125908
-2900.3455 545.7644 11932.86 1125910
-2829.4014 545.7644 11932.86 862483
-2664.1602 527.1076 11524.939 927251
-2335.2737 474.23373 10368.879 729875
-2273.6279 474.23373 10368.879 729364
-2189.0977 469.32751 10261.606 531472
-2117.6833 467.0325 10211.428 663060
-2016.1052 457.75342 10008.545 597265
-2020.4041 472.68018 10334.911 531983
-1903.5765 459.31659 10042.724 729874
-1892.7548 471.49411 10308.979 729616
-1822.1199 469.08826 10256.376 729615
-1761.1428 469.08826 10256.376 663566
-1772.4878 489.04242 10692.663 795406
-1747.3411 500.03833 10933.083 992271
-1684.1914 500.58829 10945.108 1123341
-1653.9424 511.35455 11180.507 1254413
-1587.4711 511.35455 11180.507 1320206
-1444.3569 485.58749 10617.123 1319947
-1381.1647 485.56271 10616.581 1385995
-1349.1074 497.00558 10866.773 1386251
-1295.908 501.41901 10963.271 1188616
-1222.7373 498.16336 10892.088 1451788
-1147.868 493.81287 10796.967 1321227
-1067.3833 486.38806 10634.627 1255691
-1004.1575 486.38806 10634.627 1256201
-938.19232 484.97202 10603.666 1190409
-866.46301 480.15771 10498.404 1321996
-805.77026 481.18683 10520.904 1321739
-743.22058 481.18683 10520.904 1387533
-680.6709 481.18683 10520.904 1124363
-615.71735 479.31546 10479.988 1190156
-560.41998 485.38614 10612.721 1255694
-508.4198 496.21521 10849.493 1255693
-456.83658 510.65738 11165.263 1255181
-397.39349 519.73059 11363.645 1320717
-326.94992 515.18689 11264.299 1057545
-254.51759 504.36133 11027.604 991240
-185.76472 495.84473 10841.392 1254412
-117.61543 480.74487 10511.241 1320462
-55.123177 480.74487 10511.241 1386510
7.3512502 479.5816 10485.807 1189900
67.259163 462.8382 10119.722 1519376
127.78505 464.15063 10148.417 1124873
188.12021 464.15063 10148.417 1124872
231.19351 431.90295 9443.3379 1518347
278.29819 418.31689 9146.2852 1451528
263.27396 331.04922 7238.2227 1384448
268.43848 290.12164 6343.3618 1581056
308.84793 292.67685 6399.23 11901714
381.91492 322.22504 7045.2861 12360448
418.77139 318.40085 6961.6719 12622592
436.72287 302.18356 6607.0894 13016576
474.42099 301.17871 6585.1191 13279232
513.57135 301.17871 6585.1191 13409280
537.25317 292.74988 6400.8267 13407488
540.46655 275.0206 6013.1851 13075968
0 0 0 0
0 0 0 0
0 0 0 0
0 0 0 0
0 0 0 0
0 0 0 0
0 0 0 0
0 0 0 0
0 0 0 0
0 0 0 0
0 0 0 0
390.37122 110.74136 2421.3035 1180160
404.76654 110.74136 2421.3035 655360
427.02161 112.81789 2466.7056 655360
426.88135 109.03619 2384.0205 721408
0 0 0 0
0 0 0 0
0 0 0 0
0 0 0 0
0 0 0 0
0 0 0 0
1600.0289 331.61386 7250.5679 4675879
2479.8857 500.4848 10942.846 2438410
2547.3777 500.96347 10953.311 1451266
2545.3281 488.08316 10671.689 1253124
2569.4568 480.72711 10510.854 1054727
2621.5217 478.823 10469.221 263936
2640.7449 471.14774 10301.405 527106
2620.667 456.96747 9991.3604 256
2661.7603 453.84579 9923.1064 256
2507.3274 418.24405 9144.6934 256
2700.7559 440.9483 9641.1094 256
2785.54 445.33936 9737.1172 256
2843.4302 445.33936 9737.1172 256
2904.0999 445.76602 9746.4463 256
3013.5269 453.51364 9915.8447 0
3076.3447 454.0842 9928.3193 329218
3103.6084 449.48407 9827.7402 460803
3122.5371 443.86914 9704.9727 789766
2936.6428 409.87061 8961.6113 658181
3232.4001 443.11047 9688.3848 855558
2564.7449 345.43018 7552.6543 394752
2497.3179 330.56143 7227.5576 591360
2458.3872 319.90396 6994.5366 524800
2425.5549 310.38138 6786.3306 458752
2460.7883 309.73776 6772.2583 524288
2507.5791 310.54614 6789.9336 655360
2637.8948 321.50906 7029.6318 458752
2722.0935 326.59689 7140.8745 458752
2785.2908 329.04742 7194.4541 393216
2993.6841 348.31744 7615.7832 393472
2875.9702 329.6358 7207.3184 131072
2952.2119 333.40692 7289.7725 460544
3057.3518 340.28531 7440.165 131584
3397.9834 372.80408 8151.1714 197632
4087.2856 442.1243 9666.8223 66048
4121.8022 439.67563 9613.2832 256
4178.9556 439.67563 9613.2832 256
4270.6523 443.26096 9691.6748 395011
4181.002 428.17896 9361.9141 1447950
3600.6111 363.89639 7956.4092 1250571
0 0 0 0
2880.0071 283.61639 6201.1279 1840651
2831.7148 275.33609 6020.083 1247232
2517.5144 241.73012 5285.3057 1180416
2903.2971 275.33609 6020.083 1508096
3034.2312 284.24918 6214.9629 1835520
3071.1809 284.24918 6214.9629 1836032
3131.0979 286.34958 6260.8877 1966848
3168.3206 286.34958 6260.8877 1966848
3192.189 285.15665 6234.8052 1967104
3127.179 276.14279 6037.7212 1836032
3163.075 276.14279 6037.7212 1771008
3198.9707 276.14279 6037.7212 1770496
3191.3345 272.42667 5956.4702 1836288
3180.1016 268.48849 5870.3638 1639680
3101.5391 259.01303 5663.1875 1771264
3104.6729 256.49036 5608.0308 1705472
3044.675 248.86113 5441.2217 1705472
2971.4893 240.32573 5254.5996 1771520
2949.2417 236.0448 5160.9995 1640192
3091.3953 244.87451 5354.0566 1705728
3214.8284 252.0565 5511.0869 1574656
3247.5935 252.0565 5511.0869 1574656
3294.9714 253.17935 5535.6372 1574400
3198.8008 243.35907 5320.9219 1771778
0 0 0 0
0 0 0 0
0 0 0 0
0 0 0 0
2649.0532 192.03943 4198.8442 256
3575.6934 256.79501 5614.6919 256
3609.0742 256.79501 5614.6919 256
3634.1121 256.20682 5601.8315 256
3520.1016 245.91536 5376.814 512
3552.0681 245.91536 5376.814 512
3649.2803 250.39211 5474.6958 256
3764.8323 256.03696 5598.1177 512
3688.885 248.67361 5437.1221 512
3721.2102 248.67361 5437.1221 66816
4347.4155 288.01849 6297.3774 2172438
3862.3145 253.69548 5546.9224 512
0 0 0 0
0 0 0 0
0 0 0 0
4980.0947 316.31345 6916.0322 768
5021.2124 316.31345 6916.0322 768
4925.5298 307.76562 6729.1387 768
4768.8428 295.57449 6462.5854 512
4943.688 303.96249 6645.9849 512
5126.3193 312.69238 6836.8594 512
5201.8999 314.80649 6883.083 512
5112.4971 306.98111 6711.9854 512
5066.7383 301.87726 6600.3926 256
5000.0327 295.61343 6463.437 65792
4886.9424 286.72372 6269.0679 196608
4924.2134 286.72372 6269.0679 196608
4851.4751 280.36627 6130.0654 196608
5083.2061 291.56766 6374.9785 196608
4983.9551 283.75897 6204.2456 1249546
5037.6782 284.71054 6225.0513 1118473
4663.0962 261.61859 5720.1572 395009
4611.8882 256.87225 5616.3809 263424
0 0 0 0
0 0 0 0
0 0 0 0
4130.8652 223.60454 4888.9995 1114880
4159.9316 223.60454 4888.9995 1837056
4337.3408 231.52295 5062.1313 1705472
4412.4038 233.90671 5114.251 1508608
4661.4829 245.41949 5365.9722 2762005
4981.6655 260.4938 5695.5645 2565139
5761.687 299.24747 6542.8936 2698779
5926.001 305.7175 6684.3574 2633499
6185.334 316.97064 6930.4019 3751721
6449.2788 328.30963 7178.3228 3817258
6629.1245 335.24646 7329.9932 3949358
6652.4653 334.22974 7307.7627 3422503
6730.6489 335.96362 7345.6733 3488042
6851.4106 339.78677 7429.2646 1448460
7175.5869 353.58441 7730.9429 2237464
7355.2725 360.13184 7874.0986 2171930
7499.0879 364.85123 7977.2861 921609
7684.0498 371.50061 8122.6714 724485
7732.3413 371.50061 8122.6714 197632
7780.6328 371.50061 8122.6714 256
7848.9409 372.45044 8143.439 0
7467.6611 352.18546 7700.355 256
0 0 0 0
0 0 0 0
0 0 0 0
0 0 0 0
0 0 0 0
0 0 0 0
0 0 0 0
-5190.312 303.04999 5863.7959 768
-5400.9067 317.47855 6142.9775 256
-5478.895 324.25555 6274.1079 256
-5447.1475 324.58646 6280.5107 256
-5347.7192 320.86118 6208.4292 256
-4847.8979 292.89365 5667.2783 256
-4887.4199 297.34805 5753.4678 0
-5287.2944 323.94345 6268.0688 0
-5369.5879 331.32062 6410.8115 0
-5331.4736 331.32062 6410.8115 0
-5293.3594 331.32062 6410.8115 0
-5409.416 341.04037 6598.8818 256
-5375.0151 341.3472 6604.8188 256
-5425.5405 347.09158 6715.9683 256
-5455.6362 351.60446 6803.2896 131840
-5573.8999 361.90945 7002.6836 262656
-5580.2832 365.0506 7063.4624 197120
-5603.0986 369.32245 7146.1196 328960
-5583.0527 370.81287 7174.958 591616
-5753.4253 385.07071 7450.8369 920324
-5716.8242 385.58981 7460.8809 1314823
-5808.5503 394.84015 7639.8682 1380613
-5809.7441 398.03378 7701.6631 2235406
-5691.1353 393.00516 7604.3623 2498318
-5810.7686 404.47968 7826.3862 3353880
-5764.2388 404.47968 7826.3862 3549973
-5857.0566 414.33737 8017.1255 4406050
-5809.3926 414.33737 8017.1255 4208160
-5788.9526 416.29507 8055.0059 4077086
-5655.6724 410.10324 7935.1982 4339745
-5511.2793 402.99466 7797.6519 4339745
-5387.3823 397.27682 7687.0166 4537381
-5341.6812 397.27682 7687.0166 3879966
-5336.6519 400.32791 7746.0522 4077604
-5470.0161 413.90396 8008.7388 2762514
-5421.8369 413.86078 8007.9038 3552032
-5417.7446 417.21201 8072.7471 2565909
-5369.75 417.21201 8072.7471 2171408
-5206.1821 408.15134 7897.4302 2171407
-4986.0127 394.448 7632.2808 2237969
-5108.4097 407.84253 7891.4551 2172689
-5257.7681 423.65793 8197.4717 2502934
-5467.6738 444.69363 8604.4971 2175249
-5416.5176 444.69363 8604.4971 2570776
-5507.0972 456.44104 8831.8008 2374679
-5454.5898 456.44104 8831.8008 2112019
-5614.7905 474.41357 9179.5557 2112275
-5627.5 480.15442 9290.6377 1849104
-5226.9717 450.401 8714.9307 2243861
-5271.0635 458.74774 8876.4336 1914896
-5218.291 458.74774 8876.4336 2177813
-5314.064 471.94006 9131.6953 1914386
-5472.3071 491.00989 9500.6826 2110483
-5574.6299 505.40768 9779.2695 1650191
-5394.3965 494.22183 9562.8311 1781265
-5374.2617 497.62173 9628.6172 1518094
-5317.0171 497.62173 9628.6172 1781266
-5194.5322 491.44949 9509.1885 1517324
-5137.9976 491.44949 9509.1885 1517325
-5081.4629 491.44949 9509.1885 1583118
-5157.6211 504.42715 9760.2969 1648911
-5379.7368 532.13763 10296.474 1254154
-5231.9102 523.47186 10128.798 1385996
-5171.6919 523.47186 10128.798 1386252
-5166.3184 529.08856 10237.478 1385995
-5114.541 530.03027 10255.699 1254666
-5053.5679 530.03027 10255.699 1254666
-5001.0669 530.92969 10273.102 1188874
-4979.0288 535.12543 10354.286 1189129
-4953.9336 539.09344 10431.064 1320716
-4891.918 539.09344 10431.064 1320715
-4919.3135 549.07318 10624.164 992007
-4881.4902 551.93829 10679.604 992007
-4741.6675 543.19415 10510.41 992263
-4582.8589 532.01251 10294.053 1255947
-4521.6577 532.01251 10294.053 1125131
-4519.7729 539.08728 10430.945 1256973
-4354.2012 526.5639 10188.627 1322767
-4144.6016 508.28766 9834.9951 1190924
-4086.1299 508.28766 9834.9951 1190668
-4136.0527 521.96704 10099.681 1058314
-4246.228 543.76526 10521.46 1189643
-4223.2822 548.91309 10621.067 1254924
-4405.6338 581.30536 11247.834 1452045
-4295.0693 575.45142 11134.564 1452301
-4228.8711 575.45142 11134.564 1386764
-4075.6492 563.42114 10901.787 1190155
-4135.7285 580.96552 11241.258 1124361
-4023.0891 574.42511 11114.706 1190411
-3977.3533 577.37842 11171.851 1059336
-3910.9338 577.37842 11171.851 862213
-4201.4634 630.98596 12209.117 797191
-3876.3728 592.39758 11462.461 994569
-3808.2253 592.39758 11462.461 863752
-4112.833 651.43896 12604.868 1192973
-4059.501 654.92493 12672.319 1259022
-3883.3433 638.35236 12351.652 995852
-3556.3777 595.87305 11529.708 995852
-3335.5598 569.85858 11026.348 995596
-3118.168 543.39819 10514.358 1192975
-3009.1938 535.1355 10354.48 863496
-3095.269 561.93835 10873.096 1060875
-2828.8362 524.52252 10149.128 995083
-2768.4966 524.52252 10149.128 863242
-2583.3127 500.34238 9681.2588 862987
-2687.4875 532.38092 10301.182 731145
-2626.2441 532.38092 10301.182 336388
-2545.541 528.34192 10223.03 665611
-2801.1982 595.62659 11524.939 599050
-2411.7136 525.6676 10171.283 664842
-2351.2427 525.6676 10171.283 927762
-2246.7905 515.5752 9976.0029 795919
-2187.4805 515.5752 9976.0029 861713
-2113.5903 512.04297 9907.6582 664333
-2054.6865 512.04297 9907.6582 598284
-1978.0341 507.48932 9819.5479 598540
