# .PCD v0.7 - Point Cloud Data file format
VERSION 0.7
FIELDS x y z rgb
SIZE 4 4 4 4
TYPE F F F U
COUNT 1 1 1 1
WIDTH 1391
HEIGHT 1
VIEWPOINT 0 0 0 1 0 0 0
POINTS 1391
DATA ascii
3912.9827 -162.09055 5137.1929 786432
3981.0088 -163.63126 5186.0229 983296
4011.8411 -163.63126 5186.0229 589824
3886.0171 -157.29044 4985.061 393216
3733.6987 -149.98132 4753.4106 393216
3780.9016 -150.73653 4777.3457 393216
3809.3044 -150.73653 4777.3457 393216
3700.6682 -145.35394 4606.7539 458752
3645.7031 -142.14305 4504.9897 1179904
3412.155 -132.06696 4185.6445 2952459
3491.1418 -134.14581 4251.5303 3148806
3506.2974 -133.7597 4239.2935 3149316
3621.2129 -137.15764 4346.9854 3083012
3663.8008 -137.78735 4366.9429 1179648
3912.7725 -146.1152 4630.8804 1048576
3940.3042 -146.1152 4630.8804 655360
3967.8364 -146.1152 4630.8804 655360
4083.4004 -149.33463 4732.915 458752
4251.2588 -154.40939 4893.751 393216
4813.2563 -173.63332 5503.022 262144
4902.7383 -175.66724 5567.4834 196608
4685.019 -166.74052 5284.5659 0
4716.437 -166.74052 5284.5659 1579796
5672.0894 -199.19881 6313.2778 790792
6520.9253 -227.50372 7210.3555 790537
7016.9912 -243.21176 7708.1958 199424
6932.1914 -238.71353 7565.6323 397826
7085.7988 -242.43008 7683.4219 1515282
6648.0547 -225.99638 7162.583 925195
7018.6948 -237.07745 7513.7793 859401
7116.3999 -238.8575 7570.1948 924683
7145.7007 -238.33365 7553.5923 3424559
7190.6089 -238.33365 7553.5923 68608
7235.5176 -238.33365 7553.5923 463111
6974.7124 -228.32574 7236.4082 660234
6963.209 -226.55173 7180.1836 1449238
0 0 0 0
0 0 0 0
0 0 0 0
0 0 0 0
0 0 0 0
0 0 0 0
0 0 0 0
-3670.4729 -106.18605 4146.7456 256
-3645.8193 -106.18605 4146.7456 256
-3605.4006 -105.72375 4128.6924 256
-3556.1982 -104.9958 4100.2642 256
-3531.8665 -104.99715 4100.3169 256
-3627.8843 -108.60119 4241.061 256
-3635.8813 -109.60234 4280.1577 256
-3632.4521 -110.27072 4306.2593 256
-3734.74 -114.18065 4458.9482 256
-3743.8882 -115.27859 4501.8247 256
-3769.7327 -116.91015 4565.54 256
-3903.1838 -121.92677 4761.4473 256
-3877.4548 -122.00792 4764.6167 256
-3828.9138 -121.36718 4739.5947 256
-3666.7373 -117.08827 4572.4961 256
-3639.5527 -117.08827 4572.4961 256
-3827.9885 -124.07722 4845.4268 256
-3861.6284 -126.11669 4925.0713 256
-3839.9995 -126.36851 4934.9048 256
-3761.9292 -124.75249 4871.7969 512
-3866.3757 -129.21097 5045.9082 512
-3957.6057 -133.29404 5205.3584 512
-3926.6582 -133.29404 5205.3584 512
-3872.0066 -132.48297 5173.6851 512
-3827.7515 -132.0175 5155.5073 512
-3790.2605 -131.77968 5146.2207 512
-3940.0381 -138.10191 5393.1147 768
-3876.9004 -137.00381 5350.2319 856841
-3845.092 -137.00381 5350.2319 1712150
-4010.7231 -144.09744 5627.25 198144
-3970.0005 -143.83415 5616.9683 512
-3888.0916 -142.06155 5547.7451 512
-3855.1086 -142.06155 5547.7451 256
-3747.1045 -139.27315 5438.853 768
-3542.436 -132.81209 5186.5376 768
-3206.4009 -121.26914 4735.7661 768
-3617.3298 -138.02286 5390.0269 768
-3569.6484 -137.4209 5366.5195 512
-3526.874 -136.9987 5350.0322 768
-3488.3743 -136.73639 5339.7881 1024
-3463.259 -136.9987 5350.0322 1024
-3391.0356 -135.38512 5287.0186 1024
-3385.344 -136.42244 5327.5278 768
-3343.0833 -135.99176 5310.7095 1536
-3344.9756 -137.3661 5364.3794 1280
-3348.9041 -138.85129 5422.3789 1280
-3358.3589 -140.59674 5490.5415 1280
-3361.2029 -142.09695 5549.1279 2560
-3370.5837 -143.90602 5619.7744 199936
-3422.2322 -147.57397 5763.0146 1024
-3412.5964 -148.64667 5804.9053 396544
-3581.6738 -157.60527 6154.7534 264960
-3569.5403 -158.6926 6197.2158 768
-3508.4905 -157.60527 6154.7534 1024
-3580.1909 -162.52113 6346.7266 1280
-3628.8579 -166.48499 6501.522 396801
-3860.468 -179.01767 6990.9443 397058
-3948.4114 -185.0885 7228.0205 2048
-3905.439 -185.0885 7228.0205 1024
-3812.6631 -182.70195 7134.8218 133376
-3715.7615 -180.06177 7031.7178 768
-3465.0063 -169.82108 6631.8013 1024
-3506.0986 -173.81282 6787.6855 256
-3471.5349 -174.10324 6799.0273 512
-3435.2019 -174.31071 6807.1299 512
-3350.3335 -172.03101 6718.103 512
-3392.167 -176.28056 6884.0557 768
-3413.9424 -179.57886 7012.8594 1024
-3376.1174 -179.78485 7020.9043 1280
-3330.5557 -179.57886 7012.8594 1024
-3292.6353 -179.78485 7020.9043 463362
-3526.8564 -195.04646 7616.8965 200704
-3504.5212 -196.33215 7667.1045 529411
-3458.938 -196.33215 7667.1045 2174746
-3608.1255 -207.53513 8104.5996 134400
-3511.2012 -204.69368 7993.6362 264705
-4311.0513 -254.77119 9949.248 2636047
-4267.4043 -255.70018 9985.5264 3622442
-5599.1675 -340.23178 13286.63 2048
-5827.6899 -359.18524 14026.794 1024
-5963.3433 -372.88202 14561.677 1120518
-6511.9697 -413.18555 16135.598 857600
-6416.2925 -413.20181 16136.233 2766613
-6320.8394 -413.23334 16137.464 3885859
-6225.0317 -413.24222 16137.812 2373388
-6129.1729 -413.24792 16138.034 3162140
-6034.0479 -413.30414 16140.229 4609848
-5938.0903 -413.30414 16140.229 1792
-5842.5244 -413.33188 16141.312 1280
-5745.8887 -413.2836 16139.428 1119504
-5650.7676 -413.34451 16141.806 198658
-5553.4868 -413.24677 16137.989 264450
-5457.542 -413.24677 16137.989 512
-5361.9888 -413.27698 16139.167 256
-5266.2788 -413.29596 16139.909 256
-5170.4653 -413.3074 16140.355 256
-5074.5063 -413.3074 16140.355 197378
-4978.4214 -413.29691 16139.946 256
-4907.0674 -415.37946 16221.274 256
-4813.0908 -415.59219 16229.581 256
-4691.0537 -413.34109 16141.673 527110
-4594.6909 -413.30548 16140.281 197890
-4498.4233 -413.2771 16139.173 1842969
-4402.7739 -413.30548 16140.281 256
-4306.7554 -413.29968 16140.055 0
-3603.9663 -353.73776 13814.061 256
-3534.0818 -354.96756 13862.086 256
-3501.7024 -360.11307 14063.027 256
-3458.2004 -364.33847 14228.037 256
-3472.8013 -375.05072 14646.368 256
-3459.4448 -383.21701 14965.275 256
-3634.8582 -413.27728 16139.18 256
-3538.8042 -413.26535 16138.715 256
-3402.481 -408.41904 15949.457 256
-3303.6477 -407.92398 15930.124 256
-3212.8328 -408.41904 15949.457 256
-3155.1348 -413.28204 16139.365 256
-3059.1819 -413.28204 16139.365 256
-2962.9812 -413.24747 16138.017 256
-2801.1865 -403.75607 15767.36 1281
-2648.8115 -395.01218 15425.896 263683
-2514.9272 -388.49741 15171.484 131841
-2403.1997 -385.048 15036.778 256
-2420.8962 -402.87 15732.757 67072
-2337.5369 -404.63147 15801.547 1120014
-2270.2146 -409.4328 15989.047 1646613
-2195.562 -413.27399 16139.052 263939
-2099.6108 -413.27399 16139.052 264194
-2003.5425 -413.24979 16138.107 725255
-1907.522 -413.23358 16137.474 922887
-1811.5802 -413.23358 16137.474 3225637
-1715.8014 -413.27283 16139.006 2172949
-1619.8735 -413.27872 16139.236 1383181
-1523.9214 -413.27872 16139.236 1514772
-1427.7214 -413.20706 16136.438 1645078
-1203.1952 -373.30981 14578.383 329476
-1024.9596 -342.69565 13382.848 855820
-903.11993 -327.37146 12784.412 987406
-827.11304 -327.37146 12784.412 790027
-673.69781 -293.63284 11466.861 790027
-596.49091 -289.25241 11295.799 197891
-600.04077 -327.88971 12804.65 66304
-554.26727 -346.88651 13546.508 329219
-465.34265 -340.74524 13306.681 65793
-381.96066 -336.97806 13159.565 65792
-300.73944 -333.66742 13030.279 0
-218.55647 -326.62204 12755.146 263170
-140.91656 -322.48672 12593.654 855307
-66.890678 -326.62204 12755.146 658441
8.8822479 -324.43195 12669.618 132097
83.588585 -322.05063 12576.624 256
158.36012 -322.05063 12576.624 0
237.91162 -328.65375 12834.487 66048
323.04791 -337.89124 13195.227 66305
402.79074 -338.97983 13237.738 132098
480.01642 -337.94046 13197.149 197890
548.59967 -331.9635 12963.738 132097
608.61456 -322.91293 12610.299 256
678.15387 -320.34674 12510.085 512
744.9328 -317.11276 12383.792 512
818.17285 -316.96359 12377.967 256
853.65985 -303.42032 11849.079 256
908.59326 -298.3269 11650.173 256
977.85681 -298.3269 11650.173 256
1041.5853 -296.74997 11588.591 0
1110.4828 -296.74997 11588.591 256
1179.2581 -296.71924 11587.391 855564
1245.2863 -296.03885 11560.82 256
1314.0186 -296.03885 11560.82 256
1362.7667 -291.76041 11393.739 256
1430.5057 -291.76041 11393.739 256
1498.2448 -291.76041 11393.739 1250578
1589.4449 -296.1315 11564.438 329476
1694.2139 -302.56329 11815.611 132097
1764.4611 -302.56329 11815.611 197890
1931.2982 -318.49207 12437.656 1053199
1892.7682 -300.62766 11740.021 131841
1913.9731 -293.18414 11449.34 66048
1961.8291 -290.19415 11332.575 256
1972.619 -282.10196 11016.562 256
1985.4569 -274.81332 10731.927 256
2051.4441 -275.10608 10743.359 256
2137.3511 -277.9718 10855.271 256
2217.1492 -279.89828 10930.504 256
2282.134 -279.89828 10930.504 256
2376.781 -283.43555 11068.64 256
2449.8274 -284.2757 11101.449 256
2464.8857 -278.51941 10876.656 256
2529.5503 -278.51941 10876.656 256
2543.5715 -273.08224 10664.325 66304
2613.7769 -273.79483 10692.153 132097
2761.1619 -282.36627 11026.883 263681
2912.3342 -290.91846 11360.86 197889
3023.4648 -295.17377 11527.037 0
3309.208 -315.90961 12336.808 0
3410.7185 -318.54004 12439.53 131841
3118.9158 -285.10538 11133.85 395267
3321.437 -297.30832 11610.396 724232
3667.6296 -321.61282 12559.527 1184783
3751.9832 -322.44504 12592.026 263682
4138.2427 -348.68289 13616.659 395268
4214.7505 -348.31537 13602.308 395268
3924.533 -318.22537 12427.241 921611
3998.4163 -318.22537 12427.241 1513748
4447.5171 -347.5463 13572.273 395267
5383.6191 -413.20029 16136.174 395010
5419.0181 -408.63547 15957.91 395267
5288.6816 -391.94507 15306.122 197889
4775.6147 -347.93491 13587.449 132096
5056.6753 -362.28384 14147.8 658441
5254.9419 -370.32858 14461.96 1711386
5226.96 -362.42667 14153.377 2435622
4808.1362 -328.10434 12813.032 2172961
3599.1035 -241.7702 9441.5371 6383200
0 0 0 0
0 0 0 0
0 0 0 0
0 0 0 0
0 0 0 0
0 0 0 0
0 0 0 0
0 0 0 0
0 0 0 0
0 0 0 0
0 0 0 0
0 0 0 0
0 0 0 0
0 0 0 0
0 0 0 0
0 0 0 0
0 0 0 0
0 0 0 0
0 0 0 0
0 0 0 0
0 0 0 0
989.25482 -49.476902 1932.1572 1640193
1008.7869 -49.874645 1947.6897 1245696
1002.29 -48.991085 1913.1851 1048576
0 0 0 0
0 0 0 0
0 0 0 0
2620.0938 -122.5069 4784.103 12872960
2717.4917 -125.69641 4908.6582 13199616
2786.8901 -127.53677 4980.5273 13461760
2848.0171 -128.96388 5036.2588 13526784
2881.4409 -129.11992 5042.3521 13395200
2939.5203 -130.36618 5091.021 13329408
2962.5222 -130.04724 5078.5659 13460224
2991.8005 -130.00746 5077.0127 13394432
3008.1753 -129.41338 5053.8125 13328640
3027.2058 -128.94417 5035.4888 13197056
2974.0103 -125.43778 4898.5586 12999680
3006.2849 -125.56942 4903.6992 12867840
3045.3589 -125.97979 4919.7246 12604416
3074.6079 -125.97979 4919.7246 12210432
3103.8569 -125.97979 4919.7246 11093248
3407.3816 -137.00819 5350.4028 8070144
3503.521 -139.57091 5450.4814 2949632
3536.7451 -139.60326 5451.7441 1179648
3956.7087 -154.76187 6043.7139 655360
4296.5635 -166.54247 6503.7666 787968
4562.0229 -175.25496 6844.0039 854273
4602.7124 -175.25496 6844.0039 197120
4719.647 -178.13264 6956.3828 986115
4761.168 -178.13876 6956.6216 1183495
4802.3623 -178.13264 6956.3828 1051910
4250.0322 -156.29919 6103.749 854530
3941.6572 -143.73116 5612.9458 1117449
3803.2571 -137.52019 5370.397 854019
3603.8616 -129.22549 5046.4751 327936
3699.2539 -131.55084 5137.2837 1905425
3809.4775 -134.36121 5247.0337 524288
3737.1995 -130.74133 5105.6709 851968
3770.0999 -130.82965 5109.1206 917504
3800.4749 -130.82965 5109.1206 851968
3849.4473 -131.46478 5133.9233 786432
3909.5464 -132.46692 5173.0586 655360
3970.8948 -133.49542 5213.2231 655360
4001.8887 -133.49542 5213.2231 458752
3914.6536 -129.58182 5060.3906 393216
3798.9392 -124.7924 4873.3555 393216
3917.9292 -127.727 4987.9565 262144
3989.6951 -129.08952 5041.1655 262144
4019.6658 -129.08952 5041.1655 393216
3837.7068 -122.33388 4777.3457 458752
3619.5913 -114.53339 4472.7236 1705475
3431.6357 -107.79406 4209.5415 3018506
3491.1418 -108.86928 4251.5303 3214599
3506.2974 -108.55593 4239.2935 3083270
3630.7166 -111.60573 4358.3936 2556928
3675.6948 -112.18767 4381.1191 1179648
3996.4656 -121.11979 4729.9336 983040
4023.6038 -121.09021 4728.7788 655360
4055.2617 -121.19614 4732.915 655360
4287.1431 -127.24327 4969.0659 393216
4652.8809 -137.15331 5356.0698 262144
5551.1562 -162.51959 6346.6665 65536
5790.5293 -168.3831 6575.6465 4606017
6487.106 -187.37387 7317.2681 198146
6653.6426 -190.90392 7455.1221 594948
6794.0654 -193.64293 7562.0854 266241
7054.5044 -199.74413 7800.3472 3359536
7016.9912 -197.38438 7708.1958 1846555
7062.8188 -197.38438 7708.1958 1319698
7108.646 -197.38438 7708.1958 3227950
7131.4795 -196.75 7683.4219 4081976
7018.6948 -192.40594 7513.7793 2568738
7116.3999 -193.85059 7570.1948 659973
7175.4771 -194.23146 7585.0684 768
7220.5723 -194.23146 7585.0684 512
7568.4971 -202.32692 7901.21 1251598
7096.5444 -188.54012 7362.812 461061
7017.7344 -185.30328 7236.4082 67073
0 0 0 0
0 0 0 0
0 0 0 0
0 0 0 0
0 0 0 0
0 0 0 0
0 0 0 0
-3670.4729 -81.532494 4146.7456 256
-3677.4321 -82.239464 4182.7021 256
-3652.5649 -82.239464 4182.7021 256
-3556.1982 -80.618584 4100.2642 256
-3606.3665 -82.320183 4186.8076 256
-3685.6445 -84.714523 4308.584 256
-3658.5486 -84.68026 4306.8413 512
-3632.4521 -84.668816 4306.2593 512
-3734.2349 -87.659103 4458.3452 512
-3772.0449 -89.179688 4535.6821 512
-3772.0469 -89.821854 4568.3428 256
-3906.6941 -93.702827 4765.7295 256
-3910.3059 -94.47464 4804.9839 256
-3845.1853 -93.584991 4759.7363 256
-3735.6172 -91.592354 4658.3906 256
-3707.9214 -91.592354 4658.3906 256
-3834.3132 -95.427223 4853.4321 256
-3838.7927 -96.263138 4895.9468 256
-3790.8933 -95.788307 4871.7969 256
-3518.7576 -89.596535 4556.8833 256
-3607.126 -92.559265 4707.5679 256
-3887.2273 -100.52668 5112.791 256
-3902.7656 -101.72397 5173.6851 256
-3859.342 -101.39125 5156.7632 256
-3828.6838 -101.39125 5156.7632 256
-3854.7097 -102.90449 5233.7261 256
-4039.6721 -108.71981 5529.4937 512
-3918.6399 -106.32775 5407.8335 256
-3886.489 -106.32775 5407.8335 768
-4003.3948 -110.43972 5616.9683 67072
-3768.5596 -104.83593 5331.959 768
-3736.408 -104.82324 5331.3145 330244
-3704.7117 -104.82324 5331.3145 396549
-3674.5056 -104.86577 5333.4771 330500
-3542.436 -101.97668 5186.5376 768
-3588.897 -104.22136 5300.7021 768
-3692.5818 -108.18232 5502.1567 768
-3643.3884 -107.69513 5477.3784 1792
-3520.1208 -104.98985 5339.7881 133120
-3465.2803 -104.29479 5304.437 1280
-3415.4702 -103.73975 5276.208 68096
-3417.0178 -104.7488 5327.5278 67328
-3439.9812 -106.43936 5413.5103 1024
-3449.2795 -107.73506 5479.4092 1024
-3457.6638 -109.02664 5545.0991 1024
-3424.697 -109.02664 5545.0991 1280
-3394.1938 -109.10586 5549.1279 266241
-3374.0469 -109.52278 5570.3325 1280
-3415.3813 -111.96346 5694.4658 2304
-3447.1082 -114.1349 5804.9053 1280
-3449.7612 -115.37788 5868.1235 1024
-3518.6208 -118.88318 6046.4028 792585
-3545.082 -121.01354 6154.7534 331010
-3508.4905 -121.01354 6154.7534 67328
-3616.3701 -126.04911 6410.8628 396290
-3763.7234 -132.58249 6743.1499 199424
-3913.8909 -139.35672 7087.688 67584
-3948.4114 -142.11591 7228.0205 265216
-3905.439 -142.11591 7228.0205 199680
-3782.4668 -139.17239 7078.3135 463618
-3715.7615 -138.25624 7031.7178 791559
-3526.5544 -132.7093 6749.6006 1024
-3506.0986 -133.45813 6787.6855 512
-3449.6167 -132.8371 6756.1001 512
-3431.1125 -133.68112 6799.0273 512
-3356.896 -132.34874 6731.2622 512
-3392.167 -135.35294 6884.0557 768
-3491.4785 -141.01704 7172.1323 768
-3453.0752 -141.19029 7180.9438 1024
-3410.3826 -141.19029 7180.9438 1024
-3401.8125 -142.62088 7253.7036 68352
-3550.1045 -150.7491 7667.1045 266497
-3631.1702 -156.19698 7944.1841 990474
-3583.9397 -156.19698 7944.1841 925191
-3614.1062 -159.61516 8118.0332 2702880
-3565.8423 -159.61516 8118.0332 3821092
0 0 0 0
-4251.9004 -195.62015 9949.248 463616
-5599.1675 -261.23907 13286.63 68096
-5919.5005 -280.1369 14247.774 660481
-6048.6768 -290.40579 14770.049 4412204
-6511.9697 -317.25491 16135.598 2966549
-6416.2417 -317.26492 16136.106 2506511
-6320.8394 -317.2916 16137.464 3361566
-6225.0713 -317.30045 16137.913 1255173
-6129.1738 -317.30289 16138.036 3162656
-6033.6895 -317.32712 16139.27 529154
-5938.0903 -317.34598 16140.229 200448
-5842.2974 -317.35498 16140.687 198912
-5746.3369 -317.35498 16140.687 1977873
-5650.7676 -317.37698 16141.806 923909
-5553.5762 -317.30704 16138.249 768
-5457.5278 -317.30112 16137.948 512
-5361.9888 -317.3251 16139.167 256
-5266.2007 -317.33499 16139.67 512
-5170.3223 -317.33969 16139.909 1711382
-5074.5063 -317.34845 16140.355 855564
-4978.562 -317.34937 16140.401 256
-4900.832 -318.53421 16200.663 256
-4819.0146 -319.49557 16249.557 256
-4716.6016 -319.10281 16229.581 256
-4594.9463 -317.36465 16141.178 66049
-4498.9824 -317.36465 16141.178 65793
-4422.2451 -318.75049 16211.662 132096
-4306.7554 -317.34256 16140.055 0
-3715.2703 -279.99759 14240.688 256
-3592.1724 -277.03363 14089.94 256
-3581.9893 -282.84415 14385.464 256
-3570.616 -288.84265 14690.548 256
-3589.5388 -297.65417 15138.702 256
-3730.8101 -317.32535 16139.18 256
-3635.2249 -317.35739 16140.809 66304
-3539.0994 -317.34268 16140.061 256
-3443.1106 -317.33978 16139.913 256
-3303.6477 -313.21494 15930.124 256
-3197.2131 -312.07047 15871.916 256
-3155.5171 -317.36743 16141.32 256
-3059.4509 -317.3569 16140.785 256
-2963.4895 -317.3569 16140.785 256
-2867.5281 -317.3569 16140.785 0
-2753.27 -315.26187 16034.231 256
-2607.9678 -309.33435 15732.757 0
-2514.4319 -309.33435 15732.757 256
-2460.3333 -314.37347 15989.047 256
-2337.5369 -310.68689 15801.547 512
-2291.0081 -317.2529 16135.494 462086
-2195.562 -317.32285 16139.052 132097
-2099.6184 -317.32397 16139.11 461573
-2003.5425 -317.30426 16138.107 461572
-1907.547 -317.29596 16137.685 658692
-1811.604 -317.29596 16137.685 2434590
-1716.2302 -317.40121 16143.039 2237210
-1620.2554 -317.40121 16143.039 1645844
-1524.2805 -317.40125 16143.04 2040347
-1427.9691 -317.32648 16139.236 2237471
-1331.8685 -317.29117 16137.44 1053199
-1070.0654 -274.71063 13971.794 592648
-953.27997 -265.32559 13494.469 329476
-903.93311 -274.71063 13971.794 658441
-780.96338 -261.3566 13292.606 1316371
-648.78088 -241.56528 12286.02 592648
-579.80273 -243.2711 12372.778 395269
-523.91357 -251.7625 12804.65 395269
-447.78635 -251.7625 12804.65 0
-360.30429 -244.07072 12413.446 65792
-277.90839 -236.74908 12041.067 197377
-214.20023 -245.79047 12500.912 394756
-142.72357 -250.78914 12755.146 526599
-68.62851 -257.30469 13086.525 197890
9.1745281 -257.30469 13086.525 132097
83.670959 -247.5228 12589.019 132097
158.36012 -247.27908 12576.624 512
237.91162 -252.34915 12834.487 256
313.83414 -252.04227 12818.88 263683
386.10599 -249.49632 12689.393 263683
466.25775 -252.04227 12818.88 132097
558.47717 -259.47974 13197.149 197890
608.61456 -247.94119 12610.299 66304
678.15387 -245.97083 12510.085 197890
744.58234 -243.37312 12377.967 256
791.92554 -235.56563 11980.877 66048
839.32977 -229.0634 11650.173 256
902.92419 -227.63417 11577.482 256
970.91022 -227.43614 11567.411 256
1041.6689 -227.87088 11589.521 256
1110.5719 -227.87088 11589.521 256
1179.2581 -227.82899 11587.391 256
1245.2863 -227.30655 11560.82 256
1314.0186 -227.30655 11560.82 256
1369.4624 -225.1221 11449.719 256
1437.5341 -225.1221 11449.719 256
1508.8911 -225.61333 11474.702 65792
1606.0596 -229.75449 11685.322 256
1686.7266 -231.28951 11763.394 256
1764.4611 -232.31621 11815.611 263427
1931.2982 -244.54674 12437.656 1447957
1958.6941 -238.86986 12148.931 132098
1913.9731 -225.11464 11449.34 512
1966.2395 -223.31978 11358.053 0
1972.619 -216.60544 11016.562 256
2015.1877 -214.16876 10892.631 256
2072.8137 -213.43417 10855.271 256
2152.1643 -214.91341 10930.504 256
2227.0063 -215.86888 10979.1 329219
2292.2803 -215.86888 10979.1 256
2382.7019 -218.17155 11096.214 256
2451.7236 -218.44344 11110.042 256
2481.1748 -215.26791 10948.534 256
2536.7188 -214.46068 10907.479 256
2550.209 -210.22699 10692.153 256
2648.0999 -212.98759 10832.558 0
2802.2388 -220.03378 11190.926 256
2917.2502 -223.75203 11380.037 66304
3089.5752 -231.59804 11779.085 461060
3439.2026 -252.09244 12821.431 592902
3532.1758 -253.2933 12882.508 1448467
3535.1472 -248.12614 12619.705 2237726
3375.8706 -232.02249 11800.673 1777175
3550.3489 -239.04639 12157.908 2106140
3459.4912 -228.2813 11610.396 2172189
3816.9695 -246.94295 12559.527 1777175
3730.7468 -236.73358 12040.278 1513747
3802.3298 -236.73358 12040.278 1382162
3873.9126 -236.73358 12040.278 592646
4072.2998 -244.34195 12427.241 395011
4528.208 -266.85535 13572.273 328962
5159.7974 -298.75241 15194.559 395012
4694.8335 -267.15372 13587.449 329220
4178.6099 -233.75658 11888.868 197634
4742.1646 -260.86981 13267.849 1382164
4973.9966 -269.14609 13688.78 1776922
5226.96 -278.28088 14153.377 1711129
5280.6978 -276.68762 14072.344 526599
0 0 0 0
0 0 0 0
0 0 0 0
0 0 0 0
0 0 0 0
0 0 0 0
0 0 0 0
0 0 0 0
0 0 0 0
0 0 0 0
0 0 0 0
0 0 0 0
0 0 0 0
0 0 0 0
0 0 0 0
0 0 0 0
0 0 0 0
0 0 0 0
0 0 0 0
0 0 0 0
0 0 0 0
980.59784 -38.099659 1937.75 1508864
997.2074 -38.29509 1947.6897 1443072
1008.7869 -38.29509 1947.6897 917504
1006.1258 -37.760624 1920.5068 1114368
0 0 0 0
0 0 0 0
0 0 0 0
2631.8779 -94.487152 4805.6201 13200640
2720.0571 -96.604172 4913.292 13396992
2786.8901 -97.92614 4980.5273 13461760
2825.229 -98.229622 4995.9619 13460992
2920.8733 -100.49847 5111.3564 13394688
2941.1321 -100.15353 5093.8125 13262848
2948.0825 -99.367058 5053.8125 13328128
2967.3311 -99.006775 5035.4888 13196800
2922.2893 -96.530045 4909.522 13130240
2938.2717 -96.098129 4887.5547 12867584
2967.3296 -96.098129 4887.5547 12342016
3003.1335 -96.314491 4898.5586 11750656
3035.439 -96.415558 4903.6992 10370048
3044.5825 -95.786026 4871.6807 5771776
3073.5461 -95.786026 4871.6807 2097152
3354.9492 -103.57978 5268.0713 1114112
3837.5862 -117.38473 5970.1914 720896
4219.2305 -127.87577 6503.7666 393216
4287.062 -128.75168 6548.3154 327680
4606.0972 -137.08821 6972.312 131072
4687.4121 -138.26404 7032.1143 460545
4696.0757 -137.29503 6982.8306 1118473
4771.0278 -138.26404 7032.1143 987145
4809.9683 -138.18167 7027.9248 1908501
4802.3623 -136.77502 6956.3828 1777170
4372.6309 -123.4726 6279.8208 2105624
3952.6169 -110.66749 5628.5527 1316108
3803.2571 -105.59168 5370.397 2170391
3668.7112 -101.00826 5137.2837 2235155
3763.2378 -102.75533 5226.1401 524801
3840.282 -104.00036 5289.4624 786432
3836.0564 -103.04212 5240.7266 917504
3867.2136 -103.04212 5240.7266 917504
3898.3713 -103.04212 5240.7266 851968
3954.9656 -103.70914 5274.6509 655360
4105.1841 -106.8014 5431.9233 458752
4054.3899 -104.65662 5322.8403 525058
4086.0356 -104.65662 5322.8403 1840145
3914.6536 -99.496391 5060.3906 328192
3695.7031 -93.21508 4740.9224 196608
3959.7236 -99.118401 5041.1655 196608
4003.4983 -99.461327 5058.6069 196608
4033.573 -99.461327 5058.6069 327680
3618.9199 -88.576218 4504.9897 458752
3450.8323 -83.841629 4264.1885 2033669
3476.1841 -83.841629 4264.1885 3214857
3460.0945 -82.849342 4213.7207 3280135
3485.1462 -82.849342 4213.7207 3017477
3639.3835 -85.898438 4368.7979 2228992
3762.7019 -88.179733 4484.8247 1114112
4069.0771 -94.688713 4815.8716 983040
4185.269 -96.712021 4918.7773 589824
4523.1699 -103.79491 5279.0132 393216
4602.0122 -104.87642 5334.0186 131072
4668.7896 -105.67007 5374.3833 1711123
6293.8501 -141.48225 7195.7925 1581331
6443.6025 -143.87067 7317.2681 1056268
6747.0317 -149.6353 7610.4565 1056523
6792.2778 -149.6353 7610.4565 1122573
7028.9761 -153.8251 7823.5508 595974
7106.7822 -154.50543 7858.1519 66816
7100.8794 -153.36888 7800.3472 132609
7147.2544 -153.36888 7800.3472 1779226
7174.0884 -152.95226 7779.1577 2832426
7293.1221 -154.49408 7857.5752 1845531
7117.8677 -149.82191 7619.9478 857868
7130.3818 -149.13611 7585.0684 2108192
7258.1807 -150.85504 7672.4932 1516311
7464.9619 -154.18381 7841.7944 512
7511.5835 -154.18381 7841.7944 1024
7217.5908 -147.23544 7488.4004 1280
7187.2939 -145.71855 7411.251 659721
0 0 0 0
0 0 0 0
0 0 0 0
0 0 0 0
0 0 0 0
0 0 0 0
0 0 0 0
-3670.4729 -56.878929 4146.7456 256
-3727.8594 -58.158848 4240.0576 256
-3656.3491 -57.431576 4187.0356 256
-3631.4563 -57.431576 4187.0356 256
-3711.1453 -59.096962 4308.4502 256
-3692.0369 -59.201294 4316.0566 512
-3704.8523 -59.822563 4361.3501 512
-3678.9231 -59.822563 4361.3501 1024
-3734.74 -61.161266 4458.9482 512
-3780.7534 -62.357418 4546.1533 512
-3798.5967 -63.102825 4600.4971 256
-3944.9001 -66.00853 4812.3369 0
-3943.7886 -66.472023 4846.1274 256
-3881.7388 -65.907669 4804.9839 256
-3803.3335 -65.055199 4742.8345 256
-3794.7329 -65.392899 4767.4546 256
-3866.5471 -67.131866 4894.2334 256
-3837.4495 -67.131866 4894.2334 256
-3702.9895 -65.27459 4758.8291 256
-3518.7576 -62.504597 4556.8833 256
-3607.126 -64.571465 4707.5679 256
-3872.9788 -69.872658 5094.0503 256
-3890.0005 -70.732864 5156.7632 256
-3851.4519 -70.588257 5146.2207 256
-3828.6838 -70.732864 5156.7632 256
-3854.7097 -71.788528 5233.7261 256
-3950.791 -74.176674 5407.8335 512
-3907.9746 -73.974785 5393.1147 512
-3886.489 -74.176674 5407.8335 512
-3877.7981 -74.628174 5440.7495 396804
-3768.5596 -73.135941 5331.959 1253133
-3736.408 -73.127098 5331.3145 1385230
-3689.302 -72.822922 5309.1387 1188107
-3647.332 -72.615761 5294.0352 858886
-3615.8574 -72.615761 5294.0352 332033
-3588.897 -72.707207 5300.7021 67840
-3661.4524 -74.834221 5455.772 1792
-3629.0164 -74.834221 5455.772 1792
-3519.4473 -73.229309 5338.7661 1024
-3487.3799 -73.22245 5338.2656 1280
-3465.1589 -73.424103 5352.9673 1024
-3471.2798 -74.235588 5412.1284 768
-3481.856 -75.158447 5479.4092 768
-3549.6489 -77.345451 5638.8525 768
-3516.1243 -77.345451 5638.8525 1024
-3487.0715 -77.444763 5646.0928 1280
-3407.1641 -76.405602 5570.3325 1647378
-3403.9946 -77.083771 5619.7744 512
-3392.3799 -77.582237 5656.1152 1024
-3484.6487 -80.490257 5868.1235 1024
-3449.7612 -80.490257 5868.1235 1024
-3479.4961 -82.013435 5979.1709 857351
-3554.7502 -84.652054 6171.5386 1280
-3823.4077 -91.999405 6707.1958 1536
-3803.7144 -92.490158 6742.9741 1449487
-3779.3418 -92.876389 6771.1318 67328
-3943.7366 -97.959785 7141.7354 4410171
-3948.4114 -99.143311 7228.0205 330752
-3905.439 -99.143311 7228.0205 132864
-3862.4661 -99.143311 7228.0205 1449230
-3771.6104 -97.900398 7137.4058 768
-3759.6821 -98.701248 7195.792 1024
-3716.9011 -98.701248 7195.792 512
-3471.5349 -93.259018 6799.0273 512
-3487.6709 -94.796295 6911.1021 512
-3446.5825 -94.796295 6911.1021 512
-3534.1187 -98.376717 7172.1323 512
-3495.7678 -98.497589 7180.9438 768
-3511.4097 -100.16155 7302.2549 1024
-3477.325 -100.431 7321.8989 1280
-3438.6816 -100.57394 7332.3203 463109
-3488.4504 -103.33962 7533.9512 1792
-3525.0796 -105.78294 7712.0815 1121805
-3583.9397 -108.96658 7944.1841 1583118
-3614.6211 -111.36706 8119.1899 1583624
-3837.8054 -119.84384 8737.1875 2504978
-4109.8589 -130.10022 9484.9268 6584140
-4251.9004 -136.46909 9949.248 1024
-5362.0293 -174.5278 12723.909 2560
-5919.5005 -195.42993 14247.774 1845768
-6607.8379 -221.3222 16135.445 4149790
-5960.8647 -202.59372 14770.049 6124851
-5109.2871 -176.24727 12849.267 6520125
-6320.1089 -221.3243 16135.598 2044937
-6224.374 -221.33128 16136.106 2045970
-6129.0005 -221.35149 16137.58 3426595
-6034.0479 -221.38782 16140.229 397824
-5938.2319 -221.39311 16140.614 1122564
-5842.2974 -221.3941 16140.687 397312
-5746.3369 -221.3941 16140.687 1187594
-5650.4546 -221.3972 16140.911 1582098
-5553.4727 -221.35655 16137.948 1024
-5457.478 -221.35451 16137.8 512
-5361.8579 -221.36786 16138.773 256
-5266.0366 -221.37328 16139.167 512
-5170.0845 -221.37328 16139.167 592645
-5074.377 -221.38394 16139.944 768
-4978.562 -221.3902 16140.401 396289
-4882.771 -221.39783 16140.958 256
-4804.5146 -222.21678 16200.663 256
-4713.4038 -222.46251 16218.578 256
-4616.1426 -222.42218 16215.638 256
-4518.6279 -222.36765 16211.662 256
-4422.2451 -222.36765 16211.662 256
-3895.4329 -200.24173 14598.578 0
-3715.2703 -195.33275 14240.688 256
-3667.5151 -197.31856 14385.464 256
-3710.5159 -204.39861 14901.633 256
-3776.8848 -213.14375 15539.197 256
-3826.9355 -221.38347 16139.911 256
-3731.3943 -221.40811 16141.707 132098
-3635.0234 -221.3835 16139.913 3356208
-3539.0669 -221.3835 16139.913 256
-3443.1106 -221.3835 16139.913 329219
-3347.0291 -221.3752 16139.309 131840
-3251.4377 -221.39983 16141.103 256
-3165.71 -222.11797 16193.459 0
-3060.5574 -221.47552 16146.622 256
-2963.5876 -221.40279 16141.32 256
-2867.5281 -221.39545 16140.785 256
-2771.3074 -221.37476 16139.275 256
-2657.9421 -219.93391 16034.231 256
-2561.8918 -219.87193 16029.713 256
-2466.5908 -219.87193 16029.713 256
-2371.2898 -219.87193 16029.713 256
-2291.269 -221.3481 16137.332 256
-2195.4485 -221.36023 16138.217 512
-2099.6184 -221.37248 16139.11 593159
-2003.5425 -221.35873 16138.107 790280
-1907.597 -221.35873 16138.107 395267
-1811.746 -221.37029 16138.949 2960677
-1716.4153 -221.45026 16144.78 2368796
-1620.5541 -221.46719 16146.016 2171420
-1525.0028 -221.53131 16150.689 2500643
-1429.7081 -221.64381 16158.891 2435364
-1332.2539 -221.41362 16142.108 2369828
-1235.6078 -221.29239 16133.271 1448727
-1102.2286 -214.01839 15602.962 593418
-981.03577 -207.99112 15163.545 1316885
-801.46234 -187.11414 13641.514 2172193
-712.42944 -185.05424 13491.337 1053199
-586.48761 -171.66821 12515.432 0
-512.0799 -171.66821 12515.432 132097
-437.67221 -171.66821 12515.432 197379
-334.81561 -158.22412 11535.293 394756
-277.19305 -164.73645 12010.073 197378
-209.5018 -167.70793 12226.708 394756
-144.36697 -176.97079 12902.016 65792
-66.890678 -174.95625 12755.146 66305
9.1745281 -179.50163 13086.525 132097
83.670959 -172.67757 12589.019 329476
158.36012 -172.50755 12576.624 263683
225.26097 -166.68359 12152.029 197890
313.83414 -175.83047 12818.88 263683
377.46729 -170.16008 12405.481 329476
466.25775 -175.83047 12818.88 66048
565.54486 -183.30986 13364.163 66304
608.61456 -172.96945 12610.299 66304
678.72736 -171.74001 12520.665 132098
735.73663 -167.76562 12230.915 256
791.92554 -164.33598 11980.877 256
844.17963 -160.72322 11717.49 256
913.84332 -160.72322 11717.49 256
972.76605 -158.96794 11589.521 256
1050.0122 -160.2412 11682.348 256
1119.467 -160.2412 11682.348 256
1179.2581 -158.93872 11587.391 256
1245.2863 -158.57426 11560.82 256
1305.7767 -157.57967 11488.309 256
1369.4624 -157.05034 11449.719 256
1434.3229 -156.69951 11424.143 256
1503.6733 -156.84875 11435.022 256
1582.4492 -157.92574 11513.539 256
1658.1987 -158.62389 11564.438 256
1696.7825 -155.85269 11362.405 65792
1770.2527 -156.37544 11400.516 66049
1958.6941 -166.64108 12148.931 987150
1900.8667 -155.96974 11370.938 0
1937.7299 -153.53407 11193.366 263683
1972.619 -151.10892 11016.562 256
2015.1899 -149.40918 10892.643 256
2102.7922 -151.05003 11012.268 256
2201.6174 -153.37361 11181.668 256
2251.3914 -152.24403 11099.316 256
2316.7319 -152.20148 11096.214 256
2404.0176 -153.56305 11195.479 256
2502.6814 -155.55852 11340.958 256
2547.9683 -154.21857 11243.27 256
2577.6658 -152.02769 11083.544 256
2559.3691 -147.18596 10730.559 256
2691.0107 -150.99278 11008.094 256
2844.7908 -155.8315 11360.86 512
2965.0068 -158.64989 11566.334 132096
3187.4858 -166.68831 12152.372 66048
3455.5857 -176.70322 12882.508 263681
3537.9685 -176.99301 12903.635 395779
3694.4568 -180.89908 13188.405 1514003
3772.8655 -180.89908 13188.405 2303519
3851.2744 -180.89908 13188.405 2237726
3415.1997 -157.21533 11461.748 2171933
3483.343 -157.21533 11461.748 2764070
3311.1626 -146.57681 10686.149 2303775
3374.6946 -146.57681 10686.149 2632230
3719.9595 -158.58751 11561.786 2763815
3788.6978 -158.58751 11561.786 2500643
3864.9023 -158.89449 11584.166 2566436
3832.7236 -154.81284 11286.595 1974044
3786.0049 -150.29446 10957.184 1382164
4017.6611 -156.79276 11430.94 658441
4249.2925 -163.07394 11888.868 1579543
4821.0459 -181.98875 13267.849 2039838
5253.0044 -195.10246 14223.899 987149
5337.5693 -195.10246 14223.899 329220
0 0 0 0
0 0 0 0
0 0 0 0
0 0 0 0
0 0 0 0
0 0 0 0
0 0 0 0
0 0 0 0
0 0 0 0
0 0 0 0
0 0 0 0
0 0 0 0
0 0 0 0
0 0 0 0
0 0 0 0
0 0 0 0
0 0 0 0
986.58234 -28.060047 2045.7113 1967360
966.24976 -27.147093 1979.1526 1771522
930.49457 -25.828016 1882.9856 1771265
941.68945 -25.828016 1882.9856 1640192
980.59784 -26.579195 1937.75 1772035
992.11835 -26.579195 1937.75 1048832
1000.7421 -26.50248 1932.1572 1048576
1005.4105 -26.323948 1919.1414 1573376
0 0 0 0
0 0 0 0
0 0 0 0
2707.041 -67.798889 4942.8623 13396736
2757.2795 -68.315521 4980.5273 13461760
2814.3276 -68.988106 5029.562 13329664
2825.229 -68.527229 4995.9619 13329152
2910.8479 -69.8694 5093.8125 13197056
2862.1804 -67.993828 4957.0742 13131520
2823.7515 -66.397232 4840.6753 12867840
2810.1584 -65.41095 4768.7705 12801792
2838.51 -65.41095 4768.7705 12473088
2880.783 -65.728584 4791.9272 11750400
2967.3296 -67.04026 4887.5547 9056000
3003.1335 -67.191193 4898.5586 4524288
2968.8748 -65.78672 4796.166 1507328
3044.5825 -66.822525 4871.6807 851968
0 0 0 0
0 0 0 0
4112.1475 -87.749146 6397.3311 393216
4523.1929 -95.63588 6972.312 327680
4668.0879 -97.803162 7130.3174 196608
4766.9297 -98.975227 7215.7661 196608
5000.9609 -102.90827 7502.5039 65536
4729.2197 -96.456161 7032.1143 65536
4742.2295 -95.873947 6989.668 394755
4597.9033 -92.148605 6718.0728 658179
4542.3467 -90.251175 6579.7412 723716
3919.1536 -77.204178 5628.5527 526340
3829.437 -74.798172 5453.1436 2104855
3781.1685 -73.235352 5339.2065 1379592
3653.4609 -70.17276 5115.9287 656386
3844.6543 -73.235352 5339.2065 786432
3885.2505 -73.402603 5351.4004 917504
3886.187 -72.823959 5309.2139 983040
3896.2441 -72.424164 5280.0674 917504
3933.1416 -72.525703 5287.4697 851968
3964.5774 -72.525703 5287.4697 655360
4105.1841 -74.507103 5431.9233 524801
4139.2192 -74.53846 5434.2095 1182985
4184.2314 -74.765472 5450.7593 1973528
4111.2466 -72.896767 5314.522 0
3821.6172 -67.244537 4902.4473 196608
3959.8308 -69.149132 5041.3018 196608
3989.8027 -69.149132 5041.3018 131072
0 0 0 0
0 0 0 0
3381.3303 -57.311817 4178.3047 2493702
3513.6633 -59.120453 4310.1631 3214601
3460.0945 -57.7976 4213.7207 3214342
3468.7292 -57.525341 4193.8716 2886660
3639.3835 -59.924717 4368.7979 1638400
3810.1431 -62.291817 4541.3706 1048576
4156.0254 -67.468521 4918.7773 655360
4643.7871 -74.860062 5457.6553 196608
4604.8853 -73.717857 5374.3833 526851
4636.8374 -73.717857 5374.3833 1251853
6005.5391 -94.824463 6913.1558 2816
6350.3438 -99.587189 7260.3813 793097
6665.4736 -103.8234 7569.2217 1582356
6713.146 -103.86473 7572.2344 793096
6792.2778 -104.38901 7610.4565 68096
7222.9238 -110.27293 8039.4229 2304
7366.8926 -111.73155 8145.7632 2108956
7610.8926 -114.67834 8360.5986 332548
7660.5991 -114.67834 8360.5986 1516310
7710.3042 -114.67834 8360.5986 1516313
7718.0122 -114.05769 8315.3496 331270
7542.2847 -110.75137 8074.3022 726284
7446.6611 -108.65565 7921.5156 133378
7550.0034 -109.47121 7980.9736 132866
7540.8521 -108.65565 7921.5156 331013
7568.4971 -108.37713 7901.21 132610
7388.3091 -105.14434 7665.5234 1024
7392.2417 -104.55537 7622.5854 1024
0 0 0 0
0 0 0 0
0 0 0 0
0 0 0 0
0 0 0 0
0 0 0 0
0 0 0 0
-3769.2844 -33.092907 4258.3789 256
-3845.1091 -33.9869 4373.4175 0
-3819.1082 -33.9869 4373.4175 256
-3822.0403 -34.246147 4406.7773 256
-3774.5449 -34.054016 4382.0542 256
-3760.0032 -34.158588 4395.5103 256
-3841.8262 -35.146202 4522.5957 256
-3815.4536 -35.150951 4523.207 256
-3807.7817 -35.329269 4546.1533 256
-3807.6208 -35.580334 4578.46 256
-3798.5967 -35.751591 4600.4971 256
-3958.1226 -37.523193 4828.4663 256
-3935.5293 -37.581573 4835.9785 256
-3881.7388 -37.34071 4804.9839 256
-3831.5334 -37.131012 4778.0005 256
-3809.3293 -37.191566 4785.7925 256
-3866.5471 -38.034286 4894.2334 256
-3837.4495 -38.034286 4894.2334 256
-3809.6716 -38.04747 4895.9297 256
-3674.697 -36.982029 4758.8291 256
-3646.4045 -36.982029 4758.8291 256
-3855.6885 -39.410381 5071.3086 256
-3855.208 -39.716042 5110.6406 256
-3841.4553 -39.888741 5132.8633 723976
-3831.7351 -40.106411 5160.873 256
-3825.5366 -40.36475 5194.1162 256
-3922.9277 -41.729214 5369.6943 256
-3891.0034 -41.729214 5369.6943 256
-3860.7869 -41.747681 5372.0708 256
-3828.8484 -41.747681 5372.0708 512
-3845.4514 -42.281399 5440.7495 256
-3792.78 -42.056026 5411.749 67328
-3689.302 -41.258617 5309.1387 199168
-3634.3137 -40.9944 5275.1392 265473
-3615.8574 -41.141243 5294.0352 791812
-3588.897 -41.193058 5300.7021 1779478
-3557.3828 -41.193058 5300.7021 594693
-3622.6819 -42.324131 5446.2485 2304
-3567.0225 -42.049698 5410.9346 1120522
-3496.9841 -41.59922 5352.9673 67328
-3472.3115 -41.685085 5364.0161 66816
-3499.7253 -42.403633 5456.4785 768
-3500.989 -42.815819 5509.5186 768
-3549.6489 -43.820904 5638.8525 512
-3516.1243 -43.820904 5638.8525 768
-3487.0715 -43.877171 5646.0928 132864
-3459.634 -43.955055 5656.1152 988680
-3546.9731 -45.507034 5855.8228 512
-3519.5364 -45.602627 5868.1235 768
-3605.9172 -47.189632 6072.3384 1792
-3554.3574 -46.985294 6046.0444 264450
-3590.1343 -47.943081 6169.292 66816
-3653.728 -49.295944 6343.3779 768
-3992.4224 -54.42738 7003.6885 768
-3950.7832 -54.42738 7003.6885 256
-3986.196 -55.500179 7141.7354 198144
-4082.0317 -57.446407 7392.1753 2565916
-4080.407 -58.048512 7469.6538 1512457
-3974.9338 -57.17025 7356.6396 2960418
-3879.7407 -56.42194 7260.3472 2040085
-3836.5757 -56.42194 7260.3472 66304
-3822.3005 -56.851631 7315.6396 512
-3764.3413 -56.633995 7287.6348 66304
-3705.5935 -56.399292 7257.4326 512
-3438.6287 -52.952644 6813.9204 512
-3398.1179 -52.952644 6813.9204 512
-3561.9546 -56.175396 7228.6221 512
-3619.9343 -57.787014 7436.0044 512
-3599.011 -58.16333 7484.4292 768
-3539.7095 -57.921085 7453.2563 768
-3490.9229 -57.846931 7443.7148 265730
-3488.4504 -58.548183 7533.9512 528901
-3493.9517 -59.403248 7643.9805 68096
-3579.5164 -61.660007 7934.3794 463106
-3560.4177 -62.150047 7997.4375 133888
-3852.0974 -68.15168 8769.7246 2502941
-3962.1023 -71.0597 9143.9268 264194
-4070.9521 -74.027618 9525.8369 132608
-4085.6743 -75.343491 9695.1631 1024
-5286.3823 -98.880615 12723.909 7568481
-6369.583 -120.87129 15553.658 10529165
-5812.4307 -111.92344 14402.254 9805697
-5109.2871 -99.854805 12849.267 7174489
-5277.9414 -104.71664 13474.886 5200950
-5683.437 -114.49979 14733.777 4610095
-5595.8408 -114.49979 14733.777 1583372
-6033.0581 -125.40909 16137.58 2636056
-5937.7373 -125.42222 16139.27 135424
-5841.3252 -125.41235 16138 1536
-5745.3804 -125.41235 16138 1648141
-5649.4355 -125.41235 16138 1845012
-5553.4219 -125.4108 16137.8 768
-5457.5806 -125.41316 16138.104 512
-5361.8579 -125.41837 16138.773 512
-5265.9082 -125.41837 16138.773 512
-5169.9585 -125.41837 16138.773 1647377
-5074.3281 -125.42625 16139.788 1845265
-4978.562 -125.43102 16140.401 528641
-4882.688 -125.4332 16140.684 1712915
-4786.8086 -125.43534 16140.958 512
-4691.1826 -125.44434 16142.116 256
-4616.1426 -126.0157 16215.638 256
-4508.0967 -125.69116 16173.877 256
-4099.0054 -116.77605 15026.685 256
-3993.0476 -116.29204 14964.401 0
-3804.6284 -113.32963 14583.2 256
-3997.9258 -121.86452 15681.467 256
-3943.5688 -123.07777 15837.587 256
-3922.7563 -125.42288 16139.354 256
-3827.0244 -125.43011 16140.286 256
-3731.6011 -125.44811 16142.602 131842
-3635.324 -125.43759 16141.248 1024
-3539.2637 -125.43418 16140.809 512
-3443.1106 -125.42722 16139.913 2765094
-3347.2471 -125.43069 16140.359 0
-3251.2883 -125.43069 16140.36 198402
-3155.5171 -125.43816 16141.32 66048
-3059.4509 -125.43399 16140.785 256
-2963.4895 -125.43399 16140.785 3750969
-2867.3245 -125.4251 16139.64 66049
-2771.3582 -125.42455 16139.57 256
-2657.9421 -124.60594 16034.231 256
-2522.1382 -122.63783 15780.976 197633
-2466.5908 -124.57082 16029.713 329473
-2387.2063 -125.40697 16137.308 329987
-2291.4849 -125.41898 16138.853 725257
-2195.4485 -125.41405 16138.217 1120270
-2099.5129 -125.41467 16138.299 1382929
-2003.5663 -125.41467 16138.299 198400
-1907.6964 -125.41973 16138.949 460802
-1811.7738 -125.42166 16139.198 2829091
-1716.2798 -125.45514 16143.506 2763812
-1620.1216 -125.44117 16141.708 2632741
-1524.5615 -125.47465 16146.016 2633256
-1428.4364 -125.46301 16144.519 2764842
-1332.2539 -125.44428 16142.108 2764844
-1236.0232 -125.41776 16138.695 2567978
-1139.9475 -125.40382 16136.902 2501929
-1043.7742 -125.37561 16133.271 2436136
-918.14941 -121.44604 15627.618 2435622
-720.35974 -106.01154 13641.514 1843485
-634.9223 -105.29267 13549.009 526855
-530.38647 -100.7375 12962.852 658441
-437.67221 -97.260483 12515.432 328966
-334.81561 -89.643593 11535.293 328963
-277.90839 -93.574089 12041.067 263170
-207.63074 -94.168144 12117.511 723721
-144.36697 -100.26472 12902.016 789514
-63.851959 -94.620361 12175.702 0
9.2516937 -102.55396 13196.594 197890
83.670959 -97.832352 12589.019 197890
159.7681 -98.604996 12688.442 132097
246.63458 -103.39688 13305.06 395269
325.73685 -103.39688 13305.06 460549
390.04593 -99.618652 12818.88 526599
486.09122 -103.85619 13364.163 1315858
574.34943 -105.47305 13572.22 460550
597.48645 -96.205894 12379.728 256
668.65881 -95.85775 12334.928 197634
735.73663 -95.049438 12230.915 132097
794.05859 -93.357124 12013.148 256
847.96344 -91.467636 11770.011 256
934.25592 -93.093483 11979.224 256
994.12976 -92.043007 11844.049 256
1078.1444 -93.218765 11995.345 263683
1149.4601 -93.218765 11995.345 256
1190.0234 -90.870506 11693.172 256
1241.4639 -89.566208 11525.335 256
1305.7767 -89.278465 11488.309 256
1369.4624 -88.978577 11449.719 256
1434.3229 -88.779816 11424.143 256
1478.359 -87.36834 11242.515 256
1571.6577 -88.864365 11435.022 256
1623.7228 -88.001572 11323.999 256
1691.0471 -88.001572 11323.999 256
1759.3973 -88.052925 11330.606 256
1833.2633 -88.366348 11370.938 256
1883.4564 -87.556976 11266.789 256
1943.0942 -87.227196 11224.353 256
2004.2776 -86.986397 11193.366 256
2037.3213 -85.579033 11012.268 256
2136.0952 -86.934395 11186.675 256
2203.0449 -86.951836 11188.919 256
2290.7131 -87.762016 11293.173 512
2359.469 -87.822121 11300.907 256
2439.1643 -88.274803 11359.158 256
2514.6843 -88.556053 11395.35 256
2572.2476 -88.206779 11350.405 256
2639.7288 -88.206779 11350.405 256
2700.9062 -88.001381 11323.975 256
2794.0417 -88.821922 11429.562 256
2888.8381 -89.655045 11536.767 256
3019.5454 -91.538155 11779.085 256
3348.9241 -99.222153 12767.858 256
4037.9041 -116.9837 15053.404 256
4127.4004 -116.9837 15053.404 256
4301.771 -119.33823 15356.384 1316624
4118.5137 -111.87992 14396.652 1382161
3955.2319 -105.25687 13544.401 2171934
3359.137 -87.609886 11273.597 3553587
3397.2708 -86.871109 11178.532 2171933
3249.5339 -81.499016 10487.254 3092779
3363.7739 -82.775948 10651.568 2698022
3445.6016 -83.222816 10709.07 2895401
3780.9214 -89.665062 11538.056 2829608
3849.5183 -89.665062 11538.056 3093035
3584.0278 -82.019547 10554.235 3093036
3646.7754 -82.019547 10554.235 3224366
3829.7979 -84.678879 10896.437 1513749
4085.6213 -88.832642 11430.94 2040093
4108.8896 -87.876823 11307.946 2171680
5055.3804 -106.37887 13688.78 1644567
3636.4822 -75.309059 9690.7324 263170
0 0 0 0
0 0 0 0
0 0 0 0
0 0 0 0
0 0 0 0
0 0 0 0
0 0 0 0
0 0 0 0
0 0 0 0
0 0 0 0
0 0 0 0
0 0 0 0
0 0 0 0
0 0 0 0
0 0 0 0
0 0 0 0
961.07898 -15.680063 2017.7029 1836288
987.35394 -15.910158 2047.3113 1771008
968.37671 -15.414336 1983.5092 1705729
958.86322 -15.079272 1940.3934 1574400
969.76508 -15.069417 1939.1251 1508864
981.29376 -15.069417 1939.1251 1048576
992.82239 -15.069417 1939.1251 720896
994.00067 -14.914118 1919.1414 1377024
0 0 0 0
0 0 0 0
0 0 0 0
0 0 0 0
2728.0417 -38.710194 4981.2085 13263872
2745.5991 -38.540939 4959.4292 13263616
2765.075 -38.401924 4941.541 13131264
2693.3372 -37.012363 4762.7324 13130752
2721.6528 -37.012363 4762.7324 12933376
2699.6848 -36.335583 4675.645 12604672
2727.5237 -36.336128 4675.7148 12144384
2755.3223 -36.336128 4675.7148 11027200
2838.51 -37.059284 4768.7705 7675392
2880.783 -37.239243 4791.9272 3080448
3014.6211 -38.587727 4965.4497 983040
3044.1421 -38.587727 4965.4497 655360
2899.9121 -36.406403 4684.7578 393216
0 0 0 0
0 0 0 0
3987.4165 -48.657288 6261.1958 196864
4771.3828 -57.685276 7422.9131 131328
5370.8838 -64.338081 8278.9922 1184524
4859.645 -57.685276 7422.9131 1448210
4964.6289 -58.401108 7515.0259 1250574
5002.2729 -58.319092 7504.4722 1842966
4700.6738 -54.318424 6989.668 329474
4557.9624 -52.207787 6718.0728 256
0 0 0 0
0 0 0 0
3797.0164 -42.377716 5453.1436 196608
3829.437 -42.377716 5453.1436 1050885
3861.8574 -42.377716 5453.1436 721409
3732.1667 -40.613617 5226.1401 851968
3992.3525 -43.086269 5544.3198 917504
3899.8381 -41.743187 5371.4927 983040
3891.0842 -41.311199 5315.9048 917504
3901.7063 -41.090221 5287.4697 917504
3933.1416 -41.090221 5287.4697 655360
3964.5774 -41.090221 5287.4697 458752
4106.9111 -42.230576 5434.2095 1577230
4139.2192 -42.230576 5434.2095 1249035
4184.2314 -42.359188 5450.7593 197376
4111.2466 -41.300453 5314.522 131072
4142.8428 -41.300453 5314.522 196608
4094.6057 -40.510609 5212.8853 262144
0 0 0 0
0 0 0 0
0 0 0 0
3158.2542 -30.328447 3902.6497 2821385
3483.4675 -33.207481 4273.1226 3017220
3469.4824 -32.834702 4225.1533 3148549
3485.1462 -32.745857 4213.7207 2820867
3603.0366 -33.611931 4325.1665 1114112
3810.1431 -35.292103 4541.3706 720896
4611.3398 -42.412777 5457.6553 393728
4969.0786 -45.383739 5839.957 1974804
5252.2695 -47.637337 6129.9487 1383694
5537.4253 -49.877563 6418.2207 989964
6124.4307 -54.787395 7050.0151 69376
6547.2603 -58.171791 7485.5171 1122317
6665.4736 -58.822277 7569.2217 1779990
6713.146 -58.845692 7572.2344 792330
7455.8057 -64.920288 8353.9111 463110
7505.4717 -64.920288 8353.9111 200704
7713.2456 -66.278885 8528.7344 2560
7763.9517 -66.278885 8528.7344 1792
7605.5649 -64.505501 8300.5361 2304
7654.9136 -64.505501 8300.5361 67584
7766.3735 -65.025536 8367.4541 528647
7916.4375 -65.860123 8474.8477 330756
7862.5728 -64.998299 8363.9492 132865
7912.2988 -64.998299 8363.9492 1792
7962.0244 -64.998299 8363.9492 264964
7772.5039 -63.057323 8114.1851 1024
7639.3896 -61.595085 7926.0254 768
7549.5098 -60.497231 7784.7539 768
0 0 0 0
0 0 0 0
0 0 0 0
0 0 0 0
0 0 0 0
0 0 0 0
0 0 0 0
-4002.5066 -8.256772 4521.8633 132096
-3874.439 -8.046629 4406.7773 512
-3819.1082 -7.9857149 4373.4175 256
-3822.0403 -8.046629 4406.7773 256
-3774.5449 -8.0014858 4382.0542 256
-3748.4924 -8.0014858 4382.0542 256
-3844.9604 -8.2648458 4526.2852 256
-3862.5493 -8.3611727 4579.0386 256
-3835.3257 -8.3611727 4579.0386 256
-3822.365 -8.3924885 4596.189 256
-3834.9888 -8.480834 4644.5718 256
-3976.2483 -8.8569937 4850.5776 256
-3947.4104 -8.8569937 4850.5776 256
-3886.3516 -8.7841673 4810.6938 256
-3837.782 -8.738698 4785.7925 256
-3809.3293 -8.738698 4785.7925 256
-3872.3403 -8.950098 4901.5669 256
-3843.1992 -8.950098 4901.5669 256
-3814.3289 -8.9507341 4901.915 256
-3813.5583 -9.0178261 4938.6582 256
-3861.6545 -9.2024097 5039.7466 256
-3864.1172 -9.2802849 5082.395 256
-3889.1284 -9.4139671 5155.6069 256
-3858.4768 -9.4139671 5155.6069 256
-3827.8254 -9.4139671 5155.6069 256
-3793.1333 -9.4039507 5150.1211 256
-3874.9146 -9.6848812 5303.9741 197888
-3843.9006 -9.6861906 5304.6914 263425
-3860.7869 -9.8092232 5372.0708 66048
-3877.7981 -9.9346285 5440.7495 256
-3894.585 -10.061564 5510.2666 256
-3847.9907 -10.02552 5490.5269 512
-3665.6758 -9.6322289 5275.1392 66816
-3618.6416 -9.5906925 5252.3916 67328
-3602.9512 -9.6322289 5275.1392 1792
-3552.3 -9.5802078 5246.6494 2048
-3521.1072 -9.5802078 5246.6494 1280
-3622.6819 -9.9446688 5446.2485 265216
-3587.6824 -9.9374123 5442.2744 726020
-3534.853 -9.880187 5410.9346 594689
-3502.6833 -9.880187 5410.9346 594434
-3521.7239 -10.025977 5490.7769 1120777
-3496.5049 -10.047313 5502.4619 725254
-3468.2334 -10.060199 5509.5186 396032
-3458.7122 -10.128236 5546.7798 1024
-3486.9106 -10.309103 5645.8325 512
-3714.5833 -11.088965 6072.9282 1185805
-3678.4778 -11.088965 6072.9282 768
-3706.4863 -11.284156 6179.8252 1024
-3680.7905 -11.318118 6198.4248 768
-3626.8127 -11.264923 6169.292 512
-3903.1599 -12.247117 6707.1958 512
-4064.6245 -12.885392 7056.7505 512
-4058.6089 -13.000512 7119.7964 512
-4131.4785 -13.373405 7324.0132 256
-4087.9351 -13.373405 7324.0132 256
-4053.053 -13.402045 7339.6978 256
-4177.7261 -13.964642 7647.8071 2237207
-3991.8118 -13.490018 7387.8765 5789773
-3947.8889 -13.490018 7387.8765 7501160
-3991.7456 -13.793338 7553.9912 724486
-4021.6182 -14.054688 7697.1206 921606
-3855.0486 -13.62763 7463.2407 1580564
-3707.7476 -13.259534 7261.6514 768
-3438.6287 -12.441993 6813.9204 461317
-3403.8472 -12.46297 6825.4087 132609
-3630.4626 -13.45309 7367.6528 256
-3643.5081 -13.66632 7484.4292 512
