# .PCD v0.7 - Point Cloud Data file format
VERSION 0.7
FIELDS x y z rgb
SIZE 4 4 4 4
TYPE F F F U
COUNT 1 1 1 1
WIDTH 1393
HEIGHT 1
VIEWPOINT 0 0 0 1 0 0 0
POINTS 1393
DATA ascii
-1859.3062 -286.65366 5804.0928 1188613
-1829.1868 -287.3429 5818.0483 1846033
-1859.9237 -297.80273 6029.8364 1536
-1824.0746 -297.80273 6029.8364 1280
-1875.6394 -312.36023 6324.5933 1024
-1779.0739 -302.33975 6121.7007 768
-1804.4552 -313.05743 6338.71 397059
-1744.8556 -309.17441 6260.0879 529157
-1702.75 -308.28952 6242.1704 134401
-1665.6387 -308.28952 6242.1704 68352
-1644.3394 -311.28287 6302.7788 1187852
-1585.8583 -307.21292 6220.3716 661506
-1548.8763 -307.21292 6220.3716 990722
-1509.0094 -306.62665 6208.501 1253382
-1472.0981 -306.62665 6208.501 133120
-1431.3622 -305.80954 6191.9561 2048
-1433.736 -314.40274 6365.9492 465154
-1517.5388 -341.80261 6920.7349 3954471
-1510.5569 -349.71191 7080.8809 2639635
-1468.4591 -349.71191 7080.8809 1718024
-1423.6451 -349.04596 7067.397 3296795
-1387.9674 -350.64767 7099.8276 796674
-1397.9108 -364.23672 7374.9761 2769942
-1411.1766 -379.59964 7686.04 861954
-1413.4302 -392.92935 7955.937 2770199
-1391.7458 -400.29709 8105.1172 794884
-1484.3966 -442.25806 8954.7324 1519116
-1428.4028 -441.40652 8937.4912 2966048
-1377.9199 -442.25806 8954.7324 68608
-1803.6449 -602.16473 12192.483 2304
-2291.0281 -796.90991 16135.636 1536
-2195.5581 -797.07727 16139.024 332032
-2099.6074 -797.07727 16139.024 792583
-2003.7024 -797.09564 16139.396 2042393
-1907.9114 -797.16333 16140.768 1384211
-1811.9539 -797.16504 16140.802 264709
-1715.9459 -797.14349 16140.365 1448214
-1619.9869 -797.14349 16140.365 8226429
-1523.9286 -797.09143 16139.312 1844765
-1427.675 -796.92358 16135.913 67328
-1331.7057 -796.90149 16135.466 132864
-1098.1711 -708.16583 14338.768 264450
-966.03223 -675.38293 13674.987 725001
-879.27185 -671.21582 13590.613 791050
-712.65381 -599.07501 12129.923 132353
-640.53802 -599.07501 12129.923 856587
-572.91516 -603.81018 12225.8 66048
-493.71332 -595.94482 12066.545 512
-421.76157 -595.64441 12060.461 256
-350.52875 -596.44403 12076.652 256
-288.54224 -617.44153 12501.805 256
-214.21553 -617.44153 12501.805 256
-142.96277 -631.00934 12776.521 197634
-67.002785 -631.00934 12776.521 256
8.9455013 -630.18555 12759.843 256
84.038719 -624.48163 12644.351 256
158.5435 -621.85602 12591.188 0
238.58418 -635.664 12870.769 256
318.64206 -642.80048 13015.266 256
410.00586 -665.49921 13474.864 461318
535.96991 -727.75903 14735.485 0
634.93524 -741.0155 15003.899 197635
759.61365 -777.31836 15738.951 1447957
863.59106 -786.79816 15930.896 197634
958.30475 -786.79816 15930.896 131841
1013.9543 -757.61017 15339.904 256
1100.2948 -754.27887 15272.453 256
1189.2318 -753.09973 15248.578 256
1279.8888 -753.09973 15248.578 256
1370.5459 -753.09973 15248.578 132096
1512.4266 -779.50031 15783.13 132352
1640.6427 -796.18488 16120.956 264192
1738.1741 -796.9588 16136.625 1448464
1834.1107 -796.9588 16136.626 1579539
1930.0774 -796.97113 16136.876 197633
2026.0156 -796.97113 16136.876 460803
1786.1725 -670.85712 13583.351 658184
1702.9781 -611.94342 12390.479 328963
1776.6429 -611.94342 12390.479 0
1850.3077 -611.94342 12390.479 0
2034.8888 -647.22168 13104.785 256
1812.8619 -555.34039 11244.396 0
1758.2494 -519.45538 10517.805 263683
1820.7806 -519.45538 10517.805 0
1933.5026 -533.29901 10798.106 66049
2072.2754 -553.20721 11201.204 592648
2184.3816 -564.9787 11439.55 197890
2289.9165 -574.39087 11630.125 328963
2359.0608 -574.39087 11630.125 65792
2467.1538 -583.60419 11816.674 0
2537.4072 -583.60419 11816.674 0
2729.5852 -610.89136 12369.178 131841
2673.4392 -582.62903 11796.929 592648
2743.5754 -582.62903 11796.929 724490
2813.7114 -582.62903 11796.929 512
2912.4971 -588.41718 11914.126 256
2781.415 -548.59247 11107.766 132097
2830.3699 -545.30103 11041.121 329475
2896.0122 -545.30103 11041.121 461062
2961.6548 -545.30103 11041.121 197890
3117.0422 -561.46661 11368.438 329476
3184.6306 -561.46661 11368.438 395269
3190.7844 -550.86041 11153.687 592648
3413.3538 -577.28766 11688.778 66304
3482.8467 -577.28766 11688.778 66304
3539.6382 -575.22351 11646.984 66304
3500.1377 -557.89056 11296.031 921611
3525.9766 -551.42865 11165.191 592647
3765.6528 -578.02966 11703.803 263426
3807.3823 -573.83179 11618.805 592646
3904.8176 -578.02966 11703.803 2500643
3763.5095 -547.35809 11082.772 1842714
3616.2578 -516.89258 10465.914 1053197
3655.1802 -513.61841 10399.619 395270
3754.0598 -518.7381 10503.282 197889
3816.5046 -518.7381 10503.282 256
3845.4216 -514.25433 10412.496 256
3950.1855 -519.89514 10526.709 256
4018.8604 -520.6842 10542.687 256
4120.4487 -525.64789 10643.189 256
4191.3921 -526.61108 10662.692 131840
4205.1631 -520.46948 10538.339 256
4272.9233 -521.09229 10550.949 512
4330.4697 -520.46948 10538.339 66305
4412.5151 -522.76697 10584.857 66304
4441.5029 -518.80225 10504.581 66304
4564.5181 -525.77832 10645.83 461059
4619.2588 -524.80676 10626.158 66304
4550.3218 -509.99963 10326.347 256
4479.8403 -495.41592 10031.06 256
4500.9443 -491.21054 9945.9102 256
4526.0039 -487.54037 9871.5977 256
4637.0996 -493.11328 9984.4365 0
4727.3809 -496.35986 10050.173 263940
4767.9302 -494.36893 10009.86 0
4827.4414 -494.36893 10009.86 256
4949.9224 -500.73898 10138.84 256
5014.7456 -501.19324 10148.037 256
5048.5371 -498.57211 10094.966 256
5073.7397 -495.17435 10026.168 256
5074.7188 -489.5188 9911.6562 0
5016.5259 -478.35077 9685.5293 66048
5126.9595 -483.33316 9786.4111 512
5373.7222 -500.91168 10142.336 256
5571.915 -513.6228 10399.708 921611
5704.5962 -520.08228 10530.498 790025
5816.8994 -524.5639 10621.24 131840
5874.8115 -524.09692 10611.786 0
5928.0469 -523.22711 10594.175 66048
5954.8921 -520.07086 10530.267 461061
5996.3042 -518.2392 10493.18 658439
6175.8101 -528.25732 10696.024 921611
6315.4204 -534.69348 10826.342 987659
6523.5444 -546.74194 11070.296 329474
6589.3599 -546.74194 11070.296 2106140
6968.9365 -572.51825 11592.208 1184524
7956.8423 -647.27637 13105.893 1776662
9892.5273 -796.93707 16136.187 329219
9989.0215 -796.98175 16137.091 263424
10084.96 -796.98175 16137.091 328704
10180.899 -796.98175 16137.091 394497
10276.441 -796.95093 16136.466 526082
10372.605 -796.96838 16136.82 394497
10468.026 -796.92908 16136.024 131328
9839.3223 -742.26361 15029.171 0
8887.583 -664.43201 13453.256 0
7743.2056 -573.7157 11616.454 0
7667.3198 -563.07092 11400.922 789514
7531.0396 -548.21643 11100.151 1579543
7413.9023 -535.0014 10832.576 2171680
7478.3057 -535.0014 10832.576 1383447
7423.7651 -526.56482 10661.755 197892
7619.4419 -535.86859 10850.136 7041132
8790.5693 -613.04291 12412.742 7172208
10836.97 -749.46442 15174.971 7500913
11619.511 -796.94879 16136.422 7764085
11718.661 -797.16742 16140.851 8224633
11815.249 -797.20959 16141.705 8027509
11910.686 -797.17413 16140.986 8290161
12006.647 -797.17413 16140.986 8160096
12102 -797.13391 16140.172 7634005
12197.183 -797.08325 16139.146 6779196
12292.694 -797.05475 16138.569 7766343
12388.286 -797.0318 16138.104 7239997
12483.536 -796.98743 16137.205 6318896
12580.537 -797.05457 16138.565 6910265
0 0 0 0
0 0 0 0
0 0 0 0
0 0 0 0
0 0 0 0
0 0 0 0
0 0 0 0
0 0 0 0
0 0 0 0
0 0 0 0
0 0 0 0
0 0 0 0
0 0 0 0
3450.1743 -197.50175 3998.9668 2558726
3511.6375 -199.64439 4042.3508 2492937
3445.4111 -194.54784 3939.1567 2558985
3412.7517 -191.40269 3875.4749 3149059
3435.7927 -191.40269 3875.4749 2228480
3426.0496 -189.58853 3838.7419 3014656
3378.2261 -185.70503 3760.1099 8069120
0 0 0 0
0 0 0 0
0 0 0 0
0 0 0 0
0 0 0 0
0 0 0 0
0 0 0 0
0 0 0 0
0 0 0 0
0 0 0 0
0 0 0 0
0 0 0 0
0 0 0 0
0 0 0 0
0 0 0 0
0 0 0 0
0 0 0 0
0 0 0 0
0 0 0 0
-3782.8762 -185.66348 4273.7344 4199183
-3959.9243 -195.66724 4504.0078 4068624
-3942.0132 -196.10832 4514.1611 4333593
-4009.5046 -200.83322 4622.9224 3808534
-3966.259 -200.03831 4604.6245 2367249
-3931.8582 -199.68153 4596.4121 1906956
-4614.3511 -235.98242 5432.0117 1315590
-4641.5938 -239.04868 5502.5928 788992
-4590.145 -238.077 5480.2261 1510917
-4482.3892 -234.15002 5389.8325 2036746
-4029.4338 -212.00426 4880.0654 1444098
-4163.6553 -220.65497 5079.1934 1443840
-4162.2124 -222.18996 5114.5269 1050370
-4308.1626 -231.67366 5332.8296 1181442
-4231.7192 -229.25003 5277.0405 1247492
-4265.918 -232.82887 5359.4209 1970184
-4326.043 -237.88728 5475.8589 2891799
-4293.4878 -237.88728 5475.8589 3682085
-4267.2734 -238.24129 5484.0078 2499098
-4148.6143 -233.39983 5372.564 723204
-4231.6855 -239.92064 5522.6646 256
-4491.9399 -256.6676 5908.1577 256
-4503.7964 -259.37326 5970.439 512
-4527.8584 -262.83044 6050.0186 856587
-4540.3438 -265.66562 6115.2808 256
-4310.2173 -254.23624 5852.1909 512
-4253.6538 -252.94165 5822.3916 512
-4208.1816 -252.29079 5807.4092 512
-4048.9646 -244.75343 5633.9092 512
-3998.3608 -243.71063 5609.9053 512
-4008.1606 -246.36302 5670.9595 256
-4507.9038 -279.43036 6432.1274 512
-4958.6621 -310.00116 7135.8281 512
-4498.6973 -283.67252 6529.7764 512
-4519.48 -287.46365 6617.0435 512
-4154.146 -266.54657 6135.5591 512
-3844.6521 -248.87358 5728.7495 256
-3728.5891 -243.51784 5605.4673 256
-3670.2805 -241.87146 5567.5698 256
-3606.8733 -239.85612 5521.1792 256
-3504.6235 -235.19698 5413.9316 0
-3440.4026 -233.02725 5363.9873 256
-3433.2942 -234.7215 5402.9868 256
-3384.5183 -233.57222 5376.5317 256
-3352.5754 -233.57375 5376.5674 256
-3437.4016 -241.78893 5565.6699 256
-3380.7163 -240.11307 5527.0938 512
-3273.7856 -234.8006 5404.8076 768
-3214.896 -232.86255 5360.1963 528131
-3115.4187 -227.91643 5246.3428 726788
-3033.4126 -224.16132 5159.9048 1280
-3004.5398 -224.29601 5163.0054 2816
-2973.8442 -224.29601 5163.0054 661252
-2917.3213 -222.3277 5117.6978 990729
-2886.8953 -222.3277 5117.6978 662019
-2829.1721 -220.20309 5068.792 201472
-2917.0574 -229.4879 5282.5161 399104
-2829.6951 -225.03787 5180.082 1716235
-2798.8979 -225.03787 5180.082 3098649
-2764.314 -224.73 5172.9951 3032856
-2704.7522 -222.36172 5118.481 1254919
-2729.488 -226.94867 5224.0664 596480
-2700.2642 -227.10297 5227.6182 529410
-2672.7957 -227.41022 5234.6904 199425
-2655.1357 -228.56908 5261.3662 1024
-2646.3926 -230.53232 5306.5576 133632
-2725.9353 -240.32649 5532.0068 265216
-2688.8987 -239.95641 5523.4878 512
-2656.0601 -239.95641 5523.4878 68608
-2601.3098 -237.95207 5477.3506 67328
-2543.4058 -235.60478 5423.3188 1024
-2548.7561 -239.1319 5504.5083 1280
-2501.3335 -237.73508 5472.3555 1024
-2424.1924 -233.43965 5373.4805 1280
-2392.2456 -233.43965 5373.4805 1280
-2345.46 -231.97206 5339.6982 199680
-2418.0715 -242.43491 5580.5396 199936
-2416.4912 -245.64694 5654.4766 4215340
-2407.583 -248.19417 5713.1104 4609834
-2611.127 -273.02908 6284.7783 8885608
-2573.762 -273.02908 6284.7783 1251588
-2573.5012 -277.02313 6376.7158 989188
-2327.7358 -254.31425 5853.9868 1515532
-2289.1042 -253.88968 5844.2134 593412
-2234.4321 -251.64549 5792.5557 1536
-2206.2944 -252.3662 5809.145 768
-2143.8726 -249.12589 5734.5571 1280
-2091.1965 -246.93161 5684.0479 199426
-2097.8821 -251.78995 5795.8804 1024
-2063.4241 -251.78995 5795.8804 133632
-1978.4893 -245.52589 5651.6904 69120
-1926.9286 -243.25865 5599.501 990474
-1861.6467 -239.14899 5504.9019 1056777
-1826.7434 -238.86458 5498.3555 331777
-1799.0094 -239.52432 5513.542 1280
-1837.3918 -249.17484 5735.6841 1792
-1829.1868 -252.75299 5818.0483 198656
-1868.8477 -263.21054 6058.7681 1779219
-1949.3721 -279.94754 6444.0322 2048
-1922.1156 -281.56699 6481.3096 1024
-1915.9631 -286.40741 6592.7295 1024
-1821.4807 -277.97028 6398.5181 1384464
-1783.4399 -277.97028 6398.5181 594949
-1738.088 -276.80597 6371.7168 463364
-1670.4198 -271.95648 6260.0879 1536
-1650.5656 -274.84784 6326.6436 1846542
-1599.4401 -272.54541 6273.6445 2770197
-1554.3776 -271.19089 6242.4648 1785606
-1509.0094 -269.71539 6208.501 4154146
-1507.3546 -276.17505 6357.1938 2636316
-1479.665 -278.07422 6400.9102 1792
-1450.7175 -279.83102 6441.3496 2816
-1528.1588 -302.76096 6969.1675 201728
-1525.0286 -310.56116 7148.7183 3493158
-1494.7435 -313.12021 7207.624 334592
-1451.8922 -313.12021 7207.624 5376
-1441.7571 -320.39047 7374.9761 860165
-1464.2202 -335.58807 7724.8057 1979153
-1470.7684 -348.00421 8010.6094 200448
-1439.9331 -352.10992 8105.1172 1056515
-1548.2843 -391.7139 9016.75 67072
-1596.684 -418.44714 9632.1143 1055492
-1539.4185 -418.44714 9632.1143 1252617
-1876.1327 -529.677 12192.483 199936
-2154.4819 -632.7074 14564.11 265728
-2291.0281 -700.97906 16135.636 2304
-2195.4155 -701.08069 16137.976 133632
-2099.6064 -701.12604 16139.019 529154
-2003.7024 -701.1424 16139.396 1536
-1907.8108 -701.16504 16139.917 1536
-1811.9539 -701.20349 16140.802 768
-1716.2318 -701.30139 16143.056 2370334
-1620.1511 -701.25562 16142.002 256
-1524.028 -701.18451 16140.365 856329
-1427.9908 -701.14618 16139.482 256
-1331.7057 -700.97168 16135.466 395781
-1108.2473 -628.63336 14470.332 659464
-980.89996 -603.22455 13885.453 922380
-830.19049 -557.45856 12831.979 512
-712.65381 -526.95917 12129.923 66816
-677.61108 -557.45856 12831.979 256
-649.97925 -602.56708 13870.319 256
-565.80273 -600.74762 13828.438 256
-483.58881 -600.74762 13828.438 256
-401.37488 -600.74762 13828.438 0
-305.6987 -575.40796 13245.15 0
-219.1716 -555.6803 12791.045 0
-144.70778 -561.82428 12932.473 0
-68.039185 -563.63489 12974.15 256
9.1521645 -567.13104 13054.626 256
87.145569 -569.61499 13111.804 256
166.72693 -575.23193 13241.099 0
246.40182 -577.46509 13292.504 256
339.41211 -602.27692 13863.639 256
438.46298 -626.01715 14410.108 256
586.91473 -700.99994 16136.116 512
675.20673 -693.15515 15955.539 2566952
768.8775 -692.08453 15930.896 396296
873.40948 -699.95306 16112.019 461832
958.30475 -692.08453 15930.896 66305
1028.6473 -676.06702 15562.192 256
1097.1212 -661.56616 15228.402 256
1187.6583 -661.56616 15228.402 256
1279.8888 -662.44269 15248.578 592903
1372.3301 -663.30511 15268.43 263938
1512.4266 -685.66516 15783.13 263680
1638.8094 -699.55878 16102.943 768
1714.8524 -691.61621 15920.115 527622
1832.3297 -700.34137 16120.956 1777430
1929.9471 -700.9856 16135.786 922891
2026.0477 -701.04407 16137.132 2370076
2031.2506 -671.06714 15447.103 2895652
1960.5773 -619.70062 14264.712 263682
1782.1899 -539.95917 12429.165 1052683
1856.0848 -539.95917 12429.165 921100
2034.8888 -569.31006 13104.785 856076
1814.0913 -488.82065 11252.022 526855
1805.1071 -469.10123 10798.106 790027
1869.3049 -469.10123 10798.106 263683
2018.1016 -489.62637 11270.569 197890
2096.8206 -492.37668 11333.877 197891
2184.3816 -496.96741 11439.55 329476
2313.4299 -510.43451 11749.546 460549
2524.8542 -540.755 12447.484 657928
2659.6001 -553.39386 12738.414 328963
2537.4072 -513.35077 11816.674 263170
2726.876 -536.81982 12356.901 263683
2746.4038 -526.4801 12118.895 197890
2743.5754 -512.49298 11796.929 66048
2800.6772 -510.1189 11742.28 512
2832.978 -503.45291 11588.838 132097
2781.415 -482.55371 11107.766 132097
2847.4539 -482.55371 11107.766 512
2911.7473 -482.26462 11101.111 197890
3031.4431 -490.96112 11301.294 197890
3149.4907 -499.01935 11486.783 512
3192.8992 -495.16037 11397.954 66304
3378.5613 -513.06421 11810.078 132097
3455.8977 -514.12378 11834.468 132096
3547.104 -517.16327 11904.433 256
3552.3398 -507.79459 11688.778 256
3647.4438 -511.38541 11771.434 512
3643.5691 -501.22501 11537.555 256
3608.6389 -487.24692 11215.797 256
3675.3198 -487.24692 11215.797 256
3786.1182 -492.99146 11348.028 256
3763.5095 -481.46796 11082.772 1118993
3680.9529 -462.80386 10653.149 1250578
3655.1802 -451.78979 10399.619 2434852
3723.8867 -452.62579 10418.863 855820
3980.4519 -475.89441 10954.477 0
3887.6011 -457.31091 10526.709 0
3950.1855 -457.31091 10526.709 0
4012.7698 -457.31091 10526.709 0
4120.4487 -462.37119 10643.189 256
4183.7256 -462.37119 10643.189 987406
4200.8984 -457.35187 10527.651 592648
4272.9233 -458.36401 10550.949 329476
4349.5854 -459.83704 10584.857 263684
4503.2417 -469.29184 10802.494 0
4501.2256 -462.4859 10645.83 1184783
4564.5181 -462.4859 10645.83 263426
4619.2588 -461.63132 10626.158 197889
4575.2524 -451.06445 10382.924 256
4479.8403 -435.77844 10031.06 256
4500.9443 -432.07932 9945.9102 256
4560.0752 -432.07932 9945.9102 256
4682.8281 -438.03046 10082.897 256
4825.6421 -445.68399 10259.071 256
4886.6348 -445.68399 10259.071 256
4944.1221 -445.36813 10251.802 197635
5005.0718 -445.36813 10251.802 256
5055.9746 -444.48489 10231.47 256
5079.0508 -441.20538 10155.98 256
5108.5547 -438.55475 10094.966 256
5131.5981 -435.41751 10022.751 256
5093.2959 -427.20679 9833.751 256
5220.1255 -432.87601 9964.248 256
5377.6719 -440.93643 10149.79 256
5571.915 -451.79364 10399.708 66048
5657.8345 -453.72552 10444.178 66304
5825.7261 -462.1178 10637.357 329475
5967.2515 -468.26086 10778.762 1184783
6023.0928 -467.621 10764.033 790536
6095.4165 -468.26086 10778.762 1843224
6075.3096 -461.86047 10631.434 1843224
6190.6455 -465.78268 10721.718 2171933
6426.3516 -478.58923 11016.509 2369568
6766.3013 -498.82236 11482.249 2435105
6870.1421 -501.41888 11542.018 1974041
7109.9106 -513.78662 11826.707 2171420
9796.3193 -700.98346 16135.737 2368287
9892.8018 -701.02246 16136.635 2039322
9988.7422 -701.02277 16136.642 1447184
10084.851 -701.03461 16136.915 1052686
10180.789 -701.03461 16136.915 394499
10276.16 -700.99591 16136.024 197377
10371.805 -700.97644 16135.576 197121
9517.5547 -637.34717 14670.912 131328
8938.9229 -593.1629 13653.846 65792
8868.1055 -583.16772 13423.771 0
7743.2056 -504.65265 11616.454 0
7643.5249 -493.7522 11365.54 1184528
7257.5898 -464.71356 10697.108 2368290
7413.9023 -470.59869 10832.576 1710872
7448.6104 -468.73001 10789.562 592135
7868.9287 -490.952 11301.083 921614
8173.7476 -505.65253 11639.471 7237228
9496.7188 -582.56348 13409.861 7106158
10836.97 -659.245 15174.971 7434862
11619.511 -701.01318 16136.422 7500654
11716.438 -701.07263 16137.789 8355961
11814.624 -701.20557 16140.851 8487801
11910.585 -701.20557 16140.851 8356214
12006.647 -701.21149 16140.986 8751726
12101.267 -701.13367 16139.194 9146986
12196.747 -701.10651 16138.569 7502663
12291.655 -701.04724 16137.205 7832138
12106.395 -685.1333 15770.886 8161099
12200.156 -685.1333 15770.886 6384688
12238.618 -682.05139 15699.945 6055208
0 0 0 0
0 0 0 0
0 0 0 0
0 0 0 0
0 0 0 0
0 0 0 0
0 0 0 0
0 0 0 0
0 0 0 0
0 0 0 0
3272.7048 -168.26924 3873.3416 2886658
3514.7227 -179.45015 4130.7114 2427400
3564.8315 -180.74562 4160.5317 2231047
3589.5669 -180.74562 4160.5317 2493449
3595.1953 -179.7901 4138.5366 2360833
3445.4111 -171.12845 3939.1567 2425088
3412.7517 -168.36192 3875.4749 5704960
3334.4836 -163.39754 3761.2012 9582592
3353.8315 -163.25085 3757.8245 11620608
2734.1938 -132.20871 3043.2744 12607232
0 0 0 0
0 0 0 0
0 0 0 0
0 0 0 0
0 0 0 0
0 0 0 0
0 0 0 0
0 0 0 0
0 0 0 0
0 0 0 0
0 0 0 0
0 0 0 0
0 0 0 0
0 0 0 0
0 0 0 0
0 0 0 0
0 0 0 0
0 0 0 0
0 0 0 0
0 0 0 0
-3959.9243 -168.88965 4504.0078 3607816
-3933.1467 -168.88965 4504.0078 4333591
-3915.175 -169.27037 4514.1611 4202777
-3853.9673 -167.77415 4474.2593 2236945
-3790.5684 -166.16109 4431.2417 1711883
-3869.4072 -170.80414 4555.064 1647118
-4629.5103 -205.79709 5488.2681 989190
-4590.145 -205.49553 5480.2261 857347
-4482.3892 -202.10597 5389.8325 462848
-4450.3447 -202.10597 5389.8325 1382920
-4027.5808 -184.23331 4913.1978 1777933
-4127.895 -190.20142 5072.3574 1711629
-4097.7383 -190.20142 5072.3574 1448202
-4058.7166 -189.78687 5061.3022 1446662
-4008.5991 -188.84343 5036.1421 1708809
-4091.9016 -194.21843 5179.4849 787712
-4159.1729 -198.90829 5304.5557 524800
-4180.5557 -201.45845 5372.564 721665
-4143.9072 -201.2299 5366.4688 1379080
-4202.0649 -205.63733 5484.0078 2365717
-4146.8354 -204.52142 5454.2485 3023902
-4114.4082 -204.52142 5454.2485 3024671
-4085.6506 -204.70528 5459.1514 2564890
-4053.1946 -204.70528 5459.1514 1973525
-4101.6177 -208.82304 5568.9653 921350
-4234.0063 -217.31747 5795.498 66048
-4082.4595 -211.25829 5633.9092 256
-3961.7336 -206.70692 5512.5322 256
-3966.8525 -208.7005 5565.6973 256
-3937.657 -208.90709 5571.207 256
-4027.4312 -215.4825 5746.5625 512
-4065.7507 -219.39388 5850.8721 512
-4343.9004 -236.42603 6305.0913 66560
-4459.876 -244.85118 6529.7764 256
-4220.9678 -233.76976 6234.2534 512
-3844.6521 -214.81456 5728.7495 256
-3754.3879 -211.64613 5644.2524 256
-3691.9023 -210.00061 5600.3691 256
-3631.7295 -208.45787 5559.2271 256
-3502.8948 -202.90952 5411.2612 0
-3469.9529 -202.86444 5410.0596 256
-3440.8208 -203.0434 5414.832 256
-3407.3311 -202.96614 5412.7715 256
-3400.8386 -204.51088 5453.9673 256
-3449.0156 -209.40462 5584.4751 256
-3452.6914 -211.66533 5644.7646 512
-3274.2761 -202.69788 5405.6177 768
-3137.7073 -196.16887 5231.4995 1024
-3106.6045 -196.16887 5231.4995 68352
-3009.1653 -191.93764 5118.6597 266240
-3004.5398 -193.60049 5163.0054 332288
-2991.158 -194.72765 5193.0645 134400
-2943.3406 -193.61311 5163.3418 3072
-2887.0125 -191.90936 5117.9058 2816
-2829.1721 -190.06773 5068.792 596482
-2970.969 -201.74274 5380.145 3840
-2938.9824 -201.74274 5380.145 69632
-2906.6494 -201.71867 5379.5034 3328
-2840.4065 -199.31459 5315.3906 1536
-2771.7451 -196.68481 5245.2588 1385991
-2731.344 -196.02333 5227.6182 2175762
-2700.2642 -196.02333 5227.6182 2373141
-2672.7957 -196.28851 5234.6904 266496
-2655.1357 -197.28879 5261.3662 859138
-2645.2493 -198.8974 5304.2651 858630
-2738.6646 -208.40585 5557.8398 398337
-2683.4458 -206.69771 5512.2861 265730
-2672.303 -208.38435 5557.2661 1280
-2617.9016 -206.69771 5512.2861 68608
-2594.0728 -207.41278 5531.356 134144
-2561.1873 -207.41278 5531.356 133888
-2542.8464 -208.60596 5563.1763 1024
-2535.8911 -210.77695 5621.0728 1024
-2491.0735 -209.81683 5595.4683 768
-2345.46 -200.22606 5339.6982 1024
-2449.9873 -212.01901 5654.1963 1024
-2676.9172 -234.87997 6263.8608 1536
-2709.5969 -241.10152 6429.7793 857352
-2671.3701 -241.10152 6429.7793 1186571
-2611.4126 -239.11179 6376.7158 1779728
-2411.0869 -224.02136 5974.2793 1712913
-2303.3088 -217.20714 5792.5557 1844239
-2268.8706 -217.20714 5792.5557 3094311
-2243.23 -218.06236 5815.3628 4542523
-2208.6558 -218.06236 5815.3628 397059
-2124.9895 -213.13837 5684.0479 2240284
-2074.469 -211.43347 5638.5811 1779732
-2045.5776 -211.91328 5651.377 134912
-2007.4231 -211.43347 5638.5811 1319697
-1964.7236 -210.45055 5612.3682 69632
-1926.9286 -209.96805 5599.501 925957
-1864.5686 -206.7448 5513.542 1716744
-1816.5654 -205.0266 5467.7202 3229715
-1787.8468 -205.46198 5479.3311 4874027
-1837.3918 -215.0746 5735.6841 1792
-1904.8687 -227.18947 6058.7681 2048
-1987.6836 -241.63599 6444.0322 397569
-2047.0221 -253.74028 6766.8335 989196
-2056.1543 -259.98172 6933.2832 768
-2025.3367 -261.32397 6969.0786 512
-1943.7146 -256.03018 6827.9019 768
-1903.1207 -256.03018 6827.9019 768
-1787.915 -245.77374 6554.3794 1024
-1748.9474 -245.77374 6554.3794 768
-1709.9799 -245.77374 6554.3794 2560
-1640.4794 -241.28294 6434.6172 925698
-1595.2897 -240.23871 6406.7695 1452805
-1545.15 -238.37975 6357.1938 1649934
-1573.3005 -248.80872 6635.3174 1792
-1555.2014 -252.27188 6727.6743 1536
-1531.6721 -255.01382 6800.7969 1792
-1528.1588 -261.3273 6969.1675 398337
-1525.0286 -268.06003 7148.7183 2304
-1535.5955 -277.65543 7404.6108 1792
-1499.1345 -279.06302 7442.1489 134656
-1693.1055 -324.75543 8660.6904 266496
-1598.3307 -316.1926 8432.334 199936
-1636.8048 -334.28897 8914.9346 3030557
-1632.1942 -344.50275 9187.3193 67328
-1581.0403 -345.25995 9207.5117 792579
-2047.9563 -463.2626 12354.447 594177
-2200.9985 -516.40277 13771.609 1280
-1922.5627 -468.50378 12494.221 264448
-2037.2465 -516.40277 13771.609 462080
-2222.1963 -586.87012 15650.856 329984
-2195.3428 -605.11584 16137.44 768
-2099.6558 -605.18927 16139.396 67072
-2003.7664 -605.2085 16139.911 593157
-1907.9154 -605.24194 16140.802 256
-1812.106 -605.29272 16142.157 264449
-1716.3278 -605.36023 16143.957 1250576
-1620.2568 -605.32648 16143.056 198912
-1524.0291 -605.22601 16140.377 512
-1428.0306 -605.20929 16139.932 512
-1331.8462 -605.10571 16137.169 256
-1115.6412 -546.22333 14566.874 256
-1007.4553 -534.76746 14261.365 256
-922.66742 -534.76746 14261.365 256
-871.2746 -556.08142 14829.772 256
-814.45789 -578.34326 15423.459 256
-755.53986 -604.57227 16122.944 256
-628.74335 -576.21613 15366.73 256
-514.69696 -551.88983 14717.989 256
-421.61716 -544.68463 14525.839 256
-325.90823 -529.49585 14120.778 256
-227.76146 -498.43198 13292.356 256
-148.7347 -498.43198 13292.356 0
-70.528786 -504.3013 13448.883 0
9.4538469 -505.65359 13484.945 0
90.77636 -512.146 13658.087 0
174.22627 -518.84283 13836.681 256
259.23215 -524.39142 13984.653 256
360.75681 -552.5459 14735.485 256
451.05386 -555.86151 14823.908 256
557.22906 -574.46252 15319.966 66562
682.83582 -605.05505 16135.818 66049
778.75629 -605.0462 16135.582 1185555
874.68683 -605.0462 16135.582 593162
969.69086 -604.46869 16120.18 132097
1028.6473 -583.54541 15562.192 132097
1088.6906 -566.64111 15111.382 256
1199.354 -576.6524 15378.367 0
1308.9052 -584.7486 15594.278 1280
1430.017 -596.59668 15910.248 1053967
1512.4266 -591.83008 15783.13 527622
1621.193 -597.3316 15929.846 1024
1736.2179 -604.40436 16118.465 330244
1832.3297 -604.49774 16120.956 198912
1929.9471 -605.05383 16135.786 659457
2025.959 -605.07776 16136.425 1645579
2121.8918 -605.07709 16136.405 2961441
2192.8801 -598.27087 15954.896 855817
2213.4399 -578.84143 15436.744 1645587
1856.0848 -466.0643 12429.165 1579800
1929.9796 -466.0643 12429.165 921613
1827.0195 -424.93109 11332.21 987406
1884.0883 -422.61975 11270.569 1118992
1951.0948 -422.61975 11270.569 987662
2020.109 -423.0401 11281.78 1184785
2096.8206 -424.99362 11333.877 461062
2184.3816 -428.95612 11439.55 197890
2289.9165 -436.1022 11630.125 65792
2524.8542 -466.75125 12447.484 460549
2659.6001 -477.66043 12738.414 197377
2670.0315 -466.25702 12434.304 197377
2726.876 -463.35461 12356.901 132097
2673.4392 -442.35693 11796.929 263683
2708.25 -436.66129 11645.035 461062
2762.9578 -434.37775 11584.136 395269
2805.2551 -430.30161 11475.433 132097
2782.1526 -416.6254 11110.711 131840
2897.0645 -423.77182 11301.294 256
2964.2539 -423.77182 11301.294 0
3081.1985 -430.72723 11486.783 197890
3149.4907 -430.72723 11486.783 263683
3131.3379 -419.15582 11178.193 329476
3197.7954 -419.15582 11178.193 263683
3448.7756 -442.85004 11810.078 263681
3602.3308 -453.33817 12089.779 132096
3617.8792 -446.38809 11904.433 263681
3574.9753 -432.63104 11537.555 512
3633.5554 -431.44199 11505.845 66048
3608.6389 -420.56589 11215.797 512
3591.5925 -410.98495 10960.29 512
3672.5864 -412.76431 11007.742 256
3845.0225 -424.5787 11322.812 256
3843.8503 -417.146 11124.595 256
3779.1292 -403.18494 10752.276 256
3955.7637 -415.00955 11067.619 66049
3980.4519 -410.767 10954.477 256
3900.3232 -396.01843 10561.157 256
3947.0706 -394.41544 10518.408 256
4007.7612 -394.23404 10513.57 256
4070.2673 -394.23404 10513.57 256
4132.7646 -394.23322 10513.548 460550
4153.0117 -390.26208 10407.646 0
4236.4741 -392.26077 10460.947 256
4358.895 -397.75668 10607.513 395269
4536.4263 -408.05292 10882.098 592645
4601.123 -408.05292 10882.098 1118989
4602.8931 -402.54959 10735.332 592390
4594.6157 -396.33014 10569.47 263681
4596.4888 -391.14224 10431.116 131840
4480.8569 -376.22635 10033.335 256
4500.9443 -372.94812 9945.9102 256
4612.4185 -377.22903 10060.075 256
4767.042 -384.88412 10264.224 256
4943.1646 -394.0596 10508.918 256
5006.9893 -394.16559 10511.745 0
5019.686 -390.29358 10408.485 132098
5072.2485 -389.57788 10389.398 256
5134.0166 -389.57788 10389.398 256
5136.7632 -385.1525 10271.381 256
5151.6704 -381.73221 10180.167 256
5168.5718 -378.53735 10094.966 256
5191.1865 -375.82947 10022.751 256
5317.3286 -380.59314 10149.79 256
5509.8931 -389.95081 10399.344 256
5789.8354 -405.21619 10806.446 66305
5854.0835 -405.21619 10806.446 131841
5895.1025 -403.62582 10764.033 197632
5997.8154 -406.24829 10833.971 197633
6076.3657 -407.19583 10859.239 197888
6140.9272 -407.19583 10859.239 526597
6094.5645 -399.91714 10665.129 856074
6360.8555 -413.09305 11016.509 2435105
6698.0361 -430.55719 11482.249 2303519
6986.4312 -444.56464 11855.804 2829863
9060.6729 -570.79523 15222.166 3092522
9261.3408 -577.66681 15405.42 2895144
9796.8652 -605.08569 16136.635 3092524
9893.0771 -605.10254 16137.084 3224111
9989.1982 -605.11353 16137.378 2960683
10085.14 -605.11353 16137.378 2960683
10180.66 -605.08856 16136.712 2763304
10275.875 -605.04596 16135.576 2500132
10371.748 -605.04266 16135.487 1842202
9735.1338 -562.70081 15006.301 2039581
8938.9229 -511.98694 13653.846 1842972
8348.1924 -473.84909 12636.772 1053199
7575.9536 -426.18091 11365.54 921613
7643.5249 -426.18091 11365.54 1250578
7194.1235 -397.60855 10603.563 2369059
7592.2573 -415.96777 11093.173 2237474
7448.6104 -404.58307 10789.562 1579544
8732.3555 -470.2619 12541.107 4408899
8913.8262 -475.97052 12693.348 6382432
9898.4111 -524.10718 13977.072 6842984
11345.417 -595.72302 15886.948 7171947
11619.512 -605.07776 16136.424 7303532
11715.447 -605.07776 16136.424 8418674
11812.653 -605.14282 16138.159 394499
11909.029 -605.16467 16138.742 460035
12004.979 -605.16467 16138.742 1250572
12100.495 -605.14301 16138.165 7897174
0 0 0 0
0 0 0 0
0 0 0 0
0 0 0 0
0 0 0 0
0 0 0 0
0 0 0 0
0 0 0 0
0 0 0 0
0 0 0 0
0 0 0 0
0 0 0 0
0 0 0 0
3512.9419 -158.12808 4217.0146 2755331
3538.0132 -158.12808 4217.0146 2427656
3516.9653 -156.08133 4162.4312 2427398
3541.7124 -156.08133 4162.4312 2689280
3564.8315 -156.0101 4160.5317 2426368
3589.5669 -156.0101 4160.5317 3408128
3595.1953 -155.18533 4138.5366 7611392
3289.7607 -141.03616 3761.2012 11028992
3253.0828 -138.52216 3694.1567 12343808
3110.6973 -131.57083 3508.7766 13067520
0 0 0 0
0 0 0 0
0 0 0 0
0 0 0 0
0 0 0 0
0 0 0 0
0 0 0 0
0 0 0 0
0 0 0 0
0 0 0 0
0 0 0 0
0 0 0 0
0 0 0 0
0 0 0 0
0 0 0 0
0 0 0 0
0 0 0 0
0 0 0 0
0 0 0 0
0 0 0 0
0 0 0 0
0 0 0 0
-3438.863 -123.41245 3911.354 6371633
-3538.0466 -127.83636 4051.5627 6175023
-3678.5908 -133.82558 4241.3813 6109741
-3798.7969 -139.15251 4410.2095 4010527
-3772.5771 -139.15251 4410.2095 1579271
-3836.7102 -142.50854 4516.5732 723969
-3809.8582 -142.50854 4516.5732 857857
-3775.219 -142.21521 4507.2764 1055748
-3757.2661 -142.55075 4517.9111 1187591
-3730.4058 -142.55075 4517.9111 1385226
-3849.2217 -148.15787 4695.6196 1056261
-3803.6694 -147.47412 4673.9492 1319432
-3775.8816 -147.47412 4673.9492 1056261
-3836.9358 -150.96974 4784.7373 1122054
-3808.4893 -150.96974 4784.7373 1516044
-3884.6104 -155.14603 4917.0977 1581068
-3928.1687 -158.07527 5009.9355 723973
-3997.4211 -162.09116 5137.2124 460032
-3949.9058 -161.39763 5115.2319 525568
-3889.824 -160.17586 5076.5098 524544
-3902.3391 -161.94777 5132.6675 458752
-3913.2917 -163.68225 5187.6392 655360
-3801.5195 -160.27026 5079.502 1180672
-3945.1179 -167.65616 5313.5854 1508867
-3940.4902 -168.81126 5350.1948 1969931
-3905.4902 -168.67342 5345.8257 2234131
-3668.0876 -159.72008 5062.0645 2037776
-3634.281 -159.55714 5056.9004 657155
-3644.2498 -161.32941 5113.0693 395265
-3893.2581 -173.80266 5508.3892 66304
-3839.1667 -172.84181 5477.9365 512
-3807.9358 -172.90253 5479.8604 256
-3878.1292 -177.60927 5629.0332 256
-3921.5127 -181.15944 5741.5498 256
-3915.9412 -182.49057 5783.7378 256
-3745.0872 -176.07455 5580.3926 256
-3711.9104 -176.07455 5580.3926 256
-3655.4365 -174.9595 5545.0527 256
-3613.5947 -174.53085 5531.4678 256
-3527.5046 -171.93759 5449.2783 0
-3511.3225 -172.73528 5474.5601 256
-3498.4006 -173.70978 5505.4453 256
-3465.6692 -173.70978 5505.4453 256
-3465.5618 -175.36058 5557.7646 0
-3457.519 -176.63776 5598.2427 256
-3541.6819 -182.69617 5790.2539 256
-3507.2571 -182.69617 5790.2539 768
-3242.1382 -170.56 5405.6177 768
-3106.6045 -165.06615 5231.4995 67328
-3030.9504 -162.67502 5155.7168 133632
-3142.1392 -170.36557 5399.4561 67584
-3110.0376 -170.36557 5399.4561 660480
-3076.1047 -170.26418 5396.2427 68608
-3036.9487 -169.86852 5383.7026 1536
-3004.9409 -169.86852 5383.7026 134656
-3015.2322 -172.2854 5460.3018 200448
-2985.2292 -172.42749 5464.8052 200448
-2975.1331 -173.73518 5506.25 1280
-2878.1194 -169.9399 5385.9648 1024
-2852.2788 -170.30891 5397.6606 1024
-2832.4941 -171.05206 5421.2134 1024
-2758.6997 -168.51318 5340.7476 1280
-2670.7524 -165.04057 5230.689 1024
-2639.6545 -165.04057 5230.689 768
-2656.0981 -168.04848 5326.0195 768
-2758.1345 -176.60966 5597.3521 1024
-2716.2759 -176.05348 5579.7251 768
-2683.1028 -176.05348 5579.7251 1024
-2640.0657 -175.39815 5558.9551 1024
-2621.8318 -176.39493 5590.5464 768
-2599.3262 -177.12624 5613.7241 1024
-2617.8147 -180.70634 5727.1899 1024
-2593.3447 -181.37634 5748.4243 1024
-2584.4485 -183.168 5805.208 1024
-2573.2217 -184.84074 5858.2227 1024
-2943.2847 -214.32417 6792.6514 768
-2902.9004 -214.32417 6792.6514 768
-2753.615 -206.17046 6534.2324 768
-2602.4363 -197.63959 6263.8608 768
-2490.3103 -191.86989 6081 66816
-2347.8901 -183.5618 5817.6885 1024
-2312.2229 -183.47612 5814.9731 1280
-2278.7146 -183.5618 5817.6885 463617
-2243.23 -183.48842 5815.3628 2240533
-2110.7766 -175.35689 5557.6475 1517323
-2065.4248 -174.31795 5524.7202 1254922
-2052.6284 -176.03746 5579.2173 1123589
-1998.3171 -174.19453 5520.8091 3426850
-1965.4944 -174.19453 5520.8091 3032088
-1926.796 -173.66498 5504.0249 2048
-1961.4248 -179.84038 5699.7441 793605
-1945.5204 -181.51811 5752.9175 267520
-1911.3177 -181.51811 5752.9175 924938
-1869.9221 -180.82254 5730.8726 1515025
-1917.8229 -188.89644 5986.7612 1280
-2066.8679 -207.4263 6574.0347 1280
-2058.7656 -210.59554 6674.478 1536
-2020.0876 -210.70023 6677.7964 1186828
-2066.7698 -219.89085 6969.0786 768
-2137.9597 -232.11835 7356.6084 2041625
-2094.2227 -232.11835 7356.6084 1024
-2060.9375 -233.30153 7394.1069 512
-1967.1752 -227.54097 7211.5356 768
-1931.2603 -228.36392 7237.6182 1024
-1812.7092 -219.2303 6948.1431 3584
-1640.4794 -203.02736 6434.6172 596995
-1595.2897 -202.14868 6406.7695 2967569
-1575.4165 -204.5135 6481.7188 4612893
-1593.7301 -212.07848 6721.478 2048
-1612.8832 -220.14716 6977.2012 1536
-1571.691 -220.18768 6978.4854 1024
-1565.8291 -225.31421 7140.9624 266752
-1587.6259 -234.81737 7442.1489 595969
-1552.8617 -236.25993 7487.8687 2048
-1513.2988 -237.03596 7512.4644 3328
-1902.4774 -307.05759 9731.6846 1280
-1870.4357 -311.35495 9867.8818 1792
-1786.7622 -307.05759 9731.6846 923395
-1804.0588 -320.40518 10154.714 1516045
-1577.5731 -289.88159 9187.3193 659973
-2378.334 -452.69672 14347.476 527876
-2483.5952 -490.31775 15539.812 396545
-2415.8013 -495.36081 15699.645 660228
-2387.1196 -509.15164 16136.723 2238744
-2291.1824 -509.15164 16136.723 2896164
-2195.3569 -509.17761 16137.545 2501407
-2099.5894 -509.21991 16138.887 512
-2003.6921 -509.2334 16139.313 256
-1907.9438 -509.28796 16141.043 198913
-1812.3324 -509.38675 16144.174 4804933
-1716.2185 -509.34747 16142.929 6713187
-1620.0184 -509.27649 16140.68 768
-1524.0576 -509.27649 16140.68 512
-1427.9154 -509.21179 16138.629 512
-1331.9203 -509.19403 16138.066 256
-1235.8818 -509.15567 16136.851 256
-1139.8854 -509.12958 16136.023 256
-1043.5769 -508.94656 16130.223 256
-944.60187 -507.29443 16077.86 256
-849.96979 -507.86517 16095.949 256
-756.15546 -509.13144 16136.081 724232
-660.22198 -509.13144 16136.081 256
-564.3139 -509.15439 16136.809 256
-468.37613 -509.15439 16136.809 256
-370.66791 -506.7341 16060.103 256
-243.91565 -449.15195 14235.13 256
-156.57611 -441.51657 13993.141 0
-74.652031 -449.15195 14235.13 0
10.104001 -454.74283 14412.324 0
96.251801 -456.93854 14481.914 0
187.44408 -469.70132 14886.41 0
277.11459 -471.68719 14949.349 256
375.06616 -483.38104 15319.966 256
476.17175 -493.77576 15649.408 256
569.21179 -493.77576 15649.408 256
677.45111 -505.10831 16008.575 256
776.03052 -507.33368 16079.104 256
870.15222 -506.47626 16051.931 256
965.58545 -506.47626 16051.931 395269
1057.0236 -504.56921 15991.49 461062
1107.9254 -485.22375 15378.367 197891
1212.6558 -490.60526 15548.925 256
1335.4261 -502.00583 15910.248 198914
1438.7367 -505.06689 16007.264 1515540
1533.9044 -505.06689 16007.264 2173469
1642.1604 -509.12476 16135.869 199169
1738.1407 -509.13885 16136.317 132608
1834.202 -509.17389 16137.428 1185548
1930.1437 -509.17398 16137.431 922885
2026.1841 -509.19882 16138.218 3159076
2122.4841 -509.28372 16140.909 2632735
2218.2754 -509.24454 16139.666 1908501
2314.1082 -509.21765 16138.814 2171932
2400.2175 -507.13846 16072.918 2237472
2381.1555 -483.84784 15334.76 1119249
2044.0573 -400.03348 12678.401 658441
2046.2667 -386.22348 12240.717 724234
2154.4255 -392.67273 12445.115 658441
2228.415 -392.67273 12445.115 1184785
2302.4048 -392.67273 12445.115 1184785
2183.4287 -360.78729 11434.559 329476
2268.6208 -363.54529 11521.969 592135
2365.1914 -367.91153 11660.35 460549
2545.9668 -384.75439 12194.156 131584
2688.7791 -395.0863 12521.61 131584
2558.6492 -365.83624 11594.577 197890
2568.7024 -357.63849 11334.763 461062
2694.0867 -365.50681 11584.136 461062
2769.686 -366.39688 11612.346 263683
2838.7249 -366.39688 11612.346 512
2993.717 -377.2276 11955.607 197890
2991.7795 -368.24039 11670.772 66560
3031.4094 -364.66095 11557.327 66304
3001.0315 -353.00522 11187.919 132097
3144.5959 -361.87183 11468.931 263683
2984.7832 -336.19119 10655.025 329476
2964.0515 -326.91779 10361.12 197890
3050.8445 -329.63989 10447.393 66304
3383.9573 -358.33682 11356.896 132096
3474.481 -360.72513 11432.588 329474
3530.2148 -359.47913 11393.099 512
3548.3127 -354.51978 11235.92 66560
3560.8943 -349.20273 11067.405 256
3585.7144 -345.25705 10942.353 256
3650.7698 -345.25705 10942.353 256
3845.0225 -357.26144 11322.812 256
3782.8557 -345.43741 10948.069 256
3847.9451 -345.43741 10948.069 256
3911.1702 -345.2728 10942.853 256
3945.7708 -342.62808 10859.032 256
3938.8015 -336.51688 10665.348 256
3947.0706 -331.88058 10518.408 256
4007.7612 -331.72794 10513.57 256
4020.4709 -327.66949 10384.945 256
4052.457 -325.2811 10309.249 256
4078.8391 -322.52081 10221.766 256
4143.9839 -322.86154 10232.564 256
4211.6006 -323.38223 10249.067 66305
4329.7168 -327.7103 10386.237 0
4444.6665 -331.68039 10512.063 256
4602.8931 -338.72504 10735.332 1447954
4534.4727 -329.12631 10431.116 395011
4529.8276 -324.35315 10279.838 132096
4579.1465 -323.51962 10253.421 329474
4633.5376 -323.06168 10238.907 256
4664.1587 -320.97974 10172.924 66048
4767.042 -323.86047 10264.224 256
4943.8589 -331.62775 10510.395 256
5098.4541 -337.7291 10703.768 256
5091.8462 -333.13333 10558.112 256
5102.7212 -329.77942 10451.815 256
5203.728 -332.26114 10530.47 256
5209.9282 -328.70236 10417.68 256
5240.2363 -326.73038 10355.181 256
5265.8994 -324.51791 10285.061 256
5386.2388 -328.12381 10399.344 256
5517.9497 -332.33273 10532.738 256
5758.5273 -342.93045 10868.615 256
5823.1445 -342.93045 10868.615 66048
5887.7617 -342.93045 10868.615 66048
6005.0571 -345.96539 10964.803 256
6103.5371 -347.86279 11024.938 256
6169.0835 -347.86279 11024.938 512
6242.6108 -348.30804 11039.05 0
6361.5229 -351.25003 11132.29 592646
6594.4707 -360.36298 11421.111 1776664
7326.2617 -396.27231 12559.198 2369312
7765.1772 -415.77542 13177.316 2566691
8217.1982 -435.58365 13805.105 3026730
8299.2725 -435.58365 13805.105 3289902
9796.9863 -509.15521 16136.835 3224109
9893.8525 -509.20297 16138.349 3158318
9989.2441 -509.17462 16137.451 3289648
10085.564 -509.19376 16138.057 3355441
10180.66 -509.15131 16136.712 3355441
9242.4619 -457.91531 14512.872 3487027
9328.7451 -457.91531 14512.872 3421234
9406.2686 -457.48932 14499.369 3487027
9214.5889 -444.09677 14074.915 3158575
6976.0381 -333.1842 10559.724 2960939
7126.0835 -337.31488 10690.64 1250322
7212.5591 -338.39008 10724.716 2039837
7138.668 -331.98846 10521.827 2039324
7201.2236 -331.98846 10521.827 2236960
7501.2202 -342.84067 10865.77 1381909
8452.7246 -383.03021 12139.511 0
8454.1523 -379.85156 12038.77 5131854
9898.4111 -441.00961 13977.072 6382689
10726.315 -473.91714 15020.022 6908517
10206.428 -447.22385 14174.023 6974053
0 0 0 0
0 0 0 0
0 0 0 0
0 0 0 0
0 0 0 0
0 0 0 0
0 0 0 0
0 0 0 0
0 0 0 0
0 0 0 0
0 0 0 0
0 0 0 0
0 0 0 0
0 0 0 0
0 0 0 0
3487.4583 -134.98157 4278.0181 2885888
3543.1533 -136.14433 4314.8701 2624263
3552.8215 -135.53452 4295.5435 2558471
3578.3596 -135.53452 4295.5435 2427398
3603.8979 -135.53452 4295.5435 2426368
3529.3604 -131.79738 4177.1006 2425344
3449.6511 -127.9207 4054.2356 4853248
3448.1526 -126.9779 4024.355 9188352
3173.1775 -116.04675 3677.9104 11488768
3289.0549 -119.46132 3786.1296 12540672
3270.9951 -117.99782 3739.7463 13396736
2902.3147 -103.99119 3295.8293 13462784
0 0 0 0
0 0 0 0
0 0 0 0
0 0 0 0
0 0 0 0
0 0 0 0
0 0 0 0
0 0 0 0
0 0 0 0
0 0 0 0
0 0 0 0
0 0 0 0
0 0 0 0
0 0 0 0
0 0 0 0
0 0 0 0
0 0 0 0
0 0 0 0
0 0 0 0
0 0 0 0
0 0 0 0
0 0 0 0
0 0 0 0
-3562.1343 -103.7487 4051.5627 2293760
-3703.3511 -108.59602 4240.8594 2753794
-3678.5908 -108.60939 4241.3813 3477513
-3819.1479 -113.5376 4433.8359 4267799
-3802.1382 -113.81751 4444.7671 5846058
-3836.7102 -115.65625 4516.5732 6504244
-3809.8582 -115.65625 4516.5732 5979183
-3703.7134 -113.23209 4421.9053 5388586
-3748.4219 -115.41818 4507.2764 4469026
-3704.6055 -114.89037 4486.6641 3154453
-3750.8684 -117.16877 4575.6396 1906950
-3744.9487 -117.83849 4601.793 527360
-3696.4617 -117.16877 4575.6396 462592
-3836.9358 -122.52316 4784.7373 331264
-3808.4893 -122.52316 4784.7373 133120
-3845.4146 -124.64207 4867.4844 462336
-3821.4158 -124.80339 4873.7842 988166
-3997.4211 -131.54901 5137.2124 1447689
-3949.9058 -130.98615 5115.2319 1907471
-3832.4768 -128.07809 5001.6675 1182725
-3802.7405 -128.07809 5001.6675 393216
-3815.8308 -129.53189 5058.4404 655360
-3785.3735 -129.51877 5057.9282 655360
-3755.6833 -129.53189 5058.4404 720896
-3937.2725 -136.89099 5345.8257 589824
-3639.3508 -127.56257 4981.5352 458752
-3609.7344 -127.56257 4981.5352 459008
-3581.55 -127.61361 4983.5283 196608
-3644.2498 -130.93077 5113.0693 0
-3760.2666 -136.23544 5320.2256 0
-3783.4216 -138.23717 5398.3965 256
-3785.3391 -139.49054 5447.3423 256
-3774.031 -140.27397 5477.9365 256
-3807.6738 -142.75632 5574.877 256
-3788.96 -143.30209 5596.1899 0
-3692.4675 -140.88979 5501.9858 0
-3659.7566 -140.88979 5501.9858 0
-3627.0457 -140.88979 5501.9858 0
-3604.4788 -141.28741 5517.5137 0
-3543.4836 -140.1722 5473.9624 0
-3532.1089 -141.01738 5506.9683 0
-3528.574 -142.19431 5552.9292 256
-3498.6042 -142.31812 5557.7646 0
-3488.0676 -143.24237 5593.8579 256
-3460.5134 -143.47882 5603.0918 256
-3545.0876 -148.41408 5795.8223 256
-3510.6299 -148.41408 5795.8223 512
-3386.666 -144.59265 5646.5889 512
-3175.8577 -136.94978 5348.1216 768
-3030.9504 -132.02284 5155.7168 1024
-3142.1392 -138.2643 5399.4561 1024
-3110.9568 -138.30516 5401.0518 1024
-3078.8459 -138.30516 5401.0518 1024
-3094.4048 -140.4691 5485.5571 1024
-3061.7915 -140.4691 5485.5571 768
-3015.2322 -139.82237 5460.3018 1024
-2982.7693 -139.82237 5460.3018 1024
-2929.2283 -138.82344 5421.2915 1024
-2870.0737 -137.53328 5370.9082 1024
-2845.7083 -137.89993 5385.2266 1024
-2832.4941 -138.82144 5421.2134 1024
-2758.6997 -136.76096 5340.7476 1024
0 0 0 0
0 0 0 0
-2726.9224 -140.02046 5468.0366 1024
-2758.1345 -143.33185 5597.3521 1024
-2725.0723 -143.34317 5597.7944 1024
-2688.3064 -143.15756 5590.5464 1024
-2655.0688 -143.15756 5590.5464 1024
-2624.4858 -143.30249 5596.2061 1024
-2627.6467 -145.31729 5674.8872 1024
-2623.9336 -146.9994 5740.5767 1024
-2599.6885 -147.56046 5762.4863 1024
-2572.6382 -147.97511 5778.6797 1280
-2573.2217 -150.01198 5858.2227 1280
-2732.6399 -161.49146 6306.5156 1024
-2887.082 -172.99213 6755.6367 1024
-2760.658 -167.75056 6550.9448 1024
-2526.4634 -155.71664 6081 1024
-2461.6267 -153.92311 6010.959 768
-2357.5593 -149.58752 5841.647 1024
-2312.2229 -148.9045 5814.9731 1280
-2257.3047 -147.57431 5763.0278 68096
-2180.1833 -144.7292 5651.9209 662020
-2124.7649 -143.25827 5594.4785 4084781
-2065.4248 -141.47195 5524.7202 2242325
-2098.2861 -146.04535 5703.3188 597248
-2064.3784 -146.04535 5703.3188 2304
-2031.7371 -146.13643 5706.876 396545
-2002.83 -146.50377 5721.2212 2816
-1975.6241 -147.01039 5741.0059 67584
-1959.3 -148.35883 5793.6641 768
-1989.0087 -153.30347 5986.7612 1792
-1953.4158 -153.30347 5986.7612 67584
-1967.3656 -157.26373 6141.416 1024
-2066.8679 -168.34183 6574.0347 1024
-2047.2261 -169.95592 6637.0674 768
-2019.0837 -170.91389 6674.478 1024
-2092.156 -180.64975 7054.6797 768
-2144.8301 -188.98663 7380.249 4542015
-2100.9524 -188.98663 7380.249 768
-2056.8525 -188.96622 7379.4517 768
-1940.6388 -182.17529 7114.2549 768
-1931.2603 -185.33426 7237.6182 768
-1872.9072 -183.83023 7178.8828 768
-1746.6697 -175.43764 6851.1382 1024
-1670.8376 -171.82797 6710.1743 1024
-1633.6365 -172.11166 6721.2529 67072
-1626.4795 -175.65425 6859.5972 1280
-1631.9601 -180.77898 7059.7266 1280
-1626.2733 -184.90454 7220.8364 1792
-1583.5125 -184.9243 7221.6079 134912
-1597.3793 -191.74245 7487.8687 200448
-1610.5614 -198.86703 7766.0957 1779475
-1564.3898 -198.86703 7766.0957 1319180
-1697.0875 -222.2966 8681.0605 1280
-1844.6198 -249.20003 9731.6846 1792
-1703.1458 -237.53802 9276.2637 658946
-1647.9958 -237.53802 9276.2637 6582848
0 0 0 0
-2393.4697 -369.73505 14438.782 1024
-2579.0962 -413.23065 16137.359 989192
-2483.2241 -413.24213 16137.808 727042
-2387.2803 -413.24213 16137.808 3426339
-2291.3735 -413.24878 16138.067 4217388
-2195.4436 -413.25171 16138.182 3625760
-2099.645 -413.28067 16139.313 5795907
-2003.6948 -413.28125 16139.334 990725
-1907.8982 -413.31506 16140.655 1024
-1812.3324 -413.40515 16144.174 768
-1716.2185 -413.37326 16142.929 6515550
-1619.8396 -413.27005 16138.897 330499
-1523.864 -413.26318 16138.629 256
-1427.8656 -413.24878 16138.066 512
-1331.9203 -413.24878 16138.066 256
-1236.009 -413.26016 16138.512 197634
-1139.9844 -413.23233 16137.425 256
-1043.9523 -413.19641 16136.023 256
-947.54688 -412.99063 16127.985 256
-851.58679 -412.95444 16126.572 66304
-756.18964 -413.21658 16136.811 329732
-660.25183 -413.21658 16136.811 7633006
-564.3139 -413.21655 16136.809 131840
-468.35104 -413.19443 16135.945 256
-370.66791 -411.25232 16060.103 256
-251.36797 -375.65726 14670.054 256
-161.94444 -370.60889 14472.907 0
-75.581276 -369.05756 14412.324 0
10.290965 -375.88657 14679.01 0
97.56176 -375.88657 14679.01 0
190.22212 -386.84714 15107.038 131841
290.76105 -401.66055 15685.526 256
386.00958 -403.74585 15766.962 66048
479.74857 -403.74585 15766.962 256
573.48755 -403.74585 15766.962 256
679.34106 -411.07651 16053.236 256
774.91638 -411.14777 16056.02 256
870.3739 -411.14777 16056.02 256
965.83136 -411.14777 16056.02 0
1061.0187 -411.04306 16051.931 0
1131.9111 -402.32047 15711.298 256
1225.3192 -402.32047 15711.298 256
1339.7697 -408.74017 15961.997 256
1439.4919 -410.11444 16015.666 1024
1537.7035 -410.91452 16046.91 790793
1642.2059 -413.20395 16136.317 1024
1738.3505 -413.25378 16138.264 922633
1834.2021 -413.23248 16137.431 921606
1930.2433 -413.25378 16138.264 724225
2026.3058 -413.27747 16139.188 2632221
2122.6155 -413.34711 16141.907 2566431
2218.3601 -413.30548 16140.281 2237724
2314.1082 -413.26791 16138.814 2632229
2401.616 -411.82031 16082.283 2501415
2473.3271 -407.87857 15928.351 2369829
2227.6482 -353.81653 13817.137 1185299
2272.2585 -348.06665 13592.594 856590
2566.1272 -379.58209 14823.325 658955
2692.4758 -385.04782 15036.772 1909021
2742.3848 -379.58209 14823.325 2040350
2236.491 -299.92154 11712.445 198147
2445.0496 -317.98929 12418.022 131584
2518.8782 -317.98929 12418.022 394756
2545.9668 -312.25674 12194.156 197377
2618.4644 -312.25674 12194.156 657928
2644.6516 -306.88293 11984.3 263683
2627.582 -296.90329 11594.577 395269
2705.8672 -297.93298 11634.789 65793
2775.0391 -297.93298 11634.789 256
2964.8823 -310.57336 12128.417 131841
3015.7241 -308.39871 12043.494 197634
3083.2268 -307.98923 12027.503 461062
3061.1658 -298.8544 11670.772 66305
2986.0901 -285.06354 11132.216 66304
3164.5278 -295.54736 11541.627 263683
3212.782 -293.68582 11468.931 395268
3048.1304 -272.84409 10655.025 1053199
3257.8955 -285.68341 11156.423 256
3383.9573 -290.81693 11356.896 66304
3390.5513 -285.68341 11156.423 197888
3481.512 -287.71909 11235.92 197888
3548.3127 -287.71909 11235.92 197888
3560.8943 -283.40393 11067.405 256
3590.8367 -280.60196 10957.983 256
3650.7698 -280.20169 10942.353 256
3680.3477 -277.5264 10837.878 66048
3756.8452 -278.42044 10872.791 256
