# .PCD v0.7 - Point Cloud Data file format
VERSION 0.7
FIELDS x y z rgb
SIZE 4 4 4 4
TYPE F F F U
COUNT 1 1 1 1
WIDTH 1286
HEIGHT 1
VIEWPOINT 0 0 0 1 0 0 0
POINTS 1286
DATA ascii
4915.311 -4049.5337 8176.1841 3556950
4920.4561 -4014.0757 8104.5933 4412259
5496.355 -4440.4072 8965.375 5398641
5654.29 -4524.127 9134.4082 4542562
5667.793 -4491.7896 9069.1172 3160907
5901.2393 -4632.7266 9353.6758 5726579
5719.5103 -4448.1445 8980.9961 5595251
5598.7256 -4313.936 8710.0234 3161679
5078.2036 -3877.0037 7827.8384 3687766
5702.293 -4313.936 8710.0234 4018014
6034.8516 -4524.438 9135.0371 4213853
6544.6113 -4862.8511 9818.3076 5266542
6642.3823 -4891.8662 9876.8906 6318974
6772.1572 -4943.7373 9981.6191 7502222
6829.1421 -4942.0303 9978.1729 11315902
6588.8267 -4727.0586 9544.1357 13553110
6382.312 -4539.8013 9166.0557 12958675
6958.2319 -4907.5562 9908.5684 6841214
6895.1079 -4822.21 9736.251 3095634
6814.4072 -4726.0952 9542.1914 3226706
6310.5972 -4340.5444 8763.7471 3818843
6272.2603 -4278.8481 8639.1797 4279391
6404.9072 -4333.8481 8750.2275 4147805
6459.3711 -4335.4868 8753.5361 3884889
6511.4131 -4335.4868 8753.5361 4082268
6563.4551 -4335.4868 8753.5361 3950939
6652.4575 -4359.709 8802.4414 2897993
7204.2666 -4684.4878 9458.1836 6516862
7507.3794 -4843.7759 9779.793 8490138
7635.1934 -4888.3818 9869.8545 5989235
7692.2544 -4887.353 9867.7783 3554384
7677.4204 -4841.0073 9774.2041 3224905
7754.2847 -4852.7437 9797.9004 4013651
8051.3828 -5001.1035 10097.444 4606817
8177.3901 -5041.7803 10179.573 4014936
8516.0615 -5212.0146 10523.284 9013663
8578.626 -5212.0146 10523.284 11183289
7955.3638 -4798.3525 9688.082 13618647
7605.2734 -4554.2192 9195.166 8215956
7659.9414 -4554.2192 9195.166 4012120
7514.835 -4436.2852 8957.0518 3951712
6940.1953 -4068.2258 8213.9238 3490907
6579.8247 -3830.0327 7733.002 2767436
6806.7231 -3934.6152 7944.1587 2898254
6741.1133 -3869.8374 7813.3696 2898766
6787.5659 -3869.8374 7813.3696 3161938
6833.835 -3869.7336 7813.1602 3622746
6483.1016 -3646.342 7362.1226 2240836
6526.8716 -3646.342 7362.1226 2306886
6525.8467 -3621.4834 7311.9316 2240836
6610.0703 -3643.9487 7357.2905 2635338
6721.5947 -3681.0703 7432.2407 2636105
6797.186 -3698.1567 7466.7388 3622486
7165.0698 -3873.0171 7819.7896 3819865
7091.2441 -3808.4004 7689.3257 2832457
7136.959 -3808.4004 7689.3257 2700874
7244.7388 -3841.3083 7755.7681 2832459
7072.4629 -3726.2478 7523.4561 3753817
7108.3945 -3721.6421 7514.1567 3951708
7185.0449 -3738.2791 7547.7476 3754329
7502.9092 -3879.4309 7832.7393 3754842
8674.9922 -4457.7964 9000.4844 4017755
9058.8525 -4626.5117 9341.1279 4017757
0 0 0 0
0 0 0 0
0 0 0 0
0 0 0 0
0 0 0 0
0 0 0 0
0 0 0 0
0 0 0 0
-4227.6704 -2353.0059 4808.5415 3029539
-4169.0664 -2336.186 4774.1689 2963237
-3996.1804 -2254.6577 4607.5596 1646614
-3862.6697 -2194.3726 4484.3623 768
-3976.5151 -2274.7483 4648.6167 512
-3948.8777 -2274.7483 4648.6167 0
-3770.4658 -2187.2827 4469.874 258
-3711.4365 -2168.3218 4431.126 258
-3608.2166 -2123.0879 4338.687 258
-3516.283 -2083.8911 4258.5859 258
-3460.3987 -2065.6455 4221.2993 258
-3466.5334 -2084.4248 4259.6763 258
-3459.6128 -2095.5728 4282.458 258
-3417.1152 -2085.1765 4261.2124 258
-3362.6187 -2067.248 4224.5742 258
-3268.7266 -2024.6486 4137.519 258
-3242.5276 -2023.6498 4135.478 258
-3189.7805 -2005.9404 4099.2876 258
-3120.832 -1977.6917 4041.5591 2
-3083.3967 -1969.1296 4024.0623 257
-3066.7332 -1973.8027 4033.6118 512
-3053.5391 -1980.8 4047.9114 512
-3038.0068 -1986.3799 4059.3142 512
-3067.2559 -2021.5631 4131.2139 512
-3061.2463 -2033.8888 4156.4023 512
-3013.8647 -2018.704 4125.3711 512
-2973.1252 -2007.7554 4102.9966 768
-2913.7666 -1983.9481 4054.3445 768
-2882.749 -1979.2015 4044.6445 512
-2844.168 -1969.1388 4024.0806 512
-2718.3137 -1897.9695 3878.6411 512
-2686.1565 -1891.5631 3865.5491 66562
-2672.1946 -1897.9695 3878.6411 257
-2653.7629 -1901.2853 3885.417 0
-2759.8962 -1994.6874 4076.291 258
-2818.3877 -2055.0063 4199.5576 2
-2812.4829 -2069.0303 4228.2163 2
-2785.5491 -2067.697 4225.4917 2
-2721.4465 -2038.4984 4165.8223 256
-2685.4897 -2030.0398 4148.5366 256
-2661.6047 -2030.6342 4149.751 512
-2619.8127 -2017.4501 4122.8086 66820
-2594.8149 -2017.0719 4122.0356 256
-2570.7903 -2017.4501 4122.8086 512
-2561.5989 -2029.5884 4147.6138 512
-2538.9958 -2031.2329 4150.9746 512
-2508.2529 -2026.3339 4140.9629 768
-2457.3508 -2004.89 4097.1411 768
-2389.3247 -1968.9061 4023.6055 1792
-2293.0615 -1908.6907 3900.5505 68354
-2146.3391 -1804.8147 3688.2722 332036
-2124.4114 -1804.8147 3688.2722 726026
-2115.7029 -1816.1624 3711.4622 992521
-2136.7979 -1853.6029 3787.9746 202752
-2172.3096 -1904.4803 3891.9463 2308892
-2169.9148 -1922.8624 3929.5115 1125128
-2160.6492 -1935.4899 3955.3167 1520395
-2138.4968 -1936.7244 3957.8396 2376469
-2239.7358 -2050.9785 4191.3262 4482101
-2304.3435 -2133.8823 4360.7461 2046484
-2269.105 -2125.1604 4342.9224 3428649
-2250.5232 -2132.0173 4356.9351 993034
-2260.5483 -2166.45 4427.3008 859914
-2283.0562 -2213.7983 4524.0605 1714455
-2259.3997 -2216.9778 4530.5581 989967
-2291.3892 -2275.4939 4650.1401 659723
-2200.2244 -2211.6458 4519.6616 198659
-2149.9407 -2187.8201 4470.9722 1024
-2170.7598 -2236.6594 4570.7788 512
-2395.9927 -2500.0264 5108.9888 256
-2454.9316 -2594.4143 5301.8774 256
-2299.3787 -2461.6301 5030.5234 513
-2269.4709 -2461.6301 5030.5234 66820
-2312.3921 -2541.6809 5194.1128 1027
-2398.8274 -2672.3745 5461.1948 198406
-2326.207 -2627.03 5368.5303 329735
-2291.4045 -2623.7268 5361.7798 658957
-2262.3721 -2627.03 5368.5303 395785
-2244.4958 -2643.5679 5402.3262 264199
-2212.3777 -2643.5679 5402.3262 198148
-2140.3032 -2595.1211 5303.3218 132356
-2135.6646 -2628.2139 5370.9497 198917
-2070.9224 -2587.2234 5287.1826 593418
-2033.6157 -2579.7734 5271.958 593675
-1938.2332 -2497.2639 5103.3433 462089
-1999.8413 -2617.6169 5349.2939 198917
-1968.0383 -2617.6169 5349.2939 1281
-1925.9502 -2603.7126 5320.8789 1281
-1879.2032 -2582.9402 5278.4292 462089
-1823.6346 -2549.1309 5209.3374 264710
-1792.6636 -2549.1309 5209.3374 593931
-1883.1593 -2724.8904 5568.5151 1054226
-1851.4203 -2726.9043 5572.6304 1514777
-1818.2893 -2726.9043 5572.6304 256
-1942.4475 -2967.1697 6063.6309 1025
-1979.1478 -3080.4004 6295.0259 256
-1948.2904 -3090.8203 6316.3198 256
-1926.0123 -3115.5281 6366.812 0
-1894.6482 -3126.2339 6388.6899 512
-1856.6656 -3126.2339 6388.6899 132867
0 0 0 0
0 0 0 0
-1519.3937 -2725.6157 5569.9976 462089
-1538.6761 -2821.7056 5766.3638 133124
-1554.8258 -2916.2986 5959.6719 264453
-1405.0603 -2696.8486 5511.2095 462089
-1308.1959 -2570.8811 5253.7856 265223
-1223.7616 -2463.7764 5034.9092 659980
-1236.0513 -2550.9158 5212.9854 512
-1205.0587 -2550.9158 5212.9854 1280
-1170.3385 -2542.8174 5196.4351 69892
-1139.4442 -2542.8174 5196.4351 2241829
-1108.55 -2542.8174 5196.4351 3426357
-1088.3262 -2567.9949 5247.8877 3163181
-1044.3495 -2536.9578 5184.4609 1451536
-1032.6127 -2584.7324 5282.0918 2306589
-1015.9102 -2622.6851 5359.6509 2570276
-982.40179 -2618.304 5350.6978 3688246
-927.84143 -2555.6443 5222.6479 5201234
-896.79138 -2555.6443 5222.6479 2042657
-856.35675 -2527.9417 5166.0356 1025
-795.7002 -2436.2622 4978.6821 1252371
-766.10052 -2436.2622 4978.6821 2240547
-727.15222 -2405.3379 4915.4858 661515
-683.17755 -2354.5012 4811.5972 1254166
-639.24341 -2299.3665 4698.9253 1188375
-611.30695 -2299.3665 4698.9253 2175527
-610.94843 -2408.0652 4921.0591 266762
-559.58435 -2316.5476 4734.0361 596492
-531.43921 -2316.5476 4734.0361 2703402
-488.34213 -2247.7273 4593.397 3098927
-461.99094 -2252.3972 4602.9399 2699814
-493.66837 -2558.3821 5228.2427 266246
-499.03934 -2759.9971 5640.2578 67074
-478.74326 -2838.4783 5800.6401 133126
-444.37671 -2839.2441 5802.2056 1796
-401.70737 -2782.6255 5686.501 331275
-367.89954 -2782.6255 5686.501 397581
-334.09167 -2782.6255 5686.501 397836
-297.43527 -2756.2285 5632.5566 1713439
-258.24896 -2696.7156 5510.938 1713441
-232.17178 -2776.6885 5674.3682 330761
-202.95326 -2839.8967 5803.5391 198921
-185.7691 -3131.8867 6400.2422 527885
-155.88321 -3305.0063 6754.0249 5001552
-112.05323 -3200.0427 6539.5239 1909281
-71.254448 -3116.0996 6367.98 659471
-33.167198 -3094.8401 6324.5347 856595
4.3322029 -3023.8418 6179.4443 66308
43.275249 -3186.1511 6511.1353 329737
77.586182 -3015.1731 6161.7295 659986
110.96212 -2929.188 5986.0122 133896
150.71829 -3012.4893 6156.2446 3292730
189.10985 -3041.292 6215.105 5464926
234.71852 -3157.7739 6453.1445 1780773
265.3851 -3068.7456 6271.2085 1714466
296.85934 -3009.8401 6150.8306 2504494
337.30838 -3044.8704 6222.418 3360571
356.07364 -2896.5835 5919.3823 2637361
410.77264 -3040.9934 6214.4946 4085064
438.50357 -2978.3967 6086.5737 4545614
474.68997 -2978.3967 6086.5737 3952965
508.40289 -2963.9763 6057.105 3492412
559.61133 -3046.7156 6226.1885 3360312
596.62775 -3046.7156 6226.1885 3689536
595.34564 -2862.5669 5849.8672 4413260
622.38531 -2827.408 5778.0171 5598047
661.52203 -2848.0073 5820.1138 6453355
696.12421 -2848.0073 5820.1138 7308664
740.034 -2884.2837 5894.2471 5268568
786.24298 -2925.8357 5979.1616 7176565
821.79077 -2925.8357 5979.1616 5992037
886.43097 -3025.1194 6182.0552 4544078
1052.7446 -3449.6641 7049.644 4544337
1111.4978 -3502.7361 7158.1006 5530977
1197.8372 -3635.623 7429.665 2110000
1334.8177 -3907.2952 7984.8467 2109745
1543.1792 -4362.0781 8914.2295 5661799
1702.2783 -4652.0356 9506.7793 923678
1785.0011 -4721.3408 9648.4092 1845039
1938.1381 -4966.7778 10149.979 2239798
2023.3505 -5028.5815 10276.278 3227207
2082.8264 -5024.6748 10268.295 2832450
2143.8743 -5024.6748 10268.295 1977143
2157.9102 -4917.542 10049.36 1581614
2206.7925 -4893.4517 10000.13 1515821
2247.0928 -4852.0947 9915.6143 1251623
2384.7947 -5017.7925 10254.229 2831424
2497.0657 -5123.0547 10469.342 2700611
2676.1238 -5356.8872 10947.195 2898503
2801.5061 -5474.7227 11188 2175296
2856.1992 -5452.1548 11141.881 3425872
2906.1094 -5421.6865 11079.617 4610145
2946.6147 -5375.4121 10985.052 5268072
2967.7944 -5296.6538 10824.104 6518138
2986.4265 -5216.7876 10660.892 7241345
3049.8086 -5216.7876 10660.892 7109246
3319.1306 -5561.8828 11366.119 5596008
3545.2842 -5822.312 11898.325 6714743
3470.5505 -5588.0806 11419.656 7898510
4137.7314 -6534.5044 13353.743 3950939
4657.4927 -7216.8647 14748.197 3885917
4752.0327 -7227.2949 14769.512 3688543
4283.8232 -6396.9976 13072.737 4214889
4361.5444 -6396.9976 13072.737 3623266
4244.1958 -6115.9014 12498.296 3754595
4094.3838 -5798.5034 11849.671 4477802
5265.1338 -7330.4009 14980.217 8814742
5096.6357 -6977.7769 14259.604 13553108
4963.5356 -6684.3633 13659.99 13488082
4130.9766 -5473.6025 11185.712 13225170
4186.4019 -5459.1587 11156.194 13422035
4113.4873 -5280.4165 10790.922 9540505
4131.146 -5221.646 10670.82 12961999
4180.6099 -5204.2476 10635.265 13029074
4147.1777 -5085.71 10393.024 6648198
4252.4351 -5138.2329 10500.358 6846605
4314.8628 -5138.2329 10500.358 7044757
4377.2905 -5138.2329 10500.358 7373718
4413.1758 -5107.5146 10437.584 5924215
4563.7085 -5208.4937 10643.942 13489109
4638.9238 -5221.9277 10671.396 13357525
4702.3682 -5221.9277 10671.396 7962514
4765.813 -5221.9277 10671.396 12108749
4586.8638 -4959.8257 10135.771 6319238
4538.9448 -4844.3672 9899.8223 4872817
4616.3613 -4863.9214 9939.7832 4543852
4589.2832 -4774.2754 9756.585 6190731
4647.2891 -4774.2754 9756.585 9939135
4705.2944 -4774.2754 9756.585 5004659
4807.1709 -4818.2471 9846.4443 4346729
4762.9912 -4716.5298 9638.5771 5135731
4887.0156 -4781.814 9771.9902 4609386
4661.0342 -4507.1162 9210.625 4412264
4986.998 -4766.3188 9740.3252 4675177
4605.0674 -4350.7681 8891.1162 4214626
4493.2261 -4196.9272 8576.7314 3951965
4387.8062 -4052.47 8281.5225 4544102
4437.042 -4052.47 8281.5225 4477796
4812.0488 -4346.7402 8882.8848 4017246
4990.4702 -4458.9727 9112.2402 2767181
5065.8652 -4477.729 9150.5703 4083040
4902.6509 -4287.4209 8761.6611 3753563
4885.9849 -4227.9243 8640.0762 3753561
5077.6509 -4348.0635 8885.5898 2898509
5268.313 -4464.8789 9124.3096 3227731
5227.4028 -4385.0552 8961.1846 5135214
5376.8062 -4464.8789 9124.3096 3754330
5333.9561 -4385.0552 8961.1846 3425364
5070.8521 -4127.5303 8434.9131 3688536
5120.9995 -4127.5303 8434.9131 4741225
5538.2329 -4420.5317 9033.6836 5267568
5777.6421 -4567.332 9333.6807 5463923
5833.1333 -4567.332 9333.6807 8356763
6154.9893 -4773.9302 9755.8789 10788025
6023.9927 -4628.7075 9459.1064 9930145
5565.9683 -4237.2148 8659.0615 4673894
5617.4487 -4237.2148 8659.0615 4083809
5668.9287 -4237.2148 8659.0615 4279905
6034.8516 -4470.1279 9135.0371 4214627
6544.6113 -4804.4785 9818.3076 4082784
6642.3823 -4833.1455 9876.8906 5068907
7060.9141 -5092.6582 10407.224 9409701
7122.7876 -5092.6582 10407.224 13488595
6106.168 -4328.1963 8844.9893 13422548
5043.0625 -3544.1201 7242.6714 13619669
6436.8066 -4485.3066 9166.0557 10065320
6895.1079 -4764.3252 9736.251 3488345
6952.9927 -4764.3252 9736.251 3160659
6523.7939 -4433.3218 9059.8213 3950430
6362.7002 -4288.4414 8763.7471 4476517
6545.9395 -4376.1094 8942.9033 5923703
6599.1074 -4376.1094 8942.9033 5923704
6537.1406 -4300.3696 8788.123 5002344
7374.4658 -4812.7275 9835.1641 5857138
7276.1714 -4711.2222 9627.7305 5593966
7333.4102 -4711.2222 9627.7305 4080983
7541.9224 -4807.6514 9824.791 5396843
7746.5283 -4900.1279 10013.774 4804962
7753.8125 -4867.3291 9946.7471 4146776
7696.0337 -4794.4927 9797.9004 3685969
7861.5156 -4860.7939 9933.3926 4015191
8012.355 -4917.1206 10048.499 4344160
8177.3901 -4981.2598 10179.573 3753562
8516.0615 -5149.4512 10523.284 7900063
8060.2212 -4838.271 9887.3643 13752024
7894.5195 -4704.4966 9613.9863 13357015
7605.2734 -4499.5513 9195.166 13291736
7621.2271 -4476.8101 9148.6924 2633290
7673.1768 -4475.3857 9145.7822 3621209
6845.7734 -3964.707 8102.1719 3160914
6768.3398 -3892.4727 7954.5557 3161170
6768.5439 -3865.5806 7899.6001 3293010
6741.1133 -3823.3848 7813.3696 3030353
6787.5659 -3823.3848 7813.3696 2438215
6857.6963 -3836.6323 7840.4414 2635080
6814.3174 -3786.6243 7738.2466 2503494
6678.4775 -3686.2527 7533.1299 2437958
6723.2642 -3686.2527 7533.1299 2437701
6842.4058 -3726.7505 7615.8901 2503751
6653.8115 -3600.2075 7357.2905 3293009
6797.186 -3653.7649 7466.7388 3095630
7165.0698 -3826.5264 7819.7896 2042943
7091.2441 -3762.6853 7689.3257 1911356
7136.959 -3762.6853 7689.3257 2766663
7244.7388 -3795.1982 7755.7681 3227472
7095.2979 -3693.4058 7547.7476 3754328
7299.6958 -3775.9231 7716.3779 3425363
7456.3413 -3832.863 7832.7393 3162961
7511.2578 -3837.1279 7841.4551 3754327
7825.3848 -3972.9412 8118.999 3951449
9410.002 -4748.1621 9703.2197 2766663
0 0 0 0
0 0 0 0
0 0 0 0
0 0 0 0
0 0 0 0
0 0 0 0
0 0 0 0
-4483.3164 -2448.4182 5065.062 527621
-4448.4019 -2445.7783 5059.6011 1845783
-4418.3213 -2445.7783 5059.6011 1187600
-4388.2402 -2445.7783 5059.6011 396294
-3980.6685 -2233.9321 4621.353 1024
-4051.4883 -2289.4783 4736.2617 1280
-3951.2014 -2248.4336 4651.3521 512
-3862.3088 -2213.3396 4578.7534 258
-3720.8428 -2147.406 4442.356 258
-3618.4094 -2103.2178 4350.9434 258
-3545.7219 -2075.8076 4294.2397 258
-3451.8713 -2035.52 4210.8965 258
-3430.5237 -2037.7103 4215.4277 258
-3422.3745 -2047.8303 4236.3628 258
-3402.1633 -2050.8293 4242.5669 258
-3364.709 -2043.4015 4227.2007 258
-3288.21 -2011.9712 4162.1807 258
-3243.626 -1999.7405 4136.8789 258
-3218.103 -1999.1637 4135.686 258
-3156.0532 -1975.7123 4087.1716 258
-3099.4832 -1955.3539 4045.0562 258
-3065.8374 -1949.2522 4032.4336 258
-3053.563 -1956.7494 4047.9431 258
-3038.0068 -1962.2462 4059.3142 256
-3067.2559 -1997.002 4131.2139 512
-3077.8682 -2020.0874 4178.9707 512
-3013.8647 -1994.1777 4125.3711 512
-2973.1252 -1983.3619 4102.9966 512
-2913.7666 -1959.8439 4054.3445 512
-2876.03 -1950.5979 4035.2175 768
-2844.168 -1945.2145 4024.0806 512
-2804.2656 -1934.194 4001.2822 512
-2686.1565 -1868.5813 3865.5491 1280
-2663.1748 -1868.5813 3865.5491 1383190
-2640.1929 -1868.5813 3865.5491 67074
-2641.3901 -1885.8441 3901.2607 256
-2801.9241 -2018.1804 4175.0259 257
-2812.4829 -2043.8923 4228.2163 2
-2789.6313 -2045.5687 4231.6841 2
-2760.3376 -2042.5089 4225.3545 256
-2706.6487 -2021.1759 4181.2227 256
-2665.533 -2008.9235 4155.876 256
-2619.5139 -1992.7117 4122.3384 514
-2582.2039 -1982.8811 4102.002 256
-2557.8164 -1982.8811 4102.002 256
-2547.7349 -1994.0784 4125.1655 512
-2532.8721 -2001.7146 4140.9629 512
-2496.8005 -1992.575 4122.0557 512
-2462.9734 -1985.0632 4106.5161 512
-2409.3015 -1961.2466 4057.2463 512
-2346.5403 -1929.4745 3991.519 1024
-2199.0039 -1826.6334 3778.7712 2561
-2172.1018 -1822.9106 3771.0696 1280
-2149.6819 -1822.9106 3771.0696 2560
-2136.7979 -1831.0824 3787.9746 597254
-2122.1577 -1837.9072 3802.093 1453327
-2138.6748 -1872.1537 3872.939 1586445
-2120.7788 -1876.6927 3882.3291 2639642
-2138.4968 -1913.194 3957.8396 2574359
-2127.5596 -1924.5856 3981.4058 4022058
-2194.6865 -2007.6449 4153.231 2640405
-2246.405 -2078.3389 4299.4761 3034141
-2243.2852 -2099.3406 4342.9224 1519635
-2266.2148 -2145.4932 4438.3989 596998
-2245.8328 -2151.2458 4450.2993 463364
-2259.3997 -2190.0425 4530.5581 199682
-2321.9937 -2277.8704 4712.2485 199170
-2263.7429 -2247.8474 4650.1401 133378
-2127.5454 -2138.7261 4424.3994 769
-2101.241 -2138.7261 4424.3994 66306
-2302.4431 -2373.2266 4909.5127 132613
-2405.4233 -2511.2075 5194.9551 513
-2371.334 -2507.8191 5187.9453 513
-2337.7507 -2504.8838 5181.873 132356
-2420.7151 -2628.4177 5437.4287 855822
-2470.6423 -2718.9385 5624.6899 263942
-2378.1304 -2653.0383 5488.3613 132355
-2313.125 -2616.4175 5412.604 66305
-2276.6143 -2611.4495 5402.3262 67073
-2220.1938 -2583.1743 5343.833 1282
-2131.5137 -2515.999 5204.8672 1185812
-2100.5691 -2515.999 5204.8672 725261
-2074.2441 -2521.6147 5216.4844 397066
-2064.959 -2548.4304 5271.958 199686
-2033.6157 -2548.4304 5271.958 1976611
-1956.3003 -2489.9185 5150.9141 726544
-1880.5027 -2431.5078 5030.0796 1054995
-1930.792 -2536.876 5248.0552 512
-1899.5907 -2536.876 5248.0552 513
-1850.5719 -2512.6831 5198.0073 527882
-1798.7102 -2483.7432 5138.1392 330759
-1916.2657 -2691.7839 5568.5151 2765101
-2090.5388 -2988.2119 6181.7378 592906
-2015.3602 -2932.3022 6066.0771 1251861
-1979.2958 -2932.3022 6066.0771 527882
-1943.2311 -2932.3022 6066.0771 1024
-1961.0863 -3015.2046 6237.5776 197633
-1948.2904 -3053.2681 6316.3198 256
-1926.0123 -3077.6758 6366.812 256
-1888.1598 -3077.6758 6366.812 256
-1825.0531 -3035.6692 6279.9131 263683
-1328.8967 -2256.5598 4668.1636 133122
-1301.1433 -2256.5598 4668.1636 264451
-1359.9893 -2410.022 4985.6318 461314
-1523.9591 -2760.762 5711.2104 66306
-1490.0044 -2760.762 5711.2104 1054225
-1408.4827 -2670.5718 5524.6333 396296
-1308.1959 -2539.6458 5253.7856 1025
-1266.0474 -2517.9414 5208.8853 1025
-1235.0791 -2517.9414 5208.8853 66818
-1179.2151 -2465.8816 5101.1885 1024
-1172.2733 -2516.0757 5205.0259 2562
-1148.7371 -2532.4092 5238.8149 1280
-1110.3827 -2516.0757 5205.0259 2305
-1088.3262 -2536.7949 5247.8877 1536
-1056.8154 -2536.0493 5246.3452 791821
-1029.4988 -2545.6296 5266.1641 8757109
-998.19 -2545.6296 5266.1641 4218957
-941.27606 -2478.2158 5126.7046 3957579
-883.5882 -2404.1841 4973.5547 5469533
-880.31671 -2478.2158 5126.7046 3824450
-839.27295 -2447.4099 5062.9761 2638128
-795.7002 -2406.6626 4978.6821 2308136
-766.10052 -2406.6626 4978.6821 1254937
-736.50092 -2406.6626 4978.6821 1780510
-706.04858 -2403.7595 4972.6768 1254424
-671.14954 -2384.8025 4933.46 1188118
-656.3313 -2438.7268 5045.0137 134661
-626.33734 -2438.7268 5045.0137 332810
-594.01782 -2429.217 5025.3403 1517084
-553.15826 -2381.9255 4927.5083 1056534
-513.27881 -2333.8018 4827.9541 793105
-517.74841 -2493.5693 5158.4668 265736
-504.23196 -2581.3779 5340.1172 463371
-505.78763 -2763.3328 5716.5283 396552
-483.32889 -2830.8499 5856.2017 67333
-449.98331 -2840.1355 5875.4106 67589
-409.18796 -2800.0061 5792.395 331275
-371.82016 -2778.1113 5747.1011 67846
-335.53461 -2760.6897 5711.0605 67846
-301.58078 -2760.6897 5711.0605 396811
-283.2587 -2921.9382 6044.6367 725263
-247.32166 -2921.9382 6044.6367 856848
-220.70369 -3050.7546 6311.1206 658959
-193.02127 -3214.6143 6650.0981 264457
-158.33945 -3316.2959 6860.4478 2962227
-115.72865 -3264.8518 6754.0249 396557
-73.173935 -3161.1636 6539.5239 791058
-33.331192 -3072.3555 6355.8062 264714
4.4558444 -3072.3555 6355.8062 198920
43.275249 -3147.4404 6511.1353 2108713
77.586182 -2978.54 6161.7295 3096378
110.96212 -2893.5994 5986.0122 2109994
154.24503 -3045.5232 6300.2979 1913129
187.31888 -2975.8887 6156.2446 3492674
224.2746 -2980.6084 6166.0083 1847592
260.93323 -2980.6084 6166.0083 3295039
294.47397 -2949.3801 6101.4062 3886405
333.42773 -2973.2715 6150.8306 3097146
358.74551 -2882.8621 5963.7998 1518368
410.77264 -3004.0464 6214.4946 3755074
438.50357 -2942.2102 6086.5737 3557694
474.68997 -2942.2102 6086.5737 3229241
503.52426 -2899.8684 5998.981 3492414
539.18988 -2899.8684 5998.981 4873811
574.85547 -2899.8684 5998.981 3097400
598.2218 -2841.4492 5878.1284 3032120
630.12469 -2827.7878 5849.8672 4215881
669.38629 -2846.8513 5889.3042 4742480
704.99103 -2849.2407 5894.2471 5728606
740.034 -2849.2407 5894.2471 7702650
786.24298 -2890.2878 5979.1616 5334102
847.0033 -2978.9622 6162.6025 4016961
978.02698 -3297.157 6820.8545 4938066
1061.9908 -3437.6821 7111.5605 793110
1146.2571 -3568.3879 7381.9526 6056297
1197.8372 -3591.4519 7429.665 2568497
1475.5367 -4266.7324 8826.624 2173740
1546.0496 -4317.0957 8930.8105 5003098
1709.65 -4615.416 9547.9482 5200223
1811.01 -4731.9365 9788.9951 1516075
1934.9806 -4898.4404 10133.442 1450539
2016.3473 -4950.2935 10240.711 2240055
2081.6021 -4960.7095 10262.259 2766400
2143.8743 -4963.627 10268.295 2305335
2204.9221 -4963.627 10268.295 2238773
2206.7925 -4833.998 10000.13 1383976
2220.0906 -4735.5474 9796.4639 6515830
2423.9299 -5038.1714 10422.505 2634302
2485.8945 -5038.1714 10422.505 2896964
2559.3088 -5060.812 10469.342 2305853
2791.1021 -5388.1221 11146.451 2636104
2840.238 -5355.8149 11079.617 2964811
2906.1094 -5355.8149 11079.617 3425873
2946.6147 -5310.1025 10985.052 4215899
2967.7944 -5232.3013 10824.104 4741986
2986.3752 -5153.3174 10660.709 5926258
3107.2891 -5250.5337 10861.82 7504775
3319.1306 -5494.3081 11366.119 4411477
3545.2842 -5751.5732 11898.325 6451062
3470.5505 -5520.1875 11419.656 4148310
4022.2747 -6274.9937 12981.129 3556694
4099.4512 -6274.9937 12981.129 3688026
3999.0383 -6008.1821 12429.175 3556956
4072.9333 -6008.1821 12429.175 3754080
4155.7007 -6021.0376 12455.769 3753823
4321.4434 -6151.5571 12725.775 4147040
4397.1021 -6151.5571 12725.775 5724785
5341.4106 -7346.2451 15197.236 7894922
5185.0918 -7012.6333 14507.09 13554394
5181.4131 -6892.9995 14259.604 6187382
4611.0132 -6035.4282 12485.539 6188153
4096.7061 -5277.2871 10917.166 6649217
4067.7048 -5158.2051 10670.82 7702164
4075.0164 -5088.1211 10525.837 8294045
4000.8479 -4919.959 10177.958 7504790
4093.1636 -4958.4878 10257.663 6649229
4154.1484 -4958.4878 10257.663 6386057
4215.1328 -4958.4878 10257.663 6846352
4233.103 -4908.6089 10154.479 6386310
4206.1514 -4808.7754 9947.9512 9806253
4497.7046 -5070.7983 10490.001 13357267
4729.8105 -5259.5498 10880.473 13357525
4786.9004 -5251.2148 10863.229 9869747
4851.4849 -5251.2148 10863.229 6386054
4586.8638 -4899.5654 10135.771 5596539
4557.2661 -4804.8267 9939.7832 5859969
4723.9966 -4916.8564 10171.54 5530490
4784.4692 -4916.8564 10171.54 6649228
4647.2891 -4716.27 9756.585 5530747
4705.2944 -4716.27 9756.585 4807022
4798.8677 -4751.4863 9829.4375 3886434
4527.7192 -4429.0791 9162.4717 4675436
4606.2744 -4452.3564 9210.625 9017512
4661.0342 -4452.3564 9210.625 4542563
4738.1655 -4473.478 9254.3193 4675176
4532.9297 -4230.5815 8751.8379 3886431
4338.5703 -4003.2341 8281.5225 3820379
4348.3999 -3967.282 8207.1475 4280930
4397.1938 -3967.282 8207.1475 4938605
4494.7388 -4010.7839 8297.1406 3885662
4600.3774 -4060.4851 8399.958 2897996
4887.6416 -4267.708 8828.6416 2831436
4902.6509 -4235.3301 8761.6611 5068654
5342.875 -4567.1084 9448.0127 3687000
5261.6436 -4450.8779 9207.5664 2766926
5316.3848 -4450.8779 9207.5664 4149088
5322.5596 -4410.6323 9124.3096 5069163
5642.7036 -4628.7495 9575.5312 4214367
5560.4614 -4515.7271 9341.7197 4543075
5616.0005 -4515.7271 9341.7197 5858166
5649.9805 -4498.561 9306.209 4279388
5722.1504 -4511.8403 9333.6807 3357260
6084.457 -4751.4365 9829.335 6055029
6577.1929 -5087.3599 10524.262 13423063
6389.0005 -4895.2271 10126.795 13619928
5972.665 -4533.5107 9378.5098 12697547
5598.7256 -4210.3687 8710.0234 4937837
5650.5093 -4210.3687 8710.0234 3753560
5702.293 -4210.3687 8710.0234 4410979
6034.8516 -4415.8174 9135.0371 8883620
6447.7822 -4675.8862 9673.043 2435904
6621.7959 -4759.6279 9846.2803 3686739
6701.103 -4774.4248 9876.8906 14015200
0 0 0 0
0 0 0 0
0 0 0 0
5086.1216 -3501.0603 7242.6714 4542049
7044.144 -4808.1694 9946.6982 3554642
7140.1636 -4833.1357 9998.3457 3225934
7010.8774 -4706.4404 9736.251 5727092
6584.9746 -4384.3311 9069.9004 11844287
7153.1157 -4723.9214 9772.4131 3681098
7371.6211 -4828.999 9989.7891 5134449
7454.312 -4844.1396 10021.11 5200493
7513.8901 -4844.1396 10021.11 4936550
7432.9395 -4754.2544 9835.1641 4015701
7415.3442 -4705.98 9735.2979 3818325
7541.9224 -4749.2402 9824.791 3949398
7694.6763 -4808.1929 9946.7471 3752019
7981.9023 -4949.6328 10239.345 3949398
7749.7207 -4769.2817 9866.251 4146521
7808.3784 -4769.2817 9866.251 3553871
7812.5356 -4736.2412 9797.9004 3685972
8072.0962 -4857.3794 10048.499 3488592
8451.9873 -5048.6143 10444.108 4541274
8198.7031 -4861.604 10057.238 3356233
7894.5195 -4647.3384 9613.9863 9211813
7605.2734 -4444.8838 9195.166 4080991
7621.2271 -4422.4185 9148.6924 3555160
7641.8521 -4402.9634 9108.4453 3226961
6721.0474 -3845.1804 7954.5557 3029582
6884.543 -3911.1973 8091.125 2832974
6879.084 -3880.9785 8028.6108 3161424
6926.8154 -3880.9785 8028.6108 3095889
6928.1123 -3855.1392 7975.1572 2964045
7004.3628 -3871.0754 8008.125 2569287
6860.3843 -3765.9058 7790.5596 2437701
6906.7012 -3765.9058 7790.5596 1977150
6797.1274 -3681.4719 7615.8901 2832203
6914.0835 -3720.0371 7695.6704 2305602
6752.7944 -3609.3728 7466.7388 2305602
6797.186 -3609.3728 7466.7388 1647672
6901.855 -3641.1731 7532.5234 2108736
6795.8364 -3562.1284 7369.0034 2240579
6839.6475 -3562.1284 7369.0034 3161421
7356.5264 -3806.937 7875.4409 3424594
7489.3267 -3851.1487 7966.9019 3358802
7354.6445 -3758.125 7774.4629 2832971
7584.0571 -3851.1487 7966.9019 2832971
7511.2578 -3790.5085 7841.4551 3029836
7606.4053 -3814.8464 7891.8037 3819352
8552.1436 -4262.8687 8818.6299 4148061
0 0 0 0
0 0 0 0
0 0 0 0
0 0 0 0
0 0 0 0
0 0 0 0
-4513.4292 -2418.3049 5065.062 133891
-4651.2471 -2508.8867 5254.7827 1515799
-4561.0405 -2476.866 5187.7163 2042396
-4635.0273 -2534.1809 5307.7603 726280
-4388.2402 -2415.6975 5059.6011 1024
-4247.2188 -2354.2036 4930.8042 768
-4051.4883 -2261.3198 4736.2617 256
-4023.3301 -2261.3198 4736.2617 512
-3991.7383 -2259.3765 4732.1914 512
-3843.6826 -2191.0176 4589.0161 256
-3695.8723 -2121.822 4444.0884 258
-3593.1951 -2077.7278 4351.7344 258
-3480.9854 -2027.4423 4246.4126 258
-3449.0532 -2023.5195 4238.1968 258
-3431.5764 -2028.0823 4247.7534 258
-3415.488 -2033.5396 4259.1831 258
-3382.1946 -2028.7581 4249.1685 258
-3315.7268 -2003.8557 4197.0112 258
-3293.4292 -2005.4724 4200.3975 2
-3265.822 -2003.8557 4197.0112 2
-3226.2188 -1994.797 4178.0381 258
-3176.6479 -1979.3868 4145.7622 258
-3080.0623 -1934.2114 4051.1436 258
-3036.9595 -1922.1744 4025.9326 256
-3029.4968 -1932.6832 4047.9431 256
-3100.729 -1993.9663 4176.2983 512
-3107.9673 -2014.7542 4219.8379 512
-3038.6392 -1985.8419 4159.2822 512
-2986.707 -1967.9174 4121.7397 512
-2907.3945 -1931.5063 4045.478 512
-2870.1489 -1922.6678 4026.9661 1024
-2839.1284 -1917.8859 4016.9502 512
-2680.5989 -1826.1572 3824.8276 512
-2655.6497 -1824.639 3821.6477 512
-2615.8848 -1812.8271 3796.9084 512
-2710.4729 -1894.728 3968.447 1538
-2737.2722 -1930.2639 4042.876 0
-2787.4614 -1983.0695 4153.4756 256
-2821.5178 -2025.2394 4241.7988 256
-2829.9038 -2049.5779 4292.7749 256
-2801.0159 -2047.1177 4287.6221 256
-2749.6013 -2027.9974 4247.5757 256
-2714.2429 -2020.4751 4231.8203 256
-2674.3638 -2009.4153 4208.6558 256
-2597.6592 -1970.2158 4126.5537 264456
-2504.4785 -1917.6534 4016.4634 133126
-2501.4912 -1933.8042 4050.2905 512
-2588.6396 -2020.6262 4232.1367 512
-2498.9873 -1969.792 4125.666 512
-2462.9734 -1960.6489 4106.5161 768
-2438.5593 -1960.6489 4106.5161 512
-2435.041 -1977.6198 4142.061 768
-2346.0808 -1924.8367 4031.5085 1536
-2262.5779 -1875.4874 3928.1484 2304
-2219.1296 -1858.6575 3892.8984 1280
-2195.9856 -1858.6575 3892.8984 136448
-2139.4392 -1830.0854 3833.0552 794629
-2116.6506 -1830.0854 3833.0552 2243355
-2196.2524 -1919.5771 4020.4924 202240
-2136.3655 -1887.78 3953.8948 1388810
-2128.2126 -1901.4987 3982.6279 862724
-2089.3516 -1887.78 3953.8948 2113556
-2222.2859 -2030.7371 4253.3135 1849107
-2231.2271 -2062.3752 4319.5786 2374431
-2253.2939 -2107.0234 4413.0933 3756343
-2242.6638 -2121.7893 4444.0195 794891
-2246.9255 -2151.1646 4505.5449 792332
-2285.5876 -2214.5798 4638.3667 2305058
-2265.8037 -2222.2224 4654.3735 2049
-2281.7444 -2265.5244 4745.0684 1024
-2272.1882 -2284.2783 4784.3477 257
-2472.0212 -2516.6797 5271.105 770
-2493.6438 -2571.2896 5385.4834 66820
-2429.5537 -2537.7888 5315.3174 66563
-2397.9529 -2537.7888 5315.3174 395271
-2366.3518 -2537.7888 5315.3174 526857
-2313.9709 -2515.2019 5268.0098 329478
-2309.1201 -2544.3674 5329.0962 921358
-2283.7351 -2551.4036 5343.833 257
-2237.0635 -2534.5215 5308.4736 513
-2138.5457 -2457.575 5147.312 1025
-2106.6606 -2456.0796 5144.1797 1449497
-2083.7842 -2465.1975 5163.2769 1318168
-1998.2371 -2399.3374 5025.3354 989459
-1968.3601 -2399.3374 5025.3354 133894
-1999.6516 -2475.0483 5183.9092 67587
-1968.8319 -2475.0483 5183.9092 397066
-1880.5027 -2401.6025 5030.0796 1538
-1871.0991 -2428.2085 5085.8047 512
-1859.8055 -2453.1956 5138.1392 989460
-1877.7812 -2518.2695 5274.4346 594957
-1823.6866 -2487.2598 5209.4858 595214
-1755.8647 -2436.1331 5102.4028 3292985
-1949.9415 -2752.9619 5765.9902 5333084
-2058.8315 -2958.7095 6196.9224 464142
-2117.8149 -3098.9285 6490.6064 857873
-1982.6144 -2954.9353 6189.0171 659725
-1835.3019 -2787.1033 5837.4985 264196
-1800.5963 -2787.1033 5837.4985 512
-1765.8907 -2787.1033 5837.4985 256
-1804.2887 -2904.7957 6084.001 66305
-1604.5057 -2636.002 5521.0215 66048
0 0 0 0
0 0 0 0
0 0 0 0
-1180.3507 -2111.9915 4423.4985 7639624
-1154.0518 -2111.9915 4423.4985 6915392
-1248.7371 -2338.564 4898.0474 396037
-1342.6993 -2574.5693 5392.353 1024
-1310.6403 -2574.5693 5392.353 512
-1236.0984 -2489.0256 5213.1841 256
-1204.3362 -2487.4387 5209.8604 1281
-1174.8063 -2490.5002 5216.2725 2048
-1143.7942 -2490.5002 5216.2725 2048
-1112.782 -2490.5002 5216.2725 134662
-1059.8492 -2440.0337 5110.5723 464137
-1025.9279 -2431.6489 5093.0107 464648
-998.97711 -2439.7781 5110.0371 596745
-968.5965 -2439.7781 5110.0371 3558967
-920.27509 -2393.124 5012.3218 1519130
-890.4754 -2393.124 5012.3218 1518108
-860.67584 -2393.124 5012.3218 2506540
-824.02307 -2373.3855 4970.98 2506028
-829.61499 -2478.3796 5190.8867 1255705
-779.54675 -2418.7839 5066.0654 2767918
-749.42755 -2418.7839 5066.0654 3228211
-695.07123 -2337.2827 4895.3638 2372902
-672.0907 -2358.7747 4940.3779 1912352
-647.1944 -2375.2004 4974.7808 2833454
-621.9527 -2391.8706 5009.6963 1254424
-588.0415 -2375.2004 4974.7808 3754558
-554.37952 -2357.8242 4938.3872 2570283
-526.08191 -2362.5957 4948.3809 661005
-517.74841 -2462.9009 5158.4668 594185
-487.0799 -2462.9009 5158.4668 659726
-496.164 -2677.415 5607.7598 1284
-471.80127 -2729.3462 5716.5283 133126
-439.59262 -2740.4287 5739.7397 198919
-411.07782 -2778.3418 5819.1475 67333
-376.13458 -2775.7827 5813.7876 1120021
-341.57001 -2775.7827 5813.7876 133125
-352.28275 -3185.1567 6671.2085 67333
-312.62057 -3185.1567 6671.2085 264199
-270.61813 -3157.8484 6614.0122 461834
-235.5041 -3215.3013 6734.3452 856338
-199.63669 -3283.8972 6878.0171 1119510
-158.74786 -3283.9573 6878.1431 856338
-112.62062 -3138.0945 6572.6377 724752
-72.144882 -3078.3752 6447.5581 790801
-33.642269 -3062.8899 6415.1245 462606
4.4974308 -3062.8899 6415.1245 1253147
42.529858 -3055.1838 6398.9844 1253404
76.414307 -2897.4722 6068.6621 2043944
110.17013 -2837.6118 5943.2871 1057306
145.50462 -2837.6118 5943.2871 728854
178.19188 -2796.0732 5856.2856 1913128
213.00912 -2796.0732 5856.2856 3558210
254.2406 -2868.4409 6007.8574 1387298
295.7872 -2926.0967 6128.6157 1452577
330.10495 -2907.4373 6089.5342 1123612
366.30893 -2907.4373 6089.5342 1583392
397.07306 -2868.1443 6007.2363 4149318
419.45865 -2779.8105 5822.2241 3294778
449.30664 -2750.6287 5761.1035 2505263
504.85321 -2871.7622 6014.814 3492414
528.81995 -2809.1174 5883.6064 3492158
576.37268 -2871.7622 6014.814 2702899
629.65167 -2953.9524 6186.9585 2965814
660.78088 -2928.8911 6134.4688 3557181
700.17383 -2941.1646 6160.1748 1912611
742.367 -2963.396 6206.7378 6649964
779.26776 -2963.396 6206.7378 5663837
803.22473 -2916.3989 6108.3037 6058593
918.37244 -3190.2461 6681.8682 6386789
1019.7106 -3395.4019 7111.5605 4082755
1102.3694 -3524.5002 7381.9526 1450526
1218.3903 -3746.2944 7846.4937 1911080
1439.8572 -4263.9995 8930.8105 6714485
1561.9609 -4461.0913 9343.6123 6452084
1590.6631 -4387.0439 9188.5225 5728361
1709.65 -4558.6509 9547.9482 988443
1811.01 -4673.7383 9788.9951 1910317
1919.7599 -4800.1367 10053.732 1449510
2020.59 -4899.6973 10262.259 2699836
2114.4526 -4977.021 10424.211 2502713
2154.635 -4927.187 10319.835 3160643
2195.0901 -4880.7178 10222.507 3489351
2253.282 -4875.1279 10210.799 4476245
2316.4951 -4880.4102 10221.862 5265505
2423.9299 -4976.2065 10422.505 724498
2485.8945 -4976.2065 10422.505 5264988
2525.3284 -4932.2017 10330.338 1581100
2726.3455 -5198.3804 10887.841 2700612
2819.9231 -5252.1074 11000.37 3096396
2885.3235 -5252.1074 11000.37 2701892
2950.7239 -5252.1074 11000.37 4412508
2980.8264 -5190.6421 10871.633 3951443
3031.5327 -5166.9023 10821.911 4609116
3131.666 -5226.6411 10947.032 3753294
3236.7595 -5292.0576 11084.045 5727083
3383.1243 -5420.9956 11354.101 5201251
3616.9163 -5682.2378 11901.265 5069665
3854.4324 -5939.1934 12439.45 3951442
3919.4939 -5925.7461 12411.285 6452089
3596.4612 -5336.8916 11177.948 6123894
3354.3352 -4887.2861 10236.264 3228497
3351.4727 -4796.1001 10045.277 5132131
5479.4185 -7703.9985 16135.777 11971011
5575.3501 -7703.9985 16135.777 13681882
5098.8433 -6926.3843 14507.09 11183798
4460.0537 -5957.8594 12478.545 7964818
5025.0356 -6602.7476 13829.242 5925241
4716.9668 -6098.1768 12772.436 5399154
4262.3979 -5423.1978 11358.714 7961230
3891.3564 -4873.8892 10208.205 11381956
3891.3779 -4799.0693 10051.496 7435406
3864.0613 -4693.3062 9829.9795 8226463
3869.875 -4630.3364 9698.0908 10725315
3733.9258 -4402.085 9220.0254 6449023
3913.916 -4547.5234 9524.6416 7896466
3970.5427 -4547.5234 9524.6416 6056570
4061.0562 -4585.7886 9604.7871 5464178
4356.8774 -4851.6138 10161.55 12963284
4446.5801 -4883.7832 10228.927 13488598
4477.7036 -4851.6138 10161.55 13225682
4438.1387 -4744.729 9937.6826 5135992
4738.9395 -4999.7505 10471.817 5727872
4772.231 -4969.5864 10408.64 6780560
4834.1133 -4969.5864 10408.64 6386315
4864.9834 -4938.1079 10342.709 4938610
4926.4736 -4938.1079 10342.709 5267318
4987.9639 -4938.1079 10342.709 4806765
5136.4678 -5023.2031 10520.938 4148837
4850.4707 -4686.4429 9815.6045 5267574
0 0 0 0
5014.5684 -4731.1494 9909.2402 7435656
4726.5933 -4407.6675 9231.7178 4478565
4619.1445 -4258.0249 8918.2959 3886685
4478.5186 -4081.5417 8548.6582 3886172
4231.2588 -3812.928 7986.0557 3359571
4254.4639 -3791.2969 7940.7495 4544102
4155.8384 -3662.7642 7671.542 5201518
4061.1843 -3540.4841 7415.4307 4542819
4251.626 -3666.7043 7679.7944 12629190
4129.2471 -3523.3247 7379.4902 6844300
5128.1914 -4329.6821 9068.3799 2438470
5182.1055 -4329.6821 9068.3799 3755101
5411.4746 -4474.7661 9372.2539 3688540
5623.5249 -4602.7188 9640.2461 3689052
5642.7036 -4571.8208 9575.5312 6584198
5581.4497 -4477.0229 9376.9805 5463919
5606.7798 -4452.8643 9326.3818 5133676
0 0 0 0
5981.1294 -4658.0396 9756.1143 6055033
6151.4712 -4744.6875 9937.5957 4083045
6577.1929 -5024.79 10524.262 12962524
6646.9614 -5030.2378 10535.672 4672606
6061.9126 -4544.6621 9518.6494 6382968
5885.5278 -4371.6143 9156.2061 5266798
5631.9365 -4144.9165 8681.3945 3621718
5981.6333 -4362.3037 9136.7051 8162717
5686.2891 -4109.5942 8607.4131 9937585
6300.4419 -4512.8413 9452.002 4344665
6356.6367 -4512.8413 9452.002 4279641
5664.1274 -3985.9631 8348.4717 7436678
5713.7612 -3985.9631 8348.4717 6383734
5763.3955 -3985.9631 8348.4717 4409183
5164.1191 -3541.0088 7416.5293 4541026
6475.2202 -4402.4341 9220.7568 3883094
7037.1792 -4744.3379 9936.8633 3028297
7140.1636 -4773.6924 9998.3457 2832203
7162.416 -4749.0332 9946.6982 6055293
7101.4761 -4670.0693 9781.3105 13488600
7159.6289 -4670.0693 9781.3105 11379392
7371.6211 -4769.6069 9989.7891 3420238
7478.6265 -4800.168 10053.798 4013399
7538.3994 -4800.168 10053.798 4935526
7651.6431 -4833.9482 10124.55 3883093
7665.0186 -4804.6021 10063.085 3751765
7772.0288 -4833.9482 10124.55 3487564
7784.6738 -4804.6021 10063.085 3685970
7673.6025 -4699.9292 9843.8516 9014431
7911.2407 -4808.8027 10071.883 3619666
7971.1206 -4808.8027 10071.883 4015192
7767.8574 -4651.2378 9741.8682 4146007
7776.1313 -4621.7314 9680.0684 7369092
7971.043 -4702.7725 9849.8057 5592169
8202.7188 -4804.1626 10062.164 3162202
8258.4961 -4801.8105 10057.238 10267337
8322.3633 -4804.1626 10062.164 6579843
8302.3066 -4758.3804 9966.2754 3291220
7600.5752 -4325.3213 9059.2471 3555670
7070.6309 -3995.4292 8368.2979 3160915
6884.543 -3863.0933 8091.125 2832459
6879.084 -3833.2461 8028.6108 3161681
6980.751 -3863.0933 8091.125 3622232
7426.4517 -4081.6145 8548.8105 3227216
7458.9355 -4071.6028 8527.8408 2569286
7051.9731 -3823.4651 8008.125 2437444
6939.7954 -3737.4116 7827.8887 2305604
6958.8716 -3722.7205 7797.1182 2107455
6989.6655 -3714.4497 7779.7959 1909820
7121.5547 -3759.6599 7874.4868 1910073
7203.1157 -3777.8826 7912.6538 1384500
7215.187 -3759.6599 7874.4868 2502982
6917.3164 -3581.2097 7500.729 2569286
7019.2651 -3610.7136 7562.5234 3358801
7323.7246 -3743.3499 7840.3257 3885145
7355.5117 -3735.8196 7824.5542 3425108
7274.4551 -3671.4319 7689.6963 2701641
7475.8931 -3749.5337 7853.2778 2898506
7522.583 -3749.5337 7853.2778 3227214
7945.2446 -3935.7761 8243.3564 3687765
8552.1436 -4210.4395 8818.6299 5398634
0 0 0 0
0 0 0 0
0 0 0 0
0 0 0 0
0 0 0 0
0 0 0 0
-4094.8093 -2166.687 4595.2778 330246
-4685.6182 -2495.9548 5293.6143 66049
-4560.3789 -2445.6687 5186.9634 0
-4333.1587 -2339.6345 4962.0781 512
-4276.5337 -2324.8889 4930.8042 512
-4162.7285 -2278.6396 4832.7153 256
-4050.0718 -2232.3806 4734.606 256
-4021.9236 -2232.3806 4734.606 512
-3991.7383 -2231.2422 4732.1914 256
-3897.4656 -2194.0107 4653.228 256
-3744.3303 -2122.8745 4502.3564 258
-3652.1265 -2085.5078 4423.1064 258
-3537.7241 -2034.8312 4315.6274 258
-3512.0667 -2034.8312 4315.6274 258
-3543.4373 -2068.1155 4386.2192 258
-3517.3596 -2068.1155 4386.2192 258
-3447.7341 -2042.3191 4331.5083 258
-3356.9319 -2003.4955 4249.1685 258
-3321.5222 -1997.3933 4236.2266 258
-3285.0432 -1990.5502 4221.7129 258
-3250.1086 -1984.5447 4208.9761 258
-3201.3794 -1969.9574 4178.0381 258
-3099.4827 -1922.1698 4076.6865 256
-3029.2649 -1893.4298 4015.7327 256
-3005.3904 -1893.4298 4015.7327 256
-3111.4463 -1975.943 4190.7329 512
-3109.3357 -1990.542 4221.6958 512
-3044.4214 -1964.8456 4167.1968 512
-2989.2415 -1945.0615 4125.2373 512
-2907.3945 -1907.4548 4045.478 256
-2692.4116 -1781.1455 3777.5916 512
-2669.9529 -1781.1455 3777.5916 512
-2668.5264 -1795.2953 3807.6016 512
-2638.4585 -1790.2535 3796.9084 256
-2615.8848 -1790.2535 3796.9084 512
-2752.0574 -1899.8416 4029.3313 256
-2782.7507 -1937.8989 4110.0464 256
-2840.2776 -1995.4829 4232.1748 256
-2837.9443 -2011.6647 4266.4941 256
-2855.4888 -2042.3552 4331.5854 256
-2829.7363 -2042.3552 4331.5854 256
-2759.7615 -2010.1449 4263.271 256
-2719.084 -1998.8746 4239.3682 770
-2689.0835 -1995.3158 4231.8203 256
-2652.9724 -1987.1129 4214.4229 256
-2627.9167 -1987.1129 4214.4229 257
-2633.7175 -2010.67 4264.3848 512
-2588.6396 -1995.4651 4232.1367 512
-2529.2891 -1968.8513 4175.6924 512
-2474.4592 -1945.2637 4125.666 1024
-2479.6379 -1968.8513 4175.6924 512
-2496.9797 -2002.6713 4247.4204 512
-2376.4741 -1925.4939 4083.7366 1024
-2267.03 -1855.7781 3935.8779 1536
-2243.3726 -1855.5651 3935.4263 332292
-2204.9888 -1843.0385 3908.8589 1978394
-2167.4053 -1830.9213 3883.1597 269312
-2126.929 -1816.0728 3851.668 3033379
-2178.7915 -1880.6028 3988.5283 1915663
-2143.678 -1870.6542 3967.4282 1718284
-2128.2126 -1877.8208 3982.6279 2310678
-2104.5349 -1877.8208 3982.6279 2572828
-2158.3096 -1947.7161 4130.8672 332292
-2196.9985 -2005.45 4253.3135 265217
-2253.2939 -2080.7864 4413.0933 1648408
-2254.23 -2106.1748 4466.939 3329
-2227.6729 -2106.1748 4466.939 135171
-2251.6719 -2154.5505 4569.5376 1976606
-2221.6965 -2151.8306 4563.769 66562
-2277.0034 -2232.665 4735.209 725004
-2295.6943 -2279.1711 4833.8428 513
-2372.8208 -2385.6064 5059.5791 131842
-2493.6438 -2539.2712 5385.4834 66306
-2476.0378 -2554.1382 5417.0142 132099
-2397.9529 -2506.1877 5315.3174 256
-2307.8726 -2444.2529 5183.9609 329478
-2263.0713 -2429.2451 5152.1313 0
-2290.7576 -2492.7031 5286.7183 329478
-2268.6238 -2502.9612 5308.4736 66050
-2235.8892 -2501.6472 5305.687 257
-2204.3455 -2501.6472 5305.687 256
-2170.1589 -2498.6045 5299.2339 256
-2170.6543 -2535.991 5378.5264 396296
-2138.6772 -2535.991 5378.5264 1054996
-2118.6167 -2550.3354 5408.9492 331272
-2010.0653 -2456.9575 5210.9058 1794
-1970.3256 -2446.083 5187.8423 132870
-1901.525 -2398.2109 5086.3115 769
-1822.5758 -2335.7854 4953.9146 768
-1793.1234 -2335.7854 4953.9146 528909
-1905.6053 -2523.7615 5352.5889 923410
-1846.4232 -2486.9114 5274.4346 923666
-1792.7147 -2456.2881 5209.4858 132868
-1938.5463 -2702.7939 5732.2949 462090
-1806.299 -2563.4761 5436.8188 791824
-1868.0189 -2699.373 5725.0396 726285
-1756.0533 -2584.6729 5481.7744 1713180
-1723.4626 -2584.6729 5481.7744 1054994
-1653.2343 -2527.1396 5359.7534 0
-1644.8719 -2563.7725 5437.4473 65792
-1596.1663 -2537.7322 5382.2192 256
-1564.1675 -2537.7322 5382.2192 1186317
0 0 0 0
0 0 0 0
-1257.6243 -2173.8025 4610.3687 8163439
-1242.0414 -2194.7007 4654.6914 5664075
-1212.5349 -2191.3879 4647.6655 5335615
-1248.7371 -2309.4438 4898.0474 397824
-1305.8943 -2472.8171 5244.5425 331266
-1310.6403 -2542.5103 5392.353 66818
-1271.9874 -2529.3987 5364.5444 331783
-1282.571 -2616.0386 5548.2974 134405
-1246.3748 -2609.3184 5534.0444 67846
-1184.4796 -2546.9736 5401.8188 199429
-1139.2991 -2518.0964 5340.5742 1582364
-1059.8492 -2409.6499 5110.5723 2372649
-1004.5943 -2351.4346 4987.1045 925713
-974.79901 -2351.0833 4986.3594 925713
-968.5965 -2409.3977 5110.0371 1715487
-915.50842 -2351.0833 4986.3594 4357
-882.65723 -2342.5747 4968.314 3426876
-853.11908 -2342.5747 4968.314 3229755
-836.83527 -2380.2744 5048.2705 2049
-829.61499 -2447.5183 5190.8867 2044711
-754.00818 -2310.4102 4900.0972 2833713
-724.17554 -2308.1785 4895.3638 2439211
-682.26019 -2265.636 4805.1362 1321243
-671.35535 -2326.854 4934.9727 3032116
-642.64905 -2329.1504 4939.8423 2769458
-604.23688 -2294.8047 4866.9995 4349260
-575.30121 -2294.8047 4866.9995 5336667
-539.94183 -2267.824 4809.7769 4810322
-511.34634 -2267.824 4809.7769 5400150
-499.69025 -2347.4001 4978.5483 5399640
-470.0914 -2347.4001 4978.5483 4937807
-465.62347 -2481.324 5262.584 1025
-469.02353 -2679.491 5682.8721 264712
-442.71353 -2725.5178 5780.4893 330505
-411.59152 -2747.1741 5826.4199 67846
-376.13458 -2741.218 5813.7876 1844514
-343.34537 -2755.4661 5844.0059 2239528
-308.60114 -2755.4661 5844.0059 1026
-317.68802 -3196.4814 6779.3457 1540
-277.3829 -3196.4814 6779.3457 1119508
-239.89537 -3234.4705 6859.915 856338
-199.63669 -3243.0056 6878.0171 856338
-158.32716 -3234.4705 6859.915 790545
-113.118 -3112.7046 6601.665 461580
-73.869263 -3112.7046 6601.665 264458
-34.468304 -3099.0181 6572.6377 330764
4.7159657 -3171.7261 6726.8428 265484
43.05714 -3054.5464 6478.3184 331277
76.414307 -2861.3921 6068.6621 989976
109.62067 -2788.3013 5913.6455 1122331
145.50462 -2802.2773 5943.2871 661781
179.93721 -2788.3013 5913.6455 399119
220.36174 -2856.5684 6058.4316 530705
253.11172 -2820.1448 5981.1816 2702387
292.64774 -2858.99 6063.5674 1189662
324.66791 -2823.9424 5989.2358 466194
366.30893 -2871.2334 6089.5342 1912358
395.88327 -2823.9424 5989.2358 2175531
419.45865 -2745.1958 5822.2241 3820353
450.29797 -2722.3706 5773.8145 1715233
523.46295 -2940.5425 6236.5303 3096630
540.61292 -2836.0024 6014.814 3162423
597.61877 -2940.5425 6236.5303 3162679
632.05243 -2928.2917 6210.5479 3030836
663.54987 -2904.5405 6160.1748 3294008
715.27386 -2967.1802 6293.0259 2701871
752.68768 -2967.1802 6293.0259 5201748
790.10138 -2967.1802 6293.0259 6714984
846.57404 -3035.5183 6437.9624 4807754
918.37244 -3150.5205 6681.8682 5596756
1023.5002 -3365.583 7137.9893 2766379
1215.3832 -3837.4417 8138.7437 1515805
1280.5355 -3888.3491 8246.7119 989466
1469.4143 -4297.3438 9114.1396 2634290
1561.5502 -4404.3823 9341.1553 3885898
1617.5115 -4405.541 9343.6123 4084048
1708.681 -4499.334 9542.5361 5201503
1802.5258 -4593.917 9743.1348 6122090
1923.1498 -4748.7349 10071.485 4410960
2205.7573 -5282.1035 11202.694 3753033
2122.5552 -4933.8809 10464.157 4081742
2166.116 -4891.7603 10374.824 3358277
2203.0698 -4837.4639 10259.668 3029569
2255.7234 -4819.6382 10221.862 3951185
2299.4407 -4784.1553 10146.606 4873313
2377.2671 -4819.6382 10221.862 6517882
2425.1082 -4794.0762 10167.648 3820112
2503.4802 -4828.6445 10240.964 5135203
2738.9744 -5157.4292 10938.275 2634817
2815.0645 -5177.77 10981.416 2963781
2885.3235 -5186.707 11000.37 2503233
2951.9744 -5188.9053 11005.032 3292491
3029.0977 -5209.0171 11047.688 2766656
3093.2493 -5206.4419 11042.226 5990509
3131.666 -5161.5581 10947.032 5596006
3236.7595 -5226.1597 11084.045 5464421
3366.9524 -5327.9009 11299.825 3951440
3616.9163 -5611.4814 11901.265 5399144
4082.4336 -6212.1836 13175.28 5136230
4229.0527 -6314.1411 13391.52 5267560
4302.084 -6304.4907 13371.053 5859954
4236.4648 -6095.6919 12928.216 4873318
4004.4087 -5659.1221 12002.305 7242384
5456.5361 -7576.2949 16068.394 11646147
5041.0503 -6878.9663 14589.445 13421529
4385.8652 -5883.6709 12478.545 10460073
4460.0537 -5883.6709 12478.545 5794168
4777.9634 -6199.9258 13149.283 4741224
4487.6943 -5729.5244 12151.619 4347492
4365.7451 -5485.5215 11634.119 10531776
4231.7197 -5234.1924 11101.081 13423063
4126.146 -5025.2339 10657.905 13553877
4108.666 -4928.2632 10452.242 9933737
4149.2427 -4902.7817 10398.199 13158098
3927.5327 -4572.6787 9698.0908 13092816
3985.7756 -4573.3501 9699.5146 13158865
4003.9529 -4528.6855 9604.7871 5531775
4113.5933 -4587.2725 9729.043 5136242
4356.8774 -4791.2007 10161.55 11582927
4423.6875 -4798.1396 10176.266 12436436
4477.7036 -4791.2007 10161.55 8423073
4504.2681 -4755.4644 10085.757 7962780
4573.9956 -4765.6377 10107.334 7174548
4636.688 -4768.3135 10113.009 6122373
4734.8013 -4806.8804 10194.804 6320007
4912.6807 -4924.4297 10444.111 4149094
4974.7739 -4924.4297 10444.111 5004144
5036.8667 -4924.4297 10444.111 5069935
5136.4678 -4960.6533 10520.938 6122622
4896.7417 -4672.2358 9909.2402 7240847
5100.0747 -4808.396 10198.02 5595761
5153.7446 -4801.9111 10184.265 5660273
5204.9937 -4793.3472 10166.103 4544103
4619.1445 -4205.0029 8918.2959 3425367
4512.8975 -4061.6592 8614.2812 3425110
3969.7393 -3532.7197 7492.4653 3293523
4014.2839 -3532.7197 7492.4653 4938859
4058.8289 -3532.7197 7492.4653 4279390
4050.925 -3487.5649 7396.6982 5462898
4251.626 -3621.0457 7679.7944 7436434
5074.2778 -4275.7681 9068.3799 2633804
5128.1914 -4275.7681 9068.3799 3094609
5188.1934 -4280.791 9079.0332 4739175
5411.4746 -4419.0454 9372.2539 4344672
5467.1953 -4419.0454 9372.2539 4082526
5495.8838 -4397.4165 9326.3818 4279393
5581.4497 -4421.2739 9376.9805 4609384
5606.7798 -4397.4165 9326.3818 8292766
0 0 0 0
0 0 0 0
6039.1323 -4600.0366 9756.1143 3224905
6210.5527 -4685.606 9937.5957 8356759
6290.4224 -4701.1416 9970.5449 11252164
