# .PCD v0.7 - Point Cloud Data file format
VERSION 0.7
FIELDS x y z rgb
SIZE 4 4 4 4
TYPE F F F U
COUNT 1 1 1 1
WIDTH 1320
HEIGHT 1
VIEWPOINT 0 0 0 1 0 0 0
POINTS 1320
DATA ascii
-4196.4072 -11.21879 6144.0273 803840
-4354.5249 -11.743731 6431.5142 803840
-4420.833 -12.028175 6587.2915 803840
-4381.6694 -12.028175 6587.2915 1198594
-4287.9888 -11.87717 6504.5923 1132802
-4183.748 -11.693899 6404.2231 1132802
-4145.6729 -11.693899 6404.2231 1066497
-4241.4404 -12.074933 6612.8984 1066498
-4481 -12.87629 7051.7656 1000449
-4439.0757 -12.87629 7051.7656 1000450
-3974.416 -11.638385 6373.8208 802817
-3936.522 -11.638385 6373.8208 934147
-3985.6216 -11.898084 6516.0459 1131270
-4005.5645 -12.074986 6612.9268 1130759
-3966.2485 -12.074986 6612.9268 999176
-3858.0088 -11.86305 6496.8594 932870
-3725.0818 -11.570148 6336.4502 1064200
-3746.8232 -11.756573 6438.5464 1260554
-3132.252 -9.9296494 5438.0229 932104
-3106.1287 -9.9495325 5448.9121 602371
-3073.7334 -9.9495325 5448.9121 798982
-3041.3379 -9.9495325 5448.9121 1127436
-2852.5615 -9.4324341 5165.7202 1060361
-2764.7761 -9.2416563 5061.2402 1256719
-2666.3342 -9.0106688 4934.7383 1518355
-2670.1853 -9.1240788 4996.8477 2174749
-2640.4778 -9.1240788 4996.8477 3160877
-2530.5259 -8.8436422 4843.2656 1448725
-2516.3679 -8.8953819 4871.6011 5132619
-2414.573 -8.634923 4728.9595 7303532
-2359.3323 -8.5367737 4675.2075 7041129
-2331.5369 -8.5367737 4675.2075 4147260
-2340.8096 -8.6741343 4750.4336 595205
-2289.8469 -8.5889149 4703.7627 530694
-2390.2649 -9.076416 4970.7451 927496
-2447.322 -9.4094114 5153.1118 797190
-2603.9495 -10.138528 5552.416 600835
-2899.8533 -11.435606 6262.7676 666883
-2967.6021 -11.854991 6492.4458 535297
-2929.0024 -11.854991 6492.4458 469761
-2893.5098 -11.867732 6499.4238 469504
-2885.689 -11.995852 6569.5889 535040
-3167.7375 -13.349012 7310.6543 534528
-3086.8198 -13.188985 7223.0142 337152
-3055.1887 -13.237997 7249.8564 205568
-3028.9841 -13.312262 7290.5278 205568
-3039.5715 -13.552731 7422.2217 139520
-2896.2754 -13.104045 7176.4971 271360
-2812.6145 -12.915795 7073.4004 271360
-2750.5776 -12.822636 7022.3813 205568
-2749.4431 -13.014895 7127.6733 468738
-2707.0671 -13.014895 7127.6733 402688
-2203.5974 -10.762819 5894.313 336896
-1991.7225 -9.8851805 5413.6694 731651
-1951.9911 -9.8471165 5392.8232 534016
-1885.3503 -9.6697636 5295.6953 599297
-1773.88 -9.2525568 5067.21 1058820
-1699.2164 -9.0162363 4937.7876 991747
-1669.86 -9.0162363 4937.7876 1383171
-1631.6525 -8.9675913 4911.147 3152139
-1585.9083 -8.8749981 4860.4375 5384738
-1531.7991 -8.7312851 4781.7324 6830131
-1483.7767 -8.6174879 4719.4111 5118487
-1490.9716 -8.8261776 4833.7012 5119257
-1407.2811 -8.4944782 4652.0439 5053722
-1408.2937 -8.6710043 4748.7192 3870220
-1408.9407 -8.8524551 4848.0918 3016453
-1364.5547 -8.7526312 4793.4229 2163201
-1336.0565 -8.7526312 4793.4229 2820871
-1314.6683 -8.8002262 4819.4883 5515295
-1286.0151 -8.8002262 4819.4883 7621694
-1237.1438 -8.6587191 4741.9917 7754564
-1192.4879 -8.5408049 4677.4155 7295043
-1200.3547 -8.8024197 4820.6899 6901570
-1171.6945 -8.8024197 4820.6899 4865583
-1138.8749 -8.7703905 4803.1489 2236433
-1110.3188 -8.7703905 4803.1489 264448
-1226.0696 -9.9403572 5443.8872 66048
-1167.3125 -9.7205849 5323.5278 262144
-1161.3387 -9.9403572 5443.8872 1049344
-1106.0227 -9.7382822 5333.2197 1310720
-1110.7101 -10.068189 5513.8945 1114112
-1089.3915 -10.175258 5572.5312 458752
-1096.0973 -10.559009 5782.6948 262144
-1061.7175 -10.559009 5782.6948 131072
-1007.074 -10.350736 5668.6328 256
-973.37231 -10.350736 5668.6328 256
-1049.6261 -11.561925 6331.9468 256
-1011.981 -11.561925 6331.9468 256
-909.82733 -10.796438 5912.7241 256
-870.0517 -10.739377 5881.4741 256
-831.41998 -10.692246 5855.6631 256
-795.46143 -10.676878 5847.2466 256
-760.69788 -10.676878 5847.2466 256
-716.69287 -10.540956 5772.8081 256
-679.19702 -10.491912 5745.9487 256
-640.35327 -10.415748 5704.2373 256
-602.04376 -10.340242 5662.8862 256
-564.22211 -10.264666 5621.4966 256
-530.71393 -10.262988 5620.5776 256
-496.20773 -10.240486 5608.2544 512
-462.95181 -10.242405 5609.3047 512
-430.4537 -10.262689 5620.4136 768
-397.03879 -10.262689 5620.4136 768
-363.62387 -10.262689 5620.4136 768
-331.42319 -10.300426 5641.0811 1024
-296.59341 -10.255751 5616.6143 1024
-257.46741 -10.032337 5494.2603 1280
-224.57803 -10.022319 5488.7739 1024
-191.94574 -10.022319 5488.7739 1281
-158.50758 -9.9716234 5461.0098 1280
-125.04629 -9.8929768 5417.939 1280
-93.120636 -9.9234028 5434.6016 1793
-61.282066 -10.000368 5476.7524 1280
-28.721249 -10.000368 5476.7524 1280
3.8310585 -9.9782019 5464.6128 1024
35.931095 -9.871439 5406.1436 1024
68.548134 -9.9404659 5443.9468 768
101.00721 -9.9496574 5448.9805 1024
133.42334 -9.9511795 5449.814 1792
165.22575 -9.9152794 5430.1528 133891
196.73857 -9.8765764 5408.957 768
225.87782 -9.7463312 5337.6279 768
256.81317 -9.7161283 5321.0869 1024
287.92917 -9.6986341 5311.5063 1536
287.16718 -8.7169447 4773.8789 512
296.09613 -8.1795588 4479.5771 264708
384.08612 -9.7346697 5331.2412 67842
417.70865 -9.7797823 5355.9473 594699
429.77475 -9.3495541 5120.3306 397834
481.5094 -9.7821293 5357.2329 768
516.81879 -9.8480434 5393.3311 1024
544.76752 -9.7741928 5352.8862 134662
575.685 -9.7588186 5344.4668 3073
605.3772 -9.7253695 5326.1479 2561
637.0426 -9.7253695 5326.1479 199939
658.45721 -9.5762863 5244.502 265220
686.42212 -9.531641 5220.0518 3074
711.90387 -9.4578686 5179.6499 1280
741.81006 -9.446557 5173.4551 2560
797.06421 -9.746088 5337.4946 463880
836.58435 -9.8376608 5387.645 661515
911.15839 -10.319489 5651.5205 1792
962.67303 -10.51517 5758.6865 199428
1025.3859 -10.815527 5923.1782 68097
1097.9075 -11.195963 6131.5259 463877
1134.3611 -11.195963 6131.5259 1516821
1192.9854 -11.40797 6247.6333 266500
1282.084 -11.889788 6511.5029 661769
1382.5513 -12.445702 6815.9517 1056784
1515.7588 -13.256289 7259.8745 135427
1578.3237 -13.421283 7350.2339 1451797
1585.6604 -13.120405 7185.4561 1386515
1573.0818 -12.67485 6941.4458 1517844
1551.8795 -12.184366 6672.8296 1122319
1591.5511 -12.184366 6672.8296 1536
1669.2372 -12.468311 6828.334 68355
1720.7688 -12.548053 6872.0044 768
1741.9373 -12.407818 6795.2041 512
1776.2589 -12.365507 6772.0327 768
1816.5205 -12.365507 6772.0327 1024
1900.3029 -12.655339 6930.7607 1024
1941.5081 -12.655339 6930.7607 2819
1981.5894 -12.648165 6926.8315 2305
2031.6515 -12.703691 6957.2412 1188631
2095.5515 -12.841803 7032.8784 70401
2164.8743 -13.007092 7123.3999 465926
2216.4785 -13.061623 7153.2642 2967083
2273.3384 -13.144489 7198.6465 992782
2340.0232 -13.28005 7272.8872 2967840
3127.5266 -17.427252 9544.123 3559213
3227.74 -17.665163 9674.416 464386
5204.7285 -27.986359 15326.871 201984
5575.292 -29.463087 16135.609 4085805
5671.79 -29.466034 16137.223 5600058
5768.0503 -29.46767 16138.119 6916684
5863.9961 -29.46767 16138.119 6916944
5959.7769 -29.466854 16137.672 2835484
6055.6675 -29.466599 16137.533 6389324
6151.6094 -29.466599 16137.533 5072700
6247.5542 -29.46661 16137.539 1714446
6343.4722 -29.466497 16137.478 465666
6439.4136 -29.466497 16137.478 333824
6535.6748 -29.467941 16138.267 3559465
6631.4189 -29.467041 16137.774 3360549
6726.5015 -29.463266 16135.707 2833185
6227.0879 -26.892218 14727.66 264450
6284.7383 -26.764845 14657.902 768
6559.9658 -27.554876 15090.567 256
6980.9541 -28.927588 15842.341 768
7206.0474 -29.462816 16135.461 1648662
7302.9248 -29.466642 16137.556 1253646
7400.0298 -29.47127 16140.091 1782545
7495.5693 -29.469627 16139.19 3031331
7591.5205 -29.469627 16139.19 2437407
7687.1758 -29.468487 16138.566 768
7783.1235 -29.468487 16138.566 512
7770.6489 -29.062973 15916.484 256
7686.8452 -28.403652 15555.403 256
7757.7939 -28.325031 15512.347 256
7725.0122 -27.873974 15265.322 256
7815.7686 -27.873974 15265.322 256
7384.4741 -26.033512 14257.385 256
7562.7358 -26.35939 14435.854 256
7648.561 -26.35939 14435.854 256
7736.4292 -26.366358 14439.669 256
7822.2778 -26.366358 14439.669 724233
8837.2061 -29.463987 16136.103 197634
8933.1387 -29.463987 16136.103 987406
9029.3652 -29.464941 16136.625 256
9125.3018 -29.464941 16136.625 658442
9221.2393 -29.464941 16136.625 67328
9316.9424 -29.464205 16136.221 528905
9205.4912 -28.815048 15780.707 3820347
8304.6064 -25.73283 14092.715 5464402
7942.5293 -24.365072 13343.655 198403
8021.8608 -24.365072 13343.655 1280
7509.5737 -22.585726 12369.187 132097
7898.1797 -23.524128 12883.108 197890
7974.7734 -23.524128 12883.108 256
8259.0674 -24.13098 13215.454 512
8382.0557 -24.259537 13285.858 198403
8461.0439 -24.259537 13285.858 330246
8798.582 -24.993994 13688.088 256
8879.9609 -24.993994 13688.088 396039
9298.75 -25.935061 14203.468 198404
9186.125 -25.390368 13905.163 256
8655.4746 -23.710274 12985.052 256
8706.3379 -23.638765 12945.89 790797
8783.3047 -23.638765 12945.89 2501670
9464.0967 -25.249743 13828.149 329733
9785.5645 -25.882563 14174.718 329733
11235.292 -29.463322 16135.737 723718
9389.1064 -24.41345 13370.149 2301723
11368.958 -29.313271 16053.561 3682605
11523.19 -29.463589 16135.884 4407099
11620.091 -29.466042 16137.227 4342079
11717.2 -29.468985 16138.839 3092274
11814.267 -29.471769 16140.363 3685440
11910.092 -29.471436 16140.182 3948871
12004.851 -29.468493 16138.569 4080459
12100.797 -29.468489 16138.568 4278096
12195.729 -29.466036 16137.224 4278352
12292.354 -29.467676 16138.122 4278354
12388.3 -29.467676 16138.122 4146768
12483.898 -29.466854 16137.673 4080975
12510.211 -29.303755 16048.35 4147024
12604.347 -29.300787 16046.725 4015439
12433.687 -28.686932 15710.544 3949646
12438.778 -28.484697 15599.789 3948619
12531.523 -28.484697 15599.789 3619651
12581.488 -28.388172 15546.927 3355709
13156.228 -29.468487 16138.566 2894900
13252.547 -29.469313 16139.019 3026227
13350.048 -29.472733 16140.893 263175
13447.314 -29.475595 16142.459 1710110
13542.659 -29.474232 16141.712 1776416
13637.305 -29.471375 16140.147 2763568
13732.501 -29.469738 16139.252 2961463
13683.913 -29.161709 15970.559 3027257
13520.358 -28.614613 15670.938 3093562
13346.453 -28.053244 15363.5 3159355
13294.626 -27.754362 15199.817 3093305
13306.858 -27.592344 15111.088 3158842
13731.943 -28.282829 15489.235 2961463
13506.657 -27.633509 15133.632 2829877
13825.691 -28.099049 15388.586 2829877
13180.955 -26.612597 14574.522 2829877
13267.605 -26.612597 14574.522 2698290
13743.931 -27.389149 14999.806 2500911
13833.109 -27.389149 14999.806 2434605
13148.08 -25.866056 14165.678 2434605
14898.392 -29.122885 15949.295 2236711
15058.305 -29.249315 16018.535 1710109
15088.039 -29.122885 15949.295 1710110
15362.248 -29.466974 16137.737 854796
15458.848 -29.468225 16138.423 591109
15561.424 -29.480783 16145.301 2827558
15657.417 -29.480791 16145.305 4996670
0 0 0 0
0 0 0 0
0 0 0 0
0 0 0 0
0 0 0 0
0 0 0 0
0 0 0 0
0 0 0 0
0 0 0 0
-2598.9299 12.259653 2976.1414 3072
-2598.4849 12.341578 2996.0293 137984
-2580.6726 12.341578 2996.0293 1256457
-2548.2749 12.27134 2978.9785 796164
-2530.564 12.27134 2978.9785 1980688
-2535.7932 12.383368 3006.1741 1717002
-2528.3584 12.434701 3018.6355 467200
-2523.1807 12.497949 3033.9897 1126144
-2545.95 12.701531 3083.4111 1521667
-2549.5244 12.811613 3110.1345 1786115
-2551.7769 12.916611 3135.6235 1786625
-2535.9189 12.930806 3139.0698 3300372
-2556.1709 13.130706 3187.5972 2576397
-2555.9585 13.227684 3211.1394 2840588
-2732.968 14.250188 3459.3616 2643727
-2612.1321 13.723402 3331.4795 2051592
0 0 0 0
0 0 0 0
-3099.7981 16.664537 4045.467 1263874
-3075.7466 16.664537 4045.467 1197825
-2888.2258 15.771874 3828.7646 1197827
-3417.4724 18.810205 4566.3472 1065987
-3748.3684 20.796705 5048.5879 868354
-4410.2842 24.66667 5988.0566 341760
-4125.9971 23.264452 5647.6553 539136
-4092.4204 23.264452 5647.6553 670720
-4275.4951 24.506252 5949.1138 802304
-4452.2456 25.732222 6246.729 1460742
-4415.1069 25.732222 6246.729 802816
-4183.3066 24.588066 5968.9746 999937
-4156.2222 24.637875 5981.0664 802816
-4201.6265 25.121965 6098.5835 539392
-4170.9272 25.155491 6106.7222 868097
-4142.5933 25.203995 6118.4966 999938
-4325.9248 26.552559 6445.873 802048
-4287.6021 26.552559 6445.873 736000
-4221.8228 26.380991 6404.2231 801536
-4131.895 26.054028 6324.8501 473088
-4108.8672 26.146776 6347.3657 670464
-4089.5696 26.2652 6376.1143 604672
-3922.7358 25.42943 6173.2231 933633
-3973.7222 26.003242 6312.5215 802048
-3911.4807 25.839991 6272.8906 933635
-3880.271 25.880571 6282.7422 867841
-3842.9182 25.880571 6282.7422 999429
-3946.8818 26.841623 6516.0459 670210
-3578.6138 24.578381 5966.6235 736004
-3543.1406 24.578381 5966.6235 998406
-3429.384 24.029846 5833.4614 866308
-2992.8887 21.185555 5142.9844 800260
-2932.6831 20.973656 5091.5439 734469
-2931.7358 21.185555 5142.9844 996872
-2584.5085 18.87323 4581.6465 1259789
-2802.072 20.679928 5020.2388 600836
-2772.2251 20.679928 5020.2388 1257740
-2658.9692 20.050951 4867.5488 1190669
-2608.3928 19.885988 4827.5029 2241564
-2579.6919 19.885988 4827.5029 858122
-2607.6575 20.327724 4934.7383 1975577
-2515.8169 19.834951 4815.1133 3356208
-2472.2754 19.716011 4786.2397 4079674
-2404.7371 19.400705 4709.6958 4145725
-2367.6721 19.326714 4691.7339 5725270
-2348.7363 19.400705 4709.6958 4476226
-2348.3523 19.631571 4765.7407 4082491
-2289.8469 19.376265 4703.7627 530692
-2477.9587 21.227272 5153.1118 1256458
-2547.5386 22.096518 5364.1289 1191688
-2603.9495 22.872131 5552.416 1257994
-2696.0227 23.98493 5822.5576 929798
-2804.5942 25.275358 6135.8213 601090
-2886.1003 26.352671 6397.3481 732164
-2848.0662 26.352671 6397.3481 929030
-2878.8313 26.997871 6553.9771 862725
-3065.615 29.144007 7074.9707 862211
-2808.8384 27.074383 6572.5503 1256455
-3055.1887 29.864416 7249.8564 1124357
-3028.9841 30.031956 7290.5278 926468
-3039.5715 30.574444 7422.2217 1123590
-2854.6677 29.137539 7073.4004 1057541
-2812.6145 29.137539 7073.4004 1320200
-2770.5613 29.137539 7073.4004 793857
-2749.4431 29.361105 7127.6733 728066
-2688.5505 29.160275 7078.9194 925445
-2264.2791 24.949135 6056.627 1121797
-2122.2202 23.761726 5768.3735 1055748
-2040.1289 23.217773 5636.3237 1976847
-1932.6674 22.362104 5428.6025 1975820
-1853.866 21.814619 5295.6953 1844235
-1711.2202 20.483974 4972.6694 2106636
-1681.6564 20.483974 4972.6694 2105355
-1631.6525 20.230543 4911.147 1182465
-1585.9083 20.021656 4860.4375 5516581
-1523.6688 19.592899 4756.3525 5646626
-1493.1344 19.563332 4749.1753 5513501
-1492.0581 19.926031 4837.2236 5185050
-1463.2994 19.926031 4837.2236 4922137
-1442.939 20.042683 4865.542 4923162
-1408.9407 19.9708 4848.0918 4397333
-1395.6357 20.195356 4902.605 5452079
-1415.7889 20.923969 5079.4824 1509125
-1387.1245 20.947144 5085.1079 983040
-1343.6334 20.742458 5035.4189 1179904
-1277.5007 20.17095 4896.6802 1638656
-1192.4879 19.267731 4677.4155 2164742
-1165.9395 19.288578 4682.4761 4398103
-1146.4719 19.430452 4716.9175 7687496
-1118.4286 19.430452 4716.9175 6373948
-1090.0005 19.423597 4715.2534 4270885
-1226.0696 22.425068 5443.8872 524288
-1193.7042 22.425068 5443.8872 589824
-1141.1143 22.03454 5349.083 1311232
-1109.3125 22.03454 5349.083 1376256
-1096.704 22.427032 5444.3643 1245440
-1063.4183 22.4077 5439.6714 524288
-1060.3258 23.043324 5593.9746 327680
-1032.2711 23.160061 5622.3135 65536
-995.76843 23.088726 5604.9966 0
-962.44513 23.088726 5604.9966 0
-967.9895 24.054588 5839.4683 0
-932.77765 24.04184 5836.3735 0
-895.1889 23.964476 5817.5928 0
-856.39301 23.847282 5789.1426 0
-816.76288 23.696068 5752.4341 0
-779.90143 23.615475 5732.8691 0
-745.53394 23.606482 5730.686 0
-707.29865 23.468296 5697.1401 256
-672.90723 23.450161 5692.7378 256
-639.2821 23.458223 5694.6953 256
-604.45758 23.420721 5685.5913 0
-565.89587 23.225391 5638.1729 256
-535.76117 23.373098 5674.0303 256
-497.32294 23.15407 5620.8589 512
-464.98453 23.20793 5633.9341 512
-430.4537 23.152235 5620.4136 512
-397.03879 23.152235 5620.4136 512
-366.75278 23.351454 5668.7759 512
-348.98196 24.468483 5939.9448 512
-315.4411 24.606852 5973.5347 768
-263.20105 23.136583 5616.6143 768
-225.73506 22.726456 5517.0522 512
-192.67213 22.695534 5509.5454 768
-159.64008 22.656324 5500.0269 768
-126.35644 22.552013 5474.7046 768
-93.807793 22.552013 5474.7046 768
-61.315639 22.572809 5479.7529 768
-28.736984 22.572809 5479.7529 768
3.8395691 22.56045 5476.7524 768
36.290676 22.492453 5460.2456 512
68.712761 22.479174 5457.022 512
101.15627 22.479174 5457.022 768
133.44087 22.452433 5450.5303 512
165.82399 22.449482 5449.814 512
197.50951 22.368492 5430.1528 512
226.44872 22.042923 5351.1182 768
257.61151 21.987352 5337.6279 1024
287.92917 21.879749 5311.5063 768
311.56769 21.336031 5179.5137 1024
350.23834 21.826927 5298.6831 67585
385.86606 22.062815 5355.9473 1385753
404.24976 21.351934 5183.3745 1189656
425.94495 20.904282 5074.7026 1123351
456.11548 20.904282 5074.7026 200454
511.74597 21.998743 5340.3931 2049
527.89258 21.367168 5187.0728 2048
558.73114 21.367168 5187.0728 463369
593.20642 21.498968 5219.0684 768
634.76703 21.861689 5307.1221 2305
658.45721 21.603739 5244.502 1536
686.42212 21.503019 5220.0518 2048
711.90387 21.336592 5179.6499 768
741.81006 21.311073 5173.4551 2048
799.85974 22.063917 5356.2148 464132
859.02545 22.788717 5532.1665 1780249
911.15839 23.280373 5651.5205 1536
962.67303 23.721823 5758.6865 1024
973.06323 23.154381 5620.9346 1792
1097.9075 25.257664 6131.5259 198914
1134.3611 25.257664 6131.5259 134146
1243.3712 26.82291 6511.5029 512
1341.2383 28.060495 6811.938 1779482
1433.4036 29.109743 7066.6523 661258
1534.6245 30.277903 7350.2339 199428
1578.3237 30.277903 7350.2339 1910045
1585.6604 29.599131 7185.4561 1845021
1594.8007 28.988762 7037.2832 527111
1614.3506 28.593979 6941.4458 768
1628.641 28.128035 6828.334 768
1680.3926 28.316011 6873.9668 1025
1701.538 27.991564 6795.2041 132868
1735.9973 27.896111 6772.0327 768
1774.6803 27.871319 6766.0142 768
1816.5205 27.896111 6772.0327 512
1882.0667 28.275984 6864.25 768
1946.1104 28.617638 6947.1895 768
1990.2887 28.659042 6957.2412 1280
2037.119 28.73617 6975.9644 134404
2122.5239 29.343502 7123.3999 1122067
2175.106 29.482185 7157.0664 596747
2180.3223 28.985853 7036.5771 1781017
2259.0066 29.466524 7153.2642 2241567
2367.7639 30.314455 7359.1069 2108445
2885.2195 36.269241 8804.6855 1054990
3227.74 39.851933 9674.416 528391
3807.9668 46.192684 11213.69 134148
5575.292 66.467606 16135.609 9740434
5672.0254 66.477005 16137.893 10990492
5768.2104 66.479782 16138.566 12634551
5864.1587 66.479782 16138.566 10068624
5960.271 66.481621 16139.012 8424054
6056.312 66.482605 16139.251 7637098
6152.2642 66.482605 16139.251 3818804
6247.1953 66.471733 16136.612 4281140
6343.4717 66.475296 16137.477 398848
6438.7075 66.46801 16135.708 2304
6489.8047 66.011971 16025.001 531968
6477.418 64.932739 15763.008 2899229
5894.3145 58.244743 14139.437 2898722
5708.5796 55.616222 13501.339 1024
6021.0264 57.846863 14042.847 512
6371.8838 60.380466 14657.902 512
6980.9541 65.259537 15842.341 1024
7206.6079 66.472153 16136.715 1714962
7304.0723 66.486061 16140.091 1717266
7400.0308 66.486069 16140.093 337153
7495.5693 66.482353 16139.19 3759921
7591.1001 66.478661 16138.295 3954994
7687.0464 66.478661 16138.295 134658
7782.9927 66.478661 16138.295 1024
7668.8169 64.705742 15707.903 256
7762.2046 64.705742 15707.903 256
7855.5923 64.705742 15707.903 256
8110.3286 66.019142 16026.743 256
8205.6123 66.019142 16026.743 256
7694.8569 61.199169 14856.649 256
7649.9897 60.151859 14602.406 256
7686.4458 59.76033 14507.358 256
7823.6206 60.151859 14602.406 256
8368.71 63.636627 15448.365 0
8837.5625 66.472321 16136.755 1119762
8933.5205 66.472466 16136.79 198403
9029.458 66.472466 16136.79 593673
9125.3018 66.471779 16136.625 1646362
8989.584 64.801888 15731.243 264451
9284.2275 66.236732 16079.562 67585
9379.8252 66.236732 16079.562 2108447
9475.4229 66.236732 16079.562 4740934
8133.2173 56.286343 13664.017 1253391
8187.4062 56.101009 13619.025 1318162
7401.2266 50.217392 12190.725 768
7653.7002 51.426826 12484.326 2049
7882.1636 52.453251 12733.5 513
8611.2002 56.759605 13778.906 396295
8693.1201 56.759605 13778.906 330246
8461.0439 54.728592 13285.858 527881
8708.9873 55.811337 13548.704 725771
8312.3896 52.781567 12813.2 1186065
8388.5674 52.781567 12813.2 791821
8464.7451 52.781567 12813.2 1024
8655.4746 53.489471 12985.052 68355
8859.9277 54.268925 13174.271 595981
9067.166 55.051624 13364.278 1386266
9903.5186 59.607243 14470.195 7967879
11139.518 66.46907 16135.966 8885136
11235.764 66.470917 16136.415 7436160
11331.224 66.468132 16135.737 7303807
11427.743 66.47155 16136.567 7763589
11524.159 66.474312 16137.239 6974073
11620.316 66.475555 16137.541 5065560
11716.681 66.477951 16138.122 4012614
11813.15 66.480904 16138.839 3157820
11909.894 66.485336 16139.914 3552835
12004.851 66.479797 16138.569 3684931
12100.797 66.47979 16138.568 4013641
12196.407 66.477943 16138.12 4671571
12292.358 66.477974 16138.128 4672086
12388.305 66.477974 16138.128 4475221
12484.251 66.477974 16138.128 4409683
12579.841 66.476097 16137.672 4475219
12614.344 66.153893 16059.453 4344147
12433.687 64.716621 15710.544 4212817
12527.091 64.716621 15710.544 4145998
12962.895 66.47242 16136.779 3882568
13059.868 66.477692 16138.059 3552831
13156.228 66.479782 16138.566 2894899
13252.547 66.481644 16139.019 2894129
13349.982 66.489037 16140.813 459786
13446.318 66.490891 16141.263 1972770
13542.283 66.490891 16141.263 1974053
13637.487 66.487183 16140.364 2894900
13732.847 66.484291 16139.66 3093050
13828.254 66.481644 16139.02 3356221
13736.232 65.584167 15921.148 3356223
13471.188 63.878513 15507.086 3422015
13467.802 63.428379 15397.811 3356222
13705.909 64.113968 15564.244 3224636
13798.442 64.113968 15564.244 3224636
13824.031 63.804981 15489.235 3093050
13908.124 63.768322 15480.336 3093050
14000.158 63.768322 15480.336 3027513
14216.285 64.329857 15616.652 2961463
14371.954 64.612289 15685.216 2698291
14412.271 64.375832 15627.814 2631729
14205.142 63.044212 15304.552 2631983
15074.445 66.476486 16137.767 2631470
15170.389 66.476486 16137.767 1710366
15266.332 66.476486 16137.767 1841437
15364.145 66.484573 16139.729 985869
15460.962 66.488281 16140.63 787717
15561.424 66.507523 16145.301 4142390
15657.417 66.507538 16145.305 4864827
0 0 0 0
0 0 0 0
0 0 0 0
0 0 0 0
0 0 0 0
0 0 0 0
0 0 0 0
0 0 0 0
0 0 0 0
-2579.6531 29.731468 2954.0667 795138
-2565.4744 29.770741 2957.9685 1189891
-2549.9434 29.794748 2960.354 992259
-2532.3433 29.794748 2960.354 400896
-2530.564 29.982199 2978.9785 1058305
-2494.7424 29.766108 2957.5083 1454341
-2483.1262 29.837807 2964.6323 2573328
-2465.5005 29.837807 2964.6323 2837520
-2493.072 30.388727 3019.3706 3956511
-2550.5872 31.315275 3111.4309 4483111
-2539.7073 31.409494 3120.7922 3561492
-2531.0698 31.533039 3133.0674 863232
-2520.4045 31.632965 3142.9958 1982720
-2553.3738 32.286118 3207.8921 4089369
-2732.968 34.817055 3459.3616 5011239
-2657.4446 34.111618 3389.2705 5143596
-2635.2146 34.084721 3386.5979 2841869
-2617.1443 34.111618 3389.2705 1657093
-3078.4822 40.435982 4017.6484 1592071
-3054.5964 40.435982 4017.6484 999936
-2888.2258 38.534946 3828.7646 1197061
-3323.3447 44.692577 4440.5762 999939
-3436.042 46.578148 4627.9233 1065477
-4050.7898 55.354778 5499.9536 802306
-4037.3445 55.620018 5526.3076 933890
-4011.1411 55.712414 5535.4878 604416
-4275.4951 59.875393 5949.1138 604416
-4281.6133 60.461239 6007.3228 802051
-4245.5391 60.456123 6006.8145 735746
-4159.7031 59.736317 5935.2959 801792
-4147.8198 60.075279 5968.9746 999171
-4088.207 59.722847 5933.957 867585
-4120.2148 60.714359 6032.4727 999170
-4103.9824 61.006207 6061.4697 1065220
-4161.1763 62.404369 6200.3887 801793
-4124.313 62.404369 6200.3887 538624
-4087.4502 62.404369 6200.3887 801793
-3848.7529 59.294857 5891.4331 604672
-3810.1238 59.238846 5885.8677 472320
-4046.7549 63.501129 6309.3608 538112
-3759.5005 59.545521 5916.3389 340480
-3685.6418 58.927029 5854.8862 208896
-3650.8328 58.927029 5854.8862 208896
-3627.7434 59.118008 5873.8618 77056
-3615.7385 59.49509 5911.3281 471552
-3450.9666 57.341206 5697.3218 471552
-3372.4275 56.591671 5622.8491 273920
-3295.0701 55.847145 5548.8745 208128
-3236.1479 55.403179 5504.7627 536832
-2962.9539 51.244297 5091.5439 602370
-2877.854 50.286243 4996.353 1654544
-2832.3677 50.007607 4968.668 470272
-2577.0457 45.979244 4568.417 403968
-2525.2671 45.535332 4524.3105 534528
-2647.7366 48.257713 4794.8018 731397
-2624.2192 48.349636 4803.9351 1058826
-2590.7239 48.257713 4794.8018 1057291
-2567.0979 48.349636 4803.9351 1121804
-2544.4441 48.462139 4815.1133 1712662
-2500.731 48.171539 4786.2397 1777433
-2439.7917 47.538605 4723.3525 3093038
-2400.5415 47.318459 4701.479 5658709
-2367.6721 47.220375 4691.7339 6448992
-2348.7363 47.401157 4709.6958 5265484
-2317.2004 47.328949 4702.5215 4279356
-2289.8469 47.341442 4703.7627 1320715
-2433.2454 50.928101 5060.127 1255946
-2447.322 51.863956 5153.1118 1585425
-2515.6475 53.987755 5364.1289 1191433
-2696.0227 58.601658 5822.5576 1191689
-2761.3948 60.803314 6041.3105 862723
-2768.115 61.754524 6135.8213 1059846
-2760.085 62.397682 6199.7241 730368
-2878.8313 65.963089 6553.9771 1190149
-2846.6309 66.120216 6569.5889 1386504
-2806.2144 66.088234 6566.4106 1123077
-2767.1753 66.088234 6566.4106 1188615
-2931.5754 71.016479 7056.0732 1122310
-2944.4294 72.363365 7189.8975 793348
-2854.6677 71.19088 7073.4004 989702
-2824.3081 71.486855 7102.8086 594434
-2772.7229 71.246422 7078.9194 265216
-2730.6367 71.246422 7078.9194 856837
-2649.7627 70.218544 6976.7915 988423
-2264.2791 60.957466 6056.627 922631
-2109.813 57.716896 5734.6494 791046
-2040.1289 56.727287 5636.3237 396290
-1932.6674 54.636662 5428.6025 724485
-1853.866 53.299004 5295.6953 789765
-1701.0288 49.749809 4943.0542 921093
-1687.9542 50.235313 4991.2925 986113
-1634.3702 49.511005 4919.3267 1247232
-1562.1266 48.184738 4787.5513 4859935
-1523.6688 47.870735 4756.3525 5449762
-1485.2225 47.545219 4724.0098 5447708
-1482.8468 48.384113 4807.3608 4921878
-1463.2994 48.684669 4837.2236 5119257
-1452.7072 49.301193 4898.48 4988443
-1415.7455 49.029716 4871.5068 3805197
-1445.9879 51.12291 5079.4824 5451821
-1462.4469 52.807686 5246.8789 2756622
-1457.4949 53.775913 5343.0806 917504
-1364.0563 51.449741 5111.9561 655360
-1332.0278 51.386616 5105.6836 851968
-1192.4879 47.076271 4677.4155 851968
-1174.5154 47.473839 4716.9175 786432
-1160.9166 48.071976 4776.3472 1049346
-1138.8749 48.341724 4803.1489 1379083
-1110.3188 48.341724 4803.1489 458752
-1182.5073 52.843781 5250.4658 524288
-1172.9161 53.836323 5349.083 655360
-1141.1143 53.836323 5349.083 1245184
-1110.5051 53.894203 5354.8335 1507328
-1095.6278 54.741528 5439.022 1048576
-1063.2914 54.741528 5439.022 589824
-1036.7117 55.047203 5469.3936 262144
-1001.8979 54.921303 5456.8843 196608
-969.4552 54.921303 5456.8843 0
-950.98767 55.740433 5538.2715 0
-964.36334 58.551685 5817.5928 0
-929.77612 58.551685 5817.5928 0
-890.81104 58.265347 5789.1426 0
-856.39301 58.265347 5789.1426 0
-815.90527 57.835098 5746.394 0
-774.5777 57.305115 5693.7358 0
-740.59705 57.295071 5692.7378 0
-698.9668 56.663925 5630.0283 0
-666.67255 56.76421 5639.9927 0
-638.61694 57.255142 5688.7705 0
-606.43994 57.410805 5704.2373 0
-569.88397 57.145805 5677.9072 1024
-535.76117 57.106785 5674.0303 512
-497.37939 56.578056 5621.4966 512
-464.98453 56.703236 5633.9341 512
-428.7706 56.345974 5598.437 512
-395.20737 56.306229 5594.4883 512
-363.23727 56.507015 5614.438 512
-348.72784 59.739578 5935.6196 512
-313.43893 59.739578 5935.6196 768
-259.84045 55.807148 5544.9004 768
-226.8745 55.807148 5544.9004 768
-194.40474 55.949963 5559.0903 2305
-160.92889 55.802422 5544.4307 1024
-126.85099 55.316315 5496.1323 1024
-93.807793 55.100655 5474.7046 512
-61.315639 55.151466 5479.7529 512
-28.736984 55.151466 5479.7529 512
3.8408515 55.139675 5478.5815 512
36.41254 55.139675 5478.5815 512
68.618065 54.846992 5449.501 512
101.01686 54.846992 5449.501 512
133.44087 54.857349 5450.5303 512
166.0078 54.910946 5455.855 512
198.61375 54.957809 5460.5117 256
229.2543 54.524071 5417.416 1024
256.75992 53.543449 5319.9834 256
286.63 53.216923 5287.54 512
312.60233 52.302792 5196.7139 1280
347.91101 52.974705 5263.4736 1319184
386.18616 53.95013 5360.3906 1583892
408.6907 52.741646 5240.3174 1058574
431.40634 51.729668 5139.7695 2111516
464.03595 51.961716 5162.8247 1453331
494.73035 51.961716 5162.8247 1058062
520.42981 51.467735 5113.7441 399108
551.89227 51.566765 5123.5835 1121808
588.02777 52.069225 5173.5068 133378
618.78571 52.069225 5173.5068 1792
651.50385 52.226357 5189.1191 1280
686.42212 52.537682 5220.0518 1024
717.45685 52.537682 5220.0518 768
748.49146 52.537682 5220.0518 199937
817.49677 55.096783 5474.3198 1252879
861.48596 55.83847 5548.0127 528646
906.98602 56.61977 5625.6411 1024
977.06458 58.825279 5844.7764 1024
966.88361 56.213131 5585.2378 1121041
1062.3173 59.710838 5932.7642 1252627
1155.8416 62.879864 6247.6333 1024
1313.5051 69.232224 6878.792 768
1474.8501 75.38913 7490.5317 768
1549.4536 76.881165 7638.7773 512
1604.2089 77.331429 7683.5151 199427
1655.3151 77.585724 7708.7817 1712153
1624.3475 74.083107 7360.7681 724746
1608.8473 71.451195 7099.2656 7567218
1651.0543 71.451195 7099.2656 987150
1655.6195 69.862801 6941.4458 922381
1699.9542 69.989037 6953.9878 1515290
1721.2603 69.183655 6873.9668 133124
1690.5315 66.372681 6594.6733 66818
1729.7388 66.372681 6594.6733 1026
1835.5044 68.870026 6842.8047 133894
1882.0667 69.085861 6864.25 1794
1941.5081 69.755264 6930.7607 1280
1981.3713 69.708054 6926.0698 68101
2036.4265 70.186348 6973.5928 199172
2111.2947 71.314812 7085.7144 661518
2166.0437 71.732826 7127.248 1714717
2180.3223 70.820259 7036.5771 1386265
2239.093 71.360023 7090.2065 728078
2414.2068 75.51918 7503.4531 3360053
2783.7668 85.499573 8495.0879 1188885
2885.0269 87.03064 8647.2119 1320214
3461.1494 102.58217 10192.384 1253650
3776.0212 109.98875 10928.289 726278
5671.79 162.41454 16137.223 1120775
5767.9697 162.42126 16137.893 2568735
5863.9961 162.42355 16138.119 5133639
5959.7769 162.41905 16137.672 2633250
6055.5508 162.41454 16137.223 1449487
5523.7642 145.84097 14490.504 3687725
5609.9141 145.84097 14490.504 8490360
6343.187 162.40979 16136.752 12371379
4628.3423 116.73763 11598.847 6384222
4697.3008 116.73763 11598.847 3886389
4766.2593 116.73763 11598.847 3557423
5350.6738 129.1824 12835.337 264707
5650.9233 134.513 13364.976 1024
5737.7271 134.68542 13382.107 512
5817.2876 134.68542 13382.107 768
6459.0293 147.52577 14657.902 2896939
7206.1821 162.39983 16135.763 462342
7303.3306 162.4269 16138.451 1516815
7399.2778 162.4269 16138.451 4413994
6336.416 137.31465 13643.344 4347948
5719.0952 122.3704 12158.508 6715979
5511.8599 116.46418 11571.677 199424
5424.5767 113.20691 11248.04 1186825
7878.7993 162.42242 16138.008 512
7974.9668 162.42696 16138.457 256
8070.9717 162.42812 16138.572 512
8166.4561 162.41888 16137.655 1120018
8262.3984 162.41888 16137.655 512
8357.7949 162.40826 16136.6 256
8453.4961 162.40373 16136.15 256
8549.2061 162.39948 16135.728 512
8645.1377 162.39948 16135.728 1024
8741.625 162.40982 16136.755 332552
8837.6943 162.41223 16136.994 5203789
8933.5205 162.41017 16136.79 264963
9029.458 162.41017 16136.79 792328
9124.6357 162.39665 16135.446 1054223
8807.9639 155.12975 15413.419 857100
9316.8311 162.40251 16136.028 67328
9412.7832 162.40283 16136.061 2174748
9508.7158 162.40283 16136.061 3228968
9047.9287 152.98936 15200.755 2243351
8625.0068 144.39601 14346.936 5861195
7401.2266 122.69465 12190.725 264706
7583.1118 124.49078 12369.187 461832
7882.1636 128.15746 12733.5 2106655
8611.2002 138.67905 13778.906 256
8693.1201 138.67905 13778.906 1025
8225.4395 129.99327 12915.904 132868
8301.1807 129.97687 12914.273 725261
7721.6978 119.79553 11902.674 659468
7792.4624 119.79553 11902.674 256
8139.4336 124.00352 12320.771 512
8280.7188 125.03077 12422.838 397321
8987.7109 134.50598 13364.278 68610
9067.166 134.50598 13364.278 1123859
10648.236 156.58806 15558.315 5402947
11139.518 162.40187 16135.966 6521690
11235.604 162.40408 16136.185 11782334
11331.224 162.39957 16135.737 13291982
11427.743 162.40793 16136.567 13488081
11524.374 162.41774 16137.541 13357266
11620.621 162.42198 16137.964 13422803
11716.676 162.42352 16138.116 13357012
11812.626 162.42357 16138.122 13159636
11909.101 162.4308 16138.839 12698832
12004.85 162.42807 16138.568 12172489
12100.797 162.42807 16138.568 11514559
12196.407 162.42357 16138.12 10856629
12292.354 162.42357 16138.122 9935272
12388.305 162.42363 16138.128 8553877
12484.251 162.42363 16138.128 6711672
12579.841 162.41905 16137.672 4803161
12675.085 162.41011 16136.784 3947851
0 0 0 0
12866.957 162.41006 16136.779 3618629
12963.612 162.41905 16137.672 4013128
13059.868 162.42294 16138.059 3880773
13155.812 162.42294 16138.059 2499118
13252.176 162.42804 16138.566 2958899
13348.123 162.42804 16138.566 2695727
13445.569 162.44615 16140.364 2564397
13541.529 162.44615 16140.364 2499629
13637.487 162.44615 16140.364 3224122
13733.282 162.4442 16140.171 3356223
13828.362 162.43388 16139.146 3488066
13924.204 162.43262 16139.02 3422275
14019.821 162.42874 16138.635 3488066
14114.544 162.41464 16137.234 3422274
14136.48 161.56883 16053.196 3422273
14231.922 161.56883 16053.196 3224894
14212.796 160.27687 15924.829 3159101
14020.683 157.06415 15605.619 3158845
14123.441 157.1752 15616.652 3290428
14278.7 157.86526 15685.216 3093049
14371.954 157.86526 15685.216 3092793
14412.271 157.28754 15627.814 2960693
14205.142 154.03403 15304.552 2763314
14963.07 161.21999 16018.535 2631471
15170.361 162.41971 16137.737 2038817
15267.095 162.42812 16138.572 2104098
15364.34 162.44182 16139.935 1051149
15461.627 162.45581 16141.324 1049863
15559.022 162.47075 16142.809 4471351
15657.414 162.49582 16145.301 4667702
0 0 0 0
0 0 0 0
0 0 0 0
0 0 0 0
0 0 0 0
0 0 0 0
0 0 0 0
0 0 0 0
0 0 0 0
-2526.3633 46.317226 2893.0425 2707212
-2562.0901 47.29422 2954.0667 3232786
-2549.9434 47.394875 2960.354 2968080
-2533.0168 47.407486 2961.1416 2376202
-2515.4119 47.407486 2961.1416 597504
-2483.5784 47.137428 2944.2734 3231003
-2483.1262 47.463371 2964.6323 2573586
-2448.5693 47.137428 2944.2734 2113033
-2450.9819 47.523613 2968.395 2113541
-2534.6714 49.502758 3092.0154 2640397
-2539.7073 49.963474 3120.7922 2706700
-2557.6248 50.686256 3165.9382 2443272
-2538.8022 50.686256 3165.9382 1259008
-2548.2517 51.254906 3201.457 3365393
-2631.9387 53.336548 3331.4795 2839049
-2655.3489 54.218987 3386.5979 2181893
-2637.2944 54.261772 3389.2705 2117129
-2757.5862 57.17358 3571.1465 1064961
-2799.1841 58.486343 3653.1433 933888
-3054.5964 64.322021 4017.6484 868096
-2888.2258 61.298019 3828.7646 604672
-3323.3447 71.09304 4440.5762 802305
-3729.1692 80.413231 5022.729 1065476
-3995.6487 86.854904 5425.0859 802050
-4018.0911 88.053535 5499.9536 736258
-4011.1411 88.622429 5535.4878 670464
-4275.0879 95.235466 5948.5479 604672
-4239.7227 95.235466 5948.5479 604672
-4173.3745 94.533676 5904.7129 670464
-4158.7651 95.001869 5933.957 670464
-4063.2827 93.614838 5847.3208 472832
-4028.5188 93.614838 5847.3208 275456
-3995.5269 93.656372 5849.915 670209
-4050.4519 95.777534 5982.4062 539136
-4014.8848 95.777534 5982.4062 670209
-3960.6189 95.327477 5954.2949 670208
-3818.5066 92.73587 5792.4194 604928
-3779.502 92.62394 5785.4282 801026
-3708.676 91.722961 5729.1514 472064
-3775.1306 94.231964 5885.8677 9728
-3680.6106 92.732201 5792.1899 207616
-3549.6704 90.277832 5638.8867 273408
-3566.0728 91.559723 5718.9556 405248
-3482.6211 90.277832 5638.8867 471552
-3439.2866 90.021072 5622.8491 142592
-3361.0493 88.836746 5548.8745 734977
-3285.417 87.698471 5477.7759 602881
-3238.3289 87.306969 5453.3223 404992
-3118.856 84.936287 5305.2461 273152
-2800.4558 77.044403 4812.3071 272896
-2771.8452 77.044403 4812.3071 601090
-2832.3677 79.547722 4968.668 601345
-2641.9185 74.980927 4683.4194 797956
-2557.2693 73.351555 4581.6465 600320
-2615.4324 75.827568 4736.3018 1323017
-2619.8413 76.782059 4795.9204 1190155
-2595.6587 76.91037 4803.9351 332033
-2572.0293 77.058105 4813.1631 1713941
-2543.4136 77.058105 4813.1631 1449489
-2486.0244 76.17643 4758.0923 3290672
-2439.7917 75.620255 4723.3525 3093039
-2400.5415 75.270058 4701.479 5461331
-2367.6721 75.114037 4691.7339 6975337
-2339.7786 75.114037 4691.7339 4081211
-2298.0435 74.664322 4663.644 3950391
-2313.6401 76.089111 4752.6382 2503712
-2408.0925 80.17453 5007.8193 1386510
-2396.2576 80.779228 5045.5898 1190156
-2413.0811 82.377594 5145.4263 1651217
-2605.6765 90.094551 5627.4385 1125130
-2661.406 93.218384 5822.5576 598787
-2626.7891 93.218384 5822.5576 269824
-2622.8796 94.322655 5891.5322 532739
-2652.3804 96.674576 6038.4365 2307354
-2616.4802 96.674576 6038.4365 859140
-2519.9272 94.402374 5896.5117 1121034
-2433.9233 92.466835 5775.6152 198400
-2399.5857 92.466835 5775.6152 593924
-2500.5964 97.758141 6106.1177 593414
-2555.1326 101.3617 6331.2012 527621
-2824.3081 113.71503 7102.8086 527364
-2772.7229 113.33257 7078.9194 263936
-2616.6592 108.60204 6783.4434 263681
-2516.896 106.09667 6626.9551 263680
-2107.1479 90.236801 5636.3237 197632
-2065.7136 89.891937 5614.7832 329217
-1970.5629 87.159836 5444.1318 0
-1911.769 85.97142 5369.9019 66048
-1849.3518 84.576935 5282.8003 0
-1770.2419 82.357674 5144.1816 131072
-1705.9012 80.759567 5044.3618 196608
-1634.3702 78.757767 4919.3267 720896
-1562.1266 76.648064 4787.5513 2032900
-1533.6631 76.648064 4787.5513 5384997
-1493.1344 76.033669 4749.1753 5316380
-1469.4562 76.270195 4763.9487 4987671
-1463.2994 77.443314 4837.2236 5316380
-1452.7072 78.424019 4898.48 5119773
-1423.5844 78.424019 4898.48 4856859
-1424.5022 80.113495 5004.0073 5648174
-1473.3566 84.628479 5286.02 4005404
-1478.4219 86.770248 5419.7979 851968
-1431.8385 85.908592 5365.9775 589824
-1333.6643 81.841743 5111.9561 720896
-1281.6991 80.487007 5027.3374 720896
-1189.3135 76.468689 4776.3472 655360
-1159.8044 76.395424 4771.771 589824
-1131.4349 76.395424 4771.771 524288
-1134.2578 78.555725 4906.7065 458752
-1174.299 83.475769 5214.0195 524288
-1168.6809 85.328896 5329.7686 786432
-1136.994 85.328896 5329.7686 1442048
-1109.3125 85.638115 5349.083 1572864
-1081.9877 85.993935 5371.3081 1442817
-1057.9946 86.644249 5411.9277 524288
-1023.1863 86.42186 5398.0371 262144
-990.01984 86.328239 5392.1895 131072
-944.87469 85.14888 5318.5249 65536
-926.42682 86.377022 5395.2363 0
-949.58838 91.711922 5728.4619 0
-911.30835 91.28891 5702.04 0
-880.39502 91.599678 5721.4512 0
-841.46283 91.067581 5688.2158 0
-807.64478 91.067581 5688.2158 0
-768.30011 90.417175 5647.5903 0
-729.96973 89.832153 5611.0488 0
-695.95038 89.747032 5605.7319 0
-662.85773 89.778854 5607.7197 0
-633.14124 90.29554 5639.9927 0
-605.74646 91.21965 5697.7144 1118992
-565.89587 90.266403 5638.1729 133123
-535.08575 90.72596 5666.8774 1025
-494.58115 89.493088 5589.8706 512
-463.90536 89.989204 5620.8589 512
-428.46817 89.567017 5594.4883 512
-394.92435 89.502876 5590.4819 512
-359.94595 89.071938 5563.5649 512
-324.97366 88.555466 5531.3052 512
-291.72961 88.446655 5524.5088 512
-257.18967 87.867485 5488.333 512
-225.85365 88.37368 5519.9507 512
-194.40474 89.000305 5559.0903 768
-160.92889 88.76561 5544.4307 768
-126.35644 87.6493 5474.7046 768
-92.980186 86.876022 5426.4048 768
-60.722733 86.881798 5426.7651 512
-28.543261 87.13871 5442.8125 512
3.827997 87.417809 5460.2456 512
36.41254 87.711372 5478.5815 512
68.823967 87.507591 5465.853 512
101.31998 87.507591 5465.853 256
134.1156 87.703506 5478.0903 198145
166.70903 87.716476 5478.9009 256
199.18001 87.671318 5476.0801 593160
226.34622 85.631927 5348.6968 198402
255.19411 84.652824 5287.54 512
285.05307 84.187096 5258.4502 66560
312.60233 83.1987 5196.7139 67329
347.91101 84.267525 5263.4736 512
386.9191 85.982018 5370.564 512
414.40219 85.06926 5313.5513 1024
439.84586 83.89679 5240.3174 2048
472.26889 84.122635 5254.4238 331781
494.73035 82.656143 5162.8247 1186832
521.1001 81.975822 5120.3306 2816
558.73114 83.04435 5187.0728 989965
593.65369 83.619606 5223.0039 1582103
624.70593 83.619606 5223.0039 923915
656.42926 83.705185 5228.3491 1449492
682.89569 83.14299 5193.2339 988684
726.92029 84.674683 5288.9058 462596
784.95038 87.643143 5474.3198 396801
824.01862 88.342346 5517.9937 1515284
895.04865 92.283409 5764.1577 264451
954.76849 94.810684 5922.0151 264705
1093.326 104.70854 6540.25 1280
1132.2097 104.70854 6540.25 462086
1176.9491 105.23211 6572.9531 256
1272.6089 110.12855 6878.792 198147
1458.6244 122.29581 7638.7773 198146
1512.8477 123.01206 7683.5151 256
1592.226 125.67177 7849.6445 256
1635.7361 125.4296 7834.5181 256
1682.3146 125.4296 7834.5181 256
1637.9385 118.83094 7422.3555 2500386
1626.6755 114.91781 7177.9355 7040103
1669.3503 114.91781 7177.9355 5461583
1714.0148 115.05135 7186.2773 2567462
1699.9542 111.33243 6953.9878 5594966
1741.2977 111.33243 6953.9878 1251601
1787.5186 111.63703 6973.0142 1449493
1828.975 111.63703 6973.0142 791307
1849.2108 110.37048 6893.9028 264964
1890.197 110.37048 6893.9028 133377
1946.1104 111.22358 6947.1895 67585
1964.5729 109.94535 6867.3486 133635
2069.1682 113.44135 7085.7144 594956
2119.7952 113.89809 7114.2427 398087
2182.4834 114.97234 7181.3418 1056019
2180.3223 112.65468 7036.5771 794128
2222.1567 112.65468 7036.5771 860431
2367.7639 117.81834 7359.1069 2045473
2678.6099 130.86763 8174.1851 3099187
2766.8767 132.77118 8293.084 2902578
3052.9812 143.93529 8990.4111 3560507
3338.074 154.66835 9660.8135 3757373
3426.5798 156.0836 9749.2119 3033137
3905.9646 174.96048 10928.289 3492147
3542.5034 156.0836 9749.2119 200194
5959.6104 258.3548 16137.223 265217
6055.5508 258.3548 16137.223 331264
4171.4033 175.19363 10942.854 265473
4236.4619 175.19363 10942.854 133888
5545.0337 225.83984 14106.29 512
4405.5596 176.75761 11040.542 1713685
4471.1987 176.75761 11040.542 67584
4498.3086 175.2565 10946.78 1843990
4981.7021 191.32173 11950.237 512
5426.9834 205.49205 12835.337 512
5643.3633 210.72224 13162.022 512
5235.1045 192.80447 12042.852 1
5896.8477 214.24577 13382.107 10988203
7207.1821 258.36725 16138.001 8749445
7303.6509 258.3858 16139.159 1908249
6337.46 221.29698 13822.536 13093831
6093.3794 210.05022 13120.046 12304314
5719.0952 194.65611 12158.508 12830657
5511.8599 185.26102 11571.677 13948885
5424.5767 180.07964 11248.04 2761761
7877.9053 258.33804 16136.176 256
7974.9668 258.37457 16138.457 724239
8070.9717 258.3764 16138.572 723209
8166.9204 258.3764 16138.572 4011831
8262.3984 258.36172 16137.655 395016
8358.3418 258.36172 16137.655 197634
8454.2012 258.35916 16137.496 768
8549.6816 258.34525 16136.625 512
8645.5752 258.34396 16136.545 461831
8741.7549 258.35114 16136.994 1251347
8837.7793 258.35364 16137.149 1447702
8933.7188 258.35364 16137.149 1778459
9029.6768 258.35416 16137.182 857358
9125.3955 258.3479 16136.79 1515030
9220.5645 258.32635 16135.446 857356
9316.8311 258.33569 16136.028 398342
9412.7832 258.33621 16136.061 1913117
9508.7158 258.33621 16136.061 3889203
9604.6504 258.33621 16136.061 5534786
8625.0068 229.69255 14346.936 4941620
7252.3647 191.2464 11945.532 4864
7322.2539 191.21687 11943.688 3228460
7394.4043 191.2464 11945.532 2304540
7802.1455 199.87241 12484.326 1024
7622.5596 193.4317 12082.029 256
7460.7402 187.55789 11715.143 1024
7530.3896 187.55789 11715.143 66817
7672.4487 189.34483 11826.758 264453
7742.7617 189.34483 11826.758 725004
7965.9355 193.04932 12058.146 512
8250.1582 198.15399 12376.99 1024
8354.5762 198.888 12422.838 266245
8428.4326 198.888 12422.838 1188628
9335.668 218.38258 13640.499 4151870
11139.419 258.33237 16135.822 7376758
11235.352 258.33237 16135.822 13488844
10381.504 236.67917 14783.33 13488848
11427.743 258.3443 16136.567 13619666
11524.374 258.35989 16137.541 13684946
11620.621 258.36667 16137.964 13684946
11716.565 258.36667 16137.964 13488850
11812.621 258.36911 16138.116 13554130
11908.571 258.3692 16138.122 13554130
12004.516 258.36917 16138.12 13488850
12100.461 258.36917 16138.12 13488594
12196.407 258.36917 16138.12 13423057
12292.353 258.36917 16138.12 13422802
12388.305 258.36929 16138.128 13225681
12484.251 258.36929 16138.128 13159889
12580.186 258.36908 16138.115 13093842
12675.085 258.34781 16136.784 12896721
0 0 0 0
12866.957 258.34772 16136.779 12633039
12963.563 258.36102 16137.612 12040646
13059.868 258.36819 16138.059 11777216
13155.812 258.36819 16138.059 11119030
13251.81 258.3692 16138.122 9407387
13347.756 258.3692 16138.122 6709872
13443.701 258.3692 16138.122 5590881
13539.647 258.3692 16138.122 3156798
13636.893 258.39383 16139.66 1972770
13732.847 258.39383 16139.66 1973281
13828.254 258.38358 16139.02 2039083
13924.204 258.38358 16139.02 2368564
14019.821 258.37741 16138.635 2960957
14114.544 258.35501 16137.234 3881802
14136.48 257.00955 16053.196 3750985
14231.922 257.00955 16053.196 3553605
14327.362 257.00955 16053.196 3684934
14499.107 258.36929 16138.126 3619141
14595.054 258.36929 16138.126 3487554
14595.65 256.69241 16033.387 3290175
14690.975 256.69241 16033.387 3158588
14717.735 255.50217 15959.042 3158073
14812.616 255.50217 15959.042 2829107
15075.617 258.38361 16139.021 2697264
15171.146 258.3764 16138.572 2104355
15267.095 258.3764 16138.572 2564392
15364.34 258.39822 16139.935 984586
15462.433 258.43393 16142.165 525061
15558.532 258.4361 16142.3 4798779
15653.062 258.41232 16140.814 4536370
0 0 0 0
0 0 0 0
0 0 0 0
0 0 0 0
0 0 0 0
0 0 0 0
0 0 0 0
0 0 0 0
0 0 0 0
-2526.3633 63.51717 2893.0425 2508292
-2541.5779 64.337715 2930.416 2903049
-2530.614 64.502327 2937.9138 4548381
-2532.3433 64.99501 2960.354 3824915
-2515.4119 65.012299 2961.1416 4219420
-2506.699 65.243736 2971.6829 3758872
-2489.0317 65.243736 2971.6829 1719041
-2468.6299 65.171547 2968.395 1389570
-2460.196 65.41655 2979.5542 2508815
-2525.9814 67.652908 3081.4146 1850887
-2516.2886 67.885651 3092.0154 2048010
-2510.5688 68.229797 3107.6904 1324545
-2470.1399 67.628761 3080.3147 1717255
-2519.98 69.508636 3165.9382 664064
-2574.24 71.539642 3258.4451 1522432
-2625.5935 73.520058 3348.6482 2443782
-2637.2944 74.411926 3389.2705 3958048
-2775.2563 78.907455 3594.0298 931841
-2772.0308 79.427277 3617.7065 801536
-2831.2007 81.757027 3723.8208 932865
0 0 0 0
0 0 0 0
-3362.1511 99.421715 4528.4014 1195782
-3908.4453 116.50906 5306.6855 932611
-4067.9631 122.25105 5568.2183 932612
-4178.7778 126.61163 5766.8311 1129991
-4275.0879 130.60124 5948.5479 1261577
-4208.4795 129.63884 5904.7129 1656335
-3990.3201 123.95255 5645.7173 866819
-4037.5059 126.48223 5760.9375 669697
-4003.2554 126.48223 5760.9375 669185
-3937.8235 125.48856 5715.6782 603392
-3903.8423 125.48856 5715.6782 735234
-3957.7117 128.3373 5845.4312 735234
-3901.9697 127.65065 5814.1562 472064
-3848.2939 127.01992 5785.4282 406528
-3813.8979 127.01992 5785.4282 472576
-3776.6177 126.923 5781.0132 537856
-3716.0732 126.03525 5740.5786 537344
-3713.1348 127.10292 5789.2085 274432
-3651.1348 126.14996 5745.8037 339712
-3549.6704 123.80258 5638.8867 471552
-3577.4077 125.9596 5737.1333 471296
-3505.0195 124.59882 5675.1533 339200
-3377.9448 121.24866 5522.562 207872
-3326.0466 120.55762 5491.0869 141312
-3270.7502 119.72849 5453.3223 338688
-3214.4634 118.84614 5413.1333 404224
-3172.5703 118.48349 5396.6157 403968
-2891.4478 109.08784 4968.668 535552
-2811.2876 107.15835 4880.7847 1127689
-2816.7517 108.4864 4941.2739 534785
-2641.9185 102.82516 4683.4194 1324042
-2618.1284 102.98462 4690.6826 401410
-2615.4324 103.98621 4736.3018 1256969
-2573.0405 103.41415 4710.2461 1321485
-2545.0366 103.41415 4710.2461 1912341
-2567.0979 105.47109 4803.9351 1779989
-2514.3125 104.46461 4758.0923 1976603
-2463.3252 103.51078 4714.6475 2172192
-2435.2952 103.51078 4714.6475 1645849
-2452.4014 105.4516 4803.0469 6317408
-2359.8306 102.66653 4676.1948 4147007
-2317.8455 102.04211 4647.7534 6252892
-2260.4639 100.71661 4587.3804 3292461
-2313.0273 104.31724 4751.3794 1648915
-2284.7791 104.31724 4751.3794 1650194
-2378.3196 109.9474 5007.8193 1453073
-2453.531 114.86225 5231.6777 1058829
-2605.6765 123.55123 5627.4385 268036
-2572.2197 123.55123 5627.4385 1254932
-2489.7546 121.1662 5518.8062 69378
