# .PCD v0.7 - Point Cloud Data file format
VERSION 0.7
FIELDS x y z rgb
SIZE 4 4 4 4
TYPE F F F U
COUNT 1 1 1 1
WIDTH 1402
HEIGHT 1
VIEWPOINT 0 0 0 1 0 0 0
POINTS 1402
DATA ascii
7511.5493 -3772.4009 11268.92 1913389
7460.7632 -3713.772 11093.783 2308150
7519.7017 -3710.3096 11083.44 794397
7541.6675 -3688.823 11019.255 1781293
7607.1797 -3688.823 11019.255 2044208
7487.2598 -3599.6721 10752.943 1649451
7577.8984 -3612.4043 10790.978 1912625
7615.1182 -3599.6721 10752.943 1583662
7483.584 -3508.0457 10479.237 1714481
7694.2334 -3577.0117 10685.252 793379
8510.6328 -3924.1521 11722.23 201242
7793.6616 -3564.3772 10647.511 1516333
8809.8369 -3996.6558 11938.813 5397610
8323.8408 -3745.9988 11190.051 461352
8487.0391 -3789.1589 11318.979 5993362
9628.9434 -4265.1592 12740.887 10598093
9704.6914 -4265.1592 12740.887 4541024
9785.3398 -4267.2959 12747.271 856870
9861.126 -4267.2959 12747.271 791589
9301.5742 -3994.4575 11932.247 1054505
9666.2715 -4119.6528 12306.23 792105
10305.2 -4358.9639 13021.101 1251875
9956.6201 -4180.1177 12486.852 989997
9626.6348 -4011.6672 11983.656 529959
9348.0107 -3866.9387 11551.322 200737
8802.9795 -3614.9214 10798.496 3357
8876.1543 -3618.5803 10809.426 662054
9321.793 -3772.939 11270.526 2767683
9004.6846 -3618.5803 10809.426 4807265
8041.313 -3208.5452 9584.5693 4805721
8421.8594 -3336.7415 9967.5166 9147545
8660.5029 -3407.3167 10178.339 13291729
8721.0156 -3407.3167 10178.339 13554130
8779.7734 -3406.6355 10176.305 13422799
8637.5215 -3328.5039 9942.9092 13554384
8378.4375 -3206.7185 9579.1123 11250610
8723.1143 -3316.0979 9905.8506 13553360
8943.2305 -3376.9756 10087.705 13619664
8945.4434 -3355.3103 10022.986 13488335
8491.3643 -3163.9155 9451.251 13423313
8323.2422 -3080.8855 9203.2236 13554125
8535.0332 -3138.6477 9375.7715 13619920
8206.5996 -2998.2891 8956.4912 13220300
8495.0293 -3083.6587 9211.5078 3286874
8337.4062 -3007.0564 8982.6816 3357021
9154.3809 -3280.7009 9800.1123 3684962
9477.4102 -3374.9858 10081.761 3488864
9537.3486 -3374.9858 10081.761 4146275
9597.2871 -3374.9858 10081.761 4872306
9602.4141 -3355.8301 10024.539 13028048
10059.648 -3493.938 10437.094 13290707
10121.699 -3493.938 10437.094 13423063
0 0 0 0
0 0 0 0
0 0 0 0
0 0 0 0
0 0 0 0
0 0 0 0
0 0 0 0
0 0 0 0
-2514.5654 -940.43433 2860.0603 992512
-2656.3042 -1000.2076 3041.8433 992513
-2703.4946 -1024.9547 3117.1047 1388039
-2695.1162 -1028.8307 3128.8923 2308631
-2582.4241 -992.66333 3018.8997 597250
0 0 0 0
-3781.1213 -1473.9209 4482.5059 268288
-4296.5737 -1686.7379 5129.7275 1792
-4266.0757 -1686.7379 5129.7275 2048
-4235.5781 -1686.7379 5129.7275 1792
-3994.8506 -1602.4106 4873.2705 1536
-4063.4944 -1641.8527 4993.2222 1536
-4033.8086 -1641.8527 4993.2222 1280
-4262.292 -1747.7129 5315.165 200705
-4230.6919 -1747.7129 5315.165 69120
-4261.5269 -1773.6991 5394.1948 1280
-4313.9189 -1809.1198 5501.9165 2816
-4584.9326 -1937.465 5892.2417 2816
-4379.1353 -1864.7484 5671.0952 134400
-4783.6001 -2052.7849 6242.9541 1792
-4954.8726 -2142.9099 6517.0435 2304
-4655.5273 -2029.3162 6171.5806 2767647
-4155.8892 -1825.9176 5553.0024 1280
-4727.5547 -2093.7148 6367.4307 1536
-4585.6025 -2047.2413 6226.0947 1280
-4526.2397 -2037.1835 6195.5068 1280
-5258.8574 -2386.3416 7257.3711 1024
-7212.3447 -3299.8611 10035.577 133889
-7781.6528 -3590.0352 10918.058 2304
-7344.0342 -3416.6414 10390.731 133121
0 0 0 0
0 0 0 0
0 0 0 0
0 0 0 0
0 0 0 0
0 0 0 0
0 0 0 0
0 0 0 0
0 0 0 0
0 0 0 0
0 0 0 0
0 0 0 0
0 0 0 0
0 0 0 0
0 0 0 0
0 0 0 0
0 0 0 0
0 0 0 0
0 0 0 0
0 0 0 0
0 0 0 0
0 0 0 0
0 0 0 0
0 0 0 0
0 0 0 0
-2453.061 -1460.6882 4442.2627 1024
-2454.603 -1477.5138 4493.4326 768
-2458.7761 -1496.3109 4550.5986 1024
-2453.532 -1509.7316 4591.4136 1024
-2426.2346 -1509.7316 4591.4136 197890
-2373.4507 -1493.6918 4542.6333 197893
-2388.4197 -1520.4128 4623.8979 1536
-2507.1931 -1614.6053 4910.3569 1280
-2719.6277 -1772.0443 5389.1621 662277
-2742.6064 -1808.3207 5499.4863 2307867
-2963.7585 -1977.7131 6014.645 135938
-3081.0129 -2081.0654 6328.9614 333828
-3061.2517 -2093.2825 6366.1157 924688
-3023.4033 -2093.2825 6366.1157 2819
-3050.7571 -2138.998 6505.1465 528652
-3164.9939 -2247.5867 6835.3877 66561
-3101.2988 -2231.0002 6784.9448 768
-2898.2893 -2112.4363 6424.3662 770
-2842.3433 -2099.3254 6384.4937 260
-2582.8538 -1933.4894 5880.1514 260
-2371.2222 -1799.42 5472.418 260
-2320.7319 -1785.6052 5430.4043 260
-2335.9268 -1822.6525 5543.0728 260
-2338.2075 -1850.5394 5627.8828 258
-2607.5876 -2093.6968 6367.376 258
-2693.8364 -2194.8113 6674.8867 258
-2672.314 -2209.8298 6720.561 257
-2650.7476 -2225.2673 6767.5098 258
-2614.7249 -2228.8577 6778.4287 514
-2695.019 -2333.2642 7095.9507 258
-2867.8369 -2522.3691 7671.0596 514
-2822.2302 -2522.3691 7671.0596 514
-2807.6555 -2550.5596 7756.792 768
-2774.2368 -2562.2869 7792.458 1796
-2690.9241 -2527.5479 7686.8091 512
-2626.051 -2509.228 7631.0947 134407
-2628.9277 -2556.1379 7773.7573 133893
-2598.4524 -2571.7178 7821.1392 768
-2442.5735 -2461.4907 7485.915 768
-2398.0679 -2461.4907 7485.915 515
-2402.9001 -2513.0916 7642.8442 512
-2419.4575 -2579.1804 7843.8345 512
-2422.1541 -2632.8008 8006.9053 512
-2393.2129 -2653.4927 8069.834 768
-2399.835 -2715.2688 8257.708 1793
-2254.9912 -2604.6714 7921.3579 528907
-2197.0076 -2591.8257 7882.2915 68098
-2086.4285 -2515.0205 7648.7104 768
-2002.9617 -2468.2026 7506.3271 768
-1910.8381 -2408.3398 7324.2725 199172
-1783.7953 -2300.6484 6996.7598 768
-1778.0397 -2347.9795 7140.7036 461831
-1757.3176 -2377.3789 7230.1133 1024
-1714.3328 -2377.3789 7230.1133 512
-1612.3745 -2293.4937 6975.0005 512
-1487.2935 -2171.4207 6603.7505 256
-1420.7262 -2130.4731 6479.2207 512
-1408.7711 -2171.4207 6603.7505 512
-1439.7305 -2282.7583 6942.3521 512
-1346.7841 -2198.4116 6685.8359 512
-1195.6271 -2011.0253 6115.9546 512
-1156.4226 -2006.0928 6100.9536 512
-1098.1398 -1966.6732 5981.0703 512
-1029.3677 -1905.2012 5794.1206 512
-988.37463 -1892.6671 5756.002 256
-909.73486 -1804.5579 5488.043 256
-865.38062 -1780.4321 5414.6714 512
-827.58545 -1768.458 5378.2559 256
-787.81281 -1751.1263 5325.5464 256
-745.52881 -1726.527 5250.7349 256
-690.8324 -1669.7764 5078.144 256
-652.75726 -1649.8491 5017.541 256
-609.56036 -1614.4481 4909.8789 256
-577.2392 -1605.7396 4883.3945 256
-543.41278 -1591.6996 4840.6963 256
-503.02365 -1555.7919 4731.4927 0
-444.08286 -1454.853 4424.5166 1283
-411.00827 -1431.2789 4352.8228 1283
-396.95044 -1475.2096 4486.4253 1281
-371.80637 -1481.3013 4504.9512 512
-343.02747 -1472.7329 4478.8931 768
-314.46301 -1463.7207 4451.4849 768
-286.22891 -1454.7311 4424.1455 768
-259.1788 -1450.5482 4411.4248 512
-232.95163 -1450.5482 4411.4248 1515803
-201.93468 -1416.939 4309.2119 463116
-175.24176 -1408.3124 4282.9766 68357
-147.08713 -1383.0084 4206.022 2564
-120.47205 -1364.7797 4150.584 1536
-94.809502 -1350.7299 4107.856 512
-70.387161 -1350.7299 4107.856 256
-48.445648 -1423.6322 4329.5674 330505
-22.883833 -1434.8347 4363.6367 858390
3.1001923 -1454.0607 4422.1069 989718
29.377722 -1453.4113 4420.1318 529424
55.327679 -1444.8209 4394.0068 2821
81.31266 -1442.3622 4386.5293 2561
107.20449 -1439.8464 4378.8784 861209
132.2374 -1429.0319 4345.9888 3166270
153.59763 -1388.551 4222.8779 5207389
173.39177 -1347.2756 4097.3511 994067
197.75166 -1347.2756 4097.3511 1589025
223.83836 -1357.7501 4129.2061 139781
248.30309 -1357.288 4127.8003 798480
272.93692 -1357.7501 4129.2061 533000
304.79819 -1391.1226 4230.6987 135682
335.25064 -1413.4674 4298.6538 993812
363.38162 -1423.5521 4329.3237 664593
391.45697 -1432.0992 4355.3174 1717540
410.77057 -1409.5206 4286.6509 599827
431.55911 -1394.3456 4240.5005 930069
456.90747 -1394.765 4241.7759 2443558
478.26584 -1383.5977 4207.814 5865276
518.49811 -1425.4279 4335.0283 332547
528.29913 -1383.5977 4207.814 594697
561.25916 -1403.4608 4268.2217 3755328
592.84845 -1418.3258 4313.4297 1782052
627.50641 -1438.9955 4376.2905 2244143
653.52466 -1438.9955 4376.2905 4745306
679.54297 -1438.9955 4376.2905 5141345
697.54468 -1422.6458 4326.5674 5273186
710.52057 -1397.5732 4250.3164 3365441
735.78986 -1397.5732 4250.3164 4483404
756.38086 -1388.9823 4224.1895 5667925
781.49487 -1388.9823 4224.1895 3957808
801.08606 -1379.4719 4195.2666 4747826
823.19366 -1374.7384 4180.8711 7380293
850.97009 -1379.4719 4195.2666 7509579
899.03888 -1415.8942 4306.0342 397570
1105.7738 -1693.2642 5149.5752 2048
1135.137 -1691.3977 5143.8989 1281
1069.9083 -1552.3817 4721.1216 1024
1063.7532 -1503.9944 4573.9658 1280
1052.3898 -1450.8394 4412.3101 1280
1128.9271 -1518.5039 4618.0923 1781796
1155.5383 -1517.3947 4614.7188 730391
1174.0953 -1506.0057 4580.083 1652006
1202.6569 -1507.6753 4585.1602 1651750
1231.9417 -1510.1572 4592.7085 203277
1272.4271 -1525.9641 4640.7803 400657
1305.609 -1532.5271 4660.7397 335119
1266.467 -1455.6875 4427.0542 1389858
1319.8324 -1486.1406 4519.6689 3363642
1346.7031 -1486.1406 4519.6689 2048044
1379.5592 -1492.6167 4539.3638 1718564
1424.6074 -1511.7822 4597.6504 1060124
1436.3597 -1495.5581 4548.3091 993562
1481.3795 -1513.932 4604.188 1782052
1508.7527 -1513.932 4604.188 729108
1566.8751 -1544.2369 4696.3521 531732
1545.15 -1496.1646 4550.1538 728599
1569.8602 -1493.9362 4543.3765 925723
1620.0375 -1515.6084 4609.2866 729113
1674.1246 -1540.1567 4683.9434 1189407
1854.5428 -1678.222 5103.8291 1123612
1940.4758 -1727.7164 5254.3521 1189918
1993.1354 -1746.4867 5311.436 1387806
2057.7397 -1774.9747 5398.0742 1846817
2129.457 -1808.6292 5500.4243 2507567
2184.3269 -1827.1724 5556.8188 1456160
2214.4719 -1824.7894 5549.5718 3231546
2246.386 -1823.913 5546.9058 3429443
2345.9397 -1877.1859 5708.9204 3758412
2429.2195 -1916.1028 5827.2749 5007971
2434.677 -1893.4045 5758.2446 3757902
2376.1042 -1822.231 5541.7905 1520168
2314.6777 -1750.8452 5324.6919 1585702
2195.4006 -1638.2179 4982.168 3165245
0 0 0 0
0 0 0 0
0 0 0 0
2572.7031 -1821.462 5539.4521 7047550
0 0 0 0
0 0 0 0
0 0 0 0
3923.9116 -2642.7883 8037.2793 4479051
4793.7148 -3189.7644 9700.75 2832689
5754.8564 -3783.7905 11507.31 10268355
6101.5508 -3964.6089 12057.216 13949918
6277.9121 -4031.8359 12261.667 921365
8357.9395 -5306.0684 16136.879 7438473
8453.9951 -5306.1416 16137.102 2239790
8549.6445 -5305.9619 16136.555 725524
7041.2222 -4321.3354 13142.098 1515558
7119.3555 -4321.3354 13142.098 462098
6570.8574 -3945.1094 11997.914 133391
6455.4116 -3834.1738 11660.535 133647
6422.8301 -3774.2898 11478.415 1318433
6199.1079 -3604.5244 10962.123 1977137
6067.5747 -3491.3379 10617.898 2371895
5896.8848 -3358.1833 10212.947 726556
6313.4619 -3558.7737 10822.985 858399
6301.2822 -3516.073 10693.123 793121
6267.8931 -3462.5085 10530.223 529950
6296.0039 -3443.6418 10472.845 595486
6501.7803 -3521.3679 10709.227 989988
6524.0986 -3499.1897 10641.778 661023
6566.2212 -3487.9573 10607.617 792606
6530.3101 -3435.8811 10449.243 266004
6592.4336 -3435.8811 10449.243 199952
6671.584 -3444.6726 10475.979 68622
6733.8667 -3444.6726 10475.979 660759
6868.187 -3481.1853 10587.022 464407
7000.7212 -3516.1379 10693.321 1122080
7206.6455 -3586.99 10908.797 529944
7271.5015 -3586.99 10908.797 267284
7302.522 -3570.447 10858.486 333076
7326.0044 -3550.5408 10797.946 1057314
7565.7583 -3634.8848 11054.455 2438968
7631.4805 -3634.8848 11054.455 924447
7487.2598 -3535.7429 10752.943 1385512
7488.8486 -3506.553 10664.171 727068
7615.1182 -3535.7429 10752.943 792863
7630.7065 -3513.4849 10685.252 1056550
7800.6475 -3562.0774 10833.032 661794
7840.1768 -3550.8113 10798.77 1978169
7793.6616 -3501.0747 10647.511 5203060
8207.3301 -3657.1982 11122.315 4281706
8419.7451 -3721.8643 11318.979 134693
9251.2988 -4057.0188 12338.255 331554
9648 -4197.7026 12766.103 2174527
9691.2344 -4183.6016 12723.219 9413813
9766.877 -4183.6016 12723.219 5397616
8911.3994 -3787.8252 11519.579 199969
8924.5508 -3764.4841 11448.594 134945
9238.6367 -3867.4731 11761.806 331810
9552.4746 -3968.8118 12069.998 1581877
9624.2344 -3968.8118 12069.998 595238
9626.6348 -3940.4211 11983.656 134686
9274.5703 -3768.4229 11460.572 68894
8530.5088 -3440.8191 10464.261 200481
9103.3428 -3645.2891 11086.097 464680
9321.793 -3705.9324 11270.526 2110534
9236.5918 -3645.853 11087.812 3886681
8365.5635 -3278.6431 9971.0488 14211804
8549.7803 -3327.2639 10118.915 13423061
8609.9414 -3327.2639 10118.915 13488848
8488.9668 -3257.7517 9907.5137 13554130
7721.4546 -2942.7893 8949.6465 13488592
7951.3208 -3009.6562 9153.0029 13489102
8378.4375 -3149.7681 9579.1123 11184826
8099.8853 -3024.4917 9198.1201 10268608
8154.5703 -3024.4917 9198.1201 13357518
8283.4512 -3051.8269 9281.2529 13488589
8235.6855 -3014.1501 9166.6699 13619406
7896.0483 -2870.8503 8730.8643 13554381
8153.3501 -2945.04 8956.4912 13619664
7487.4023 -2686.9473 8171.5762 13423564
8259.8477 -2945.04 8956.4912 4867445
8337.4062 -2953.6521 8982.6816 4078447
8786.6416 -3092.9888 9406.4346 4540019
9331.7764 -3264.1067 9926.8408 10857167
9483.2168 -3296.2317 10024.539 7961240
9597.2871 -3315.0471 10081.761 4543349
9602.4141 -3296.2317 10024.539 2501450
9990.5459 -3408.3118 10365.398 10066110
10052.171 -3408.3118 10365.398 10526151
0 0 0 0
0 0 0 0
0 0 0 0
0 0 0 0
0 0 0 0
0 0 0 0
0 0 0 0
0 0 0 0
-2513.1826 -922.92273 2858.4875 1782787
-2648.0732 -979.07965 3032.4175 1716484
-2642.3743 -983.66949 3046.6333 2703123
-2612.0161 -979.07965 3032.4175 2176785
-2582.4241 -974.71509 3018.8997 860933
0 0 0 0
0 0 0 0
0 0 0 0
-3978.6389 -1544.6471 4784.1001 1792
-4267.7266 -1668.8112 5168.6626 1536
-4231.2432 -1666.5448 5161.6431 68609
-4399.3784 -1745.4265 5405.9565 2304
-4367.2388 -1745.4265 5405.9565 398340
-4335.0991 -1745.4265 5405.9565 793351
-4230.6919 -1716.1125 5315.165 662273
-4624.1626 -1889.8333 5853.2148 2816
-4463.8174 -1838.1351 5693.0947 267008
-4429.9697 -1838.1351 5693.0947 1280
-4248.498 -1776.4092 5501.9165 1536
-4741.707 -1998.0164 6188.2803 1536
-5303.5693 -2252.2439 6975.6772 1536
-4819.811 -2062.9399 6389.3628 1536
-4095.5554 -1766.8746 5472.3857 1536
-4743.8384 -2062.9399 6389.3628 1280
-4689.6982 -2055.8586 6367.4307 1280
-4514.2656 -1995.0576 6179.1167 1024
-5143.4927 -2291.7917 7098.165 331778
-7846.5635 -3525.1243 10918.058 398083
-8486.9893 -3844.645 11907.682 2560
-8100.0425 -3700.2217 11460.372 596742
-7653.0581 -3525.6895 10919.809 399363
0 0 0 0
0 0 0 0
0 0 0 0
0 0 0 0
0 0 0 0
0 0 0 0
0 0 0 0
0 0 0 0
0 0 0 0
0 0 0 0
0 0 0 0
0 0 0 0
0 0 0 0
0 0 0 0
0 0 0 0
0 0 0 0
0 0 0 0
0 0 0 0
0 0 0 0
0 0 0 0
0 0 0 0
0 0 0 0
0 0 0 0
0 0 0 0
-2395.9387 -1400.8789 4338.8193 1280
-2454.603 -1450.7991 4493.4326 768
-2443.0325 -1459.8486 4521.4609 1024
-2431.7217 -1469.2563 4550.5986 67074
-2418.1211 -1477.4769 4576.0596 67074
-2373.4507 -1466.6846 4542.6333 132100
-2374.124 -1483.9867 4596.2217 1280
-2507.1931 -1585.4117 4910.3569 1024
-2719.6277 -1740.004 5389.1621 1255697
-2742.6064 -1775.6246 5499.4863 3363372
-2907.7114 -1905.2303 5900.9028 533251
-2947.6245 -1954.9701 6054.9575 1320721
-2837.5464 -1905.2303 5900.9028 332806
-2875.6277 -1954.9701 6054.9575 2816
-2698.395 -1857.736 5753.8027 133892
-3272.3562 -2281.812 7067.2563 768
-3230.3396 -2281.812 7067.2563 768
-2898.2893 -2074.2415 6424.3662 770
-2860.0945 -2074.2415 6424.3662 514
-2821.8999 -2074.2415 6424.3662 513
-2399.5327 -1787.9803 5537.7549 258
-2368.8818 -1789.6975 5543.0728 260
-2349.9238 -1800.4215 5576.2871 260
-2645.4436 -2055.8411 6367.376 257
-2643.459 -2084.1221 6454.9683 258
-2693.8364 -2155.1274 6674.8867 514
-2691.9956 -2185.8552 6770.0581 198921
-2655.0244 -2188.5581 6778.4287 514
-2696.5991 -2257.0879 6990.6802 514
-2733.5974 -2323.8728 7197.5269 514
-2867.8369 -2476.7627 7671.0596 514
-2822.2302 -2476.7627 7671.0596 514
-2807.8171 -2504.5874 7757.2383 512
-2839.6592 -2575.2903 7976.2207 768
-2792.2385 -2575.2903 7976.2207 512
-2608.9116 -2447.7783 7581.2891 768
-2563.8389 -2447.7783 7581.2891 1537
-2514.1362 -2443.2791 7567.3535 528655
-2469.146 -2443.2791 7567.3535 768
-2424.156 -2443.2791 7567.3535 514
-2501.1101 -2568.5095 7955.2188 512
-2453.8142 -2568.5095 7955.2188 513
-2412.0562 -2574.4202 7973.5254 256
-2391.4658 -2603.6133 8063.9429 256
-2346.9465 -2607.416 8075.7212 256
-2252.6638 -2554.937 7913.1821 256
-2178.1013 -2523.0627 7814.4609 256
-2086.4285 -2469.5466 7648.7104 256
-2010.1976 -2432.3306 7533.4443 512
-1948.7476 -2411.7107 7469.5801 512
-1877.5311 -2377.7607 7364.4297 512
-1804.3022 -2339.5798 7246.1753 768
-1761.2217 -2339.5798 7246.1753 256
-1718.141 -2339.5798 7246.1753 263684
-1671.3477 -2334.3938 7230.1133 198147
-1550.0446 -2222.1187 6882.3726 256
-1448.0322 -2132.1594 6603.7505 256
-1382.2054 -2091.9524 6479.2207 256
-1308.098 -2036.5486 6307.623 256
-1277.9957 -2048.4067 6344.3501 256
-1192.6945 -1969.821 6100.9536 256
-1134.4301 -1932.3595 5984.9272 256
-1088.3068 -1913.8224 5927.5142 256
-1029.1964 -1870.4421 5793.1562 256
-988.37463 -1858.446 5756.002 329989
-914.49927 -1781.2097 5516.7842 256
-876.05627 -1769.8074 5481.4688 256
-833.18884 -1748.2404 5414.6714 256
-795.61017 -1736.4828 5378.2559 256
-756.15094 -1719.4644 5325.5464 256
-694.83173 -1649.0771 5107.542 256
-660.64142 -1639.5856 5078.144 256
-630.45044 -1639.5856 5078.144 256
-577.2392 -1576.7064 4883.3945 256
-536.04669 -1541.7346 4775.0791 513
-484.91986 -1472.6813 4561.2065 770
-432.20715 -1390.3458 4306.1963 770
-411.00827 -1405.4003 4352.8228 0
-396.95044 -1448.5366 4486.4253 199174
-369.6557 -1446.1047 4478.8931 256
-341.72595 -1440.6179 4461.8994 1025
-313.38629 -1432.3342 4436.2432 1025
-285.40591 -1424.321 4411.4248 1516060
-259.92615 -1428.4282 4424.1455 1779745
-233.62335 -1428.4282 4424.1455 1911845
-201.97446 -1391.5938 4310.061 793107
-174.67142 -1378.3483 4269.0371 661007
-147.08713 -1358.0026 4206.022 2564
-120.47205 -1340.1031 4150.584 2307
-96.777214 -1353.8341 4193.1118 2304
-75.488228 -1422.4271 4405.5586 1715228
-48.821621 -1408.7404 4363.168 1848351
-22.705168 -1397.8917 4329.5674 796178
2.8621719 -1318.1516 4082.5955 729109
27.798136 -1350.3982 4182.4697 464142
55.327679 -1418.6974 4394.0068 3589
81.451271 -1418.6974 4394.0068 201735
107.20449 -1413.8129 4378.8784 4680766
131.74364 -1397.9545 4329.7617 5078081
151.25716 -1342.6691 4158.5312 4816440
173.39177 -1322.9159 4097.3511 5078842
200.69548 -1342.6094 4158.3462 6195533
223.83836 -1333.2009 4129.2061 1062677
245.10091 -1315.5596 4074.5671 1061910
272.84402 -1332.7469 4127.8003 994327
309.69397 -1387.9106 4298.6538 533009
336.8949 -1394.7177 4319.7363 5381
365.56342 -1406.2057 4355.3174 1124376
395.06555 -1419.1686 4395.4663 1716258
416.69708 -1404.0039 4348.498 69890
432.07394 -1370.7679 4245.5591 4608
457.315 -1370.7679 4245.5591 134915
482.556 -1370.7679 4245.5591 2374679
518.49811 -1399.6549 4335.0283 5667914
517.17548 -1329.9755 4119.2163 4549447
561.25916 -1378.085 4268.2217 4812624
592.84845 -1392.6814 4313.4297 1589542
626.8111 -1411.4116 4371.4414 3497794
646.2796 -1397.3129 4327.7744 4945753
675.64417 -1404.8705 4351.1821 6064480
684.33624 -1370.4714 4244.6411 5867346
709.57178 -1370.4714 4244.6411 5011776
738.24976 -1376.8917 4264.5259 3825720
763.60352 -1376.8917 4264.5259 402440
795.71027 -1388.677 4301.0273 1718044
798.33728 -1349.8821 4180.8711 794380
813.54883 -1334.0662 4131.8862 1536
822.93036 -1309.8977 4057.0312 768
899.03888 -1390.2936 4306.0342 768
966.08392 -1452.6099 4499.041 512
1055.8937 -1544.8752 4784.8066 67846
1079.009 -1537.2792 4761.2798 2824
1073.0625 -1489.725 4613.9946 398350
1101.4713 -1491.048 4618.0923 793620
1128.9271 -1491.048 4618.0923 530961
1155.5383 -1489.9589 4614.7188 860440
1182.9741 -1489.9589 4614.7188 1583907
1202.6569 -1480.4153 4585.1602 399889
1229.9169 -1480.4153 4585.1602 465426
1273.9491 -1500.1656 4646.3315 4616
1311.0134 -1511.0466 4680.0322 70409
1301.7035 -1469.1364 4550.2271 531473
1328.756 -1469.1364 4550.2271 597523
1352.5714 -1465.6289 4539.3638 927000
1380.4561 -1466.5817 4542.3145 1256222
1461.5476 -1522.9398 4716.8677 1453601
1457.9287 -1490.569 4616.6084 1058842
1485.3757 -1490.569 4616.6084 1387808
1499.6058 -1477.5464 4576.2749 2440496
1566.8751 -1516.3158 4696.3521 3493443
1528.9941 -1453.752 4502.5781 4414289
1546.7769 -1445.3547 4476.5703 1847851
1620.0375 -1488.205 4609.2866 1255201
1732.0928 -1564.6747 4846.1294 1057820
1854.5428 -1647.8784 5103.8291 1452834
1940.4758 -1696.4779 5254.3521 1453601
2025.6469 -1742.8816 5398.0742 1717798
2079.5947 -1761.3923 5455.4062 3231035
2129.457 -1775.9275 5500.4243 4021063
2184.3269 -1794.1356 5556.8188 1322784
2217.3635 -1794.1356 5556.8188 2901817
2246.386 -1790.9351 5546.9058 2440757
2306.9231 -1812.5889 5613.9722 4086353
2400.4426 -1859.17 5758.2446 2836287
2413.8218 -1843.2448 5708.9204 4612694
2376.1042 -1789.2833 5541.7905 4546900
2314.6777 -1719.1885 5324.6919 1717285
2346.3345 -1719.1885 5324.6919 2768689
2212.0847 -1599.2451 4953.2017 5204571
2377.7246 -1696.4125 5254.1499 3757382
2414.6724 -1700.4337 5266.6045 5730146
2578.1501 -1792.3151 5551.1802 3952967
0 0 0 0
0 0 0 0
0 0 0 0
3923.9116 -2595.0044 8037.2793 8296044
4467.2383 -2918.7795 9040.0801 264203
5213.3867 -3365.7996 10424.596 11516353
6205.0132 -3958.9368 12261.667 11777976
6645.7866 -4190.9233 12980.179 1252893
8357.9395 -5210.1304 16136.879 2568500
8194.3105 -5050.1582 15641.412 594965
7437.3672 -4532.2202 14037.248 989466
6586.4111 -3969.1228 12293.216 67597
7416.3574 -4420.2178 13690.353 133648
6472.2446 -3815.6426 11817.854 67340
6455.4116 -3764.8486 11660.535 1581608
6574.9531 -3793.824 11750.278 529176
6199.1079 -3539.3516 10962.123 594970
6125.6279 -3461.0117 10719.488 1582120
5896.8848 -3297.4644 10212.947 726556
6149.8149 -3403.8508 10542.449 792348
6200.4141 -3397.2332 10521.952 594970
6267.8931 -3399.9036 10530.223 200469
6412.5869 -3443.991 10666.771 3347
6501.7803 -3457.6987 10709.227 1122085
6503.1558 -3424.8921 10607.617 1845293
6566.2212 -3424.8921 10607.617 924446
6530.3101 -3373.7573 10449.243 1845035
6539.499 -3346.6677 10365.341 134161
6601.1245 -3346.6677 10365.341 67853
6540.2749 -3285.1501 10174.807 396818
6658.7104 -3313.9878 10264.123 989467
6818.0229 -3362.4614 10414.257 1911851
7043.4082 -3442.3547 10661.703 1780265
7237.9653 -3505.8901 10858.486 2570038
7169.499 -3442.0266 10660.688 68622
7201.4312 -3427.0605 10614.334 266262
7264.5356 -3427.0605 10614.334 266263
7391.1885 -3456.781 10706.385 134419
7394.0757 -3428.6045 10619.115 68370
7340.6606 -3375.019 10453.149 2579
7760.8452 -3538.2522 10958.718 266776
7825.998 -3538.2522 10958.718 1517872
7891.1509 -3538.2522 10958.718 2044472
7840.1768 -3486.6096 10798.77 1912632
7904.3784 -3486.6096 10798.77 2373183
8039.1934 -3517.5056 10894.462 1780531
8430.46 -3659.2207 11333.383 2043700
9112.3633 -3923.8379 12152.959 3097669
9615.5908 -4107.9585 12723.219 1254439
8928.6797 -3784.7241 11722.094 3161670
8998.3711 -3784.7241 11722.094 661539
8856.4863 -3696.4189 11448.594 68637
8924.5508 -3696.4189 11448.594 68379
8673.917 -3565.4175 11042.854 200479
8794.7656 -3587.9353 11112.597 792617
8937.0127 -3618.7817 11208.135 924202
9003.6475 -3618.7817 11208.135 1844280
8795.3418 -3509.0879 10868.391 330535
8802.9795 -3486.5212 10798.496 790061
9824.9912 -3863.127 11964.924 6643583
9896.126 -3863.127 11964.924 6380157
8975.7803 -3478.8472 10774.729 12829385
8672.5127 -3337.4871 10336.906 13553875
8861.4893 -3386.2166 10487.831 13488337
8607.1562 -3266.0476 10115.643 13488851
7842.4863 -2955.2393 9153.0029 13554386
7661.8994 -2867.2939 8880.6182 13488849
7814.9585 -2904.5579 8996.0322 13488591
8084.626 -2984.3599 9243.1963 9934268
7999.1328 -2932.8657 9083.707 7699628
8053.1382 -2932.8657 9083.707 9081528
8209.2559 -2969.8062 9198.1201 13422544
8268.5264 -2971.4541 9203.2236 13488341
7896.0483 -2818.9429 8730.8643 13488084
7947.9556 -2818.9429 8730.8643 13554389
7681.9297 -2706.9114 8383.8789 12435660
8259.8477 -2891.7913 8956.4912 6053260
8337.4062 -2900.2473 8982.6816 9014459
8767.1367 -3030.323 9385.5537 8619693
9079.3672 -3118.3965 9658.3359 8424108
9483.2168 -3236.6328 10024.539 1908030
9631.9521 -3266.865 10118.175 2040129
9451.877 -3185.8923 9867.3838 2369353
9989.5498 -3346.353 10364.365 1841982
10052.171 -3346.6863 10365.398 855085
0 0 0 0
0 0 0 0
0 0 0 0
0 0 0 0
0 0 0 0
0 0 0 0
0 0 0 0
0 0 0 0
0 0 0 0
-2648.0732 -961.05109 3032.4175 3362325
-2652.1228 -969.11871 3057.8735 2507016
-2709.5481 -996.93652 3145.6472 2638608
-2718.9177 -1007.3367 3178.4631 2506769
0 0 0 0
0 0 0 0
0 0 0 0
-3978.6389 -1516.2043 4784.1001 400128
-3931.2715 -1508.9404 4761.1802 201984
-4492.3296 -1736.7971 5480.1392 1387280
-4501.0229 -1752.8707 5530.8569 70144
-4468.1406 -1752.8707 5530.8569 5632
-4378.689 -1730.514 5460.3145 862209
-4346.2261 -1730.514 5460.3145 4150833
-4982.3545 -1998.7272 6306.6108 1792
-4897.9048 -1979.7478 6246.7246 70400
-4544.9302 -1851.1104 5840.8335 2048
-4248.498 -1743.6989 5501.9165 1280
-4475.479 -1851.1104 5840.8335 1536
-5034.7886 -2098.7314 6622.1553 1792
-4934.5244 -2073.1482 6541.4321 2048
0 0 0 0
-4727.5547 -2018.0024 6367.4307 1280
-4689.6982 -2018.0024 6367.4307 464132
-4514.2656 -1958.321 6179.1167 1280
-4489.4058 -1963.5155 6195.5068 726792
-8557.7842 -3773.8506 11907.682 1253392
-8813.6504 -3919.1045 12366.003 3072
-9614.4385 -4311.147 13603.02 1792
-11308.667 -5113.8613 16135.835 1536
-10557.111 -4814.8467 15192.351 1280
0 0 0 0
0 0 0 0
0 0 0 0
0 0 0 0
-10732.903 -5113.7793 16135.576 660232
-10639.044 -5114.7744 16138.718 3584
-10543.095 -5114.7744 16138.718 4352
0 0 0 0
0 0 0 0
0 0 0 0
0 0 0 0
0 0 0 0
0 0 0 0
0 0 0 0
0 0 0 0
0 0 0 0
0 0 0 0
0 0 0 0
0 0 0 0
0 0 0 0
0 0 0 0
0 0 0 0
0 0 0 0
-2454.2388 -1408.5432 4444.3955 768
-2449.5554 -1421.1559 4484.1924 1024
-2427.8882 -1424.0844 4493.4326 768
-2416.1511 -1432.9672 4521.4609 512
-2413.447 -1447.4677 4567.2144 512
-2386.2939 -1447.4677 4567.2144 66050
-2372.6953 -1455.7843 4593.4561 1536
-2456.3713 -1524.6731 4810.8218 1024
-2719.6277 -1707.964 5389.1621 794122
-2742.6064 -1742.9286 5499.4863 1585429
-2788.0701 -1793.1984 5658.103 137216
-2699.1416 -1757.2036 5544.5283 727817
-2666.1777 -1757.2036 5544.5283 1188626
-2229.2622 -1487.6375 4693.9624 2304
-2571.8997 -1738.0447 5484.0762 200198
-3047.3569 -2085.7925 6581.3291 1024
-3134.6414 -2173.4419 6857.8906 768
-2898.2893 -2036.047 6424.3662 768
-2869.1611 -2042.5013 6444.7319 514
-2853.3569 -2058.7439 6495.9819 514
-2814.7366 -2058.7439 6495.9819 514
-2839.9878 -2106.1104 6645.4385 514
-2800.4788 -2106.1104 6645.4385 257
-2895.5833 -2208.7957 6969.4424 257
-2849.4456 -2205.1565 6957.96 258
-2801.6663 -2200.1208 6942.0708 514
-2784.4363 -2219.2834 7002.5352 514
-2742.8042 -2219.2834 7002.5352 514
-2761.2234 -2268.6216 7158.2124 514
-2741.489 -2287.6667 7218.3057 514
-2900.0549 -2458.4683 7757.2383 514
-2919.3335 -2514.8037 7934.9941 67335
-2897.1641 -2536.6987 8004.0801 1282
-2952.6628 -2628.4656 8293.6328 768
-2860.3867 -2589.5657 8170.8911 768
-2645.2239 -2436.1475 7686.8091 768
-2563.8389 -2402.7056 7581.2891 512
-2514.1362 -2398.2888 7567.3535 514
-2471.0012 -2400.0908 7573.0391 514
-2425.9773 -2400.0908 7573.0391 514
-2501.1101 -2521.2134 7955.2188 513
-2453.9006 -2521.302 7955.4985 659213
-2414.9788 -2530.0769 7983.186 256
-2391.4658 -2555.6709 8063.9429 512
-2346.9465 -2559.4036 8075.7212 512
-2298.9341 -2559.4036 8075.7212 768
-2239.2815 -2546.1682 8033.959 1383702
-2191.5173 -2546.1682 8033.959 67075
-2119.7517 -2517.6614 7944.0107 67073
-2018.7046 -2452.2847 7737.7266 67074
-1929.5424 -2398.6328 7568.4385 66817
-1880.2522 -2393.168 7551.1948 1281
-1823.5118 -2377.7209 7502.4551 132611
-1752.8827 -2342.9353 7392.6958 132355
-1734.3035 -2377.7209 7502.4551 512
-1562.4933 -2198.7185 6937.646 256
-1420.7262 -2053.4316 6479.2207 256
-1312.8138 -1950.3423 6153.9414 256
-1276.2271 -1950.3423 6153.9414 256
-1270.5975 -1999.048 6307.623 256
-1208.6505 -1959.4164 6182.5732 256
-1166.0682 -1949.6768 6151.8413 256
-1098.8479 -1896.7773 5984.9272 256
-1052.6202 -1877.7864 5925.0049 256
-996.15405 -1838.5835 5801.3071 256
-947.96295 -1812.3893 5718.6562 256
-883.15063 -1751.2865 5525.8579 256
-843.46741 -1737.2185 5481.4688 256
-801.18878 -1716.4591 5415.9668 256
-758.80627 -1693.7295 5344.2476 256
-696.79291 -1623.2803 5121.958 256
-664.46594 -1618.7114 5107.542 256
-632.6886 -1615.1079 5096.1719 256
-601.76343 -1613.4266 5090.8672 256
-543.37433 -1534.0325 4840.3535 770
-482.5838 -1438.5999 4539.2334 1024
-440.23346 -1390.0884 4386.1646 512
-411.00827 -1379.5215 4352.8228 3491387
-392.5722 -1406.181 4436.9419 2834741
-365.3414 -1402.9094 4426.6191 1914410
-338.77728 -1401.8889 4423.3989 2243376
-296.97821 -1332.3472 4203.9731 2308656
-278.65985 -1365.0475 4307.1528 2308656
-255.66544 -1379.142 4351.625 1519140
-230.16187 -1381.3508 4358.5947 1058076
-201.97446 -1365.9692 4310.061 1781798
-175.26288 -1357.5491 4283.4927 1583648
-147.9402 -1340.7277 4230.416 1582621
-122.18788 -1334.162 4209.6992 2561
-101.50105 -1393.7708 4397.7837 2560
-75.488228 -1396.2349 4405.5586 69376
-48.604492 -1376.6503 4343.7632 2770721
-22.724379 -1373.3123 4333.231 2707232
2.9631984 -1339.5497 4226.6992 3759411
28.009451 -1335.6085 4214.2637 1125906
54.316978 -1367.1349 4313.7393 664077
81.770462 -1398.031 4411.2261 401930
107.99644 -1398.031 4411.2261 1850145
132.4209 -1379.267 4352.0195 1324315
152.84518 -1331.7823 4202.1909 6144
174.1891 -1304.5273 4116.1929 135682
201.18413 -1321.0956 4168.4707 70658
225.41801 -1317.8868 4158.3462 70404
248.30309 -1308.2061 4127.8003 267786
272.84402 -1308.2061 4127.8003 202507
309.86588 -1363.1102 4301.04 597266
336.8949 -1369.0355 4319.7363 4100
365.56342 -1380.3121 4355.3174 1387806
391.45697 -1380.3121 4355.3174 2177319
416.69708 -1378.1509 4348.498 200708
436.42499 -1359.0765 4288.3125 795406
456.77008 -1343.9237 4240.5005 2639404
487.41544 -1359.0765 4288.3125 3035943
501.50537 -1328.8556 4192.9561 2247442
517.17548 -1305.4856 4119.2163 6328139
541.66541 -1305.4856 4119.2163 5933635
569.91742 -1314.1606 4146.5889 5340985
615.16516 -1359.6814 4290.2212 2182677
635.31488 -1348.3127 4254.3496 3959091
666.17828 -1359.6814 4290.2212 4288306
669.90894 -1316.8755 4155.1548 4551989
701.12372 -1329.2197 4194.105 3037983
744.56866 -1363.1062 4301.0273 4089652
763.60352 -1351.5378 4264.5259 1124362
794.56378 -1361.1423 4294.8306 133377
820.09784 -1361.1423 4294.8306 2307101
846.31323 -1362.2393 4298.292 512
873.43823 -1364.693 4306.0342 726024
917.98853 -1393.4576 4396.7954 330755
966.08392 -1425.8618 4499.041 990727
1052.6321 -1511.744 4770.0264 2044688
1079.009 -1508.972 4761.2798 3756068
1074.0155 -1463.5922 4618.0923 3032607
1099.5645 -1461.0583 4610.0972 858122
1119.6841 -1451.6089 4580.2812 860431
1146.915 -1451.6089 4580.2812 860694
1182.9741 -1462.5231 4614.7188 1057817
1210.4099 -1462.5231 4614.7188 465682
1246.3254 -1472.542 4646.3315 136460
1277.1595 -1476.2528 4658.0405 3846
1311.0134 -1483.2225 4680.0322 2819
1301.7035 -1442.084 4550.2271 267787
1340.4087 -1454.7306 4590.1309 795414
1353.4507 -1439.5762 4542.3145 730391
1385.161 -1444.4828 4557.7959 928282
1461.5476 -1494.8967 4716.8677 1454627
1480.396 -1485.6692 4687.752 2638899
1486.8162 -1464.5408 4621.0854 3099196
1514.2899 -1464.5408 4621.0854 2902844
1541.7634 -1464.5408 4621.0854 2771516
1538.1271 -1435.5063 4529.4727 5205086
1565.056 -1435.5063 4529.4727 4546130
1661.8203 -1498.4774 4728.166 1781798
1765.3317 -1565.3364 4939.127 1125149
1871.8778 -1632.6541 5151.5356 2769971
1977.8274 -1697.293 5355.4912 2967604
2047.1609 -1728.9585 5455.4062 3166261
2100.6755 -1746.485 5510.7075 3693113
2124.5093 -1739.1754 5487.6436 4022077
2169.5647 -1749.1969 5519.2646 4087616
2236.9319 -1776.6405 5605.8579 2573621
2246.386 -1757.9572 5546.9058 2638645
2306.4514 -1778.8483 5612.8242 861978
2400.4426 -1824.9359 5758.2446 3955023
2366.3765 -1773.7405 5596.7075 5862762
2367.6262 -1750.0695 5522.0176 4482134
2340.9561 -1706.6902 5385.1426 6324080
2433.2864 -1750.0695 5522.0176 5271392
2346.4873 -1665.1753 5254.1499 5205342
2377.7246 -1665.1753 5254.1499 7374971
0 0 0 0
0 0 0 0
0 0 0 0
0 0 0 0
0 0 0 0
0 0 0 0
5151.4092 -3303.8223 10424.596 3226172
5893.8213 -3735.0266 11785.181 2633527
7889.8018 -4941.1768 15590.962 1251355
8261.3809 -5113.8081 16135.668 724239
8357.7715 -5114.0889 16136.555 528142
8449.2002 -5111.3623 16127.951 856855
8539.5439 -5108.0479 16117.492 331026
7720.416 -4566.8296 14409.779 330513
7604.2778 -4448.7646 14037.248 988443
6570.8574 -3802.4478 11997.914 396563
6572.8188 -3762.7351 11872.609 1033
6612.7661 -3745.3818 11817.854 1291
6081.4658 -3408.2483 10754.092 857626
6065.4009 -3363.8796 10614.095 1976620
5846.583 -3209.1353 10125.828 331539
6073.5068 -3299.7153 10411.637 989726
6132.7993 -3298.313 10407.212 923932
6194.6733 -3298.313 10407.212 792860
6264.9521 -3302.7441 10421.193 661530
6326.9097 -3302.7441 10421.193 1780012
6371.9419 -3293.9951 10393.588 1582890
6371.5498 -3262.1572 10293.129 2306613
6427.4121 -3259.4524 10284.595 2569786
6488.5562 -3259.4524 10284.595 2306614
6339.5156 -3154.8538 9954.5527 3162179
6326.1484 -3119.0833 9841.6855 1978162
6427.7822 -3140.1499 9908.1572 3031106
6534.3149 -3163.2053 9980.9043 4018001
6744.873 -3235.75 10209.806 2964286
6997.8091 -3327.1499 10498.2 990242
7060.2236 -3327.1499 10498.2 266006
7122.6382 -3327.1499 10498.2 397851
7264.5356 -3363.9556 10614.334 398107
7454.3989 -3422.1467 10797.946 1516332
7228.7671 -3290.2292 10381.705 661535
7274.2939 -3282.9202 10358.643 925220
7520.3423 -3365.4709 10619.115 596770
7762.3384 -3444.8481 10869.575 1057064
7800.6475 -3433.2666 10833.032 1912373
7663.6206 -3345.3372 10555.588 2044729
7757.1279 -3358.6519 10597.6 662817
7968.5801 -3422.4077 10798.77 1123621
8284.7471 -3529.7585 11137.495 2571068
8377.2842 -3540.8845 11172.601 3360330
9324.6533 -3910.3103 12338.255 398361
8928.6797 -3715.0332 11722.094 332317
8428.4785 -3479.7495 10979.7 397599
8493.7559 -3479.7495 10979.7 397346
8445.2529 -3433.4907 10833.74 528417
8324.4385 -3358.7563 10597.93 199452
8794.7656 -3521.8677 11112.597 461850
9160.9326 -3641.147 11488.96 2105912
9318.0361 -3676.1799 11599.5 7830942
9070.2832 -3552.1462 11208.135 3422298
9037.4326 -3513.4692 11086.097 10660027
9187.2705 -3545.8613 11188.305 13423060
9170.6709 -3514.0129 11087.812 13423058
8789.6455 -3343.9746 10551.288 13488594
8861.9297 -3347.5837 10562.676 13488594
8861.4893 -3323.8635 10487.831 13619664
8607.1562 -3205.9075 10115.643 13488850
8170.6465 -3022.2036 9536 13554386
7661.8994 -2814.4963 8880.6182 13422800
7951.3208 -2900.822 9153.0029 13423061
8226.8535 -2980.9417 9405.8057 12963284
8139.5796 -2929.4065 9243.1963 12699344
8056.4126 -2880.0308 9087.4004 12435921
8209.2559 -2915.1208 9198.1201 10133684
8338.6309 -2941.4678 9281.2529 12633297
7800.646 -2733.603 8625.375 12764114
7681.7998 -2674.3745 8438.4902 10132919
7731.9683 -2674.3745 8438.4902 3684184
8256.1963 -2837.2874 8952.5312 4868459
8309.4209 -2837.2874 8952.5312 3290200
8669.4961 -2941.3955 9281.0254 7173780
8891.6992 -2997.7053 9458.7002 5526900
9144.4678 -3063.5476 9666.4531 1251126
9393.2129 -3127.2275 9867.3838 1580348
9259.4072 -3063.5476 9666.4531 2962513
9331.1465 -3068.2395 9681.2578 3883613
9560.376 -3124.3423 9858.2793 5660285
0 0 0 0
0 0 0 0
0 0 0 0
0 0 0 0
0 0 0 0
0 0 0 0
0 0 0 0
0 0 0 0
0 0 0 0
0 0 0 0
-2652.1228 -950.93884 3057.8735 730624
-2698.4504 -974.22803 3132.7632 269568
-2694.4565 -979.54724 3149.8677 4283685
-2650.3276 -970.2478 3119.9641 3493915
0 0 0 0
0 0 0 0
-4183.1675 -1564.2424 5030.0352 334336
-4085.6177 -1538.7653 4948.1094 202496
-4070.4248 -1544.1616 4965.4624 203008
-4319.5781 -1650.6522 5307.8975 2304
-4411.1519 -1698.051 5460.3145 2560
-4378.689 -1698.051 5460.3145 1254924
-4346.2261 -1698.051 5460.3145 794119
-4982.3545 -1961.2327 6306.6108 202240
-4897.9048 -1942.6091 6246.7246 1792
-4429.9697 -1770.441 5693.0947 2048
-4181.2812 -1683.9183 5414.8691 2048
-3997.0022 -1622.1937 5216.3853 2816
-5034.7886 -2059.3608 6622.1553 4096
-5273.9116 -2174.1697 6991.3394 1792
-5232.3462 -2174.1697 6991.3394 1024
-6395.5356 -2678.7839 8613.9951 1536
-7212.4849 -3045.3506 9792.7402 1280
-4561.855 -1941.8418 6244.2568 68864
0 0 0 0
-8797.7012 -3806.8708 12241.513 1714710
-9841.4248 -4294.0249 13808.022 267266
-11405.689 -5018.4092 16137.378 1280
-11309.749 -5018.4092 16137.379 1536
-11213.176 -5018.1265 16136.47 1536
-11080.952 -5001.7461 16083.797 1792
-10930.809 -4976.9224 16003.973 3072
-10835.661 -4976.9224 16003.973 2560
-10829.436 -5018.1274 16136.473 333313
-10734.993 -5018.8257 16138.718 1792
-10639.341 -5018.9658 16139.169 1536
-10543.39 -5018.9658 16139.169 2816
-10448.012 -5019.2417 16140.057 1536
-10352.055 -5019.2417 16140.057 3558966
0 0 0 0
0 0 0 0
0 0 0 0
0 0 0 0
0 0 0 0
0 0 0 0
0 0 0 0
0 0 0 0
0 0 0 0
0 0 0 0
0 0 0 0
0 0 0 0
0 0 0 0
0 0 0 0
-2454.2388 -1382.12 4444.3955 1280
-2435.8618 -1386.7007 4459.125 1024
-2425.8635 -1396.2043 4489.6855 1024
-2416.1511 -1406.0859 4521.4609 1024
-2413.7151 -1420.472 4567.7217 512
-2390.9153 -1423.0649 4576.0596 256
-2287.7908 -1377.3585 4429.084 768
-2092.5586 -1274.4886 4098.292 1024
-2630.2588 -1620.8519 5212.0703 1024
-2714.3835 -1692.6334 5442.8936 68097
-2581.9832 -1629.4973 5239.8706 266247
-2274.1992 -1452.7822 4671.6191 2560
-2289.1125 -1480.3885 4760.3911 1024
-2229.2622 -1459.7306 4693.9624 1024
-2444.7644 -1621.1364 5212.9849 134148
-2822.1445 -1895.4075 6094.9409 68098
-2995.3054 -2037.8719 6553.0552 132868
-2897.4932 -1997.3035 6422.6016 67075
-2894.9648 -2022.2101 6502.6924 0
-2856.3044 -2022.2101 6502.6924 770
-2926.2146 -2100.1306 6753.2559 132612
-2907.604 -2115.8044 6803.6572 768
-2932.1797 -2163.7896 6957.96 67330
-2961.459 -2216.6687 7128.0005 3819838
-2941.0483 -2233.3501 7181.6416 512
-2835.4927 -2184.9136 7025.8872 512
-2848.4602 -2227.7234 7163.5483 198407
-2803.781 -2226.064 7158.2124 256
-2909.3774 -2345.5042 7542.2881 462348
-2833.6213 -2320.1904 7460.8887 264713
-2918.5034 -2427.6951 7806.585 1028
-2944.7505 -2489.1123 8004.0801 769
-3194.1394 -2744.26 8824.542 199689
-3245.0637 -2834.5703 9114.9473 512
-2872.3879 -2551.6482 8205.1729 513
-2711.457 -2450.301 7879.2773 514
-2643.2769 -2430.6816 7816.188 514
-2590.5837 -2424.8562 7797.4551 514
-2524.4897 -2406.0459 7736.9688 514
-2473.9558 -2401.6431 7722.811 258
-2528.4204 -2500.9307 8042.0835 256
-2557.9829 -2578.9395 8292.9316 256
-2555.5249 -2627.0972 8447.7891 0
-2464.179 -2583.9766 8309.1289 256
-2403.8894 -2572.3242 8271.6592 256
-2340.2766 -2556.5547 8220.9502 512
-2276.7251 -2540.1807 8168.2974 256
-2191.5173 -2498.4043 8033.959 512
-2107.8542 -2456.5662 7899.4233 769
-2141.3984 -2552.5317 8208.0137 1025
-1984.9891 -2421.2698 7785.9229 264454
-1887.8687 -2357.7861 7581.7827 512
-1839.5493 -2353.6362 7568.4385 256
-1802.4608 -2364.0078 7601.7896 256
-1757.266 -2364.0078 7601.7896 256
-1581.8171 -2184.1545 7023.4463 256
-1426.1211 -2022.5624 6503.8247 256
-1312.8138 -1913.7554 6153.9414 256
-1276.2271 -1913.7554 6153.9414 256
-1270.5975 -1961.5474 6307.623 256
-1239.748 -1972.1278 6341.6455 256
-1174.64 -1927.1655 6197.0635 256
-1127.0149 -1908.9037 6138.3398 256
-1078.1616 -1887.2695 6068.7725 256
-1017.3945 -1842.5607 5925.0049 256
-963.10413 -1806.7955 5809.9971 256
-909.35913 -1769.4302 5689.8442 197634
-850.29791 -1718.4336 5525.8579 256
-801.18878 -1684.2598 5415.9668 256
-758.80627 -1661.9564 5344.2476 256
-698.22772 -1596.1086 5132.5049 256
-667.55249 -1595.7236 5131.2671 256
-637.04565 -1595.7236 5131.2671 257
-602.39044 -1584.8098 5096.1719 132355
-544.53613 -1508.4736 4850.7026 67073
-484.53809 -1417.3293 4557.6157 264965
-440.23346 -1364.0114 4386.1646 4418611
-403.28357 -1328.2018 4271.0137 3234101
-388.07956 -1364.0114 4386.1646 1522473
-355.67694 -1340.1765 4309.5205 2047794
-323.27975 -1312.6635 4221.0483 3034433
-296.00751 -1303.0802 4190.2319 2310709
-275.85181 -1325.9429 4263.75 3099712
-253.05263 -1339.4403 4307.1528 1782825
-229.79381 -1353.2703 4351.625 531732
-205.33972 -1362.6772 4381.8745 1321761
-178.79381 -1358.9192 4369.79 2966585
-148.02496 -1316.3304 4232.8398 2110507
-122.85955 -1316.3304 4232.8398 728081
-101.50105 -1367.6248 4397.7837 68867
-75.899712 -1377.5106 4429.5732 2048
-48.821621 -1356.86 4363.168 768
-22.724379 -1347.55 4333.231 1024
2.9710522 -1317.9047 4237.9019 2560
28.166557 -1317.9047 4237.9019 2050
54.868916 -1355.1199 4357.5728 662545
82.262955 -1380.0671 4437.7939 202250
108.64687 -1380.0671 4437.7939 2304
132.4209 -1353.3929 4352.0195 4100
153.42528 -1311.7589 4218.1396 68868
175.4637 -1289.4219 4146.312 2304
200.69548 -1293.1643 4158.3462 70664
223.13293 -1280.0555 4116.1929 335373
245.10091 -1267.1107 4074.5671 334344
273.96396 -1288.9342 4144.7437 2045476
309.86588 -1337.5393 4301.04 204039
336.8949 -1343.3535 4319.7363 335113
361.00763 -1337.5393 4301.04 3032881
378.42368 -1309.3241 4210.3101 1586460
405.75095 -1316.7745 4234.2681 3560764
439.4498 -1342.8242 4318.0342 2574384
461.9202 -1333.5813 4288.3125 1587999
493.26334 -1349.5814 4339.7632 1259288
511.67212 -1330.3611 4277.9575 1260051
537.10571 -1330.3611 4277.9575 2116377
560.85388 -1326.375 4265.1396 2446362
560.10193 -1267.2992 4075.1736 4288566
615.16516 -1334.1749 4290.2212 3300142
632.3468 -1316.8386 4234.4741 995861
666.17828 -1334.1749 4290.2212 664331
658.58606 -1270.3315 4084.9241 534542
682.87213 -1270.3315 4084.9241 337158
744.56866 -1337.5354 4301.0273 1785627
772.92065 -1342.3656 4316.5596 3892516
794.56378 -1335.6083 4294.8306 6392907
792.40491 -1290.5078 4149.8037 2048
840.87799 -1328.1001 4270.687 4217918
893.6424 -1370.068 4405.6401 3034410
919.83514 -1370.068 4405.6401 3167535
956.65717 -1385.4615 4455.1406 3629114
1007.5044 -1419.7903 4565.5293 4550970
1037.1564 -1423.2327 4576.5986 3761709
1072.1561 -1433.65 4610.0972 2906142
1077.4464 -1404.812 4517.3643 6655314
1110.8367 -1413.1229 4544.0894 1912858
1146.915 -1424.3778 4580.2812 795150
1184.4373 -1436.8624 4620.4268 531214
1210.6566 -1435.3799 4615.6597 69895
1238.098 -1435.3799 4615.6597 201482
1265.5394 -1435.3799 4615.6597 2563
1304.853 -1448.5594 4658.0405 2563
1318.0819 -1432.8358 4607.479 135690
1363.5973 -1452.1351 4669.5386 597525
1367.6982 -1427.4409 4590.1309 334607
1394.9878 -1427.4409 4590.1309 664085
1463.9062 -1469.2208 4724.48 1652005
1486.1941 -1463.5089 4706.1123 2376750
1486.8162 -1437.0673 4621.0854 3824966
1514.2899 -1437.0673 4621.0854 3758919
1541.7634 -1437.0673 4621.0854 1784613
1650.1189 -1511.1366 4859.2656 3626817
1577.7635 -1420.0143 4566.2495 5403736
1604.9111 -1420.0143 4566.2495 5008718
1732.0928 -1507.0514 4846.1294 926738
1945.9875 -1665.453 5355.4912 862232
2014.7271 -1696.5245 5455.4062 4085831
2072.115 -1717.2045 5521.9053 928022
2091.8835 -1706.5498 5487.6436 3099957
2106.4553 -1692.0476 5441.0098 3955518
2137.761 -1691.2229 5438.3579 4614722
2236.9319 -1743.3123 5605.8579 3692360
2254.7439 -1731.3973 5567.5439 3364164
2245.6453 -1699.4617 5464.8511 2442550
2310.2092 -1723.3884 5541.7905 5336673
2343.1567 -1723.3884 5541.7905 4086348
2309.0388 -1674.7458 5385.3735 5994601
2353.0989 -1683.361 5413.0767 6192493
2403.6279 -1696.3087 5454.7119 6455920
2374.9463 -1653.7548 5317.874 5666910
2406.5625 -1653.7548 5317.874 2769200
0 0 0 0
3024.3357 -2025.0707 6511.8911 2308146
3063.0508 -2025.0707 6511.8911 3096379
3138.0798 -2048.7795 6588.1299 2895921
0 0 0 0
0 0 0 0
5151.4092 -3241.8455 10424.596 2305869
5436.4619 -3380.5603 10870.652 13097441
7889.8018 -4848.4839 15590.962 132359
8261.3809 -5017.877 16135.668 2897214
8133.1191 -4883.2676 15702.812 726823
7970.4565 -4731.293 15214.117 4609644
8539.5439 -5012.2251 16117.492 8884134
8151.3608 -4731.293 15214.117 5593711
8731.1904 -5012.2251 16117.492 1908784
7284.2593 -4136.2056 13300.533 593176
7225.8638 -4058.9846 13052.218 520
6612.7661 -3675.1218 11817.854 1292
6081.4658 -3344.3123 10754.092 1545
6065.4009 -3300.7759 10614.095 396817
5976.334 -3218.8176 10350.547 396817
6102.9336 -3253.5029 10462.082 265744
6135.4067 -3237.8152 10411.637 792345
6182.1548 -3229.8992 10386.181 858139
6243.9038 -3229.8992 10386.181 134930
6191.5898 -3171.4734 10198.306 463895
6221.418 -3155.8484 10148.061 2108721
6182.2617 -3105.8665 9987.3369 3227715
6342.084 -3155.8484 10148.061 1714476
6273.5352 -3092.3203 9943.7773 991268
6243.0044 -3048.5437 9803.0078 3557450
6307.5562 -3051.5771 9812.7617 2439483
6365.8955 -3051.5771 9812.7617 4808031
6453.3462 -3065.405 9857.2275 3557963
6447.9263 -3035.2666 9760.3135 3359053
6797.4644 -3171.2668 10197.641 924971
6799.6743 -3144.2537 10110.776 10269641
6853.1558 -3141.2148 10101.005 658190
7000.644 -3180.9431 10228.757 1055270
7474.6099 -3367.0544 10827.223 857889
7228.7671 -3228.5073 10381.705 990244
7290.4888 -3228.5073 10381.705 990501
7459.8916 -3275.792 10533.755 924965
7636.0952 -3325.251 10692.798 1385259
7699.667 -3325.251 10692.798 1122600
7579.2681 -3246.4502 10439.403 596000
7726.3765 -3282.5813 10555.588 398618
7968.5801 -3358.2061 10798.77 1779759
8103.9634 -3387.9644 10894.462 1581865
8168.7344 -3387.9644 10894.462 858142
8443.709 -3474.4604 11172.601 1252389
8302.4521 -3389.6697 10899.944 1449512
8215.2803 -3328.1025 10701.968 1712173
8278.9053 -3328.1025 10701.968 2370871
8394.5898 -3348.8701 10768.749 3094597
8509.6631 -3369.0815 10833.74 2303537
8518.6182 -3347.2913 10763.671 12570584
8937.0127 -3485.5107 11208.135 12698829
9229.2383 -3572.8418 11488.96 11579335
9070.2832 -3485.5107 11208.135 8880043
8732.3711 -3331.1858 10711.882 13882333
9181.7812 -3477.2646 11181.619 13487831
8736.334 -3284.7856 10562.676 13553112
8712.2686 -3252.3589 10458.403 10987971
8852.376 -3281.2441 10551.288 13226960
8628.0557 -3175.5942 10211.556 13423310
8553.1465 -3126.0273 10052.167 13488849
8170.6465 -2965.5095 9536 13422800
7761.4746 -2797.5901 8996.0322 13554386
8170.9336 -2925.0215 9405.8057 11909318
8171.6118 -2905.3806 9342.6475 10862027
8139.5796 -2874.4534 9243.1963 13357777
8251.96 -2894.5974 9307.9727 13226710
8110.4395 -2826.0037 9087.4004 13291986
8427.0684 -2916.8994 9379.6875 12568276
7631.6304 -2624.2053 8438.4902 8486309
7323.6504 -2501.8569 8045.062 2170951
7731.9683 -2624.2053 8438.4902 2829396
8256.1963 -2784.0623 8952.5312 4672114
8331.3203 -2791.3992 8976.125 8816044
8669.4961 -2886.2173 9281.0254 3948131
9079.3672 -3003.5535 9658.3359 3093589
9144.4678 -3006.0779 9666.4531 2435660
9201.9375 -3006.0779 9666.4531 1647678
9067.3486 -2943.7261 9465.9521 4807276
8358.8115 -2696.9595 8672.4404 6913165
5867.9399 -1881.6761 6050.7861 10662857
0 0 0 0
0 0 0 0
0 0 0 0
0 0 0 0
0 0 0 0
0 0 0 0
0 0 0 0
0 0 0 0
0 0 0 0
0 0 0 0
-2696.5647 -948.38922 3109.1145 598784
-2698.4504 -955.60291 3132.7632 72448
-2683.4866 -956.90851 3137.0432 1256706
-2754.8235 -989.22186 3242.9766 2572310
-2784.6221 -1006.9697 3301.1594 1914638
-3846.7014 -1400.9106 4592.6201 3328
-4096.4556 -1502.5326 4925.7686 4864
-4035.5613 -1490.8552 4887.4863 3072
-4142.1011 -1541.312 5052.8994 3328
-4302.5576 -1612.7157 5286.9829 1792
-4288.021 -1619.0953 5307.8975 2816
-4271.0254 -1624.6343 5326.0557 398849
-4349.165 -1666.7142 5464.0068 2560
-5212.4409 -2012.5767 6597.8516 267776
-4897.9048 -1905.4706 6246.7246 991496
-4301.8022 -1686.3508 5528.3818 69888
-4028.0149 -1591.1809 5216.3853 2816
-3997.0022 -1591.1809 5216.3853 1280
-5717.8945 -2294.0566 7520.6304 1536
-5752.8711 -2326.2805 7626.27 1280
-6515.168 -2655.458 8705.416 1280
-7270.7051 -2987.1301 9792.7402 1536
-7431.2437 -3077.7314 10089.76 134656
-7371.2568 -3077.7314 10089.76 661511
-7710.7666 -3245.9021 10641.075 661001
-9776.1855 -4149.3994 13603.02 4018232
-10112.889 -4328.1138 14188.901 1536
-11404.547 -4921.9746 16135.761 1280
-11311.377 -4923.1763 16139.701 67840
-11215.423 -4923.1763 16139.702 1536
-11117.24 -4922.1909 16136.47 1280
-10980.317 -4903.8857 16076.46 1792
-10884.739 -4903.8857 16076.46 1280
-10832.346 -4923.5146 16140.81 925963
-10736.384 -4923.5146 16140.81 1792
-10638.643 -4922.6914 16138.11 1188625
-10544.266 -4923.4233 16140.511 1536
-10448.306 -4923.4233 16140.511 1536
-10352.619 -4923.5527 16140.936 1792
-10256.656 -4923.5527 16140.936 3328
0 0 0 0
0 0 0 0
0 0 0 0
0 0 0 0
0 0 0 0
0 0 0 0
0 0 0 0
0 0 0 0
0 0 0 0
0 0 0 0
0 0 0 0
0 0 0 0
0 0 0 0
-2476.5193 -1368.0044 4484.7432 1280
-2452.5562 -1369.512 4489.6855 1024
-2425.8635 -1369.512 4489.6855 1280
-2423.8665 -1383.6086 4535.8989 1024
-2413.447 -1393.161 4567.2144 1024
-2400.0046 -1401.1656 4593.4561 768
-2372.6953 -1401.1656 4593.4561 1024
