# .PCD v0.7 - Point Cloud Data file format
VERSION 0.7
FIELDS x y z rgb
SIZE 4 4 4 4
TYPE F F F U
COUNT 1 1 1 1
WIDTH 1308
HEIGHT 1
VIEWPOINT 0 0 0 1 0 0 0
POINTS 1308
DATA ascii
-3773.4558 -1064.7184 9782.3301 768
-3605.2583 -1033.1838 9492.5996 1054478
-3520.1108 -1024.825 9415.8008 256
-3536.7004 -1046.2937 9613.0498 512
-3479.5481 -1046.2937 9613.0498 256
-3139.4043 -959.77759 8818.1641 256
-3086.9778 -959.77759 8818.1641 256
-3252.1589 -1028.6033 9450.5146 256
-3316.2959 -1067.3284 9806.3096 256
-3257.9946 -1067.3284 9806.3096 256
-3079.3721 -1027.1925 9437.5527 256
-2611.7314 -887.36932 8152.8975 256
-2272.2803 -786.63556 7227.3843 256
-2221.3521 -783.82697 7201.5801 256
-2128.8867 -765.96326 7037.4531 256
-2042.4374 -749.59113 6887.0303 256
-1906.3444 -713.95679 6559.6323 256
-1814.9224 -693.91345 6375.4795 256
-1756.076 -685.73553 6300.3438 256
-1676.4087 -668.89368 6145.605 256
-1635.5693 -667.13879 6129.4819 256
-1599.1277 -667.13879 6129.4819 512
-1561.0707 -666.4491 6123.145 512
-1462.3885 -639.2265 5873.0317 512
-1375.5167 -615.96088 5659.2739 512
-1328.3981 -609.77655 5602.4536 512
-1258.4779 -592.53821 5444.0728 512
-1111.2968 -537.05212 4934.2827 512
-1078.8739 -535.51978 4920.2036 256
-1049.6219 -535.51978 4920.2036 256
-1022.0369 -536.39465 4928.2417 256
-993.94214 -537.04572 4934.2236 256
-953.28943 -530.74481 4876.3325 256
-905.07025 -519.7038 4774.8911 512
-835.43945 -495.25479 4550.2603 768
-800.08545 -490.16898 4503.5332 1121548
-763.51093 -483.95728 4446.4619 332289
-700.45874 -459.91504 4225.5688 2048
-668.58484 -455.31705 4183.3237 1783063
-632.29333 -447.23898 4109.105 3232555
-592.94312 -436.26123 4008.2441 1850903
-567.88678 -435.32123 3999.6077 730124
-557.21234 -445.80554 4095.9348 135940
-535.6756 -448.16043 4117.5708 3073
-512.14905 -448.9964 4125.2515 1450521
-490.21552 -451.38333 4147.1816 200198
-465.55939 -451.38333 4147.1816 529420
-450.49924 -461.20743 4237.4429 2049
-407.96497 -442.40204 4064.6646 1844766
-399.4762 -460.4726 4230.6914 1793
-371.69781 -457.24252 4201.0146 1024
-349.17093 -460.4726 4230.6914 512
-324.37518 -460.97974 4235.3511 1024
-301.35419 -464.30673 4265.9185 67843
-273.77017 -460.56873 4231.5747 68098
-252.31352 -467.42551 4294.5728 2562
-228.30292 -470.56219 4323.3916 1025
-201.07814 -467.02945 4290.9341 1536
-175.56735 -467.02945 4290.9341 1280
-151.29118 -470.87204 4326.2388 331014
-126.06389 -472.72223 4343.2378 1024
-99.137085 -467.51105 4295.3589 1536
-73.092468 -464.28732 4265.7402 1254929
-47.554611 -462.56714 4249.9355 2374688
-21.527582 -446.79413 4105.0176 1716762
2.8925335 -449.06735 4125.9033 729102
27.422178 -449.06735 4125.9033 3329
51.58239 -445.87405 4096.564 68354
74.363792 -436.63327 4011.6624 68355
98.214241 -436.63327 4011.6624 68612
122.06469 -436.63327 4011.6624 267017
146.83974 -439.39999 4037.0825 68100
173.25159 -445.59918 4094.0386 2560
198.19026 -446.94885 4106.439 2304
222.6656 -447.07211 4107.5718 768
253.81544 -459.24777 4219.438 1280
278.90118 -459.24777 4219.438 1024
307.14728 -464.02228 4263.3052 768
333.16745 -464.96237 4271.9424 512
360.8931 -467.98087 4299.6753 512
387.04916 -468.69931 4306.2764 512
412.65118 -468.69931 4306.2764 768
426.66879 -456.31015 4192.4482 512
451.38968 -456.10364 4190.5508 1024
456.76181 -437.3905 4018.6199 1024
469.47406 -427.21725 3925.1506 1024
502.59125 -435.69647 4003.0554 1792
526.3905 -435.69647 4003.0554 2304
556.39777 -440.61258 4048.2231 1792
580.46558 -440.61258 4048.2231 400133
627.98242 -457.70328 4205.248 598789
667.21613 -467.67938 4296.9053 466438
698.914 -471.83224 4335.0605 265219
733.21484 -477.38449 4386.0732 1280
766.68176 -482.0311 4428.7646 1024
824.95416 -501.44708 4607.1533 1024
881.07959 -518.35199 4762.4712 1024
939.04047 -535.25055 4917.7305 1280
923.77026 -510.64749 4691.6841 266759
997.51508 -535.25055 4917.7305 1978402
1026.9757 -535.367 4918.8003 1057557
1056.2192 -535.367 4918.8003 267270
1096.7488 -540.93335 4969.9424 530700
1125.9664 -540.77484 4968.4858 926481
1122.8798 -525.5061 4828.2007 926992
1143.7469 -521.92944 4795.3394 1124881
1200.4677 -534.48999 4910.7422 1388565
1240.0385 -538.99963 4952.1758 1716761
1316.8455 -559.10999 5136.9438 2560
1373.1539 -569.80255 5235.1846 72449
1404.2786 -569.80255 5235.1846 401926
1453.8254 -577.11554 5302.374 4089389
1549.8949 -602.19397 5532.7871 4683054
1634.4219 -621.83838 5713.2749 2971932
1671.6705 -623.06152 5724.5127 2708509
1765.3529 -644.85004 5924.6992 1590031
1906.6195 -682.82764 6273.627 1390856
1927.7211 -677.13824 6221.354 3431456
1978.447 -681.87323 6264.8574 931329
2190.8262 -741.11749 6809.1772 2441490
2253.0293 -748.33197 6875.4614 2904090
2316.8579 -755.81946 6944.2549 1914892
4437.8267 -1422.3884 13068.501 2044949
5479.5757 -1726.0648 15858.594 268032
5573.8594 -1726.0648 15858.594 3328
5767.2764 -1756.2529 16135.953 134401
5572.8867 -1669.2904 15336.966 1648661
5360.3149 -1579.7692 14514.471 2109468
5446.6074 -1579.7692 14514.471 200449
5659.2388 -1615.8418 14845.896 727303
4976.3901 -1399.0529 12854.101 2437154
4426.6836 -1225.6869 11261.264 768
4300.5957 -1173.0333 10777.497 512
4366.9937 -1173.6576 10783.232 512
4448.5972 -1178.2913 10825.806 198404
4512.9595 -1178.2913 10825.806 594186
4336.4395 -1116.2836 10256.096 528906
4411.396 -1119.8325 10288.703 989971
4474.9751 -1120.436 10294.248 1187093
4536.1777 -1120.436 10294.248 1253143
4615.1167 -1124.7587 10333.964 594444
4676.5547 -1124.7587 10333.964 791565
4977.7827 -1181.6827 10856.965 256
5172.9546 -1212.2948 11138.221 256
5239.1748 -1212.2948 11138.221 256
5181.3594 -1183.9525 10877.82 256
5246.0312 -1183.9525 10877.82 256
5458.1528 -1216.8247 11179.84 256
5618.7642 -1237.5604 11370.354 256
5731.084 -1247.293 11459.774 257
6336.2905 -1362.8068 12521.082 256
6328.0986 -1345.2405 12359.688 256
5897.3892 -1239.2888 11386.233 256
5773.5796 -1199.5026 11020.688 256
5776.9546 -1186.7361 10903.395 256
5841.7783 -1186.7361 10903.395 256
5950.0249 -1195.4604 10983.552 512
6851.7603 -1361.6901 12510.821 513
8932.9639 -1756.2346 16135.785 1121321
9028.9697 -1756.249 16135.917 5859446
9124.8271 -1756.2346 16135.785 2503488
7273.689 -1385.3854 12728.527 1120800
6778.1465 -1277.7086 11739.224 1580838
6786.3486 -1266.2168 11633.641 856595
6910.897 -1276.446 11727.624 199176
6845.5122 -1251.7407 11500.639 395785
6913.8867 -1251.7407 11500.639 66820
6888.9248 -1235.0078 11346.901 257
6956.3853 -1235.0078 11346.901 256
7066.2969 -1242.4722 11415.481 513
7151.6704 -1245.5208 11443.491 1025
7241.46 -1249.2737 11477.973 462089
7184.146 -1227.8159 11280.824 461832
7229.041 -1224.0615 11246.329 1580570
7176.6616 -1204.0558 11062.522 462346
7242.4312 -1204.0558 11062.522 397319
7251.6172 -1194.7334 10976.871 396810
7571.2534 -1236.2689 11358.488 594445
7793.2505 -1261.2682 11588.175 133638
7718.2593 -1238.1855 11376.098 68355
8045.0088 -1279.3926 11754.696 200197
7877.0005 -1241.8865 11410.1 924177
8955.6924 -1399.8969 12861.855 2437925
9153.7705 -1418.7455 13035.03 2898218
9357.2549 -1438.1084 13212.932 4673606
9794.1152 -1492.7175 13714.665 1251349
11619.631 -1756.3221 16136.589 921618
11727.321 -1758.084 16152.777 724241
11823.187 -1758.0591 16152.549 329740
11919.218 -1758.0591 16152.549 395018
12014.735 -1757.984 16151.859 329226
12110.763 -1757.984 16151.859 460813
12207.52 -1758.0892 16152.824 460813
12291.196 -1756.3235 16136.602 395020
9226.3252 -1308.1648 12019.047 592397
9078.627 -1277.3306 11735.751 460810
9442.085 -1318.3361 12112.497 395017
8034.8354 -1113.3597 10229.233 197638
7857.2217 -1080.5696 9927.9668 461322
7357.2388 -1004.2649 9226.9004 790030
7441.3057 -1008.2227 9263.2637 724236
7252.063 -975.36353 8961.3633 132099
7693.1895 -1027.1466 9437.1318 855822
8288.2158 -1098.579 10093.432 855822
8476.7607 -1115.4937 10248.839 461064
8537.6934 -1115.4937 10248.839 513
8509.8027 -1103.9707 10142.97 132099
8210.0703 -1057.5923 9716.8574 329478
8090.999 -1034.9716 9509.0244 329478
8025.4541 -1019.4639 9366.5449 395271
8103.9517 -1022.3416 9392.9844 329478
8231.9902 -1031.3868 9476.0898 329479
8657.3232 -1077.3041 9897.9639 66307
8788.0137 -1086.184 9979.5498 329223
8935.5117 -1097.0081 10078.999 66053
9004.0176 -1098.0548 10088.616 66052
9114.8281 -1104.2128 10145.193 131845
8983.9238 -1081.1997 9933.7559 66049
8858.3125 -1059.12 9730.8945 132099
8793.3301 -1044.5289 9596.835 0
8709.5312 -1027.905 9444.1006 256
8002.3667 -938.39557 8621.7119 256
8239.084 -960.00488 8820.2529 256
9215.8525 -1067.0251 9803.5244 256
9274.1367 -1067.0251 9803.5244 257
9306.4785 -1064.059 9776.2715 197892
9364.6016 -1064.059 9776.2715 197892
9481.8193 -1070.7324 9837.585 263685
8964.0752 -1006.0604 9243.3975 395271
0 0 0 0
0 0 0 0
0 0 0 0
0 0 0 0
-6617.2144 -754.03882 7328.186 2976284
-6790.6997 -778.93622 7570.1533 2713366
-6530.0781 -754.03882 7328.186 2713879
-6463.1226 -751.32007 7301.7637 2714133
-6138.6499 -718.42651 6982.085 2648339
-6218.7002 -732.75 7121.2891 2713876
-6176.3618 -732.75 7121.2891 2582290
-6134.0244 -732.75 7121.2891 2648084
-5994.8975 -721.1076 7008.1411 2647829
-5939.0859 -719.3941 6991.4888 2647829
-5769.9683 -703.83514 6840.2773 2779416
-5661.917 -695.55707 6759.8267 2844953
-5559.104 -687.80878 6684.5244 2976284
-5519.3623 -687.80878 6684.5244 2975771
-5054.3994 -634.43445 6165.8013 2844442
-5017.7417 -634.43445 6165.8013 3107101
-4882.1484 -621.83307 6043.334 3107101
-4791.2837 -614.78418 5974.8286 3041310
-4679.8701 -604.97357 5879.4834 2975774
-4466.4502 -581.72949 5653.5845 2843936
-4150.915 -544.73224 5294.0234 3303463
-4020.3218 -531.62531 5166.6426 3433769
-3712.5105 -494.70178 4807.7983 1457432
-3445.7119 -462.71274 4496.9106 7426
0 0 0 0
-2784.3872 -379.79947 3691.1113 3329
-3007.1096 -413.43799 4018.0298 266245
-2883.377 -399.60077 3883.5518 2766380
-2849.6433 -398.11362 3869.0986 3948861
-2731.0417 -384.64917 3738.2434 2369829
-2719.7273 -386.19843 3753.3 3685689
-2709.5955 -387.94266 3770.2515 2896430
-2731.5732 -394.35162 3832.5374 3685946
-2708.7876 -394.35162 3832.5374 4145983
-2635.1526 -386.88599 3759.9822 7107694
-2613.5076 -386.991 3761.0027 6976877
-2581.6763 -385.57645 3747.2554 5003598
-2574.9546 -387.9201 3770.0322 2240543
-2552.5405 -387.9201 3770.0322 1517075
-2553.3059 -391.47397 3804.5706 1583381
-2648.9077 -409.76163 3982.301 201730
-2774.6565 -433.08472 4208.9683 2304
-2852.3572 -449.26447 4366.2124 2816
-3196.9998 -508.17258 4938.7153 1916186
-3727.5732 -598.00092 5811.7197 2114843
-3600.8064 -583.06891 5666.6016 2115354
-3658.4688 -598.00092 5811.7197 600835
-3632.9854 -599.49756 5826.2642 598791
-3652.762 -608.56329 5914.3706 466692
-3795.2405 -638.44666 6204.7939 3840
-3926.4102 -666.99548 6482.2485 2560
-3887.8713 -666.99548 6482.2485 2304
-3768.3552 -652.96405 6345.8828 2048
-3730.627 -652.96405 6345.8828 399620
-3641.947 -643.95496 6258.3271 464901
-3567.78 -637.35242 6194.1602 1649687
-3567.5322 -643.95496 6258.3271 266500
-3586.6455 -654.22821 6358.1689 1536
-3285.6692 -605.71204 5886.6602 1024
-3052.0127 -568.69507 5526.9077 768
-2974.4536 -560.27521 5445.0791 512
-2940.7781 -560.02704 5442.6675 512
-2877.5862 -554.0899 5384.9668 256
-2455.5806 -478.15091 4646.9478 256
-2229.5388 -439.07605 4267.1953 256
-2213.5166 -440.93808 4285.2915 256
-2210.9744 -445.55997 4330.21 196608
-2224.074 -453.48013 4407.1826 720896
-1879.2791 -387.74582 3768.3384 1573120
-1858.095 -388.00049 3770.8135 6634035
-1879.1697 -397.19351 3860.1567 6236710
-1875.6461 -401.35031 3900.5549 5973281
-1868.5265 -404.83206 3934.3926 5775647
-1849.3442 -405.75552 3943.3672 5381145
-1855.7822 -412.39606 4007.9038 4855573
-1837.8702 -413.72784 4020.8467 4855575
-1814.3622 -413.81839 4021.7271 5053469
-1830.129 -422.9888 4110.8501 4790299
-1796.6602 -420.87372 4090.2949 5514792
-1798.1237 -426.99597 4149.7944 5252133
-1830.3467 -440.69458 4282.9253 6173492
-1817.3278 -443.73315 4312.4556 5911092
-1796.5596 -444.93939 4324.1787 5124398
-1770.1488 -444.76288 4322.4634 2168850
0 0 0 0
-2946.146 -762.37653 7409.2163 512
-3298.5059 -866.51282 8421.2734 2238749
-3423.8997 -913.31647 8876.1387 768
-3371.1284 -913.31647 8876.1387 768
-3340.1555 -919.31598 8934.4453 512
-3213.9922 -898.88672 8735.9014 768
-3162.0549 -898.88672 8735.9014 512
-3112.7222 -899.63953 8743.2178 330756
-3060.7412 -899.63953 8743.2178 256
-3148.7981 -941.51172 9150.1562 256
-3177.5049 -966.7981 9395.9043 256
-3257.9946 -1009.027 9806.3096 256
-2660.2026 -838.89807 8152.8975 256
-2408.3286 -773.56427 7517.9458 256
-2287.8528 -748.76331 7276.9155 256
-2229.6921 -743.79376 7228.6187 256
-2185.1499 -743.26111 7223.4419 256
-2087.0471 -724.12366 7037.4531 256
-1994.3453 -706.11542 6862.4385 256
-1852.2405 -669.49823 6506.5713 256
-1777.0184 -656.0094 6375.4795 256
-1712.3812 -645.92542 6277.4775 256
-1641.37 -632.93414 6151.2207 256
-1604.7993 -632.93414 6151.2207 512
-1535.5168 -619.73181 6022.9126 512
-1450.4292 -599.36768 5825.002 512
-1375.5167 -582.31494 5659.2739 512
-1328.3981 -576.46838 5602.4536 512
-1265.704 -563.38806 5475.332 512
-1127.6676 -515.1958 5006.9712 512
-1073.7947 -503.88437 4897.04 1024
-1051.3367 -507.09485 4928.2417 512
-1022.0369 -507.09485 4928.2417 256
-992.73712 -507.09485 4928.2417 256
-959.4151 -504.97781 4907.667 256
-905.07025 -491.31577 4774.8911 512
-859.07239 -481.44675 4678.978 512
-812.72559 -470.71515 4574.6821 512
-773.31073 -463.39417 4503.5332 512
-740.13019 -459.418 4464.8901 1024
-676.81689 -435.74594 4234.8315 1024
-650.21436 -434.79285 4225.5688 1280
-609.83154 -424.17804 4122.4082 2702370
-585.32263 -424.17804 4122.4082 4352
-557.21234 -421.4541 4095.9348 3072
-532.86084 -421.4541 4095.9348 134917
-512.14905 -424.47061 4125.2515 858383
-490.21552 -426.72714 4147.1816 1187605
-463.67178 -424.99701 4130.3672 858640
-439.1156 -424.99701 4130.3672 200709
-413.1839 -423.58682 4116.6621 2174242
-393.3158 -428.60678 4165.4487 265990
-371.69781 -432.26633 4201.0146 1024
-349.55551 -435.79941 4235.3511 512
-326.18176 -438.22656 4258.9395 265734
-300.86115 -438.22656 4258.9395 768
-275.2955 -437.83676 4255.1514 463113
-252.31352 -441.89307 4294.5728 1024
-226.78108 -441.89307 4294.5728 1055762
-201.07814 -441.51868 4290.9341 2048
-175.56735 -441.51868 4290.9341 1280
-149.72075 -440.53058 4281.3315 1024
-121.57885 -431.00092 4188.7163 1536
-98.453484 -438.92633 4265.7402 398594
-72.821655 -437.30008 4249.9355 3169301
-47.554611 -437.30008 4249.9355 3894559
-21.566177 -423.14594 4112.3774 3696672
2.8939865 -424.75095 4127.9756 2576154
27.435949 -424.75095 4127.9756 2114076
50.283417 -410.90393 3993.4021 532233
74.488388 -413.47443 4018.3838 664848
98.478104 -413.89178 4022.4402 1519135
122.39263 -413.89178 4022.4402 532238
146.83974 -415.39841 4037.0825 531468
173.25159 -421.25897 4094.0386 1386519
203.65105 -434.17709 4219.5845 1320469
229.34618 -435.33212 4230.8101 1024
254.49951 -435.33212 4230.8101 1024
283.61896 -441.50607 4290.812 768
307.14728 -438.67575 4263.3052 512
330.55539 -436.11832 4238.4502 512
359.30008 -440.46524 4280.6963 512
386.45587 -442.41806 4299.6753 768
414.06189 -444.61212 4320.998 768
426.66879 -431.38489 4192.4482 768
451.38968 -431.18967 4190.5508 1024
460.01596 -416.44467 4047.2505 1024
474.80725 -408.46918 3969.7402 3075
492.81015 -403.8811 3925.1506 726542
537.00806 -420.20529 4083.7986 398858
576.63959 -431.69864 4195.4976 2048
596.50159 -428.05225 4160.0596 2304
621.23431 -428.05225 4160.0596 335362
645.96698 -428.05225 4160.0596 2245141
681.04523 -434.65494 4224.2285 3232543
717.66675 -441.73788 4293.0649 3034399
759.29126 -451.30807 4386.0732 400132
796.6557 -457.79465 4449.1138 1536
892.05548 -496.1424 4821.7993 1280
936.25269 -504.51108 4903.1309 1536
956.76776 -499.99829 4859.2729 2176543
989.76575 -502.08228 4879.5264 598790
1026.9757 -506.12341 4918.8003 796425
1065.0931 -510.37558 4960.1255 2112032
1096.4274 -511.23584 4968.4858 5632
1111.4398 -504.64011 4904.3848 1456146
1140.5977 -504.64011 4904.3848 2707232
1151.5848 -496.80106 4828.2007 1062409
1209.6334 -509.15228 4948.2368 1130760
1240.0385 -509.55759 4952.1758 4157725
1316.8455 -528.56946 5136.9438 5932595
1390.176 -545.35559 5300.0815 2048
1422.3014 -545.59143 5302.374 5120
1456.9445 -546.76196 5313.7495 72960
1560.6287 -573.24261 5571.104 2707229
1637.6367 -589.02777 5724.5127 3431459
1671.6705 -589.02777 5724.5127 1983505
1977.3344 -682.82922 6636.1299 337152
2088.3665 -707.06378 6871.6553 928004
2631.6812 -873.91913 8493.252 992521
2922.9365 -952.36493 9255.6338 598788
3238.679 -1035.7426 10065.946 270849
3032.9915 -952.36493 9255.6338 2771243
2913.2207 -898.45612 8731.7168 9810854
4437.8267 -1344.6925 13068.501 2371626
5245.9102 -1562.1971 15182.336 201990
5671.3364 -1660.3182 16135.934 2304
5768.248 -1660.5999 16138.672 1792
5863.2422 -1660.3295 16136.044 595974
5482.7124 -1527.5787 14845.896 595718
6055.5957 -1660.4631 16137.343 135168
6151.5371 -1660.4631 16137.343 792585
5705.5996 -1516.4421 14737.662 67073
4639.7354 -1214.5043 11803.256 768
4493.6348 -1158.7356 11261.264 512
4384.2349 -1113.9288 10825.806 512
4471.3438 -1119.6245 10881.16 66306
4528.2935 -1117.7139 10862.59 1186837
4330.21 -1053.7921 10241.362 858386
4467.0352 -1072.0157 10418.471 1384987
4596.8569 -1088.0834 10574.625 1581852
4659.7261 -1088.0834 10574.625 512
4930.6045 -1136.0087 11040.39 256
4935.7354 -1122.251 10906.686 512
5248.6079 -1177.9148 11447.658 256
5316.6675 -1177.9148 11447.658 256
5358.6216 -1172.2041 11392.159 256
5370.6855 -1160.1793 11275.294 256
5437.7202 -1160.1793 11275.294 256
5618.7954 -1184.2144 11508.881 256
6067.373 -1263.3715 12278.176 256
6659.8843 -1370.2606 13316.986 66049
7285.7988 -1481.4303 14397.397 513
7082.4302 -1423.3568 13833.006 256
5939.8813 -1180.0361 11468.274 256
5837.1641 -1146.47 11142.06 256
5839.1006 -1133.9814 11020.688 513
5878.043 -1128.877 10971.081 256
6143.5718 -1166.923 11340.833 512
6965.0874 -1308.6017 12717.749 769
8443.2168 -1569.2772 15251.146 1648685
9028.8955 -1660.303 16135.785 4674395
8624.5615 -1569.2772 15251.146 520
7730.3696 -1391.9414 13527.692 1293
6864.9863 -1223.391 11889.623 988701
6935.6733 -1223.391 11889.623 199437
6769.2139 -1181.9825 11487.191 1514526
6845.5122 -1183.3662 11500.639 330764
6986.0229 -1195.7129 11620.631 329992
6888.9248 -1167.5474 11346.901 198149
6956.3853 -1167.5474 11346.901 256
7066.2969 -1174.6039 11415.481 770
7319.0605 -1205.0459 11711.334 256
7285.312 -1188.186 11547.48 199174
7176.1255 -1159.4524 11268.23 1054994
7229.041 -1157.199 11246.329 1384472
7216.6748 -1144.6324 11124.201 1976864
7301.1182 -1147.5098 11152.165 792590
7308.2007 -1138.286 11062.522 2042657
7571.2534 -1168.7396 11358.488 1280
7793.2505 -1192.3733 11588.175 768
7844.7637 -1189.7372 11562.556 265733
7931.5986 -1192.4572 11588.99 3292980
7954.084 -1185.5392 11521.757 4543816
8509.1299 -1257.4387 12220.518 2767148
9153.7705 -1341.2485 13035.03 2240296
9402.7031 -1366.1571 13277.106 4213317
9794.1152 -1411.1801 13714.665 1976100
11303.455 -1615.2058 15697.505 2041125
11726.243 -1661.8987 16151.294 1843236
11822.432 -1661.9218 16151.519 1579809
11918.431 -1661.9182 16151.483 1381659
12014.482 -1661.9218 16151.519 921365
12110.481 -1661.9182 16151.483 789777
12206.759 -1661.9526 16151.817 789777
12305.565 -1662.328 16155.467 855570
12402.191 -1662.4054 16156.219 855571
12499.775 -1662.609 16158.197 1316119
12161.158 -1605.2324 15600.578 1382169
8565.6484 -1122.0793 10905.017 856338
7857.2217 -1021.545 9927.9668 724752
7509.0791 -969.00244 9417.3271 1053716
7565.0674 -969.00244 9417.3271 658957
6712.6851 -853.50482 8294.8545 66820
8228.208 -1038.5707 10093.432 922129
8393.167 -1051.7218 10221.241 1251351
8453.9355 -1051.7218 10221.241 1053457
8514.6191 -1051.7114 10221.141 395271
8575.3867 -1051.7114 10221.141 0
8210.0703 -999.82281 9716.8574 256
8106.3818 -980.29791 9527.1025 256
8034.7246 -964.8905 9377.3652 461064
8134.4531 -970.13538 9428.3379 329478
8526.1904 -1009.8958 9814.7529 197892
8657.3232 -1018.4579 9897.9639 132099
8788.0137 -1026.8528 9979.5498 197892
8935.5117 -1037.0856 10078.999 65793
9004.0176 -1038.0752 10088.616 66306
9166.0977 -1049.7684 10202.258 66306
9169.0791 -1043.2067 10138.486 132099
9067.043 -1024.8604 9960.1865 257
8890.8457 -998.42383 9703.2617 256
8709.5312 -971.75732 9444.1006 256
8579.4424 -951.11121 9243.4502 256
8476.874 -933.75946 9074.8154 132099
9215.8525 -1008.7405 9803.5244 329478
9406.8516 -1023.1757 9943.8145 855822
9616.0859 -1039.4017 10101.508 132099
9789.7861 -1051.6091 10220.147 132099
9677.5352 -1033.139 10040.644 132099
9737.2295 -1033.139 10040.644 132099
0 0 0 0
0 0 0 0
0 0 0 0
0 0 0 0
0 0 0 0
-6729.1865 -727.28131 7501.5796 2713363
-6638.8442 -722.30438 7450.2451 2582544
-6353.6743 -695.92114 7178.1138 2516495
-6180.3887 -681.51862 7029.5581 2384910
-6218.7002 -690.41199 7121.2891 2516753
-6176.3618 -690.41199 7121.2891 2450960
-6134.0244 -690.41199 7121.2891 2450703
-6034.8643 -683.97192 7054.8633 2384911
-5840.5986 -666.5874 6875.5493 2450960
-5769.9683 -663.16772 6840.2773 2582290
-5661.917 -655.36804 6759.8267 2450450
-5559.104 -648.06744 6684.5244 2384657
-5487.1392 -644.28387 6645.4985 2450194
-5023.0586 -594.07043 6127.5693 2647316
-4986.6284 -594.07043 6127.5693 2713111
-4861.8315 -583.46558 6018.1851 2778905
-4787.2256 -578.77155 5969.7681 2779161
-4660.1201 -567.61279 5854.6709 2713369
-4308.3315 -528.71326 5453.4399 2580760
-4163.395 -514.80096 5309.9404 2514200
-4009.6099 -499.57352 5152.8765 2182680
0 0 0 0
0 0 0 0
0 0 0 0
0 0 0 0
-2781.9805 -360.3858 3717.2175 530953
-2872.646 -375.11075 3869.0986 1187346
-2841.3289 -374.0163 3857.8101 2896427
-2776.3801 -368.44095 3800.3027 3751481
-2732.0105 -365.52747 3770.2515 1580569
-2720.0625 -366.93951 3784.8162 1843484
-2731.5732 -371.5661 3832.5374 4146237
-2708.7876 -371.5661 3832.5374 6514529
-2652.4688 -366.92725 3784.6897 4410177
-2612.7983 -364.53186 3759.9822 5200207
-2582.7622 -363.45081 3748.8315 1976859
-2560.4741 -363.45081 3748.8315 2108700
-2534.5332 -362.92767 3743.4358 1648915
-2584.8474 -373.41129 3851.5693 1386764
-2648.9077 -386.08575 3982.301 2111001
-2812.5212 -413.62991 4266.4067 2833955
-2793.3167 -414.54419 4275.8369 2560
-2965.5771 -444.15067 4581.2144 4608
-3615.8433 -546.55994 5637.52 597766
-3693.0208 -563.44867 5811.7197 2178335
-3658.4688 -563.44867 5811.7197 1256977
-3662.0554 -569.3786 5872.8843 400899
-3598.3467 -564.85876 5826.2642 137216
-3715.5588 -588.92761 6074.5234 530949
-3758.3511 -601.55737 6204.7939 728840
-3887.8713 -628.45673 6482.2485 68608
-3804.353 -621.11322 6406.5034 1536
-3721.9858 -613.81097 6331.1841 1536
-3641.947 -606.74744 6258.3271 662026
-3567.78 -600.52643 6194.1602 857869
-3530.9539 -600.52643 6194.1602 1280
-3351.6135 -576.03284 5941.52 1280
-3240.9563 -562.94757 5806.5513 768
-3052.0127 -535.83606 5526.9077 512
-3179.4211 -564.28009 5820.2954 512
-3144.8179 -564.28009 5820.2954 512
-2877.5862 -522.07483 5384.9668 256
-2455.5806 -450.52353 4646.9478 256
-2229.5388 -413.70636 4267.1953 256
-2204.1692 -413.70636 4267.1953 256
-2210.9744 -419.81564 4330.21 196608
-2224.074 -427.2782 4407.1826 458752
-2128.574 -413.80627 4268.2256 851968
-1856.8752 -365.34201 3768.3384 4595483
-1835.6764 -365.58194 3770.8135 6500908
-1856.22 -374.24384 3860.1567 5579547
-1868.5265 -381.44101 3934.3926 5907488
-1849.3442 -382.3111 3943.3672 5315608
-1855.7822 -388.56796 4007.9038 5183510
-1873.3849 -397.35565 4098.5449 4986903
-1854.5692 -398.54865 4110.8501 5250589
-1832.741 -399.1174 4116.7168 5184541
-1796.6602 -396.55582 4090.2949 5645862
-1772.342 -396.55582 4090.2949 5514792
-1822.1333 -413.36813 4263.7065 4988191
-1808.0771 -415.96613 4290.5039 5976114
-1795.8469 -419.06464 4322.4634 5321008
-1757.0607 -415.96613 4290.5039 3614498
0 0 0 0
-2274.1814 -554.48883 5719.3032 512
-2902.0959 -718.32666 7409.2163 768
-3230.1006 -811.83685 8373.7324 768
-3180.3164 -811.83685 8373.7324 1280
-3155.6587 -818.35291 8440.9424 68097
-3074.6599 -810.23254 8357.1846 463367
-2977.3625 -797.47986 8225.6465 1536
-2889.8059 -786.95392 8117.0762 1024
-2922.803 -809.45728 8349.1875 768
-3084.6724 -869.04529 8963.8115 512
-3084.4519 -884.26019 9120.7461 512
-2952.311 -861.52344 8886.2266 256
-2553.687 -758.77783 7826.4521 256
-2405.8613 -728.12128 7510.2437 256
-2264.5457 -698.31287 7202.7837 256
-2221.7231 -698.31287 7202.7837 256
-2178.9006 -698.31287 7202.7837 256
-2115.9097 -691.71954 7134.7764 256
-2023.4398 -675.02228 6962.5518 256
-1882.3033 -641.05328 6612.1763 256
-1813.5571 -630.81482 6506.5713 256
-1721.5674 -611.86896 6311.1533 256
-1645.6794 -597.9292 6167.3711 256
-1599.1277 -594.25586 6129.4819 256
-1524.4341 -579.70935 5979.4414 256
-1450.4292 -564.73639 5825.002 256
-1373.7583 -547.96759 5652.0391 256
-1319.4642 -539.50732 5564.7754 256
-1285.3839 -539.08948 5560.4658 512
-1131.9161 -487.25684 5025.8354 512
-1053.2238 -465.67484 4803.2266 527622
-1023.6547 -465.21463 4798.48 512
-1013.4762 -473.79306 4886.9624 512
-992.73712 -477.79514 4928.2417 256
-960.43164 -476.30447 4912.8667 256
-924.29828 -472.76248 4876.3325 256
-860.17188 -454.2095 4684.9668 256
-826.16278 -450.85025 4650.3174 256
-798.07373 -450.60086 4647.7456 256
-755.19055 -441.68118 4555.7427 512
-724.85144 -439.70724 4535.3828 768
-678.19104 -427.29752 4407.3818 1024
-632.7088 -414.66245 4277.0566 1280
-607.28052 -414.66245 4277.0566 3329
-567.88464 -404.70828 4174.3843 925201
-539.25098 -401.86469 4145.0537 597774
-519.6333 -405.78946 4185.5356 1915429
-491.86877 -403.427 4161.168 2508335
-463.67178 -400.44083 4130.3672 1849380
-439.1156 -400.44083 4130.3672 466955
-407.96497 -394.07092 4064.6646 1056785
-391.56134 -402.04062 4146.8682 1319702
-366.90704 -402.04062 4146.8682 134149
-345.14511 -405.4382 4181.9131 67843
-326.18176 -412.90598 4258.9395 463626
-300.86115 -412.90598 4258.9395 265991
-277.02307 -415.12753 4281.854 529675
-258.86523 -427.17209 4406.0884 2048
-226.10945 -415.12753 4281.854 2561
-200.0114 -413.80084 4268.1699 68097
-173.52005 -411.15674 4240.897 1121553
-146.88045 -407.20261 4200.1118 200707
-121.90961 -407.20261 4200.1118 2560
-98.423653 -413.44 4264.4478 1256464
-72.975502 -412.90347 4258.9136 2560
-48.106709 -416.81665 4299.2764 3328
-22.546316 -416.81665 4299.2764 69376
3.0001264 -414.88705 4279.3735 861964
28.18309 -411.10748 4240.3892 3584
52.822281 -406.71027 4195.0337 4022319
74.563576 -389.97729 4022.4402 1062151
98.478104 -389.97729 4022.4402 3760681
122.31581 -389.73245 4019.9153 2181142
146.21532 -389.73245 4019.9153 2442524
168.89574 -386.93951 3991.1072 136451
205.94344 -413.6954 4267.082 1792
243.02599 -434.64471 4483.165 1024
269.67963 -434.64471 4483.165 1024
288.06607 -422.5188 4358.0918 768
303.80295 -408.8287 4216.8843 512
328.17126 -407.95575 4207.8804 512
353.94403 -408.8287 4216.8843 512
384.75 -415.01532 4280.6963 512
393.08862 -397.70306 4102.1284 331786
416.04956 -396.34338 4088.1035 528652
440.35446 -396.34338 4088.1035 67073
464.65939 -396.34338 4088.1035 397064
482.12927 -390.80301 4030.9575 332809
499.8125 -385.95215 3980.9229 201993
552.70581 -407.49963 4203.1758 1518876
577.69482 -407.49963 4203.1758 1716510
595.59546 -402.70688 4153.7402 1650716
604.53339 -392.47696 4048.2231 463622
635.95215 -397.06662 4095.5635 3072
682.12579 -410.19049 4230.9307 2048
717.66675 -416.21445 4293.0649 1386002
766.68176 -429.37061 4428.7646 1536
876.4295 -474.53638 4894.6294 1280
922.07849 -483.2088 4984.0815 1024
975.87146 -495.4761 5110.6133 1280
965.4032 -475.3606 4903.1309 464134
1026.1241 -490.4501 5058.7725 1254669
1056.1998 -490.4501 5058.7725 70912
1076.1301 -485.86942 5011.5244 1536
1094.5825 -480.88626 4960.1255 268802
1089.4374 -466.0694 4807.2964 137728
1118.0182 -466.0694 4807.2964 995333
1143.7469 -464.91019 4795.3394 4483371
1210.5964 -480.11551 4952.1758 1061124
1262.5967 -488.84955 5042.2632 532736
1375.5946 -520.24774 5366.1211 596997
1416.9144 -523.72833 5402.0225 2560
1460.9301 -528.02911 5446.3828 268549
1510.5452 -534.12323 5509.2412 664840
1560.6287 -540.12085 5571.104 797958
1663.8241 -563.86884 5816.0532 2574363
1937.8807 -643.37561 6636.1299 1786384
2079.4331 -676.59595 6978.7832 3298595
2145.7791 -684.52502 7060.5679 794628
2867.8101 -897.30658 9255.3135 71168
3011.6292 -924.5661 9536.4834 267520
3283.9465 -989.53796 10206.64 3072
3298.5237 -975.89777 10065.946 1188368
4198.7744 -1220.1086 12584.872 3329
4437.8267 -1266.9967 13068.501 3688763
4680.7451 -1313.356 13546.676 793359
4872.8525 -1344.1311 13864.108 1280
5767.8213 -1564.5353 16137.478 2048
5863.2422 -1564.3964 16136.044 397828
5959.8862 -1564.5829 16137.969 1536
6055.8306 -1564.5829 16137.969 1186833
6151.5371 -1564.5221 16137.343 768
4976.3901 -1246.2104 12854.101 512
4578.71 -1129.2795 11648.011 512
4560.8145 -1108.1062 11429.618 512
4569.4741 -1093.9119 11283.209 512
4636.5557 -1093.9119 11283.209 512
4700.5996 -1093.2052 11275.921 256
4592.875 -1053.1327 10862.59 67076
4533.9878 -1025.2142 10574.625 133637
4799.3276 -1070.3705 11040.39 199431
4864.9658 -1070.3705 11040.39 256
5144.9897 -1116.9109 11520.433 512
5229.2256 -1120.2836 11555.222 512
5387.8315 -1139.295 11751.316 256
5504.7017 -1149.1074 11852.526 256
5575.1685 -1149.1074 11852.526 131842
5645.6348 -1149.1074 11852.526 256
5768.3389 -1159.6086 11960.842 256
6250.936 -1241.3225 12803.684 256
6580.7109 -1291.0874 13316.986 328965
7200.2026 -1395.8337 14397.397 2500646
8165.8345 -1564.4335 16136.428 526601
8261.7705 -1564.4335 16136.428 0
6046.2061 -1131.7563 11673.559 256
6008.0635 -1111.854 11468.274 256
6076.2456 -1111.854 11468.274 0
6076.1475 -1099.4985 11340.833 329478
6377.3691 -1141.3407 11772.416 256
7169.1665 -1269.1182 13090.383 0
7357.8677 -1288.5349 13290.658 66309
8105.6016 -1404.3987 14485.741 1286
8191.7231 -1404.3987 14485.741 2040871
7730.3696 -1311.5155 13527.692 263688
6778.1465 -1138.1227 11739.224 66311
6985.9575 -1161.0613 11975.825 260
6705.8115 -1103.257 11379.6 3
7128.3574 -1161.0613 11975.825 462349
6986.0229 -1126.625 11620.631 462091
6888.9248 -1100.0869 11346.901 593677
6956.3853 -1100.0869 11346.901 593677
7158.7422 -1121.2146 11564.825 198662
7319.0605 -1135.4187 11711.334 256
7505.2363 -1153.3289 11896.068 198916
7242.5557 -1102.5728 11372.542 264709
7168.5127 -1081.2072 11152.165 1582362
7216.6748 -1078.496 11124.201 1714201
7301.1182 -1081.2072 11152.165 3622196
7372.73 -1081.9862 11160.201 2306340
7707.2788 -1120.9946 11562.556 660749
7776.0215 -1120.9946 11562.556 792335
7844.7637 -1120.9946 11562.556 1976611
8031.9067 -1137.7667 11735.553 2963507
8471.1914 -1189.6597 12270.805 2503216
8791.8438 -1224.1486 12626.542 2567984
9631.04 -1329.6426 13714.665 2436144
9712.5771 -1329.6426 13714.665 2435631
11210.129 -1521.8796 15697.505 2370096
11303.455 -1521.8796 15697.505 2304303
11563.674 -1544.1658 15927.376 2369840
11825.94 -1566.3612 16156.312 2106667
11921.994 -1566.3612 16156.312 1777189
12016.025 -1566.0977 16153.593 1316636
12102.131 -1564.8135 16140.347 1645344
12201.834 -1565.2937 16145.301 987670
12305.565 -1566.2793 16155.467 1118743
12403.711 -1566.5441 16158.197 1250585
12500.692 -1566.6588 16159.383 1514526
12596.765 -1566.6588 16159.383 1645856
9697.3779 -1196.9338 12345.834 1580320
9587.5732 -1174.491 12114.346 1448989
9140.9424 -1111.4288 11463.889 1645854
8534.4443 -1030.0061 10624.05 1316889
7681.9619 -920.31042 9492.5879 1251609
8627.2168 -1026.0156 10582.89 1382683
8601.4033 -1015.5395 10474.833 1382683
8476.7607 -993.62927 10248.839 1251096
8514.6191 -990.94385 10221.141 1118484
8575.3867 -990.94385 10221.141 2
8552.4727 -981.34204 10122.102 256
9206.6152 -1049.0193 10820.162 197892
9270.9434 -1049.0193 10820.162 658443
8691.6309 -976.6922 10074.141 658443
8704.1289 -971.40277 10019.583 395271
8966.3496 -993.86548 10251.275 329478
9027.2969 -993.86548 10251.275 197892
9088.2432 -993.86548 10251.275 0
9237.791 -1003.4901 10350.549 66306
9357.4502 -1009.7621 10415.242 263685
9488.8193 -1017.2069 10492.032 329478
9271.2061 -987.38763 10184.46 329478
9073.2627 -960.03668 9902.3467 329478
8787.0527 -923.75916 9528.1602 395271
8843.6992 -923.75916 9528.1602 256
9288.6143 -964.05701 9943.8145 256
9347.7324 -964.05701 9943.8145 66306
9556.0293 -979.34546 10101.508 1316373
9729.0244 -990.8476 10220.147 328711
9890.0312 -1000.9937 10324.8 131588
10029.083 -1008.8062 10405.382 789774
10090.946 -1008.8062 10405.382 461066
0 0 0 0
0 0 0 0
0 0 0 0
0 0 0 0
0 0 0 0
-6439.0264 -653.24524 7178.1138 2384655
-6396.3501 -653.24524 7178.1138 2385165
-6242.2466 -641.78894 7052.2271 2384909
-6180.3887 -639.72595 7029.5581 2450958
-6173.1514 -643.32715 7069.1294 2450958
-6152.7695 -645.59839 7094.0869 2187787
-6112.8188 -645.83356 7096.6709 2121738
-6049.3604 -643.57104 7071.8096 2121995
-5896.958 -631.74823 6941.8955 2187533
-5855.6865 -631.74823 6941.8955 2187533
-5729.3013 -622.50043 6840.2773 2187533
-5578.4194 -610.43976 6707.7505 2450705
-5336.9858 -588.22516 6463.6475 2450448
-4969.4038 -551.68372 6062.1162 2515985
-4897.6113 -547.68579 6018.1851 2450447
-4826.8057 -543.74011 5974.8286 2515985
-4781.5615 -542.63678 5962.7046 2516241
-4500.062 -514.50525 5653.5845 2515731
-4194.9644 -483.2319 5309.9404 2515218
-4130.3301 -479.39417 5267.77 2382864
-3553.762 -415.62521 4567.0518 2578965
0 0 0 0
0 0 0 0
0 0 0 0
0 0 0 0
-2762.4426 -335.9101 3691.1113 2304
-2797.8057 -342.93448 3768.2979 68353
-2808.4536 -347.0184 3813.1736 198146
-2779.4275 -346.22668 3804.4739 1053456
-2707.9739 -340.09351 3737.0803 1580054
-2732.9956 -346.07541 3802.8118 1120016
-2750.0425 -351.13885 3858.4507 1712154
-2727.103 -351.13885 3858.4507 2040861
-2643.4709 -343.25784 3771.8511 4081466
-2612.7983 -342.1777 3759.9822 4345148
-2591.1475 -342.27057 3761.0027 5003843
-2568.7871 -342.27057 3761.0027 2372377
-2534.5332 -340.67191 3743.4358 1584652
-2584.8474 -350.5126 3851.5693 267520
-2651.0945 -362.70908 3985.5889 1649935
-2789.5547 -385.09445 4231.5679 1536
-2793.3167 -389.12314 4275.8369 2048
-2935.0269 -412.61917 4534.0205 2048
-3648.7961 -517.71893 5688.8975 399623
-3693.0208 -528.89636 5811.7197 663561
-3649.0283 -527.53162 5796.7231 2816
-3634.447 -530.43335 5828.6084 71424
-3583.6953 -528.0611 5802.5415 269057
-3727.3584 -554.56848 6093.8145 465926
-3758.3511 -564.66815 6204.7939 1583894
-3850.5977 -584.26227 6420.1021 69121
-3881.8242 -594.89734 6536.9639 1536
-3766.2646 -583.02472 6406.5034 1280
-3648.8364 -570.61737 6270.166 1024
-3705.4089 -585.44537 6433.1025 2049
-3567.5322 -569.53998 6258.3271 1024
-3351.6135 -540.70886 5941.52 768
-3149.3948 -513.49725 5642.5083 768
-3320.4963 -547.22363 6013.1064 512
-3284.7471 -547.22363 6013.1064 512
-3234.9951 -544.86523 5987.1914 256
-2933.5583 -499.59183 5489.71 256
-2356.2258 -405.78546 4458.9287 256
-2246.5774 -391.30447 4299.8062 256
-2219.8237 -391.09476 4297.502 256
-2194.2739 -391.09476 4297.502 65536
-2168.7241 -391.09476 4297.502 196608
-2128.574 -388.43045 4268.2256 589824
-1840.2603 -339.86963 3734.6199 1310720
-1820.2637 -340.28217 3739.1531 6502449
-1854.2888 -350.92865 3856.1409 5908515
-1852.4562 -354.97055 3900.5549 5908259
-1821.6194 -353.48666 3884.2493 6960947
-1843.0604 -362.23947 3980.4285 5052951
-1845.9268 -367.52179 4038.4729 5052696
-1854.5692 -374.10849 4110.8501 4987417
-1830.129 -374.10849 4110.8501 5119005
-1805.689 -374.10849 4110.8501 5645862
-1800.1554 -378.07938 4154.4834 5383206
-1822.1333 -388.01923 4263.7065 4857118
-1822.2681 -393.52249 4324.1787 6107701
-1796.5596 -393.52249 4324.1787 5452082
-1761.2125 -391.38055 4300.6421 4270633
0 0 0 0
-2274.1814 -520.48596 5719.3032 131072
-2417.8174 -561.75891 6172.8257 256
-3081.0994 -726.90002 7987.4609 512
-3138.1567 -751.95056 8262.7266 768
-3124.3455 -760.54675 8357.1846 768
-2897.2588 -716.66492 7874.9932 67073
-2813.3711 -707.34497 7772.5825 1024
-2767.1609 -707.34497 7772.5825 1024
-2746.8459 -714.07672 7846.5537 132354
-3022.3967 -799.28394 8782.8438 512
-3005.1423 -808.69226 8886.2266 256
-2825.2261 -773.88135 8503.71 256
-2637.7427 -735.69128 8084.0625 256
-2424.7388 -688.83362 7569.1724 256
-2287.8528 -662.23676 7276.9155 256
-2221.7231 -655.49036 7202.7837 256
-2172.8586 -653.67267 7182.8105 256
-2111.3525 -647.90289 7119.4102 256
-2023.4398 -633.62805 6962.5518 256
-1911.2454 -610.99432 6713.8442 256
-1834.7531 -599.05194 6582.6162 256
-1745.5461 -582.34723 6399.0581 256
-1665.364 -567.97595 6241.1411 256
-1579.2559 -550.88251 6053.312 256
-1513.8073 -540.36658 5937.7588 256
-1456.2435 -532.23016 5848.353 256
-1385.4344 -518.73639 5700.0781 256
-1318.5106 -506.05716 5560.7534 256
-1250.9594 -492.4787 5411.5483 512
-1131.9161 -457.37686 5025.8354 256
-1063.3792 -441.33307 4849.54 198146
-1020.7155 -435.4325 4784.7021 593159
-1005.7155 -441.33307 4849.54 512
-992.73712 -448.49536 4928.2417 256
-964.12616 -448.81598 4931.7651 256
-930.23761 -446.62292 4907.667 256
-860.17188 -426.35608 4684.9668 256
-828.00354 -424.14578 4660.6792 256
-798.51532 -423.20279 4650.3174 256
-745.9859 -409.54269 4500.2148 512
-719.23083 -409.54269 4500.2148 1024
-688.01837 -406.90646 4471.2471 595466
-651.98792 -401.09439 4407.3818 69379
-609.58374 -390.71042 4293.2783 201478
-569.40167 -380.90527 4185.5356 793872
-544.51752 -380.90527 4185.5356 860947
-519.6333 -380.90527 4185.5356 1915172
-491.86877 -378.68768 4161.168 1653278
-459.4184 -372.43658 4092.4783 2575653
-449.0144 -384.35803 4223.4761 3234603
-419.11856 -380.01846 4175.791 1917729
-394.29236 -380.01846 4175.791 2311720
-365.28912 -375.7222 4128.582 1784867
-340.8537 -375.84363 4129.9165 1323546
-325.8916 -387.24066 4255.1514 927505
-298.50534 -384.55051 4225.5908 597260
-273.38303 -384.55051 4225.5908 595723
-250.94254 -388.70456 4271.2373 3330
-225.54883 -388.70456 4271.2373 1024
-198.13632 -384.78397 4228.1562 200708
-175.15141 -389.57196 4280.7686 464136
-147.30334 -383.33231 4212.2051 727052
-123.49483 -387.20206 4254.7271 134146
-98.199303 -387.20206 4254.7271 2304
-72.975502 -387.58304 4258.9136 3328
-48.142712 -391.54907 4302.4937 265989
-22.546316 -391.25626 4299.2764 1536
3.0001264 -389.44501 4279.3735 1280
28.342842 -388.08463 4264.4253 1536
52.849609 -381.96716 4197.2041 200706
77.762932 -381.76965 4195.0337 269057
101.82874 -378.5177 4159.3003 3584
122.31581 -365.83298 4019.9153 1585943
146.21532 -365.83298 4019.9153 465158
180.16043 -387.4361 4257.2988 1517845
215.53651 -406.4151 4465.8477 1024
246.90239 -414.49878 4554.6743 1024
276.8093 -418.77737 4601.689 768
304.16763 -418.77737 4601.689 768
313.97614 -396.60876 4358.0918 512
328.72736 -383.58765 4215.0107 512
353.78677 -383.58765 4215.0107 512
378.10837 -382.84061 4206.8018 529419
393.08862 -373.31479 4102.1284 1582878
417.4769 -373.31479 4102.1284 1188632
440.35446 -372.03845 4088.1035 333578
464.65939 -372.03845 4088.1035 1386524
487.37161 -370.82663 4074.7876 794898
509.72537 -369.46973 4059.8774 466700
551.69617 -381.81186 4195.4976 1125141
576.63959 -381.81186 4195.4976 2903342
595.59546 -378.01172 4153.7402 2379040
596.67572 -363.62057 3995.6045 4418855
616.78491 -361.48383 3972.1255 3823904
682.12579 -385.03644 4230.9307 2560
751.74146 -409.24091 4496.8989 1536
847.32953 -445.43646 4894.6294 1024
887.06592 -450.84225 4954.0308 1024
932.70428 -458.80392 5041.5166 1024
1000.1506 -476.6633 5237.7622 1024
1013.9031 -468.62686 5149.4546 1024
1044.5181 -468.62686 5149.4546 1024
1069.673 -466.24695 5123.3032 1024
1086.2758 -460.3743 5058.7725 1280
1094.5825 -451.39694 4960.1255 68609
1089.4374 -437.48871 4807.2964 4096
1118.0182 -437.48871 4807.2964 1125389
1165.5637 -444.72479 4886.8096 139776
1224.2892 -455.7709 5008.1885 2180631
1273.3231 -462.77023 5085.1001 1717776
1430.6812 -507.90067 5581.0107 2560
1463.8618 -507.90067 5581.0107 3584
1503.474 -510.08273 5604.9878 4866
1510.5452 -501.36926 5509.2412 1255702
1578.3319 -512.75037 5634.3008 5376
1674.6318 -532.72882 5853.8325 399872
1906.9454 -594.28125 6530.1943 532737
2079.4331 -635.10516 6978.7832 1454857
2145.7791 -642.54797 7060.5679 2046742
2867.8101 -842.28113 9255.3135 990732
3178.834 -916.05286 10065.946 136192
4328.959 -1224.436 13454.581 69888
4402.0967 -1222.5327 13433.666 199426
4488.9414 -1224.436 13454.581 792585
4600.2065 -1232.8171 13546.676 595207
4707.8008 -1239.9431 13624.979 2560
4872.8525 -1261.7051 13864.108 68608
5719.229 -1456.2208 16001.523 200194
5863.4741 -1468.5211 16136.683 68352
5959.8862 -1468.6382 16137.969 264963
6055.2271 -1468.4917 16136.359 331780
6150.9463 -1468.4401 16135.793 397317
4850.2329 -1140.1338 12528.234 1024
4578.71 -1060.0289 11648.011 512
4560.8145 -1040.1541 11429.618 512
4569.4741 -1026.83 11283.209 512
4664.7549 -1033.0752 11351.833 512
4826.5811 -1053.6692 11578.129 512
4950.5127 -1065.5281 11708.438 512
5102.6245 -1083.0392 11900.857 512
4900.9238 -1026.0012 11274.102 67074
5076.4976 -1048.4186 11520.433 512
5258.2236 -1071.4928 11773.98 512
5340.2964 -1073.9207 11800.659 256
5692.5659 -1129.9167 12415.967 512
5746.3384 -1125.9893 12372.81 394757
5819.8979 -1125.9893 12372.81 256
5893.458 -1125.9893 12372.81 512
6217.27 -1173.2124 12891.716 256
6508.6953 -1213.2485 13331.647 527114
7973.9468 -1468.4949 16136.395 263171
8069.8994 -1468.4979 16136.428 1974304
8165.8345 -1468.4979 16136.428 2
8262.0303 -1468.5442 16136.936 66049
6907.5254 -1213.6926 13336.528 256
6196.1421 -1076.3435 11827.282 256
6266.4585 -1076.3435 11827.282 256
6507.8857 -1105.4078 12146.652 461064
6637.3208 -1115.0203 12252.277 256
7169.1665 -1191.2921 13090.383 329221
7246.9927 -1191.2921 13090.383 513
7569.5181 -1231.0895 13527.692 263685
7649.9443 -1231.0895 13527.692 258
7730.3696 -1231.0895 13527.692 0
6632.6245 -1045.3936 11487.191 257
6840.1968 -1067.1217 11725.95 257
6769.2139 -1045.3936 11487.191 258
7128.3574 -1089.8617 11975.825 66307
7082.1963 -1072.0958 11780.606 264455
7152.2354 -1072.0958 11780.606 330249
7127.96 -1058.0955 11626.766 256
7197.084 -1058.0955 11626.766 513
7461.1475 -1086.4822 11938.689 256
7883.5894 -1137.1794 12495.771 512
7571.7788 -1082.0056 11889.5 512
7150.5381 -1012.3595 11124.201 1793
7216.6748 -1012.3595 11124.201 660749
7327.1431 -1018.522 11191.917 3095346
7786.1831 -1072.5913 11786.052 857615
7707.2788 -1052.2521 11562.556 3292469
7776.0215 -1052.2521 11562.556 1647645
8325.2852 -1116.7064 12270.805 2963508
9554.1611 -1270.4084 13959.743 2897461
10969.907 -1446.097 15890.278 3029050
11185.727 -1461.9569 16064.554 2897208
11160.354 -1446.2917 15892.417 2831672
11115.749 -1428.4182 15696.017 2962235
11210.129 -1428.5537 15697.505 2896699
11252.187 -1422.0742 15626.307 2830906
11345.09 -1422.0742 15626.307 2699320
11711.387 -1456.0651 15999.812 2566964
11919.988 -1470.0599 16153.593 2237740
12006.517 -1468.8966 16140.81 1645602
12101.808 -1468.8153 16139.915 2237738
12201.834 -1469.3054 16145.301 921621
12303.353 -1469.9662 16152.562 1185050
12402.996 -1470.3943 16157.267 1448222
12500.642 -1470.5808 16159.316 1843493
12596.765 -1470.5869 16159.383 2040872
12688.667 -1470.1039 16154.074 2106665
12057.903 -1386.5291 15235.723 2040873
12095.314 -1380.4608 15169.042 1975082
12839.656 -1454.5686 15983.366 1909545
13073.9 -1470.2244 16155.399 1975080
10946.928 -1222.0579 13428.448 1777701
8962.5322 -993.28632 10914.617 1777700
8663.6797 -953.26367 10474.833 1777443
8613.1553 -940.9408 10339.425 1514270
8674.626 -940.9408 10339.425 1316633
12971.975 -1397.1757 15352.711 921362
13063.251 -1397.1757 15352.711 1184533
10893.188 -1156.9929 12713.49 1118741
9539.0742 -1006.1876 11056.381 790030
11044.357 -1156.9929 12713.49 263685
11153.553 -1160.49 12751.917 263685
9281.418 -959.18073 10539.853 526857
8798.3398 -903.15985 9924.2725 724236
9028.0098 -920.56244 10115.499 66050
9299.3271 -941.95319 10350.549 263685
9589.4014 -964.95013 10603.249 66306
9551.1973 -954.82886 10492.032 513
9289.6309 -922.65436 10138.486 0
9187.6152 -906.63934 9962.5068 66306
9255.668 -907.50446 9972.0127 0
9314.9541 -907.50446 9972.0127 256
9368.6436 -906.96259 9966.0586 526344
9556.0293 -919.28912 10101.508 2039583
9773.4209 -934.3302 10266.785 2105633
9890.0312 -939.60992 10324.8 1841948
10029.083 -946.94324 10405.382 1842204
10090.946 -946.94324 10405.382 1184275
0 0 0 0
0 0 0 0
0 0 0 0
0 0 0 0
0 0 0 0
-6297.8862 -597.18597 7020.7729 2384145
-6256.145 -597.18597 7020.7729 1990154
-6179.3003 -593.8125 6981.1128 2055691
-6180.7202 -597.96539 7029.9355 2055691
-6173.1514 -601.29919 7069.1294 1792775
-6133.4482 -601.52716 7071.8096 1529605
-6089.0957 -601.29919 7069.1294 1924361
-5983.5659 -594.9848 6994.8945 1990410
-5840.5986 -584.83325 6875.5493 1990410
-5870.6758 -591.98816 6959.6655 2055949
-5792.4272 -588.24371 6915.644 1595397
-5560.0679 -568.68335 6685.6836 1792776
-5271.6699 -543.06836 6384.543 1727242
-4776.2354 -495.59897 5826.4727 1924364
-4741.5952 -495.59897 5826.4727 1989644
-4608.8008 -485.26416 5704.9722 1989644
-4574.8828 -485.26416 5704.9722 2186767
-4405.2251 -470.75848 5534.437 1857801
-4194.9644 -451.66278 5309.9404 2120463
-4074.4241 -442.01083 5196.4678 2251025
0 0 0 0
0 0 0 0
0 0 0 0
0 0 0 0
-2798.6113 -315.56931 3709.9673 5632
-2776.5544 -315.56931 3709.9673 135425
-2759.8806 -316.186 3717.2175 1648409
-2802.0461 -323.60803 3804.4739 2633768
-2779.4275 -323.60803 3804.4739 3423283
-2707.9739 -317.87555 3737.0803 1581593
-2702.5977 -319.86887 3760.5146 1187088
-2680.2402 -319.86887 3760.5146 1121293
-2687.7783 -323.46664 3802.8118 1977622
-2643.4709 -320.83313 3771.8511 1452302
-2605.0498 -318.87509 3748.8315 1189387
-2582.7622 -318.87509 3748.8315 2504477
-2560.4741 -318.87509 3748.8315 1187848
-2534.5332 -318.41614 3743.4358 397827
-2584.8474 -327.61395 3851.5693 662017
-2651.0945 -339.01364 3985.5889 530434
-2789.5547 -359.93658 4231.5679 399618
-2821.7588 -367.40536 4319.374 927244
-2934.9265 -385.64999 4533.8657 201988
-3469.3223 -460.09534 5409.0767 4096
-3620.0889 -484.58148 5696.9463 3072
-3617.2576 -488.77554 5746.2534 795147
-3614.5649 -493.06851 5796.7231 71424
-3580.1021 -493.06851 5796.7231 203008
-3722.2344 -517.62646 6085.4375 267777
-3700.6965 -519.68256 6109.6099 465158
-3748.9436 -531.67633 6250.6138 201729
-3881.8242 -556.03326 6536.9639 1280
-3766.2646 -544.93634 6406.5034 1280
-3524.9084 -515.22528 6057.2075 1024
-3611.5588 -533.33942 6270.166 1024
-3386.9377 -505.38489 5941.52 1024
-3302.2156 -497.93625 5853.9507 768
-3149.3948 -479.95099 5642.5083 768
-3377.3677 -520.23419 6116.0947 512
-3302.6096 -514.25543 6045.8062 512
-3234.9951 -509.26965 5987.1914 256
-2933.5583 -466.95395 5489.71 256
-2507.9482 -403.69824 4746.0483 256
-2251.9426 -366.61435 4310.0747 256
-2180.0874 -359.00143 4220.5737 256
-2194.2739 -365.54492 4297.502 65536
-2153.9497 -363.05469 4268.2256 196608
-2128.574 -363.05469 4268.2256 458752
-1840.2603 -317.66626 3734.6199 851968
-1825.6617 -318.99506 3750.2417 4201753
-1816.7587 -321.36414 3778.0938 5844263
-1844.7123 -330.39371 3884.2493 6040614
-1786.9976 -324.11423 3810.425 5777186
-1821.3859 -334.59302 3933.6182 4921365
-1833.6395 -341.2254 4011.5913 4987158
-1821.917 -343.51196 4038.4729 5184539
-1797.9071 -343.51196 4038.4729 5119003
-1773.9949 -343.53085 4038.6951 5251103
-1828.5358 -358.95102 4219.981 6830653
-1810.6385 -360.38245 4236.8096 4660510
-1824.6652 -368.29788 4329.8667 6107444
-1798.9229 -368.29788 4329.8667 5583152
-1771.136 -367.8732 4324.874 5190452
-1745.4233 -367.8732 4324.874 327680
-2034.7076 -435.25595 5117.0547 131072
-2240.1785 -486.48312 5719.3032 256
-1973.863 -435.25595 5117.0547 512
0 0 0 0
-2906.3918 -661.27142 7774.1885 768
-2839.9407 -656.59387 7719.1978 1280
-2758.489 -648.23773 7620.9585 67329
-2713.1804 -648.23773 7620.9585 133122
-2703.9993 -657.01593 7724.1592 1280
-2937.9446 -726.19287 8537.4326 256
-2808.803 -706.47742 8305.6494 256
-2741.7949 -701.96405 8252.5889 256
-2499.582 -651.61237 7660.6323 512
-2424.7388 -643.83276 7569.1724 198914
-2267.0564 -613.34705 7210.7695 66560
-2213.208 -610.3197 7175.1782 512
-2170.5498 -610.3197 7175.1782 256
-2077.4414 -595.84967 7005.0625 256
-2012.8735 -589.14105 6926.1934 256
-1895.0886 -566.25104 6657.0884 256
-1842.9921 -562.43079 6612.1763 256
-1745.5461 -544.30298 6399.0581 256
-1665.364 -530.87061 6241.1411 256
-1579.2559 -514.89392 6053.312 256
-1510.329 -503.90442 5924.1152 256
-1456.2435 -497.46011 5848.353 256
-1354.5441 -474.03748 5572.9863 256
-1320.7074 -473.78503 5570.0186 256
-1260.0764 -463.66028 5450.9878 0
-1131.9161 -427.49686 5025.8354 512
