# .PCD v0.7 - Point Cloud Data file format
VERSION 0.7
FIELDS x y z rgb
SIZE 4 4 4 4
TYPE F F F U
COUNT 1 1 1 1
WIDTH 1362
HEIGHT 1
VIEWPOINT 0 0 0 1 0 0 0
POINTS 1362
DATA ascii
351.13342 125.61624 4502.3057 0
388.10138 129.00694 4623.8345 0
421.65729 130.88992 4691.3237 256
451.46176 131.44698 4711.2896 256
487.66983 133.69449 4791.8442 256
518.02448 134.17775 4809.1655 0
551.41205 135.35498 4851.3589 256
581.53693 135.65408 4862.0791 256
614.10229 136.46718 4891.2222 256
0 0 0 0
0 0 0 0
0 0 0 0
682.78931 127.56798 4572.2593 0
785.69623 141.174 5059.9229 0
828.11121 143.30817 5136.415 0
923.45386 154.12413 5524.0781 0
1009.2571 162.65974 5830.0098 65792
1043.9181 162.65974 5830.0098 394756
1094.2297 165.02 5914.6055 921099
1223.7789 178.81097 6408.8979 855560
1261.8816 178.81097 6408.8979 1250319
1336.6649 183.85635 6589.7329 1250319
1384.707 185.04089 6632.189 1184271
1419.7468 184.47044 6611.7432 394500
1514.0337 191.42143 6860.8784 4868161
1570.1488 193.30817 6928.5029 5525832
1612.4498 193.44124 6933.272 6314575
1653.6699 193.44124 6933.272 5195577
1733.436 197.84055 7090.9512 5195574
1795.6128 200.07114 7170.8989 5392696
1842.4781 200.53177 7187.4092 5590074
1885.2094 200.53177 7187.4092 5655867
1964.8948 204.37549 7325.1753 7235156
1980.3276 201.51434 7222.6265 6511434
2070.7593 206.24437 7392.1587 5393212
2114.7075 206.24437 7392.1587 5327679
2197.061 209.91371 7523.6738 5656389
2132.7488 199.70332 7157.7158 4341300
2159.0767 198.21362 7104.3232 4012336
2156.1084 194.14317 6958.4307 3551785
2093.7952 184.98299 6630.1133 3157541
2133.2131 184.98299 6630.1133 3683883
2270.134 193.28462 6927.6587 4013360
2337.0491 195.43614 7004.7729 3488811
2246.4512 184.57091 6615.3442 3818540
2285.7812 184.57091 6615.3442 4280883
2420.678 192.15714 6887.2476 4612668
2524.1719 197.03964 7062.2451 4284983
2572.5808 197.53276 7079.9189 3299113
2616.531 197.6731 7084.9497 3694385
2663.8259 198.05772 7098.7354 3629361
2708.2109 198.21735 7104.4565 3431728
2716.5286 195.77281 7016.8398 3629620
2758.2456 195.77281 7016.8398 3695413
2913.5071 203.71181 7301.3872 3826999
2991.3083 206.08122 7386.3115 3234862
3127.802 212.36708 7611.6079 3168814
3224.3196 215.79811 7734.582 2971178
3179.1487 209.78307 7518.9917 2970923
3360.5635 218.67923 7837.8457 2642472
3407.1616 218.67923 7837.8457 2576680
3551.189 224.8481 8058.9487 2839597
3599.1018 224.8481 8058.9487 2445097
3670.9133 226.32152 8111.7583 2247461
3719.1399 226.32152 8111.7583 2247462
3723.8247 223.70578 8018.0059 2642475
4031.5278 239.12964 8570.8242 2115874
3832.5281 224.4886 8046.064 2181411
4276.3486 247.39726 8867.1504 2115616
4012.0317 229.2794 8217.7744 2510888
3973.2207 224.32964 8040.3662 2379302
3824.1902 213.3485 7646.7832 1984544
4078.7021 224.87419 8059.8838 2050592
4233.5718 230.70235 8268.7754 2445093
4380.7402 235.98187 8458.0029 2248228
4438.9639 236.40463 8473.1553 2116644
4489.3394 236.40463 8473.1553 1919265
4609.1079 240.01826 8602.6748 2248486
4294.103 221.16039 7926.7744 2577197
4233.5181 215.67308 7730.1001 1787939
4281.4888 215.77452 7733.7363 1919269
4676.9438 233.19994 8358.2939 1984805
4726.6362 233.19994 8358.2939 2511150
4631.2188 226.1151 8104.3604 2379563
4511.2163 217.98816 7813.0767 2511404
4546.2651 217.44279 7793.5303 2642475
4592.5996 217.44279 7793.5303 2444840
4693.9175 220.02005 7885.9028 2312997
4746.7188 220.29468 7895.7461 2247460
4514.1899 207.45145 7435.4229 2378788
4493.2505 204.48671 7329.1611 1984542
4577.4932 206.31978 7394.8613 2642985
4581.0679 204.51662 7330.2329 2577190
4665.4224 206.31978 7394.8613 2050847
4830.8506 211.64116 7585.5889 1787675
4660.7217 202.29918 7250.7563 1656603
4869.0845 209.40636 7505.4897 2117410
4560.4443 194.35144 6965.8955 2512425
4601.8584 194.35144 6965.8955 2512938
4631.8066 193.87151 6948.6938 2446888
4617.333 191.55717 6865.7437 2052387
4658.1514 191.55717 6865.7437 2249766
4821.1602 196.53833 7044.2773 2512427
4889.5312 197.60895 7082.6499 2380584
5136.5571 205.81992 7376.9458 2051106
4999.9453 198.6498 7119.9556 1853214
5020.6035 197.79597 7089.3535 1589786
4792.5049 187.23773 6710.9277 1194516
4618.915 178.96587 6414.4492 1523737
4607.8579 177.07542 6346.6929 1720860
4822.3916 183.81453 6588.2344 1457944
4734.939 179.02699 6416.6406 1260308
4773.0879 179.02699 6416.6406 1063186
4811.2363 179.02699 6416.6406 1063185
4620.8354 170.58954 6114.2271 997649
4812.9712 176.29581 6318.75 997648
5099.7666 185.35419 6643.418 1260820
5139.2637 185.35419 6643.418 1195797
5099.644 182.52252 6541.9263 1656348
5424.3511 192.67471 6905.7983 1919519
5284.2393 186.28787 6676.8828 1328152
5323.9351 186.28787 6676.8828 1591068
5363.6309 186.28787 6676.8828 1788447
5331.6499 183.8167 6588.3115 1788449
5191.5278 177.68042 6368.377 1591070
5044.1274 171.38573 6142.7642 2248999
5080.6479 171.38573 6142.7642 2315049
5527.8887 185.14169 6635.8018 1986082
5567.3403 185.14169 6635.8018 1525274
5184.0049 171.18085 6135.4209 1722654
5131.7021 168.26973 6031.0815 1722909
4639.1938 151.06476 5414.4253 1590810
0 0 0 0
0 0 0 0
0 0 0 0
0 0 0 0
0 0 0 0
0 0 0 0
0 0 0 0
0 0 0 0
0 0 0 0
0 0 0 0
0 0 0 0
0 0 0 0
0 0 0 0
0 0 0 0
0 0 0 0
0 0 0 0
0 0 0 0
0 0 0 0
0 0 0 0
0 0 0 0
0 0 0 0
0 0 0 0
0 0 0 0
0 0 0 0
0 0 0 0
0 0 0 0
0 0 0 0
-2535.2893 97.598534 2883.6316 2507800
-2671.925 103.55876 3059.7312 4414771
-2699.0293 105.32634 3111.9561 331523
-2696.6658 105.96044 3130.6912 2635298
-2675.3142 105.85209 3127.4897 1779735
-2733.4248 108.90823 3217.7861 3423026
-2703.9585 108.49352 3205.5332 4540739
-2629.7217 106.2638 3139.6543 3948858
-2665.843 108.49352 3205.5332 3356978
-2629.2886 107.77633 3184.343 5922645
-2618.4368 108.10994 3194.1997 6515034
-2612.144 108.63804 3209.8027 4540994
-2615.3938 109.57368 3237.4475 5330767
-2659.4548 112.2457 3316.3943 5988695
-2643.5806 112.4091 3321.2222 5856082
-2578.1577 110.45222 3263.4043 5397323
-2551.8811 110.15545 3254.6362 5332552
-2552.3481 111.0174 3280.1033 2109204
-2587.9153 113.43111 3351.4182 859651
-2567.9902 113.43111 3351.4182 1649935
-2609.2715 116.15581 3431.9216 925448
-2581.5806 115.82885 3422.2617 991235
-2561.2344 115.82885 3422.2617 927239
-2557.845 116.60185 3445.1006 662529
-2537.3628 116.60185 3445.1006 3690797
-2730.542 126.50034 3737.5596 400386
-2799.9426 130.77979 3863.9995 1124363
-2686.1003 126.50034 3737.5596 2505761
-2727.9827 129.5444 3827.4995 4608
-2705.2271 129.5444 3827.4995 1649941
-2724.0269 131.55124 3886.7927 1320208
-2732.2517 133.07733 3931.8828 1253647
-3041.7368 149.42963 4415.0249 1280
-3015.4883 149.42963 4415.0249 133378
-3018.7942 150.90704 4458.6763 768
-2889.0723 145.70174 4304.8813 512
-2852.9807 145.16759 4289.0996 256
-2837.8845 145.70174 4304.8813 256
-2772.1523 143.62219 4243.4395 0
-2693.9583 140.85291 4161.6182 131840
-2651.437 139.91469 4133.8984 263424
-2626.8596 139.91469 4133.8984 131840
-2602.2825 139.91469 4133.8984 66048
-2727.4868 148.04465 4374.1045 460803
-2701.4814 148.04465 4374.1045 395009
0 0 0 0
0 0 0 0
-2250.2151 126.98177 3751.7837 263424
-2234.4124 127.35239 3762.7344 197377
-2212.042 127.35239 3762.7344 197120
-2189.1003 127.31918 3761.7532 65792
-2166.7356 127.31918 3761.7532 131329
-2144.3711 127.31918 3761.7532 65536
-2070.3345 124.21889 3670.1526 196864
-1985.5983 120.40376 3557.4312 327680
-1951.8586 119.63212 3534.6323 393216
-1923.89 119.20124 3521.9019 787457
-1844.3983 115.53347 3413.5342 655617
-1777.5375 112.58408 3326.3923 1508354
-1756.4348 112.49914 3323.8823 3085073
-1797.7565 116.45599 3440.7913 5187875
-1771.3076 116.06336 3429.1904 4923679
-1765.0614 117.00073 3456.886 7360587
-1744.5093 117.00073 3456.886 7032909
-1716.8853 116.52081 3442.7058 6902096
-1660.3336 114.04232 3369.4771 7428441
-1625.4835 113.01214 3339.0393 7165013
-1643.3098 115.66406 3417.3931 5585727
-1606.0675 114.45789 3381.7556 4863542
-1583.6786 114.2931 3376.8865 7363930
-1467.0112 107.23271 3168.2812 6769993
-1448.1749 107.23271 3168.2812 1703936
-1446.4897 108.51942 3206.2983 1966080
-1436.6471 109.22034 3227.0078 2097152
-1407.7926 108.47532 3204.9951 2031616
-1400.1875 109.36964 3231.4189 5056288
-1428.2653 113.11483 3342.0737 7361613
-1453.7582 116.75811 3449.7175 8217695
-1467.0785 119.51403 3531.1433 8744041
-1450.7285 119.89781 3542.4824 7558740
-1424.1238 119.4329 3528.7461 7426641
-1399.7767 119.14625 3520.2769 7688271
-1371.2188 118.48703 3500.7998 7226432
-1345.1726 118.02789 3487.2339 7290170
-1308.14 116.57529 3444.3159 7683898
-1244.7766 112.69273 3329.6021 7879737
-1224.9812 112.69273 3329.6021 7550514
-1208.9178 113.04169 3339.9126 7287085
-1210.5336 115.08303 3400.2258 6892328
-1192.5416 115.298 3406.5771 7024170
-1176.3711 115.69952 3418.4404 6827306
-1158.7814 115.97313 3426.5244 6761514
-1138.4097 115.97313 3426.5244 6696492
-1125.8776 116.78632 3450.5508 6763056
-1126.7209 119.04286 3517.2224 6303276
-1119.7256 120.5409 3561.4832 6106156
-1098.8744 120.57632 3562.5295 6040877
-1078.4795 120.66418 3565.1255 6106926
-1073.3379 122.49638 3619.2595 6501941
-1061.0505 123.57134 3651.02 5383204
-1043.6736 124.08609 3666.2285 5317667
-1041.2864 126.44296 3735.8645 5844012
-1033.7535 128.26416 3789.6731 6042419
-1011.2229 128.26416 3789.6731 5649717
-985.52173 127.85284 3777.5205 2955545
-995.67053 132.18166 3905.4189 918788
-985.84589 134.00226 3959.2104 591620
-1025.4858 142.79994 4219.1455 591621
-1009.7946 144.14069 4258.7588 263424
-984.4751 144.14069 4258.7588 263425
-961.66986 144.51852 4269.9224 460803
-939.35883 144.99315 4283.9453 395010
-909.76172 144.33824 4264.5957 66048
-873.59485 142.57356 4212.457 256
-844.36401 141.87015 4191.6738 256
-810.63098 140.34447 4146.5962 65792
-798.94165 142.65919 4214.9868 66048
-752.77014 138.76732 4099.998 256
-728.39453 138.76732 4099.998 0
0 0 0 0
0 0 0 0
-656.48846 139.02585 4107.6367 0
-624.25195 137.30681 4056.8462 0
-596.33167 136.43712 4031.1504 0
-568.83594 135.59579 4006.293 527114
-561.84161 139.78152 4129.9634 257
-514.87793 133.95132 3957.7056 66306
-516.10803 140.70132 4157.1401 460806
-486.98993 139.44067 4119.8931 256
-462.49597 139.44067 4119.8931 198403
-440.54388 140.24988 4143.8013 1185555
-420.24576 141.71269 4187.0215 0
-401.53616 143.92911 4252.5073 0
-372.91272 142.65103 4214.7456 66048
-341.05411 139.86212 4132.3447 0
-318.55795 140.77768 4159.396 256
-293.82919 140.77768 4159.396 256
-263.6123 137.90662 4074.5681 256
-239.38786 137.90662 4074.5681 256
-217.92017 139.67352 4126.7725 256
-195.73779 141.37257 4176.9727 256
-170.90451 141.37257 4176.9727 256
-148.25038 143.4816 4239.2856 256
-123.12057 143.56779 4241.8325 256
-97.388084 142.81462 4219.5791 256
-71.756905 141.73889 4187.7954 256
-46.859295 141.73889 4187.7954 256
-22.005142 142.01935 4196.082 256
2.887337 139.39322 4118.4907 256
27.338871 139.21988 4113.3691 256
51.78479 139.19513 4112.6382 256
76.130806 139.00383 4106.9863 256
100.54797 139.00383 4106.9863 256
128.55849 143.00085 4225.0815 256
155.14168 144.36305 4265.3286 256
184.3651 147.45413 4356.6572 256
211.73331 148.48267 4387.0464 256
243.68437 152.14694 4495.3105 0
268.30225 150.96088 4460.2671 256
290.73636 148.87 4398.4902 0
321.73685 151.14857 4465.813 0
351.33398 152.47075 4504.8774 0
388.10138 156.49693 4623.8345 256
417.6611 157.27632 4646.8623 256
449.67493 158.82579 4692.6426 256
488.35886 162.41249 4798.6147 197888
528.58539 166.08797 4907.21 66304
557.76013 166.08797 4907.21 0
604.79205 171.14111 5056.5093 0
634.85443 171.14111 5056.5093 0
665.68854 171.33975 5062.3784 256
0 0 0 0
655.60596 154.75133 4572.2593 0
720.90002 163.38896 4827.4653 256
771.2323 168.10397 4966.7744 256
867.2453 182.06099 5379.1465 512
951.44714 192.63394 5691.5332 66305
986.56738 192.8847 5698.9419 132098
1024.3783 193.62738 5720.8853 263170
1062.3849 194.35812 5742.4756 657926
1183.1475 209.71178 6196.1123 658182
1219.9851 209.71178 6196.1123 855561
1267.645 211.51756 6249.4658 1184526
1326.6302 215.05644 6354.0249 2105627
1364.4066 215.05644 6354.0249 2434334
1514.0337 232.21126 6860.8784 3288870
1568.9922 234.32732 6923.3994 3814955
1551.7147 225.82265 6672.1216 4669745
1591.3823 225.82265 6672.1216 5590844
1677.7408 232.28709 6863.1191 6511690
1783.6809 241.09132 7123.2476 6643276
1829.1721 241.50612 7135.5029 6511690
1880.423 242.64528 7169.1606 6840655
1923.0457 242.64528 7169.1606 6511691
1930.7778 238.33836 7041.9087 7235416
1987.9779 240.19104 7096.6479 5656642
2136.7849 252.80479 7469.332 6512720
2072.3611 240.19104 7096.6479 4867892
2082.8328 236.58798 6990.1929 6645837
2139.5649 238.27783 7040.1206 5069108
2054.3774 224.40083 6630.1133 3426590
2086.7358 223.64426 6607.7593 4809526
2126.0208 223.64426 6607.7593 2837789
2102.8701 217.1956 6417.228 2904352
2141.0225 217.1956 6417.228 3365160
2100.8645 209.3905 6186.6201 3628588
2135.2886 209.15962 6179.7983 3562540
2217.5894 213.54694 6309.4253 3628846
2322.7014 219.94838 6498.5615 3563312
2361.3372 219.94838 6498.5615 3629875
2407.0718 220.59897 6517.7837 3564083
2445.8218 220.59897 6517.7837 3826999
2481.0366 220.28508 6508.5098 3366961
2519.7317 220.28508 6508.5098 3432241
2515.5725 216.59529 6399.4912 3498034
2651.9165 224.93275 6645.8291 3103277
2724.6765 227.71147 6727.9287 3169069
2931.9482 241.4888 7134.9912 3235120
2847.5588 231.19318 6830.7988 3432241
2940.853 235.41039 6955.3994 2905898
2982.2048 235.41039 6955.3994 2445605
3204.8833 249.52827 7372.5244 2577192
3012.4065 231.37781 6836.2534 2511657
3103.2483 235.18213 6948.6558 3036975
3117.7271 233.17528 6889.3613 2905646
3235.5627 238.85033 7057.0356 2445350
3285.4043 239.425 7074.0146 2379813
3327.4612 239.425 7074.0146 2577707
3551.7837 252.37607 7456.665 2643243
3596.1157 252.37607 7456.665 2511657
3733.2659 258.81076 7646.7832 1985570
3666.4055 251.11761 7419.4829 2182176
3584.9641 242.62059 7168.4307 1919518
3741.9783 250.27162 7394.4873 2380071
3785.9407 250.27162 7394.4873 1985569
3769.6003 246.33104 7278.0596 2314277
3812.8706 246.33104 7278.0596 2248741
3907.2998 249.59911 7374.6177 2577706
3951.1438 249.59911 7374.6177 2512170
3990.7283 249.33299 7366.7544 2841136
4034.5256 249.33299 7366.7544 2775601
4210.3594 257.40518 7605.2539 3236153
4327.4683 261.75375 7733.7363 2972980
3965.9272 237.3634 7013.103 3828031
3829.7488 226.82832 6701.835 3367735
3758.3259 220.30605 6509.1289 2775856
3775.5037 219.05737 6472.2363 2972978
3747.5466 215.24161 6359.4956 2841389
3917.7493 222.76971 6581.9204 2972975
3987.2346 224.47864 6632.4116 2841390
4026.666 224.47864 6632.4116 2907437
4482.1694 247.44887 7311.0869 2907438
4537.4878 248.09688 7330.2329 2710059
4495.8574 243.48213 7193.8862 2446630
4130.6421 221.59511 6547.2153 3236403
4128.2617 219.39993 6482.3569 1986335
4125.3979 217.21986 6417.9453 2117921
4049.697 211.27972 6242.4385 2578729
4069.7683 210.39868 6216.4077 3237429
4228.0522 216.61455 6400.0601 2447913
4183.7002 212.43048 6276.439 2184484
4121.7402 207.4343 6128.8223 2513450
4158.1777 207.4343 6128.8223 2645035
4520.8364 223.56676 6605.4692 2710828
4560.1079 223.56676 6605.4692 3105072
4583.4575 222.79283 6582.603 1657882
4489.3389 216.37044 6392.8481 1393686
4506.8169 215.38933 6363.8604 1327639
4542.2329 215.27467 6360.4727 1524761
4570.125 214.80829 6346.6929 1458968
4197.7388 195.68942 5781.8101 1393175
4248.0967 196.42848 5803.646 1393177
4282.6011 196.42848 5803.646 3038259
4633.2637 210.81369 6228.6694 1722399
4670.2944 210.81369 6228.6694 1328153
4533.7544 203.04045 5999.0024 2248999
4569.4199 203.04045 5999.0024 2117413
4501.5967 198.47757 5864.188 2117412
4847.084 212.06783 6265.7236 2314538
4876.8125 211.74121 6256.0732 2051365
4802.1787 206.92261 6113.7036 1788195
4838.5264 206.92261 6113.7036 2051624
4868.7271 206.66168 6105.9946 2117418
5103.7109 215.03268 6353.3232 2380076
4891.5581 204.58005 6044.4907 2314797
4551.751 188.97992 5583.5718 2446384
4871.5059 200.79117 5932.5449 2775092
4906.7769 200.79117 5932.5449 2380333
4942.0474 200.79117 5932.5449 2182954
5189.667 209.35756 6185.647 2314796
5065.2871 202.90211 5994.915 1656610
4747.6343 188.84895 5579.7026 1788196
4639.1938 183.25504 5414.4253 1722660
4489.2134 176.1086 5203.2778 1788197
4329.6636 168.68715 4984.0049 1722660
0 0 0 0
0 0 0 0
0 0 0 0
0 0 0 0
0 0 0 0
0 0 0 0
0 0 0 0
0 0 0 0
0 0 0 0
0 0 0 0
0 0 0 0
0 0 0 0
0 0 0 0
0 0 0 0
0 0 0 0
0 0 0 0
0 0 0 0
0 0 0 0
0 0 0 0
0 0 0 0
0 0 0 0
0 0 0 0
0 0 0 0
0 0 0 0
0 0 0 0
-2520 114.05058 2866.2417 796164
-2620.936 119.42632 3001.3416 2110742
-2656.6697 121.88439 3063.116 1649681
-2678.2834 123.7241 3109.3503 2503457
-2659.7974 123.7241 3109.3503 3029802
-2667.054 124.92992 3139.6543 1844249
-2648.3877 124.92992 3139.6543 2764584
-2629.7217 124.92992 3139.6543 1908761
-2636.877 126.16539 3170.7031 2698534
-2639.2402 127.18771 3196.3955 4080186
-2628.0669 127.5678 3205.9475 4606014
-2609.4285 127.58842 3206.4656 5988948
-2637.1724 129.89391 3264.4058 6120790
-2651.1267 131.54933 3306.009 5529415
-2631.5688 131.5542 3306.1311 4742715
-2591.3503 130.51852 3280.1033 4283184
-2551.8811 129.50517 3254.6362 4613173
-2532.5315 129.50517 3254.6362 1586702
-2517.0056 129.70221 3259.5884 2574103
-2516.3879 130.67651 3284.0735 2047504
-2581.8594 135.12489 3395.8672 3560227
-2581.5806 136.17516 3422.2617 1454600
-2555.0532 135.84653 3414.0027 1520651
-2540.8879 136.17516 3422.2617 1189383
-2516.1692 135.93893 3416.325 2970400
-2663.6711 145.07898 3646.0266 2440729
-2677.4502 147.02594 3694.9565 2177561
-2656.042 147.05692 3695.7349 465410
-2726.5767 152.22147 3825.5269 661768
-2703.8328 152.22147 3825.5269 200192
-2724.0269 154.6593 3886.7927 331267
-2700.9187 154.6593 3886.7927 134145
-2830.5969 163.4836 4108.5591 528391
-2901.1436 169.0166 4247.6108 512
-2875.8901 169.0166 4247.6108 66816
-2657.0491 157.5386 3959.1538 256
-2633.5107 157.5386 3959.1538 132352
-2618.54 158.05576 3972.1501 768
-2574.0771 156.78595 3940.2383 198145
-2542.9878 156.31488 3928.3999 263169
-2518.627 156.2525 3926.8323 329216
-2479.0684 155.2373 3901.3188 66048
-2448.3459 154.76146 3889.3601 197632
-2416.9653 154.23451 3876.1174 395010
0 0 0 0
0 0 0 0
0 0 0 0
-2165.5432 143.66972 3610.6104 66048
-2144.0771 143.66972 3610.6104 131584
-2160.6499 146.2444 3675.3154 460549
-2146.1802 146.7491 3687.9993 65536
-2071.8391 143.12813 3596.9993 197121
-2050.4539 143.12813 3596.9993 65536
-1981.2393 139.75432 3512.2107 196608
-1967.3118 140.25002 3524.6685 459009
-1951.8586 140.64648 3534.6323 1772297
-1864.6927 135.82787 3413.5342 2691343
-1814.2816 133.60997 3357.7954 3478547
-1777.5375 132.36041 3326.3923 3675154
-1755.2645 132.17241 3321.6675 4003348
-1757.2401 133.82684 3363.2456 5911089
-1771.3076 136.45085 3429.1904 6239540
-1756.8435 136.91246 3440.7913 6700349
-1730.5327 136.45085 3429.1904 6635586
-1685.6436 134.4959 3380.0598 4532008
-1645.3352 132.86365 3339.0393 5059636
-1619.6356 132.38565 3327.0264 7889250
-1605.6321 132.86365 3339.0393 8284262
-1606.0675 134.56337 3381.7556 6968145
-1585.9619 134.56337 3381.7556 6572615
-1471.455 126.45088 3177.8779 5123625
-1459.5112 127.05588 3193.0823 2162688
-1464.3834 129.16 3245.9617 2162688
-1445.0853 129.16 3245.9617 2293760
-1419.0818 128.55257 3230.696 2293760
-1400.4563 128.606 3232.0391 6437428
-1403.6329 130.6909 3284.4353 7817798
-1425.859 134.63333 3383.5137 6962234
-1427.6732 136.73367 3436.2979 7816259
-1423.848 138.34702 3476.8438 8143940
-1420.7058 140.07527 3520.2769 7552056
-1399.7767 140.07527 3520.2769 8537665
-1348.5275 136.99507 3442.8674 8800063
-1312.2096 135.36018 3401.7803 7943727
-1259.1656 131.92172 3315.3672 7418155
-1231.2192 131.04515 3293.3379 8141880
-1223.8777 132.36879 3326.6028 7287599
-1204.7222 132.43716 3328.321 7353649
-1189.061 132.89839 3339.9126 7748923
-1166.0715 132.54231 3330.9636 8011838
-1159.1515 134.032 3368.4016 7419956
-1147.67 135.0374 3393.6682 7222065
-1127.1942 135.00151 3392.7666 7024943
-1097.9287 133.89244 3364.894 6828590
-1086.8523 135.00151 3392.7666 6828593
-1094.5725 138.53149 3481.4795 7289915
-1067.3571 137.69075 3460.3508 6303277
-1046.7842 137.69075 3460.3508 6039846
-1043.6479 140.03027 3519.1462 6434861
-1032.0852 141.31177 3551.3516 6566190
-1039.3442 145.27766 3651.02 6632238
-1021.877 145.88284 3666.2285 6632496
-1002.1854 146.18991 3673.9458 5777187
-1011.2229 150.79482 3789.6731 5843750
-983.23383 149.9623 3768.751 5976108
-960.82758 149.9623 3768.751 5715250
-948.90448 151.63753 3810.8518 2626834
-949.23297 155.40045 3905.4189 853251
-977.60553 164.05833 4123.0029 656899
-983.19568 169.23996 4253.2241 657668
-960.47009 169.69244 4264.5957 591876
-936.3205 169.91103 4270.0889 460546
-909.72705 169.68597 4264.4331 131840
-873.59485 167.6178 4212.457 131841
-847.87518 167.48438 4209.104 197378
-810.63098 164.99713 4146.5962 0
-798.94165 167.71846 4214.9868 0
-780.92242 169.24422 4253.3311 0
-736.09375 164.86739 4143.3354 256
0 0 0 0
0 0 0 0
-624.18018 155.40306 3905.4846 263174
-620.29797 160.40344 4031.1504 329222
-596.33167 160.40344 4031.1504 198406
-563.05304 157.79369 3965.564 1911333
-566.16962 165.60123 4161.7778 2701360
-514.87793 157.48099 3957.7056 1538
-502.14108 160.94017 4044.6394 1123096
-478.09457 160.94017 4044.6394 2570543
-474.69763 168.25955 4228.585 2242091
-446.00034 166.92816 4195.1255 69895
-424.73181 168.38419 4231.7173 792848
-401.53616 169.21144 4252.5073 1976867
-372.91272 167.70888 4214.7456 132355
-341.76321 164.77193 4140.9365 256
-311.98291 162.09039 4073.5461 0
-293.04694 165.06583 4148.3228 256
-268.384 165.06583 4148.3228 256
-242.93712 164.53487 4134.979 256
-218.35352 164.53487 4134.979 256
-195.73779 166.20584 4176.9727 256
-170.92116 166.22203 4177.3794 256
-148.25038 168.68533 4239.2856 256
-123.12057 168.78668 4241.8325 256
-98.301682 169.47627 4259.1631 256
-72.64679 168.70302 4239.73 256
-47.440414 168.70302 4239.73 256
-22.234041 168.70302 4239.73 256
2.9796894 169.12051 4250.2222 256
27.580038 165.11884 4149.6548 256
51.829826 163.78822 4116.2148 0
77.059486 165.41452 4157.0854 256
104.42454 169.72162 4265.3286 0
134.10559 175.37427 4407.3872 0
162.16122 177.40085 4458.3179 256
189.57361 178.25316 4479.7378 256
217.0354 178.93623 4496.9043 768
244.45596 179.43919 4509.5444 856844
271.26648 179.43919 4509.5444 768
297.13611 178.87282 4495.3105 512
328.0336 181.17685 4553.2139 0
355.89493 181.58052 4563.3589 132096
385.11594 182.57161 4588.2661 66304
410.55292 181.75635 4567.7773 512
442.87747 183.90227 4621.707 263681
478.61432 187.13161 4702.8647 197632
528.58539 195.26271 4907.21 855817
570.4375 199.70084 5018.7461 263681
604.79205 201.20348 5056.5093 131840
630.11316 199.70084 5018.7461 526853
650.12433 196.72726 4944.0166 658182
690.20544 199.82143 5021.7769 658182
737.1015 204.5502 5140.6172 263938
793.47858 211.42873 5313.4839 592388
838.91351 214.97655 5402.645 987146
871.03381 214.97655 5402.645 987145
933.39233 222.17412 5583.5298 460802
967.43427 222.36864 5588.4185 1053196
1015.4006 225.64456 5670.7466 1184782
1059.6132 227.90259 5727.4937 921353
1103.5062 229.95338 5779.0327 987402
1147.0797 231.81578 5825.8374 1381391
1219.1943 239.16786 6010.605 1315599
1304.7997 248.67236 6249.4658 1513487
1341.9546 248.67236 6249.4658 1907731
1373.9543 247.74284 6226.1055 2499354
1448.3405 254.30443 6391.0068 2828318
1470.2947 251.55972 6322.0288 2894110
1507.881 251.55972 6322.0288 1972496
1631.0499 265.49026 6672.1216 4801334
1746.3693 277.5119 6974.2412 5656641
1787.8331 277.5119 6974.2412 5590588
1829.2968 277.5119 6974.2412 6643019
1845.0721 273.70123 6878.4736 8222821
1905.1655 276.48746 6948.4961 6709582
1972.6439 280.20444 7041.9087 6710095
1981.6182 275.62943 6926.9321 7499866
2022.8007 275.62943 6926.9321 5330490
2004.1711 267.64197 6726.1968 4477742
2044.1603 267.64197 6726.1968 2967326
2007.6547 257.81873 6479.3252 2443289
2043.0228 257.42139 6469.3398 2574362
2053.5632 253.96826 6382.5586 3167782
2082.0706 252.82214 6353.7549 3431466
2098.4431 250.26961 6289.6064 3431981
2009.1046 235.41962 5916.4062 3432237
2044.2793 235.41962 5916.4062 4090423
2079.4541 235.41962 5916.4062 4090424
2181.1487 242.82523 6102.519 3958836
2220.5452 243.16637 6111.0923 3761713
2256.8772 243.16637 6111.0923 2972711
2320.8101 246.09305 6184.644 3170089
2438.7451 254.56544 6397.5659 3038503
2476.7803 254.56544 6397.5659 3170091
2408.5994 243.81357 6127.3574 3104299
2445.0283 243.81357 6127.3574 3433521
2494.4536 245.0905 6159.4487 4355392
2446.3181 236.88345 5953.1948 3566131
2621.0625 250.18474 6287.4736 3763252
2681.2285 252.32904 6341.3628 3829045
2774.4368 257.48035 6470.8218 3500080
2812.9075 257.48035 6470.8218 3039529
2851.3784 257.48035 6470.8218 2644770
2903.3057 258.67932 6500.9531 2776354
2851.1516 250.69508 6300.2993 2973986
2888.6084 250.69508 6300.2993 2842397
3109.9031 266.44565 6696.1318 3106082
3149.7134 266.44565 6696.1318 3303460
3220.7178 269.05151 6761.6206 2974240
3030.5964 250.04822 6284.0425 2776607
3067.9568 250.04822 6284.0425 2974245
3387.2866 272.75314 6854.647 2514208
3428.0393 272.75314 6854.647 2712101
3627.0542 285.19736 7167.3872 3106602
3670.2004 285.23889 7168.4307 3106602
3613.2759 277.59146 6976.2407 2975016
3607.4412 273.99805 6885.9331 3303725
3607.9617 270.96259 6809.6484 2645541
3444.0959 255.78587 6428.2373 3895611
3672.6411 269.76596 6779.5757 4553544
3772.6106 274.1008 6888.5156 4026945
3740.1204 268.82196 6755.8516 4092482
3750.0601 266.67258 6701.835 3763002
3733.1208 262.67706 6601.4224 3368500
3634.5542 253.08081 6360.2559 3500085
3668.8918 252.84131 6354.2363 3302705
3541.4976 241.57449 6071.0864 3434035
3577.5916 241.57449 6071.0864 3368499
3466.4231 231.72997 5823.6807 3105842
3687.9573 244.10138 6134.5903 2842669
3831.9062 251.14549 6311.6182 2974256
3869.4304 251.14549 6311.6182 3105841
3879.7349 249.39572 6267.6445 2776875
3426.845 218.18765 5483.3442 1790237
3538.0317 223.14413 5607.9072 3763772
3791.7585 236.91414 5953.9658 2711085
3995.8516 247.35698 6216.4077 2513708
3944.0037 241.90994 6079.5166 2447401
3980.1484 241.90994 6079.5166 2579243
3945.9404 237.67247 5973.0234 1855520
3975.7976 237.33493 5964.541 1592348
3992.9634 236.25247 5937.3374 2908207
4046.719 237.33493 5964.541 2381862
4063.5618 236.25247 5937.3374 3302965
4187.3589 241.35341 6065.5303 2118176
4361.1758 249.22563 6263.3696 2841643
4348.4497 246.39456 6192.2212 801548
4484.311 251.95972 6332.0811 2116896
4422.0786 246.39456 6192.2212 669195
4345.7456 240.14211 6035.0889 801038
4177.9038 228.97682 5754.4902 2380070
4212.1162 228.97682 5754.4902 2577449
4166.8696 224.69214 5646.8105 2314280
4399.2227 235.32545 5914.04 2182434
4584.4854 243.29111 6114.2271 801040
4421.3906 232.79012 5850.3237 1853728
4456.1724 232.79012 5850.3237 1986084
4485.6206 232.51366 5843.376 2906674
4536.4609 233.3418 5864.188 2249258
4555.1016 232.51366 5843.376 3104570
4626.2539 234.3582 5889.7319 2972728
4703.1211 236.46239 5942.6128 3433537
4696.2861 234.3582 5889.7319 3301694
4851.7153 240.32274 6039.6279 2775094
4518.5552 222.1758 5583.5718 2446386
4174.3325 203.7536 5120.5977 2709045
4334.1489 210.02272 5278.1489 2972216
4630.6724 222.77856 5598.7202 1985833
4663.958 222.77856 5598.7202 2314540
4697.2441 222.77856 5598.7202 2380589
4351.5488 204.93091 5150.1851 1853989
4382.168 204.93091 5150.1851 1788450
4458.2783 207.04353 5203.2778 2118184
4489.2134 207.04353 5203.2778 2446123
4329.6636 198.31844 4984.0049 2249001
3984.7378 181.27864 4555.772 1854500
0 0 0 0
0 0 0 0
0 0 0 0
0 0 0 0
0 0 0 0
4281.1099 187.12973 4702.8179 1656097
0 0 0 0
0 0 0 0
0 0 0 0
0 0 0 0
0 0 0 0
0 0 0 0
0 0 0 0
0 0 0 0
0 0 0 0
0 0 0 0
0 0 0 0
0 0 0 0
0 0 0 0
0 0 0 0
0 0 0 0
0 0 0 0
0 0 0 0
0 0 0 0
0 0 0 0
-2665.2292 139.58997 3052.0635 1783311
-2652.0378 139.85121 3057.7754 1453835
-2638.4587 140.09547 3063.116 5203523
-2620.2476 140.09547 3063.116 2702877
-2629.6013 141.57957 3095.5652 924684
-2599.3416 140.93675 3081.51 2634279
-2581.021 140.93675 3081.51 1515287
-2576.6484 141.70381 3098.2817 2502183
-2598.6101 143.94063 3147.1882 3227176
-2623.8057 146.3903 3200.7493 4741431
-2650.429 148.95601 3256.8472 4216881
-2637.1724 149.30171 3264.4058 3888170
-2611.7031 148.95601 3256.8472 5599560
-2567.0342 147.50191 3225.054 730625
-2558.5999 148.12366 3238.6482 862467
-2539.3452 148.12366 3238.6482 2770456
-2524.957 148.4097 3244.9023 4876856
-2517.0056 149.08139 3259.5884 1518347
-2497.6265 149.08139 3259.5884 1782794
-2581.8594 155.31427 3395.8672 663296
-2611.137 158.31345 3461.4429 1319425
-2561.2344 156.52145 3422.2617 596736
-2574.043 158.56383 3466.9172 530688
-2520.6116 156.52579 3422.3567 1649416
-2634.561 164.93324 3606.1812 2372372
-2641.9944 166.75562 3646.0266 1451020
-2643.6785 168.24228 3678.5317 134400
-2634.0696 169.0291 3695.7349 922632
-2703.8328 174.96529 3825.5269 132864
-2755.6277 179.82961 3931.8828 1024
-2687.8906 176.9099 3868.0447 198656
-2708.8755 179.82961 3931.8828 768
-2840.3091 190.19618 4158.5425 66048
-2737.8604 184.94574 4043.7444 131840
-2595.7666 176.90051 3867.8396 66305
-2619.5371 180.11609 3938.1462 132096
-2596.1238 180.11609 3938.1462 394754
-2551.8638 178.65659 3906.2354 329217
-2514.1541 177.6331 3883.8574 395010
-2463.3093 175.65402 3840.5854 329217
-2418.3311 174.06015 3805.7363 66048
-2395.7051 174.06015 3805.7363 263168
-2369.1677 173.77327 3799.4641 329217
-2338.8918 173.20401 3787.0176 65792
-2296.6335 171.72772 3754.7393 328704
-2189.0386 165.28905 3613.9607 723461
-2165.5432 165.13582 3610.6104 526339
-2099.8813 161.73187 3536.1851 263170
-2073.2805 161.29799 3526.6982 723465
-2014.2679 158.30786 3461.3208 788999
-1993.6895 158.30786 3461.3208 721923
-1932.6222 155.05936 3390.2937 1509897
-1871.28 151.72006 3317.282 1837318
-1851.5579 151.72006 3317.282 1704448
-1861.6158 154.18658 3371.2109 1900544
-1834.7469 153.61505 3358.7148 1900544
-1814.7783 153.61505 3358.7148 1966080
-1794.3185 153.57301 3357.7954 1966080
-1757.7611 152.13675 3326.3923 2162688
-1783.1942 156.09419 3412.9202 2097152
-1771.3076 156.83835 3429.1904 2032387
-1753.616 157.07983 3434.4702 3147784
-1723.0631 156.16138 3414.3889 4003092
-1702.7635 156.16138 3414.3889 5977397
-1656.516 153.75294 3361.7297 5714226
-1627.5051 152.90508 3343.1917 5977399
-1609.1665 153.05133 3346.3894 5319723
-1560.8951 150.31863 3286.6404 4529949
-1541.3552 150.31863 3286.6404 4200471
-1484.6144 146.6441 3206.2983 3148040
-1465.5521 146.6441 3206.2983 2359296
-1470.5363 149.08192 3259.6001 2359296
-1438.28 147.75902 3230.6758 2097152
-1430.2714 148.92505 3256.1704 2097152
-1412.7614 149.12021 3260.4373 2688772
-1403.6329 150.21779 3284.4353 2949888
-1425.859 154.74925 3383.5137 3211776
-1404.9421 154.6611 3381.5859 3276800
-1346.2118 150.34727 3287.2666 3277825
-1387.205 157.20775 3437.2673 8800066
-1366.7695 157.20775 3437.2673 8667704
-1284.6797 150.00856 3279.8606 8404789
-1265.1801 150.00856 3279.8606 7746861
-1232.7225 148.44814 3245.7427 3866624
-1230.0348 150.48006 3290.1697 3998208
-1211.6394 150.62497 3293.3379 5906458
-1190.9128 150.48006 3290.1697 8142652
-1171.5837 150.50986 3290.8213 7550515
-1152.019 150.50986 3290.8213 7484978
-1146.2682 152.34583 3330.9636 7682613
-1136.7949 153.7429 3361.5105 7616311
-1107.134 152.41092 3332.387 7551030
-1083.5697 151.88495 3320.887 7157299
-1067.51 152.41092 3332.387 6564907
-1074.0797 156.24872 3416.2986 6696493
-1053.7689 156.24872 3416.2986 7156787
-1039.426 157.15102 3436.0269 7420728
-1026.2115 158.2635 3460.3508 7026741
-998.56976 157.15102 3436.0269 6697519
-1039.3442 166.98399 3651.02 5250843
-1020.726 167.49072 3662.0991 5974309
-989.06366 165.83249 3625.8428 6040359
-980.34265 168.03255 3673.9458 6632753
-958.51831 168.03575 3674.0159 6567217
-936.67523 168.03575 3674.0159 5712422
-926.10602 170.10651 3719.292 5977134
-910.22852 171.27972 3744.9436 5847606
-898.8291 173.37552 3790.7673 1312771
-882.70215 174.64378 3818.4973 985606
-960.47009 195.04665 4264.5957 723462
-941.20172 196.31604 4292.3501 394498
-918.17737 196.85091 4304.0449 263169
-892.58868 196.85091 4304.0449 263168
-856.23322 194.40636 4250.5957 395010
-819.05273 191.6201 4189.6758 263425
-794.14398 191.6201 4189.6758 394755
-776.47821 193.42436 4229.125 263171
-736.09375 189.50067 4143.3354 526090
-688.47821 183.37924 4009.4937 855825
-675.37317 186.34044 4074.2385 3818307
-676.42249 193.57249 4232.3638 2373422
-620.29797 184.36975 4031.1504 4415570
-596.33167 184.36975 4031.1504 595218
-563.05304 181.37006 3965.564 5004630
-569.32684 191.40558 4184.9854 858130
-544.44861 191.40654 4185.0063 1122328
-527.36108 194.27762 4247.7812 2965303
-502.76929 194.53394 4253.3853 2242860
-477.48169 194.53394 4253.3853 2704181
-446.00034 191.86935 4195.1255 1280
-422.8981 192.70732 4213.4473 265220
-399.57309 193.54292 4231.7173 768
-372.76398 192.68982 4213.0645 1055764
-347.51605 192.57893 4210.6401 1517856
-311.95346 186.29117 4073.1614 2306345
-284.81308 184.39789 4031.7656 461834
-267.52072 189.11848 4134.979 512
-243.72108 189.72876 4148.3228 256
-218.35352 189.11848 4134.979 256
-185.32611 180.87737 3954.7915 256
-170.92116 191.05771 4177.3794 256
-148.65813 194.42235 4250.9453 256
-123.38506 194.42235 4250.9453 256
-98.360832 194.91542 4261.7261 256
-73.298973 195.65022 4277.792 0
-47.607758 194.59338 4254.6851 0
-22.289064 194.38927 4250.2222 0
2.9811063 194.4817 4252.2432 256
28.166897 193.82811 4237.9526 256
52.344456 190.12953 4157.0854 0
79.743179 196.75104 4301.8613 256
107.90245 201.57741 4407.3872 66304
135.9095 204.28891 4466.6729 131841
163.79175 205.95705 4503.146 66048
190.52571 205.91545 4502.2363 132096
217.0354 205.67159 4496.9043 198144
243.77077 205.67159 4496.9043 263938
268.38965 204.06239 4461.7202 395267
298.07697 206.24969 4509.5444 263937
330.55893 209.85014 4588.2661 263936
357.83743 209.85014 4588.2661 329474
376.67715 205.25182 4487.7266 329474
403.35797 205.25182 4487.7266 329475
437.70966 208.91306 4567.7773 461060
483.34589 217.21785 4749.3574 527108
519.34698 220.51482 4821.4438 724487
552.10547 222.16205 4857.46 987402
576.6767 220.51482 4821.4438 1184781
603.43225 219.81931 4806.2368 921610
650.12433 226.12083 4944.0166 1185038
690.20544 229.67729 5021.7769 1316368
759.35651 242.21127 5295.8257 1382160
817.76123 250.45593 5476.0913 1053194
850.31812 250.45593 5476.0913 2105625
879.27673 249.43515 5453.7725 1842707
929.06598 254.1861 5557.6494 1645585
966.58789 255.36977 5583.5298 1973780
1004.6622 256.61588 5610.7754 1579022
1059.6132 261.95413 5727.4937 2039315
1097.6702 262.91351 5748.4697 2368793
1137.8641 264.31134 5779.0327 2171158
1219.1943 274.90259 6010.605 1841681
1276.786 279.69052 6115.291 2236439
1305.6793 278.1008 6080.5322 2433818
1373.9543 284.75876 6226.1055 2105108
1442.5453 291.13116 6365.4346 2631450
1470.2947 289.14594 6322.0288 2631193
1551.944 297.59531 6506.7695 3091231
1606.9257 300.64441 6573.4365 4077610
1592.5679 290.88376 6360.0249 4143660
1596.5464 284.84735 6228.042 4538159
1646.7845 287.15091 6278.4082 5525053
1668.4917 284.48764 6220.1772 5197371
1798.223 299.95926 6558.4565 5132602
1837.215 299.95926 6558.4565 4344880
1893.8777 302.78442 6620.2271 2899228
1933.2367 302.78442 6620.2271 3295524
1963.5743 301.39966 6589.9502 3691821
2001.5436 301.21756 6585.9688 3364137
2004.5608 295.88339 6469.3398 3693870
1990.3793 288.25925 6302.6411 4089141
1883.0333 267.67349 5852.5444 3234858
1859.848 259.58112 5675.6089 4419387
1873.7059 256.85516 5616.0073 4223034
1869.0829 251.7356 5504.0708 4354362
1904.1013 252.03941 5510.7134 3893811
1944.0703 252.97714 5531.2163 4091191
2102.8909 269.09229 5883.5654 3959603
2153.3047 271.03497 5926.0415 3762735
2121.8188 262.77249 5745.3862 3104547
2126.385 259.1658 5666.5283 3696684
2160.0742 259.1658 5666.5283 3368233
2268.4241 267.98605 5859.3784 3829041
2308.8271 268.63382 5873.5415 4289849
2325.3962 266.53052 5827.5537 4618558
2345.3848 264.87512 5791.3599 3895089
2379.8162 264.87512 5791.3599 3697965
2466.0518 270.55881 5915.6299 4289848
2517.105 272.27686 5953.1948 3565869
2570.8633 274.23584 5996.0269 3106088
2606.511 274.23584 5996.0269 3829810
2620.6785 272.00632 5947.2793 3566893
2656.0369 272.00632 5947.2793 3567148
2696.603 272.53265 5958.7876 3106852
2729.2109 272.2515 5952.6401 3172130
2728.8015 268.72601 5875.5576 3238179
2623.176 255.05922 5576.7397 3041055
2656.3313 255.05922 5576.7397 2975006
2849.5288 270.23694 5908.5928 2974752
2851.041 267.08774 5839.7373 2975009
2865.8123 265.24152 5799.3706 3961908
2900.291 265.24152 5799.3706 3830321
2919.5576 263.86667 5769.3101 3501615
2953.8579 263.86667 5769.3101 3961909
3095.3179 273.32932 5976.2061 3041063
3204.2556 279.73795 6116.3276 3567409
3155.604 272.39926 5955.8706 3106348
3191.0134 272.39926 5955.8706 3567157
3098.8223 261.62625 5720.3247 4290880
3152.595 263.27673 5756.4116 4290625
3186.8181 263.27673 5756.4116 3961916
3190.561 260.78537 5701.939 3698489
3284.9119 265.6745 5808.8374 3829560
3319.4473 265.6745 5808.8374 4421953
3246.8826 257.19092 5623.3486 2908970
3229.9375 253.2411 5536.9878 2908712
3262.856 253.2411 5536.9878 3238191
3374.7229 259.30728 5669.6216 3106605
3408.4299 259.30728 5669.6216 3435314
3805.209 286.6586 6267.6445 3698486
3842.4717 286.6586 6267.6445 3369521
3327.0317 245.82152 5374.7622 2250783
3204.7322 234.5327 5127.938 2777127
3459.4448 250.78766 5483.3442 2316834
3615.6292 259.66309 5677.4009 2843179
3649.3828 259.66309 5677.4009 2711337
3641.925 256.75763 5613.875 2908459
3572.0945 249.54761 5456.231 2513701
3580.6521 247.89426 5420.0815 2711337
3714.6782 254.87933 5572.8066 2118942
3874.8137 263.51654 5761.6548 2908458
3911.1748 263.65857 5764.7598 3237424
3924.1799 262.23727 5733.6841 3303475
3874.6821 256.69965 5612.6069 3040046
4168.8008 273.82697 5987.0869 3434806
4204.3955 273.82697 5987.0869 3697209
4138.5059 267.27289 5843.7856 2380581
4173.2485 267.27289 5843.7856 2643752
4112.2378 261.19107 5710.8091 3038511
4124.8403 259.8461 5681.4023 2183202
4158.6177 259.8461 5681.4023 2183202
4130.5708 256.01419 5597.6201 1722910
4205.6187 258.58231 5653.7705 1394200
4280.5845 261.10471 5708.9214 1196822
4421.3906 267.57193 5850.3237 1328410
4456.1724 267.57193 5850.3237 2051877
4328.0684 257.86716 5638.1338 1592099
4361.5884 257.86716 5638.1338 1986602
4279.626 251.09161 5489.9897 3367486
4062.3938 236.54225 5171.876 2973243
3957.3616 228.69554 5000.311 2841403
4109.6543 235.72571 5154.0225 2709561
4141.8345 235.81325 5155.9365 3038268
4172.4878 235.81325 5155.9365 3433026
4020.6899 225.57701 4932.126 2906681
4310.0288 240.05933 5248.7749 3038522
4341.2339 240.05933 5248.7749 2577971
4372.4399 240.05933 5248.7749 2578224
4186.3662 228.21465 4989.7969 2315307
4116.6499 222.83505 4872.1748 1723171
4121.3872 221.5327 4843.6997 1591328
4116.9385 219.75809 4804.8984 1854500
4043.8438 214.3689 4687.0669 2052136
4017.1479 211.49634 4624.2593 2183465
4237.064 221.55823 4844.2578 2183721
4265.8643 221.55823 4844.2578 1788707
4432.7202 228.68042 4999.9805 1722657
0 0 0 0
4290.1509 218.39619 4775.1216 1985829
4292.0884 217.05849 4745.873 2314795
4320.3042 217.05849 4745.873 1130264
4309.0693 215.08929 4702.8179 2577710
0 0 0 0
0 0 0 0
0 0 0 0
0 0 0 0
0 0 0 0
0 0 0 0
0 0 0 0
0 0 0 0
0 0 0 0
0 0 0 0
0 0 0 0
0 0 0 0
0 0 0 0
0 0 0 0
0 0 0 0
0 0 0 0
0 0 0 0
0 0 0 0
-2635.3865 155.96915 3017.8892 2573081
-2617.4441 155.96915 3017.8892 3232038
-2599.502 155.96915 3017.8892 3165990
-2546.2546 153.83614 2976.6167 2046483
-2637.2598 160.44949 3104.5806 2570777
-2618.802 160.44949 3104.5806 3161891
-2595.0686 160.12396 3098.2817 3424298
-2607.9321 162.06807 3135.8987 5266500
-2598.6101 162.65154 3147.1882 5793101
-2628.4917 165.71507 3206.4656 1318925
-2624.8015 166.69138 3225.3562 528131
-2585.7471 165.41965 3200.7493 1583628
-2524.0659 162.67082 3147.5615 532226
-2505.3528 162.67082 3147.5615 1717003
-2547.8601 166.67575 3225.054 3231265
-2531.7837 166.87991 3229.0044 1916174
-2521.7703 167.48988 3240.8069 3035166
-2503.7354 167.57236 3242.4028 2574104
-2497.6265 168.46054 3259.5884 1652745
-2581.8594 175.50365 3395.8672 1191172
-2615.2664 179.17561 3466.9172 1124613
-2594.6548 179.17561 3466.9172 663298
-2574.043 179.17561 3466.9172 597248
-2587.9512 181.59792 3513.7869 2175759
-2589.6963 183.19917 3544.7703 3293217
-2613.1216 186.37299 3606.1812 594436
-2616.5298 188.15987 3640.7559 398081
-2629.572 190.67513 3689.4246 462338
-2703.8328 197.70912 3825.5269 724485
-2704.0435 199.40182 3858.2795 856327
-2675.4985 198.98486 3850.2117 856072
-2652.6079 198.98486 3850.2117 724744
-2629.7173 198.98486 3850.2117 263936
-2618.762 199.8959 3867.8396 395268
-2578.6423 198.57719 3842.3235 395268
-2555.7988 198.57719 3842.3235 197632
-2508.3813 196.65067 3805.0469 66304
-2485.0981 196.59837 3804.0347 395011
-2458.2278 196.2587 3797.4626 131328
-2440.5325 196.65207 3805.074 65536
-2414.3455 196.36214 3799.4641 197120
-2344.8723 192.51294 3724.9849 262913
-2322.7261 192.51294 3724.9849 460548
-2349.0718 196.57074 3803.5002 65792
-2316.377 195.71889 3787.0176 0
-2189.0386 186.77505 3613.9607 197377
-2053.47 176.9447 3423.7507 197632
-2049.2344 178.3476 3450.8958 524802
-2028.7178 178.3476 3450.8958 918788
-1972.9347 175.21559 3390.2937 1904142
-1923.4601 172.58498 3339.3931 1377025
-1891.0022 171.44225 3317.282 1638913
-1862.672 170.65358 3302.0222 1507328
-1849.9796 171.2961 3314.4543 1638400
-1840.8188 172.28299 3333.5498 1769472
-1821.0001 172.28299 3333.5498 1900544
-1814.2816 173.53603 3357.7954 1900544
-1773.3542 171.5085 3318.564 1966080
-1744.4716 170.61333 3301.2432 1966080
-1733.4618 171.46568 3317.7356 2097152
-1762.0133 176.2959 3411.1968 2031616
-1743.3625 176.46086 3414.3889 2031616
-1715.5569 175.69215 3399.5146 2031616
-1643.0836 170.27609 3294.718 2097152
-1639.4156 171.94585 3327.0264 2228224
-1619.6356 171.94585 3327.0264 2228224
-1556.6536 167.30269 3237.1848 2228224
-1537.4077 167.30269 3237.1848 2228224
-1527.9293 168.37909 3258.0122 2293760
-1491.9263 166.52254 3222.0896 2293760
-1472.77 166.52254 3222.0896 2490368
-1468.989 168.28389 3256.1704 2555904
-1438.28 166.96629 3230.6758 2424832
-1432.1455 168.50441 3260.4373 2491137
-1423.1598 169.74466 3284.4353 2097409
-1390.7256 168.18376 3254.2329 3409408
-1389.2277 170.37279 3296.5889 3540224
-1363.7159 169.63728 3282.3577 3671296
-1344.2014 169.63728 3282.3577 3801856
-1324.4844 169.61136 3281.856 3539712
-1304.1794 169.50824 3279.8606 7418924
-1278.2427 168.65889 3263.4263 6300443
-1248.7667 167.30919 3237.3105 4984843
-1232.7225 167.74496 3245.7427 3932416
-1215.429 168.02191 3251.1013 3670528
-1196.1002 168.02191 3251.1013 3735808
-1162.1188 165.92975 3210.6194 3407872
-1143.0306 165.92975 3210.6194 8472131
-1123.9427 165.92975 3210.6194 8866890
-1116.5999 167.69368 3244.7502 8340546
-1110.0315 169.63797 3282.3708 7484724
-1091.9325 169.85818 3286.6316 7221552
-1072.3925 169.85818 3286.6316 7550774
-1058.3287 170.74165 3303.7263 7814460
-1041.9487 171.2778 3314.1003 7879994
-1023.0514 171.41283 3316.7129 7880765
-1038.3182 177.38989 3432.3647 8078401
-1017.9119 177.38989 3432.3647 6302503
-997.50549 177.38989 3432.3647 7289142
-993.67792 180.39972 3490.6028 6763568
-975.03607 180.79109 3498.1755 7158583
-954.23834 180.79109 3498.1755 6698289
-939.96234 182.05421 3522.616 6500399
-947.12146 187.62112 3630.3315 6040359
-923.84161 187.27719 3623.677 7488831
-911.09552 189.10321 3659.009 6106921
-901.66364 191.72325 3709.7048 6700085
-887.96381 193.54445 3744.9436 4464922
-876.29193 195.91269 3790.7673 4993324
-866.80542 198.90744 3848.7136 1181698
-938.20282 221.12843 4278.6733 789510
-922.57556 223.50517 4324.6616 591876
-893.16974 222.58449 4306.8472 788999
-856.23322 219.67731 4250.5957 657669
-819.05273 216.5289 4189.6758 526083
-794.14398 216.5289 4189.6758 329475
-776.47821 218.56769 4229.125 1185299
-740.07532 215.29221 4165.7471 2567722
-699.59564 210.56293 4074.2385 1581855
-684.59247 213.43724 4129.8545 2042663
-667.56543 215.87097 4176.9453 462090
-633.18823 212.66544 4114.9209 4806482
-617.05396 215.57562 4171.231 513
-592.25476 215.57562 4171.231 463118
-569.32684 216.28648 4184.9854 1383963
-544.44861 216.28758 4185.0063 725262
-530.12305 220.68163 4270.0283 67332
-502.76929 219.82149 4253.3853 1845538
-477.48169 219.82149 4253.3853 395784
-449.89053 218.70166 4231.7173 133890
-424.73181 218.70166 4231.7173 464654
-397.8118 217.73764 4213.0645 595470
-364.3956 212.84953 4118.4829 792850
-341.49078 213.83937 4137.6357 134406
-316.93121 213.86624 4138.1558 2768180
-293.04694 214.39171 4148.3228 1319451
-271.84604 217.15724 4201.834 265224
-249.6353 219.59419 4248.9873 263428
-221.8839 217.15724 4201.834 256
-185.32611 204.38971 3954.7915 66048
-174.23047 220.07344 4258.2603 66304
-148.91393 220.07344 4258.2603 66305
-122.82029 218.68977 4231.4873 65792
-97.915771 219.25594 4242.4424 512
-73.834114 222.69696 4309.0234 256
-48.028187 221.83052 4292.2588 131328
-22.327894 220.04068 4257.6265 131584
2.9811063 219.76248 4252.2432 132097
28.248444 219.65802 4250.2222 66304
54.740986 224.68098 4347.4131 197890
81.47506 227.15536 4395.29 197889
108.67308 229.40736 4438.8647 263680
136.27217 231.46053 4478.5923 329474
163.54813 232.38338 4496.4482 329474
190.52571 232.6825 4502.2363 256
217.0354 232.40692 4496.9043 198145
243.32657 231.98344 4488.71 725001
268.38965 230.58858 4461.7202 922380
304.73325 238.2646 4610.2461 461830
332.20117 238.30675 4611.0615 263939
358.40363 237.50383 4595.5259 724487
385.72528 237.50383 4595.5259 395779
414.86102 238.54691 4615.7085 396037
447.69705 241.45627 4672.0024 1711898
481.28448 244.40726 4729.1021 395522
509.92874 244.66081 4734.0078 1381902
539.51886 245.3179 4746.7222 1316364
566.21875 244.66081 4734.0078 987398
595.96002 245.3179 4746.7222 1513228
632.00665 248.39371 4806.2368 2039573
665.54321 250.2596 4842.3403 1776400
722.80969 260.5238 5040.9448 2434072
817.76123 283.01282 5476.0913 2236950
850.31812 283.01282 5476.0913 2368791
873.83801 280.11594 5420.0386 2697756
911.70093 281.85934 5453.7725 2039825
946.24213 282.49136 5466.0015 2959899
998.01727 288.05557 5573.665 3157277
1049.1147 293.07291 5670.7466 3157533
1097.39 297.01395 5747.0024 3091739
1119.5372 293.85883 5685.9536 4341806
1167.7432 297.52811 5756.9517 4604720
1245.5033 308.30411 5965.4595 3814690
1280.9696 308.30411 5965.4595 3947047
1340.3398 313.90234 6073.7808 4605491
1410.9702 321.77469 6226.1055 4277039
1461.9802 324.88446 6286.2773 3817001
1507.881 326.73218 6322.0288 4738360
1545.4672 326.73218 6322.0288 4739128
1559.5189 321.87479 6228.042 3950892
1570.3468 316.59277 6125.8389 3359781
1609.5775 317.14661 6136.5552 3427110
1639.6073 315.90317 6112.4956 4086321
1705.4722 321.46832 6220.1772 3627050
1615.5109 298.04852 5767.0215 4483129
1649.7972 298.04852 5767.0215 3957551
1878.7228 332.4957 6433.5483 4616251
1860.8844 322.76733 6245.3125 3827248
1886.824 320.86435 6208.4907 3761454
1888.2523 314.94608 6093.9766 4156726
1832.7283 299.93027 5803.4312 4025396
1806.9283 290.2439 5616.0073 4223032
1827.6403 288.24457 5577.3218 4157496
1812.1307 280.70566 5431.4497 5276234
1850.0287 281.55893 5447.9595 2907429
1886.8923 282.22815 5460.9082 4289082
1936.8641 284.80215 5510.7134 3763252
1969.6268 284.80215 5510.7134 3631919
2009.8396 285.86176 5531.2163 4618815
2012.366 281.6134 5449.0132 4619584
2058.2583 283.47217 5484.9795 3698225
2113.7207 286.57047 5544.9292 3303468
2149.5251 286.94934 5552.2603 3764275
2233.8267 293.69296 5682.7441 4290363
2237.1565 289.74844 5606.4204 3895606
2236.8884 285.4606 5523.4541 3303466
2260.0769 284.24695 5499.9707 2317084
2292.7759 284.24695 5499.9707 2909220
2344.0903 286.52237 5543.9985 3567406
2426.103 292.43497 5658.4028 2579997
2487.6426 295.75183 5722.5815 2316823
2521.665 295.75183 5722.5815 2317079
2558.3296 296.05759 5728.498 2843421
2613.2786 298.44342 5774.6621 2712091
2602.4314 293.35077 5676.123 2580760
2570.9768 286.09531 5535.7354 2646295
2522.9507 277.20251 5363.666 2975515
2507.7136 272.08929 5264.7295 2712088
2601.981 278.8371 5395.2939 2975518
2707.1023 286.56952 5544.9106 3698986
2740.0684 286.56952 5544.9106 3172644
2799.2534 289.27902 5597.3379 4093491
2779.4285 283.85577 5492.4019 4422458
2862.0234 288.89688 5589.9438 3830324
2856.6748 285.04706 5515.4521 3764531
2889.4656 285.04706 5515.4521 4554047
3010.4243 293.64725 5681.8594 3435566
3044.2046 293.64725 5681.8594 3698483
3059.2363 291.85858 5647.25 3172139
3066.8201 289.40591 5599.793 4290363
3140.2695 293.15469 5672.3296 3369771
3133.4048 289.40591 5599.793 3172644
