# .PCD v0.7 - Point Cloud Data file format
VERSION 0.7
FIELDS x y z rgb
SIZE 4 4 4 4
TYPE F F F U
COUNT 1 1 1 1
WIDTH 1371
HEIGHT 1
VIEWPOINT 0 0 0 1 0 0 0
POINTS 1371
DATA ascii
-873.32043 -1546.0546 2944.8071 1388066
-825.7005 -1491.6559 2841.1926 2837294
-805.93842 -1486.3621 2831.1094 5405762
-789.10669 -1486.3621 2831.1094 3694641
-770.05347 -1482.0864 2822.9656 2310184
-751.64838 -1478.8955 2816.8877 267528
-734.90112 -1478.8955 2816.8877 3332
-728.63306 -1500.4752 2857.991 1538
-702.22925 -1480.6296 2820.1907 67074
-695.83905 -1503.0436 2862.8831 1025
-682.6239 -1511.4697 2878.9326 1538
-667.76447 -1516.5948 2888.6946 768
-653.88202 -1524.2681 2903.3098 512
-638.06995 -1527.7371 2909.9175 768
-623.70087 -1534.9508 2923.6577 768
-613.15771 -1552.264 2956.6345 768
-595.57971 -1552.264 2956.6345 1536
-550.76385 -1479.1149 2817.3057 200193
-534.01416 -1479.1149 2817.3057 2179867
-519.75635 -1486.2402 2830.8774 1390353
-513.15967 -1516.4825 2888.4807 1124883
-495.98679 -1516.4825 2888.4807 727823
-475.99628 -1507.5583 2871.4824 397833
-458.89429 -1507.4591 2871.2935 2305
-441.85272 -1507.5583 2871.4824 1024
-433.10837 -1537.1124 2927.7749 512
-418.14908 -1546.161 2945.01 512
-401.34195 -1548.8696 2950.1689 512
-387.65631 -1564.4225 2979.793 256
-369.94061 -1564.4225 2979.793 396039
0 0 0 0
0 0 0 0
0 0 0 0
0 0 0 0
-272.84326 -1517.056 2889.573 989458
-255.91759 -1518.5612 2892.4397 791565
-236.80415 -1506.3661 2869.2117 594699
-216.69827 -1485.4745 2829.4189 792592
-201.597 -1498.2606 2853.7729 1384985
-185.30521 -1503.7355 2864.2012 1781025
-168.30257 -1503.9664 2864.6409 1386011
-153.64507 -1527.5649 2909.5896 332809
-136.93396 -1534.1439 2922.1206 727312
-118.72991 -1523.478 2901.8052 925204
-99.706673 -1496.8871 2851.1567 662546
-80.314598 -1452.7316 2767.0525 2176811
-62.14172 -1413.561 2692.4436 6125930
-45.949482 -1407.8953 2681.6519 5797733
-30.006315 -1407.8953 2681.6519 3561537
-14.063149 -1407.8953 2681.6519 3232826
1.8661163 -1397.4855 2661.824 4482124
17.331444 -1369.0516 2607.6655 4877898
32.410477 -1351.3618 2573.9712 6327619
47.432312 -1343.3993 2558.8047 6722114
62.645119 -1343.3993 2558.8047 6327349
79.494255 -1371.6333 2612.5828 6261801
97.204941 -1403.0731 2672.467 5867042
114.89668 -1425.444 2715.0771 6457385
128.14603 -1393.9788 2655.1448 6849088
148.21599 -1435.473 2734.1799 528390
164.47145 -1435.473 2734.1799 1024
180.02138 -1429.8691 2723.5061 132097
203.41185 -1482.3267 2823.4231 770
228.13515 -1535.7588 2925.1965 133126
267.90158 -1675.7156 3191.7756 725776
286.87756 -1675.7156 3191.7756 265995
305.85358 -1675.7156 3191.7756 398860
339.71793 -1752.5209 3338.0686 2702899
359.56366 -1752.5209 3338.0686 2309166
380.82645 -1759.0665 3350.5359 1651494
393.44611 -1727.0223 3289.5007 1257251
413.61844 -1729.5953 3294.4019 138258
433.20462 -1729.5953 3294.4019 2047541
448.03998 -1711.4484 3259.8367 4416075
467.42062 -1711.4484 3259.8367 1587494
0 0 0 0
0 0 0 0
468.85806 -1526.7953 2908.1235 4284226
494.41992 -1552.775 2957.6079 3955773
551.06726 -1671.2446 3183.2598 1784100
580.81372 -1702.9725 3243.6926 2772020
606.49426 -1721.1229 3278.2642 3297081
654.42029 -1799.3064 3427.1819 2899751
674.79584 -1799.3064 3427.1819 1793
692.84698 -1793.29 3415.7227 1027
683.44189 -1718.5754 3273.4116 259
719.13385 -1758.2587 3348.9973 261
746.40845 -1775.7781 3382.3669 517
766.51752 -1775.7781 3382.3669 517
768.11322 -1733.9846 3302.762 772
765.65198 -1685.3448 3210.1167 2310
0 0 0 0
796.18835 -1669.3394 3179.6309 8432252
809.56909 -1658.028 3158.0857 8366963
833.44086 -1668.2285 3177.5149 7181926
836.06573 -1636.3912 3116.8735 6523235
829.08606 -1587.5437 3023.8325 4417629
847.06366 -1587.5437 3023.8325 3891540
865.3219 -1588.059 3024.8137 3891281
869.19196 -1562.6854 2976.4841 4022354
931.6958 -1641.6361 3126.8635 5337957
909.45209 -1571.095 2992.5022 3166790
934.80054 -1583.8997 3016.8916 4483161
955.54614 -1588.5701 3025.7874 6786428
970.67303 -1583.8997 3016.8916 7510149
991.52441 -1588.5701 3025.7874 7246721
967.93542 -1523.1426 2901.1663 6719607
1002.988 -1550.6691 2953.5964 6785400
1080.1577 -1641.2432 3126.115 6390898
1098.7434 -1641.2432 3126.115 6521713
1149.7593 -1688.8799 3216.8499 4810323
1158.675 -1674.1287 3188.7532 3756866
1177.6331 -1674.1287 3188.7532 4151366
1244.4762 -1741.124 3316.3606 3887941
1411.9951 -1944.6863 3704.0903 3362113
1396.5397 -1893.8628 3607.2859 4876125
1420.2256 -1896.854 3612.9834 6125162
1441.7058 -1896.854 3612.9834 6060136
1457.8392 -1889.9226 3599.7808 8363133
1487.4058 -1900.3544 3619.6504 10072974
1613.2896 -2031.7913 3870.0015 3493194
1679.3771 -2085.2827 3971.8877 4611674
1654.2498 -2025.5999 3858.2085 2374969
0 0 0 0
0 0 0 0
0 0 0 0
0 0 0 0
2459.7356 -2816.624 5364.8911 1913146
2491.6311 -2816.624 5364.8911 1518645
2523.5271 -2816.624 5364.8911 1913662
2490.7241 -2745.312 5229.0615 4281697
3532.5139 -3845.5884 7324.7847 596778
3595.5935 -3866.5923 7364.7915 1189172
3610.8 -3836.2295 7306.958 1518651
3483.3933 -3656.8721 6965.3315 2505802
3697.6841 -3836.2295 7306.958 2440010
3863.123 -3961.3279 7545.2358 2111557
4127.8403 -4184.1875 7969.7227 5071986
3921.895 -3930.3162 7486.1675 3559261
4588.3877 -4546.6431 8660.0996 332579
4220.9863 -4136.1719 7878.2651 5861244
4267.8247 -4136.1719 7878.2651 4873841
4337.814 -4158.3647 7920.5366 2966102
4725.8369 -4481.6841 8536.3711 1189692
4754.1367 -4460.6187 8496.2471 2374479
4804.6494 -4460.6187 8496.2471 2768984
4870.0645 -4474.3101 8522.3262 3888487
4920.7319 -4474.3101 8522.3262 4217707
5566.1421 -5009.585 9541.876 5730688
5400.6113 -4811.5664 9164.7061 4678001
5358.2559 -4726.1489 9002.0088 3822692
5371.2324 -4690.7427 8934.5693 3625571
5525.5283 -4778.2363 9101.2207 5335164
5984.1626 -5124.6592 9761.0615 4742771
5894.7866 -4999.6357 9522.9258 2966362
5597.103 -4701.9971 8956.0059 2439762
0 0 0 0
0 0 0 0
6827.8682 -5576.7764 10622.22 2110799
6929.7114 -5608.0884 10681.86 2044752
7797.7935 -6253.3037 11910.817 1782351
8521.5596 -6772.2153 12899.2 1782607
10515.582 -8282.3594 15775.608 1783116
10051.216 -7846.6265 14945.657 4481655
8668.6992 -6708.0435 12776.971 6321552
7291.9629 -5593.6758 10654.408 5727102
7531.0474 -5727.3262 10908.976 13161176
7754.7593 -5847.103 11137.117 13226453
7807.9771 -5837.3872 11118.611 13226963
6904.4336 -5118.5479 9749.4199 10727371
6669.2095 -4903.0049 9338.8711 4544382
6601.8472 -4813.4097 9168.2168 5334670
7090.5122 -5127.3618 9766.209 2834793
7148.5752 -5127.3618 9766.209 1848411
7167.1074 -5099.2368 9712.6387 2241881
7224.8516 -5099.2368 9712.6387 2703713
7509.4038 -5258.0464 10015.127 7699604
7586.98 -5270.5742 10038.989 9210024
7721.3022 -5322.019 10136.978 3624051
8347.6328 -5709.1646 10874.383 3952500
8236.25 -5589.6958 10646.827 8754106
8299.5488 -5589.6958 10646.827 6583195
7478.707 -4998.7397 9521.2197 10461132
7535.3135 -4998.7397 9521.2197 6314372
7694.0835 -5066.0083 9649.3467 11973578
6704.5757 -4381.8159 8346.1494 13750234
7395.9644 -4798.166 9139.1816 13355990
7152.6313 -4606.4609 8774.0361 10262452
7204.7954 -4606.4609 8774.0361 13355729
7373.9341 -4680.7124 8915.4648 13619411
7426.939 -4680.7124 8915.4648 13685204
7158.5957 -4479.623 8532.4453 12432062
6987.7612 -4341.9521 8270.2197 12890565
6306.3892 -3891.1909 7411.6445 13288654
6788.96 -4159.8823 7923.4277 13353167
6389.2749 -3888.0002 7405.5674 13683411
6433.3032 -3888.0002 7405.5674 13814998
6671.6382 -4004.6326 7627.7197 13681875
6716.9873 -4004.6326 7627.7197 13812692
0 0 0 0
6703.1304 -3943.1279 7510.5703 13880533
7514.0591 -4390.9087 8363.4688 13418959
7223.4844 -4193.3594 7987.1924 13549010
7270.9697 -4193.3594 7987.1924 11641804
8056.9277 -4616.4917 8793.1426 7893675
8451.5078 -4811.3613 9164.3154 8686012
8022.917 -4538.1133 8643.8525 9339827
8074.3071 -4538.1133 8643.8525 11967937
8622.085 -4815.3398 9171.8936 12360392
8676.6143 -4815.3398 9171.8936 12095942
8871.7852 -4892.9058 9319.6348 11309764
8927.1934 -4892.9058 9319.6348 10590403
8358.1963 -4552.7866 8671.8018 9738422
6435.8052 -3484.1511 6636.3462 6384274
0 0 0 0
0 0 0 0
0 0 0 0
0 0 0 0
0 0 0 0
0 0 0 0
0 0 0 0
-3742.8088 -2194.8503 4228.4678 398855
-4017.3101 -2371.7532 4569.2783 859153
-3868.9526 -2299.7166 4430.4966 792334
-3928.1304 -2350.8975 4529.0986 1024
-3849.3816 -2319.6689 4468.9355 1024
-3696.8376 -2243.2278 4321.6689 1281
-3568.7368 -2180.6526 4201.1152 1024
-3553.2253 -2186.4771 4212.3359 1539
-3672.1609 -2275.7034 4384.2344 199691
-3764.9724 -2349.9001 4527.1772 770
-3759.0493 -2363.0969 4552.6016 770
-3711.5203 -2350.1399 4527.6392 769
-3637.1575 -2319.8784 4469.3394 516
-3655.675 -2348.8491 4525.1523 516
-3628.7715 -2348.8491 4525.1523 260
-3673.8955 -2395.8193 4615.6426 515
-3708.7415 -2436.7437 4694.4849 517
-3737.7371 -2474.4158 4767.0615 774
-3709.3955 -2474.4158 4767.0615 516
-3823.1284 -2569.9187 4951.0518 774
-4003.1968 -2711.8403 5224.4697 2173228
-3707.0513 -2530.8628 4875.8091 132360
-3607.8564 -2482.554 4782.7402 261
-3608.3767 -2502.6357 4821.4287 263
-3566.7419 -2493.5684 4803.96 263
-3569.3059 -2515.5039 4846.2197 263
-3604.8345 -2561.2178 4934.2891 263
-3645.1069 -2611.0798 5030.3506 263
-3617.7305 -2612.9072 5033.8711 8
-3647.2998 -2656.2375 5117.3486 7
-3736.4773 -2744.0732 5286.5674 262
-3889.6392 -2880.7876 5549.9536 8
-3767.4128 -2814.1355 5421.5454 9
-3692.8298 -2782.2278 5360.0742 517
0 0 0 0
0 0 0 0
-3591.9702 -2778.1614 5352.2397 7
-3560.1497 -2778.1614 5352.2397 9
-3684.5769 -2901.1887 5589.2568 7
-3892.8259 -3093.0562 5958.8975 856088
-4234.2329 -3395.2207 6541.0298 263690
-4029.0999 -3260.6819 6281.835 11
-3660.1519 -2989.812 5759.9937 65551
-3565.719 -2940.1829 5664.3809 24
-3408.0625 -2836.978 5465.5522 65546
-3375.5681 -2836.978 5465.5522 459536
-3354.3804 -2846.5725 5484.0366 4734805
-3321.7761 -2846.5725 5484.0366 13
-3218.887 -2785.7454 5366.8506 9
-3186.9795 -2785.7454 5366.8506 1033
-3169.3796 -2798.3779 5391.188 6
-3239.3384 -2889.3677 5566.4834 521
-3249.4666 -2928.3186 5641.5239 66057
-3221.0229 -2932.9597 5650.4648 7
-3061.0811 -2816.6985 5426.4829 7
-3049.8369 -2836.2441 5464.1387 65548
-2935.4138 -2759.2249 5315.7578 65550
-2903.8098 -2759.2249 5315.7578 1051426
-3134.9753 -3011.6575 5802.0796 395037
-3187.2961 -3095.9861 5964.542 3816799
-3151.835 -3095.9861 5964.542 3612743
-2917.8391 -2898.7498 5584.5581 7231864
-2824.2056 -2838.022 5467.564 2370359
-2791.6992 -2838.022 5467.564 22
-3011.5088 -3097.5464 5967.5483 533
-3031.8296 -3155.6245 6079.4375 131861
-3493.7444 -3680.2744 7090.1968 328978
-3303.6631 -3522.5454 6786.3257 1711395
0 0 0 0
0 0 0 0
0 0 0 0
0 0 0 0
0 0 0 0
-2640.9678 -3038.6006 5853.9863 2304047
-2508.0312 -2924.1843 5633.5591 65794
0 0 0 0
0 0 0 0
0 0 0 0
0 0 0 0
-1920.5123 -2399.3909 4622.5229 258
-1908.8248 -2419.4104 4661.0918 256
-1757.0734 -2259.8752 4353.7407 256
-1715.9569 -2239.991 4315.4331 512
0 0 0 0
0 0 0 0
0 0 0 0
0 0 0 0
0 0 0 0
0 0 0 0
-1017.468 -1483.4523 2857.9307 204032
-1000.4768 -1483.4523 2857.9307 2575391
-996.93567 -1503.7397 2897.0154 1718308
-979.7121 -1503.7397 2897.0154 2902074
-961.21069 -1501.7434 2893.1692 2045998
-944.00995 -1501.7434 2893.1692 2701874
-923.70013 -1496.7056 2883.4636 200200
-927.08783 -1530.6012 2948.7649 1024
-937.27991 -1577.2539 3038.6433 768
-919.21436 -1577.2539 3038.6433 768
-873.32043 -1528.5469 2944.8071 3074
-808.80292 -1444.5837 2783.0488 2817
-808.80884 -1474.7642 2841.1926 4944176
-795.8006 -1481.9962 2855.1255 3959573
-777.14502 -1478.7974 2848.9626 3629862
-754.84802 -1468.3726 2828.8789 3757874
-738.0296 -1468.3726 2828.8789 597004
-729.88031 -1486.0228 2862.8831 2306
-712.85968 -1486.0228 2862.8831 396296
-698.26483 -1491.2035 2872.8635 1795
-686.14612 -1502.0642 2893.7874 1281
-669.91119 -1504.241 2897.981 512
-657.95654 -1516.3978 2921.4014 512
-643.40234 -1523.0598 2934.2361 512
-626.89673 -1525.3451 2938.6387 1024
-613.15771 -1534.686 2956.6345 1024
-605.38251 -1559.9459 3005.2986 1024
-553.41705 -1469.4099 2830.8774 1536
-535.24054 -1465.7235 2823.7754 992023
-530.33246 -1499.3097 2888.4807 69637
-513.27759 -1499.6544 2889.1448 4616
-502.80673 -1519.9254 2928.1978 727312
-475.9649 -1490.3884 2871.2935 1536
-454.12567 -1474.901 2841.4563 1024
-441.85272 -1490.4866 2871.4824 768
-432.43362 -1517.3385 2923.2139 768
-418.14908 -1528.6522 2945.01 512
-401.34195 -1531.33 2950.1689 768
-383.8024 -1531.33 2950.1689 768
-362.08228 -1513.8513 2916.4956 1793
0 0 0 0
0 0 0 0
0 0 0 0
0 0 0 0
-250.01567 -1374.3887 2647.8152 1649182
-255.66394 -1499.8767 2889.573 1253913
-236.08517 -1484.786 2860.5 529675
-217.20108 -1472.0605 2835.9841 68870
-200.34036 -1472.0605 2835.9841 3333
-184.63054 -1481.2942 2853.7729 3097400
-164.26265 -1451.2432 2795.8784 596239
-151.27147 -1486.9353 2864.6409 794902
-135.98196 -1506.2261 2901.8052 1058077
-117.3075 -1488.181 2867.0408 663575
-96.765495 -1436.2806 2767.0525 598805
-80.314598 -1436.2806 2767.0525 3166787
-62.14172 -1397.5537 2692.4436 8103044
-45.949482 -1391.9521 2681.6519 7379573
-29.723503 -1378.8328 2656.377 3563825
-13.860968 -1371.9406 2643.0986 6524251
1.8404462 -1362.6542 2625.2083 5668684
17.288227 -1350.1732 2601.1631 4878155
32.354652 -1333.7576 2569.5378 7049066
47.631271 -1333.7576 2569.5378 5601876
62.980103 -1335.2887 2572.4875 5931351
78.823647 -1344.6608 2590.5432 5734474
97.204941 -1387.1846 2672.467 7906898
112.36045 -1378.1932 2655.1448 7512130
126.96194 -1365.4585 2630.6108 8627794
143.93159 -1378.1932 2655.1448 265476
163.82938 -1413.6772 2723.5061 1280
180.02138 -1413.6772 2723.5061 1540
205.81619 -1482.8635 2856.7964 67333
232.26405 -1545.8477 2978.1379 1026
256.258 -1584.7341 3053.0542 67333
280.52832 -1620.0721 3121.1343 1024
299.08432 -1620.0721 3121.1343 2560
327.49756 -1670.3473 3217.9915 1454359
355.25504 -1711.9128 3298.0688 3890495
375.11981 -1713.0857 3300.3286 1652523
394.47089 -1711.9128 3298.0688 401683
413.00311 -1707.4653 3289.5007 4871
429.5936 -1695.7556 3266.9414 995103
448.03998 -1692.0676 3259.8367 5998413
459.13541 -1662.0751 3202.0547 1128729
0 0 0 0
484.46768 -1619.4812 3119.9958 3331
511.6601 -1647.3082 3173.6057 4944200
537.28302 -1668.2826 3214.0139 2575410
560.89764 -1681.7948 3240.0454 995865
581.85461 -1686.7053 3249.5059 2311216
606.49426 -1701.6328 3278.2642 3233589
635.2868 -1726.9196 3326.9802 6063940
653.42499 -1722.5918 3318.6426 395780
691.82812 -1770.3755 3410.6997 597010
699.22314 -1738.3479 3348.9973 988951
727.32977 -1758.1597 3387.1655 773
727.8078 -1711.9172 3298.0776 260
743.91669 -1703.9028 3282.6375 260
737.89978 -1646.9155 3172.8491 1027
760.41614 -1654.8652 3188.1646 792853
777.28455 -1650.4357 3179.6309 2771002
790.79333 -1639.2524 3158.0857 3299381
799.00446 -1617.8606 3116.8735 4287279
822.55127 -1627.7875 3135.998 7247706
823.76642 -1594.0603 3071.0215 8365174
829.08606 -1569.5662 3023.8325 4943711
847.06366 -1569.5662 3023.8325 5798247
875.67542 -1588.8616 3061.0056 4679508
873.38049 -1552.4343 2990.8274 6653040
923.38153 -1608.5621 3098.96 1981484
920.49872 -1572.1707 3028.8503 2836795
944.90601 -1582.8918 3049.5051 2573107
960.26508 -1578.3373 3040.7302 5930602
970.67303 -1565.9635 3016.8916 7706494
991.52441 -1570.5809 3025.7874 8629125
981.77747 -1527.4296 2942.6545 8298635
1006.1297 -1537.9113 2962.8481 8364171
1036.6465 -1557.293 3000.1877 6653555
1079.8083 -1594.6935 3072.2412 5797986
1108.7031 -1610.1304 3101.9812 7113584
1127.1454 -1610.1304 3101.9812 8430697
1117.8419 -1571.1338 3026.8528 9944189
1244.4762 -1721.4073 3316.3606 5995097
1406.6382 -1915.3701 3690.0376 2177585
1434.017 -1922.6644 3704.0903 2835253
1450.5148 -1915.3701 3690.0376 6388076
1480.1768 -1925.4169 3709.3933 4744273
1516.4988 -1943.7051 3744.6262 6519915
1593.2225 -2012.498 3877.1587 3428161
1629.1454 -2028.5258 3908.0366 2374712
1679.3771 -2061.6687 3971.8877 1650476
0 0 0 0
0 0 0 0
0 0 0 0
0 0 0 0
0 0 0 0
2751.2742 -3114.7864 6000.7617 1452086
2588.6086 -2893.1135 5573.6997 1715257
2621.7461 -2893.1135 5573.6997 1781051
2654.8831 -2893.1135 5573.6997 794156
3532.5139 -3802.0408 7324.7847 991280
3576.0615 -3802.0408 7324.7847 991793
3610.8 -3792.7874 7306.958 1649723
3604.5557 -3741.2173 7207.606 2111044
3818.2644 -3916.4692 7545.2358 2967893
3891.5618 -3945.3008 7600.7808 4086374
4079.5178 -4088.3779 7876.4248 3823202
4016.5977 -3979.6399 7666.937 4875889
4062.1797 -3979.6399 7666.937 4611689
4107.7617 -3979.6399 7666.937 6256259
4290.7241 -4111.2749 7920.5366 3690334
4770.27 -4521.1465 8710.1709 1519168
4822.0547 -4521.1465 8710.1709 1453119
4776.5884 -4430.9331 8536.3711 2440016
5068.0884 -4651.9126 8962.0977 2374224
5225.6245 -4746.6099 9144.5352 4282989
5193.1157 -4668.5107 8994.0742 5533568
5246.5884 -4668.5107 8994.0742 4085611
5264.9956 -4637.624 8934.5693 2506835
5229.8062 -4560.6157 8786.21 2440786
5282.0425 -4560.6157 8786.21 3098202
5528.6836 -4726.8242 9106.418 4808563
5838.1699 -4943.019 9522.9258 2703699
5894.7866 -4943.019 9522.9258 3032150
5803.7441 -4820.3789 9286.6543 4216426
4583.0884 -3770.676 7264.3594 4808566
6331.2627 -5160.335 9941.5938 1650249
6615.6201 -5342.23 10292.021 1979216
6929.7114 -5544.582 10681.86 1979473
7691.8794 -6098.5161 11749.037 2045008
8110.6021 -6372.6304 12277.129 1651274
9962.3604 -7757.77 14945.657 3033182
7719.7515 -5958.2896 11478.885 4612466
7787.9966 -5958.2896 11478.885 6258312
7393.6313 -5607.4395 10802.958 13096149
7355.3066 -5530.3325 10654.408 13292247
7231.4102 -5390.752 10385.501 13423320
6940.2964 -5129.936 9883.0283 6184841
6613.6875 -4847.4829 9338.8711 3753325
6238.8423 -4534.6719 8736.2285 2372962
6601.8472 -4758.9023 9168.2168 1846615
7093.1138 -5071.1592 9769.793 2043992
7148.5752 -5069.2993 9766.209 2109784
6999.9067 -4923.8804 9486.0537 1912919
7224.8516 -5041.4927 9712.6387 1253179
7509.4038 -5198.5039 10015.127 10928089
7527.6953 -5170.1714 9960.5439 6253709
7680.9346 -5234.2432 10083.98 5004158
7781.5698 -5261.752 10136.978 3161700
7841.8364 -5261.752 10136.978 3684715
7653.4395 -5096.1743 9817.9854 4606597
7478.707 -4942.1338 9521.2197 7236269
7535.3135 -4942.1338 9521.2197 13026516
7591.9189 -4942.1338 9521.2197 13423317
7453.8096 -4816.3164 9278.8281 13619154
7208.7754 -4623.7666 8907.873 13685202
7152.6313 -4554.2964 8774.0361 13684946
7204.7954 -4554.2964 8774.0361 13553617
7373.9341 -4627.7075 8915.4648 13488083
6854.2134 -4270.8433 8227.9521 13619666
6420.853 -3972.467 7653.1177 13354956
6555.9385 -4027.5017 7759.1445 13223118
6461.9795 -3942.042 7594.5029 13749718
6518.1899 -3948.7417 7607.4102 13616851
6504.9341 -3913.5559 7539.6235 12823494
6731.8706 -4022.3699 7749.2578 13546701
6964.1602 -4132.8809 7962.1616 11239866
7011.498 -4132.8809 7962.1616 10517947
6762.3364 -3959.2837 7627.7197 8479898
7415.3174 -4312.6772 8308.5459 5779041
7645.9614 -4417.3911 8510.2822 3346758
7696.5576 -4417.3911 8510.2822 2495825
7405.793 -4222.7485 8135.2959 7104924
8056.9277 -4564.2144 8793.1426 3092322
8130.8423 -4576.3926 8816.6045 11641031
8022.917 -4486.7227 8643.8525 13281227
8074.3071 -4486.7227 8643.8525 13680338
9301.7578 -5136.1021 9894.9082 8610999
9360.5869 -5136.1021 9894.9082 5258901
8970.6123 -4891.3848 9423.4502 5785984
8927.1934 -4837.498 9319.6348 9866181
8358.1963 -4501.2305 8671.8018 3486576
7294.1274 -3904.1038 7521.4136 2303330
0 0 0 0
0 0 0 0
0 0 0 0
0 0 0 0
0 0 0 0
0 0 0 0
0 0 0 0
0 0 0 0
-3935.6746 -2296.9434 4476.4263 860946
-3868.9526 -2273.376 4430.4966 1320985
-3875.9507 -2293.0999 4468.9355 67843
-3810.7803 -2270.1047 4424.1216 1536
-3784.4778 -2270.1047 4424.1216 1280
-3617.1804 -2184.938 4258.1431 66562
-3559.5444 -2165.2773 4219.8271 1282
-3644.0618 -2232.4238 4350.6865 133898
-3791.6243 -2339.4292 4559.2251 770
-4045.824 -2514.2444 4899.9155 770
-3711.5203 -2323.2217 4527.6392 770
-3663.9902 -2310.2258 4502.3115 514
-3763.3479 -2390.3354 4658.4346 260
-3977.1311 -2544.8508 4959.5635 260
-4048.0728 -2609.5916 5085.7344 517
-3822.2566 -2482.562 4838.1714 516
-3793.4927 -2482.562 4838.1714 516
-3936.8943 -2596.0928 5059.4272 516
-4184.2676 -2780.4614 5418.7363 517
-4003.1968 -2680.7793 5224.4697 259
-3691.0461 -2491.073 4854.7583 517
-3639.887 -2475.9067 4825.2012 517
-3657.4846 -2507.6406 4887.0459 263
-3598.1182 -2486.6919 4846.2197 262
-3611.812 -2516.3052 4903.9321 263
-3657.5352 -2568.8967 5006.4258 8
-3647.6582 -2582.9795 5033.8711 8
-3660.6123 -2613.5959 5093.5386 9
-3669.5149 -2641.8069 5148.5176 9
-3788.7859 -2750.6184 5360.5762 9
-4079.7009 -2986.9448 5821.144 263
-4012.4709 -2962.8567 5774.1992 12
0 0 0 0
0 0 0 0
0 0 0 0
-3892.8713 -2976.4028 5800.5991 272
-3917.196 -3021.7705 5889.0142 1316900
-3928.2532 -3057.6289 5958.8975 66318
-4199.269 -3298.3257 6427.9819 592662
-4161.0532 -3298.3257 6427.9819 1118490
-3816.5588 -3053.2988 5950.459 2302509
-3660.1519 -2955.5674 5759.9937 65554
-3625.907 -2955.5674 5759.9937 11379143
-3532.0427 -2906.5066 5664.3809 8218779
-3360.5173 -2791.979 5441.1826 3482202
-3331.9536 -2795.1548 5447.3716 13157331
-3398.0974 -2878.6223 5610.0381 4805729
-3364.7441 -2878.6223 5610.0381 66315
-3297.2375 -2849.1108 5552.5244 265
-3260.908 -2846.2146 5546.8799 7
-3176.9788 -2801.2883 5459.3247 7
-3144.5217 -2801.2883 5459.3247 7
-3219.2292 -2897.7515 5647.3184 7
-3185.6543 -2897.7515 5647.3184 7
-3141.4932 -2888.0193 5628.3516 656922
-2953.8665 -2744.7676 5349.1738 459292
-2903.8098 -2727.6211 5315.7578 920612
-3134.9753 -2977.1626 5802.0796 10261190
-3461.4021 -3323.729 6477.4897 2168911
-3422.8914 -3323.729 6477.4897 8749483
-2820.5522 -2770.0046 5398.3574 8355220
-2788.9551 -2770.4988 5399.3203 1118752
-3400.7891 -3417.6201 6660.4712 17
-3361.1907 -3417.6201 6660.4712 20
-3174.8679 -3266.6541 6366.2583 15
-3137.0188 -3266.6541 6366.2583 7368836
0 0 0 0
0 0 0 0
0 0 0 0
0 0 0 0
0 0 0 0
0 0 0 0
-2541.5244 -2890.6914 5633.5591 922909
0 0 0 0
0 0 0 0
0 0 0 0
0 0 0 0
0 0 0 0
-1891.1843 -2335.6873 4551.9326 514
-1908.8248 -2391.699 4661.0918 258
-1757.0734 -2233.9912 4353.7407 256
0 0 0 0
0 0 0 0
0 0 0 0
0 0 0 0
0 0 0 0
0 0 0 0
0 0 0 0
-1017.468 -1466.4612 2857.9307 1024
-1082.901 -1587.2753 3093.3809 1280
-1014.2532 -1512.3383 2947.3389 596497
-996.73047 -1512.3383 2947.3389 256
-975.10138 -1505.9961 2934.979 530960
-957.49908 -1505.7555 2934.51 133895
-926.60657 -1484.218 2892.5364 768
-948.92957 -1548.7173 3018.2366 1281
-937.27991 -1559.1885 3038.6433 768
-918.03375 -1557.1859 3034.7407 768
-886.90344 -1534.5408 2990.6086 1024
-823.16028 -1453.3875 2832.4519 1536
-814.92841 -1468.9028 2862.6895 135936
-810.00574 -1491.1724 2906.0896 2378258
-792.72815 -1491.1724 2906.0896 1919756
-760.20709 -1461.8594 2848.9626 5012274
-739.18475 -1453.8262 2833.3069 1650713
-734.78632 -1478.8765 2882.1265 2817
-730.37793 -1505.1025 2933.2373 133123
-703.35046 -1484.8599 2893.7874 1795
-687.14044 -1487.0117 2897.981 512
-671.16876 -1489.8031 2903.4211 512
-660.84723 -1505.6149 2934.2361 512
-643.40613 -1505.6238 2934.2534 512
-627.4079 -1509.1035 2941.0349 1024
-616.28839 -1524.8541 2971.7305 768
-605.38251 -1542.0785 3005.2986 1024
-570.56146 -1497.5793 2918.5757 2307
-549.02112 -1486.2405 2896.4778 200712
-531.99957 -1486.7961 2897.5608 135176
-519.33997 -1499.9874 2923.2688 2049
-502.80673 -1502.5166 2928.1978 1792
-473.76663 -1466.5133 2858.0322 1280
-455.15259 -1461.3047 2847.8816 1024
-441.83417 -1473.3529 2871.3618 768
-432.43362 -1499.9592 2923.2139 768
-417.06781 -1507.2358 2937.395 660497
-400.64014 -1511.1433 2945.01 1024
-381.81451 -1505.9498 2934.8887 1024
-362.08228 -1496.512 2916.4956 68358
-343.76221 -1492.2548 2908.199 2050
-314.0517 -1435.4827 2797.5581 68613
0 0 0 0
0 0 0 0
-272.84326 -1482.6974 2889.573 199942
-255.68008 -1482.791 2889.7554 727057
-238.48465 -1482.6974 2889.573 529678
-217.20108 -1455.1998 2835.9841 265992
-200.34036 -1455.1998 2835.9841 925719
-182.73715 -1449.311 2824.5076 69639
-164.26265 -1434.6208 2795.8784 3493426
-147.64038 -1434.6208 2795.8784 5534533
-132.15767 -1447.0989 2820.1963 5271111
-114.98264 -1441.9799 2810.2202 1849117
-92.247017 -1353.5306 2637.8447 2244903
-80.005737 -1414.3695 2756.4114 5207872
-63.103519 -1402.9292 2734.1157 8500308
-45.949482 -1376.0089 2681.6519 7711553
-29.480894 -1351.9146 2634.6951 7185963
-13.816898 -1351.9146 2634.6951 6066982
1.8349836 -1343.0485 2617.4165 6330165
17.288227 -1334.7086 2601.1631 3696447
32.354652 -1318.4811 2569.5378 3170109
47.631271 -1318.4811 2569.5378 5735524
63.175926 -1324.0988 2580.4861 6525038
78.517632 -1324.0988 2580.4861 1919011
94.259743 -1329.7473 2591.4944 5078085
110.321 -1337.6785 2606.9512 7118671
125.86948 -1338.204 2607.9753 7116625
142.60165 -1349.8187 2630.6108 2561
163.01369 -1390.5272 2709.946 2048
181.96738 -1412.5918 2752.9468 67331
209.87733 -1494.8036 2913.1663 1539
230.29247 -1515.1702 2952.8579 1283
247.84802 -1515.1702 2952.8579 1027
264.17337 -1508.1471 2939.1709 768
291.99588 -1563.5596 3047.1621 1794
327.49756 -1651.2155 3217.9915 1793
348.71591 -1661.1548 3237.3618 201483
368.21545 -1662.2948 3239.5835 71438
391.15594 -1678.0833 3270.353 531221
396.14807 -1619.0232 3155.2532 3589
409.41821 -1597.6056 3113.5129 1792
409.3717 -1528.3251 2978.4951 266248
427.07971 -1528.3251 2978.4951 4100
434.83316 -1494.1206 2911.8352 4100
460.74146 -1522.5283 2967.198 3073
511.6601 -1628.4403 3173.6057 203277
541.1662 -1661.0936 3237.2427 4097
562.5354 -1667.3862 3249.5059 1849127
583.77637 -1672.8932 3260.2383 1060121
603.15942 -1672.8932 3260.2383 599059
627.46356 -1686.1173 3286.0103 3230012
646.99982 -1686.1173 3286.0103 4872
691.82812 -1750.0978 3410.6997 333583
707.19214 -1738.0221 3387.1655 1713954
727.32977 -1738.0221 3387.1655 1797
723.21899 -1681.6394 3277.2834 1028
741.57751 -1679.0902 3272.3154 1796
737.71356 -1627.6412 3172.0486 1024
742.81531 -1598.0453 3114.3701 6719859
777.28455 -1631.5319 3179.6309 1324576
790.79333 -1620.4767 3158.0857 1455903
798.22534 -1597.7704 3113.8342 3100732
805.50836 -1575.8024 3071.0215 1718566
821.18915 -1570.8721 3061.4133 4548181
836.73291 -1565.8992 3051.7217 3758665
844.50006 -1546.8928 3014.6812 4679767
875.67542 -1570.6628 3061.0056 5337440
873.38049 -1534.6531 2990.8274 9024129
923.38153 -1590.1381 3098.96 5141093
920.49872 -1554.1633 3028.8503 2179639
947.43982 -1568.9576 3057.6824 2837822
965.61865 -1568.9576 3057.6824 1520935
978.34314 -1560.2592 3040.7302 3165494
996.42102 -1560.2592 3040.7302 6521965
1022.9729 -1573.2916 3066.1287 6785394
1041.2019 -1573.2916 3066.1287 6127724
1036.6465 -1539.4561 3000.1877 5666147
1044.0818 -1524.2705 2970.5933 4877145
1061.7428 -1524.2705 2970.5933 4351816
1109.457 -1566.71 3053.3018 6394446
1117.8419 -1553.1384 3026.8528 7117401
1196.0917 -1635.5297 3187.4221 5930844
1406.6382 -1893.4318 3690.0376 2441013
1529.0963 -2026.6605 3949.6821 2704182
1496.9178 -1954.004 3808.0847 3296325
1558.3981 -2003.9487 3905.4199 3164741
1581.3749 -2003.6421 3904.8223 5533034
1618.4257 -2020.9185 3938.4917 1848625
1712.8098 -2108.2727 4108.7329 3887185
1785.7693 -2167.1699 4223.5156 3624014
0 0 0 0
0 0 0 0
0 0 0 0
2401.0925 -2758.748 5376.4199 1517619
2433.0571 -2758.748 5376.4199 925996
3073.1135 -3439.2993 6702.7202 1254194
3112.9629 -3439.2993 6702.7202 1649209
3257.6074 -3553.6167 6925.5093 991022
3434.5649 -3699.8894 7210.5747 925229
3559.7432 -3787.4644 7381.2461 1122609
3576.0615 -3758.4927 7324.7847 1781309
3791.7922 -3937.2822 7673.2207 3097682
3837.4119 -3937.2822 7673.2207 3361880
3910.3416 -3964.9741 7727.1885 2572877
4006.6375 -4015.4407 7825.5405 3231064
4079.5178 -4041.5505 7876.4248 3888737
4016.5977 -3934.0579 7666.937 4283239
4026.6362 -3899.636 7599.853 3493468
4107.7617 -3934.0579 7666.937 3098198
4454.0747 -4218.9111 8222.0762 795445
4802.9609 -4499.9902 8769.8613 1453121
4855.1001 -4499.9902 8769.8613 1650500
4970.8047 -4558.2808 8883.4609 2440530
5185.5259 -4705.1899 9169.7666 3296098
5240.043 -4705.1899 9169.7666 3625316
4981.9497 -4427.3784 8628.3506 3296095
5033.2476 -4427.3784 8628.3506 2572374
5177.5698 -4508.3794 8786.21 2703960
5205.2954 -4487.2495 8745.0312 2703958
5257.2871 -4487.2495 8745.0312 3427938
5528.6836 -4672.6846 9106.418 4678260
5582.8237 -4672.6846 9106.418 4480881
5636.9639 -4672.6846 9106.418 5928327
5803.7441 -4765.1675 9286.6543 4677750
5469.8726 -4448.7207 8669.9434 2111055
6554.4307 -5281.041 10292.021 2045008
6866.2051 -5481.0752 10681.86 1716045
7079.7104 -5599.7173 10913.077 1716301
7651.4365 -5996.9668 11687.263 2439765
7858.7134 -6103.9927 11895.841 2242640
7562.709 -5821.6895 11345.671 3821923
7385.4951 -5635.0127 10981.863 4743533
7413.1421 -5606.543 10926.38 4348007
7246.0601 -5432.5742 10587.339 10265784
7105.1294 -5281.0396 10292.019 9276837
7106.5859 -5237.021 10206.232 4015981
6940.2964 -5071.1787 9883.0283 4085359
6483.3433 -4697.5195 9154.8184 3360358
6155.1235 -4422.5796 8618.998 2176085
6601.8472 -4704.3945 9168.2168 2307674
7045.8706 -4979.686 9704.7217 2833761
7103.5679 -4979.686 9704.7217 2767968
7161.2651 -4979.686 9704.7217 3426153
7298.8184 -5034.7705 9812.0742 4215667
7179.5503 -4913.2295 9575.208 4873597
7357.3184 -4995.2754 9735.1035 4216179
7638.0479 -5145.4004 10027.676 2373461
7740.8867 -5174.291 10083.98 13228251
7829.1587 -5193.0752 10120.589 13159126
7862.2056 -5175.2222 10085.795 12633037
7651.9146 -4998.6768 9741.7324 13158861
7550.5234 -4895.3892 9540.4385 13422546
7471.3101 -4807.9136 9369.9609 13487824
7453.8096 -4761.1514 9278.8281 13816018
6767.1001 -4290.7573 8362.0947 9933988
7261.7354 -4570.8071 8907.873 13685461
7369.5024 -4605.0547 8974.6172 13553873
6805.2964 -4221.9263 8227.9521 13554385
6367.6084 -3922.1968 7643.8208 13685456
6286.814 -3844.9888 7493.3535 13685201
6427.7334 -3903.5137 7607.4102 13684944
6472.9619 -3903.5137 7607.4102 13684435
6518.1899 -3903.5137 7607.4102 13749972
6552.2822 -3896.8906 7594.5029 11379400
7339.4834 -4335.1953 8448.6982 6512261
7338.7124 -4305.2759 8390.3896 7960477
7388.5957 -4305.2759 8390.3896 11516114
8586.0967 -4969.499 9684.8691 5066355
8687.0479 -4994.4346 9733.4648 6053511
8749.3242 -4996.9526 9738.3721 7107736
8076.3916 -4582.3018 8930.2744 13092055
7946.7412 -4479.2959 8729.5303 8221606
7864.3999 -4404.1196 8583.0225 10195899
7915.4282 -4404.1196 8583.0225 13422287
7632.853 -4219.6924 8223.5996 13619412
7921.1978 -4351.2275 8479.9434 13488342
9301.7578 -5077.2744 9894.9082 13684696
9394.9521 -5095.9146 9931.2354 11973578
9495.7285 -5118.4097 9975.0752 13487582
9413.8789 -5042.7964 9827.7158 6052492
9177.4463 -4885.8203 9521.791 4210295
9234.0566 -4885.8203 9521.791 4803968
0 0 0 0
0 0 0 0
0 0 0 0
0 0 0 0
0 0 0 0
0 0 0 0
0 0 0 0
0 0 0 0
-4039.2734 -2330.0918 4594.2593 1536
-3867.7678 -2246.3472 4429.1396 1280
-3806.7363 -2226.0566 4389.1323 1024
-3722.5312 -2191.8408 4321.6689 1024
-3784.4778 -2243.8022 4424.1216 1280
-3689.7571 -2202.9536 4343.5801 66305
-3663.9333 -2202.9536 4343.5801 2437421
-3644.0618 -2206.5576 4350.6865 256
-3764.9724 -2296.0696 4527.1772 513
-3769.4302 -2315.3403 4565.1738 770
-3711.5203 -2296.3037 4527.6392 770
-3791.0435 -2362.6399 4658.4346 770
-4066.4783 -2552.9456 5033.6621 769
-4328.3804 -2737.5149 5397.5786 132874
-4245.3672 -2705.0676 5333.6021 1449247
-3727.3213 -2392.8513 4718.0029 1842976
-4040.386 -2613.4995 5153.0562 260
-4231.9673 -2758.3376 5438.6353 517
-4199.6333 -2758.3376 5438.6353 519
-4152.0518 -2748.2456 5418.7363 263
-3659.4756 -2441.1501 4813.2339 263
-3630.8596 -2441.1501 4813.2339 263
-3657.4846 -2478.5857 4887.0459 263
-3639.7217 -2486.2991 4902.2544 263
-3629.0405 -2499.0137 4927.3242 263
-3677.2012 -2552.7844 5033.3442 7
-3690.8945 -2583.3135 5093.5386 7
-3706.1375 -2615.4412 5156.8848 7
-3690.335 -2626.0127 5177.729 262
-3788.7859 -2718.7483 5360.5762 10
-4046.8 -2928.5273 5774.1992 11
-4012.4709 -2928.5273 5774.1992 13
0 0 0 0
0 0 0 0
0 0 0 0
-4320.04 -3264.7363 6437.105 25
-4033.3481 -3075.3213 6063.6343 8753066
-4243.499 -3264.7363 6437.105 131593
-3959.7874 -3074.1873 6061.3979 329238
-3982.0032 -3119.8271 6151.3862 855838
-3642.5974 -2880.3628 5679.2329 328468
-3608.833 -2880.3628 5679.2329 198168
-3501.8596 -2821.3799 5562.936 5987974
-3431.7751 -2791.2766 5503.5811 7304092
-3380.5786 -2776.1038 5473.6646 14474462
-3331.9536 -2762.7686 5447.3716 8880287
-3321.7761 -2781.3643 5484.0366 1577517
-3381.1958 -2859.1807 5637.4683 1974328
-3328.0876 -2842.4478 5604.4756 271
-3272.4324 -2823.1792 5566.4834 462104
-3239.3384 -2823.1792 5566.4834 198156
-3296.8557 -2902.9648 5723.7979 131594
-3262.8259 -2902.9648 5723.7979 10
-3217.8228 -2893.0986 5704.3442 12
-3157.2375 -2868.8635 5656.5596 657944
-3013.2634 -2767.5181 5456.7363 6775437
-2890.0771 -2683.2673 5290.6182 12762333
-2890.2615 -2712.9651 5349.1738 12429244
-3390.0879 -3217.5342 6344.0361 131609
-3352.3708 -3217.5342 6344.0361 4276576
-2821.0554 -2738.3982 5399.3203 1711413
-3034.7568 -2979.7444 5875.1841 1053473
-3321.6274 -3299.3901 6505.4321 18
-3282.9507 -3299.3901 6505.4321 131608
-3227.8669 -3282.7043 6472.5327 197395
-3189.3862 -3282.7043 6472.5327 6643840
0 0 0 0
0 0 0 0
0 0 0 0
0 0 0 0
0 0 0 0
0 0 0 0
0 0 0 0
0 0 0 0
0 0 0 0
0 0 0 0
0 0 0 0
-2324.6689 -2797.7568 5516.3579 258
-2342.9363 -2860.0918 5639.2646 133898
-2097.4229 -2597.5569 5121.6226 259
0 0 0 0
0 0 0 0
0 0 0 0
0 0 0 0
0 0 0 0
0 0 0 0
0 0 0 0
-1139.5927 -1596.7815 3148.386 768
-1120.8746 -1596.7815 3148.386 1024
-1114.2566 -1614.3118 3182.9504 1024
-1064.5099 -1568.8843 3093.3809 1280
-1005.0924 -1507.3561 2972.0652 398862
-975.10138 -1488.5469 2934.979 2820
-940.8432 -1462.4196 2883.4636 594961
-926.60657 -1467.021 2892.5364 768
-1016.0825 -1639.1012 3231.8281 512
-963.99615 -1585.0509 3125.2568 512
-924.90131 -1550.6575 3057.4429 1281
-899.99139 -1539.1434 3034.7407 1024
-823.16028 -1436.5477 2832.4519 68610
-810.23535 -1443.5225 2846.2039 662289
-810.00574 -1473.8949 2906.0896 135945
-794.78735 -1477.7236 2913.6387 6152
-776.3457 -1475.5961 2909.4438 1058328
-747.92761 -1453.9775 2866.8184 794642
-749.48682 -1490.9857 2939.7876 201221
-740.54492 -1508.3721 2974.0686 1536
-714.53107 -1490.9857 2939.7876 2305
-690.94922 -1477.9293 2914.0442 512
-674.17242 -1479.1317 2916.415 512
-661.68591 -1490.0587 2937.96 768
-644.80548 -1491.4154 2940.635 768
-627.45361 -1491.7271 2941.2493 768
-616.28839 -1507.1863 2971.7305 768
-606.91425 -1528.0676 3012.9023 1024
-576.81134 -1496.4418 2950.5454 1024
-553.20972 -1480.2275 2918.5757 2821
-536.71967 -1482.6078 2923.2688 1538
-519.33997 -1482.6078 2923.2688 1024
-501.96036 -1482.6078 2923.2688 1024
-473.76663 -1449.5215 2858.0322 1024
-457.95026 -1453.2515 2865.3867 1024
-445.59503 -1468.6776 2895.8027 1024
-430.81531 -1477.0316 2912.2742 1024
-415.29004 -1483.4219 2924.874 768
-399.26324 -1488.501 2934.8887 1024
-385.17099 -1501.5863 2960.689 1024
-368.59283 -1505.7694 2968.9368 1024
-344.74292 -1479.1725 2916.4956 768
-317.70419 -1435.3521 2830.0942 2564
-300.87848 -1435.3521 2830.0942 661264
-292.85086 -1479.8098 2917.752 858130
-277.8689 -1492.5122 2942.7976 2307
-261.20718 -1497.2931 2952.2239 2051
-243.6554 -1497.2931 2952.2239 332043
-217.12228 -1437.8175 2834.9553 1536
-195.52148 -1403.7421 2767.7688 2048
-178.13045 -1396.4055 2753.3032 925457
-164.10077 -1416.6012 2793.123 3493423
-147.49487 -1416.6012 2793.123 7180394
-130.15384 -1408.6447 2777.4353 5273425
-112.781 -1397.9819 2756.4114 2378791
-93.993576 -1363.1779 2687.7881 2314024
-78.013924 -1363.1779 2687.7881 3367209
-63.103519 -1386.6741 2734.1157 5737526
-46.713249 -1382.6726 2726.2258 4487708
-30.22653 -1370.0472 2701.3323 5211939
-14.070718 -1360.7976 2683.095 3039007
1.8349836 -1327.4872 2617.4165 3762483
17.378633 -1326.1426 2614.7654 2511660
32.924141 -1326.1426 2614.7654 3892806
48.020645 -1313.8578 2590.5432 1391908
63.422146 -1313.8578 2590.5432 994070
78.517632 -1308.7571 2580.4861 2968119
94.259743 -1314.3402 2591.4944 925205
110.95558 -1329.7849 2621.9468 1536
130.79092 -1374.4159 2709.946 67843
143.0596 -1338.4636 2639.0586 133124
160.74582 -1355.2948 2672.2449 330249
176.63306 -1355.2948 2672.2449 1026
210.23561 -1480.0061 2918.1392 67076
230.29247 -1497.6146 2952.8579 67079
247.84802 -1497.6146 2952.8579 1285
264.17337 -1490.673 2939.1709 1541
293.8002 -1554.9929 3065.9912 1541
327.49756 -1632.0837 3217.9915 1797
346.62943 -1632.0837 3217.9915 2568
359.66553 -1604.8834 3164.3608 1796
371.73474 -1576.2872 3107.9775 1539
388.08136 -1567.6783 3091.0032 2567
389.51346 -1502.3237 2962.1428 2309
404.98758 -1494.4392 2946.5969 1794
427.07971 -1510.6171 2978.4951 1537
447.01181 -1518.1709 2993.3889 2052
483.08365 -1577.8622 3111.0825 2052
511.6601 -1609.5723 3173.6057 3077
541.1662 -1641.8473 3237.2427 3076
564.16736 -1652.8481 3258.9329 201996
581.85461 -1648.0668 3249.5059 334608
603.15942 -1653.5101 3260.2383 136973
627.46356 -1666.5809 3286.0103 268302
643.61932 -1657.8734 3268.8413 399119
673.15521 -1683.1313 3318.6426 69130
695.37585 -1689.1808 3330.5703 2823
715.177 -1689.1808 3330.5703 514
713.84845 -1640.6189 3234.8206 512
715.17474 -1600.5464 3155.8093 1285
724.29944 -1579.5294 3114.3701 594957
742.47986 -1578.8163 3112.9639 2563
765.01355 -1587.1696 3129.4338 3590
779.71265 -1579.2577 3113.8342 859928
783.88739 -1550.8907 3057.9028 860440
800.44617 -1547.7557 3051.7217 597267
821.18915 -1552.6711 3061.4133 462858
836.73291 -1547.7557 3051.7217 2968384
841.32184 -1523.2156 3003.3354 1060643
875.67542 -1552.4644 3061.0056 466447
873.38049 -1516.8717 2990.8274 1390123
946.56158 -1611.1693 3176.7546 1718575
965.44836 -1611.1693 3176.7546 2310714
975.67389 -1596.9928 3148.8025 1783856
966.86884 -1552.7867 3061.6414 1389095
984.50494 -1551.8943 3059.8816 2441780
986.20074 -1526.363 3009.5413 3560256
1029.1426 -1564.4415 3084.6211 7573368
1047.4816 -1564.4415 3084.6211 5928543
1064.7578 -1562.8816 3081.5454 4810320
1073.1515 -1548.5571 3053.3018 4678480
1091.3043 -1548.5571 3053.3018 3297085
1126.3677 -1572.1606 3099.8411 2902325
1159.5117 -1592.3685 3139.6848 2836280
1306.1482 -1765.3269 3480.708 3296835
1406.6382 -1871.4934 3690.0376 2770238
1587.1301 -2079.2053 4099.5845 2967873
1496.9178 -1931.364 3808.0847 2967620
1571.595 -1997.5029 3938.4917 2901314
1581.6171 -1980.7299 3905.4199 2901571
1604.5901 -1980.4269 3904.8223 1782578
1627.8053 -1980.4269 3904.8223 2242104
1652.3798 -1982.057 3908.0366 2044470
0 0 0 0
0 0 0 0
0 0 0 0
2566.5437 -2914.6768 5746.8901 1122860
3139.2551 -3518.2366 6936.9336 1517875
3225.6963 -3568.2356 7035.5166 1517364
3267.5247 -3568.2356 7035.5166 1846330
3443.947 -3713.3589 7321.6572 1583416
3434.5649 -3657.0205 7210.5747 925486
3487.7432 -3667.8625 7231.9517 1057073
3604.6494 -3744.6428 7383.3403 3031376
3818.4609 -3919.0339 7727.1885 2900561
3913.5876 -3968.9155 7825.5405 2900817
3978.6162 -3987.4602 7862.1055 1783106
4025.3589 -3987.4602 7862.1055 1388605
4254.876 -4166.436 8214.9932 4744560
4424.8022 -4283.6597 8446.124 4876403
4062.1797 -3888.4758 7666.937 4152938
4221.9985 -3996.6143 7880.1543 3558236
4906.3745 -4593.4839 9057.0068 795443
4862.1699 -4502.6831 8877.9736 1189946
4914.9521 -4502.6831 8877.9736 1716548
5131.0093 -4650.6729 9169.7666 2637396
5191.6436 -4656.1602 9180.585 2835802
5225.6245 -4637.8765 9144.5352 2704217
4981.9497 -4376.0806 8628.3506 1717322
5033.2476 -4376.0806 8628.3506 993343
5075.8389 -4368.5869 8613.5752 2901595
5060.2637 -4311.6812 8501.374 1848651
4980.2173 -4201.5107 8284.1504 2441302
5528.6836 -4618.5439 9106.418 3954798
5503.6436 -4553.04 8977.2637 2835802
5557.0161 -4553.04 8977.2637 1913929
5514.9175 -4475.562 8824.499 2044230
5469.8726 -4397.1753 8669.9434 2044490
6554.4307 -5219.8521 10292.021 2505043
6558.3413 -5174.6582 10202.912 1715784
7654.5586 -5984.2456 11799.182 1518407
7373.645 -5712.2808 11262.946 3097692
7751.1411 -5950.6831 11733.007 4084835
7562.709 -5754.2363 11345.671 4742761
7265.1782 -5478.9858 10802.958 5465713
7081.9414 -5293.9985 10438.216 5269363
7043.9404 -5219.8506 10292.019 3427678
6822.4624 -5012.1865 9882.5654 2834772
6881.5391 -5012.4209 9883.0283 6323342
6522.5938 -4710.748 9288.2168 5270652
6319.1777 -4525.5234 8923.0078 2308184
6238.8423 -4430.7935 8736.2285 1978706
6592.1987 -4643.0913 9154.8184 2571099
7105.8188 -4963.8662 9787.292 3755372
7225.1802 -5006.2524 9870.8652 3820902
7298.5879 -5016.3716 9890.8174 6124422
7357.3921 -5016.3716 9890.8174 6650769
7416.1958 -5016.3716 9890.8174 3623786
7536.8911 -5057.9067 9972.7119 3820656
7596.1816 -5057.9067 9972.7119 6185873
7697.6646 -5085.7827 10027.676 10528201
7800.8389 -5114.3389 10083.98 13488597
7727.8423 -5027.8408 9913.4316 13553619
7627.9141 -4925.2627 9711.1768 13684695
7550.5234 -4838.6685 9540.4385 10131118
7471.3101 -4752.2061 9369.9609 13421267
7453.8096 -4705.9863 9278.8281 13552846
7243.0278 -4539.3135 8950.1982 13488591
6816.8145 -4241.0425 8362.0947 13619409
6276.7192 -3876.7522 7643.8208 13553871
6322.1646 -3876.7522 7643.8208 13553871
6289.9282 -3829.4583 7550.5713 13553871
6286.814 -3800.439 7493.3535 13684944
6555.9385 -3935.241 7759.1445 13684433
6602.0688 -3935.241 7759.1445 13749969
7159.0269 -4237.6133 8355.334 13684437
7685.4844 -4517.8887 8907.9551 4077151
7738.4448 -4517.8887 8907.9551 4209252
7490.0903 -4343.1699 8563.4609 4144748
7941.1313 -4573.6201 9017.8408 1777487
8586.0967 -4911.9199 9684.8691 6974107
8687.0479 -4936.5664 9733.4648 2959965
8749.3242 -4939.0552 9738.3721 10333131
8076.3916 -4529.2085 8930.2744 11644364
7969.4106 -4440.0259 8754.4326 11119051
8016.5703 -4437.3203 8749.0977 6316673
8068.5864 -4437.3203 8749.0977 14079451
8120.6016 -4437.3203 8749.0977 13422806
7676.6855 -4168.0542 8218.1836 13224656
7866.1162 -4243.8945 8367.7188 13158609
8708.4531 -4668.8213 9205.5498 12632788
8763.1826 -4668.8213 9205.5498 9800635
9026.6377 -4779.335 9423.4502 4865918
9177.4463 -4829.2104 9521.791 4802685
9234.0566 -4829.2104 9521.791 5989513
0 0 0 0
0 0 0 0
0 0 0 0
0 0 0 0
0 0 0 0
0 0 0 0
0 0 0 0
0 0 0 0
-4025.2495 -2294.7827 4578.3086 1536
-3905.5508 -2241.7017 4472.4067 1792
-3806.7363 -2199.9619 4389.1323 1280
-3752.1108 -2183.3596 4356.0093 1024
-3758.9878 -2202.5637 4394.3232 1122070
-3766.0112 -2222.1233 4433.3462 768
-3669.9277 -2180.6917 4350.6865 513
-3638.1099 -2177.1296 4343.5801 527370
-3659.6821 -2205.6956 4400.5718 923926
-3764.5186 -2285.2175 4559.2251 1539
-4099.6909 -2506.7302 5001.1641 770
-4096.4043 -2523.019 5033.6621 1284
-4249.0991 -2636.3252 5259.7183 770
-4355.3784 -2722.2998 5431.2461 4
-4296.2905 -2705.4248 5397.5786 772
-3727.3213 -2364.8015 4718.0029 257
-4280.2603 -2736.2053 5458.9888 1844262
-4233.9844 -2727.303 5441.2275 257
-4184.2676 -2716.0295 5418.7363 517
-4015.3872 -2626.6318 5240.3789 516
-3659.4756 -2412.5342 4813.2339 516
-3639.887 -2418.5325 4825.2012 517
-3657.4846 -2449.5308 4887.0459 261
-3670.6802 -2478.054 4943.9521 262
-3656.6401 -2488.5022 4964.7974 263
-3747.0938 -2570.812 5129.0132 263
-3736.7966 -2584.782 5156.8848 263
-3721.1177 -2595.2297 5177.729 7
-3699.9292 -2601.9771 5191.1904 262
-3759.936 -2666.4187 5319.7578 9
-4046.8 -2894.198 5774.1992 11
-4062.4009 -2930.2126 5846.0518 12
-3978.1414 -2894.198 5774.1992 15
-3744.0625 -2747.6101 5481.7422 263701
-4334.5503 -3208.8762 6402.0117 19
-4379.3442 -3270.7578 6525.4712 263449
-3865.4453 -2912.7507 5811.2134 1710642
-3882.1843 -2951.7468 5889.0142 9408934
-3810.3643 -2923.5056 5832.6704 14
-3775.6875 -2923.5056 5832.6704 1908532
-3535.0225 -2762.531 5511.5107 1184810
-3534.9329 -2788.3066 5562.936 1973559
-3501.8596 -2788.3066 5562.936 328222
-3504.3591 -2816.9014 5619.9849 853289
-3427.979 -2782.0303 5550.4136 1114908
-3313.4155 -2715.1914 5417.064 7696540
-3309.3586 -2738.4846 5463.5361 5986172
-3430.054 -2866.4954 5718.9297 197435
-3396.0532 -2866.4954 5718.9297 6050954
-3308.8213 -2821.1099 5628.3813 132409
-3173.6624 -2733.5176 5453.626 4147059
-3171.2114 -2759.5994 5505.6621 2567751
-3224.9548 -2835.636 5657.3623 66068
-3217.8228 -2859.1846 5704.3442 791
-3254.4011 -2922.4873 5830.6392 3289407
-3108.031 -2821.095 5628.3516 4603233
0 0 0 0
-3177.1609 -2947.3062 5880.1548 4336479
-3313.9004 -3108.3552 6201.4629 1775664
-3167.2029 -3004.1799 5993.6235 20
-3020.7649 -2897.8833 5781.5518 3157832
-3178.0657 -3083.8765 6152.6255 277
-3311.2119 -3250.4893 6485.0337 2962250
-3272.6565 -3250.4893 6485.0337 3291988
-3244.2742 -3260.7136 6505.4321 2040644
-3237.125 -3292.7832 6569.4141 7176602
-2790.6257 -2873.2742 5732.4536 7638953
-2689.3359 -2803.2192 5592.6875 3095636
-2656.0857 -2803.2192 5592.6875 2072
-3262.6379 -3487.0227 6956.9409 264211
0 0 0 0
0 0 0 0
0 0 0 0
0 0 0 0
0 0 0 0
0 0 0 0
0 0 0 0
-2376.4634 -2826.5649 5639.2646 514
-2342.9363 -2826.5649 5639.2646 461065
0 0 0 0
0 0 0 0
0 0 0 0
0 0 0 0
0 0 0 0
0 0 0 0
0 0 0 0
-1158.3107 -1578.0634 3148.386 514
-1139.5927 -1578.0634 3148.386 770
-1120.8746 -1578.0634 3148.386 770
-1212.8119 -1736.4993 3464.4805 770
-1096.0848 -1596.4832 3185.135 770
-1062.7325 -1575.1169 3142.5073 2054
-979.2077 -1477.2927 2947.3389 1540
-957.65204 -1471.0977 2934.979 512
-1067.4926 -1670.2628 3332.3325 768
-1047.6809 -1670.2628 3332.3325 1026
-997.55536 -1621.0034 3234.0552 1540
-966.85779 -1601.9982 3196.1382 512
-899.99139 -1521.1011 3034.7407 512
-827.1568 -1426.601 2846.2039 1024
-799.11841 -1407.027 2807.1521 463371
-810.00574 -1456.6174 2906.0896 1122327
-793.64313 -1458.2987 2909.4438 200969
-777.46503 -1460.4012 2913.6387 464653
-759.04822 -1458.2987 2909.4438 3076
-762.43823 -1498.9707 2990.5884 69125
-744.65839 -1498.9707 2990.5884 595469
-717.354 -1479.3292 2951.4019 2049
-696.97992 -1473.3529 2939.4785 768
-679.03473 -1472.3356 2937.4487 768
-663.37775 -1476.3569 2945.4719 768
-646.33557 -1477.4302 2947.613 768
-631.79681 -1484.4451 2961.6084 768
-618.55957 -1495.0078 2982.6821 768
-602.99579 -1500.405 2993.4502 1024
-580.03229 -1487.1582 2967.0215 1024
-559.89209 -1480.5461 2953.8298 1024
-542.33069 -1480.5461 2953.8298 1024
-520.26599 -1467.8406 2928.481 770
-494.49707 -1443.4427 2879.8049 770
-479.27545 -1449.1865 2891.2644 768
-462.8114 -1451.4613 2895.8027 1024
-446.42032 -1454.1495 2901.166 768
-433.23065 -1467.9012 2928.6018 768
-417.06781 -1472.3086 2937.395 1024
-402.7731 -1483.9843 2960.689 1024
-386.50128 -1489.1094 2970.9143 1024
-373.28867 -1507.0765 3006.7605 1024
-352.70834 -1495.6095 2983.8826 1024
-327.41748 -1461.8955 2916.6199 68872
-310.12006 -1462.0968 2917.0215 529678
-297.60657 -1486.2123 2965.1343 858643
-279.97803 -1486.2123 2965.1343 858643
-263.96115 -1495.3424 2983.3496 661264
-245.26009 -1489.4867 2971.667 727056
-217.12228 -1420.9628 2834.9553 2817
-198.4774 -1408.2601 2809.6123 200454
-179.06633 -1387.287 2767.7688 3626303
-164.15138 -1400.4269 2793.9844 6325865
-147.01344 -1395.4255 2784.0061 7380337
-127.54169 -1364.1924 2721.6929 6591571
-109.97321 -1347.1984 2687.7881 5342764
-93.993576 -1347.1984 2687.7881 5934902
-78.013924 -1347.1984 2687.7881 4025138
-62.434341 -1355.8864 2705.1218 2840115
-46.815762 -1369.4631 2732.2085 2839607
-30.642803 -1372.6338 2738.5344 1786407
-14.427414 -1378.9381 2751.1121 1128733
1.9287132 -1378.9381 2751.1121 3562820
18.433105 -1390.1195 2773.4199 2838841
34.620739 -1378.1328 2749.5054 600855
50.967308 -1378.1328 2749.5054 599831
67.313889 -1378.1328 2749.5054 1914408
83.76725 -1379.8918 2753.0149 399117
103.87407 -1431.4219 2855.8223 2562
110.95558 -1314.1967 2621.9468 2305
126.54379 -1314.1967 2621.9468 133124
141.31911 -1306.6804 2606.9512 265479
0 0 0 0
173.23836 -1313.6655 2620.8872 133125
211.43317 -1470.9886 2934.7617 1283
229.3017 -1473.6915 2940.1541 1283
247.84802 -1480.059 2952.8579 770
264.17337 -1473.1987 2939.1709 199691
293.8002 -1536.7648 3065.9912 2055
326.13452 -1606.2388 3204.5984 1284
340.85254 -1586.0706 3164.3608 1026
353.25693 -1557.8096 3107.9775 1283
362.74625 -1520.142 3032.8271 1026
379.69601 -1515.8254 3024.2153 1539
387.46921 -1476.9209 2946.5969 3337
404.98758 -1476.9209 2946.5969 2822
425.45981 -1487.2467 2967.198 1795
443.10068 -1487.2467 2967.198 2822
471.40042 -1521.6532 3035.8423 68872
508.35776 -1580.4376 3153.1228 2052
532.32855 -1596.1029 3184.3762 2052
564.20575 -1633.584 3259.1548 3079
583.58234 -1633.584 3259.1548 3079
602.95892 -1633.584 3259.1548 2565
621.09113 -1630.3176 3252.6379 70413
643.1861 -1637.3363 3266.6409 400145
663.05347 -1638.4392 3268.8413 1517853
680.63428 -1633.9899 3259.9644 5729619
694.61658 -1621.387 3234.8206 7968095
696.41254 -1581.7842 3155.8093 7179091
703.37939 -1555.6959 3103.7607 6391114
709.33136 -1528.7543 3050.0095 3625538
727.46448 -1528.7543 3050.0095 1452318
