# .PCD v0.7 - Point Cloud Data file format
VERSION 0.7
FIELDS x y z rgb
SIZE 4 4 4 4
TYPE F F F U
COUNT 1 1 1 1
WIDTH 1404
HEIGHT 1
VIEWPOINT 0 0 0 1 0 0 0
POINTS 1404
DATA ascii
-3305.2527 -1128.8594 6707.6719 1056267
-3003.697 -1038.3962 6170.1406 1056523
-2765.396 -967.83392 5750.8604 332290
-2814.3206 -997.28674 5925.8687 2048
-2445.8066 -877.68683 5215.2075 396548
-2493.4602 -906.27649 5385.0869 329987
-2997.9072 -1103.7961 6558.7471 66560
-2748.9041 -1025.454 6093.2383 768
-2990.5525 -1130.4968 6717.4019 67329
-2681.6287 -1027.4374 6105.0234 396552
-2710.2681 -1052.6581 6254.8848 66818
-3068.0181 -1208.1841 7179.0186 199684
-2869.1216 -1145.7987 6808.3252 68098
-2828.644 -1145.7987 6808.3252 1253141
0 0 0 0
0 0 0 0
0 0 0 0
0 0 0 0
0 0 0 0
0 0 0 0
0 0 0 0
0 0 0 0
0 0 0 0
-1088.3867 -514.49628 3057.1321 199944
-1081.5251 -519.93524 3089.4507 512
-1073.9048 -525.19128 3120.6816 512
-1055.3514 -525.19128 3120.6816 68101
-1018.5797 -515.96271 3065.8457 67075
-959.57672 -494.93137 2940.8777 512
-942.09241 -494.93137 2940.8777 768
-859.52332 -460.09229 2733.864 512
0 0 0 0
0 0 0 0
0 0 0 0
0 0 0 0
-666.92755 -394.27701 2342.7905 533504
-659.77228 -398.36673 2367.0913 3301139
-650.24213 -401.1694 2383.7451 5867818
-629.74091 -397.17761 2360.0259 4421138
-609.3396 -393.06833 2335.6084 5539625
-599.74994 -395.90427 2352.4595 1655578
-585.76392 -395.90427 2352.4595 2707508
-572.46692 -396.38138 2355.2944 1061407
-563.8963 -400.23703 2378.2048 2311219
-549.75726 -400.23703 2378.2048 929053
-541.57825 -404.69067 2404.6685 1717799
-523.88776 -402.08572 2389.1897 1651749
-507.39694 -400.28198 2378.4719 333836
-493.82175 -400.74088 2381.1987 792594
-491.81165 -410.88907 2441.499 68611
-484.81207 -417.35919 2479.9446 69124
-475.01514 -421.7515 2506.0437 68355
-465.80722 -426.96814 2537.041 1121043
-450.72382 -426.96814 2537.041 134403
-441.35495 -432.56894 2570.3208 595212
-427.9939 -434.51846 2581.9048 1024
-417.55692 -439.69208 2612.6462 1280
-394.80225 -431.79367 2565.7141 1582107
-386.86877 -440.1217 2615.1992 199943
-371.32068 -440.1217 2615.1992 1025
-364.31207 -450.68582 2677.9709 768
-348.39078 -450.68582 2677.9709 1024
-334.82446 -453.87811 2696.9397 768
-321.07477 -457.13049 2716.2654 512
-305.8168 -458.46625 2724.2021 512
-289.62067 -458.46625 2724.2021 512
-272.90286 -457.59149 2719.0046 1025
-256.24557 -456.71451 2713.7935 1055507
-240.11131 -456.71451 2713.7935 1187092
-223.97705 -456.71451 2713.7935 463370
-211.97511 -465.79486 2767.7488 1280
-194.42018 -463.17453 2752.179 134404
-168.40936 -438.07672 2603.0479 396806
-151.28241 -433.34708 2574.9443 264964
-142.98401 -455.68909 2707.7004 1975838
-134.43326 -482.79385 2868.7566 768
-116.34709 -478.55472 2843.5679 1280
-97.880516 -471.04367 2798.9373 463114
-79.265503 -459.59488 2730.9084 331783
-61.624748 -449.35181 2670.0444 2816
-44.247044 -434.58429 2582.2959 1792
-28.508947 -428.78433 2547.8328 6144
-13.148293 -421.94629 2507.2012 1654291
1.709681 -410.41547 2438.6851 3236380
16.270275 -411.98367 2448.0034 3039768
30.723804 -410.64001 2440.0193 3237405
43.990818 -399.38605 2373.1484 2578968
60.574547 -416.39749 2474.2302 2052376
74.269676 -410.7843 2440.8767 1392923
90.250893 -417.58371 2481.2786 2312493
105.23123 -418.49219 2486.6768 992276
120.01521 -418.49219 2486.6768 1125402
134.54271 -417.69589 2481.9453 136963
148.39088 -415.15646 2466.856 70148
164.05441 -417.69589 2481.9453 1024
177.70647 -415.11746 2466.624 1280
190.13017 -410.28143 2437.8887 768
203.12997 -407.28564 2420.0876 1912354
218.57384 -409.26251 2431.8342 2374956
231.90614 -407.28564 2420.0876 991255
244.52791 -404.36472 2402.7314 2112297
258.81281 -404.36472 2402.7314 663568
273.09772 -404.36472 2402.7314 465163
286.03214 -402.46451 2391.4404 3587
300.24991 -402.46451 2391.4404 1793
320.40594 -410.06448 2436.5994 1024
337.16095 -412.84241 2453.106 1536
351.28479 -412.30188 2449.894 1024
366.17944 -412.67307 2452.0996 1024
380.75787 -412.67307 2452.0996 1024
398.13345 -415.5929 2469.4492 1024
413.28384 -416.06488 2472.2537 1280
427.5903 -415.68402 2469.9907 2048
442.1033 -415.52255 2469.0312 1536
454.46826 -413.41748 2456.5229 2818
469.56516 -413.85126 2459.1003 1537
488.06161 -417.16458 2478.7881 1280
501.89426 -416.41415 2474.3293 69123
504.27191 -406.47311 2415.2595 532233
518.63129 -406.47311 2415.2595 1453590
537.53723 -409.9404 2435.8623 1388565
553.37823 -410.94971 2441.8596 730637
566.50098 -409.9404 2435.8623 665358
580.69891 -409.74008 2434.6719 335880
586.68195 -403.89401 2399.9346 930320
606.53552 -407.64786 2422.2397 1721108
622.64313 -408.76831 2428.8975 3433493
632.16547 -405.6127 2410.147 5276707
650.84924 -408.34494 2426.3818 1920770
681.9317 -418.56891 2487.1328 2512902
719.13165 -432.03418 2567.1431 3631384
742.58472 -436.85269 2595.7747 5143598
777.88965 -448.3053 2663.8259 661760
827.40143 -467.32501 2776.8411 2816
984.68823 -545.28223 3240.0623 3844
1001.6999 -544.05951 3232.7964 1280
1004.3671 -535.23834 3180.3816 1280
1031.8717 -539.7348 3207.0994 1024
1053.6151 -541.10931 3215.2666 768
1083.0122 -546.29541 3246.0825 68100
1127.5682 -558.81268 3320.46 1538
1163.1774 -566.54144 3366.3843 529421
1152.0735 -551.64136 3277.8481 2050
1171.5612 -551.64136 3277.8481 1280
1190.156 -551.22784 3275.3909 2307
1221.0092 -556.4137 3306.2053 1280
1249.4935 -560.37292 3329.731 1537
1334.6628 -589.23425 3501.2246 1792
1393.149 -605.6098 3598.5278 200198
1427.3956 -611.1123 3631.2236 2703410
1462.9829 -617.01624 3666.3047 71432
1484.78 -617.01624 3666.3047 795922
1511.6404 -619.08978 3678.626 1322777
1575.0479 -635.85858 3778.2659 796690
1597.5106 -635.85858 3778.2659 665871
1608.5482 -631.37408 3751.6189 2245930
1747.0912 -676.37506 4019.0144 5208396
1842.2518 -703.5932 4180.7441 467462
1941.3656 -731.57623 4347.0195 1850392
1967.21 -731.57623 4347.0195 2047769
1897.6322 -696.55042 4138.896 1058569
1805.0593 -654.08862 3886.5889 2638625
1803.7203 -645.34235 3834.6184 1024
1963.9384 -693.89539 4123.1201 768
1947.1366 -679.47803 4037.4524 1024
2050.9797 -706.99976 4200.9858 768
2240.3054 -762.97168 4533.5708 512
2453.8652 -825.76794 4906.7056 264451
2616.2354 -870.06482 5169.9175 264451
2799.4487 -920.18427 5467.7266 198914
4076.0476 -1324.4257 7869.7251 461062
4235.1211 -1360.4965 8084.0576 526855
4169.623 -1324.4257 7869.7251 461062
3799.377 -1193.4303 7091.3521 329476
4009.2166 -1245.5225 7400.8828 263685
4288.8931 -1317.9438 7831.2104 197892
4182.4961 -1271.4465 7554.9238 263428
4235.8618 -1273.9879 7570.0244 256
4375.8267 -1302.2477 7737.9438 461064
4441.9053 -1308.1597 7773.0728 198149
4307.4849 -1255.5101 7460.23 513
4509.4385 -1300.9779 7730.3989 1283
4555.3975 -1300.9779 7730.3989 396811
4891.6372 -1383.0511 8218.0771 594960
4955.6958 -1387.3063 8243.3613 923669
5617.4702 -1557.165 9252.6602 2436138
5790.7373 -1589.6281 9445.5557 133126
6149.4849 -1671.8953 9934.3867 330249
6214.3755 -1673.4647 9943.7119 592650
6273.4932 -1673.4647 9943.7119 526855
6525.7773 -1724.5109 10247.028 1053199
6586.6987 -1724.5109 10247.028 790027
6771.542 -1756.6582 10438.048 724234
6900.2207 -1773.7844 10539.811 987406
6853.5234 -1745.9252 10374.271 987406
6962.7476 -1757.9294 10445.601 987663
7147.1221 -1788.5276 10627.414 724492
7385.3608 -1831.9502 10885.432 1316886
8091.9229 -1989.778 11823.243 256
8310.5352 -2025.9352 12038.089 258
7873.5781 -1903.0256 11307.761 258
7661.0063 -1835.9711 10909.323 258
7649.3633 -1817.7911 10801.299 258
7695.6509 -1813.5659 10776.192 514
7777.7969 -1817.7911 10801.299 768
7856.1719 -1821.0734 10820.801 68103
7775.2402 -1787.6742 10622.344 660753
7837.1357 -1787.3873 10620.64 1796
7900.2783 -1787.3873 10620.64 134665
7859.5063 -1764.0637 10482.051 199945
7658.813 -1705.4952 10134.037 199945
7811.814 -1725.9883 10255.807 266252
7987.9668 -1751.2395 10405.85 133382
8049.8325 -1751.2395 10405.85 529679
7957.6333 -1717.9783 10208.212 3075
7670.0205 -1643.3521 9764.7832 465677
7728.0747 -1643.3521 9764.7832 1978914
7754.1421 -1636.6008 9724.667 3954238
8317.4922 -1742.51 10353.979 3296818
8449.3916 -1757.1383 10440.9 4020286
8415.6816 -1737.3641 10323.402 3822136
8409.2188 -1723.4609 10240.789 3426103
8528.9912 -1735.4432 10311.988 1450523
7902.7681 -1596.5458 9486.6602 2239528
8766.6338 -1758.5167 10449.091 1581602
11112.313 -2213.3569 13151.747 2041901
13422.775 -2654.8752 15775.244 4542810
13827.525 -2715.9534 16138.171 1844785
13925.265 -2716.3032 16140.249 2043712
14022.731 -2716.5955 16141.985 5725557
14120.665 -2716.9734 16144.231 5135476
14215.857 -2716.8225 16143.335 6058125
14309.026 -2716.2896 16140.168 5992077
14404.078 -2716.1187 16139.152 6251391
14500.316 -2716.1726 16139.473 2697794
14599.915 -2716.8506 16143.502 2633287
14695.897 -2716.8516 16143.507 2501699
14791.87 -2716.8506 16143.502 3620689
14888.093 -2716.8955 16143.768 2434357
14981.496 -2716.4285 16140.993 1315873
15076.28 -2716.2161 16139.731 1447456
15172.761 -2716.3101 16140.29 328712
9277.8438 -1650.5314 9807.4424 1514016
8039.5161 -1421.3002 8445.3525 395790
9361.2246 -1644.6921 9772.7461 1251097
9194.2861 -1605.3983 9539.2627 2237734
8506 -1476.1128 8771.0488 1316888
0 0 0 0
0 0 0 0
0 0 0 0
0 0 0 0
0 0 0 0
0 0 0 0
0 0 0 0
0 0 0 0
0 0 0 0
0 0 0 0
0 0 0 0
0 0 0 0
-1804.5842 -342.48889 2109.5911 6039334
-1848.6281 -353.30338 2176.2039 6170151
-1826.3767 -351.51093 2165.1631 6432550
-1828.0845 -354.33701 2182.5706 6234914
-1830.4598 -357.33386 2201.0298 5840156
-1832.4119 -360.29059 2219.2422 6234914
-1845.1187 -365.42014 2250.8381 6366500
-1842.6588 -367.59903 2264.259 6169378
-1834.8123 -368.72748 2271.21 6367527
-1836.8085 -371.8653 2290.5376 6367528
-1823.1906 -371.8653 2290.5376 6170664
-1819.0452 -373.81192 2302.5278 6368043
-1877.2144 -388.69067 2394.175 5710629
-1867.3705 -389.60663 2399.8169 5381407
-1851.6019 -389.29105 2397.873 4986906
-1838.8353 -389.60663 2399.8169 5908522
-1848.2263 -394.65854 2430.9346 5973804
-1840.6392 -396.13608 2440.0356 5711146
-1829.0404 -396.76688 2443.9211 5580332
-1828.807 -399.89304 2463.1768 5581362
-1839.074 -405.38409 2496.9998 4923433
-1823.1833 -405.15186 2495.5691 4660262
-1815.1833 -406.68359 2505.0042 5911099
-1830.0925 -413.41589 2546.4722 5845306
-1814.953 -413.41589 2546.4722 6174527
-1799.7664 -413.40503 2546.4053 6700358
-1791.9811 -415.10852 2556.8982 6174014
-1821.9614 -425.66437 2621.9177 5451062
-1770.2679 -417.15625 2569.5112 7293524
-1768.5784 -420.3858 2589.4041 7227732
-1749.7084 -419.55252 2584.2712 7031122
-1770.015 -428.18158 2637.4229 6834513
-1774.1327 -433.01367 2667.1865 6244172
-1729.741 -425.98645 2623.9016 5653833
0 0 0 0
0 0 0 0
0 0 0 0
-3411.7805 -871.67023 5369.1309 0
-3489.79 -900.02148 5543.7627 256
-3456.8308 -900.02148 5543.7627 257
-3423.8716 -900.02148 5543.7627 1317401
-3790.5608 -1006.0969 6197.1436 1448473
-3737.8323 -1001.8392 6170.9185 2897200
-3701.1443 -1001.8392 6170.9185 594699
-3697.5979 -1010.8998 6226.728 989713
-3868.0181 -1068.1862 6579.5884 529672
-4025.3042 -1122.9789 6917.0884 1780762
-3815.0605 -1075.3109 6623.4736 2109727
-3887.9404 -1107.2819 6820.4019 529673
-3746.144 -1078.1428 6640.9175 1792
-3806.842 -1107.2819 6820.4019 1280
-3839.343 -1128.7584 6952.689 512
-3570.74 -1061.2152 6536.6499 768
-3531.8777 -1061.2152 6536.6499 1024
-3552.6667 -1079.3378 6648.2778 768
-3720.9509 -1143.183 7041.5381 67328
-3729.2434 -1158.7678 7137.5342 2048
-3683.8445 -1157.8363 7131.7959 68097
-3595.219 -1143.1384 7041.2637 68864
-3553.3569 -1143.1384 7041.2637 1792
-3533.4231 -1150.2772 7085.2354 1536
-3405.75 -1122.0912 6911.6211 768
-3281.4443 -1094.3398 6740.6841 68352
-3088.863 -1042.8512 6423.5356 990475
-3050.6731 -1042.8512 6423.5356 1056268
-2982.6694 -1032.5303 6359.9629 727304
-2493.4602 -874.26068 5385.0869 331267
-2461.4443 -874.26068 5385.0869 1792
-2958.9138 -1064.8026 6558.7471 1280
-3108.6804 -1133.6376 6982.7422 768
-3067.1663 -1133.6376 6982.7422 66561
-3110.6992 -1165.5028 7179.0186 66560
-3083.4509 -1171.3656 7215.1309 256
-3025.3369 -1165.5028 7179.0186 512
-2828.644 -1105.3213 6808.3252 512
0 0 0 0
0 0 0 0
0 0 0 0
0 0 0 0
0 0 0 0
0 0 0 0
0 0 0 0
0 0 0 0
0 0 0 0
0 0 0 0
-1083.6019 -502.53079 3095.3833 331014
-1065.3309 -502.59302 3095.7666 1024
-1043.2927 -500.84891 3085.0237 1282
-999.45691 -488.39087 3008.2874 769
-962.32294 -478.81339 2949.2939 1026
-942.09241 -477.44705 2940.8777 512
-859.52332 -443.83868 2733.864 512
0 0 0 0
0 0 0 0
0 0 0 0
0 0 0 0
-666.0119 -379.82626 2339.574 3161138
-674.92334 -393.11862 2421.4492 332551
-660.62762 -393.17841 2421.8176 70656
-646.13092 -393.11862 2421.4492 926731
-620.18878 -385.93372 2377.1934 1850913
-599.74994 -381.91821 2352.4595 2050348
-582.54071 -379.81674 2339.5151 2970683
-572.46692 -382.37848 2355.2944 1391144
-561.20294 -384.25381 2366.8457 1784875
-547.13135 -384.25381 2366.8457 468244
-538.09216 -387.88132 2389.1897 1849642
-523.88776 -387.88132 2389.1897 1846819
-507.39694 -386.1413 2378.4719 266761
-489.60834 -383.28558 2360.8818 265991
-494.20511 -398.30267 2453.3809 68868
-484.81207 -402.61523 2479.9446 2048
-476.42798 -408.0625 2513.4973 1121555
-465.965 -412.02429 2537.9004 2305
-450.72382 -411.88474 2537.041 134917
-442.54984 -418.41739 2577.2795 134918
-427.9939 -419.1683 2581.9048 1280
-412.64374 -419.1683 2581.9048 1280
-393.11017 -414.75452 2554.7175 1056020
-384.84027 -422.34741 2601.4868 2306344
-369.37372 -422.34741 2601.4868 1792
-359.40479 -428.9082 2641.8987 769
-343.69797 -428.9082 2641.8987 768
-332.03741 -434.19946 2674.4905 768
-319.46738 -438.77383 2702.6667 67844
-307.34174 -444.47537 2737.7859 512
-291.37125 -444.94333 2740.6682 768
-271.65195 -439.40289 2706.5415 2306
-250.14153 -430.08514 2649.1479 726542
-240.11131 -440.58023 2713.7935 67587
-217.92818 -428.68164 2640.5029 791310
-212.97745 -451.46457 2780.8364 2304
-196.44461 -451.46457 2780.8364 68354
-166.59116 -418.0383 2574.9443 200197
0 0 0 0
0 0 0 0
0 0 0 0
-112.31081 -445.63354 2744.9197 512
-96.679619 -448.82809 2764.5969 2048
-79.219688 -443.10263 2729.3301 199683
-60.673111 -426.78366 2628.8123 727309
-44.62328 -422.7966 2604.2534 2816
-28.669846 -415.97119 2562.2119 1280
-13.320586 -412.37411 2540.0552 2048
1.7168497 -397.57687 2448.9104 4352
16.276304 -397.57687 2448.9104 1720079
30.847784 -397.73193 2449.8655 669186
44.089966 -386.14539 2378.4971 1128712
58.680122 -389.12503 2396.8503 733960
73.05336 -389.7829 2400.9026 3328
89.459625 -399.30005 2459.5242 2574379
104.82854 -402.16333 2477.1611 535309
119.55596 -402.16333 2477.1611 336899
134.28337 -402.16333 2477.1611 2573856
147.48515 -398.04587 2451.7991 2375708
162.06178 -398.04587 2451.7991 1792
177.70647 -400.45267 2466.624 1792
192.37123 -400.45267 2466.624 201223
203.12997 -392.89758 2420.0876 2180137
220.07117 -397.50916 2448.4932 2643494
231.89763 -392.88309 2419.9985 2512669
243.7973 -388.91437 2395.5527 2841628
256.13675 -386.04651 2377.8879 1656589
270.27396 -386.04651 2377.8879 2444310
284.41116 -386.04651 2377.8879 1059340
299.68457 -387.51569 2386.9375 135426
319.07727 -393.93777 2426.4949 1024
334.89224 -395.57819 2436.5994 1024
350.37744 -396.70923 2443.5662 1024
366.17944 -398.09464 2452.0996 1024
380.75787 -398.09464 2452.0996 1024
398.13345 -400.91135 2469.4492 1024
414.61511 -402.65948 2480.2173 1024
430.16754 -403.4162 2484.8782 1024
442.35379 -401.07056 2470.4302 1280
454.9451 -399.2312 2459.1003 1280
469.073 -398.81274 2456.5229 1792
479.03629 -394.98572 2432.95 1280
489.91254 -392.11374 2415.2595 1536
504.27191 -392.11374 2415.2595 71681
518.63129 -392.11374 2415.2595 3032619
534.90015 -393.51843 2423.9121 334597
555.33917 -397.83698 2450.5125 5376
569.90814 -397.83698 2450.5125 4352
580.69891 -395.26529 2434.6719 467721
592.13464 -393.24695 2422.2397 2707222
606.53552 -393.24695 2422.2397 3300880
617.177 -390.86606 2407.5745 3498005
632.16547 -391.28372 2410.147 1259788
659.44806 -399.12378 2458.4385 6400
690.74475 -409.00058 2519.2756 929806
727.1521 -421.4201 2595.7747 1389077
749.53131 -425.36227 2620.0571 598538
810.89233 -450.81592 2776.8411 1792
890.93506 -485.43271 2990.0664 1280
984.68823 -526.01917 3240.0623 1024
1010.0704 -529.22534 3259.8105 2819
1020.9197 -524.8396 3232.7964 768
1040.1396 -524.8396 3232.7964 1536
1069.1066 -529.66858 3262.5413 1537
1094.2786 -532.47882 3279.8511 1280
1127.5682 -539.07159 3320.46 2819
1163.1774 -546.5274 3366.3843 398091
1156.1322 -534.02844 3289.396 661262
1190.5309 -540.7702 3330.9226 530446
1199.092 -535.74731 3299.9834 201481
1224.7151 -538.38654 3316.24 398860
1313.8472 -568.41852 3501.2246 69895
1355.0555 -577.10352 3554.7207 3331
1386.5881 -581.46417 3581.5808 3587
1414.5432 -584.21552 3598.5278 1058330
1448.9843 -589.52362 3631.2236 136967
1489.7699 -597.2193 3678.626 1388059
1519.9961 -600.52051 3698.96 1125142
1581.3253 -615.84045 3793.3245 1586205
1613.828 -619.66107 3816.8579 1323799
1640.1324 -621.02881 3825.2827 2969395
1762.125 -658.09546 4053.5979 1324309
1883.8612 -694.0675 4275.1709 3167025
1941.3656 -705.73206 4347.0195 3628596
1984.0007 -711.75574 4384.123 2247452
2018.5986 -714.77722 4402.7344 4023085
2024.4126 -707.65961 4358.8926 2178074
2023.7926 -698.50122 4302.481 266242
2052.9607 -699.72443 4310.0151 135425
2074.9517 -698.50122 4302.481 1121297
2240.8989 -745.17859 4589.9941 0
2282.0605 -749.73627 4618.0679 256
2370.0652 -769.39221 4739.1401 256
2398.2405 -769.39221 4739.1401 66561
2422.1021 -768.02417 4730.7139 527369
3249.0835 -1018.4258 6273.085 131841
3908.9246 -1211.3485 7461.4097 66305
3953.2849 -1211.3485 7461.4097 461062
3830.4976 -1160.7001 7149.4365 790027
3873.0029 -1160.7001 7149.4365 395271
4137.5801 -1226.5304 7554.9238 526857
4157.5508 -1219.2151 7509.8643 263685
4235.8618 -1228.9819 7570.0244 329221
4280.8682 -1228.9819 7570.0244 1447959
4421.8311 -1256.2434 7737.9438 658700
4307.4849 -1211.1571 7460.23 66820
4660.9375 -1297.1821 7990.1094 461577
4625.2178 -1274.2542 7848.8823 67077
4891.6372 -1334.1924 8218.0771 198918
5203.2227 -1405.1425 8655.1006 1120277
5824.5186 -1557.5217 9593.6943 1251863
5790.7373 -1533.4716 9445.5557 1711645
6112.8276 -1603.2186 9875.168 263429
6171.5386 -1603.2186 9875.168 790029
6252.1543 -1608.8553 9909.8887 526855
6520.2588 -1662.1827 10238.363 329476
6581.1289 -1662.1827 10238.363 461062
6701.0488 -1676.9601 10329.386 921613
6791.8457 -1684.2472 10374.271 527625
6840.2866 -1680.9941 10354.234 988175
6996.4497 -1704.0359 10496.161 396293
7320.6436 -1767.2333 10885.432 2633510
7878.7915 -1885.3059 11612.71 3357232
7947.8325 -1885.3059 11612.71 593416
8369.0088 -1968.1168 12122.791 791053
8473.792 -1975.743 12169.767 1
8521.4697 -1970.0388 12134.63 258
7676.3726 -1759.7661 10839.438 258
7695.6509 -1749.4985 10776.192 512
7658.085 -1726.5842 10635.051 769
7732.1191 -1729.0006 10649.935 769
7775.2402 -1724.5215 10622.344 1025
7837.1357 -1724.2448 10620.64 1026
7900.2783 -1724.2448 10620.64 768
7860.7554 -1702.0156 10483.718 1024
7768.1973 -1668.7432 10278.773 768
7811.814 -1665.0145 10255.807 858646
7890.418 -1668.7432 10278.773 462861
7843.3135 -1646.0328 10138.887 924693
7839.4292 -1632.67 10056.577 69637
7744.5635 -1600.7048 9859.6846 1189656
7803.1821 -1600.7048 9859.6846 1453593
7987.0884 -1626.2142 10016.812 3691066
8225.0547 -1662.2712 10238.908 3428659
8449.3916 -1695.0642 10440.9 3361842
8359.585 -1664.8173 10254.591 2966316
8420.5518 -1664.8173 10254.591 1188374
8528.9912 -1674.1356 10311.988 1582107
7902.7681 -1540.1449 9486.6602 2963249
7651.5674 -1480.6222 9120.0254 3226170
13634.733 -2619.8345 16137.104 3621187
13731.58 -2620.0076 16138.171 3819087
13827.775 -2620.0547 16138.462 2305592
13925.271 -2620.3459 16140.255 2306881
14021.229 -2620.3459 16140.255 4212572
14119.484 -2620.7722 16142.882 4741228
14214.313 -2620.5613 16141.581 3820641
14309.365 -2620.3938 16140.551 5201784
14404.984 -2620.3318 16140.168 5462383
14500.941 -2620.3318 16140.168 3225678
14599.92 -2620.8738 16143.507 2502469
14696.718 -2621.0203 16144.408 1844281
14792.696 -2621.0195 16144.404 4015448
14888.51 -2620.9895 16144.22 1842990
14982.162 -2620.582 16141.71 1448230
15076.803 -2620.3516 16140.29 1776678
15173.667 -2620.5081 16141.254 394765
15271.034 -2620.7488 16142.736 1382174
11483.762 -1958.4852 12063.465 724498
9746.1855 -1651.8358 10174.63 1448223
9695.9346 -1633.1825 10059.733 1843235
9388.7041 -1571.7374 9681.2578 987926
0 0 0 0
0 0 0 0
0 0 0 0
0 0 0 0
0 0 0 0
0 0 0 0
0 0 0 0
0 0 0 0
0 0 0 0
0 0 0 0
0 0 0 0
0 0 0 0
-1804.5842 -329.94681 2109.5911 6236200
-1836.1208 -338.06247 2161.4805 6301735
-1811.005 -335.78827 2146.9399 6235942
-1806.3573 -337.30389 2156.6304 6235427
-1820.8024 -342.43185 2189.4172 6300450
-1817.7993 -344.32867 2201.5449 6169120
-1834.3872 -349.99081 2237.7471 6366497
-1831.9584 -352.0809 2251.1106 6366498
-1829.197 -354.13736 2264.259 6301220
-1834.2592 -357.75021 2287.3586 6301220
-1823.1906 -358.24744 2290.5376 6170149
-1863.6554 -368.95435 2358.9949 5841185
-1877.2144 -374.45663 2394.175 5841699
-1865.858 -375.03503 2397.873 5512993
-1851.6019 -375.03503 2397.873 5381663
-1836.2701 -374.81546 2396.4692 5118750
-1845.7434 -379.69519 2427.6689 5974573
-1843.2263 -382.1658 2443.4653 5645865
-1839.4314 -384.40863 2457.8054 5646123
-1845.1476 -388.69098 2485.1855 5778226
-1834.3889 -389.54385 2490.6387 5844277
-1823.1833 -390.315 2495.5691 3081485
-1814.4735 -391.63745 2504.0244 6239550
-1830.2196 -398.30405 2546.6489 6108477
-1791.5936 -393.15039 2513.6978 6305856
-1799.7664 -398.26593 2546.4053 6569029
-1795.3473 -400.65829 2561.7014 6372163
-1782.8966 -401.28384 2565.7009 3937823
-1768.5161 -401.48209 2566.9685 7556696
-1765.0726 -404.18829 2584.2712 7162452
-1739.715 -401.87976 2569.5112 7097429
-1760.9407 -410.38663 2623.9016 6768720
-1745.3408 -410.38663 2623.9016 6374989
-1682.8807 -399.26886 2552.8176 6047053
0 0 0 0
0 0 0 0
0 0 0 0
-3358.7449 -826.6955 5285.6685 0
-3489.79 -867.06226 5543.7627 0
-3456.8308 -867.06226 5543.7627 256
-3423.8716 -867.06226 5543.7627 1120018
-3575.7883 -914.33539 5846.0146 1975585
-3629.4348 -937.16193 5991.9614 2700076
-3701.1443 -965.15137 6170.9185 1713182
-3697.5979 -973.88025 6226.728 857616
-3868.0181 -1029.0687 6579.5884 2304
-3762.6035 -1011.2504 6465.6631 265990
-3686.7114 -1001.0807 6400.6411 792333
-3775.6824 -1035.9325 6623.4736 1280
-3758.813 -1042.1733 6663.376 768
-3806.842 -1066.7327 6820.4019 2305
-3720.2798 -1053.7003 6737.0767 265220
-3570.74 -1022.353 6536.6499 1536
-3531.8777 -1022.353 6536.6499 768
-3500.5049 -1024.545 6550.665 1024
-3692.1829 -1092.8044 6987.0977 1024
-3650.6428 -1092.8044 6987.0977 768
-3683.8445 -1115.4358 7131.7959 512
-3595.219 -1101.2762 7041.2637 1024
-3626.1438 -1123.8347 7185.4971 1024
-3583.4241 -1123.8347 7185.4971 768
-3758.2148 -1192.8735 7626.9126 768
-3543.0251 -1138.3054 7278.019 1024
-3306.7749 -1075.538 6876.7007 1024
-3124.5083 -1028.9773 6579.0039 1280
-2982.6694 -994.71857 6359.9629 990475
-2783.7319 -940.29321 6011.9819 727048
-2461.4443 -842.24481 5385.0869 67584
-2184.4294 -757.30743 4842.02 1792
-3108.6804 -1092.1233 6982.7422 1024
-3099.5923 -1103.6691 7056.5635 768
-3126.3469 -1128.4696 7215.1309 2560
-3083.4509 -1128.4696 7215.1309 3227683
0 0 0 0
0 0 0 0
0 0 0 0
0 0 0 0
0 0 0 0
0 0 0 0
0 0 0 0
0 0 0 0
0 0 0 0
0 0 0 0
0 0 0 0
0 0 0 0
0 0 0 0
-1051.3029 -477.81216 3055.0024 512
-1009.9689 -467.09586 2986.4851 1794
-990.0672 -466.08548 2980.0251 2051
-959.57672 -459.96268 2940.8777 199174
-884.2666 -431.73013 2760.3662 67076
0 0 0 0
0 0 0 0
0 0 0 0
0 0 0 0
0 0 0 0
-710.24554 -390.21951 2494.9585 1024
-706.7392 -396.57544 2535.5964 1024
-691.08807 -396.24496 2533.4836 1280
-646.30695 -378.82559 2422.1089 1024
-627.83325 -376.38348 2406.4946 1321752
-606.05566 -371.80066 2377.1934 2902322
-590.78967 -371.08902 2372.6433 1456415
-577.08923 -371.35001 2374.312 930074
-562.97327 -371.35001 2374.312 1719848
-550.63702 -372.55417 2382.011 1916715
-537.58636 -373.32568 2386.9441 3100477
-521.17975 -371.74542 2376.8401 663057
-509.68332 -373.67694 2389.1897 728083
-492.43997 -371.38504 2374.5359 3844
-485.79376 -377.18579 2411.6245 68610
-484.81207 -387.87128 2479.9446 68867
-478.17776 -394.56281 2522.7285 2832687
-470.78976 -401.04578 2564.1787 3330
-451.77737 -397.72891 2542.9714 2818
-442.54984 -403.09479 2577.2795 3075
-423.12503 -399.22433 2552.533 1536
-407.94952 -399.22433 2552.533 1536
-392.28522 -398.72751 2549.3564 792847
-379.54837 -401.28589 2565.7141 924178
-364.29449 -401.28589 2565.7141 133635
-359.40479 -413.20139 2641.8987 1024
-343.69797 -413.20139 2641.8987 1024
-331.34521 -417.42685 2668.915 768
-318.46063 -421.37366 2694.1497 768
-306.60455 -427.17145 2731.2192 768
-291.37125 -428.64926 2740.6682 768
-268.12762 -417.81979 2671.4275 2564
-249.32523 -412.98315 2640.5029 68613
-236.36285 -417.81979 2671.4275 792592
-217.61661 -412.39264 2636.7278 2767408
-201.94052 -412.39264 2636.7278 267016
-185.55984 -410.83267 2626.7537 201222
0 0 0 0
0 0 0 0
0 0 0 0
0 0 0 0
-100.75523 -385.14243 2462.4971 1056021
-92.206718 -412.38708 2636.6921 1536
-77.46199 -417.40457 2668.7725 1024
-60.837906 -412.27139 2635.9524 1280
-44.62328 -407.31357 2604.2534 1792
-28.995943 -405.29626 2591.3552 1280
-13.432201 -400.60153 2561.3384 1792
1.7607459 -392.81039 2511.5239 135429
16.270275 -382.87558 2448.0034 268809
30.757879 -382.05011 2442.7256 662796
45.559753 -384.40573 2457.7869 4096
59.803246 -382.05011 2442.7256 465674
73.05336 -375.50888 2400.9026 1649948
89.337761 -384.15347 2456.1738 1024
105.31812 -389.24539 2488.7302 3328
119.83488 -388.33978 2482.9402 727566
133.02364 -383.80133 2453.9224 69378
147.09705 -382.46011 2445.3472 200453
162.20213 -383.80133 2453.9224 2048
177.26038 -384.81946 2460.4321 1792
192.37123 -385.7879 2466.624 530959
207.78648 -387.18631 2475.5652 399624
222.50439 -387.18631 2475.5652 400648
232.40794 -379.32846 2425.3242 2248721
244.05521 -375.06848 2398.0869 2249996
256.13675 -371.9093 2377.8879 2841110
270.27396 -371.9093 2377.8879 1917451
285.49356 -373.32468 2386.9375 399875
300.48737 -374.32477 2393.3318 68099
318.12579 -378.37991 2419.2593 1024
335.46671 -381.74567 2440.7791 1024
350.48407 -382.29788 2444.3098 768
366.32974 -383.67365 2453.106 768
380.75787 -383.51624 2452.0996 768
397.20294 -385.32706 2463.6775 768
414.45779 -387.76678 2479.2764 768
429.36066 -387.91391 2480.2173 768
442.95956 -386.91229 2473.8132 768
456.78238 -386.1644 2469.0312 1024
471.78479 -386.42926 2470.7246 1280
480.49896 -381.68304 2440.3787 1024
495.00769 -381.68304 2440.3787 1280
509.51645 -381.68304 2440.3787 1280
528.83563 -385.18686 2462.781 662031
535.96008 -379.85886 2428.7153 2817
550.39948 -379.85886 2428.7153 1536
567.89575 -381.91467 2441.8596 1792
582.41333 -381.91467 2441.8596 1059855
599.53888 -383.58328 2452.5283 133633
606.53552 -378.84604 2422.2397 4683284
616.18884 -375.94946 2403.7197 5605145
644.83197 -384.50766 2458.4385 5733933
666.99518 -388.90817 2486.5742 2304
698.40601 -398.39301 2547.2178 1792
743.44427 -415.08377 2653.9341 1280
778.08313 -425.3952 2719.8625 1280
850.10492 -455.30878 2911.1218 1280
913.93994 -479.73132 3067.2729 1280
984.68823 -506.7561 3240.0623 1024
1010.0704 -509.84482 3259.8105 768
1029.4508 -509.84482 3259.8105 660494
1050.2936 -510.55566 3264.3555 1280
1070.001 -510.69876 3265.2705 2564
1090.9579 -511.42252 3269.8979 2821
1117.0194 -514.47205 3289.396 200200
1136.5758 -514.47205 3289.396 2820
1146.681 -510.26639 3262.5059 2306
1190.5309 -520.96698 3330.9226 728080
1210.3342 -520.96698 3330.9226 1978402
1266.9774 -536.56885 3430.6768 860948
1313.8472 -547.60272 3501.2246 399113
1355.0555 -555.96967 3554.7207 991509
1377.2211 -556.38647 3557.3855 69896
1414.5432 -562.82129 3598.5278 267785
1474.6215 -577.98358 3695.4714 136457
1514.295 -584.8205 3739.1848 71432
1541.3438 -586.65436 3750.9099 1059095
1573.5408 -590.36749 3774.6509 928536
1595.9821 -590.36749 3774.6509 1454878
1663.0956 -606.66296 3878.8396 1916199
1805.7666 -649.69757 4153.9917 270602
1899.2977 -674.12946 4310.2021 1191701
1941.3656 -679.88776 4347.0195 600587
1992.4231 -688.60175 4402.7344 1325070
2064.2097 -704.16101 4502.2158 4156458
2065.5837 -695.60962 4447.5405 3959333
2092.0254 -695.60962 4447.5405 3958823
2118.4673 -695.60962 4447.5405 1325587
2168.0493 -703.11414 4495.5225 5536847
2254.605 -722.28064 4618.0679 4944459
2282.0605 -722.28064 4618.0679 2837816
2370.0652 -741.21674 4739.1401 3165759
2398.2405 -741.21674 4739.1401 3625283
2422.1021 -739.8988 4730.7139 2504749
2566.8062 -775.10229 4955.7954 659211
2817.2791 -841.08344 5377.6611 256
2849.2507 -841.08344 5377.6611 329475
3546.7581 -1035.3658 6619.8506 132098
3597.8208 -1038.7456 6641.4595 66049
4101.0469 -1171.181 7488.2163 197635
4145.5659 -1171.181 7488.2163 855822
4250.8311 -1188.16 7596.7759 790029
4295.9956 -1188.16 7596.7759 921615
4441.9053 -1215.7335 7773.0728 724750
4613.4336 -1249.6787 7990.1094 198406
4745.1147 -1272.2482 8134.4121 1251863
4708.4404 -1249.6787 7990.1094 988435
4891.6372 -1285.3336 8218.0771 923412
5203.2227 -1353.6854 8655.1006 1449500
5617.4702 -1447.1456 9252.6602 528141
5586.6387 -1425.2461 9112.6406 1580059
5640.8159 -1425.2461 9112.6406 1184787
6171.5386 -1544.5079 9875.168 1053201
6273.4932 -1555.2284 9943.7119 855820
6499.6675 -1596.2557 10206.029 66049
6560.3447 -1596.2557 10206.029 395526
6671.9736 -1608.5393 10284.567 724491
6762.46 -1615.549 10329.386 527625
6810.1626 -1612.3036 10308.636 527881
7108.0083 -1667.8091 10663.522 265221
7809.751 -1816.265 11612.71 989199
8224.8633 -1896.0432 12122.791 4344896
8012.9912 -1831.1552 11707.914 1318677
8082.5977 -1831.1552 11707.914 1120786
8473.792 -1903.3905 12169.767 0
8535.3984 -1900.9972 12154.464 257
7921.2681 -1749.4078 11185.243 258
7736.2979 -1694.3334 10833.111 514
7658.085 -1663.3561 10635.051 514
7711.5923 -1661.262 10621.662 514
7774.7417 -1661.262 10621.662 514
7837.1357 -1661.1021 10620.64 514
7900.2783 -1661.1021 10620.64 770
7866.3867 -1640.8616 10491.228 770
7871.4771 -1629.0068 10415.432 770
7829.3081 -1607.6332 10278.773 768
8123.7095 -1655.1649 10582.68 768
7807.3589 -1578.4851 10092.409 266250
7867.3613 -1578.4851 10092.409 135429
7899.2178 -1572.8807 10056.577 1387033
7941.2793 -1569.3773 10034.177 1650716
8000.9351 -1569.3773 10034.177 1783069
8252.1553 -1606.6743 10272.644 3361844
8449.3916 -1632.9904 10440.9 925966
8887.1406 -1705.0663 10901.735 2175524
9431.6396 -1796.4314 11485.899 1056276
9821.5742 -1857.2548 11874.787 4147779
8928.209 -1676.2706 10717.623 1119765
9444.3379 -1760.6085 11256.857 3158837
13634.733 -2523.8948 16137.104 3684670
13733.347 -2524.3862 16140.246 1908516
13827.775 -2524.1072 16138.462 1512991
13925.212 -2524.377 16140.188 3093570
14019.671 -2524.1072 16138.462 3554639
14114.147 -2523.844 16136.78 2766153
14214.266 -2524.5869 16141.528 1581881
14309.026 -2524.374 16140.168 3753307
14404.984 -2524.374 16140.168 4738405
14500.941 -2524.374 16140.168 3751512
14599.915 -2524.8955 16143.502 2106168
14695.893 -2524.8955 16143.502 1052707
14791.058 -2524.7566 16142.614 4671322
14886.603 -2524.6843 16142.152 2171184
14982.162 -2524.615 16141.71 1644838
15077.291 -2524.4751 16140.813 1776422
15173.667 -2524.5439 16141.254 526095
15271.034 -2524.7756 16142.736 724243
11483.762 -1886.7645 12063.465 790035
9746.1855 -1591.3447 10174.63 987413
9806.6768 -1591.3447 10174.63 1382683
9755.7422 -1573.3746 10059.733 1316889
0 0 0 0
0 0 0 0
0 0 0 0
0 0 0 0
0 0 0 0
0 0 0 0
0 0 0 0
0 0 0 0
0 0 0 0
0 0 0 0
0 0 0 0
0 0 0 0
-1804.5842 -317.40469 2109.5911 6499373
-1836.1208 -325.21185 2161.4805 6367272
-1816.6693 -324.03445 2153.655 6104356
-1806.3573 -324.48212 2156.6304 6366756
-1820.8024 -329.41516 2189.4172 6432036
-1817.374 -331.16238 2201.0298 6169121
-1833.2617 -336.48019 2236.374 6366753
-1828.2743 -338.0163 2246.5835 6366497
-1828.4457 -340.53577 2263.3289 6498342
-1817.038 -340.9201 2265.8833 6367013
-1823.1906 -344.62952 2290.5376 6367528
-1863.6554 -354.92947 2358.9949 5709342
-1862.3459 -357.36951 2375.2122 6170664
-1862.9805 -360.2226 2394.175 5710371
-1851.6019 -360.77899 2397.873 5447199
-1836.2701 -360.56781 2396.4692 4855834
-1844.4098 -364.99811 2425.9148 5974060
-1838.0358 -366.60345 2436.5845 5645352
-1822.5135 -366.39517 2435.2002 5449001
-1845.1476 -373.91586 2485.1855 6041396
-1830.3727 -373.91586 2485.1855 5778226
-1809.0718 -372.57193 2476.2534 4791590
-1842.3318 -382.53473 2542.4697 6370879
-1819.5461 -380.92899 2531.7974 6305086
-1791.5936 -378.20575 2513.6978 6371392
-1776.649 -378.20575 2513.6978 6502723
-1796.8694 -385.755 2563.873 6502467
-1782.8966 -386.03003 2565.7009 4726825
-1768.5161 -386.22073 2566.9685 7753559
-1753.2548 -386.22073 2566.9685 7490644
-1736.4701 -385.88226 2564.7188 7228501
-1739.2897 -389.93283 2591.6404 6966099
-1723.8817 -389.93283 2591.6404 6505805
-1700.509 -388.11505 2579.5586 6113100
-1643.7184 -378.5676 2516.1028 5258818
0 0 0 0
0 0 0 0
-3311.9814 -784.1983 5212.0767 197123
-3327.3201 -795.27069 5285.6685 460808
-3451.9712 -832.93054 5535.9697 790029
-3392.3813 -826.43158 5492.7754 593418
-3550.3486 -873.32153 5804.4233 790797
-3737.8323 -928.46362 6170.9185 198404
-3714.7263 -931.87073 6193.5635 856334
-3716.8521 -941.73895 6259.1519 395784
-3681.0896 -942.11017 6261.6187 462345
-3762.6035 -972.8103 6465.6631 264965
-3362.5483 -878.35077 5837.8496 256
0 0 0 0
0 0 0 0
-3791.8691 -1022.1473 6793.5762 67328
-3720.2798 -1013.6465 6737.0767 132866
-3550.9131 -978.02985 6500.3545 768
-3514.1782 -978.56207 6503.8921 1024
-3475.511 -978.56207 6503.8921 68354
-3605.8403 -1026.6802 6823.7026 768
-3726.2451 -1073.0353 7131.7959 1280
-3723.2568 -1084.5153 7208.0967 768
-3757.4441 -1107.2173 7358.9829 768
-3829.9404 -1141.8759 7589.3364 768
-3784.8196 -1141.8759 7589.3364 768
-3758.2148 -1147.5294 7626.9126 1280
-3570.7727 -1103.6116 7335.0176 1024
-3481.0535 -1089.184 7239.127 1280
-3388.5605 -1073.5165 7134.9951 199940
-3151.1655 -1010.9641 6719.248 67073
-3013.175 -979.10596 6507.5068 1280
-3050.9614 -1004.2792 6674.8174 1024
-3043.551 -1015.0425 6746.3545 1024
-3278.8352 -1108.1143 7364.9443 198401
-3370.3425 -1154.4572 7672.9565 1536
-3235.9277 -1123.6238 7468.0269 200448
-3048.1182 -1073.1343 7132.4541 1318929
0 0 0 0
0 0 0 0
0 0 0 0
0 0 0 0
0 0 0 0
0 0 0 0
0 0 0 0
0 0 0 0
0 0 0 0
0 0 0 0
0 0 0 0
0 0 0 0
0 0 0 0
0 0 0 0
0 0 0 0
0 0 0 0
0 0 0 0
0 0 0 0
0 0 0 0
0 0 0 0
0 0 0 0
0 0 0 0
0 0 0 0
-768.5354 -406.19424 2699.7197 397576
-732.69135 -395.50964 2628.7058 1024
-701.3681 -386.85284 2571.1697 1024
-676.5896 -381.50058 2535.5964 3072
-650.99152 -375.43176 2495.2607 795404
-608.04413 -358.84103 2384.9927 2311445
-591.14783 -357.19937 2374.0815 4617512
-577.08923 -357.23407 2374.312 3434518
-562.57764 -356.98297 2372.6433 3236888
-548.8573 -357.23407 2374.312 3169315
-531.89417 -355.33197 2361.6699 534546
-515.82281 -353.93869 2352.4097 927256
-517.11731 -364.71564 2424.0374 68357
-492.43997 -357.26776 2374.5359 399373
-490.66174 -366.48398 2435.7905 69381
-478.39908 -368.19168 2447.1404 2562
-478.17776 -379.56448 2522.7285 2569514
-470.78976 -385.80099 2564.1787 529675
-455.54501 -385.80099 2564.1787 661261
-436.65872 -382.6102 2542.9714 858128
-421.35089 -382.43851 2541.8303 1024
-406.23901 -382.43851 2541.8303 1792
-390.89194 -382.20856 2540.302 726797
-376.51276 -382.94455 2545.1936 1384728
-361.97192 -383.57086 2549.3564 1024
-363.08011 -401.55942 2668.915 1024
-346.96912 -401.27777 2667.043 199944
-331.34521 -401.55942 2668.915 768
-316.07913 -402.32489 2674.0024 768
-303.39926 -406.63763 2702.6667 768
-284.97766 -403.30692 2680.5295 66819
-268.12762 -401.93741 2671.4275 331529
-250.14153 -398.5853 2649.1479 3847
-236.36285 -401.93741 2671.4275 201224
-218.20732 -397.79352 2643.8853 2242855
-202.48871 -397.79352 2643.8853 1650969
-191.27808 -407.3949 2707.7 1715479
-166.59808 -387.43689 2575.0513 2048
0 0 0 0
0 0 0 0
0 0 0 0
0 0 0 0
-91.411659 -393.29056 2613.9573 858896
-77.46199 -401.53796 2668.7725 1280
-60.837906 -396.59995 2635.9524 1280
-44.46806 -390.46759 2595.1946 1280
-28.514542 -383.41684 2548.3325 68867
-13.363995 -383.41684 2548.3325 1386265
1.7178019 -368.66232 2450.2686 1453853
16.276304 -368.45798 2448.9104 1059093
30.500546 -364.45251 2422.2886 795409
45.280563 -367.52744 2442.7256 729103
59.803246 -367.52744 2442.7256 1792
74.691994 -369.33755 2454.7563 2816
89.286209 -369.33755 2454.7563 1536
103.9613 -369.62509 2456.6675 1536
118.29615 -368.78116 2451.0583 2048
132.028 -366.44867 2435.5559 133379
147.09705 -367.92184 2445.3472 2049
161.63531 -367.92184 2445.3472 858641
174.70541 -364.85574 2424.9685 1536
189.12253 -364.85574 2424.9685 2818
203.53964 -364.85574 2424.9685 134405
222.50439 -372.46841 2475.5652 2304
235.20076 -369.29431 2454.469 1536
244.71362 -361.78458 2404.5564 1280
258.31253 -360.81119 2398.0869 1536
273.05167 -361.44901 2402.3262 1536
290.87607 -365.90451 2431.9392 1280
305.73572 -366.38522 2435.134 1024
314.13824 -359.4342 2388.9351 1024
331.57526 -362.97458 2412.4658 768
350.37744 -367.6539 2443.5662 512
366.77945 -369.54233 2456.1174 512
382.4194 -370.54779 2462.8 768
397.20294 -370.67981 2463.6775 768
411.90982 -370.73352 2464.0344 768
428.25204 -372.2048 2473.8132 768
442.35379 -371.6958 2470.4302 1024
455.36313 -370.33112 2461.3599 1024
469.44611 -369.89731 2458.4768 1024
484.06244 -369.89731 2458.4768 1024
499.56714 -370.5563 2462.8567 1280
514.19373 -370.54492 2462.781 1280
528.85187 -370.5563 2462.8567 1280
543.97144 -370.88165 2465.019 1536
552.2583 -366.65359 2436.9177 1536
569.90814 -368.69901 2450.5125 1536
587.04938 -370.32166 2461.2971 3328
601.6825 -370.32166 2461.2971 204545
612.84369 -368.2355 2447.4319 797189
627.39435 -368.2355 2447.4319 5142318
650.69122 -373.25259 2480.7771 1059334
683.26208 -383.24911 2547.2178 2560
723.8493 -397.21106 2640.0142 1536
786.5412 -422.45285 2807.7805 1280
818.64227 -430.55655 2861.6409 1794
870.23761 -448.37436 2980.0647 1280
913.93994 -461.49554 3067.2729 1280
966.75482 -478.61475 3181.0537 1024
1006.4782 -488.72009 3248.2175 1024
1026.9601 -489.27765 3251.9233 2307
1049.71 -490.87521 3262.5413 1252888
1069.7012 -491.14813 3264.3555 857873
1090.9579 -491.98206 3269.8979 2564
1117.0194 -494.91571 3289.396 200456
1132.1191 -492.97504 3276.4978 1537
1146.082 -490.61346 3260.8018 1024
1166.0775 -490.86987 3262.5059 3073
1210.3342 -501.1637 3330.9226 1649696
1266.9774 -516.17249 3430.6768 1453340
1287.3739 -516.17249 3430.6768 2769452
1343.3331 -530.20911 3523.9692 134915
1364.2841 -530.20911 3523.9692 1453336
1390.7797 -532.33136 3538.0745 993042
1461.4961 -551.06396 3662.5789 1651230
1514.295 -562.58997 3739.1848 401676
1541.3438 -564.35413 3750.9099 1586462
1570.8105 -566.94073 3768.1013 1718561
1588.4375 -565.24146 3756.8074 3101493
1678.0004 -588.83246 3913.6023 2773299
1805.7666 -625.00098 4153.9917 2442541
1983.8926 -677.38849 4502.1787 928280
1979.1107 -666.75983 4431.5366 4610
2046.8416 -680.51892 4522.9849 4355
2074.6199 -680.81024 4524.9214 1191449
2099.6765 -680.21246 4520.9482 994067
2145.7397 -686.34906 4561.7344 3232054
2231.1025 -704.74622 4684.0083 2969648
2271.6553 -708.7099 4710.3525 2970157
2299.6594 -708.7099 4710.3525 5799771
2341.8896 -713.0412 4739.1401 3365174
2374.4041 -714.34662 4747.8164 4878413
2451.8113 -728.96875 4845.0005 3825981
2561.8923 -752.85303 5003.7446 4353093
2481.8887 -720.97083 4791.8433 5734725
2490.5325 -715.27136 4753.9629 6327097
2538.8662 -720.97083 4791.8433 3232529
2515.3127 -706.35608 4694.7085 4348193
2676.3135 -743.32043 4940.3872 527620
4101.0469 -1126.6615 7488.2163 594182
4205.6655 -1142.9952 7596.7759 527625
4450.4702 -1196.6758 7953.5571 527625
4497.7563 -1196.6758 7953.5571 66817
4545.0425 -1196.6758 7953.5571 791056
4681.3359 -1219.8693 8107.7104 922898
4772.8564 -1231.0421 8181.9692 659727
4821.5005 -1231.0421 8181.9692 923412
5037.3135 -1273.298 8462.8174 1186584
5203.2227 -1302.2285 8655.1006 1580572
5416.9937 -1342.4535 8922.4512 264453
5470.04 -1342.4535 8922.4512 2304036
5523.0864 -1342.4535 8922.4512 527369
6162.728 -1483.6761 9861.0703 3355954
6430.1499 -1533.47 10192.019 592648
6542.6123 -1545.7239 10273.463 1024
6569.7568 -1537.7811 10220.672 132098
6630.522 -1537.7811 10220.672 461832
6566.0376 -1508.9965 10029.358 330246
6758.7529 -1539.3074 10230.816 330503
7108.0083 -1604.4114 10663.522 67074
7528.4062 -1684.2808 11194.364 527880
7878.7915 -1747.2242 11612.71 725259
7947.8325 -1747.2242 11612.71 1120272
7928.7178 -1728.0114 11485.014 1120019
8248.5098 -1782.3582 11846.224 791056
8527.0098 -1826.9384 12142.52 257
8127.1255 -1726.6439 11475.925 514
7752.8267 -1633.4097 10856.256 514
7681.1323 -1604.9434 10667.058 514
7672.3589 -1589.9825 10567.623 514
7735.186 -1589.9825 10567.623 514
7717.3379 -1573.5331 10458.293 770
7779.5146 -1573.5331 10458.293 770
7866.3867 -1578.4883 10491.228 770
8193.1191 -1631.1179 10841.023 770
8072.9805 -1594.6555 10598.682 1024
8123.7095 -1592.248 10582.68 1538
7807.3589 -1518.483 10092.409 398093
7917.8184 -1528.2217 10157.137 332554
7899.4883 -1513.1434 10056.921 859150
8146.9834 -1548.828 10294.094 1779994
8274.2295 -1561.2903 10376.923 3095851
8365.0371 -1566.743 10413.164 2964008
8471.8047 -1575.0831 10468.596 1910551
8534.0439 -1575.0831 10468.596 2370849
9431.6396 -1728.1445 11485.899 2633511
10213.992 -1858.041 12349.24 4803912
13441.469 -2427.7051 16135.442 4672073
13537.938 -2427.8018 16136.085 2697002
13635.362 -2428.0674 16137.849 3749951
13732.26 -2428.2361 16138.97 6249576
13828.211 -2428.2361 16138.97 5131865
13924.755 -2428.3394 16139.657 4343124
14019.766 -2428.1763 16138.572 2829375
14114.147 -2427.9065 16136.78 4673377
14212.182 -2428.2649 16139.162 5330282
14308.004 -2428.2424 16139.014 5264488
14403.621 -2428.1865 16138.642 3290954
14499.57 -2428.1865 16138.642 6843519
14598.3 -2428.6489 16141.716 7435397
14694.267 -2428.6489 16141.716 6579572
14789.819 -2428.5811 16141.264 4276814
14885.783 -2428.5811 16141.264 1973288
14981.748 -2428.5811 16141.264 2499632
15077.706 -2428.5803 16141.258 1973284
15173.67 -2428.5803 16141.258 657679
15269.635 -2428.5803 16141.258 1315609
15361.171 -2427.8801 16136.605 1315864
13744.49 -2158.876 14348.702 1776670
10725.262 -1674.2479 11127.682 2039842
10104.538 -1567.6809 10419.397 527373
0 0 0 0
0 0 0 0
0 0 0 0
0 0 0 0
0 0 0 0
0 0 0 0
0 0 0 0
0 0 0 0
0 0 0 0
0 0 0 0
0 0 0 0
0 0 0 0
0 0 0 0
-1825.1677 -310.49792 2148.5864 6171175
-1816.6693 -311.23041 2153.655 6302248
-1812.9604 -312.79962 2164.5139 6235940
-1817.2301 -315.77774 2185.1218 6497829
-1817.7993 -318.15106 2201.5449 6169377
-1826.6729 -322.0228 2228.3364 6103325
-1819.9658 -323.18433 2236.374 6103582
-1823.152 -326.13269 2256.7761 6563876
-1816.7719 -327.40085 2265.5515 6498086
-1841.8596 -334.40115 2313.9922 6301220
-1855.3801 -339.39087 2348.5203 6235685
-1858.5388 -342.54648 2370.3564 5906979
-1864.7655 -346.3201 2396.4692 5973029
-1864.9586 -349.02267 2415.1704 5644323
-1850.5997 -349.02267 2415.1704 5512994
-1837.7795 -349.31509 2417.1941 5644838
-1833.2432 -351.19913 2430.2312 5842730
-1818.7948 -351.19913 2430.2312 5580073
-1828.103 -355.82318 2462.2285 5843758
-1830.3727 -359.14075 2485.1855 5909554
-1811.9133 -358.41202 2480.1428 5646896
-1814.4735 -361.86319 2504.0244 5449519
-1798.37 -361.61862 2502.332 6436671
-1785.4136 -362.00803 2505.0266 6502721
-1784.1333 -364.79138 2524.2869 6568514
-1795.3473 -370.19824 2561.7014 6634307
-1780.1174 -370.19824 2561.7014 5910842
-1769.5507 -371.17639 2568.47 6831944
-1751.7181 -370.63431 2564.7188 7425364
-1735.92 -370.51688 2563.9062 7360087
-1739.2897 -374.52481 2591.6404 7031636
-1723.8817 -374.52481 2591.6404 6440782
-1691.5322 -370.81097 2565.9414 6244173
-1662.7323 -367.81476 2545.208 5981515
0 0 0 0
0 0 0 0
-3311.9814 -753.211 5212.0767 526343
-3327.3201 -763.84595 5285.6685 329476
-3451.9712 -800.01764 5535.9697 132866
-3354.2673 -784.8573 5431.063 133633
-3362.7156 -794.48193 5497.6641 1713436
-3498.8928 -834.76935 5776.4453 2305572
-3506.2761 -844.82306 5846.0146 2502951
-3677.9038 -895.04828 6193.5635 396295
-3679.6394 -904.52661 6259.1519 66304
-3762.6035 -934.37006 6465.6631 3029294
0 0 0 0
0 0 0 0
0 0 0 0
-3138.0991 -812.48926 5622.271 512
-3720.2798 -973.59271 6737.0767 1024
-3516.0654 -930.16461 6436.562 512
-3658.2183 -978.41937 6770.4756 768
-3646.4089 -986.11139 6823.7026 397317
-3673.5127 -1004.6181 6951.7661 67585
-3517.4504 -972.88458 6732.1763 265732
-3616.5493 -1011.8073 7001.5142 1024
-3750.5483 -1061.5143 7345.4771 768
-3883.4229 -1112.0706 7695.3164 768
-3784.8196 -1096.7551 7589.3364 1793
-3640.3523 -1067.6194 7387.7227 1024
-3530.0845 -1047.9243 7251.4365 1024
-3481.0535 -1046.1454 7239.127 1024
-3438.0146 -1046.1454 7239.127 1024
-3346.1409 -1031.097 7134.9951 768
-3302.4131 -1030.6887 7132.1694 1536
-3314.1411 -1047.8029 7250.5957 768
-3322.6218 -1064.3276 7364.9443 1536
-3278.8352 -1064.3276 7364.9443 1647638
-3327.9668 -1094.8978 7576.4839 1280
-3235.9277 -1079.2244 7468.0269 264706
-3048.1182 -1030.7299 7132.4541 397058
0 0 0 0
0 0 0 0
0 0 0 0
0 0 0 0
0 0 0 0
0 0 0 0
0 0 0 0
0 0 0 0
0 0 0 0
0 0 0 0
0 0 0 0
0 0 0 0
0 0 0 0
0 0 0 0
0 0 0 0
0 0 0 0
0 0 0 0
0 0 0 0
0 0 0 0
0 0 0 0
0 0 0 0
0 0 0 0
0 0 0 0
-768.5354 -390.14365 2699.7197 1280
-707.27295 -366.70248 2537.5115 2048
-701.3681 -371.56653 2571.1697 1792
-686.08185 -371.56653 2571.1697 135938
-686.61218 -380.32773 2631.7954 728581
-613.52594 -347.76892 2406.4946 69888
-596.05853 -345.93484 2393.8032 5376
-578.17346 -343.76279 2378.7729 137728
-560.11426 -341.37564 2362.2544 6131244
-549.88855 -343.76279 2378.7729 2313747
-531.89417 -341.29117 2361.6699 71938
-517.82391 -341.27176 2361.5356 728589
-518.65009 -351.34235 2431.2222 4098
-505.14319 -352.00253 2435.7905 2560
-494.25864 -354.58295 2453.6465 69379
-483.4072 -357.34482 2472.7581 265989
-468.70596 -357.34482 2472.7581 3030062
-461.88162 -363.54468 2515.6599 332807
-446.92529 -363.54468 2515.6599 595979
-431.96902 -363.54468 2515.6599 135174
-421.14713 -367.14899 2540.6011 201223
-405.63626 -366.78165 2538.0591 134660
-387.98892 -364.37939 2521.436 528393
-372.99829 -364.37939 2521.436 858125
-368.54388 -375.10315 2595.6423 1792
-363.08011 -385.69196 2668.915 264709
-347.21265 -385.69196 2668.915 768
-331.34521 -385.69196 2668.915 768
-316.1076 -386.46201 2674.2434 768
-301.21243 -387.75439 2683.1865 768
-285.85147 -388.55817 2688.7485 768
-268.12762 -386.05505 2671.4275 1793
-251.9176 -385.55365 2667.9578 67844
-236.36285 -386.05505 2671.4275 331271
-220.19411 -385.55365 2667.9578 3074
-205.91624 -388.5423 2688.6387 464139
-191.27808 -391.29691 2707.7 768
-169.7782 -379.23087 2624.2053 1280
0 0 0 0
0 0 0 0
0 0 0 0
-100.75523 -355.86197 2462.4971 67842
-92.206718 -381.03534 2636.6921 67843
-76.530846 -381.03534 2636.6921 1536
-59.6647 -373.58258 2585.1204 2304
-43.43922 -366.36133 2535.1506 3035680
-28.344748 -366.07339 2533.1582 4353837
-13.045914 -359.50104 2487.6787 3894831
1.7085375 -352.18512 2437.054 2644518
16.092808 -349.90872 2421.3018 2052385
30.410593 -349.01895 2415.1448 3235122
44.901726 -350.05133 2422.2886 2443817
59.803246 -353.00473 2442.7256 204550
74.691994 -354.74335 2454.7563 203270
89.286209 -354.74335 2454.7563 136453
103.72393 -354.20892 2451.0583 3842
117.59174 -352.09976 2436.4634 2816
132.50485 -353.23984 2444.3525 331784
147.03722 -353.23984 2444.3525 531469
160.06143 -349.9426 2421.5361 201992
174.45813 -349.9426 2421.5361 925716
189.12253 -350.43863 2424.9685 332295
204.22462 -351.61798 2433.1294 3074
220.68114 -354.81897 2455.2798 4615
235.20076 -354.70181 2454.469 2561
246.12758 -349.49661 2418.45 1536
258.84897 -347.27359 2403.0671 1280
276.16415 -351.12384 2429.7102 1024
290.60947 -351.12384 2429.7102 1024
303.18787 -348.97501 2414.8406 512
307.17935 -337.58362 2336.0144 512
331.00186 -348.02893 2408.2939 512
349.97781 -352.72345 2440.7791 512
366.77945 -354.94003 2456.1174 512
382.4194 -355.90576 2462.8 512
397.51715 -356.31424 2465.6267 512
411.90982 -356.08414 2464.0344 512
426.83484 -356.31424 2465.6267 512
440.7702 -355.73035 2461.5862 768
454.47858 -355.00665 2456.5786 768
471.78479 -357.05096 2470.7246 1024
486.47394 -357.05096 2470.7246 1024
505.15427 -359.89444 2490.4011 1024
516.8255 -357.72461 2475.3862 1024
532.83472 -358.59433 2481.4045 1280
546.05536 -357.59113 2474.4624 2048
552.2583 -352.16544 2436.9177 1536
566.8269 -352.21542 2437.2637 1792
589.39691 -357.1109 2471.1394 3328
