# .PCD v0.7 - Point Cloud Data file format
VERSION 0.7
FIELDS x y z rgb
SIZE 4 4 4 4
TYPE F F F U
COUNT 1 1 1 1
WIDTH 1387
HEIGHT 1
VIEWPOINT 0 0 0 1 0 0 0
POINTS 1387
DATA ascii
-1077.649 -3.6418309 1994.4672 512
-1063.918 -3.6354296 1990.9614 512
-1053.7012 -3.6410277 1994.0272 512
-1030.7659 -3.6023045 1972.8203 1024
-1000.5433 -3.5369294 1937.0173 512
-981.34076 -3.5094411 1921.9633 2237985
-969.91412 -3.5094411 1921.9633 256
-967.59796 -3.5427983 1940.2316 256
-959.39288 -3.5551386 1946.9897 256
-943.83533 -3.5402021 1938.8097 0
-931.08398 -3.5355523 1936.2631 65792
-914.02496 -3.5142233 1924.5823 256
-892.84442 -3.4763069 1903.8171 256
-893.27631 -3.5226457 1929.1947 0
-882.76099 -3.526458 1931.2826 256
-870.6629 -3.5239644 1929.917 0
-848.13556 -3.4786286 1905.0886 256
-831.79932 -3.4578023 1893.683 512
-825.32123 -3.4779468 1904.7152 988687
-813.99713 -3.4779468 1904.7152 922636
-795.77167 -3.4480433 1888.3384 1054478
-784.05969 -3.4459105 1887.1703 462343
-786.57758 -3.5071633 1920.7158 67329
-778.65137 -3.5229671 1929.3708 199170
-763.60284 -3.506537 1920.3728 198915
-746.66223 -3.480788 1906.2712 1024
-733.96277 -3.4743211 1902.7296 66304
-722.65051 -3.4743211 1902.7296 256
0 0 0 0
0 0 0 0
0 0 0 0
0 0 0 0
0 0 0 0
0 0 0 0
0 0 0 0
-630.79633 -3.4668679 1898.6478 1845275
-619.50836 -3.4668679 1898.6478 1582103
-595.15564 -3.3923986 1857.8643 2372131
-594.39423 -3.452127 1890.5748 332035
-589.45056 -3.4893994 1910.9873 793098
-578.08917 -3.4893994 1910.9873 1253650
-566.62634 -3.4887741 1910.6449 859404
-555.26697 -3.4887741 1910.6449 399619
-547.43756 -3.511416 1923.0448 1848850
-536.00458 -3.511416 1923.0448 3627547
-530.61292 -3.5518563 1945.1921 3760667
-520.71631 -3.5632713 1951.4436 2510863
-510.66913 -3.5741522 1957.4027 2050567
-500.91333 -3.5876281 1964.7828 2708495
-492.25278 -3.6097794 1976.9139 3892260
-478.59912 -3.5955029 1969.0953 2773020
-467.27548 -3.5984533 1970.7112 3430700
-455.18552 -3.5955029 1969.0953 4286010
-451.6413 -3.6616812 2005.3383 1520402
-449.35037 -3.7418842 2049.262 4155678
-434.54077 -3.7194064 2036.9517 4156188
-422.43051 -3.7194064 2036.9517 4878632
-393.43784 -3.5663731 1953.1423 594435
0 0 0 0
0 0 0 0
0 0 0 0
0 0 0 0
0 0 0 0
0 0 0 0
0 0 0 0
0 0 0 0
0 0 0 0
0 0 0 0
-732.62897 -9.8335257 5385.3804 5920852
-678.15472 -9.5183325 5212.7632 2828068
-630.00171 -9.2659235 5074.5298 2827811
-599.83228 -9.2659235 5074.5298 5985619
-572.81696 -9.3172274 5102.627 9341318
-525.23181 -9.0209789 4940.3848 8815745
-516.20801 -9.3911657 5143.1196 197376
-465.48825 -9.0016489 4929.7983 1974040
-424.87445 -8.7683449 4802.0288 1250062
-376.27505 -8.3247576 4559.0957 66048
-347.05597 -8.2743559 4531.4932 256
-306.48102 -7.9219446 4338.4932 256
-279.05417 -7.8758469 4313.2476 658952
-245.88394 -7.6419201 4185.1362 1185552
-206.99593 -7.1576056 3919.8992 1120528
-182.90456 -7.1269603 3903.1162 1121806
-159.69945 -7.1269603 3903.1162 1781527
-133.22949 -6.9564896 3809.7568 3428907
-108.22321 -6.8082609 3728.5786 924681
-88.632027 -7.0120807 3840.2014 135424
-68.998734 -7.3528514 4026.8262 332036
-46.27623 -7.5516276 4135.687 397831
-22.187267 -7.7253208 4230.811 2109473
3.0917473 -8.0526257 4410.061 2175779
29.310789 -8.0526257 4410.061 1912607
54.624069 -7.921277 4338.1274 1056787
83.017792 -8.1776199 4478.5151 1319445
109.64381 -8.1776199 4478.5151 199940
139.32947 -8.3612309 4579.0703 2305
166.55331 -8.3612309 4579.0703 134404
197.44717 -8.5195866 4665.7949 595209
230.45871 -8.7190475 4775.0308 1452309
261.4187 -8.8056526 4822.4604 532998
269.80856 -8.1900244 4485.3086 3362351
0 0 0 0
0 0 0 0
0 0 0 0
0 0 0 0
530.18884 -10.771081 5898.8369 10924713
627.41516 -11.955471 6547.4746 8953482
729.24896 -13.084149 7165.6011 13753040
771.85046 -13.084149 7165.6011 12436925
0 0 0 0
0 0 0 0
0 0 0 0
1461.4531 -20.293703 11113.95 14147283
1529.005 -20.313318 11124.691 13685709
1595.1444 -20.313318 11124.691 11054504
1717.2799 -20.998009 11499.666 8751492
1801.0654 -21.1793 11598.951 5726040
1912.2224 -21.657221 11860.687 2436130
1982.7375 -21.657221 11860.687 2898212
2222.2292 -23.439547 12836.787 2372893
2530.991 -25.809898 14134.923 5334861
2642.8506 -26.084515 14285.316 5994579
2727.7808 -26.084515 14285.316 7704174
2753.8521 -25.53867 13986.381 11056031
2374.5251 -21.375433 11706.364 13752524
2338.2732 -20.449711 11199.388 13488844
2371.2441 -20.163887 11042.854 9080463
2480.1257 -20.52158 11238.747 13488591
2596.9089 -20.92417 11459.228 13423057
2665.0374 -20.92417 11459.228 13620439
2668.5974 -20.429859 11188.516 11317172
2556.8232 -19.098104 10459.174 5329752
2496.783 -18.206841 9971.0684 6317168
2583.2097 -18.4002 10076.963 527117
2974.1785 -20.70488 11339.132 463376
3373.1421 -22.961817 12575.155 2964278
4042.3223 -26.920427 14743.107 13686482
4425.8281 -28.84889 15799.242 13357775
3911.7571 -24.968113 13673.914 13423056
3207.9128 -20.058723 10985.262 13619664
3293.0295 -20.180099 11051.733 13685457
4208.4478 -25.285379 13847.666 13685457
4548.2681 -26.802769 14678.673 13685457
4635.5366 -26.802769 14678.673 13685457
5003.6104 -28.396389 15551.426 13685457
5124.1914 -28.553097 15637.248 13685457
5217.1592 -28.553097 15637.248 13685457
5047.2056 -27.139341 14862.999 13685203
5135.5703 -27.139341 14862.999 13685203
5595.6948 -29.070707 15920.72 13685203
5690.3481 -29.070707 15920.72 13685203
5478.3345 -27.529652 15076.753 13685203
5567.9702 -27.529652 15076.753 13685203
6055.8877 -29.467674 16138.12 13750739
6151.3838 -29.465519 16136.94 13750226
6247.7803 -29.467676 16138.122 13553359
6343.7256 -29.467676 16138.122 13553869
6439.6416 -29.467543 16138.049 13488843
6535.2031 -29.465809 16137.101 12569277
6631.1426 -29.465809 16137.101 10859940
6727.5415 -29.467825 16138.204 8361081
6823.4883 -29.467825 16138.204 6784089
6919.4053 -29.467703 16138.137 6325072
7015.3511 -29.467703 16138.137 5996876
7111.2969 -29.467703 16138.137 6195281
7207.2378 -29.467682 16138.126 6130773
7303.3867 -29.4685 16138.574 5473099
7399.3345 -29.4685 16138.574 5210695
7495.0728 -29.467676 16138.122 4816193
7631.6812 -29.625523 16224.568 4684606
7732.981 -29.644077 16234.73 4223801
7830.5693 -29.648125 16236.945 4223032
7879.293 -29.469313 16139.019 3959091
7974.8003 -29.467674 16138.12 3759918
8070.6455 -29.467308 16137.92 3429414
8166.1357 -29.465668 16137.022 2966561
8262.5342 -29.467308 16137.92 2109973
8359.7236 -29.471693 16140.323 1977875
8453.8369 -29.465261 16136.8 989443
5884.5386 -20.280005 11106.447 724485
5950.5693 -20.280005 11106.447 789513
7167.0537 -24.15781 13230.147 1182986
5882.5923 -19.61306 10741.191 1905940
5946.4517 -19.61306 10741.191 1970962
6037.8521 -19.70293 10790.41 655360
6210.8003 -20.054226 10982.799 655360
6301.0439 -20.133944 11026.456 589824
6286.1406 -19.879498 10887.107 393216
6231.1211 -19.504667 10681.83 1183500
6273.644 -19.439648 10646.222 1381651
6272.5586 -19.242149 10538.061 789771
6174.8164 -18.75498 10271.26 66049
6074.1421 -18.268534 10004.855 526856
6022.6226 -17.937923 9823.7949 197890
5624.2817 -16.590609 9085.9307 263427
5678.3003 -16.590609 9085.9307 256
5925.5439 -17.149845 9392.1992 131843
6166.1543 -17.679621 9682.334 256
6223.6719 -17.679489 9682.2617 460808
6017.1558 -16.936195 9275.1934 329220
5307.4492 -14.802959 8106.9155 66305
6127.4429 -16.936195 9275.1934 329477
6163.6519 -16.884327 9246.7871 1316371
6218.6265 -16.884327 9246.7871 1053198
6754.6714 -18.179045 9955.8467 1513748
6948.4893 -18.538223 10152.553 2040348
7008.8486 -18.538223 10152.553 1842712
6515.6304 -17.086525 9357.5225 1316627
6151.0688 -15.993941 8759.1631 987405
6214.0293 -16.022007 8774.5332 1118736
6255.2207 -15.993941 8759.1631 657929
6146.937 -15.587305 8536.4668 65792
5962.4692 -14.995724 8212.4844 65792
6011.2949 -14.995724 8212.4844 197377
5976.0889 -14.787789 8098.6079 65536
6024.2378 -14.787789 8098.6079 197379
6029.5225 -14.683406 8041.4419 131586
6036.0244 -14.583605 7986.7856 0
6091.3955 -14.602513 7997.1406 256
6089.604 -14.485158 7932.8701 65793
6109.2744 -14.420264 7897.3306 263428
6094.6436 -14.276014 7818.3315 0
6047.106 -14.057449 7698.6333 0
5959.1079 -13.748819 7529.6108 1513238
6215.0908 -14.232506 7794.5039 921356
6223.3833 -14.146021 7747.1401 256
6858.9204 -15.476087 8475.5576 0
6327.4692 -14.172828 7761.8213 131842
5897.1274 -13.113276 7181.5518 66049
5710.2661 -12.606483 6904.0049 197635
5707.6782 -12.510841 6851.6255 1382423
5748.4131 -12.510841 6851.6255 131586
6949.728 -15.018953 8225.2061 0
8476.5088 -18.19046 9962.0977 256
8303.8506 -17.696289 9691.4629 256
8214.041 -17.384272 9520.585 0
8270.6436 -17.384272 9520.585 2830379
7558.2998 -15.778991 8641.4443 3422771
7355.8804 -15.252736 8353.2383 2370084
7262.4829 -14.958084 8191.8706 1185295
6880.9966 -14.077953 7709.8623 790536
6561.5718 -13.335601 7303.3096 2895655
6390.3755 -12.902286 7066.0024 2106138
6640.4985 -13.319727 7294.6162 2303514
6683.8672 -13.319727 7294.6162 1185546
6884.5693 -13.631245 7465.2202 2040854
7097.8691 -13.963553 7647.2109 2106901
6989.4282 -13.662703 7482.4482 2041111
7033.9131 -13.662703 7482.4482 1646868
6899.8706 -13.318109 7293.73 199680
6816.8496 -13.075685 7160.9653 265473
6667.7275 -12.710268 6960.8428 991247
6428.4058 -12.178476 6669.6045 1057041
6431.2207 -12.109116 6631.6187 860432
0 0 0 0
0 0 0 0
0 0 0 0
0 0 0 0
0 0 0 0
0 0 0 0
0 0 0 0
0 0 0 0
0 0 0 0
0 0 0 0
0 0 0 0
0 0 0 0
0 0 0 0
-1584.5834 7.6840429 1865.3706 66048
-1573.4932 7.6840429 1865.3706 329476
-1542.2499 7.5849276 1841.3096 263683
-1531.3029 7.5849276 1841.3096 197890
-1534.6885 7.6564322 1858.668 132097
-1526.176 7.6691861 1861.764 790027
-1515.1074 7.6691861 1861.764 256
-1521.1677 7.7565279 1882.967 512
-1506.9733 7.7411189 1879.2264 198658
-1495.8008 7.7411189 1879.2264 527621
-1455.2667 7.5880227 1842.0609 659720
-1452.0085 7.6284418 1851.8729 593929
-1448.137 7.6662312 1861.0466 1280
-1458.3848 7.7799234 1888.6466 1280
-1445.1973 7.7693915 1886.0898 512
-1446.7854 7.8387508 1902.9275 512
-1437.0486 7.8473601 1905.0175 512
-1425.7227 7.8473601 1905.0175 512
-1418.297 7.868999 1910.2704 1281
-1419.2424 7.9378071 1926.9742 256
-1407.9698 7.9388437 1927.2258 512
-1390.9688 7.9073319 1919.576 256
-1379.5563 7.9073319 1919.576 265218
-1368.1439 7.9073319 1919.576 134144
-1343.7527 7.8316884 1901.213 2048
-1351.6606 7.9446054 1928.6246 1792
-1346.6992 7.9831662 1937.9855 1024
-1343.6537 8.0338459 1950.2886 768
-1337.6351 8.0674782 1958.4531 768
-1326.4803 8.0704527 1959.1752 512
-1317.5131 8.0869055 1963.1692 256
-1306.0194 8.088007 1963.4366 512
-1296.2272 8.099761 1966.29 512
-1284.5371 8.099761 1966.29 512
-1272.8469 8.099761 1966.29 512
-1267.4021 8.1398716 1976.0272 256
-1256.9531 8.1482925 1978.0715 256
-1246.5286 8.157033 1980.1932 512
-1241.4332 8.2011461 1990.902 768
-1225.8583 8.1762104 1984.8488 512
-1218.1714 8.2039146 1991.5741 256
-1207.3717 8.2109919 1993.2922 132608
-1197.0195 8.2212839 1995.7908 512
-1185.3373 8.2225552 1996.0994 512
-1173.6298 8.2236757 1996.3713 768
-1167.6936 8.2656717 2006.5664 512
-1154.5653 8.2571001 2004.4854 512
-1142.6481 8.2571001 2004.4854 512
-1135.2836 8.2903452 2012.556 132353
-1134.3101 8.3714657 2032.2488 592648
-1121.9365 8.3692932 2031.7214 512
-1105.9167 8.3395777 2024.5078 512
-1090.3228 8.3124542 2017.9232 512
-1065.7914 8.2158318 1994.4672 512
-1058.135 8.2485828 2002.4178 512
-1030.7659 8.1266613 1972.8203 768
-1004.2934 8.0090837 1944.2773 1024
-988.47919 7.9747558 1935.9438 66304
-976.96936 7.9747558 1935.9438 724233
-979.64764 8.0919495 1964.3936 256
-980.7243 8.1985817 1990.2797 256
-968.89154 8.1985817 1990.2797 256
-936.24207 8.020257 1946.9897 0
-920.54797 7.9845319 1938.3171 0
-907.97723 7.975337 1936.085 0
-896.53339 7.9759307 1936.229 0
-885.02191 7.9759307 1936.229 0
-870.6629 7.9499292 1929.917 512
-848.13556 7.8476534 1905.0886 768
-836.80927 7.8476534 1905.0886 1121296
-830.07147 7.8912749 1915.6781 1450005
-815.36127 7.8592639 1907.9072 1186832
-804.01825 7.8592639 1907.9072 528903
-783.15198 7.7648425 1884.9856 1910044
-771.94519 7.7648425 1884.9856 396549
-777.58124 7.9367566 1926.7192 330756
-762.64673 7.9007096 1917.9684 67329
-745.27502 7.8379359 1902.7296 263939
-733.96277 7.8379359 1902.7296 512
-737.74585 8.0016613 1942.4755 0
-749.24976 8.2556667 2004.1376 256
-741.41522 8.3013563 2015.229 256
-720.18506 8.1960964 1989.6763 394497
0 0 0 0
0 0 0 0
-654.98846 7.840467 1903.3441 1054218
-643.67255 7.840467 1903.3441 1383950
-630.79633 7.8211217 1898.6478 2108954
-616.388 7.7817283 1889.0847 2372378
-595.27368 7.6546402 1858.2329 2306844
-594.39423 7.7878671 1890.5748 990215
-589.45056 7.8719521 1910.9873 1187341
-579.21063 7.8872232 1914.6945 1384977
-567.82727 7.8872232 1914.6945 1187597
-555.26697 7.8705411 1910.6449 398594
-544.91669 7.8851423 1914.1893 1319690
-536.00458 7.9216204 1923.0448 660482
-532.31818 8.0386038 1951.4436 2177297
-520.71631 8.0386038 1951.4436 2178314
-511.76434 8.0804443 1961.6008 5012254
-500.10208 8.0804443 1961.6008 4091407
-490.00516 8.1063404 1967.8872 1588741
-478.30548 8.1063404 1967.8872 2246677
-463.50183 8.0524139 1954.7961 2773273
-451.88004 8.0524139 1954.7961 1719817
-448.21481 8.1979418 1990.1243 5603359
-436.38297 8.1979418 1990.1243 3959300
-428.1434 8.2673073 2006.9634 5078029
-416.21143 8.2673073 2006.9634 5341461
-396.77859 8.1139183 1969.7268 3364115
0 0 0 0
0 0 0 0
0 0 0 0
0 0 0 0
0 0 0 0
0 0 0 0
0 0 0 0
0 0 0 0
0 0 0 0
0 0 0 0
-730.22919 22.111395 5367.7402 4605762
-698.31647 22.111395 5367.7402 4868420
-634.34979 21.04784 5109.5527 5131850
-603.97217 21.04784 5109.5527 9407881
-580.48792 21.300795 5170.96 11710892
-559.69763 21.686419 5264.5737 11315878
-531.28259 21.804798 5293.311 11184035
-486.95187 21.243746 5157.1108 2630945
-436.17926 20.307375 4929.7983 2170651
-388.67133 19.399048 4709.2935 855305
-347.05597 18.666632 4531.4932 197376
-314.31741 18.328564 4449.4238 461059
-287.86435 18.328564 4449.4238 1645332
-253.41071 17.767611 4313.2476 1514003
-221.59917 17.286453 4196.4424 1316622
-189.632 16.669525 4046.6775 1317644
-165.57338 16.669525 4046.6775 858630
-135.66277 15.980198 3879.3372 5270571
-112.59902 15.980198 3879.3372 6323007
-88.632027 15.818986 3840.2014 793606
-70.836937 17.029667 4134.1055 661255
-46.27623 17.036184 4135.687 595206
-22.782249 17.895386 4344.2661 1715479
3.1268528 18.372688 4460.1357 3757107
29.310789 18.166414 4410.061 3099693
56.391777 18.448399 4478.5151 1847579
86.592049 19.242678 4671.3335 399365
112.53174 18.934315 4596.4756 594952
142.13681 19.242678 4671.3335 331267
166.55331 18.862617 4579.0703 397573
197.44717 19.219862 4665.7949 1318673
227.45239 19.413246 4712.7407 1122319
254.99919 19.377398 4704.0381 924940
269.80856 18.476383 4485.3086 2174240
0 0 0 0
0 0 0 0
461.12665 24.356098 5912.6621 65794
0 0 0 0
614.11285 28.145479 6832.5684 3879221
654.73444 28.145479 6832.5684 6972516
716.5542 29.003506 7040.8628 11776944
771.85046 29.517344 7165.6011 7171437
885.59204 32.095604 7791.4966 10131349
994.25043 34.242477 8312.6699 10131871
1216.6465 39.917717 9690.3857 7435119
1351.5284 42.338291 10278.002 13751504
1626.6965 48.753998 11835.473 13554381
1663.1473 47.779694 11598.951 13488588
1717.2799 47.370705 11499.666 13488588
1801.0654 47.779694 11598.951 13554125
1884.4075 48.147179 11688.162 13882577
1982.7375 48.857861 11860.687 12500667
2181.6826 51.913902 12602.567 13948369
2481.5564 57.088898 13858.844 13750990
2642.8506 58.845669 14285.316 13553869
2727.7808 58.845669 14285.316 13553868
2304.9275 48.22216 11706.364 13554381
2276.6055 46.233597 11223.622 13554381
2298.8723 45.356392 11010.673 13554381
2364.9668 45.36853 11013.62 13554127
2475.0642 46.201416 11215.811 13553872
2546.9434 46.295898 11238.747 13554385
2613.7607 46.295898 11238.747 13554385
2494.6406 43.084595 10459.174 13554129
2496.7832 42.072872 10213.568 13488336
2462.3694 40.507805 9833.6348 13159115
2583.2097 41.510147 10076.963 7238517
2974.1785 46.709415 11339.132 3685444
3622.6807 55.633121 13505.441 11843768
4300.1743 64.605392 15683.542 13422795
4504.9282 66.245171 16081.612 13553872
4585.1929 66.024216 16027.973 13554129
4635.5303 65.390083 15874.032 13685457
4074.3477 56.32711 13673.914 13685457
3359.4917 45.535786 11054.223 13685457
4548.2681 60.466022 14678.673 13685457
4737.2124 61.792286 15000.634 13685457
4980.2695 63.762333 15478.881 13685457
5096.0684 64.061172 15551.426 13685457
5164.708 63.767094 15480.037 13685457
5046.8149 61.220581 14861.848 13685201
5135.1729 61.220581 14861.848 13685201
5223.9351 61.225323 14862.999 13685201
5334.0288 61.47575 14923.793 13685201
5273.5728 59.784527 14513.233 13685201
3950.0852 44.05975 10695.901 13619665
5122.7344 56.234344 13651.394 13750737
5106.2422 55.179073 13395.218 13750481
6239.1128 66.385735 16115.735 13684945
6343.2603 66.473083 16136.94 13553870
6439.1338 66.472412 16136.777 13423053
6534.9458 66.47113 16136.467 13292236
6630.8818 66.47113 16136.467 13095117
6727.541 66.478279 16138.202 13095629
6823.4883 66.478294 16138.204 12964300
6919.4053 66.478012 16138.137 12175810
7015.3511 66.478012 16138.137 10794668
7111.291 66.477959 16138.124 7901052
7207.2363 66.477959 16138.124 6520925
7303.1836 66.477966 16138.126 5076035
7399.127 66.477951 16138.122 5208901
7495.0728 66.477951 16138.122 5078597
7591.0186 66.477951 16138.122 5013060
7728.1401 66.834053 16224.568 4881732
7824.6001 66.834053 16224.568 4685122
7878.8545 66.477943 16138.12 4553535
7974.48 66.475273 16137.472 4356411
8070.1968 66.473419 16137.022 4093237
8165.8994 66.471497 16136.556 3895855
5843.1865 47.011993 11412.585 4026925
5679.9785 45.17432 10966.474 4026668
5509.1333 43.31831 10515.91 4157996
5692.5854 44.258526 10744.156 4355119
5667.4653 43.574276 10578.048 4684084
5775.8745 43.920414 10662.076 5274431
5773.9932 43.429474 10542.896 4087346
5946.4517 44.246315 10741.191 2302475
6037.8521 44.449062 10790.41 720896
6201.8071 45.17606 10966.896 917504
6220.1929 44.838589 10884.972 851968
6286.1406 44.847385 10887.107 458752
6350.8677 44.847385 10887.107 1775375
6273.644 43.855106 10646.222 1842964
5941.335 41.117306 9981.5967 1119753
6070.0132 41.5924 10096.93 593160
6117.0664 41.504356 10075.557 988426
6027.8428 40.50235 9832.3105 1514771
6061.8662 40.33976 9792.8408 1712408
5917.7656 39.006184 9469.1025 1843996
5974.062 39.006184 9469.1025 1449236
6166.1084 39.884251 9682.2617 1580821
5602.9922 35.906643 8716.6611 2041117
5654.8154 35.906643 8716.6611 2764579
5361.8467 33.737183 8190.0054 2566687
5472.9414 34.126297 8284.4658 1777172
5474.9438 33.834293 8213.5791 1644816
5523.7759 33.834293 8213.5791 1513231
6172.9341 37.479195 9098.4121 1578512
6269.8579 37.736984 9160.9932 1643535
6324.3228 37.736984 9160.9932 1643791
6094.9194 36.057621 8753.3125 1840656
6124.1294 35.923695 8720.8008 2037779
5977.7383 34.770607 8440.8779 1971986
6027.9219 34.770607 8440.8779 1577228
5947.4321 34.023071 8259.4072 1314313
5824.9517 33.049534 8023.0728 1577485
5668.7373 31.901972 7744.4912 1643278
5714.7808 31.901972 7744.4912 1840914
5714.4561 31.645195 7682.1567 2234386
5667.2466 31.13492 7558.2827 1970701
5834.708 31.802757 7720.4062 2168334
5880.6079 31.802757 7720.4062 2497041
5837.2656 31.32387 7604.1514 2365199
5847.1206 31.135611 7558.4502 2036749
5896.5518 31.159357 7564.2148 2300178
5847.2734 30.665081 7444.2246 1970959
5792.3486 30.14884 7318.9028 1971472
5835.8613 30.14884 7318.9028 2103059
6223.3833 31.912884 7747.1401 2038036
6269.4424 31.912884 7747.1401 1774608
5854.4312 29.58305 7181.5518 1840918
5764.2852 28.916643 7019.7759 1249550
5666.9434 28.223982 6851.6255 1118221
5707.6782 28.223982 6851.6255 723721
5748.4131 28.223982 6851.6255 1841947
6529.4956 31.833416 7727.8486 592135
6575.4399 31.833416 7727.8486 197633
6637.5073 31.910931 7746.666 256
5604.1299 26.757132 6495.5352 65793
0 0 0 0
5768.8462 27.169136 6595.5527 657927
6380.0581 29.844852 7245.1074 131584
7150.0132 33.222282 8065.0083 921356
6555.5684 30.257307 7345.2339 263426
6428.2573 29.473364 7154.9248 0
6390.3755 29.107063 7066.0024 0
6503.6509 29.429552 7144.2891 256
6546.126 29.429552 7144.2891 66304
6597.9404 29.47127 7154.4165 857601
6640.4751 29.47127 7154.4165 3424287
6763.5278 29.826344 7240.6138 3161624
6806.5752 29.826344 7240.6138 4938796
6584.96 28.67388 6960.8428 3491862
6049.748 26.178804 6355.1406 3492630
5680.0679 24.42655 5929.7651 3493907
5880.6279 25.133045 6101.2734 5468980
5916.9019 25.133045 6101.2734 7114315
0 0 0 0
0 0 0 0
0 0 0 0
0 0 0 0
0 0 0 0
0 0 0 0
0 0 0 0
0 0 0 0
0 0 0 0
0 0 0 0
0 0 0 0
0 0 0 0
0 0 0 0
-1586.7549 18.799917 1867.9269 395012
-1575.6494 18.799917 1867.9269 592392
-1541.9453 18.528364 1840.9458 329732
-1531.0002 18.528364 1840.9458 461574
-1520.1775 18.529854 1841.0938 66817
-1512.6863 18.572269 1845.308 922381
-1501.7155 18.572269 1845.308 512
-1502.3895 18.717346 1859.7227 198656
-1486.2701 18.653803 1853.4092 1383692
-1495.8008 18.913643 1879.2264 1120518
-1463.0183 18.638342 1851.8729 1384459
-1452.0085 18.638342 1851.8729 660482
-1447.3583 18.720598 1860.0459 199425
-1459.7854 19.026709 1890.4603 1024
-1454.0404 19.098877 1897.631 512
-1449.2891 19.185328 1906.2205 512
-1445.9541 19.29204 1916.8231 512
-1434.5581 19.29204 1916.8231 512
-1424.2228 19.306417 1918.2518 1281
-1422.4464 19.437988 1931.3243 256
-1413.8164 19.477282 1935.2286 512
-1396.512 19.396738 1927.2258 768
-1380.1976 19.328726 1920.4683 264450
-1371.3051 19.364386 1924.0114 266241
-1366.0872 19.452971 1932.813 529153
-1355.1302 19.46064 1933.5752 68608
-1355.8994 19.638279 1951.225 134656
-1345.9646 19.662611 1953.6427 1280
-1337.6351 19.711027 1958.4531 1024
-1326.4803 19.718294 1959.1752 512
-1321.6877 19.8211 1969.3898 256
-1312.0754 19.852819 1972.5413 256
-1302.546 19.886374 1975.8752 256
-1296.0021 19.966536 1983.84 256
-1285.0376 19.979439 1985.1221 256
-1273.762 19.987701 1985.943 512
-1265.7667 20.048075 1991.9417 1024
-1246.5286 19.929832 1980.1932 66816
-1241.4332 20.037611 1990.902 67328
-1226.6584 19.989729 1986.1444 264704
-1219.2223 20.061668 1993.2922 67072
-1213.2478 20.159306 2002.9933 256
-1203.0164 20.187449 2005.7894 512
-1191.5492 20.195206 2006.5602 512
-1179.6196 20.195206 2006.5602 256
-1172.6545 20.281065 2015.0912 67073
-1159.9034 20.267597 2013.7529 512
-1147.2489 20.255552 2012.556 67072
-1135.2836 20.255552 2012.556 132098
-1135.8214 20.481005 2034.9567 1646103
-1121.9365 20.448442 2031.7214 512
-1106.6866 20.390022 2025.917 512
-1096.7966 20.430159 2029.9048 512
-1084.7283 20.430159 2029.9048 512
-1072.6599 20.430159 2029.9048 512
-1030.7659 19.855627 1972.8203 512
-1014.7221 19.771555 1964.4669 66816
-1003.0428 19.771555 1964.4669 512
-997.09424 19.885847 1975.8229 256
-997.8266 20.137695 2000.8462 256
-985.93103 20.137695 2000.8462 256
-970.12201 20.056787 1992.8073 256
-940.62109 19.687305 1956.0962 256
-928.99152 19.687305 1956.0962 0
-919.75714 19.738707 1961.2032 65536
-902.961 19.627064 1950.1106 65536
-885.02191 19.48735 1936.229 65536
-867.9375 19.363022 1923.8759 512
-847.198 19.15274 1902.9827 462852
-838.2196 19.206249 1908.2993 1913108
-827.22522 19.214403 1909.1094 2440474
-815.36127 19.202305 1907.9072 2045458
-804.52484 19.214403 1909.1094 859910
-785.06946 19.018057 1889.6008 1385229
-772.8399 18.993595 1887.1703 726022
-774.422 19.312853 1918.8912 726534
-761.8999 19.284662 1916.0902 594952
-745.27502 19.150192 1902.7296 67328
-739.841 19.303566 1917.9684 66816
-747.51111 19.808996 1968.1871 66304
-753.9845 20.298288 2016.8024 395011
-748.34656 20.472069 2034.069 263425
-731.52472 20.340582 2021.0046 394753
-717.453 20.282454 2015.229 263424
-692.54663 19.910847 1978.3069 198400
-654.98846 19.156378 1903.3441 512
-637.09351 18.960579 1883.8899 857094
-625.89325 18.960579 1883.8899 2043156
-614.69299 18.960579 1883.8899 1320965
-605.15686 19.012863 1889.0847 2967829
-600.81189 19.233303 1910.9873 2178824
-589.45056 19.233303 1910.9873 2769937
-578.08917 19.233303 1910.9873 1123081
-569.08044 19.313145 1918.92 661765
-557.67188 19.313145 1918.92 265472
-547.31909 19.350468 1922.6285 923144
-536.00458 19.354658 1923.0448 1054985
-529.44482 19.534464 1940.9102 1120518
-524.19751 19.771786 1964.4899 1582601
-512.51807 19.771786 1964.4899 595712
-499.66516 19.725458 1959.887 1716232
-484.75714 19.593855 1946.811 730370
-469.0159 19.421309 1929.6671 2902308
-457.54352 19.421309 1929.6671 2047000
-446.07108 19.421309 1929.6671 3430928
-436.00308 19.484066 1935.9027 5802262
-431.73175 19.816296 1968.9125 3498759
-424.55112 20.029785 1990.1243 3694863
-412.11526 20.000471 1987.2117 6064926
-399.15005 19.942978 1981.4993 5075995
0 0 0 0
0 0 0 0
0 0 0 0
0 0 0 0
0 0 0 0
0 0 0 0
0 0 0 0
0 0 0 0
0 0 0 0
0 0 0 0
-698.47321 51.674721 5134.3096 0
-698.31647 54.024105 5367.7402 7763312
-666.40375 54.024105 5367.7402 8420728
-632.54004 53.857986 5351.2349 9276037
-600.72546 53.857986 5351.2349 9736075
-575.35431 54.467976 5411.8423 9933453
-543.17938 54.467976 5411.8423 10525591
-512.46448 54.623596 5427.3047 3156773
-445.74924 50.705009 5037.9609 2696478
-406.87018 49.616394 4929.7983 2499099
-346.4834 45.532375 4524.0171 2433565
-306.48102 43.665154 4338.4932 1512462
-287.52066 44.728157 4444.1113 2499613
-246.54819 42.235474 4196.4424 2631200
-221.59917 42.235474 4196.4424 1776401
-194.01102 41.668652 4140.124 1842964
-172.88417 42.526474 4225.356 1514255
-147.76324 42.526474 4225.356 857095
-125.14098 43.392887 4311.4409 988426
-99.508263 43.392887 4311.4409 1448974
-75.917183 44.592098 4430.5928 1252107
-49.576073 44.592098 4430.5928 1712405
-23.550589 45.197838 4490.7778 1384464
3.1919322 45.823723 4552.9648 529413
29.949116 45.352077 4506.103 1517331
56.339298 45.032475 4474.3477 1451795
85.204414 46.261642 4596.4756 1911063
110.59116 45.463867 4517.21 923399
139.32947 46.086464 4579.0703 922118
165.53488 45.804657 4551.0703 1054217
199.43382 47.431801 4712.7407 1582095
232.5029 48.485012 4817.3857 3951661
255.47093 47.431801 4712.7407 1318922
303.18863 50.727749 5040.2202 988680
359.31375 54.710938 5435.9829 921610
0 0 0 0
461.12665 59.508522 5912.6621 1249039
594.88049 71.331757 7087.3984 1183247
672.63696 75.320404 7483.7026 1512210
685.98718 72.049484 7158.7104 2038809
762.6922 75.426193 7494.2148 1775378
886.61481 82.841988 8231.0352 1644048
959.02307 84.920456 8437.5479 1512721
1026.2946 86.360039 8580.582 1183245
1086.3601 87.08564 8652.6768 1312268
1274.2584 97.529762 9690.3857 1705227
1806.0378 132.25192 13140.319 4988728
2222.4263 155.99525 15499.415 6568022
1962.3203 132.25439 13140.565 9335180
1890.6411 122.54465 12175.822 9864346
1912.2224 119.37295 11860.687 10983851
1982.7375 119.37295 11860.687 11245737
1942.9121 112.95793 11223.302 5055037
2656.3865 149.31044 14835.224 4856377
2744.5862 149.31044 14835.224 6438744
2726.0061 143.68231 14276.021 12497084
2270.156 116.04236 11529.766 13749200
2167.6389 107.55443 10686.42 13553358
2231.1729 107.55443 10686.42 13619663
2364.3337 110.81791 11010.673 13553871
2379.0879 108.50524 10780.891 13685456
2427.1597 107.79361 10710.185 13685457
2432.4578 105.2673 10459.174 13685457
2494.6406 105.2673 10459.174 13685457
2504.4902 103.11268 10245.095 13488336
2354.1636 94.622322 9401.5078 13949144
2410.0581 94.622322 9401.5078 2434085
3298.3792 126.56378 12575.155 2237218
3872.3857 145.29593 14436.349 10000789
4331.8975 159.01289 15799.242 13619661
4425.8281 159.01289 15799.242 13619664
4397.0151 154.69455 15370.18 13685457
4472.5801 154.14948 15316.021 13685457
4225.4121 142.72496 14180.902 13685457
4282.3838 141.81963 14090.949 13619664
4648.0293 150.97522 15000.634 13685457
5076.0088 161.77269 16073.45 13619664
5031.2231 157.38249 15637.248 13619664
5144.6045 158.00945 15699.541 13619664
5217.1592 157.38249 15637.248 13619664
4939.189 146.38857 14544.911 13619664
4855.3398 141.42737 14051.975 13685457
5086.6426 145.65855 14472.378 13685457
5187.2871 146.06975 14513.233 13685457
5442.3555 150.74475 14977.734 13685457
5326.2725 145.15446 14422.293 13685457
5412.0176 145.15446 14422.293 13750737
5106.2422 134.81737 13395.218 13750737
5374.9531 139.7327 13883.597 13750737
5457.4956 139.7327 13883.597 13619664
6087.0132 153.52872 15254.345 13422800
6454.0591 160.3967 15936.735 13357774
6630.6426 162.40105 16135.884 13423310
6727.3203 162.41905 16137.672 13292492
6823.4873 162.42439 16138.202 13292492
6919.3994 162.42358 16138.123 13095627
7015.3452 162.4236 16138.124 12964043
7111.291 162.4236 16138.124 12635852
7207.2363 162.4236 16138.124 12504266
7302.9785 162.41907 16137.674 11781568
7398.5161 162.41017 16136.789 10006434
7495.0088 162.4222 16137.984 7244658
7590.9536 162.4222 16137.984 5668681
7686.8984 162.4222 16137.984 5669445
7782.0771 162.40622 16136.396 5407297
7835.0205 161.51993 16048.337 5474116
5680.0645 115.68644 11494.402 5210945
5556.9414 111.83331 11111.562 5146178
5528.6616 109.95701 10925.136 5014592
5614.7798 110.37306 10966.474 4949054
5446.6138 105.83832 10515.91 4883003
5451.0103 104.72169 10404.964 5079871
5559.0493 105.59889 10492.121 4817211
5621.4277 105.59889 10492.121 4356404
5623.5938 104.48021 10380.971 4553270
5401.4546 99.263702 9862.668 5012286
5461.6143 99.291405 9865.4199 5665343
6037.8521 108.60105 10790.41 917504
6155.479 109.55277 10884.972 917504
5975.0537 105.23527 10455.992 917504
6102.1987 106.36797 10568.535 1248775
5920.3979 102.14719 10149.166 4352825
5943.1982 101.50605 10085.463 4879936
5915.0571 100.01636 9937.4502 5077829
6026.4204 100.89164 10024.417 5340234
6086.0186 100.89164 10024.417 4418622
6133.7715 100.69719 10005.096 4416576
6193.2544 100.69719 10005.096 3493684
6120.0879 98.560928 9792.8408 1055756
5817.0479 92.797829 9220.2295 527878
5097.4097 80.558487 8004.1499 1120014
5037.5596 78.876282 7837.0088 922379
5084.1528 78.876282 7837.0088 1317134
5224.0322 80.310387 7979.4995 1580050
5410.5386 82.429047 8190.0054 1909525
5054.1084 76.312103 7582.2363 1908500
5025.812 75.214005 7473.1318 2566687
5085.8491 75.445526 7496.1353 2237464
5168.0073 75.998329 7551.061 2171671
5212.9004 75.998329 7551.061 2303256
5533.123 79.978058 7946.48 2172185
5580.3672 79.978058 7946.48 2566430
5444.5962 77.377106 7688.0537 2697503
5426.9766 76.484604 7599.3765 2565916
5472.1572 76.484604 7599.3765 2500635
5438.5249 75.392059 7490.8228 2697757
5163.9854 71.004784 7054.9106 2697756
5205.9282 71.004784 7054.9106 2697497
5247.8721 71.004784 7054.9106 2763291
5345.4043 71.750946 7129.0483 2500629
5237.5239 69.749832 6930.2207 3026972
5003.7036 66.115852 6569.1548 3289886
4848.2817 63.566044 6315.811 3224349
4738.6235 61.650837 6125.519 3421984
4749.3887 61.319637 6092.6113 3488292
4937.0928 63.260616 6285.4644 3817770
5063.1279 64.388199 6397.4985 3949099
5190.9985 65.522125 6510.1636 4212527
5348.2744 67.00769 6657.7661 3817770
5268.4082 65.522125 6510.1636 3948842
5272.457 65.094261 6467.6519 4277548
5310.9092 65.094261 6467.6519 3817254
5228.3906 63.622223 6321.3926 3751717
5265.9731 63.622223 6321.3926 3751718
5117.9937 61.396194 6100.2183 3751717
4950.6484 58.970814 5859.2368 3619875
4985.4834 58.970814 5859.2368 3291422
5029.3823 59.07729 5869.8159 3488291
0 0 0 0
0 0 0 0
0 0 0 0
5887.1206 67.285149 6685.3345 2766111
6329.5308 71.856415 7139.5278 2766368
6232.9639 70.288773 6983.7695 2635296
6169.8979 69.117165 6867.3604 2701089
6210.7266 69.117165 6867.3604 2701343
6414.7998 70.921997 7046.6855 2767390
6456.6943 70.921997 7046.6855 3293735
6026.7812 65.772949 6535.085 4017965
5422.7773 58.802113 5842.4746 3491361
5765.5596 62.12117 6172.2505 3820582
5974.1821 63.961884 6355.1406 3162904
5796.3809 61.668266 6127.2505 2900243
5555.4053 58.735367 5835.8433 3163670
5464.6372 57.41711 5704.8638 2637838
5498.5537 57.41711 5704.8638 1849357
5506.374 57.146278 5677.9536 2638609
0 0 0 0
0 0 0 0
0 0 0 0
0 0 0 0
0 0 0 0
0 0 0 0
0 0 0 0
0 0 0 0
0 0 0 0
0 0 0 0
0 0 0 0
0 0 0 0
0 0 0 0
-1586.5271 29.90097 1867.6588 132865
-1575.6494 29.905264 1867.9269 1053966
-1541.9453 29.473299 1840.9458 856842
-1531.0002 29.473299 1840.9458 791047
-1516.4125 29.402664 1836.5338 659718
-1511.7058 29.523989 1844.1119 527622
-1502.228 29.553221 1845.9379 330499
-1502.3895 29.773912 1859.7227 1280
-1506.9733 30.086168 1879.2264 768
-1498.108 30.132574 1882.1251 330497
-1470.7234 29.804382 1861.6257 725254
-1452.0787 29.649675 1851.9624 790789
-1448.137 29.795111 1861.0466 264704
-1466.9998 30.4156 1899.8032 1024
-1460.6221 30.518339 1906.2205 768
-1457.3502 30.688087 1916.8231 67074
-1447.0319 30.710958 1918.2518 512
-1435.6273 30.710958 1918.2518 256
-1424.2228 30.710958 1918.2518 1024
-1414.7004 30.751873 1920.8074 256
-1409.8458 30.895742 1929.7937 512
-1398.1407 30.890615 1929.4735 512
-1385.0541 30.85463 1927.2258 768
-1383.8828 31.085697 1941.6586 512
-1375.035 31.146765 1945.4729 768
-1374.5825 31.400646 1961.3308 1280
-1362.9219 31.400646 1961.3308 1024
-1349.2103 31.352989 1958.3539 768
-1346.8882 31.571472 1972.0007 768
-1335.1642 31.571472 1972.0007 768
-1326.0403 31.633503 1975.8752 512
-1319.5911 31.761015 1983.84 512
-1311.161 31.842726 1988.9436 256
-1301.8345 31.903952 1992.7679 256
-1295.05 32.029171 2000.5894 512
-1285.4623 32.086739 2004.1851 512
-1287.3234 32.433838 2025.8652 396800
-1275.2791 32.433838 2025.8652 791809
-1246.9114 32.014732 1999.6874 792579
-1226.6584 31.797909 1986.1444 1121031
-1216.3202 31.836388 1988.5477 1280
-1213.2478 32.067657 2002.9933 768
-1203.4788 32.124763 2006.5602 768
-1202.1456 32.41045 2024.4045 768
-1179.6196 32.124763 2006.5602 256
-1171.8757 32.239918 2013.7529 1280
-1154.5653 32.091549 2004.4854 1024
-1147.931 32.239918 2013.7529 593672
-1130.731 32.091549 2004.4854 593415
-1128.8695 32.379982 2022.5013 1053966
-1128.7247 32.7244 2044.0143 256
-1116.5725 32.7244 2044.0143 512
-1104.4203 32.7244 2044.0143 512
-1088.1384 32.600674 2036.2864 512
-1076.0322 32.600674 2036.2864 132096
-1034.1383 31.687927 1979.2748 67072
-1015.0929 31.462349 1965.1848 512
-1003.4296 31.462984 1965.2245 512
-1007.626 31.96678 1996.6924 256
-998.42877 32.052616 2002.0536 256
-985.93103 32.033283 2000.8462 256
-970.12201 31.904581 1992.8073 65536
-943.08521 31.398882 1961.2205 65536
-931.41705 31.398605 1961.2032 65536
-921.20734 31.448112 1964.2955 65536
-905.08185 31.294346 1954.691 65536
-889.86975 31.16857 1946.8348 0
-867.9375 30.800999 1923.8759 512
-847.198 30.466501 1902.9827 133120
-835.88422 30.466501 1902.9827 1846031
-828.33197 30.605482 1911.6636 1847823
-816.96661 30.605482 1911.6636 928257
-807.23352 30.667496 1915.5371 2442503
-793.82947 30.589821 1910.6854 2180102
-773.83527 30.252262 1889.6008 1653252
-770.44855 30.56357 1909.0457 1717257
-758.77411 30.550497 1908.2291 925445
-740.23334 30.256374 1889.8578 2560
-752.82733 31.245405 1951.6342 66560
-756.4032 31.885254 1991.6 0
-755.52521 32.354717 2020.9233 256
-743.51019 32.354717 2020.9233 0
-729.97089 32.287292 2016.7119 65792
-717.98096 32.287292 2016.7119 256
-705.99109 32.287292 2016.7119 256
-680.78497 31.672432 1978.3069 512
-643.67255 30.472288 1903.3441 512
-633.5 30.527388 1906.7856 527618
-616.388 30.243998 1889.0847 1024
-605.15686 30.243998 1889.0847 3098384
-599.68945 30.537495 1907.4171 4349976
-588.3493 30.537495 1907.4171 2769933
-581.55591 30.778128 1922.4473 858373
-581.7254 31.404293 1961.5585 1024
-570.06335 31.404293 1961.5585 512
-559.64685 31.474339 1965.9337 256
-550.25208 31.60606 1974.1613 768
-545.35883 32.007725 1999.2496 512
-533.47272 32.007725 1999.2496 512
-512.51807 31.451225 1964.4899 1024
-493.50232 30.990524 1935.7139 768
-484.75714 31.168188 1946.811 264963
-470.4856 30.990524 1935.7139 199681
-461.60849 31.168188 1946.811 1516304
-463.37793 32.092342 2004.535 200192
-448.21481 31.861626 1990.1243 3951911
-431.73175 31.522028 1968.9125 727040
-420.46106 31.554674 1970.9517 200192
-408.32031 31.522028 1968.9125 1121539
-390.64581 31.047646 1939.2817 512
0 0 0 0
0 0 0 0
0 0 0 0
0 0 0 0
0 0 0 0
0 0 0 0
0 0 0 0
0 0 0 0
0 0 0 0
0 0 0 0
-698.47321 82.199623 5134.3096 197120
-694.49866 85.466988 5338.394 2960425
-666.40375 85.936813 5367.7402 7630955
-636.29218 86.180763 5382.9775 8881279
-604.28888 86.180763 5382.9775 10065040
-576.99817 86.890434 5427.3047 10262418
-543.17938 86.642883 5411.8423 10394003
-523.10443 88.694473 5539.9878 2630942
-470.24615 85.089737 5314.8306 3682858
-444.57114 86.238716 5386.5977 4208945
-346.4834 72.428917 4524.0171 4143150
0 0 0 0
0 0 0 0
0 0 0 0
-218.62521 66.282837 4140.124 4012848
-194.01102 66.282837 4140.124 3223846
-172.88417 67.647392 4225.356 2631968
-147.76324 67.647392 4225.356 724229
-129.4863 71.422401 4461.1489 1579537
-103.36662 71.702011 4478.6138 2040085
-76.654549 71.622162 4473.626 3684909
-50.057594 71.622162 4473.626 3224100
-23.849237 72.808495 4547.7261 1909010
3.2522669 74.270195 4639.0259 2107415
30.260576 72.892372 4552.9648 2897702
57.877087 73.588966 4596.4756 1778707
86.463959 74.676804 4664.4233 2896162
112.53174 73.588966 4596.4756 2171414
138.60205 72.927574 4555.1636 2499864
161.34824 71.019234 4435.9663 2696733
199.43382 75.450363 4712.7407 1775631
252.42029 83.732689 5230.0674 1644817
283.5145 83.732689 5230.0674 1381900
328.43115 87.411514 5459.8525 1513230
369.20612 89.425407 5585.6431 2039319
425.97421 94.660942 5912.6621 1315342
548.42651 112.58202 7032.0391 1380622
606.40173 115.66589 7224.6621 1578001
672.63696 119.8131 7483.7026 1840915
711.13257 118.81113 7421.1187 1578000
755.25317 118.81113 7421.1187 1709586
838.79156 124.66981 7787.0601 1775379
952.31079 134.13855 8378.4922 1907221
1015.3046 135.90294 8488.6982 1972758
1084.3619 138.27341 8636.7617 1841174
1230.9476 149.86867 9361.0186 2038552
1481.796 172.60574 10781.209 2104346
2222.4263 248.14359 15499.415 2301982
1962.3203 210.37871 13140.565 2433825
1814.9178 187.12595 11688.162 2433312
1809.4609 179.68358 11223.302 2236189
1876.1866 179.68358 11223.302 2499105
1895.2826 175.27873 10948.168 2301470
2481.5564 221.87825 13858.844 2235678
2025.4625 175.27873 10948.168 2169634
2083.7981 174.71242 10912.796 1775135
2136.5127 173.72327 10851.012 591628
0 0 0 0
2171.793 166.53487 10402.014 4602182
2267.1802 169.03586 10558.229 8616070
2379.0879 172.60063 10780.891 10918565
2427.1597 171.46864 10710.185 10261914
2423.4788 166.83188 10420.565 12630975
2485.4319 166.83188 10420.565 13947605
2551.5315 167.10344 10437.527 13816530
2579.9468 164.95268 10303.188 12764099
2641.2021 164.95268 10303.188 2039582
3542.387 216.22034 13505.441 4802629
3872.3857 231.12404 14436.349 5000520
4424.2046 258.33371 16135.904 14079955
4489.9023 256.60574 16027.973 12367799
4397.0151 246.07455 15370.18 13684942
4459.4961 244.49017 15271.217 12302521
4538.3032 243.84622 15230.995 13355723
3892.5723 205.05911 12808.295 13487818
3882.6187 200.61029 12530.415 7892071
5076.0088 257.33383 16073.45 8813956
4980.2695 247.81483 15478.881 10657439
5072.2954 247.81483 15478.881 13553103
4852.7158 232.86211 14544.911 7235691
4497.1934 212.02386 13243.323 11711153
4145.6729 192.08813 11998.108 13487822
4015.6323 182.91544 11425.168 13619407
4235.5571 189.72395 11850.438 13619664
5043.9248 222.23662 13881.227 13685457
4857.2788 210.56769 13152.368 13685457
4935.4736 210.56769 13152.368 13685201
5013.668 210.56769 13152.368 13685201
5185.8804 214.45566 13395.218 13684944
5265.5186 214.45566 13395.218 13619919
5600.5664 224.70308 14035.286 13619663
6079.5835 240.34111 15012.06 13423310
6630.4561 258.32614 16135.431 13423310
6726.4878 258.33002 16135.676 13423309
6823.2627 258.362 16137.672 13423308
6918.9639 258.35297 16137.107 13423308
7014.9038 258.35297 16137.107 13489102
7111.0933 258.36203 16137.674 13489101
7207.0356 258.36203 16137.674 13357515
7302.8105 258.35608 16137.302 13226957
7398.5161 258.34787 16136.789 13095627
7495.0088 258.367 16137.984 12964044
7590.9536 258.367 16137.984 12636362
7686.8984 258.367 16137.984 11782335
7782.0771 258.34158 16136.396 9217940
7189.5366 235.76456 14726.203 6917998
5331.1357 172.71921 10788.297 5933134
5278.5674 168.98303 10554.93 5604674
5372.8618 169.98094 10617.261 5408063
5435.9844 169.98094 10617.261 5342528
5171.8242 159.86443 9985.3682 4750135
5231.1904 159.86443 9985.3682 5276226
5410.9541 163.50249 10212.607 5012544
5411.1577 161.69426 10099.662 4551738
5471.2031 161.69426 10099.662 3300648
5401.4546 157.90001 9862.668 3497260
5535.8364 160.09048 9999.4883 3297066
5704.1025 163.2039 10193.957 924932
5903.9297 167.14539 10440.147 1449485
5958.4907 166.93501 10427.008 1778707
5860.0581 162.48682 10149.166 1911575
5896.8638 161.84091 10108.822 1189134
5891.8164 160.07097 9998.2695 990733
5911.8286 159.01042 9932.0254 1519383
5970.8774 159.01042 9932.0254 1519125
6086.0186 160.48959 10024.417 2110494
6133.7715 160.18027 10005.096 2044446
6193.2544 160.18027 10005.096 2307105
5762.2314 147.61465 9220.2295 2175006
5117.1602 129.85416 8110.8823 2306850
4827.1538 121.35134 7579.7837 1714713
4872.2178 121.35134 7579.7837 1780507
5051.5439 124.66474 7786.7437 1912092
5106.8496 124.8851 7800.5078 1780506
5153.2256 124.8851 7800.5078 1780248
4898.8223 117.66091 7349.2744 1715227
4771.4688 113.58899 7094.936 1649690
4986.2095 117.66091 7349.2744 1715228
4948.8496 115.76489 7230.8462 1978656
4991.8389 115.76489 7230.8462 1847327
5052.7529 116.17704 7256.5894 1847841
5095.8955 116.17704 7256.5894 1913889
5080.7524 114.85939 7174.2866 1847838
4756.5273 106.63451 6660.5488 2176545
4796.1265 106.63451 6660.5488 2176289
4953.1143 109.2231 6822.2363 1979165
4826.0327 105.5564 6593.208 1913113
4509.3477 97.835129 6110.9263 2373919
4545.6787 97.835129 6110.9263 2637089
4514.3901 96.391296 6020.7427 2373917
4466.106 94.610168 5909.4907 2900260
4656.7803 97.879425 6113.6938 2834468
4586.4116 95.653763 5974.6753 2637088
4553.5791 94.239143 5886.3159 2176537
4588.5747 94.239143 5886.3159 2373916
4767.4561 97.171867 6069.4985 2966308
4807.3838 97.249603 6074.3535 2834722
4972.2495 99.83474 6235.8252 3098406
5009.3237 99.83474 6235.8252 3295271
5046.397 99.83474 6235.8252 2966307
4984.3911 97.888901 6114.2852 2571293
5140.8276 100.23019 6260.5259 3097378
5178.0479 100.23019 6260.5259 3689515
5215.2686 100.23019 6260.5259 4018481
4997.1709 95.358093 5956.2075 3294757
4681.5601 88.706879 5540.7627 3491880
4714.5015 88.706879 5540.7627 3294757
4747.4424 88.706879 5540.7627 3097891
0 0 0 0
0 0 0 0
5007.584 91.65966 5725.1978 3427628
5808.0586 105.59393 6595.5527 3230506
5847.271 105.59393 6595.5527 3098665
5918.5791 106.16968 6631.5146 2901031
5583.2988 99.492523 6214.4502 2835238
5345.0278 94.620483 5910.1348 3032618
5754.4722 101.20338 6321.3125 2703652
5792.0542 101.20338 6321.3125 3295790
5205.7695 90.372963 5644.8286 3032613
5161.0518 89.022743 5560.4922 3295781
5295.0059 90.752029 5668.5054 2770206
5508.8535 93.820061 5860.1392 3033379
5520.7095 93.431084 5835.8433 3362088
5287.7671 88.929924 5554.6943 3164708
5464.6372 91.334114 5704.8638 3296806
5403.7739 89.759766 5606.5273 3099426
5379.8188 88.814026 5547.4551 3231268
0 0 0 0
0 0 0 0
0 0 0 0
0 0 0 0
0 0 0 0
0 0 0 0
0 0 0 0
0 0 0 0
0 0 0 0
0 0 0 0
0 0 0 0
0 0 0 0
0 0 0 0
-1551.4852 40.099045 1826.4075 396289
-1556.7051 40.517529 1845.4684 462850
-1548.0181 40.577423 1848.1963 1121545
-1537.0302 40.577423 1848.1963 1253387
-1516.4125 40.321369 1836.5338 1252620
-1511.7058 40.487747 1844.1119 133120
-1503.3716 40.558685 1847.343 66816
-1502.3895 40.830482 1859.7227 1024
-1509.2979 41.32233 1882.1251 768
-1503.824 41.479996 1889.3063 256
-1476.786 41.040749 1869.2997 512
-1452.1478 40.662045 1852.0507 461314
-1441.137 40.662045 1852.0507 1536
-1459.7854 41.505333 1890.4603 67328
-1459.5078 41.81942 1904.7662 264194
-1457.3502 42.084133 1916.8231 133121
-1442.7999 41.992332 1912.6418 199427
-1434.5581 42.084133 1916.8231 396549
-1415.6293 41.861385 1906.6775 132865
-1415.3712 42.191601 1921.7181 768
-1409.8458 42.368904 1929.7937 198402
-1399.0116 42.38826 1930.6754 512
-1387.5332 42.38826 1930.6754 512
-1386.6014 42.713142 1945.4729 768
-1388.4908 43.131126 1964.5109 264192
-1379.6017 43.21854 1968.4924 512
-1367.8984 43.21854 1968.4924 768
-1356.1953 43.21854 1968.4924 768
-1350.2606 43.403969 1976.9382 1024
-1338.7178 43.410801 1977.2494 264704
-1324.4425 43.328358 1973.4944 198400
-1322.0297 43.63599 1987.5061 512
-1316.5593 43.847336 1997.1324 512
-1306.9441 43.923233 2000.5894 512
-1300.5983 44.111408 2009.1603 256
-1301.7588 44.560017 2029.5931 512
-1294.9849 44.742882 2037.9222 256
-1282.8689 44.742882 2037.9222 133120
-1263.2346 44.478168 2025.8652 1516045
-1235.0227 43.903431 1999.6874 1536
-1219.3566 43.767845 1993.5118 1024
-1207.5048 43.767845 1993.5118 1792
-1226.0387 44.88015 2044.1746 133120
-1193.8922 44.140953 2010.506 1252108
-1179.4972 44.049751 2006.3519 857352
-1171.8757 44.212238 2013.7529 395779
-1163.364 44.344143 2019.7609 725001
-1151.356 44.344143 2019.7609 132609
-1135.3212 44.187424 2012.6226 132864
-1128.8695 44.404316 2022.5013 593415
-1116.8451 44.404316 2022.5013 198146
-1101.4539 44.268993 2016.3379 264961
-1094.642 44.479305 2025.917 132864
-1082.5974 44.479305 2025.917 1713679
-1063.1777 44.17289 2011.9606 727041
-1044.5616 43.893265 1999.2244 332032
-1018.1998 43.277973 1971.1996 265472
-1006.4805 43.277973 1971.1996 199424
-1001.7675 43.582798 1985.0834 264960
-998.42877 43.955379 2002.0536 512
-983.87286 43.83717 1996.6694 256
-954.74518 43.05888 1961.2205 65536
-939.48114 42.894333 1953.7256 65536
-928.17706 42.908726 1954.3812 65536
-921.20734 43.126396 1964.2955 65536
-908.14508 43.060776 1961.3066 65536
-891.85974 42.838631 1951.1886 0
-871.20142 42.397816 1931.1106 512
-847.198 41.780262 1902.9827 329728
-835.88422 41.780262 1902.9827 256
-828.33197 41.970856 1911.6636 1024
-815.875 41.914776 1909.1094 858372
-800.18811 41.688839 1898.8185 2440724
-785.59198 41.514072 1890.8584 2046473
-774.35028 41.514072 1890.8584 1453831
-772.93921 42.04887 1915.217 68352
-758.77411 41.895451 1908.2291 1024
-747.07861 41.875805 1907.3342 768
-752.82733 42.848412 1951.6342 0
-755.91919 43.697887 1990.3256 256
-754.33575 44.299816 2017.7418 256
-742.33972 44.299816 2017.7418 65536
-729.97089 44.277206 2016.7119 65536
-719.25562 44.355812 2020.2922 256
-708.63196 44.442833 2024.2559 256
-682.67004 43.554283 1983.7847 256
-668.57062 43.404617 1976.9679 256
-654.0069 43.218918 1968.5098 256
-633.15424 42.603287 1940.4692 512
-621.61761 42.603287 1940.4692 2106136
-611.58643 42.708416 1945.2576 512
-600.0213 42.708416 1945.2576 256
-601.51624 43.656273 1988.4299 256
-583.5885 43.204231 1967.8408 512
-576.4707 43.550354 1983.6057 512
-580.90741 44.802067 2040.618 512
-573.19336 45.150066 2056.4685 512
-563.15314 45.326015 2064.4824 512
-558.60693 45.961849 2093.4431 512
-546.16083 45.961849 2093.4431 512
-499.66516 43.029606 1959.887 256
-516.64764 45.554405 2074.885 66560
-488.4458 44.121227 2009.6074 768
-479.96399 44.442142 2024.2244 768
-467.92941 44.442142 2024.2244 330753
-443.89679 43.27253 1970.9517 198401
0 0 0 0
0 0 0 0
0 0 0 0
0 0 0 0
0 0 0 0
0 0 0 0
0 0 0 0
0 0 0 0
0 0 0 0
0 0 0 0
0 0 0 0
0 0 0 0
0 0 0 0
0 0 0 0
-709.19501 114.45487 5213.123 789768
-682.01385 115.09825 5242.4272 1052427
-672.33673 118.89874 5415.5293 4407612
-636.29218 118.18407 5382.9775 7301477
-604.28888 118.18407 5382.9775 6116946
-576.99817 119.15726 5427.3047 7103329
-544.73132 119.15726 5427.3047 8484980
-523.10443 121.63124 5539.9878 10327183
-502.43195 124.67453 5678.6016 3024417
-473.97174 126.08461 5742.8271 3682347
-412.54636 118.26355 5386.5977 3024671
0 0 0 0
0 0 0 0
0 0 0 0
0 0 0 0
-200.22952 93.810493 4272.8247 3025699
-174.82639 93.810493 4272.8247 3026468
-142.1993 89.275162 4066.2522 2895139
-129.4863 97.945175 4461.1489 2763298
-105.34866 100.21407 4564.4907 2565660
-78.691231 100.82877 4592.4888 2959902
-58.009533 113.82179 5184.2876 3683881
-24.523945 102.67069 4676.3838 4473397
3.3603544 105.23544 4793.2017 3487014
31.080862 102.67069 4676.3838 3487015
79.827583 139.18987 6339.7373 3289379
117.67197 139.37093 6347.9844 3947053
155.41251 139.37093 6347.9844 3880746
141.92654 102.4081 4664.4233 4012334
165.68378 100.00929 4555.1636 3617319
203.8622 105.76641 4817.3857 4999229
269.71967 122.69645 5588.5049 4274478
295.97083 119.87186 5459.8525 3748391
341.85092 124.76985 5682.9434 4208686
379.21536 125.95824 5737.0708 2037520
504.05008 153.60655 6996.3804 3419427
559.77203 157.58336 7177.5137 2958619
611.13824 159.85745 7281.0928 3551013
666.84167 162.89017 7419.2246 3222047
