# .PCD v0.7 - Point Cloud Data file format
VERSION 0.7
FIELDS x y z rgb
SIZE 4 4 4 4
TYPE F F F U
COUNT 1 1 1 1
WIDTH 1360
HEIGHT 1
VIEWPOINT 0 0 0 1 0 0 0
POINTS 1360
DATA ascii
-2677.8999 402.92404 3441.4541 65536
-2680.009 406.34607 3470.6821 65536
-2659.3748 406.34607 3470.6821 65536
-2677.3127 412.28586 3521.415 65536
-2666.8342 413.90887 3535.2776 65536
-2694.6646 421.55075 3600.5481 65536
-2693.2014 424.69556 3627.4089 65536
-2671.6355 424.69556 3627.4089 65536
-2640.7456 423.20135 3614.6462 65536
-2640.0671 426.56396 3643.3669 65536
-2565.0085 417.86496 3569.0671 65536
-2545.0352 418.06955 3570.8147 65536
-2527.989 418.76254 3576.7336 65536
-2550.5825 426.08932 3639.313 65536
-2552.6182 430.07773 3673.3789 131328
-2677.4839 455.00864 3886.3186 197120
-2681.166 459.60049 3925.5386 131328
-2658.97 459.79797 3927.2256 591879
-2769.5635 483.16489 4126.8066 197121
-2745.0286 483.16489 4126.8066 1052429
-2658.9368 472.2323 4033.4294 526086
-2638.9756 472.95251 4039.5808 1710360
-2614.9592 472.95251 4039.5808 1709844
-2619.1755 478.10617 4083.5994 1183500
-2607.0059 480.3371 4102.6543 1709330
-2570.6194 478.10617 4083.5994 2367260
-2538.7297 476.677 4071.3926 2301210
-2514.5242 476.677 4071.3926 2563868
-2527.1775 483.73227 4131.6528 3353384
-2502.6135 483.73227 4131.6528 459008
-2582.416 504.10526 4305.6626 5918797
-2574.5332 507.59811 4335.4956 6246736
-2531.2192 504.10526 4305.6626 5589317
-2413.1072 485.49246 4146.687 6707543
-2393.4326 486.50439 4155.3301 6115660
-2341.1348 480.83716 4106.9253 6246733
-2365.4719 490.95612 4193.353 5128505
-2385.7034 500.42935 4274.2661 8417641
-2414.2227 511.8638 4371.9297 9667703
-2388.2302 511.8638 4371.9297 8351325
-2360.0835 511.397 4367.9429 7693136
-2334.115 511.397 4367.9429 6048567
-2286.4771 506.59595 4326.936 6377532
-2259.3264 506.27637 4324.2065 6048568
-2167.6047 491.31372 4196.4077 3353119
-2220.3806 509.13614 4348.6323 4141088
-2232.6187 517.97357 4424.1143 5784878
-2206.3159 517.97357 4424.1143 6968897
-2194.3337 521.3761 4453.1763 7429705
-2167.8586 521.3761 4453.1763 6508861
-2087.5081 508.25879 4341.1387 8548444
-2056.7151 507.03015 4330.6445 8219223
-2034.8464 507.99838 4338.9146 7758417
-2060.0024 520.88184 4448.9551 6903878
-2057.0798 526.90833 4500.4282 8877670
-2034.5898 528.0155 4509.8848 6969674
-2007.7773 528.0155 4509.8848 8154717
-1964.3081 523.57574 4471.9639 6707528
-1964.9047 530.92084 4534.6997 7957850
-1881.6549 515.49963 4402.9844 8090201
-1814.0146 503.98004 4304.5933 6447684
-1780.2094 501.66556 4284.8247 5463592
-1748.4088 499.85699 4269.3774 3823125
-1748.4082 507.22046 4332.27 4086808
-1722.6516 507.22046 4332.27 4876838
-1687.3324 504.36206 4307.856 4350238
-1663.838 505.00458 4313.3438 3956252
-1650.9469 508.93594 4346.9224 3496472
-1620.4188 507.4689 4334.3921 3233302
-1574.8789 501.17725 4280.6538 3562011
-1489.0918 481.66049 4113.9575 4220710
-1464.6332 481.66049 4113.9575 4483882
-1420.7687 475.17029 4058.5234 3628832
-1336.0812 454.56686 3882.5454 5142073
-1338.1875 463.28748 3957.0298 5471039
-1314.662 463.28748 3957.0298 4089386
-1335.3767 479.1619 4092.6162 5405245
-1311.0449 479.1619 4092.6162 6195017
-1289.7451 480.29092 4102.2598 4748084
-1200.27 455.58627 3891.2524 4090665
-1171.343 453.34442 3872.1042 3959078
-1141.7433 450.74713 3849.9204 3893797
-1095.4073 441.30115 3769.2402 3499039
-1090.709 448.58517 3831.4546 3697186
-1074.2755 451.25067 3854.2209 4289580
-1040.4768 446.57901 3814.3196 4881717
-1010.7899 443.50342 3788.0503 5802562
-966.0993 433.55441 3703.0737 5539650
-943.04968 433.07968 3699.019 6460751
-921.05804 433.07968 3699.019 6723666
-890.77704 429.0867 3664.9146 5013303
-831.55206 410.60162 3507.0298 4749875
-783.83124 396.99234 3390.79 5013561
-802.01453 416.92453 3561.0349 5013559
-780.8432 416.92453 3561.0349 6263116
-781.16583 428.72089 3661.7898 4882487
-772.35577 436.03772 3724.2844 3895076
-750.62952 436.27933 3726.3479 3895075
-741.28943 443.95358 3791.8953 4619055
-718.45441 443.77374 3790.3594 4619567
-685.75018 437.28888 3734.9707 3961380
-665.06396 438.29004 3743.522 3961634
-640.29492 436.57675 3728.8884 4422441
-592.617 418.56024 3575.0056 3961890
-570.26123 417.75345 3568.1147 3172888
-552.4491 420.3414 3590.2188 3765023
-540.93573 428.12247 3656.6787 4028194
-519.19574 428.12247 3656.6787 3830558
-493.19739 424.45761 3625.3762 3962399
-474.99866 427.47708 3651.166 4751913
-452.47311 426.70529 3644.5745 3764251
-424.01892 419.9837 3587.1638 3303705
-402.69223 419.9837 3587.1638 4619567
-360.19431 396.66861 3388.0249 5408320
-340.05151 396.66861 3388.0249 5737029
-319.90878 396.66861 3388.0249 5145149
-309.47122 409.51111 3497.7151 5145662
-278.53433 395.12384 3374.8308 6002002
-251.88426 385.05618 3288.8408 3764265
-243.83289 404.11862 3451.657 5211196
-223.31183 404.11862 3451.657 4619060
-202.74106 404.01953 3450.8105 5276989
-181.69522 402.84491 3440.7778 6593104
-160.69856 401.49506 3429.2485 6330187
-139.55925 399.34473 3410.8823 6395977
-118.97732 398.32932 3402.2095 4751405
-97.925621 395.00308 3373.7993 4816941
-78.523155 398.32932 3402.2095 3765279
-60.86417 415.87683 3552.0862 4028451
-38.987988 407.94513 3484.3398 4226085
-18.089127 403.84863 3449.3508 3699485
2.4182253 403.84863 3449.3508 3304727
22.925575 403.84863 3449.3508 2514955
44.640236 415.07443 3545.2327 3041556
67.156609 424.16306 3622.8606 2975764
79.761436 381.43814 3257.9385 3435802
99.130791 381.43814 3257.9385 4159014
125.93249 405.36203 3462.2771 4619314
141.59663 391.74985 3346.0129 4816438
159.44522 386.7905 3303.6541 5343809
177.5704 383.51633 3275.6887 5606981
198.26512 385.89053 3295.9673 4422962
222.47266 394.05978 3365.7427 5277504
237.52597 386.00424 3296.9385 6395731
255.00032 382.81134 3269.6672 6921563
274.43939 382.81134 3269.6672 6066251
293.87848 382.81134 3269.6672 6066761
309.8645 378.59238 3233.6323 3961897
306.18845 352.24664 3008.6082 3304479
324.07547 352.24664 3008.6082 3502110
345.61185 356.00574 3040.7156 3238935
372.95508 365.07532 3118.1804 3633437
396.17291 369.43893 3155.4509 4093987
419.70966 373.69193 3191.7766 3501848
435.51404 370.9902 3168.7007 3699482
453.46835 370.26801 3162.5322 3173136
453.86105 355.83469 3039.2544 3567894
467.18344 352.25562 3008.6848 3370773
479.3689 348.11484 2973.3176 3699737
502.10065 351.65488 3003.5537 4028959
508.33737 343.79593 2936.429 2120965
538.65814 352.20645 3008.2649 4620840
541.79645 342.87405 2928.5549 2185989
559.20752 342.87405 2928.5549 4488745
568.40533 337.99023 2886.8413 2580748
585.56842 337.99023 2886.8413 3436315
599.90332 336.4043 2873.2954 2581006
616.98584 336.4043 2873.2954 3173144
632.45306 335.54727 2865.9756 3699490
634.04126 327.56491 2797.7966 3962661
650.67493 327.56491 2797.7966 3567646
667.30865 327.56491 2797.7966 3699234
687.40973 329.22559 2811.981 3304219
704.42328 329.36377 2813.1611 3698722
701.67371 320.4693 2737.1917 2777875
717.94708 320.4693 2737.1917 3765025
734.62555 320.64612 2738.7019 3304475
752.89838 321.49609 2745.9617 2646290
743.05743 310.55984 2652.553 3896359
748.47986 306.32492 2616.3816 4882487
750.53906 300.91397 2570.1658 3829542
774.12036 304.17569 2598.0247 3566371
786.039 302.8168 2586.4182 3829801
801.41602 302.8168 2586.4182 3106080
828.15082 307.02759 2622.3833 3368740
860.3797 313.082 2674.0952 3697449
880.29095 314.51578 2686.3416 5342274
892.17615 313.082 2674.0952 2710555
902.4223 311.1333 2657.4509 4618808
918.22156 311.1333 2657.4509 4816188
925.56909 308.31787 2633.4041 4552758
923.08789 302.37656 2582.658 4947774
939.35156 302.66949 2585.1599 5408068
954.72101 302.66949 2585.1599 4553270
969.89581 302.60873 2584.6409 4487476
985.26221 302.60873 2584.6409 4290348
980.87756 296.63562 2533.6235 4816693
952.96484 283.83551 2424.2952 5934922
963.07715 282.57361 2413.5171 3434529
977.42615 282.57361 2413.5171 3500318
1003.3831 285.88089 2441.7651 5540412
1017.9 285.88089 2441.7651 2777101
1045.4243 289.4827 2472.5288 3698460
1029.772 281.19455 2401.7383 4093216
1008.326 271.57275 2319.5566 4619560
1011.6501 268.7919 2295.8047 4356642
1025.2994 268.7919 2295.8047 3501587
1047.1282 270.90811 2313.8796 3698966
1111.9836 283.95673 2425.3303 3896341
1126.403 283.95673 2425.3303 3501840
1126.4902 280.3894 2394.8613 2975238
0 0 0 0
0 0 0 0
1136.9346 272.65067 2328.7632 3041286
1129.219 267.54236 2285.1321 4422682
1171.0311 274.15045 2341.573 3633166
1164.4359 269.40375 2301.0305 4488985
1198.8737 274.15045 2341.573 3502089
1176.2809 265.89645 2271.0742 3765259
1178.7458 263.42984 2250.0063 4160016
1150.2294 254.17244 2170.937 3699720
1143.9733 249.98491 2135.1704 3633417
1173.2198 253.56229 2165.7256 4817689
1182.7329 252.8434 2159.5854 4488981
1187.0393 251.03882 2144.1721 4225297
1199.787 251.03882 2144.1721 4949274
1201.4036 248.73425 2124.4885 3699206
1227.7825 251.55104 2148.5471 4160010
1245.9698 252.64879 2157.9231 4028425
1257.8375 252.45575 2156.2744 5080347
1270.6572 252.45575 2156.2744 5869609
1283.4768 252.45575 2156.2744 4619796
1283.8685 250.03537 2135.6016 5540639
0 0 0 0
1198.2386 228.83276 1954.5059 5408792
1300.4017 245.9581 2100.7766 4356103
1312.8915 245.9581 2100.7766 4882446
1285.2452 238.50984 2037.1598 5869083
0 0 0 0
1214.1899 221.15562 1888.934 5606422
1262.7603 227.8945 1946.4919 5080332
1377.0417 246.26242 2103.376 4751367
1376.2384 243.90381 2083.2307 5475088
1412.2 248.04482 2118.5999 5606930
1424.7955 248.04482 2118.5999 5277963
1412.4137 243.73453 2081.7849 5475085
1424.7904 243.73453 2081.7849 5080326
1444.1622 244.92085 2091.9175 5277961
1434.5909 241.22025 2060.3098 5409291
1400.6096 233.5126 1994.4773 5014532
1348.2209 222.89125 1903.7582 5475083
0 0 0 0
0 0 0 0
0 0 0 0
0 0 0 0
0 0 0 0
0 0 0 0
0 0 0 0
0 0 0 0
0 0 0 0
0 0 0 0
0 0 0 0
0 0 0 0
0 0 0 0
0 0 0 0
0 0 0 0
0 0 0 0
0 0 0 0
1516.251 217.76392 1859.9646 4619027
1527.309 217.76392 1859.9646 4750611
1507.9789 213.46231 1823.2239 2974208
1518.8185 213.46231 1823.2239 5738015
1515.0057 211.4176 1805.7595 5869087
1508.6571 209.05026 1785.5397 5869090
1514.6926 208.42009 1780.1571 6000419
0 0 0 0
0 0 0 0
0 0 0 0
0 0 0 0
1633.9542 217.24075 1855.4962 4684815
1659.4164 219.14651 1871.7737 4619533
1655.1101 217.12178 1854.48 4487946
1686.5601 219.7834 1877.2134 5342998
1619.7924 209.69496 1791.0461 5737496
1655.99 212.98093 1819.1122 5869081
1670.3572 213.43481 1822.9889 5540371
1706.4834 216.64525 1850.4098 5803542
1679.1621 211.8112 1809.1213 5935128
1683.0537 210.95085 1801.7729 5474832
1693.7657 210.95085 1801.7729 5606416
1675.3417 207.34488 1770.9736 5671953
1616.1775 198.77335 1697.7625 5671955
1626.2712 198.77335 1697.7625 4553219
1711.5701 207.90871 1775.7894 5408786
1722.1276 207.90871 1775.7894 5605913
0 0 0 0
0 0 0 0
0 0 0 0
0 0 0 0
0 0 0 0
0 0 0 0
0 0 0 0
0 0 0 0
-2968.2212 415.3378 3376.0471 197120
-2859.9468 402.91171 3275.0425 262913
-2840.4756 402.91171 3275.0425 394500
-2592.6167 370.29208 3009.8958 262913
-2742.2021 394.37872 3205.6829 131328
-2980.3027 431.62183 3508.4109 131328
-2959.4443 431.62183 3508.4109 131328
-2450.8872 359.98828 2926.1421 65536
-2433.4907 359.98828 2926.1421 65536
-2393.0298 356.55185 2898.2092 65536
-2431.3252 364.88498 2965.9446 65536
-2413.6919 364.88498 2965.9446 65536
-2579.0928 392.75845 3192.5125 65536
-2560.1125 392.75845 3192.5125 65536
-2613.7798 403.98691 3283.7822 65536
-2700.969 420.60455 3418.8577 65536
-2674.519 419.64368 3411.0471 65536
-2654.2395 419.64368 3411.0471 65536
-2633.96 419.64368 3411.0471 65536
-2643.0229 424.35483 3449.3416 65536
-2656.9355 429.92441 3494.6135 65536
-2656.377 433.22165 3521.415 65536
-2645.8159 434.92712 3535.2776 65536
-2624.7976 434.92712 3535.2776 65536
-2595.801 433.59439 3524.4448 65536
-2532.5625 426.47382 3466.5654 65536
-2511.9526 426.47382 3466.5654 65536
-2512.3459 430.06912 3495.79 65536
-2525.1267 435.86267 3542.8823 65536
-2523.8057 439.29904 3570.8147 197120
-2511.1902 440.81119 3583.106 197377
-2599.2307 460.16928 3740.4573 197121
-2647.2168 472.70908 3842.3862 262914
-2669.5996 480.8555 3908.6038 262913
-2657.8279 482.9389 3925.5386 460292
-2723.0601 499.17514 4057.5139 460292
-2735.0962 505.86292 4111.875 460036
-2658.9368 496.21216 4033.4294 788744
-2634.957 496.21216 4033.4294 1117450
-2572.4172 488.88391 3973.8623 1841173
-2619.1755 502.38434 4083.5994 1973014
-2607.0059 504.72855 4102.6543 2235673
-2582.6145 504.72855 4102.6543 2959396
-2583.479 509.71146 4143.1577 2827554
-2584.0371 514.72925 4183.9443 2761247
-2526.4458 508.14893 4130.4565 2432282
-2509.4595 509.68649 4142.9546 919559
-2555.7007 524.22382 4261.1201 3615786
-2544.7915 527.21216 4285.4106 3943724
-2445.5491 511.77554 4159.9355 4733752
-2410.0608 509.50168 4141.4521 2760218
-2415.1033 515.83759 4192.9536 1248007
-2347.676 506.66562 4118.3999 4076590
-2365.4719 515.88678 4193.353 6444107
-2298.7058 506.66562 4118.3999 6772299
-2302.7087 513.01233 4169.9888 6706245
-2335.4678 525.97339 4275.3418 5982778
-2310.0496 525.97339 4275.3418 7364172
-2294.1162 528.15704 4293.0913 6903875
-2285.0349 531.98499 4324.2065 7759185
-2260.7522 532.32074 4326.936 7890513
-2239.6733 533.42731 4335.9302 7561547
-2213.895 533.42731 4335.9302 8022098
-2194.5269 534.98993 4348.6323 7495497
-2168.6729 534.98993 4348.6323 7430218
-2064.7466 515.49786 4190.1919 7956305
-2073.7356 524.06512 4259.8306 8942945
-1969.9646 503.99573 4096.6978 7495499
-1945.6086 503.99573 4096.6978 8351066
-1934.2229 507.39819 4124.3545 9206633
-2009.0504 533.79443 4338.9146 7232588
-2033.5521 547.33215 4448.9551 7693653
-2012.7087 548.86115 4461.3833 5325361
-1986.1847 548.86115 4461.3833 7891288
-1897.6768 531.50073 4320.2705 7035979
-1867.8687 530.33014 4310.7554 6970695
-1842.24 530.33014 4310.7554 7432521
-1798.7064 525.10309 4268.2676 4281378
-1770.902 524.38403 4262.4229 4084249
-1739.2544 522.48956 4247.0234 4019739
-1723.0262 525.23969 4269.3774 4678440
-1671.645 517.19586 4203.9941 3626265
-1646.6511 517.19586 4203.9941 3824414
-1546.9392 493.366 4010.2947 2772496
-1621.572 525.2644 4269.5786 4746542
-1529.6968 503.38379 4091.7234 4614699
-1483.6088 496.10687 4032.5735 4351527
-1380.7411 469.29239 3814.6138 5272886
-1435.6592 496.10687 4032.5735 4813105
-1331.525 467.93649 3803.5925 4352299
-1307.47 467.42111 3799.4033 5273658
-1281.902 466.33722 3790.593 5865795
-1248.2903 462.23602 3757.2563 5142841
-1183.0308 446.05276 3625.7119 5076790
-1161.475 446.05276 3625.7119 5668926
-1189.6202 465.50089 3783.7949 4682030
-1166.8524 465.3924 3782.9128 5012018
-1140.2258 463.7103 3769.2402 2972689
-1117.7596 463.68665 3769.0479 3829023
-1095.3516 463.68665 3769.0479 5144373
-1029.6823 444.99075 3617.0793 3105304
-1012.4376 446.871 3632.3628 3565854
-998.9314 450.51923 3662.0171 5275960
-945.45209 435.90042 3543.1892 5868097
-922.43378 434.97946 3535.7034 5275703
-926.7005 447.18195 3634.8906 5144374
-909.50275 449.36221 3652.6123 6328648
-883.26221 447.07196 3633.9963 4947254
-831.55206 431.4519 3507.0298 4881461
-783.83124 417.15152 3390.79 5473597
-750.22192 409.8045 3331.0701 3763236
-740.41815 415.41522 3376.6765 5210939
-720.3429 415.41522 3376.6765 4092457
-700.26758 415.41522 3376.6765 4619057
-689.90564 421.3475 3424.8965 4158504
-687.36536 432.56274 3516.0591 3829540
-666.46136 432.56274 3516.0591 3895847
-659.53741 441.93018 3592.2017 4158759
-632.19482 437.78497 3558.5076 2974996
-613.8714 439.81464 3575.0056 3172630
-575.71503 427.27072 3473.0432 2975764
-555.06677 427.27072 3473.0432 3699487
-549.04785 438.96689 3568.1147 2778640
-529.51788 440.36694 3579.4951 3502361
-514.75128 446.01147 3625.3762 3172883
-459.05212 415.133 3374.3826 3568150
-438.99048 415.133 3374.3826 3765530
-413.15649 409.4129 3327.8872 3370260
-393.99066 410.05759 3333.1274 2712590
-373.58603 409.4129 3327.8872 4159530
-343.4704 397.45871 3230.7183 4685364
-324.86707 398.19931 3236.738 5672004
-309.48486 403.22995 3277.6294 4685106
-298.15878 414.57657 3369.8596 4553269
-278.12405 414.57657 3369.8596 6000716
-249.18404 400.27176 3253.584 6856282
-230.37152 401.19644 3261.1001 4816698
-212.77812 404.60925 3288.8408 4487474
-191.59523 401.19644 3261.1001 5737542
-177.87323 414.39703 3368.4004 6066504
-152.2106 399.5994 3248.1187 6263881
-132.89964 399.5994 3248.1187 6132547
-116.59295 410.16833 3334.0273 5671994
-96.771225 410.16833 3334.0273 6066750
-75.230293 401.00427 3259.5381 6658887
-58.379883 419.15814 3407.1008 4816938
-37.468948 411.95917 3348.5842 5211951
-17.473686 409.9183 3331.9951 3304468
2.3475809 411.95917 3348.5842 3699481
21.450747 397.05667 3227.4502 4093983
41.037525 400.952 3259.113 3567641
60.413857 400.952 3259.113 3041298
76.336975 383.5993 3118.0627 4028450
98.120667 396.72333 3224.7407 5015602
118.48215 400.74664 3257.4438 3830560
137.84856 400.74664 3257.4438 5014325
156.94521 400.05899 3251.8542 5738053
174.07207 395.05182 3211.1538 4093485
195.61154 400.05899 3251.8542 5934921
212.25447 395.05182 3211.1538 3829547
231.81403 395.85159 3217.6548 4092463
254.19147 400.97446 3259.2959 6263637
272.06104 398.7644 3241.3313 4486713
290.63965 397.81723 3233.6323 7183710
307.03214 394.18091 3204.075 4223277
308.89886 373.41013 3035.2407 4356655
324.07547 370.13367 3008.6082 4883509
338.97733 366.90256 2982.3445 3699236
372.0007 382.63211 3110.2012 3040277
390.4917 382.63211 3110.2012 5079861
409.92194 383.51083 3117.3438 4817457
424.29672 379.78839 3087.0862 3172629
442.6503 379.78839 3087.0862 3896864
449.35379 370.1907 3009.0718 3173653
467.18344 370.1431 3008.6848 2910225
473.42157 361.25381 2936.429 2647054
490.87949 361.25381 2936.429 2910226
497.02322 353.21335 2871.0725 3502620
483.58777 332.25467 2700.7112 4160550
499.64426 332.25467 2700.7112 3239192
527.3139 339.73679 2761.5291 3304729
546.77863 341.64041 2777.0027 3304475
567.26569 344.05255 2796.6094 2910229
583.89233 344.05255 2796.6094 4028452
600.51898 344.05255 2796.6094 2647055
614.11975 342.36566 2782.8977 2186505
630.66486 342.36566 2782.8977 2317577
646.53229 342.00717 2779.9839 2975509
663.06006 342.00717 2779.9839 3172890
679.58783 342.00717 2779.9839 3304219
677.00964 332.62027 2703.6829 2185994
681.31543 326.97247 2657.7751 2975510
688.85272 323.09641 2626.2688 3370013
729.88849 334.75586 2721.042 2185739
746.0658 334.75586 2721.042 3436063
725.37964 318.56644 2589.4473 4422703
742.5495 319.32971 2595.6514 2383375
753.82727 317.57962 2581.426 3303453
774.12036 319.62167 2598.0247 3566626
786.039 318.19379 2586.4182 3895338
800.39417 317.78806 2583.1204 4290097
784.37946 305.56662 2483.7791 3171618
799.14618 305.56662 2483.7791 3895085
859.3324 322.61838 2622.3833 3434790
865.45593 319.12744 2594.0073 3697449
869.88519 315.1449 2561.6355 4486967
863.2561 307.36212 2498.3738 4092210
916.80402 320.90619 2608.4658 5408068
894.22913 307.79788 2501.9158 3368738
938.4425 317.7312 2582.658 4026412
934.79449 311.40097 2531.2034 3763748
941.93756 308.80917 2510.136 4948021
941.6532 303.90112 2470.2412 3697696
938.55176 298.24863 2424.2952 5605436
948.34991 296.80429 2412.5552 4289834
940.10809 289.84116 2355.9556 4158505
947.55347 287.84793 2339.7537 4356394
959.74219 287.33246 2335.5637 4355878
989.8656 292.12451 2374.5156 3764249
1016.3852 295.73315 2403.8484 3567123
0 0 0 0
0 0 0 0
1019.6149 284.66476 2313.8796 3962138
1033.3716 284.66476 2313.8796 4291101
1047.1282 284.66476 2313.8796 4027928
1049.5747 281.62991 2289.2112 4093720
1089.8898 288.70389 2346.7114 3567375
1103.8416 288.70389 2346.7114 3369995
1077.7135 278.35205 2262.5671 4291096
1087.7102 277.4707 2255.4033 3896595
1060.6437 267.2713 2172.498 3633166
1073.5598 267.2713 2172.498 3501836
1108.7559 272.75214 2217.0486 3765006
1121.9368 272.75214 2217.0486 3830799
1168.9694 280.88617 2283.1655 3502089
1124.4158 267.07925 2170.937 3502087
1118.585 262.67908 2135.1704 3436294
1131.2792 262.67908 2135.1704 3502088
1142.818 262.41382 2133.0142 4752154
1155.4994 262.41382 2133.0142 4817692
1174.2916 263.78653 2144.1721 4554774
1173.8848 260.86331 2120.4109 4488467
1186.4912 260.86331 2120.4109 4291344
1196.0885 260.20865 2115.0896 4027915
1188.8442 255.94188 2080.4075 4685841
1082.4315 230.63318 1874.6874 4356874
1216.795 256.61963 2085.9165 4686093
1229.1964 256.61963 2085.9165 4949265
1246.6891 257.67191 2094.47 5015059
1167.3425 238.88614 1941.771 4488461
0 0 0 0
1198.2386 240.45284 1954.5059 3764486
1209.8586 240.45284 1954.5059 4158982
1221.4788 240.45284 1954.5059 4158980
1229.4775 239.74669 1948.7659 4751370
0 0 0 0
0 0 0 0
0 0 0 0
1232.7915 231.66072 1883.0397 4488198
1260.3387 234.70586 1907.7919 5738511
0 0 0 0
0 0 0 0
0 0 0 0
1334.2721 239.84033 1949.5271 5804806
1346.671 239.98439 1950.6981 4949506
1441.0073 254.60304 2069.5249 4554752
1400.6096 245.37032 1994.4773 5344005
1425.1635 247.57588 2012.405 4685824
1359.5393 234.20963 1903.7582 5343496
0 0 0 0
0 0 0 0
0 0 0 0
0 0 0 0
0 0 0 0
0 0 0 0
0 0 0 0
0 0 0 0
0 0 0 0
0 0 0 0
1428.6599 225.46939 1832.7137 4159243
1443.527 226.09134 1837.7693 4093708
1454.4531 226.09134 1837.7693 3632644
1465.3792 226.09134 1837.7693 5671712
1475.5156 225.97044 1836.7865 5145370
0 0 0 0
1480.1118 223.36806 1815.6333 4224264
1490.9064 223.36806 1815.6333 5409048
1498.4738 222.88806 1811.7317 3171840
1505.6831 222.36203 1807.4558 4685321
1510.3907 221.47662 1800.2588 6066205
1519.5657 221.25414 1798.4503 5276693
1530.2579 221.25414 1798.4503 4421384
1524.6964 218.92036 1779.4803 5408537
1494.0441 213.04097 1731.6901 4158215
0 0 0 0
0 0 0 0
0 0 0 0
1592.2527 220.95454 1796.0151 5605917
1565.8037 215.83682 1754.416 4619276
1580.9656 216.4847 1759.6824 4685068
1586.361 215.79552 1754.0802 5671703
1630.4406 220.34323 1791.0461 5935125
1667.8081 223.93074 1820.2069 5014280
1680.6432 224.19933 1822.3901 5474572
1666.3403 220.86746 1795.3073 5408523
1667.6012 219.62776 1785.2305 5540108
1678.215 219.62776 1785.2305 5737488
1670.4095 217.23241 1765.76 5672205
1677.4854 216.79016 1762.1652 5343239
1693.2347 217.46736 1767.6698 5672459
1706.0459 217.76117 1770.058 5605900
1695.4972 215.08798 1748.3291 5539854
0 0 0 0
0 0 0 0
0 0 0 0
0 0 0 0
0 0 0 0
0 0 0 0
0 0 0 0
0 0 0 0
-2371.5259 347.87991 2697.3674 131328
-2423.8518 357.97632 2775.6523 131328
-2840.4756 422.38275 3275.0425 131328
-2822.8857 422.66437 3277.2263 197120
-2805.8818 423.03827 3280.1255 131328
-2801.3918 425.31735 3297.7969 131328
-2468.2842 377.38501 2926.1421 65792
-2227.5742 342.99951 2659.5261 65536
-2212.6394 343.13547 2660.5803 0
-2334.7251 364.67551 2827.5959 0
-2388.9309 375.84848 2914.2283 0
-2339.5383 370.7666 2874.8247 0
-2322.4465 370.7666 2874.8247 0
-2504.8711 402.85446 3123.6255 65536
-2613.7798 423.50992 3283.7822 65536
-2737.2087 446.84665 3464.7292 65536
-2674.519 439.92328 3411.0471 65536
-2654.2395 439.92328 3411.0471 65536
-2631.5581 439.52213 3407.9368 65536
-2603.4182 438.19604 3397.6545 65536
-2622.5156 444.86215 3449.3416 65536
-2636.1592 450.70087 3494.6135 65536
-2626.4922 452.61533 3509.4578 65536
-2616.2083 454.45328 3523.7087 65536
-2505.9648 438.81708 3402.47 65536
-2436.1187 430.05789 3334.5535 65536
-2416.2937 430.05789 3334.5535 65536
-2467.7827 442.85547 3433.7825 65536
-2507.5786 453.7507 3518.2612 65792
-2523.8057 460.52856 3570.8147 65792
-2549.1482 469.09882 3637.2664 65536
-2584.3467 479.64496 3719.0383 65536
-2576.9927 482.40735 3740.4573 0
-2624.3726 495.55316 3842.3862 65536
-2632.4705 501.44711 3888.0864 197120
-2607.7627 501.14117 3885.7144 197120
-2643.0889 512.46979 3973.5532 131585
-2619.4648 512.46979 3973.5532 525571
-2634.957 520.19202 4033.4294 854278
-2613.9819 520.79071 4038.0713 919814
-2593.6606 521.53192 4043.8186 1314572
-2569.6191 521.53192 4043.8186 1840145
-2582.6145 529.12 4102.6543 2103317
-2583.479 534.34369 4143.1577 1839888
-2556.9678 533.95129 4140.1152 1839888
-2519.1292 531.1629 4118.4946 2103058
-2501.8892 532.70563 4130.4565 2103058
-2484.8284 534.3175 4142.9546 1971728
-2470.281 536.50751 4159.9355 1839885
-2376.2278 521.29974 4042.0186 2234643
-2352.197 521.29974 4042.0186 2234130
-2368.2585 530.27686 4111.6245 2496785
-2347.676 531.1507 4118.3999 2234129
-2330.2605 532.76703 4130.9326 5194038
-2287.4248 528.54401 4098.1885 5917501
-2259.1672 527.63489 4091.1394 5456948
-2277.917 537.80414 4169.9888 5324848
-2253.1252 537.80414 4169.9888 5324847
-2249.6292 542.94379 4209.8403 6574912
-2197.0298 536.21478 4157.6655 6114360
-2168.5872 535.29547 4150.5376 6706753
-2167.6047 541.21136 4196.4077 7496011
-2161.457 545.96033 4233.23 6903362
-2146.3308 548.52655 4253.1279 7824977
-2089.6582 540.40967 4190.1919 7561806
-1970.1724 515.65668 3998.2634 8417114
-1983.5203 525.49042 4074.5117 6706499
-1969.9646 528.35175 4096.6978 8614494
-1957.6012 531.60846 4121.9497 7430221
-1933.0952 531.60846 4121.9497 7298891
-1899.8942 529.18665 4103.1714 7891546
-1875.4995 529.18665 4103.1714 9405811
-1855.6926 530.49817 4113.3403 10853512
-1897.2126 549.61066 4261.5337 9603700
-1806.7827 530.49817 4113.3403 8222046
-1784.4067 531.11694 4118.1382 6380864
-1759.9233 531.11694 4118.1382 6776894
-1713.059 524.2674 4065.0291 5004846
-1616.8602 501.9075 3891.656 3821338
-1628.6327 512.90149 3976.9004 3624727
-1690.5439 540.242 4188.8916 3823131
-1591.7152 516.26495 4002.98 3889437
-1564.1687 515.03094 3993.4121 2705933
-1528.2657 510.965 3961.8855 4153892
-1516.6849 515.03094 3993.4121 4417321
-1408.9294 486.04825 3768.6877 4483115
-1386.5236 486.04825 3768.6877 4614957
-1332.2483 474.69293 3680.6416 5141300
-1310.366 474.69293 3680.6416 5207606
-1288.4835 474.69293 3680.6416 4944434
-1262.028 472.97906 3667.3528 5931843
-1205.8081 459.85376 3565.5828 5602878
-1184.6097 459.85376 3565.5828 4945205
-1155.8695 456.87277 3542.469 5077045
-1128.8474 454.47287 3523.8606 5537593
-1073.6167 440.41055 3414.8254 4945713
-1096.7739 458.58176 3555.72 4090918
-1099.2499 468.64999 3633.7864 4682799
-1077.6461 468.64999 3633.7864 3762207
-991.91656 440.19235 3413.1333 5275447
-973.77509 441.16669 3420.688 4947508
-975.61914 451.43005 3500.2676 5736510
-954.80908 451.43005 3500.2676 6526027
-933.99902 451.43005 3500.2676 5473852
-911.58313 450.6362 3494.1123 5210680
-869.56647 439.88989 3410.7881 6921561
-863.07111 447.02869 3466.1404 4026663
-842.46399 447.02869 3466.1404 6657873
-821.85681 447.02869 3466.1404 3960871
-758.85522 423.37622 3282.7458 4684337
-733.96191 420.29745 3258.8738 3368481
-721.79895 424.53928 3291.7637 4157997
-710.94977 429.8118 3332.6455 4355885
-696.87653 433.38162 3360.3247 3566368
-671.32275 429.8118 3332.6455 3106328
-649.37653 428.40482 3321.7361 3303195
-618.37152 420.74585 3262.3506 3303451
-598.97595 420.74585 3262.3506 4619309
-581.69922 422.28406 3274.2773 3304216
-574.14526 431.23138 3343.6523 3764768
-547.43622 425.91736 3302.4492 2581005
-527.80219 425.91736 3302.4492 2646797
-499.87247 418.96432 3248.5371 3370777
-480.55899 418.96432 3248.5371 3633946
-463.97583 421.4444 3267.7666 3238931
-444.54807 421.4444 3267.7666 3238931
-420.29791 416.66373 3230.6987 3765278
-408.98611 424.86584 3294.2959 3041299
-381.88312 416.66373 3230.6987 3765022
-359.96371 413.54797 3206.5403 3698461
-340.50958 413.07446 3202.8684 3895586
-316.76846 407.03619 3156.0496 5145659
-305.62378 417.4426 3236.738 5277246
-286.38046 417.4426 3236.738 4882489
-267.17316 417.49887 3237.1743 5211195
-238.65698 401.88812 3116.1328 5277243
-224.32687 409.54901 3175.533 4356144
-209.48233 417.59232 3237.8987 6066760
-190.49876 418.17767 3242.4375 5803333
-171.53528 418.94385 3248.3782 5145403
-150.75943 414.91647 3217.1509 5672257
-132.19342 416.68427 3230.8582 5803587
-112.98505 416.68427 3230.8582 4421932
-94.570564 420.21167 3258.2085 5014582
-74.673599 417.27237 3235.418 6461769
-55.438137 417.27237 3235.418 5146419
-36.982128 426.25629 3305.0771 4225572
-16.725613 411.33063 3189.3474 4094244
2.2070389 406.01291 3148.1152 4159779
20.848415 404.55673 3136.8242 4160035
39.151775 401.01349 3109.3508 4291622
56.742817 394.78711 3061.0732 3831071
74.94175 394.78711 3061.0732 4752173
93.705711 397.18204 3079.6431 3962401
114.61755 406.40997 3151.1938 4027170
134.97354 411.35101 3189.5054 2843157
148.96176 398.05862 3086.4399 4948020
168.27731 400.35645 3104.2566 5276729
193.16327 414.14304 3211.1538 3763237
208.88097 407.56076 3160.1167 7448161
226.13062 404.80728 3138.7671 6131790
250.94388 414.98145 3217.6548 5868620
271.41483 417.04205 3233.6323 4619322
281.79843 404.35571 3135.2656 5474375
298.63599 401.92975 3116.4556 5606216
303.51559 384.63342 2982.3445 4027439
316.3132 378.72681 2936.5459 4356659
334.66077 379.7355 2944.3672 4027946
352.16583 379.7355 2944.3672 3698723
374.07709 384.26163 2979.4617 4553517
391.79083 384.26163 2979.4617 4816942
393.44135 369.18857 2862.5891 2252298
434.94128 391.2081 3033.3225 3831584
438.271 378.50888 2934.8564 3304218
442.41324 367.45703 2849.1633 2975511
459.35233 367.45703 2849.1633 1528067
476.94894 367.96436 2853.0969 4028456
477.33591 355.6156 2757.3479 2581266
483.44351 348.20724 2699.9055 4291885
499.49521 348.20724 2699.9055 3962407
523.76208 353.75589 2742.9282 3107353
540.06952 353.75589 2742.9282 2778385
556.37701 353.75589 2742.9282 2383885
547.83972 338.40887 2623.9316 3173401
562.22644 337.68018 2618.2815 2251786
602.34009 352.02634 2729.5178 2778133
619.99451 352.83826 2735.8132 1395978
635.83997 352.60553 2734.0088 4224552
632.70343 342.1203 2652.709 2448398
648.47455 342.1203 2652.709 2711570
657.62494 338.7103 2626.2688 1988618
657.05603 330.56863 2563.1406 2119948
672.29462 330.56863 2563.1406 2646550
693.22839 333.30692 2584.3723 2579484
708.5932 333.30692 2584.3723 4290866
719.43152 331.2229 2568.2136 2448661
734.7002 331.2229 2568.2136 4488242
745.34485 329.18066 2552.3787 3106334
760.51947 329.18066 2552.3787 2908955
784.42761 332.88693 2581.116 4093487
785.90735 327.11566 2536.3669 5540675
764.00043 312.01077 2419.2478 3040543
778.38354 312.01077 2419.2478 4487476
792.76666 312.01077 2419.2478 3631912
844.30328 326.3728 2530.6072 3106082
848.40253 322.21564 2498.3738 3368741
812.44037 303.24838 2351.3066 4487221
839.77643 308.14957 2389.3091 4289842
0 0 0 0
862.14087 306.00372 2372.6709 5276734
912.28064 318.5874 2470.2412 5737544
923.62946 317.44037 2461.3474 4289582
938.26282 317.44037 2461.3474 4158507
898.61835 299.35864 2321.1465 4881973
921.11945 302.21344 2343.282 2908438
935.13184 302.23959 2343.4849 3040279
949.06445 302.23959 2343.4849 3829795
961.46393 301.75839 2339.7537 5737795
973.62775 301.21802 2335.5637 4750894
976.51227 297.8624 2309.5452 3303953
943.70099 283.86264 2200.9949 4685093
977.84918 290.1116 2249.4475 4159004
1020.7821 298.763 2316.5283 3303950
1033.5568 298.47491 2314.2944 4027415
1032.1777 294.16068 2280.843 5013800
1033.3323 290.67102 2253.7852 4553504
1046.7317 290.67102 2253.7852 4093207
1060.1311 290.67102 2253.7852 3567373
1036.657 280.6871 2176.3726 5475111
1049.5962 280.6871 2176.3726 3567626
1036.2062 273.73184 2122.4431 4159509
1048.8247 273.73184 2122.4431 3501835
1061.4432 273.73184 2122.4431 3172615
1069.0804 272.46231 2112.5996 5277987
1104.7212 278.27628 2157.6797 4160019
1098.4165 273.51212 2120.7395 3567624
1103.2084 271.58783 2105.8193 3370503
1115.728 271.58783 2105.8193 5015070
1128.2477 271.58783 2105.8193 5936169
1147.4967 273.18994 2118.2415 3764231
1151.9048 271.26233 2103.2954 4028168
1164.4095 271.26233 2103.2954 4554513
1173.3573 270.44254 2096.939 4488975
1144.0387 260.91278 2023.0479 4620303
1064.6871 240.28943 1863.1398 4620303
0 0 0 0
0 0 0 0
0 0 0 0
1106.22 239.68823 1858.4784 4686607
1117.2692 239.68823 1858.4784 4159746
1117.6326 237.41826 1840.8774 3830528
1177.7062 247.75352 1921.0143 4949519
1206.3057 251.33264 1948.7659 3633664
1217.8916 251.33264 1948.7659 3699712
1229.4775 251.33264 1948.7659 4160260
0 0 0 0
0 0 0 0
0 0 0 0
0 0 0 0
0 0 0 0
0 0 0 0
0 0 0 0
0 0 0 0
1333.9125 251.36305 1949.0016 5606915
1346.671 251.58183 1950.6981 4948992
1388.7518 257.22803 1994.4773 4620032
1393.6667 255.95296 1984.5907 5936391
1405.4657 255.95296 1984.5907 5014784
1359.5393 245.52798 1903.7582 5146368
0 0 0 0
0 0 0 0
0 0 0 0
0 0 0 0
0 0 0 0
0 0 0 0
0 0 0 0
0 0 0 0
0 0 0 0
0 0 0 0
1428.6599 236.36539 1832.7137 5145367
1455.5966 238.99911 1853.1351 4093450
1481.6992 241.45743 1872.1962 4027401
1465.3792 237.0174 1837.7693 4356622
1475.5156 236.89064 1836.7865 6066471
1486.0431 236.82805 1836.3011 5408541
1480.1118 234.16252 1815.6333 4224266
1488.9777 233.85959 1813.2845 3829509
1488.9846 232.17966 1800.2588 4224264
1504.2699 232.8891 1805.7595 4553484
1509.0675 231.97626 1798.6816 4619276
1519.7611 231.97626 1798.6816 4092679
1538.6807 233.22307 1808.3491 4552718
1540.9503 231.94641 1798.4503 4223753
1535.2759 229.49986 1779.4803 4421902
1480.0039 219.72346 1703.6768 2842112
1490.1327 219.72346 1703.6768 4421645
1500.7179 219.7903 1704.1949 4224265
1555.3732 226.2673 1754.416 4487693
1570.5038 226.9465 1759.6824 4224518
1580.9656 226.9465 1759.6824 3830019
1532.8671 218.59546 1694.9305 4290565
1596.7896 226.224 1754.0802 5277455
1590.7373 223.90425 1736.0935 5737746
1601.0588 223.90425 1736.0935 4816899
1611.3804 223.90425 1736.0935 5342986
1599.7544 220.87401 1712.5978 5342729
1610.2015 220.91043 1712.8801 5408522
1620.3853 220.91043 1712.8801 5671435
1630.5687 220.91043 1712.8801 6000658
1691.4055 227.73033 1765.76 5408521
1658.715 221.95134 1720.9512 5736974
1650.1802 219.45563 1701.6001 5934098
0 0 0 0
0 0 0 0
0 0 0 0
0 0 0 0
0 0 0 0
0 0 0 0
0 0 0 0
0 0 0 0
-2334.3069 358.20517 2655.0347 197120
-2423.8518 374.47833 2775.6523 65536
-2822.9009 439.11987 3254.7788 0
-2822.8857 442.14841 3277.2263 65536
-2803.4016 442.14841 3277.2263 0
-2786.3804 442.53958 3280.1255 65536
-2469.1978 394.92789 2927.2253 0
-2227.5742 358.81113 2659.5261 0
-2212.6394 358.95337 2660.5803 0
-2334.7251 381.48633 2827.5959 0
-2388.9309 393.17435 2914.2283 0
-2293.5146 380.22824 2818.271 0
-2114.5696 353.14191 2617.5056 0
-2244.8879 377.68512 2799.4211 0
-2486.3003 421.42529 3123.6255 65536
-2652.7075 453.0148 3357.7686 65536
-2632.7446 453.0148 3357.7686 65536
-2612.7817 453.0148 3357.7686 65536
-2530.4004 442.1091 3276.9348 65536
-2447.3435 430.91522 3193.9653 65536
-2527.0063 448.42117 3323.7202 65536
-2508.0581 448.56638 3324.7966 65536
-2513.4426 453.10049 3358.4036 65536
-2523.3723 458.53308 3398.6702 65536
-2502.0674 458.33176 3397.1782 65536
-2378.26 439.19788 3255.3567 65536
-2325.9158 433.05551 3209.8293 65536
-2421.5842 454.59756 3369.5 65536
-2507.5786 474.66772 3518.2612 131328
-2579.0994 492.31281 3649.0471 65536
-2678.1707 515.56085 3821.3628 65792
-2655.4517 515.56085 3821.3628 65792
-2632.7327 515.56085 3821.3628 65536
-2624.3726 518.39722 3842.3862 65536
-2659.2805 529.90521 3927.6841 65536
-2666.7126 536.09363 3973.5532 65536
-2643.0889 536.09363 3973.5532 262144
-2619.4648 536.09363 3973.5532 459520
-2593.0784 535.52307 3969.3242 788485
-2572.4172 536.13538 3973.8623 722435
-2537.77 533.81696 3956.6782 985607
-2461.5876 522.63666 3873.8091 1182729
-2490.7227 533.81696 3956.6782 1576973
-2470.8464 534.60614 3962.5273 1576716
-2447.2881 534.60614 3962.5273 1708046
-2493.7659 550.05402 4077.0283 1905679
-2469.5266 550.05402 4077.0283 2103058
-2416.978 543.68597 4029.8279 2102799
-2391.2136 543.27563 4026.7864 2628631
-2375.7812 545.22821 4041.259 2760983
-2351.7549 545.22821 4041.259 3615779
-2359.4998 552.67004 4096.4185 3615265
-2347.676 555.63574 4118.3999 3944230
-2323.1909 555.63574 4118.3999 3812642
-2266.4724 547.84436 4060.6499 4535591
-2225.5576 543.7464 4030.2756 5588277
-2212.7336 546.49695 4050.6631 5719859
-2188.6514 546.49695 4050.6631 7100998
-2164.5691 546.49695 4050.6631 6443837
-2139.5813 546.26581 4048.95 7562061
-2148.9407 554.89844 4112.9355 8154198
-2124.4883 554.89844 4112.9355 5390892
-2104.4263 556.05872 4121.5352 5785396
-2067.9463 552.85681 4097.8027 6443325
-2055.4192 556.05872 4121.5352 5127208
-1970.1724 539.42743 3998.2634 6443067
-1983.5203 549.71454 4074.5117 6772031
-1959.296 549.71454 4074.5117 8548953
-1917.9077 544.83856 4038.3706 9338727
-1841.8798 529.87366 3927.4504 8682087
-1857.7533 541.30237 4012.1604 6051395
-1833.8999 541.30237 4012.1604 7038032
-1810.983 541.58246 4014.2366 7235409
-1798.658 545.0799 4040.1594 6906697
-1774.6381 545.0799 4040.1594 6972744
-1690.405 526.3316 3901.1963 6776389
-1658.8467 523.69098 3881.6238 5396272
-1601.9385 512.85999 3801.3442 4477990
-1584.798 514.63287 3814.4846 3887132
-1567.8339 516.51532 3828.4375 4151328
-1574.4794 526.34595 3901.3025 4020511
-1561.8658 529.93597 3927.9121 4152867
-1538.5133 529.93597 3927.9121 4745773
-1478.7239 517.19196 3833.4531 4022563
-1455.4838 517.03241 3832.2703 5799231
-1325.7363 478.43146 3546.158 5535802
-1304.6534 478.43146 3546.158 4878642
-1283.5706 478.43146 3546.158 4944177
-1220.6832 462.58923 3428.7349 4747055
-1244.8123 479.74466 3555.8916 5602362
-1165.9977 457.13348 3388.2964 5931327
-1144.8787 456.74466 3385.4143 5536826
-1124.7516 456.74466 3385.4143 6063425
-1104.6243 456.74466 3385.4143 5800508
-1054.5304 444.12396 3291.8691 5143093
-1060.8838 455.24869 3374.3262 5077557
-1040.8224 455.24869 3374.3262 5669949
-981.91742 437.92484 3245.9209 5077812
-952.02161 433.10349 3210.1851 4420139
-943.32159 437.92484 3245.9209 4551979
-950.71167 450.57315 3339.6707 5737019
-930.85638 450.57315 3339.6707 7709796
-902.50702 446.37201 3308.5317 4749620
-882.83685 446.37201 3308.5317 5276218
-863.16675 446.37201 3308.5317 4749877
-863.22107 456.81 3385.8989 3302432
-843.09088 456.81 3385.8989 4618038
-822.96088 456.81 3385.8989 5275967
-779.33325 443.44 3286.7998 5342274
-753.92346 440.01474 3261.4114 5408323
-733.96191 439.67236 3258.8738 4092206
-719.54993 442.72598 3281.5071 4289326
-710.61371 449.41278 3331.0701 5013302
-689.2204 448.37891 3323.4072 4355628
-676.89844 453.35965 3360.3247 2776850
-621.15894 428.67969 3177.3955 4092711
-602.26843 428.67969 3177.3955 3040790
-585.34906 430.12811 3188.1313 3501854
-566.39478 430.12811 3188.1313 4225320
-543.34344 426.90912 3164.2717 3765281
-508.84546 414.14285 3069.6477 2383627
-490.59555 414.14285 3069.6477 2647054
-472.34564 414.14285 3069.6477 2515468
-458.29196 417.96988 3098.0139 3239191
-447.45502 425.17401 3151.4111 3173654
-418.13324 414.67572 3073.5974 2712334
-399.85983 414.67572 3073.5974 2778383
-392.51462 426.55157 3161.6216 3238678
-375.54282 428.63446 3177.0603 2975762
-356.65433 428.63446 3177.0603 4488494
-315.60391 400.51041 2968.6033 4290864
-299.02368 401.94727 2979.2534 3764006
-296.71213 423.95264 3142.3584 4816693
-279.26248 425.83215 3156.2893 4882229
-257.18326 420.4144 3116.1328 4816179
-228.64865 402.78394 2985.4546 4882230
-220.35991 420.85217 3119.3774 4947766
-201.81436 420.85217 3119.3774 5408318
-190.15839 436.67322 3236.644 5737541
-170.9819 436.84253 3237.8987 5671492
-146.10803 420.65176 3117.8921 6132299
-127.57131 420.65176 3117.8921 7250779
-109.40944 422.09799 3128.6116 4816436
-91.244545 424.12265 3143.6184 4619569
-72.208496 422.09799 3128.6116 4751667
-53.102459 418.11722 3099.106 4488747
-35.611126 429.37531 3182.5513 4094244
-16.392406 421.71997 3125.8096 4422952
2.1914012 421.71997 3125.8096 4291622
20.645086 419.07858 3106.2314 3896094
37.65556 403.4679 2990.5244 3830558
54.964256 400.04129 2965.1262 4357416
72.592751 400.04129 2965.1262 5080626
95.521873 423.54422 3139.3313 4422186
114.61755 425.14468 3151.1938 3895332
130.12321 414.85004 3074.8894 3895333
146.14618 408.53769 3028.1021 4289833
166.68536 414.85004 3074.8894 3895078
186.3978 418.06036 3098.6843 5671237
205.18864 418.8121 3104.2566 6395219
222.78958 417.21143 3092.3923 5670986
246.76273 426.87823 3164.043 5671500
261.57959 420.45798 3116.4556 5737294
280.10776 420.45798 3116.4556 5013828
287.36142 404.58417 2998.7983 5211463
303.51559 402.36432 2982.3445 5803343
310.3306 388.69211 2881.0054 4421688
322.33353 382.60822 2835.9114 4486713
351.23038 396.18536 2936.5459 6065996
374.07709 401.97537 2979.4617 4420912
373.32935 383.034 2839.0671 5408574
390.2084 383.034 2839.0671 4355626
407.08743 383.034 2839.0671 3304220
415.33209 375.23318 2781.2473 3041049
419.93564 364.86618 2704.4065 3698981
444.99884 372.3848 2760.135 2316819
455.40155 367.53671 2724.2007 3172636
477.33591 372.00879 2757.3479 2975002
483.58777 364.36761 2700.7112 3698725
499.49521 364.25894 2699.9055 4291118
498.66669 352.33224 2611.5044 3896358
508.4613 348.40491 2582.3948 2514704
532.23969 354.00888 2623.9316 2053897
547.83972 354.00888 2623.9316 2120204
562.22644 353.24658 2618.2815 1923340
589.39575 360.34027 2670.8604 3107615
606.58618 361.121 2676.647 2383123
621.15375 360.34027 2670.8604 2843672
617.42639 349.24985 2588.6575 2119952
622.61249 343.61819 2546.9153 2251278
637.74188 343.61133 2546.8645 1988365
646.63391 340.32208 2522.4844 2646552
661.6308 340.32208 2522.4844 2646298
678.73132 341.38016 2530.3269 3764524
702.59644 345.72092 2562.501 2185747
696.7868 335.58554 2487.377 2251285
674.16718 317.9437 2356.6147 2119955
711.16418 328.56357 2435.3296 3237922
729.9292 330.5043 2449.7146 2974749
749.10974 332.55362 2464.9043 3566885
725.52142 315.90219 2341.4829 2777625
739.4422 315.90219 2341.4829 3040027
737.26544 309.15213 2291.4512 3763750
750.88879 309.15213 2291.4512 3830057
772.93469 312.55804 2316.696 2777111
798.4613 317.22757 2351.3066 4290093
810.86212 316.6113 2346.7388 4684595
808.5481 310.36746 2300.4592 4750387
0 0 0 0
0 0 0 0
865.18182 316.06757 2342.7087 5013558
879.10992 316.06757 2342.7087 3039511
919.62421 325.47708 2412.4526 2579217
896.34869 312.36758 2315.2842 3302939
910.11377 312.36758 2315.2842 2579472
927.62646 313.63467 2324.676 2382102
945.85663 315.10358 2335.5637 4289831
939.86371 308.57706 2287.1887 4552747
947.97473 306.80127 2274.0266 3960608
954.06836 304.4317 2256.4631 4091679
934.41589 294.02649 2179.3391 4420900
947.37268 294.02649 2179.3391 5276207
984.80933 301.52158 2234.8931 4881704
1011.449 305.55536 2264.7917 4618270
1007.8585 300.47067 2227.1038 4618526
999.00684 293.96973 2178.9185 4618012
1001.3383 290.88385 2156.0457 6721338
1014.1566 290.88385 2156.0457 5933619
1026.9749 290.88385 2156.0457 5736751
1049.5962 293.62625 2176.3726 7250244
1036.2062 286.35034 2122.4431 4685085
976.43494 266.58646 1975.9523 4356888
998.53394 269.379 1996.6508 5672749
1010.4046 269.379 1996.6508 4488471
1058.8148 279.00754 2068.0178 5738537
1055.3195 274.89438 2037.531 5014812
1041.6139 268.24521 1988.2469 3896330
1053.4346 268.24521 1988.2469 5146398
1099.1021 276.76828 2051.4204 5212189
1112.7847 277.13849 2054.1643 4883477
1143.6361 281.73004 2088.1973 5212441
1156.0509 281.73004 2088.1973 3962884
1140.2878 274.936 2037.8395 4094212
1095.9053 261.45691 1937.9318 4488967
1059.1971 250.07016 1853.5326 4291076
1070.2169 250.07016 1853.5326 4291334
1093.577 252.92427 1874.6874 4422919
1085.6541 248.55855 1842.3285 4160260
1111.2498 251.87747 1866.9286 3699457
1122.3492 251.87747 1866.9286 4292105
1117.6326 248.36278 1840.8774 3239424
1146.7738 252.36729 1870.5591 3633920
1191.0042 259.58359 1924.0466 3304960
1206.6853 260.49939 1930.8346 3502080
1218.1647 260.49939 1930.8346 4291330
0 0 0 0
0 0 0 0
0 0 0 0
0 0 0 0
0 0 0 0
0 0 0 0
0 0 0 0
0 0 0 0
1231.4457 242.75143 1799.2858 5212416
1345.4998 262.95041 1949.0016 6594066
1362.1101 263.92365 1956.2153 3633408
1373.7404 263.92365 1956.2153 5212416
1369.2371 260.8501 1933.4341 4685824
1352.8258 255.57802 1894.3572 4619776
1364.0881 255.57802 1894.3572 5146118
0 0 0 0
0 0 0 0
0 0 0 0
0 0 0 0
0 0 0 0
0 0 0 0
0 0 0 0
0 0 0 0
0 0 0 0
1381.2167 239.05026 1771.8525 6854456
1452.4822 249.4816 1849.1702 4224526
1463.476 249.4816 1849.1702 4158475
1451.3806 245.57487 1820.2134 3829508
1473.3678 247.45012 1834.1128 4289548
1476.083 246.08487 1823.9935 4947987
1476.9313 244.43057 1811.7317 4816399
1487.7025 244.43057 1811.7317 3895045
1487.1915 242.59023 1798.0909 3960581
1497.8817 242.59023 1798.0909 5606437
1503.0712 241.70566 1791.5345 4224272
1516.1101 242.08693 1794.3605 7051318
1538.6807 243.9742 1808.3491 4354572
1530.3373 240.96759 1786.0638 3960840
1494.0441 233.63171 1731.6901 3632643
1444.636 224.35948 1662.9637 2777088
1498.16 231.09048 1712.8544 4027659
1510.9586 231.49117 1715.8241 3698949
1538.6136 234.14731 1735.5117 3962119
1557.6577 235.4664 1745.2888 3632385
1568.0339 235.4664 1745.2888 3369216
1522.5038 227.12631 1683.4717 4553481
1510.2208 223.82257 1658.9841 4882700
1501.4285 221.07567 1638.624 5605908
1511.1705 221.07567 1638.624 5145611
1520.9126 221.07567 1638.624 4948231
1565.8497 226.15897 1676.3016 5079557
1594.5265 228.84428 1696.2053 5803279
1609.647 229.56253 1701.5291 4618754
1628.1252 230.74768 1710.3134 5408521
1634.7828 230.2532 1706.6483 5934096
1634.7687 228.83093 1696.1064 5802510
1636.9347 227.7294 1687.9418 5342217
0 0 0 0
0 0 0 0
0 0 0 0
0 0 0 0
0 0 0 0
0 0 0 0
0 0 0 0
0 0 0 0
-2383.708 381.90491 2711.2236 65536
-2741.801 442.26727 3139.7488 0
-2822.9009 458.47046 3254.7788 65536
-2822.8857 461.63242 3277.2263 0
-2803.4016 461.63242 3277.2263 0
-2652.4441 439.83136 3122.4558 0
-2469.1978 412.33105 2927.2253 0
-2392.7024 402.39316 2856.6743 0
-2375.7185 402.39316 2856.6743 0
-2457.4729 419.23758 2976.2563 0
-2531.5105 435.00031 3088.1594 0
-2128.2522 368.37842 2615.1963 131584
0 0 0 0
0 0 0 0
-2083.446 368.7037 2617.5056 65536
-2525.3906 450.27704 3196.6121 65536
-2545.9941 457.39273 3247.1279 65536
-2534.8865 458.87668 3257.6628 65536
-2470.25 450.61884 3199.0386 65536
-2446.5828 449.7644 3192.9724 65536
-2427.5996 449.7644 3192.9724 65536
-2459.0449 459.18097 3259.8228 65536
-2487.4856 468.18161 3323.7202 65536
-2468.5244 468.33322 3324.7966 65536
-2450.2903 468.6264 3326.8779 65537
-2341.4526 451.45505 3204.9749 0
-2322.3982 451.45505 3204.9749 65536
-2306.8325 452.13882 3209.8293 197120
-2600.7937 514.00739 3649.0471 131328
-2617.1443 521.58966 3702.8755 131328
-2708.1904 544.31348 3864.1965 131328
-2651.9736 537.57483 3816.3577 131328
-2629.2842 537.57483 3816.3577 131328
-2606.595 537.57483 3816.3577 197120
-2636.9258 548.60559 3894.667 131328
-2663.613 559.06696 3968.9346 328707
-2640.0166 559.06696 3968.9346 394498
-2618.5476 559.52148 3972.1614 591363
-2608.4475 562.43579 3992.8506 525313
-2613.9819 568.8056 4038.0713 657411
-2447.4475 537.50409 3815.8552 1051142
-2381.8792 527.99829 3748.3716 1051399
-2381.1311 532.81757 3782.5847 1182728
-2430.5122 549.05286 3897.8425 1511436
-2417.9841 551.4809 3915.0796 1379591
-2489.3196 573.26923 4069.7595 1313798
-2440.9365 567.64447 4029.8279 1774090
-2374.4985 557.66779 3959.0017 1839884
-2350.9612 557.66779 3959.0017 2234127
-2327.4238 557.66779 3959.0017 2826519
-2338.8928 566.14124 4019.1567 3615521
-2314.9978 566.14124 4019.1567 2496783
-2335.1455 577.02441 4096.4185 3221017
-2330.2605 581.88611 4130.9326 4535849
-2256.6802 569.51477 4043.106 4404774
-2224.0615 567.32587 4027.5662 4996140
-2200.6274 567.45758 4028.5015 5061676
-2176.677 567.45758 4028.5015 4075038
-2163.6533 570.33795 4048.95 4469540
-2130.8823 568.0191 4032.4878 1575170
-2147.9248 579.07715 4110.9912 2497810
-2123.4839 579.07715 4110.9912 3680797
-2099.0427 579.07715 4110.9912 5983287
-1991.4933 555.87933 3946.3049 5194027
-1975.3364 557.94263 3960.9529 6706497
-1938.1405 554.0415 3933.2578 4601121
-1914.7562 554.0415 3933.2578 5785394
-1891.3718 554.0415 3933.2578 7825234
-1873.4656 555.66626 3944.7925 5654067
-1805.7937 542.38483 3850.5044 4865064
-1829.2643 556.48895 3950.6331 8813155
-1805.7765 556.48895 3950.6331 7893334
-1810.0463 565.15576 4012.1604 7827540
-1735.9902 549.27155 3899.3948 7170379
-1713.8203 549.59637 3901.7009 5527093
-1644.6267 534.64343 3795.5471 4016673
-1603.0585 528.38007 3751.0818 3886368
-1580.7572 528.38007 3751.0818 3820831
-1558.9176 528.53656 3752.1926 3624730
-1556.7384 535.46008 3801.3442 3954464
-1498.2887 522.94745 3712.5144 4086561
-1489.1992 527.54645 3745.1641 4152867
-1441.3148 518.3335 3679.759 5140532
-1280.1486 467.46951 3318.665 5009202
-1283.3634 475.97955 3379.0793 3693597
-1277.0289 481.16223 3415.8726 5338422
-1233.3661 472.22046 3352.3928 5864767
-1240.6176 482.79877 3427.4905 6194245
-1193.2917 472.13638 3351.7959 5602621
-1173.3644 472.13638 3351.7959 5537082
-1159.6273 474.67029 3369.7847 5273911
-1128.6613 470.11688 3337.4592 6261319
-1100.447 466.56729 3312.2598 4682542
-1073.1731 463.29422 3289.0237 4090662
-1045.98 459.93527 3265.1777 4222247
-1015.4463 454.95258 3229.8044 5735488
-990.1925 452.18896 3210.1851 4748592
