# .PCD v0.7 - Point Cloud Data file format
VERSION 0.7
FIELDS x y z rgb
SIZE 4 4 4 4
TYPE F F F U
COUNT 1 1 1 1
WIDTH 1401
HEIGHT 1
VIEWPOINT 0 0 0 1 0 0 0
POINTS 1401
DATA ascii
8608.7656 -661.64899 9842.4473 1514769
8601.2344 -656.60706 9767.4453 1317642
8958.0879 -679.26276 10104.464 1318408
9059.627 -682.38599 10150.924 2502422
9132.6357 -683.33313 10165.014 2436370
9452.8789 -702.6452 10452.292 2240018
9312.8574 -687.71625 10230.215 2437654
9535.8828 -699.61664 10407.24 1647627
9399.9727 -685.19934 10192.774 1713420
9343.7031 -676.73499 10066.861 1581580
9168.8086 -659.84131 9815.5576 1844497
8918.4863 -637.76758 9487.1963 2107671
8445.3848 -600.14014 8927.4648 1975831
7761.4678 -548.09552 8153.2686 1909527
7989.7183 -560.71216 8340.9482 2699301
8518.873 -594.16003 8838.5068 1382931
7839.1016 -543.39661 8083.3691 2172448
0 0 0 0
0 0 0 0
0 0 0 0
0 0 0 0
0 0 0 0
0 0 0 0
0 0 0 0
0 0 0 0
0 0 0 0
0 0 0 0
0 0 0 0
0 0 0 0
-1979.2224 -141.78348 2313.7461 1581850
-2040.9132 -147.22598 2402.5618 1319191
-2093.2256 -152.06393 2481.5117 1451802
-2171.4133 -158.86362 2592.4749 1452056
-2215.845 -163.27324 2664.4348 1912861
-2180.0657 -161.7935 2640.2874 1583895
-2152.7922 -160.92815 2626.1655 1781275
-2137.179 -160.92815 2626.1655 1847067
-2080.5508 -157.81703 2575.3958 2110497
-2031.7703 -155.25946 2533.6589 2241824
-2021.1921 -155.60475 2539.2937 3031340
0 0 0 0
0 0 0 0
-1805.4965 -142.18513 2320.3008 5006907
-1858.9489 -147.52168 2407.3875 4678199
-1920.625 -153.59875 2506.5583 3427879
-1931.5903 -155.68365 2540.5815 3033124
-1921.7323 -156.10985 2547.5364 3493677
-1915.0331 -156.80144 2558.8225 3362093
-1899.8201 -156.80144 2558.8225 5335626
-1884.6072 -156.80144 2558.8225 2966823
-1923.3586 -161.3279 2632.689 3953202
-1882.7881 -159.22061 2598.3005 3887403
-1846.6324 -157.45493 2569.4866 1782025
-1851.8929 -159.22061 2598.3005 4546332
-1843.7629 -159.85507 2608.6541 6982678
0 0 0 0
0 0 0 0
0 0 0 0
-7178.2822 -644.02979 10509.839 463872
-7162.7036 -648.27502 10579.116 768
-7018.082 -640.81274 10457.341 132864
-6724.0732 -619.45483 10108.803 1119244
-6619.4009 -615.31146 10041.188 256
-6318.1772 -592.65594 9671.4756 256
-5998.4707 -567.83453 9266.4189 0
-5939.4712 -567.46118 9260.3262 0
-6165.312 -594.54932 9702.373 0
-6337.3911 -616.91559 10067.366 256
-6428.9639 -631.79681 10310.21 855819
-6447.3223 -639.70013 10439.184 1382417
-6663.4478 -667.57025 10893.993 132096
-6563.9404 -664.05573 10836.64 395267
-6632.2158 -677.61395 11057.895 526852
-6347.2051 -654.98694 10688.647 461060
-6241.0513 -650.54584 10616.173 592646
-5843.8833 -615.36963 10042.138 197632
-5784.1802 -615.36963 10042.138 256
-5805.6201 -624.09235 10184.482 0
-5638.0005 -612.46124 9994.6758 131840
-5578.5791 -612.46124 9994.6758 256
-5632.6699 -625.05768 10200.235 0
-5572.0269 -625.05768 10200.235 0
-5416.604 -614.30853 10024.821 0
-5352.8193 -613.82874 10016.991 0
-5297.4033 -614.30853 10024.821 0
-5604.2319 -657.28461 10726.143 0
-5663.7729 -671.91345 10964.869 1250065
-5297.9365 -635.8313 10376.049 658186
-5236.248 -635.8313 10376.049 197635
-5174.5596 -635.8313 10376.049 526601
-5002.603 -622.11841 10152.271 0
-4939.7017 -621.79834 10147.047 0
-4910.9751 -625.82532 10212.763 197377
-4850.2578 -625.82532 10212.763 131585
-4861.7139 -635.25598 10366.66 65792
-4658.1846 -616.47699 10060.208 65792
-4688.1968 -628.51904 10256.721 66048
-4539.4111 -616.59216 10062.088 987403
-4685.3667 -644.91632 10524.307 856073
-4655.5898 -649.49127 10598.964 263681
-4685.354 -662.61212 10813.081 461060
-4571.1641 -655.45648 10696.31 526596
-4372.0957 -635.75659 10374.83 0
-4232.7944 -624.30817 10188.005 0
-4151.394 -621.19141 10137.142 0
-4186.0322 -635.60181 10372.304 256
-4184.2925 -644.83704 10523.012 256
-4296.2964 -672.14758 10968.689 66305
-4231.0845 -672.14758 10968.689 790284
-3988.7983 -643.57733 10502.455 790796
-3833.0667 -628.28571 10252.913 1053967
-3810.3438 -634.65393 10356.835 1448725
-3883.1938 -657.41144 10728.213 527623
-3873.1753 -666.66553 10879.229 264195
-3778.6323 -661.43811 10793.923 1120782
-3700.866 -659.01746 10754.421 1515796
-3614.8467 -655.0163 10689.126 3490348
-3544.2368 -653.71417 10667.877 3227430
-3534.1213 -663.72565 10831.253 3950642
-3469.7266 -663.72565 10831.253 330497
-3445.229 -671.50195 10958.153 726023
-3399.1738 -675.29523 11020.056 1778964
-3408.4326 -690.44257 11267.243 4608063
-3559.7678 -735.55438 12003.417 857609
-3368.436 -710.2583 11590.613 528645
-3318.1978 -714.27747 11656.202 791304
-4497.4463 -988.77356 16135.667 1053451
-4401.5151 -988.77356 16135.667 658695
-4305.5845 -988.77356 16135.667 657417
-4195.5024 -985.44977 16081.428 526344
-4114.0083 -988.84222 16136.788 460553
-4018.1816 -988.86963 16137.235 394760
-3922.2412 -988.86963 16137.235 262920
-3826.4956 -988.91992 16138.057 262921
-3730.5652 -988.92383 16138.12 196871
-3634.7207 -988.95135 16138.569 262665
-3538.6836 -988.92651 16138.164 1315098
-3442.6636 -988.90515 16137.816 1117975
-3346.7729 -988.92096 16138.073 460301
-3250.8276 -988.92096 16138.073 591886
-3154.6194 -988.8385 16136.728 394508
-3058.6416 -988.8255 16136.515 328713
-2962.7053 -988.8255 16136.515 3
-2866.676 -988.79321 16135.989 3
-2473.8455 -882.83966 14406.946 2
-1795.4781 -663.73187 10831.354 2
-1672.5758 -641.29913 10465.277 262403
-1644.2063 -654.77911 10685.256 1446165
-1520.526 -629.86121 10278.624 3486262
-1513.34 -653.13367 10658.403 3618872
-1350.1387 -608.16382 9924.5469 3289906
-1291.1345 -608.16382 9924.5469 2961709
-1141.7319 -563.54431 9196.4072 790282
-1133.3115 -587.52344 9587.7188 526854
-1076.3098 -587.52344 9587.7188 5198156
-1037.4821 -597.99872 9758.6641 4277055
-979.46405 -597.99872 9758.6641 1382162
-921.44617 -597.99872 9758.6641 2961194
-852.67749 -590.55298 9637.1582 461062
-791.37347 -587.5769 9588.5908 921612
-717.23926 -573.87299 9364.959 790027
-673.30096 -584.05597 9531.1338 724234
-642.90887 -608.94098 9937.2295 987406
-604.50989 -630.51111 10289.229 1381907
-549.23969 -637.36017 10400.998 257
-510.37503 -667.40009 10891.216 0
-438.27942 -656.4007 10711.719 65793
-387.2345 -678.5484 11073.144 460549
-317.11737 -669.50348 10925.541 855307
-251.83728 -668.64136 10911.472 723721
-183.50374 -656.26099 10709.438 526342
-120.66999 -660.84393 10784.227 723721
-57.002811 -666.07935 10869.663 1250065
7.90521 -690.97754 11275.973 1381651
70.953247 -654.18304 10675.528 1711130
130.49998 -635.09491 10364.032 2369059
197.89427 -654.19318 10675.693 2171423
264.15256 -661.17224 10789.584 395269
319.27322 -642.99371 10492.931 658441
381.65662 -642.99371 10492.931 724234
438.83865 -635.46179 10370.02 395013
498.36569 -632.763 10325.978 66305
562.14392 -635.46179 10370.02 460806
609.4566 -620.85364 10131.631 526342
669.69202 -620.85364 10131.631 460549
730.43317 -621.28394 10138.652 197377
781.6568 -614.17035 10022.566 197378
846.29486 -617.85803 10082.745 328963
898.29486 -612.44141 9994.3525 789514
957.71399 -612.44141 9994.3525 921100
942.36377 -567.4209 9259.668 65792
1018.1833 -579.23578 9452.4736 328964
1096.6422 -591.23761 9648.3301 789514
1154.0043 -591.23761 9648.3301 1315858
1220.4694 -595.68054 9720.834 789517
1281.0018 -596.95715 9741.667 329478
1340.6375 -597.72345 9754.1719 461064
1398.6288 -597.72345 9754.1719 987408
1439.5988 -590.73883 9640.1904 526857
1494.0146 -589.59528 9621.5283 724236
1551.2172 -589.59528 9621.5283 1842715
1624.1758 -595.37079 9715.7793 1184784
1724.0638 -610.28223 9959.1162 790027
1749.5336 -598.73553 9770.6875 1053199
1807.623 -598.73553 9770.6875 658185
1861.4917 -597.38098 9748.583 66304
1918.3579 -597.0412 9743.0381 132097
2003.1859 -605.16864 9875.6689 987406
2065.7336 -606.29388 9894.0322 2632230
1951.9102 -557.02515 9090.0215 1513750
2005.9529 -557.02515 9090.0215 592649
2075.7664 -561.28961 9159.6123 395269
2130.2227 -561.28961 9159.6123 461062
2184.6792 -561.28961 9159.6123 724490
2252.3655 -564.60596 9213.7314 1317397
2453.9482 -600.53204 9800.0049 1582107
3012.6431 -720.15771 11752.16 857872
2539.3293 -593.25537 9681.2578 594702
0 0 0 0
0 0 0 0
4374.0659 -956.83478 15614.463 2239267
4615.9336 -988.75897 16135.43 3950141
4711.8633 -988.75897 16135.43 3292210
0 0 0 0
0 0 0 0
0 0 0 0
0 0 0 0
0 0 0 0
0 0 0 0
0 0 0 0
5479.8604 -988.86005 16137.079 13291186
5576.2456 -988.93909 16138.369 13356980
5672.1929 -988.93909 16138.369 13750977
5767.4419 -988.81946 16136.417 13356446
5863.3774 -988.81946 16136.417 12961411
0 0 0 0
0 0 0 0
0 0 0 0
3744.5339 -592.70001 9672.1953 3158572
3864.1482 -602.38245 9830.2012 5133135
3897.4949 -598.52838 9767.3076 5067853
3804.1428 -575.61639 9393.4092 3356972
3859.989 -575.61639 9393.4092 12240796
4964.396 -729.75171 11908.724 9806692
6823.5146 -988.93286 16138.268 8360526
6920.3516 -989.06012 16140.344 7966281
7016.3193 -989.06134 16140.364 9611367
7112.4761 -989.08881 16140.813 11912350
7209.2949 -989.20642 16142.732 12831166
7305.2681 -989.20642 16142.732 13423307
7430.2236 -993.08014 16205.946 13619403
7496.3228 -989.08881 16140.812 13685453
7591.0186 -988.92395 16138.122 13554380
7686.75 -988.89636 16137.672 13488588
7781.8276 -988.78644 16135.879 13686223
0 0 0 0
0 0 0 0
0 0 0 0
0 0 0 0
0 0 0 0
5281.3647 -624.85083 10196.86 8027521
5341.9878 -624.85083 10196.86 5986650
5363.8013 -620.36224 10123.611 1842463
5605.8887 -641.16681 10463.118 1908511
5624.6235 -636.24939 10382.871 1514266
5929.9233 -663.50269 10827.614 659473
5994.2969 -663.50269 10827.614 593166
6001.626 -657.25562 10725.67 329994
5953.7412 -645.15686 10528.231 197894
5854.9902 -627.85522 10245.889 197638
5953.2949 -631.82343 10310.645 263431
6042.0264 -634.70514 10357.671 197638
6075.894 -631.82343 10310.645 263431
6127.9395 -630.87073 10295.098 263431
6292.4707 -641.40271 10466.968 197637
6302.3564 -636.11951 10380.752 66051
6338.9414 -633.60742 10339.758 2
6538.5889 -647.28607 10562.978 2
6516.2207 -638.93512 10426.699 256
6471.7642 -628.59607 10257.978 724493
6365.2017 -612.47412 9994.8857 526857
6511.5132 -620.75745 10130.061 329478
6571.7388 -620.75745 10130.061 263685
6701.3892 -627.25555 10236.103 66304
6065.7388 -562.64868 9181.791 66048
6403.9863 -588.72577 9607.3398 461062
6737.355 -613.89734 10018.111 526855
6887.8716 -622.11249 10152.173 790027
6948.229 -622.11249 10152.173 592648
7002.4624 -621.56885 10143.302 395269
6966.1694 -613.06763 10004.571 263683
7117.103 -621.04797 10134.802 66048
7170.9897 -620.49701 10125.811 592648
6964.3843 -597.60278 9752.2031 263683
6493.0776 -552.56061 9017.165 658441
6312.7837 -532.81836 8694.9941 461062
6346.0259 -531.27362 8669.7861 1053199
6619.6343 -549.71454 8970.7197 592651
7366.9067 -606.88074 9903.6084 658443
7752.5908 -633.58923 10339.461 724236
7737.269 -627.36261 10237.85 592907
7448.5859 -599.24121 9778.9395 658443
7506.7246 -599.24121 9778.9395 724236
6831.5312 -541.15125 8830.9775 592650
7263.4946 -570.98047 9317.7568 1184274
7378.4224 -575.62482 9393.5469 987151
7697.7041 -596.02216 9726.4082 1052945
7815.3364 -600.61835 9801.4131 592137
8083.1074 -616.59943 10062.206 592135
8151.7378 -617.26636 10073.09 592135
8589.4346 -645.6662 10536.543 394756
8547.9346 -637.89453 10409.718 263683
8476.4902 -628.01599 10248.512 592648
8492.0244 -624.67664 10194.018 592649
8598.3506 -628.01599 10248.512 921611
8921.3896 -647.02545 10558.725 1053197
8927.9492 -642.97699 10492.658 922380
8963.0566 -641.02625 10460.825 1119759
8703.5762 -618.1792 10087.986 1316881
8610.8525 -607.40784 9912.21 1251599
8471.3262 -593.50385 9685.3125 1317389
8353.043 -581.26581 9485.6016 1383180
8409.4365 -581.26581 9485.6016 1515278
8871.1025 -609.0918 9939.6904 1844493
9119.9766 -622.03595 10150.924 2042126
9572.3701 -648.59979 10584.416 2042896
9809.4443 -660.32251 10775.718 2635031
9535.8828 -637.74268 10407.24 2042894
9399.9727 -624.60046 10192.774 3095581
9404.3027 -620.88556 10132.151 1911308
9168.8086 -601.48511 9815.5576 2174739
8918.4863 -581.36353 9487.1963 1976082
8538.6768 -553.10706 9026.083 1449741
7761.4678 -499.6221 8153.2686 1910037
7989.7183 -511.12286 8340.9482 2633507
8039.3071 -511.12286 8340.9482 3686454
7702.2944 -486.69418 7942.2998 2369569
0 0 0 0
0 0 0 0
0 0 0 0
0 0 0 0
0 0 0 0
0 0 0 0
0 0 0 0
0 0 0 0
0 0 0 0
0 0 0 0
0 0 0 0
-1983.1647 -127.39719 2302.353 1120789
-2045.0637 -132.28661 2390.7158 1055764
-2119.8015 -138.08075 2495.429 1779740
-2156.3767 -141.4532 2556.377 1517338
-2167.2141 -143.17323 2587.4614 1583640
-2156.0005 -143.45064 2592.4749 1583896
-2164.9924 -145.08614 2622.032 2570788
-2176.2378 -146.89743 2654.7664 2176029
-2240.8677 -152.36505 2753.5784 1781526
-2215.3391 -151.73779 2742.2424 1649939
-2115.1914 -145.95236 2637.6868 2506012
-2021.1921 -140.50793 2539.2937 4347953
0 0 0 0
0 0 0 0
0 0 0 0
-1795.3156 -128.64925 2324.9807 2507533
-1928.484 -139.26413 2516.8152 1980688
-1936.8781 -140.96404 2547.5364 3626020
-1921.7323 -140.96404 2547.5364 3230750
-1901.8217 -140.61176 2541.1699 4481327
-1872.2233 -139.53181 2521.6531 4678196
-1857.2313 -139.53181 2521.6531 3296039
-1916.4956 -145.15601 2623.2947 2769693
-1882.7881 -143.77299 2598.3005 1715985
-1867.3405 -143.77299 2598.3005 3558185
-1859.2721 -144.34589 2608.6541 1979406
-1843.7629 -144.34589 2608.6541 1319939
0 0 0 0
0 0 0 0
0 0 0 0
-6868.4893 -556.44812 10056.266 397570
-7141.4736 -583.64417 10547.76 725765
-6942.8145 -572.43512 10345.188 330240
-6696.7764 -557.08435 10067.765 132096
-6564.624 -551.01599 9958.0957 512
-6095.2939 -516.27789 9330.2998 66048
-5998.4707 -512.74316 9266.4189 65792
-6140.1665 -529.72028 9573.2334 65792
-6197.0645 -539.63092 9752.3418 0
-6362.3374 -559.25513 10106.995 0
-6564.1567 -582.49658 10527.021 460548
-6521.8999 -584.31793 10559.937 0
-6663.4478 -602.80243 10893.993 256
-6598.6802 -602.80243 10893.993 724232
-6632.2158 -611.8717 11057.895 132096
-6498.3662 -605.52527 10943.201 0
-6241.0513 -587.42969 10616.173 197888
-5886.981 -559.76428 10116.196 65792
-5896.3291 -566.44012 10236.844 256
-5876.6748 -570.43994 10309.13 256
-5889.9609 -577.75531 10441.335 461059
-5794.1875 -574.41473 10380.963 2171677
-5955.8306 -596.79626 10785.448 0
-5891.708 -596.79626 10785.448 263169
-5551.6851 -568.54163 10274.823 0
-5490.5981 -568.54163 10274.823 197377
-5523.4038 -578.37347 10452.506 256
-5639.855 -597.28735 10794.323 2040094
-5663.7729 -606.7243 10964.869 2304040
-5598.584 -606.7243 10964.869 4278087
-5278.6895 -578.79639 10460.149 790030
-5216.5005 -578.79639 10460.149 1447959
-5438.542 -610.71356 11036.965 256
-5419.9844 -616.06268 11133.635 526342
-5307.3066 -610.71356 11036.965 1447444
-5071.9517 -590.93738 10679.564 197378
-5008.4585 -590.93738 10679.564 328964
-4781.2559 -571.3736 10326.003 197377
-4719.8647 -571.3736 10326.003 65792
-4539.4111 -556.77026 10062.088 592646
-4509.1094 -560.43933 10128.396 527109
-4448.8936 -560.43933 10128.396 198144
-4634.7563 -591.86395 10696.31 987404
-4541.9565 -588.08228 10627.966 395267
-4363.8491 -572.99261 10355.262 263683
-4259.7959 -567.33386 10252.996 66305
-4090.7498 -552.72919 9989.0566 0
-4186.0322 -573.93555 10372.304 256
-4140.6948 -576.20789 10413.369 256
-4078.7847 -576.20789 10413.369 395269
-4129.1616 -592.31519 10704.464 790540
-4065.5208 -592.31519 10704.464 2040349
-3868.894 -572.63208 10348.746 1054223
-3810.3438 -573.07965 10356.835 461575
-3906.9783 -597.2652 10793.923 1383188
-3842.8054 -597.2652 10793.923 198146
-3808.4956 -601.98547 10879.229 856588
-3671.0842 -590.29065 10667.877 593413
-3614.8467 -591.46643 10689.126 659972
-3551.2969 -591.46643 10689.126 2239259
-3582.8518 -607.59479 10980.601 1976086
-3517.5693 -607.59479 10980.601 1844245
-3388.1401 -596.30518 10776.572 1120269
-3399.1738 -609.77795 11020.056 1119759
-3631.1311 -664.19073 12003.417 768
-3634.1111 -678.06195 12254.102 67075
-3561.2573 -678.06195 12254.102 1283
-4282.3735 -832.39081 15043.169 768
-4497.4463 -892.84247 16135.667 1118991
-4401.9419 -892.92908 16137.231 256
-4305.5845 -892.84247 16135.667 0
-4195.5024 -889.84125 16081.428 131586
-4059.3762 -881.04724 15922.5 65795
-3960.144 -880.03198 15904.153 394760
-3865.5896 -880.03198 15904.153 394506
-3780.9697 -882.35046 15946.053 591372
-3730.5503 -892.97467 16138.057 459788
-3634.8218 -893.02789 16139.018 723217
-3538.8708 -893.02789 16139.018 2763056
-3443.29 -893.12384 16140.753 3026485
-3347.2991 -893.11597 16140.61 855060
-3251.3386 -893.11597 16140.61 2697517
-3155.6162 -893.18329 16141.827 1842466
-3059.4788 -893.13379 16140.933 2434602
-2963.0437 -892.99133 16138.356 2960945
-2866.9053 -892.93176 16137.28 592396
-2770.8879 -892.90698 16136.833 2894894
-1795.4781 -599.33643 10831.354 986896
-1560.1655 -540.16144 9761.9287 1381910
-1644.2063 -591.25232 10685.256 1316372
-1509.9399 -564.79224 10207.063 461062
-1513.34 -589.76648 10658.403 526855
-1449.9728 -589.76648 10658.403 66304
-1327.7915 -564.75104 10206.318 0
-1383.5248 -616.63605 11143.997 256
-1317.2706 -616.63605 11143.997 921359
-1251.0165 -616.63605 11143.997 3224112
-1054.1151 -548.63782 9915.1162 3750712
-998.17749 -550.29749 9945.1104 790283
-946.11926 -554.43958 10019.967 461062
-879.9245 -550.29749 9945.1104 526855
-795.3819 -533.25745 9637.1582 461062
-728.33752 -526.21405 9509.8682 658441
-721.6571 -565.2677 10215.655 461062
-672.91333 -575.52332 10400.998 592648
-604.50989 -569.33881 10289.229 658443
-537.36212 -563.07739 10176.072 66049
-510.37503 -602.6488 10891.216 1
-449.04303 -607.27295 10974.785 2
-387.2345 -612.71545 11073.144 0
-321.06171 -612.0675 11061.434 0
-252.16199 -604.54816 10925.541 131585
-184.78522 -596.7287 10784.227 526342
-121.19781 -599.33881 10831.397 526342
-59.133583 -623.93872 11275.973 263170
8.1229887 -641.12744 11586.611 65792
75.821548 -631.24457 11408.006 263170
141.0761 -619.95428 11203.965 197634
213.66446 -637.79785 11526.438 197890
274.86124 -621.22845 11226.992 197890
328.29962 -597.02515 10789.584 592648
391.11725 -595.00269 10753.033 592648
454.68137 -594.52454 10744.393 2763817
518.55975 -594.52454 10744.393 131841
578.99756 -591.01257 10680.923 724234
635.13727 -584.24109 10558.548 394756
694.21515 -581.14734 10502.637 131584
742.96106 -570.62878 10312.543 0
795.7674 -564.59485 10203.496 263170
850.98743 -561.00684 10138.652 131585
883.80768 -544.10339 9833.1699 921100
942.26868 -544.10339 9833.1699 921100
956.67554 -520.15094 9400.2949 65792
1050.646 -539.71411 9753.8457 328963
1102.7806 -536.86395 9702.3359 131585
1168.0912 -540.39264 9766.1074 723721
1220.4694 -537.88751 9720.834 1118225
1288.3651 -542.13873 9797.6631 987408
1351.3939 -544.06268 9832.4336 2040096
1409.8505 -544.06268 9832.4336 724236
1454.188 -538.83105 9737.8857 658443
1434.2336 -511.0896 9236.5361 658443
1541.2896 -528.98529 9559.9512 658443
1598.45 -529.09247 9561.8887 921612
1684.2236 -538.33813 9728.9775 1184784
1749.5336 -540.64606 9770.6875 1184783
1814.9817 -542.84698 9810.4629 1053196
1861.4917 -539.42297 9748.583 1118991
1898.62 -533.56915 9642.792 395269
1939.5981 -529.10876 9562.1826 790027
1996.4481 -529.10876 9562.1826 1250579
1951.9102 -502.98245 9090.0215 855820
2005.9529 -502.98245 9090.0215 1250320
2075.7664 -506.83316 9159.6123 1250578
2130.2227 -506.83316 9159.6123 658185
2197.5874 -509.82773 9213.7314 1118736
2362.5366 -534.7652 9664.4072 1053713
2453.9482 -542.26825 9800.0049 1251604
2539.2966 -548.11462 9905.6611 1449495
2539.3293 -535.69757 9681.2578 2239781
0 0 0 0
0 0 0 0
4520.2803 -892.88385 16136.415 2042659
4615.9727 -892.83679 16135.565 3292725
4615.6626 -874.60071 15805.997 2503720
0 0 0 0
0 0 0 0
0 0 0 0
0 0 0 0
0 0 0 0
0 0 0 0
0 0 0 0
0 0 0 0
0 0 0 0
0 0 0 0
3888.105 -601.93524 10878.32 12829844
5863.2148 -892.85919 16135.969 12106106
3707.8401 -555.54572 10039.958 13618859
0 0 0 0
3625.0952 -526.20593 9509.7217 1776660
3744.5339 -535.19617 9672.1953 3750453
3840.8657 -540.6618 9770.9717 4935242
3897.4949 -540.45905 9767.3076 5461586
3727.5056 -509.2988 9204.1719 3487792
4013.6335 -540.45905 9767.3076 13620158
4969.9746 -659.69147 11922.105 10134394
6822.3394 -892.83246 16135.486 9938026
6920.1675 -893.07739 16139.913 10201452
7016.3193 -893.10242 16140.364 11385983
7112.4199 -893.12018 16140.686 12570260
7208.6372 -893.15192 16141.26 12963251
7304.3994 -893.1272 16140.813 13554638
7430.2236 -896.73126 16205.946 13619915
7495.0728 -892.97827 16138.122 13685453
7590.8066 -892.95343 16137.672 13619917
7686.75 -892.95343 16137.672 13554125
7782.4756 -892.92859 16137.223 13619918
7878.6353 -892.95343 16137.672 13554123
7974.1768 -892.90845 16136.859 13554380
0 0 0 0
0 0 0 0
0 0 0 0
0 0 0 0
0 0 0 0
0 0 0 0
5562.8945 -574.52032 10382.871 7631987
5624.6235 -574.52032 10382.871 789772
5776.3984 -583.61804 10547.288 855822
5937.8589 -593.48859 10725.67 1053717
5800.5088 -573.60052 10366.248 197892
5794.0757 -566.94055 10245.889 197893
5771.8486 -558.88995 10100.396 131845
5953.2949 -570.52374 10310.645 131845
6034.5747 -572.41901 10344.896 131589
6066.7324 -569.66351 10295.098 132100
6077.4814 -564.97284 10210.327 197637
6240.6396 -574.40308 10380.752 1579546
6195.3804 -564.6532 10204.55 460809
6145.7183 -554.69501 10024.583 592651
6289.5034 -562.2204 10160.584 460808
6400.873 -566.7326 10242.13 197892
6410.3179 -562.2204 10160.584 329478
6363.8071 -552.9306 9992.6963 395271
6493.9824 -559.02234 10102.788 395271
6557.2505 -559.29559 10107.727 197892
6614.1104 -559.02234 10102.788 263683
6385.3955 -534.83447 9665.6592 197890
6492.334 -538.94141 9739.8799 592648
6681.7192 -549.75922 9935.3828 855820
6646.145 -542.04041 9795.8867 855820
6738.4556 -544.7951 9845.6699 526855
6792.6709 -544.44873 9839.4111 790027
6780.5288 -538.83521 9737.9609 329476
6838.4243 -538.83521 9737.9609 197890
6906.4048 -539.62323 9752.2031 395269
6883.604 -533.36414 9639.0859 263684
6905.561 -530.64771 9589.9951 197890
6410.4717 -488.56949 8829.5469 395269
6462.9663 -488.56949 8829.5469 461062
6619.6343 -496.3811 8970.7197 723980
6984.0977 -519.52502 9388.9834 855566
7425.7866 -548.00104 9903.6084 921358
7349.2827 -538.08875 9724.4707 986895
6899.5566 -501.21841 9058.1416 987151
6846.4487 -493.50845 8918.8047 1118994
6831.5312 -488.64865 8830.9775 1184787
6952.4985 -493.50845 8918.8047 460807
7271.3838 -512.23712 9257.2744 526857
7434.2695 -519.77759 9393.5469 658443
7755.5303 -538.19592 9726.4082 1184786
7888.751 -543.38922 9820.2627 329732
8226.0371 -562.45929 10164.901 329476
8423.374 -571.75183 10332.839 461318
8398.501 -565.93622 10227.737 132097
8164.0352 -546.18219 9870.7373 395269
8273.6719 -549.56659 9931.9014 1053198
8452.9443 -557.49579 10075.199 855818
8795.1465 -575.98334 10409.312 987660
8722.0283 -567.20392 10250.647 1514003
8527.585 -550.71106 9952.584 1514003
8586.7549 -550.71106 9952.584 2040344
8605.252 -548.12024 9905.7627 1515026
8363.5947 -529.10657 9562.1426 1843732
8337.5537 -523.89801 9468.0127 1581071
8409.4365 -524.87128 9485.6016 1712401
8680.9287 -538.20703 9726.6084 1515274
8930.1963 -549.99756 9939.6904 726274
9569.626 -585.50458 10581.382 2503448
9809.4443 -596.25787 10775.718 2569749
9408.7988 -568.19421 10268.544 4807464
9597.7568 -575.86871 10407.24 4873001
9560.4707 -569.95721 10300.405 2174737
9168.8086 -543.12885 9815.5576 2306069
8918.4863 -524.95953 9487.1963 1911315
8773.4395 -513.17621 9274.2461 2305305
7761.4678 -451.14868 8153.2686 1976342
7989.7183 -461.53363 8340.9482 2107418
8039.3071 -461.53363 8340.9482 2370849
7713.9512 -440.14005 7954.3188 1975068
0 0 0 0
0 0 0 0
0 0 0 0
0 0 0 0
0 0 0 0
0 0 0 0
0 0 0 0
0 0 0 0
0 0 0 0
0 0 0 0
0 0 0 0
-2001.1166 -114.73837 2323.1943 923410
-2004.0242 -115.70369 2342.7397 1318678
-2119.8015 -123.24473 2495.429 1714203
-2157.8044 -126.33843 2558.0696 1583388
-2142.5959 -126.33843 2558.0696 1912349
-2136.1042 -126.85609 2568.5508 1781275
-2136.4478 -127.79004 2587.4614 1649688
-2198.5591 -132.45894 2681.9961 1057292
-2271.0032 -137.82312 2790.6086 1715476
-2254.4121 -137.82312 2790.6086 1847060
-2199.0359 -135.4344 2742.2424 2900766
-2053.3735 -127.40793 2579.7244 4019741
0 0 0 0
0 0 0 0
0 0 0 0
0 0 0 0
-1775.4894 -114.43964 2317.1458 1848333
-1874.4121 -121.76048 2465.3762 1321478
0 0 0 0
0 0 0 0
0 0 0 0
-1857.2313 -124.53989 2521.6531 3232276
-1877.1851 -126.90231 2569.4866 4086551
-1882.7881 -128.32538 2598.3005 5072680
-1867.3405 -128.32538 2598.3005 528386
-1851.8929 -128.32538 2598.3005 2175506
0 0 0 0
0 0 0 0
0 0 0 0
0 0 0 0
0 0 0 0
-6865.2998 -500.78934 10139.859 2371102
-6942.8145 -510.93011 10345.188 1536
-6696.7764 -497.2287 10067.765 768
-6375.6772 -477.65671 9671.4756 256
-6033.0107 -456.09802 9234.9609 256
-5998.4707 -457.65167 9266.4189 65792
-6145.5942 -473.22266 9581.6963 0
-6285.1782 -488.49896 9891.0068 65792
-6626.7432 -519.91052 10527.021 263171
-6584.6816 -521.53619 10559.937 197377
-6637.4165 -530.77362 10746.975 131842
-6663.4478 -538.03461 10893.993 256
-6628.4868 -540.46497 10943.201 395267
-6961.6929 -573.26019 11607.231 658439
-6776.4341 -563.59174 11411.467 256
-6531.604 -548.72302 11110.409 66048
-5957.1899 -505.57922 10236.844 256
-5939.2642 -509.26065 10311.385 0
-5952.0376 -515.67865 10441.335 256
-6005.1353 -525.76245 10645.508 131840
-5941.8447 -525.76245 10645.508 2303519
-6174.7852 -552.25659 11181.955 132096
-6108.3057 -552.25659 11181.955 592648
-5735.2271 -524.23169 10614.515 526600
-5672.1201 -524.23169 10614.515 1579546
-5704.0303 -533.11212 10794.323 1447703
-5918.5513 -559.45612 11327.73 66564
-5851.2051 -559.45612 11327.73 5134423
-5722.5327 -553.52429 11207.623 256
-5478.7671 -536.18884 10856.62 263685
-5589.2676 -553.52429 11207.623 512
-5632.7251 -564.55841 11431.039 66304
-5564.7642 -564.55841 11431.039 328963
-5353.792 -549.87012 11133.635 526599
-5287.5991 -549.87012 11133.635 3224368
-5221.4067 -549.87012 11133.635 1316371
-4978.2144 -530.99078 10751.371 65792
-4802.8882 -518.95337 10507.64 66304
-4658.4736 -509.98264 10326.003 526597
-4661.1787 -517.09314 10469.975 592647
-4598.9316 -517.09314 10469.975 66304
-4605.1426 -524.89606 10627.966 790025
-4500.502 -520.10529 10530.964 921611
-4377.6182 -513.04132 10387.935 197889
-4315.8589 -513.04132 10387.935 197890
-4241.7017 -511.54614 10357.66 256
-4208.2568 -514.98914 10427.373 256
-4146.2632 -514.98914 10427.373 512
-4084.2695 -514.98914 10427.373 395269
-4196.3691 -537.27905 10878.693 329476
-4131.6924 -537.27905 10878.693 789768
-3909.729 -516.50049 10457.975 0
-3892.363 -522.51575 10579.771 65792
-3905.9028 -532.94562 10790.952 0
-3795.2979 -526.50189 10660.48 512
-3731.9182 -526.50189 10660.48 256
-3626.3789 -520.45117 10537.968 988427
-3671.5857 -536.20288 10856.904 1712147
-3662.5786 -544.45923 11024.076 2830628
-3708.0842 -561.26758 11364.408 1909526
-3640.5195 -561.26758 11364.408 1514768
-3464.6909 -544.26062 11020.056 2829604
-3407.0925 -545.52856 11045.729 3356463
-3706.9653 -605.20795 12254.102 1447955
-4667.9658 -777.38123 15740.224 1185298
-4572.2837 -777.02399 15732.991 855822
-4593.5103 -796.93445 16136.133 527114
-4497.6597 -796.94922 16136.432 1645338
-4401.9419 -796.98871 16137.231 0
-4305.8662 -796.96362 16136.725 1
-4195.5835 -794.24805 16081.738 1
-4098.4814 -793.95905 16075.888 65794
-3942.4021 -781.95837 15832.901 723725
-3848.1667 -781.93719 15832.472 722955
-3754.0383 -781.93719 15832.472 855311
-3692.9702 -789.00049 15975.487 657932
-3635.124 -797.14331 16140.361 986897
-3539.2512 -797.1626 16140.753 1841696
-3443.4929 -797.20959 16141.705 328967
-3347.4976 -797.20282 16141.566 1842206
-3251.5593 -797.20959 16141.705 658189
-3155.7043 -797.23798 16142.277 2368551
-3059.6484 -797.21564 16141.827 1579033
-2963.2903 -797.11066 16139.701 855822
-2867.0964 -797.04425 16138.356 1382167
-2770.9648 -796.99115 16137.28 2105377
-2674.7356 -796.90521 16135.54 1513752
-1646.1444 -508.69333 10299.897 1908253
-1584.9088 -508.69333 10299.897 1776922
0 0 0 0
-1449.2561 -504.10843 10207.063 2040094
-1606.7335 -583.30988 11810.715 329221
-1589.0974 -603.27161 12214.896 257
-1516.4766 -603.27161 12214.896 257
-1443.8556 -603.27161 12214.896 256
-1368.1035 -601.8941 12187.003 724236
-1151.1053 -534.74658 10827.417 592648
-1076.6111 -529.76569 10726.565 461062
-1036.9572 -542.38092 10981.995 395269
-978.06555 -545.953 11054.322 329476
-912.34448 -545.953 11054.322 395269
-826.79767 -533.16815 10795.458 66304
-762.61572 -533.16815 10795.458 131841
-695.40558 -530.85657 10748.653 197890
-631.50183 -530.85657 10748.653 131586
-567.59808 -530.85657 10748.653 256
-516.06055 -543.88965 11012.544 2
-452.58832 -546.30426 11061.434 2
-390.63666 -551.68738 11170.43 2
-321.40158 -546.88257 11073.144 2
-255.56866 -546.88257 11073.144 131586
-188.6523 -543.75964 11009.912 197378
-125.37971 -553.40125 11205.132 263170
-60.762642 -572.24182 11586.611 394756
8.2265015 -579.534 11734.263 328963
77.98996 -579.534 11734.263 328963
147.67218 -579.21539 11727.811 263170
219.66603 -585.26007 11850.202 66304
290.11877 -585.26007 11850.202 263683
350.72025 -569.26996 11526.438 132098
482.95667 -655.7757 13277.984 592648
470.5762 -549.19659 11119.997 1184785
528.25403 -540.56635 10945.255 1316371
595.56958 -542.60992 10986.632 329476
658.39923 -540.56635 10945.255 2236960
697.91077 -521.46759 10558.548 0
742.96106 -509.31787 10312.543 131584
795.7674 -503.93225 10203.496 65792
853.50928 -502.21359 10168.697 197377
882.00665 -484.65286 9813.1318 394757
931.90308 -480.30014 9724.999 394756
1018.9773 -494.49792 10012.473 131584
1096.1252 -502.57724 10176.061 131584
1126.5753 -489.52014 9911.6836 328963
1217.1244 -502.57724 10176.061 394756
1288.1903 -506.73376 10260.221 657931
1311.1896 -492.46133 9971.2363 855822
1389.9226 -499.4509 10112.759 1053201
1429.7532 -492.46133 9971.2363 526857
1481.4862 -489.96484 9920.6875 658443
1421.1003 -451.9986 9151.957 592648
1525.0356 -467.16962 9459.1357 592648
1594.6454 -471.12033 9539.1289 724234
1681.9387 -479.84482 9715.7793 1118991
1756.6559 -484.52106 9810.4629 987405
1844.9852 -492.53064 9972.6396 1250578
1906.3401 -493.06473 9983.4531 526855
1965.6945 -493.06473 9983.4531 197889
1951.8916 -475.25217 9622.7891 461060
1934.2865 -457.55466 9264.4541 526853
1930.1553 -443.93613 8988.709 790025
2005.9529 -448.93973 9090.0215 856844
2085.8914 -454.58328 9204.29 659209
2142.5676 -454.99823 9212.6924 659209
2253.6702 -466.66251 9448.8672 1909276
2332.8713 -471.31427 9543.0557 857101
2404.9089 -474.33228 9604.1631 1120530
2481.7712 -478.1398 9681.2578 1581850
2598.1887 -489.22269 9905.6611 1450008
2490.1655 -458.49026 9283.3975 1384214
2477.4819 -446.26382 9035.8408 1384215
4520.042 -796.90643 16135.565 1186836
4615.9727 -796.90643 16135.565 1121556
2945.1765 -498.10666 10085.541 1187603
0 0 0 0
0 0 0 0
0 0 0 0
0 0 0 0
0 0 0 0
0 0 0 0
0 0 0 0
0 0 0 0
0 0 0 0
0 0 0 0
3460.2532 -478.13977 9681.2568 11908478
3517.8108 -478.13977 9681.2568 11579773
0 0 0 0
0 0 0 0
0 0 0 0
3708.0574 -473.03891 9577.9756 3421747
3826.3496 -480.74683 9734.043 3159345
3897.4949 -482.38968 9767.3076 4803909
3703.6499 -451.66812 9145.2656 2633247
4216.479 -506.7692 10260.938 12173965
5601.0596 -663.57825 13435.969 12108680
6822.3394 -796.90253 16135.486 11516284
6920.1206 -797.11578 16139.805 9938278
7016.123 -797.12115 16139.913 9741154
7112.0801 -797.12128 16139.915 10530670
7208.0371 -797.12128 16139.915 10333295
7303.9927 -797.12128 16139.915 13357248
7401.1836 -797.25421 16142.606 13553868
7495.0728 -797.03265 16138.122 13422538
7590.8066 -797.01044 16137.672 13093062
7686.1934 -796.95276 16136.504 12698046
7782.4756 -796.98822 16137.223 12829117
7878.6353 -797.01044 16137.672 13420741
7974.4575 -796.99835 16137.427 10394008
8070.1064 -796.96948 16136.843 13618895
0 0 0 0
0 0 0 0
0 0 0 0
0 0 0 0
0 0 0 0
4136.6836 -381.32224 7720.9189 724750
5588.2837 -509.47818 10315.789 1580059
5649.6138 -509.47818 10315.789 461063
5692.8081 -507.86026 10283.029 329478
5753.9434 -507.86026 10283.029 263685
5794.0757 -506.02591 10245.889 258
5824.5708 -503.39688 10192.656 131845
5953.2949 -509.22409 10310.645 329224
6034.5747 -510.91577 10344.896 329478
6001.6528 -503.00189 10184.659 66306
6027.3096 -500.10663 10126.036 329478
6044.7832 -496.59637 10054.961 132099
5840.5308 -475.1178 9620.0684 395271
5839.4878 -470.42627 9525.0752 461064
4559.0366 -363.74628 7365.0449 592907
6349.9111 -501.8129 10160.584 197892
6245.1807 -488.88559 9898.835 329478
6279.2007 -486.9599 9859.8447 592650
6424.624 -493.62936 9994.8857 197892
6554.0464 -498.95847 10102.788 658443
6398.1553 -482.66714 9772.9258 724234
6423.9453 -480.25146 9724.0137 658441
6492.334 -481.03506 9739.8799 855820
6551.2612 -481.11008 9741.3984 724234
6609.1763 -481.11008 9741.3984 921613
6686.8916 -482.53885 9770.3281 855820
6336.5659 -453.32083 9178.7285 263683
6391.1362 -453.32083 9178.7285 921613
6358.7695 -447.20663 9054.9297 1053199
6820.29 -475.63815 9630.6045 197634
6883.604 -476.05707 9639.0859 66304
6940.9102 -476.05707 9639.0859 197890
6410.4717 -436.07538 8829.5469 395269
6462.9663 -436.07538 8829.5469 329476
6397.5708 -428.18509 8669.7861 1184788
6844.2373 -454.41898 9200.9639 1118737
6551.7158 -431.5481 8737.8799 1184017
6661.436 -435.32339 8814.3213 1184273
6713.8394 -435.32339 8814.3213 1842204
6749.7979 -434.26538 8792.8984 592136
6802.0737 -434.26538 8792.8984 1184529
6952.4985 -440.48367 8918.8047 1513751
7233.522 -454.81946 9209.0723 1711129
7288.272 -454.81946 9209.0723 1579544
7755.5303 -480.36972 9726.4082 1908508
8126.772 -499.63867 10116.562 790281
8219.6182 -501.6344 10156.97 395268
8423.374 -510.32025 10332.839 5066316
8312.5361 -499.95905 10123.048 658185
7910.5771 -472.36319 9564.2939 1184272
8222.7188 -487.49786 9870.7373 986893
8452.9443 -497.59589 10075.199 1646104
8749.4395 -511.42542 10355.217 856588
8722.0283 -506.26099 10250.647 1053965
8527.585 -491.54013 9952.584 1317649
8580.3252 -491.17206 9945.1309 2304286
8413.1309 -478.30521 9684.6064 2501662
8281.2637 -467.60803 9468.0127 1712915
8318.6465 -466.54767 9446.543 1712915
8374.8096 -466.54767 9446.543 2107926
8403.6885 -465.0379 9415.9736 1318151
8821.1924 -484.91125 9818.3643 2568215
9569.626 -522.59534 10581.382 2240531
9879.791 -536.00977 10852.994 1780231
9727.749 -524.33661 10616.639 2372623
9790.8682 -524.33661 10616.639 1976587
9790.7129 -520.96979 10548.468 2043150
9265.8438 -489.90311 9919.4375 924419
9217.2842 -484.25357 9805.0469 1647630
8773.4395 -458.03827 9274.2461 1712915
8512.708 -441.65054 8942.4316 2567968
8565.874 -441.65054 8942.4316 3225902
8438.5576 -432.40247 8755.1787 1186322
7713.9512 -392.84946 7954.3188 1383188
0 0 0 0
0 0 0 0
0 0 0 0
0 0 0 0
0 0 0 0
0 0 0 0
0 0 0 0
0 0 0 0
0 0 0 0
0 0 0 0
0 0 0 0
-1983.1647 -100.02093 2302.353 726284
-2003.3778 -101.74261 2341.9841 1384979
-2129.0669 -108.88256 2506.3364 2635555
-2146.3193 -110.53849 2544.4539 4083254
-2126.3384 -110.28677 2538.6594 1978390
-2127.3877 -111.13 2558.0696 1649427
-2117.9443 -111.43333 2565.0518 1781012
-2198.5591 -116.51373 2681.9961 860165
-2282.9702 -121.87101 2805.3137 991745
-2291.7668 -123.24094 2836.8479 2110735
-2268.6665 -122.9032 2829.0735 3361552
-2248.2905 -122.70909 2824.6055 4019479
0 0 0 0
0 0 0 0
0 0 0 0
0 0 0 0
0 0 0 0
0 0 0 0
0 0 0 0
0 0 0 0
0 0 0 0
0 0 0 0
0 0 0 0
0 0 0 0
0 0 0 0
0 0 0 0
0 0 0 0
0 0 0 0
0 0 0 0
0 0 0 0
0 0 0 0
-6748.5649 -433.01486 9967.4453 256
-6805.0151 -440.50504 10139.859 512
-6590.6382 -430.44107 9908.1992 256
-5998.0225 -395.26965 9098.5986 256
-5908.8418 -392.9364 9044.8906 0
-5855.0679 -392.9364 9044.8906 65792
-6145.5942 -416.25681 9581.6963 0
-6344.7065 -433.76389 9984.6865 197378
-6378.7554 -440.21039 10133.076 657929
-6584.6816 -458.75446 10559.937 0
-6637.4165 -466.87991 10746.975 0
-6679.1562 -474.38245 10919.674 0
-6635.6382 -475.91748 10955.008 724232
-6961.6929 -504.25198 11607.231 395267
-6776.4341 -495.74741 11411.467 0
-6755.0645 -499.18173 11490.521 132096
-6002.748 -448.11935 10315.131 256
-5941.4219 -448.11935 10315.131 0
-5951.9941 -453.59872 10441.259 197634
-6025.0464 -464.00534 10680.806 256
-6015.019 -468.1673 10776.608 855819
-6296.2891 -495.33554 11401.987 658185
-6226.9858 -495.21503 11399.213 592392
-6122.3203 -492.24869 11330.932 256
-5976.3726 -485.86017 11183.876 256
-5799.1094 -476.75345 10974.251 256
-5639.855 -468.93686 10794.323 65793
-5500.9492 -462.6517 10649.647 66049
-5437.6343 -462.6517 10649.647 0
-5374.3188 -462.6517 10649.647 0
-5589.2676 -486.89182 11207.623 256
-5717.0957 -504.03604 11602.261 395525
-5648.1172 -504.03604 11602.261 0
-5353.792 -483.67755 11133.635 592648
-5254.54 -480.65347 11064.024 2434852
-5188.7607 -480.65347 11064.024 855564
-4997.1323 -468.84586 10792.229 657928
-4844.5562 -460.44275 10598.8 66304
-4740.4175 -456.48251 10507.64 1118990
-4680.6001 -456.74146 10513.601 724232
-4618.0942 -456.74146 10513.601 592646
-4643.8247 -465.58807 10717.238 526853
-4500.502 -457.49576 10530.964 1053197
-4437.8926 -457.49576 10530.964 395267
-4375.2832 -457.49576 10530.964 461060
-4245.668 -450.38776 10367.347 658185
-4213.2388 -453.5318 10439.718 131841
-4151.1719 -453.5318 10439.718 66305
-4089.1047 -453.5318 10439.718 461062
-4177.9097 -470.52316 10830.838 526855
-4131.6924 -472.60217 10878.693 395267
-4290.165 -498.53296 11475.587 197635
-3979.3862 -469.89191 10816.307 66049
-3905.9028 -468.79041 10790.952 0
-3766.5637 -459.61609 10579.771 256
-3699.7515 -459.13058 10568.595 66560
-3626.3789 -457.80005 10537.968 396036
-3674.7947 -472.06784 10866.394 3028011
-3662.5786 -478.918 11024.076 3159853
-3708.0842 -493.70303 11364.408 2040601
-3647.5256 -494.65311 11386.278 1842711
-3656.4458 -505.23956 11629.965 1711381
-3852.146 -542.54053 12488.584 2435106
-4761.5454 -683.80121 15740.224 2501415
-4767.519 -698.38458 16075.915 2567208
-4671.9434 -698.38458 16075.915 2501161
-4593.3452 -700.97559 16135.556 2304551
-4481.5454 -698.50208 16078.619 2237989
-4386.147 -698.53284 16079.327 2106403
-4290.8857 -698.5874 16080.583 2040096
-4195.4761 -698.61969 16081.327 1908255
-4099.8682 -698.61969 16081.327 1644827
-4002.906 -698.38342 16075.888 1513241
-3848.1667 -687.80872 15832.472 1446935
-3754.0383 -687.80872 15832.472 1118484
-3730.8757 -701.14539 16139.465 855311
-3635.124 -701.18439 16140.361 1184277
-3539.2346 -701.19812 16140.678 1315606
-3443.4636 -701.23669 16141.566 2237222
-3347.3647 -701.20892 16140.927 2105636
-3251.5593 -701.24274 16141.705 1250070
-3155.7043 -701.26758 16142.277 3355702
-3059.6484 -701.24805 16141.827 1381912
-2963.416 -701.18536 16140.385 1184532
-2867.2339 -701.1308 16139.129 1776924
-2770.9739 -701.0528 16137.333 1645338
-2674.7356 -700.97485 16135.54 1908511
-1646.1444 -447.45758 10299.897 1382166
0 0 0 0
0 0 0 0
-2107.03 -644.6817 14839.743 790027
-2195.4934 -701.10559 16138.548 790027
-2099.4287 -701.06659 16137.651 198146
-2003.3147 -701.00671 16136.272 197890
-1429.5581 -525.396 12093.939 66304
-1368.1035 -529.4389 12187.003 592648
-1336.3799 -546.08307 12570.129 526855
-1122.9363 -486.04437 11188.116 197890
-1056.4198 -486.04437 11188.116 66304
-989.90332 -486.04437 11188.116 66304
-992.77045 -522.56586 12028.794 132097
-1003.721 -569.34277 13105.537 66305
-925.80499 -569.34277 13105.537 132097
-797.55426 -535.54388 12327.531 0
-720.31549 -532.62451 12260.331 2
-630.33221 -518.56305 11936.654 2
-552.71002 -512.39307 11794.629 2
-482.58762 -512.39307 11794.629 2
-412.4653 -512.39307 11794.629 3
-337.8808 -505.71448 11640.896 0
-260.25977 -489.87955 11276.396 131586
-191.99734 -486.7836 11205.132 460549
-126.32431 -490.45099 11289.551 460549
-60.762642 -503.35614 11586.611 394756
8.2265015 -509.7706 11734.263 263170
78.162163 -510.89615 11760.172 263170
150.80351 -520.29388 11976.495 66304
222.17348 -520.68378 11985.47 329476
312.94708 -555.31549 12782.647 197890
392.62628 -560.57367 12903.684 1316371
512.0434 -611.57501 14077.67 1645334
470.5762 -483.08508 11119.997 1908506
536.68768 -483.08508 11119.997 2040093
595.56958 -477.29132 10986.632 855820
660.88818 -477.29132 10986.632 592135
693.86047 -456.03207 10497.271 0
742.96106 -448.00693 10312.543 65792
796.30994 -443.57184 10210.452 65792
851.56329 -440.7507 10145.514 263170
897.62109 -433.85818 9986.8564 197377
956.99573 -433.85818 9986.8564 131585
1030.6807 -439.96677 10127.469 394756
1091.2332 -440.10471 10130.644 328963
1150.7842 -439.8454 10124.675 328963
1210.9783 -439.8454 10124.675 526342
1267.2463 -438.48694 10093.405 1118482
1329.7993 -439.32773 10112.759 395271
1389.9226 -439.32773 10112.759 263685
1429.8037 -433.19495 9971.5898 395271
1473.2976 -428.60138 9865.8525 592650
1419.4177 -397.11694 9141.1211 1711129
1521.7526 -410.04776 9438.7715 526855
1581.2729 -410.93243 9459.1357 1382164
1698.3298 -426.19513 9810.4629 592648
1804.266 -437.74615 10076.354 658441
1891.682 -444.20593 10225.049 263683
1952.4729 -444.20593 10225.049 132097
2006.723 -442.76282 10191.83 66304
2057.1489 -440.58527 10141.706 197890
2009.1018 -418.04202 9622.7891 461060
1930.1553 -390.49573 8988.709 855818
2031.1692 -399.86121 9204.29 593416
2134.1497 -409.11221 9417.2363 790795
2210.8772 -412.9863 9506.4131 725002
2305.0789 -419.85004 9664.4072 659209
2362.5366 -419.85004 9664.4072 922380
2424.2136 -420.58203 9681.2578 1251859
2539.2966 -430.33081 9905.6611 1778459
2598.1887 -430.33081 9905.6611 1516057
2657.0806 -430.33081 9905.6611 1647386
2825.1592 -447.63083 10303.886 2042143
3633.0991 -563.42731 12969.371 924176
3375.8313 -512.64966 11800.535 1121554
2945.1765 -438.14532 10085.541 2701355
0 0 0 0
0 0 0 0
0 0 0 0
0 0 0 0
3114.907 -420.58203 9681.2578 2567716
3172.4648 -420.58203 9681.2578 7304294
0 0 0 0
0 0 0 0
0 0 0 0
0 0 0 0
3105.3555 -377.4454 8688.3076 12961433
3517.8108 -420.58203 9681.2568 12369036
3771.2324 -443.62207 10211.609 12369037
3027.439 -350.48505 8067.7148 11777420
3651.1135 -416.09515 9577.9756 1052685
3744.7412 -420.21167 9672.7314 3553587
3919.2627 -433.14368 9970.4102 3487282
3778.2163 -411.33444 9468.3896 5264718
3638.8413 -390.34491 8985.2373 4080691
3692.2612 -390.34491 8985.2373 11516552
5601.0596 -583.69769 13435.969 11253889
6822.3364 -700.97229 16135.479 11254143
6920.1206 -701.16016 16139.805 9478242
7016.0767 -701.16016 16139.805 9017943
7111.9844 -701.15546 16139.696 9413212
7207.7373 -701.13586 16139.245 10004836
7302.9775 -701.0675 16137.672 11649166
7398.9204 -701.0675 16137.672 13815243
7494.8965 -701.07056 16137.742 6839396
7590.8066 -701.0675 16137.672 4800587
7686.2827 -701.0249 16136.691 12565952
6727.7476 -606.03778 13950.209 9148563
7631.4751 -679.0744 15631.418 9083024
7974.1685 -701.03149 16136.843 7572079
8069.8828 -701.01202 16136.395 15065826
8165.8184 -701.01202 16136.395 9472655
0 0 0 0
0 0 0 0
0 0 0 0
0 0 0 0
4758.8462 -385.86667 8882.1543 723983
5431.8975 -435.60669 10027.105 790030
5631.6724 -446.72476 10283.029 526857
5627.0967 -441.56833 10164.334 66306
5753.9434 -446.72476 10283.029 513
5747.9565 -441.56833 10164.334 258
5824.5708 -442.79871 10192.656 65795
5923.627 -445.69226 10259.262 395017
5984.6206 -445.69226 10259.262 395271
6001.6528 -442.45129 10184.659 395271
5957.7803 -434.82996 10009.226 395271
5960.3892 -430.71823 9914.5791 263685
5840.5308 -417.9238 9620.0684 329478
5687.1113 -402.99936 9276.5264 592650
4559.0366 -319.95901 7365.0449 724236
6001 -417.15134 9602.2871 263685
6245.1807 -430.03424 9898.835 855822
6176.0928 -421.30676 9697.9395 658443
6337.8203 -428.34039 9859.8447 658443
6350.6387 -425.27322 9789.2432 790030
6398.1553 -424.56439 9772.9258 987149
6456.2578 -424.56439 9772.9258 1052942
6492.334 -423.12875 9739.8799 1250321
6549.856 -423.10394 9739.3086 1710872
6607.7583 -423.10394 9739.3086 1053199
6401.4199 -406.33121 9353.2217 1250578
6319.8628 -397.69958 9154.5332 1184529
6296.7476 -392.86172 9043.1709 855820
6350.5117 -392.86172 9043.1709 658441
6388.6377 -391.9024 9021.0889 461062
6460.4248 -393.00681 9046.5107 461062
6528.688 -393.88031 9066.6182 658441
6461.3901 -386.62802 8899.6797 658441
6514.3008 -386.62802 8899.6797 394756
6266.9976 -368.95364 8492.8379 1184272
6499.7671 -379.599 8737.8799 1447698
6366.8979 -368.89084 8491.3926 1381904
6417.3818 -368.89084 8491.3926 1908249
6713.8394 -382.91983 8814.3213 2960937
6947.6641 -393.18695 9050.6572 2303006
6899.4741 -387.45886 8918.8047 395267
7035.0425 -392.05902 9024.6943 921611
7271.3838 -402.16296 9257.2744 987405
7646.5088 -419.73331 9661.7207 1711386
7586.0732 -413.311 9513.8877 2369828
7888.751 -426.62082 9820.2627 2304549
7583.7041 -407.11102 9371.1719 2172963
8423.374 -448.88861 10332.839 5528920
8312.5361 -439.77469 10123.048 5658197
8164.0352 -428.8136 9870.7373 1645079
8222.7188 -428.8136 9870.7373 1381905
8452.9443 -437.69604 10075.199 1118989
8749.4395 -449.86081 10355.217 1974552
8811.0039 -449.86081 10355.217 1580562
8527.585 -432.36926 9952.584 1054218
8355.5537 -420.72751 9684.6064 2435613
8413.1309 -420.72751 9684.6064 1844245
8629.0078 -428.59 9865.5908 1778707
8565.2734 -422.55222 9726.6084 1910291
8704.4463 -426.53836 9818.3643 1778446
8762.8193 -426.53836 9818.3643 1911312
9322.6494 -450.78574 10376.507 2043409
9430.166 -452.987 10427.178 2109199
9368.0654 -447.06497 10290.86 6784316
9507.418 -450.77124 10376.174 6584365
9569.1064 -450.77124 10376.174 4412700
9790.7129 -458.2562 10548.468 989954
9638.2627 -448.24951 10318.127 1252869
9289.6318 -429.30325 9882.0088 2042386
8773.4395 -402.90027 9274.2461 1779474
8529.8613 -389.26813 8960.4512 1713686
8565.874 -388.48529 8942.4316 2371363
8438.5576 -380.35049 8755.1787 2963503
9169.3096 -410.75394 9455.0273 3094321
0 0 0 0
0 0 0 0
0 0 0 0
0 0 0 0
0 0 0 0
0 0 0 0
0 0 0 0
0 0 0 0
0 0 0 0
0 0 0 0
0 0 0 0
-2001.1166 -87.114296 2323.1943 659979
-2005.6479 -87.918396 2344.6382 1055250
-2125.6399 -93.830406 2502.302 1713690
-2146.3193 -95.411003 2544.4539 1713943
-2102.2554 -94.115562 2509.9065 1977371
-2127.3877 -95.921562 2558.0696 1912605
-2111.1855 -95.876434 2556.866 1254928
0 0 0 0
-2169.0552 -99.943771 2665.3352 1387272
-2320.646 -107.71555 2872.5957 2768918
-2265.0835 -105.91603 2824.6055 5138221
0 0 0 0
0 0 0 0
0 0 0 0
0 0 0 0
0 0 0 0
0 0 0 0
0 0 0 0
0 0 0 0
0 0 0 0
0 0 0 0
-1957.7185 -99.672066 2658.0894 2765597
0 0 0 0
0 0 0 0
0 0 0 0
0 0 0 0
0 0 0 0
0 0 0 0
0 0 0 0
0 0 0 0
0 0 0 0
-6416.9434 -355.38947 9477.6494 1120012
-6699.02 -374.2984 9981.9199 512
-6463.0327 -364.34055 9716.3604 768
-5394.9062 -306.86987 8183.7124 512
-5908.8418 -339.16205 9044.8906 66304
-5889.835 -341.17596 9098.5986 65792
-6187.7192 -361.75372 9647.374 65792
-6438.9995 -379.9664 10133.076 65792
-6524.1338 -388.62619 10364.019 460549
-6701.3096 -402.98615 10746.975 65792
-6862.9648 -416.68018 11112.172 256
-6882.2744 -421.914 11251.749 256
-6635.6382 -410.78693 10955.008 2171936
-6844.2788 -427.90305 11411.467 1777431
-6513.6484 -411.3092 10968.937 256
-6448.4346 -411.3092 10968.937 395270
-6105.4155 -393.40851 10491.555 263937
-5941.4219 -386.79303 10315.131 395268
-5877.96 -386.65256 10311.385 66304
-6025.0464 -400.50497 10680.806 66048
-6029.7407 -405.08636 10802.984 197634
-6296.2891 -427.54758 11401.987 0
-6226.9858 -427.44354 11399.213 256
-5816.6782 -403.67184 10765.262 0
-5541.2598 -388.83658 10369.629 256
-5417.9971 -384.46451 10253.033 0
-5374.1284 -385.69092 10285.739 0
-5500.9492 -399.33664 10649.647 0
-5437.6343 -399.33664 10649.647 0
-5374.3188 -399.33664 10649.647 256
-5334.2275 -401.08282 10696.216 131841
-5717.0957 -435.05734 11602.261 790027
-5616.0005 -432.58356 11536.288 461062
-5359.7778 -417.95181 11146.084 1513748
-5254.54 -414.87476 11064.024 1514003
-5354.2114 -428.10361 11416.815 1447440
-5246.5303 -424.8801 11330.85 1710870
-4844.5562 -397.42996 10598.8 131840
-4878.686 -405.50421 10814.127 460804
-4682.7949 -394.41998 10518.529 329477
-4643.48 -396.40228 10571.394 526854
-4643.8247 -401.87109 10717.238 0
-4648.769 -407.89566 10877.902 855818
-4453.6201 -396.28574 10568.285 987660
-4390.7886 -396.28574 10568.285 592646
-4291.1289 -392.91354 10478.355 592648
-4235.7246 -393.55396 10495.434 526855
-4261.6182 -401.8801 10717.478 512
-4208.5391 -402.89865 10744.641 263683
-4177.9097 -406.13083 10830.838 395269
-4144.6016 -409.19986 10912.684 197890
-4355.6021 -436.87076 11650.621 1184785
-4286.3359 -436.87076 11650.621 329219
-3901.1882 -404.14679 10777.927 66049
-3766.5637 -396.7164 10579.771 790538
-3619.3057 -387.68039 10338.795 659209
-3636.9185 -396.29733 10568.595 658951
-3859.2507 -427.91672 11411.831 3685941
-4095.2449 -462.20969 12326.368 3027499
-3907.3599 -449.03952 11975.142 2698278
-3836.1646 -449.03952 11975.142 1908506
-4515.2505 -538.52399 14361.544 1908249
