# .PCD v0.7 - Point Cloud Data file format
VERSION 0.7
FIELDS x y z rgb
SIZE 4 4 4 4
TYPE F F F U
COUNT 1 1 1 1
WIDTH 1271
HEIGHT 1
VIEWPOINT 0 0 0 1 0 0 0
POINTS 1271
DATA ascii
3315.3328 -3567.3127 10117.241 4344400
3251.5615 -3436.3494 9745.8164 3884105
3335.6575 -3463.5063 9822.8359 3620673
3394.0571 -3463.5063 9822.8359 4410444
3586.4861 -3597.9651 10204.174 5199702
3717.6189 -3667.4805 10401.326 4541000
3851.0801 -3736.981 10598.437 5922909
3740.8672 -3571.5955 10129.388 5922397
3798.1667 -3568.8496 10121.6 5001297
3798.7842 -3513.7603 9965.3604 4277575
3831.687 -3489.7668 9897.3135 4408905
3838.1936 -3442.8223 9764.1738 3948099
3753.3887 -3316.5913 9406.1709 3619135
3530.7615 -3074.071 8718.3604 3355706
3633.782 -3117.9932 8842.9268 3421756
3785.3701 -3201.7412 9080.4453 3882563
3856.4275 -3215.978 9120.8213 3553601
3922.3406 -3225.5889 9148.0791 3553600
3976.7283 -3225.5889 9148.0791 3422014
4007.7114 -3206.8608 9094.9648 3619393
4101.5156 -3238.2305 9183.9316 4014152
4156.1167 -3238.2305 9183.9316 4080203
4375.5537 -3364.9966 9543.4531 4211531
4432.2925 -3364.9966 9543.4531 3553859
4605.063 -3451.9746 9790.1309 3422274
4470.9189 -3309.5889 9386.3115 3619397
4456.8945 -3258.5356 9241.5195 3684934
4710.0757 -3401.7065 9647.5664 3816521
4767.4331 -3401.7065 9647.5664 3751240
4879.2778 -3440.1228 9756.5176 3685191
4605.1724 -3208.72 9100.2373 3685448
4934.856 -3398.5044 9638.4844 3882826
4735.8467 -3224.0149 9143.6152 3948619
4829.3525 -3250.3608 9218.335 4211791
4810.2515 -3201.1768 9078.8438 4080975
4864.2275 -3201.1768 9078.8438 4870236
4860.3174 -3163.4993 8971.9873 5067615
5010.1401 -3225.6155 9148.1553 4870235
5283.7476 -3365.2375 9544.1357 4672856
5275.2974 -3324.157 9427.6279 6844793
5515.5947 -3439.0376 9753.4404 5726569
5387.397 -3324.157 9427.6279 8292237
5553.8086 -3391.5518 9618.7656 6384242
5490.2109 -3318.5439 9411.709 5397605
5494.8159 -3287.8188 9324.5693 4871775
5550.2534 -3287.8188 9324.5693 5200997
5606.5854 -3288.3438 9326.0586 4410967
5662.0317 -3288.3438 9326.0586 4806496
5290.1421 -3042.5667 8629.0107 5398377
5301.9409 -3020.0652 8565.1943 6319479
5640.4443 -3182.3171 9025.3564 6253687
5851.918 -3270.5166 9275.499 5925235
5927.3257 -3281.7354 9307.3164 5991028
6076.1924 -3333.042 9452.8262 6582650
6569.1772 -3570.4407 10126.112 8949914
6629.3799 -3570.4407 10126.112 13225171
6606.4736 -3526.0825 10000.309 13684692
5958.2935 -3151.7644 8938.7061 13027271
6124.4438 -3211.0137 9106.7422 13684689
6178.5859 -3211.0137 9106.7422 13619153
6947.8306 -3579.4243 10151.591 13619410
8113.7354 -4144.0835 11753.018 13619664
8183.6104 -4144.0835 11753.018 13685457
8316.585 -4175.7661 11842.873 13685457
8386.9941 -4175.7661 11842.873 13685457
8407.9932 -4151.3701 11773.684 13685457
8477.9912 -4151.3701 11773.684 13619921
8711.4756 -4230.7681 11998.864 13750737
8889.416 -4282.1206 12144.504 13750737
8777.7842 -4194.2788 11895.377 13750737
8848.5059 -4194.2788 11895.377 13750737
8919.2266 -4194.2788 11895.377 13750737
8937.8838 -4169.9883 11826.486 13750737
8900.2939 -4120.0396 11684.827 13750737
8952.8955 -4112.292 11662.854 13750737
8971.2549 -4089.0554 11596.953 13750737
9040.2021 -4089.0554 11596.953 13750737
9069.9316 -4071.4507 11547.024 13750737
9125.9336 -4065.8157 11531.043 13750737
9166.2275 -4053.3186 11495.601 13750737
9309.9238 -4086.3926 11589.401 13750737
9576.0635 -4172.3296 11833.127 13750737
9778.2266 -4229.3423 11994.819 13750737
9791.8545 -4204.5723 11924.57 13684944
8582.5537 -3658.8142 10376.748 13684944
8627.9697 -3651.9243 10357.208 13684944
8689.5449 -3651.9243 10357.208 13619151
8582.3682 -3581.5022 10157.483 13684944
8642.7578 -3581.5022 10157.483 13619151
8909.3945 -3666.377 10398.196 13488593
8902.4609 -3638.2786 10318.507 13554131
8963.8076 -3638.2786 10318.507 13553618
8913.3877 -3593.2227 10190.724 13224141
8615.0811 -3449.52 9783.1689 13684434
8609.9189 -3424.3342 9711.7402 13488339
8415.042 -3324.5332 9428.6943 13156813
7682.1987 -3014.9246 8550.6152 8946835
7855.2451 -3062.5718 8685.7471 6186355
8188.2417 -3171.55 8994.8193 4476250
8362.4346 -3218.0034 9126.5664 4872296
8295.1953 -3171.55 8994.8193 4937574
8323.9326 -3162.1516 8968.165 4410973
8548.9971 -3226.9805 9152.0254 3949651
8940.4297 -3353.3909 9510.5381 8818331
9132.2764 -3403.822 9653.5654 3620684
9229.0195 -3418.3967 9694.9014 3225669
9543.1172 -3512.7988 9962.6348 4212821
9645.3828 -3528.5425 10007.284 10924731
9544.8037 -3470.3416 9842.2207 6644847
0 0 0 0
0 0 0 0
0 0 0 0
0 0 0 0
0 0 0 0
0 0 0 0
0 0 0 0
0 0 0 0
0 0 0 0
0 0 0 0
-4388.3628 -1753.9702 5059.7422 1384215
-4356.8345 -1753.3879 5058.0625 2503465
-4328.5312 -1754.1047 5060.1299 3029807
-4308.9717 -1758.3995 5072.519 4082235
-4429.4297 -1820.2955 5251.0732 5661524
-4589.2441 -1899.3589 5479.1499 1911070
-4621.4604 -1926.3661 5557.0586 528650
-4588.4224 -1926.3661 5557.0586 1186583
-4638.8672 -1961.6693 5658.8989 67076
-4493.9731 -1914.2804 5522.1943 67334
-4461.1421 -1914.2804 5522.1943 133896
-4388.8521 -1897.2229 5472.9878 726031
-4349.8345 -1894.4011 5464.8481 3424057
-4515.6978 -1981.4363 5715.9214 3161396
-4566.4897 -2018.9164 5824.042 2306087
-4553.4487 -2028.5323 5851.7812 3490361
-4593.6113 -2062.1807 5948.8477 2305831
-4564.2427 -2064.8943 5956.6763 1779230
-4708.9014 -2146.9976 6193.5225 1252888
-4777.8843 -2195.6191 6333.7827 1844769
-4769.9287 -2209.376 6373.4678 2634028
-5021.2944 -2344.4297 6763.062 1647134
-5051.9458 -2377.7812 6859.272 1318167
-5052.562 -2397.4233 6915.9351 1318168
-5266.7852 -2519.5757 7268.312 3949888
-5403.8389 -2606.5264 7519.1416 3029299
-5617.8638 -2732.3643 7882.1509 1845025
-5768.6387 -2829.2974 8161.7773 1844512
-5828.2661 -2882.7915 8316.0938 1844767
-5778.8242 -2882.7915 8316.0938 1318423
-5851.6631 -2944.3176 8493.5811 1450010
-5926.7407 -3008.0518 8677.4365 1055508
-5719.2393 -2928.2256 8447.1592 1384471
-5488.583 -2835.0249 8178.2998 1976863
-5958.6523 -3105.3401 8958.0879 1845529
-5709.6895 -3002.4292 8661.2168 4410944
-5681.9727 -3015.0459 8697.6133 3490100
-5630.2632 -3015.0459 8697.6133 2634539
-6131.1895 -3313.7297 9559.2373 3292473
-5924.9326 -3232.2144 9324.0869 2304808
-5869.498 -3232.2144 9324.0869 4214603
-6320.6484 -3513.8401 10136.503 3752516
-6320.0776 -3547.3447 10233.155 1383969
-6580.3574 -3729.3352 10758.149 1844263
-6741.7495 -3858.3042 11130.191 6383214
-6675.5776 -3858.3042 11130.191 5069147
-7009.3442 -4091.7725 11803.686 2305073
-6032.0322 -3556.8674 10260.626 2041644
-5916.7153 -3524.5134 10167.292 2171949
-5847.1001 -3518.9954 10151.375 2434351
-5624.4316 -3420.2893 9866.6338 3158073
-5585.7642 -3432.5752 9902.0752 3619136
-5507.1123 -3420.2893 9866.6338 3158841
-4316.958 -2709.989 7817.6045 5592925
-4200.2661 -2665.4326 7689.0703 8882574
-3855.9302 -2473.8455 7136.3926 11841463
-3813.5024 -2473.8455 7136.3926 14078936
-3771.0747 -2473.8455 7136.3926 9342881
0 0 0 0
0 0 0 0
-3706.3374 -2516.3096 7258.8901 6443373
-4213.519 -2894.3472 8349.4287 13488333
-4084.1729 -2838.9424 8189.6006 13619407
-4035.4832 -2838.9424 8189.6006 13685201
-4028.7397 -2868.8115 8275.7656 13750738
-3513.02 -2532.5029 7305.604 13750738
-3665.3455 -2675.3904 7717.7969 13750739
-3808.906 -2815.4224 8121.752 13684947
-3760.6201 -2815.4224 8121.752 13684946
-3571.9868 -2708.9836 7814.7041 13750739
-3416.2788 -2625.0388 7572.5454 13684946
-3226.7109 -2512.4871 7247.8633 13750737
-3196.9841 -2523.0337 7278.2876 13750737
-3170.6604 -2536.592 7317.3994 13619150
-3138.6418 -2545.9082 7344.2744 13619412
-3210.7627 -2641.1521 7619.0283 10987698
-3165.4658 -2641.1521 7619.0283 3748430
-2952.7251 -2499.4153 7210.1543 13750740
-2863.7356 -2459.7979 7095.8691 12041407
0 0 0 0
0 0 0 0
0 0 0 0
-2860.8713 -2611.2046 7532.6377 13420755
-3390.0095 -3143.3711 9067.7979 12894158
-3359.4377 -3165.3621 9131.2354 13026001
-3674.604 -3519.1902 10151.937 4803926
-3837.7712 -3736.834 10779.782 2633524
-3797.4358 -3760.356 10847.636 5593950
-3591.2673 -3617.6394 10435.937 1315613
-3440.4104 -3526.6021 10173.317 3619652
-3467.1782 -3617.6394 10435.937 1381918
-3529.0771 -3749.3176 10815.794 4210761
-3467.6631 -3752.4438 10824.812 2632242
-3384.1692 -3731.3428 10763.941 7501180
-3249.5557 -3651.979 10534.997 3553085
-3168.2288 -3630.5579 10473.202 2302500
-3186.9006 -3725.1658 10746.122 4144961
-3008.8613 -3589.0059 10353.336 2368549
-2985.8484 -3635.9375 10488.722 1974046
-2923.49 -3635.9375 10488.722 2632233
-2823.1948 -3587.7273 10349.647 1974303
-2721.0776 -3535.0015 10197.548 1777176
-2642.0388 -3510.5378 10126.977 3028010
-2609.0073 -3547.4893 10233.572 5990222
-2550.0332 -3550.0889 10241.071 5990223
-2489.147 -3550.0889 10241.071 1119498
-2407.9778 -3520.4348 10155.527 1184780
-2328.3015 -3491.4949 10072.042 1842194
-2411.3108 -3711.4277 10706.491 4539710
-2347.6575 -3711.4277 10706.491 7501164
-2246.3828 -3650.2939 10530.136 2105881
-2107.4292 -3522.6726 10161.982 1711638
-2045.3201 -3519.7585 10153.576 921864
-1979.4917 -3510.0723 10125.634 2106390
-1962.8296 -3589.6951 10355.325 3554338
-1889.0389 -3566.6133 10288.74 5265712
-1891.2762 -3690.335 10645.645 6186553
-1751.0199 -3534.958 10197.423 10067314
-1617.215 -3381.927 9755.9688 7633496
-1264.3986 -2742.4756 7911.3193 9147996
0 0 0 0
0 0 0 0
-893.72479 -2181.9929 6294.4746 2041367
-859.42474 -2189.949 6317.4258 1251598
-818.64484 -2181.3662 6292.667 1580310
-714.64825 -1995.4473 5756.3394 988171
-680.42523 -1995.4473 5756.3394 2172701
-615.1817 -1899.6571 5480.0103 3620146
-585.5708 -1909.339 5507.9399 3225389
-647.45416 -2236.1697 6450.7603 988427
-618.06305 -2269.0657 6545.6562 2501412
-574.80743 -2252.0623 6496.6064 3225134
-531.00433 -2230.3096 6433.856 2040606
-485.53751 -2197.6497 6339.6401 1910045
-447.84659 -2197.6497 6339.6401 1251859
-414.8519 -2222.8125 6412.2285 1317908
-376.72943 -2222.8125 6412.2285 1646617
-359.77979 -2361.8035 6813.1807 1712666
-342.4707 -2533.4028 7308.1992 1777689
-315.42108 -2672.3457 7709.0132 1777946
-280.67096 -2782.199 8025.9111 1185042
-233.32762 -2786.6533 8038.7603 1250322
-220.28134 -3308.5288 9544.2334 5656149
-168.71196 -3413.198 9846.1768 13879759
-109.38179 -3388.6646 9775.4043 12039097
-49.096916 -3245.397 9362.1152 5523790
6.5634675 -3245.397 9362.1152 1774871
63.377434 -3305.564 9535.6816 1446677
123.04745 -3387.5422 9772.167 2895150
184.26067 -3445.7942 9940.208 4343111
0 0 0 0
0 0 0 0
0 0 0 0
319.24265 -2615.1069 7543.895 2238247
357.69568 -2569.1565 7411.3398 2106404
402.48569 -2573.8088 7424.7607 2501161
441.15958 -2542.2961 7333.8545 2632747
484.76135 -2542.2961 7333.8545 2435368
497.2843 -2392.7554 6902.4692 3093297
538.32141 -2392.7554 6902.4692 4475205
581.96619 -2403.5254 6933.5371 3949119
623.97327 -2406.554 6942.2739 3817533
700.58551 -2534.3923 7311.0537 3949892
845.6264 -2880.376 8309.126 3160632
922.67676 -2969.3604 8565.8223 3752513
896.83862 -2735.2393 7890.4443 3949122
940.4621 -2725.7114 7862.9595 7763585
1149.5018 -3173.8047 9155.5898 13420495
1129.8604 -2978.531 8592.2773 13224144
1147.0028 -2892.9263 8345.3301 9541016
1203.0916 -2908.5764 8390.4766 9871011
1217.917 -2827.1946 8155.7114 12107713
1245.5092 -2780.5454 8021.1406 6055271
1156.4427 -2486.5054 7172.9131 5397345
1193.5319 -2474.9844 7139.6777 5463650
1217.1827 -2437.3452 7031.0991 5332065
1286.8793 -2491.3486 7186.8843 5464423
1331.8379 -2495.5281 7198.9409 4674910
1149.8206 -2087.3933 6021.5801 4148567
1185.6205 -2087.3933 6021.5801 4411999
1409.9836 -2409.6458 6951.1929 4543327
1460.6598 -2425.1687 6995.9727 4872293
1503.0367 -2426.4341 6999.6235 5793134
1563.8796 -2456.6389 7086.7563 6779515
1614.4281 -2469.512 7123.8916 9411234
1656.7815 -2469.512 7123.8916 9345953
1712.9009 -2489.519 7181.6064 8622485
1755.5974 -2489.519 7181.6064 7305339
2041.6052 -2826.3538 8153.2856 7634045
2265.1116 -3063.0454 8836.0791 13356243
2328.4751 -3077.3594 8877.3711 8224139
2381.2537 -3077.3594 8877.3711 6515828
2434.032 -3077.3594 8877.3711 5595496
2407.5007 -2979.2161 8594.2529 5858413
2419.2041 -2931.4827 8456.5547 5068898
2345.0681 -2783.7942 8030.5132 4542554
2243.6433 -2610.252 7529.8892 4410709
2288.4106 -2610.252 7529.8892 4674137
3002.5764 -3359.1443 9690.2461 6186860
3207.187 -3520.5044 10155.728 5068634
3300.2791 -3555.7502 10257.402 5266011
3361.2622 -3555.7502 10257.402 5528413
3375.4827 -3507.1631 10117.241 5396569
3369.6343 -3439.791 9922.8906 5067603
3430.9702 -3442.1404 9929.668 4936017
3586.4861 -3537.2983 10204.174 3752001
3686.3235 -3575.2891 10313.767 4146759
3747.6416 -3575.2891 10313.767 3752003
3737.9907 -3508.6741 10121.6 3553854
3796.4753 -3507.1111 10117.092 4343626
3722.092 -3384.7715 9764.1738 3948611
3780.1428 -3384.7715 9764.1738 5922401
3766.9402 -3321.9358 9582.9092 6382952
3753.3887 -3260.6689 9406.1709 2435628
3530.7615 -3022.238 8718.3604 6251365
3582.5947 -3022.238 8718.3604 5725021
3600.364 -2993.9121 8636.6475 3553853
3840.8574 -3148.9866 9083.9961 3158840
3990.6255 -3226.4089 9307.3398 3619135
3976.7283 -3171.2012 9148.0791 5067093
4052.0498 -3187.6692 9195.585 4474957
4101.5156 -3183.6294 9183.9316 5527900
4161.3906 -3187.6692 9195.585 6186088
4281.6982 -3237.2959 9338.7451 4475214
4546.8579 -3393.7695 9790.1309 3356481
4657.0273 -3432.0654 9900.6045 3421762
4663.2681 -3393.7695 9790.1309 3619398
4480.1426 -3220.3027 9289.7246 3553605
4710.0757 -3344.3491 9647.5664 3685189
4767.4331 -3344.3491 9647.5664 4145995
4879.2778 -3382.1172 9756.5176 4935766
4273.3413 -2927.3069 8444.5088 5462111
4323.5464 -2927.3069 8444.5088 5264732
4790.9556 -3206.5376 9250.0156 3751237
4848.627 -3208.3088 9255.126 4672342
4794.1382 -3136.658 9048.4316 4936284
4847.9336 -3136.658 9048.4316 4870490
4793.1289 -3067.1641 8847.96 4344916
4874.0728 -3085.1023 8899.707 5397346
5191.5845 -3250.7856 9377.6602 5397860
5323.8101 -3298.1614 9514.3262 6450291
5510.2573 -3377.7786 9744.001 5989997
5526.145 -3352.2747 9670.4287 5924205
5553.8086 -3334.3655 9618.7656 6253171
5490.2109 -3262.5889 9411.709 5002847
5546.166 -3262.5889 9411.709 5463398
5551.1396 -3232.8977 9326.0586 5924719
5606.5854 -3232.8977 9326.0586 5398376
5693.0498 -3250.6089 9377.1494 4674654
5748.7993 -3250.6089 9377.1494 3950677
5214.0742 -2919.9363 8423.2471 5463916
5640.4443 -3128.6589 9025.3564 5003363
5851.918 -3215.3711 9275.499 5924720
6019.9932 -3276.842 9452.8262 7964046
6426.751 -3465.895 9998.1943 8884376
6506.5269 -3476.7605 10029.538 10659243
6374.9888 -3375.5388 9737.54 13684438
6414.0977 -3365.6824 9709.1064 10855081
5937.8574 -3087.9937 8908.0479 10460835
6011.436 -3098.6213 8938.7061 13421263
6178.5859 -3156.8713 9106.7422 12105913
6750.9536 -3419.3521 9863.9297 13421772
6504.6895 -3266.2468 9422.2607 13684686
7841.689 -3903.9834 11261.963 13685457
8228.1875 -4061.7209 11716.994 13685457
8210.0322 -4018.7351 11592.992 13685457
8302.0205 -4029.9314 11625.291 13685457
8371.1367 -4029.9314 11625.291 13619665
7996.7764 -3818.187 11014.464 13750737
8062.2603 -3818.187 11014.464 13750737
8362.3047 -3928.377 11332.332 13750737
8429.6777 -3928.377 11332.332 13684944
8459.1377 -3910.8484 11281.767 13684944
8385.707 -3846.4006 11095.853 13684944
8739.8516 -3977.5518 11474.188 13684944
8832.0244 -3988.3696 11505.396 13750737
8876.2861 -3977.5518 11474.188 13750737
8918.04 -3965.7837 11440.241 13750737
9029.5391 -3984.9741 11495.601 13750737
9084.7139 -3979.2056 11478.96 13750737
9028.3164 -3925.0178 11322.643 13750737
9095.6328 -3925.0178 11322.643 13750737
8962.0225 -3838.9495 11074.357 13619152
9027.8623 -3838.9495 11074.357 13684945
8677.7568 -3663.356 10567.816 12632005
8566.3926 -3590.3479 10357.208 10986670
8443.8213 -3513.719 10136.153 11446705
8504.084 -3513.719 10136.153 12564161
8529.2412 -3499.3162 10094.605 12629696
8569.1885 -3491.1406 10071.021 9800087
8649.2715 -3499.3162 10094.605 10458273
8758.6787 -3519.1614 10151.854 9340562
8852.8008 -3532.6357 10190.724 7236984
8640.1992 -3424.3633 9878.3857 10459812
8615.0811 -3391.3562 9783.1689 12629188
8609.9189 -3366.5952 9711.7402 7891584
7829.0806 -3040.884 8772.1494 6317947
7269.375 -2804.8057 8091.125 5594732
7883.873 -3021.9058 8717.4014 5397355
7985.084 -3040.7107 8771.6494 4278873
8241.7188 -3118.073 8994.8193 4213852
8295.1953 -3118.073 8994.8193 3686480
8323.9326 -3108.8335 8968.165 3884116
8461.5049 -3140.1006 9058.3623 4146518
9073.8506 -3346.0481 9652.4668 3423048
9464.335 -3468.1086 10004.579 4804701
9536.8867 -3472.8687 10018.311 5264479
9596.4482 -3472.8687 10018.311 2899532
9645.3828 -3469.0461 10007.284 5266790
9544.8037 -3411.8264 9842.2207 4935009
0 0 0 0
0 0 0 0
0 0 0 0
0 0 0 0
0 0 0 0
0 0 0 0
-5447.4067 -2082.8059 6113.1904 2962481
-5411.0625 -2082.8059 6113.1904 1251863
-4573.2324 -1772.2148 5201.583 594189
-4542.3076 -1772.2148 5201.583 660495
-4611.1592 -1811.4102 5316.624 463116
-4579.5503 -1811.4102 5316.624 1910559
-4403.7686 -1753.9872 5148.0835 2503978
-4440.1499 -1780.8549 5226.9419 3162162
-4469.9463 -1805.4415 5299.1055 4807498
-4536.0063 -1845.1283 5415.5894 5202770
-4457.0635 -1825.9774 5359.3804 3623483
-4524.0938 -1866.7838 5479.1499 4938063
-4638.8672 -1928.0255 5658.8989 1120531
-4493.9731 -1881.4493 5522.1943 66050
-4501.9243 -1898.6488 5572.6763 528399
-4468.7935 -1898.6488 5572.6763 1383964
-4435.6621 -1898.6488 5572.6763 462860
-4515.6978 -1947.4534 5715.9214 2437162
-4588.2393 -1993.7418 5851.7812 4148035
-4553.4487 -1993.7418 5851.7812 1187606
-4548.9629 -2007.1129 5891.0264 2108450
-4558.2441 -2026.813 5948.8477 4082754
-4788.4741 -2145.834 6298.1831 2437673
-4777.8843 -2157.9631 6333.7827 1450521
-4769.9287 -2171.4839 6373.4678 2437162
-4961.0103 -2276.5576 6681.8667 2041891
-5051.9458 -2337.0007 6859.272 1976098
-5132.6626 -2393.6619 7025.5767 1449754
-5091.439 -2393.9185 7026.3291 1449754
-5049.665 -2393.9185 7026.3291 1976098
-5383.6626 -2573.5476 7553.5547 2239270
-5741.6011 -2767.7397 8123.5229 791824
-5828.2661 -2833.3501 8316.0938 594188
-6065.9062 -2974.1057 8729.2227 3489080
-6138.5444 -3035.6926 8909.9844 1581082
-6085.5723 -3035.6926 8909.9844 594700
-5875.1509 -2956.4619 8677.4365 1383960
-5996.2407 -3044.1267 8934.7393 2502697
-6023.9048 -3085.5046 9056.1865 2831918
-5943.0391 -3071.5378 9015.1934 1713437
-5889.4414 -3071.5378 9015.1934 2305575
-5478.6035 -2883.5144 8463.3301 2371369
-6174.4302 -3279.8669 9626.6543 2963505
-6117.1968 -3279.8669 9626.6543 2700334
-6059.9639 -3279.8669 9626.6543 3291958
-6086.5664 -3325.6743 9761.1025 3225910
-6177.8203 -3408.0291 10002.819 2765107
-6305.1235 -3512.0649 10308.173 1580834
-7145.5527 -4019.2654 11796.844 2631986
-6182.5542 -3512.0649 10308.173 7235699
-7009.3442 -4021.5962 11803.686 6448491
-6016.7627 -3487.0161 10234.652 1516585
-5971.0298 -3495.8652 10260.626 2041133
-5895.3228 -3487.1672 10235.097 2368557
-5834.4727 -3487.1672 10235.097 3289658
-5612.5029 -3389.8542 9949.4756 4539725
-5526.894 -3373.7046 9902.0752 9144979
-4268.7212 -2633.7495 7730.252 6381673
-4008.7856 -2500.2917 7338.543 10657191
0 0 0 0
0 0 0 0
-3472.4729 -2238.8928 6571.3174 5658466
0 0 0 0
0 0 0 0
-3506.7551 -2339.9766 6868.0063 5654122
-3794.0503 -2561.5081 7518.2178 12500423
-3882.7283 -2652.6287 7785.6631 13750479
-3682.4763 -2546.1733 7473.209 13684943
-3556.4539 -2489.0691 7305.604 13750737
-3411.3787 -2417.0537 7094.2329 13750737
-3369.2014 -2417.0537 7094.2329 13684943
-3620.5559 -2630.3018 7720.1318 13619664
-3574.6577 -2630.3018 7720.1318 13224140
-3368.7209 -2511.0107 7370.0044 9932451
-3264.333 -2465.2666 7235.7417 13684941
-3226.7109 -2469.3967 7247.8633 13553869
-3211.4011 -2490.9448 7311.1094 13619152
-3222.6091 -2533.9353 7437.2891 13619154
-3178.3923 -2533.9353 7437.2891 12763849
-3296.1646 -2664.9009 7821.6831 11381431
-3249.6624 -2664.9009 7821.6831 6119531
-3120.1682 -2595.855 7619.0283 4934745
-2928.0664 -2471.9199 7255.27 4211020
-2765.5027 -2369.5889 6954.9199 8226705
0 0 0 0
0 0 0 0
0 0 0 0
-3350.1472 -3053.1326 8961.1719 11777212
0 0 0 0
-3282.1882 -3089.4607 9067.7979 3620422
-3446.6792 -3298.4705 9681.2578 3422015
-3972.2522 -3866.0046 11347.012 3620163
-3617.4009 -3581.4688 10511.878 8619413
-3529.2227 -3555.595 10435.937 12632002
-3467.1782 -3555.595 10435.937 14410211
-3549.9636 -3706.8242 10879.806 5461861
-3504.9014 -3727.6929 10941.057 3420724
-3312.1892 -3589.3455 10534.997 4867137
-3142.1841 -3470.7466 10186.9 6711393
0 0 0 0
-3070.4148 -3527.4521 10353.336 5593688
-3008.8613 -3527.4521 10353.336 8159361
-3168.6423 -3792.3538 11130.842 1580061
-2938.8987 -3592.4141 10544.004 1842974
-2823.1948 -3526.1956 10349.647 1908509
-2715.9968 -3467.8867 10178.507 3619124
-2622.8882 -3425.3206 10053.571 987405
-2599.7458 -3474.271 10197.245 723977
-2547.4199 -3485.6272 10230.576 2171930
-2448.0637 -3431.6135 10072.042 1777681
-2407.9778 -3460.0576 10155.527 3356967
-2347.6003 -3460.0576 10155.527 3094301
-2384.6665 -3607.4683 10588.188 3621413
-2321.7168 -3607.4683 10588.188 6187339
-2179.9863 -3481.6475 10218.896 4213041
-2106.9426 -3461.4573 10159.636 1383437
-2045.3201 -3459.3928 10153.576 2698788
-1984.9543 -3459.3928 10153.576 790789
-2017.8589 -3627.0437 10645.645 1909517
-1901.2642 -3528.1299 10355.325 9147249
-1891.2762 -3627.0437 10645.645 4937249
-1751.0199 -3474.3315 10197.423 7635012
-1617.215 -3323.9253 9755.9688 7831879
-1483.6459 -3162.8315 9283.1465 5594923
0 0 0 0
-848.71533 -1954.7177 5737.2422 5003065
-914.60052 -2194.6636 6441.5015 2173460
-908.88824 -2276.2693 6681.0205 1712147
-818.64484 -2143.9546 6292.667 1448723
-714.64825 -1961.2241 5756.3394 1186063
-680.42523 -1961.2241 5756.3394 2041628
-664.91199 -2018.0084 5923.0054 2634022
-629.69806 -2018.0084 5923.0054 3488817
-647.45416 -2197.8181 6450.7603 1778199
-624.29614 -2252.6406 6611.6685 1909531
-584.98792 -2252.6406 6611.6685 1777947
-511.03415 -2109.6191 6191.8896 2304547
-466.11566 -2073.5586 6086.0498 1975582
-452.97437 -2184.6899 6412.2285 1580824
-414.8519 -2184.6899 6412.2285 1449238
-376.72644 -2184.6729 6412.1777 1777690
-338.60428 -2184.6729 6412.1777 1119760
-340.6098 -2476.4236 7268.4883 1316882
-312.55154 -2602.6189 7638.8809 1842456
-277.39703 -2702.5859 7932.292 2040094
-230.59023 -2706.728 7944.4492 1973533
-200.38272 -2958.0425 8682.0762 2433573
-167.49928 -3330.5471 9775.4043 2234143
-110.17369 -3354.6597 9846.1768 4861767
-51.26429 -3330.5471 9775.4043 4066611
6.7863417 -3298.0496 9680.0215 5188436
63.216915 -3240.6438 9511.5312 9336477
124.04704 -3356.4912 9851.5527 3356483
185.38676 -3407.3948 10000.958 4342602
238.354 -3317.0591 9735.8164 3816508
0 0 0 0
0 0 0 0
319.53152 -2572.582 7550.7207 2895407
364.42264 -2572.582 7550.7207 2698024
409.31378 -2572.582 7550.7207 3026992
447.49356 -2534.5696 7439.1514 2632231
490.77023 -2529.6667 7424.7607 2698023
503.36963 -2380.4966 6986.9355 2895403
538.32141 -2351.7185 6902.4692 3817275
581.96619 -2362.3035 6933.5371 5199185
623.18799 -2362.3035 6933.5371 3093811
724.68591 -2576.6147 7562.5566 3094581
846.89105 -2835.2097 8321.5527 2699826
922.67676 -2918.4343 8565.8223 2633521
911.48096 -2732.2195 8019.2686 6647407
1001.5586 -2853.0012 8373.7715 4870740
1051.343 -2853.0012 8373.7715 6317160
1087.1527 -2816.793 8267.498 6842993
1127.6062 -2795.2288 8204.2051 5857123
1176.3824 -2795.2288 8204.2051 6844016
1062.6075 -2424.3643 7115.6904 4278347
1104.9124 -2424.3643 7115.6904 5397343
1153.2867 -2437.1912 7153.3379 5463392
1195.8153 -2437.1912 7153.3379 5266014
1252.6993 -2465.4438 7236.2622 5529444
1310.7534 -2494.0471 7320.2148 5266789
1347.0304 -2480.7073 7281.061 5200997
1327.3301 -2368.3188 6951.1929 5069413
1344.4376 -2326.4102 6828.1875 6648702
1404.5305 -2359.1594 6924.3091 4740961
1445.6974 -2359.1594 6924.3091 5135462
1503.0367 -2384.8196 6999.6235 6517628
1623.6494 -2506.7861 7357.6045 12175313
1656.6342 -2490.6118 7310.1318 5859441
1694.8407 -2482.9148 7287.54 7108991
1735.7506 -2479.4626 7277.4082 8358543
1769.4873 -2466.1812 7238.4258 6252654
2166.427 -2947.7173 8651.7705 12369864
2282.3623 -3033.4399 8903.373 13488338
2335.2954 -3033.4399 8903.373 13225423
2492.8386 -3166.3123 9293.3633 5858413
2679.1785 -3329.2053 9771.4668 6516600
2407.5007 -2928.1208 8594.2529 5792876
2458.5959 -2928.1208 8594.2529 5003105
2504.9966 -2922.6436 8578.1768 5463654
2591.7515 -2963.5276 8698.1748 5069151
2643.4646 -2963.5276 8698.1748 5660771
3146.8083 -3460.1255 10155.728 5988450
3239.2961 -3494.7668 10257.402 8225152
3321.322 -3517.0498 10322.804 5132879
3382.6936 -3517.0498 10322.804 5791321
3425.9526 -3498.553 10268.514 6646628
3371.936 -3383.1057 9929.668 7239022
3489.3967 -3440.7173 10098.762 7437165
3588.3223 -3478.4111 10209.396 4738893
3709.1611 -3535.7407 10377.663 3751743
3709.7173 -3478.4111 10209.396 3422524
3701.8315 -3415.1392 10023.688 3422525
3739.5374 -3395.2664 9965.3604 3488316
3618.2004 -3233.8647 9491.6348 4277834
3674.6309 -3233.8647 9491.6348 6251877
3703.3333 -3209.8315 9421.0957 5528411
3823.9136 -3264.9626 9582.9092 5726304
3891.9893 -3274.303 9610.3242 4213578
3914.8201 -3245.8601 9526.8418 5726817
3971.4597 -3245.8601 9526.8418 6253162
3942.5054 -3176.8882 9324.4033 3357244
3922.3406 -3116.813 9148.0791 2962487
3953.6394 -3098.7166 9094.9648 5660769
4052.0498 -3132.9985 9195.585 5594463
4106.7197 -3132.9985 9195.585 5265498
4161.3906 -3132.9985 9195.585 5988964
4163.8477 -3094.1985 9081.7041 4935764
4598.165 -3373.2034 9900.6045 3093818
4669.3843 -3382.1541 9926.875 3553346
4668.1997 -3339.0923 9800.4854 3816775
4480.1426 -3165.0725 9289.7246 3488579
4201.7612 -2932.2573 8606.3945 6318192
4263.9141 -2939.8315 8628.625 6449519
4304.0962 -2932.2573 8606.3945 6120552
4273.3413 -2877.1018 8444.5088 5857382
4353.5786 -2897.0867 8503.166 4804182
4790.9556 -3151.5435 9250.0156 5659491
4609.0615 -2997.4841 8797.8398 3948616
4794.1382 -3082.8623 9048.4316 4343886
4806.9766 -3056.8174 8971.9873 4540753
4860.3174 -3056.8174 8971.9873 3422274
4874.0728 -3032.1909 8899.707 4870746
4946.8843 -3044.438 8935.6533 5002333
5000.0098 -3044.438 8935.6533 4410453
5380.3755 -3241.5957 9514.3262 5594727
5557.188 -3313.2896 9724.752 4016209
5689.8462 -3357.4517 9854.3721 3884367
5323.4097 -3109.2109 9125.7666 5990513
5373.0488 -3106.5422 9117.9336 4082516
5550.2534 -3176.9446 9324.5693 4674398
5606.5854 -3177.4517 9326.0586 5003621
5662.0317 -3177.4517 9326.0586 4279641
5697.2378 -3166.2036 9293.0439 4016469
5752.4873 -3166.2036 9293.0439 4214105
5796.7725 -3160.2256 9275.499 4806754
5851.918 -3160.2256 9275.499 5859184
6278.4458 -3358.9121 9858.6582 8488847
6426.751 -3406.4531 9998.1943 11183534
6569.1772 -3450.0356 10126.112 11248816
6503.3423 -3384.4436 9933.5947 11313071
6562.4004 -3384.4436 9933.5947 8157834
5893.3784 -3012.2983 8841.3203 7633543
5945.9429 -3012.2983 8841.3203 6909047
6157.8496 -3092.3162 9076.1787 11513012
6500.333 -3235.9465 9497.7451 13553871
6504.6895 -3210.2285 9422.2607 13553871
7025.3413 -3437.5796 10089.553 13488589
7806.667 -3787.5515 11116.746 13685457
7838.082 -3770.8679 11067.779 13685457
7944.6108 -3790.2988 11124.811 13685457
8347.8789 -3949.8118 11592.992 13619665
7400.4932 -3472.8809 10193.165 13750481
7461.0938 -3472.8809 10193.165 13553871
7847.6514 -3623.3799 10634.891 13684687
7998.0728 -3663.3167 10752.108 12694976
7457.7339 -3388.7439 9946.2168 13023170
7790.4644 -3512.0869 10308.237 13619663
8459.9277 -3784.1248 11106.688 13553870
8612.2715 -3822.4324 11219.125 13684944
8708.7783 -3835.5598 11257.655 13750737
8795.6553 -3844.2778 11283.243 13750737
8856.5439 -3841.5918 11275.358 13750737
8923.4375 -3841.5308 11275.18 13750737
8621.6484 -3683.9368 10812.63 13684944
7777.0864 -3298.4705 9681.2578 13619149
8350.7607 -3515.7615 10319.022 13487821
8614.9287 -3600.5271 10567.816 13026769
8604.2471 -3570.0271 10478.296 8355470
8566.3926 -3528.7717 10357.208 5988464
8525.8975 -3487.0254 10234.68 6251123
8422.1221 -3420.1726 10038.462 5264226
8488.5068 -3422.875 10046.395 6449781
8548.2354 -3422.875 10046.395 6120815
8499.4873 -3379.741 9919.792 6581877
8535.0059 -3370.4775 9892.6035 5792615
8500.1826 -3333.7532 9784.8145 6713204
8556.917 -3333.1924 9783.1689 7305339
8266.6855 -3198.3977 9387.5361 6187118
8208.085 -3154.4282 9258.4824 5200739
7628.6675 -2912.2241 8547.5957 3819090
7269.375 -2756.7017 8091.125 3095625
7932.9341 -2988.5608 8771.6494 4082265
7985.084 -2988.5608 8771.6494 4016473
8452.9053 -3143.124 9225.3037 3753048
8507.752 -3143.124 9225.3037 2437442
8562.5996 -3143.124 9225.3037 2568259
8461.5049 -3086.2461 9058.3623 2568258
8679.209 -3145.6304 9232.6602 3028805
9464.335 -3408.6284 10004.579 3555406
9572.7148 -3426.1299 10055.947 4213588
9585.8857 -3409.5503 10007.284 5199971
8914.5547 -3151.2092 9249.0352 9015966
8064.5977 -2833.281 8315.8916 1645605
0 0 0 0
0 0 0 0
0 0 0 0
0 0 0 0
0 0 0 0
-6267.8975 -2339.0938 6987.3428 526346
-6287.5391 -2362.0789 7056.0039 329994
-6405.8447 -2422.6875 7237.0542 461835
-5224.022 -1989.0828 5941.7896 922384
-4897.2524 -1877.3578 5608.0449 791054
-4755.873 -1835.6576 5483.478 396809
-4625.4517 -1797.6405 5369.9136 726027
-4592.0029 -1797.0446 5368.1328 1318422
-4501.4507 -1773.9368 5299.1055 1779485
-4469.9463 -1773.9368 5299.1055 2635050
-4533.6899 -1812.0052 5412.8237 3490614
-4420.5981 -1779.4358 5315.5322 3424823
-4425.2007 -1794.1145 5359.3804 4149058
-4499.6558 -1837.5317 5489.0762 2108961
-4453.4956 -1831.9675 5472.4551 3621434
-4461.1421 -1848.6183 5522.1943 4344646
-4468.7935 -1865.5178 5572.6763 265480
-4393.4902 -1847.7814 5519.6943 594190
-4327.2573 -1833.6213 5477.3955 660752
-4590.5938 -1959.9565 5854.7837 3358522
-4555.7852 -1959.9565 5854.7837 1253145
-4548.9629 -1972.0891 5891.0264 1714207
-4557.3223 -1991.0427 5947.6445 2043941
-4724.9395 -2080.4148 6214.6167 3951681
-4717.0654 -2093.3167 6253.1577 3754045
-4641.8018 -2076.2805 6202.2671 2174501
-4890.2539 -2204.9292 6586.5664 2437419
-5041.3809 -2291.4185 6844.9272 2239783
-5224.8208 -2394.1216 7151.7222 2963506
-5182.3013 -2394.1216 7151.7222 2832177
-5049.665 -2352.1448 7026.3291 3226934
-5213.667 -2448.7947 7315.042 1845024
-5338.7549 -2528.6396 7553.5547 1252889
-5980.228 -2856.4941 8532.9219 2502957
-6305.3384 -3037.5527 9073.7803 2897713
-6321.4629 -3071.6001 9175.4863 2766127
-6266.9121 -3071.6001 9175.4863 2963504
-6258.0098 -3094.1704 9242.9082 2831917
-5942.5508 -2964.2258 8854.7383 2107938
-5943.1211 -2991.0071 8934.7393 1318422
-5818.0151 -2954.4514 8825.54 1450008
-5678.603 -2909.8997 8692.4551 2042145
-5478.6035 -2833.1975 8463.3301 2831663
-5847.1333 -3051.8069 9116.3604 2042404
-5717.915 -3012.2859 8998.3027 3029299
-5879.1943 -3126.5022 9339.4902 2502698
-6028.812 -3236.636 9668.4814 3160886
-6098.481 -3305.5552 9874.3574 4476745
-6234.5347 -3412.1467 10192.768 2239785
-6256.1689 -3457.594 10328.528 1843745
-6182.5542 -3450.78 10308.173 12830668
-6077.6104 -3426.168 10234.652 6845558
-5977.1631 -3403.6184 10167.292 7040374
-6067.2808 -3490.2317 10426.023 2171691
-6005.2949 -3490.2317 10426.023 3026490
-5892.9092 -3460.6343 10337.609 3355708
-5773.6216 -3426.3171 10235.097 4210762
-5682.4541 -3408.1333 10180.779 9340812
-4268.7212 -2587.791 7730.252 9668498
-4008.7856 -2456.6621 7338.543 11315904
0 0 0 0
0 0 0 0
0 0 0 0
0 0 0 0
0 0 0 0
0 0 0 0
-3465.9231 -2299.1445 6868.0063 12960966
-3935.5847 -2641.8213 7891.6514 13619153
-3663.5767 -2488.9033 7434.854 13619151
-3556.4539 -2445.6355 7305.604 13750737
-3411.3787 -2374.8765 7094.2329 13750479
-3369.2014 -2374.8765 7094.2329 13619151
-3590.9421 -2563.2644 7656.9858 13816271
-3447.9717 -2492.812 7446.5298 7960466
-3259.6638 -2387.3225 7131.4116 7434636
-3185.7937 -2363.969 7061.6504 12236743
-3174.8674 -2387.3225 7131.4116 13946839
-3295.7637 -2511.7727 7503.1694 4538196
-3356.9148 -2593.4802 7747.2466 5394272
-3178.3923 -2489.7185 7437.2891 13487061
-3331.7834 -2646.6938 7906.2061 12698310
-3165.4658 -2550.5579 7619.0283 4082765
-2971.2009 -2428.7856 7255.27 3488063
-2918.7183 -2421.0315 7232.1069 4343371
-3026.9009 -2548.3071 7612.3057 4408396
-2981.6436 -2548.3071 7612.3057 2236459
0 0 0 0
-3002.4634 -2646.4399 7905.4478 10328754
-3350.1472 -2999.856 8961.1719 5789803
0 0 0 0
0 0 0 0
0 0 0 0
-3824.0889 -3656.8589 10923.772 4672333
-3940.2937 -3833.0796 11450.179 3355452
-3768.0598 -3729.9729 11142.179 9078162
-3594.3362 -3621.6755 10818.672 3947081
-3549.9636 -3642.1406 10879.806 5724252
-3448.1638 -3603.3538 10763.941 4276545
-3312.1892 -3526.7119 10534.997 11117985
-3142.1841 -3410.1826 10186.9 11119518
0 0 0 0
0 0 0 0
0 0 0 0
-3474.9182 -4086.3445 12206.731 2369057
-3108.4915 -3733.4146 11152.459 2041115
-3042.1873 -3733.4146 11152.459 2566943
-2761.6633 -3464.6641 10349.647 5792068
-2622.8882 -3365.5493 10053.571 6779472
-2606.0903 -3421.9763 10222.131 2896677
-2550.0332 -3428.3169 10241.071 1119498
-2561.8298 -3528.4236 10540.109 922635
-2413.7034 -3407.7637 10179.675 1646099
-2328.3015 -3371.7324 10072.042 1383693
-2334.1328 -3469.4058 10363.812 4739642
-2308.9875 -3525.0845 10530.136 3949867
-2136.3398 -3352.4023 10014.299 1317389
-2076.802 -3352.4023 10014.299 1843478
-2017.2643 -3352.4023 10014.299 1185295
-2019.6947 -3458.5159 10331.282 1645588
-1983.0312 -3502.2432 10461.903 987911
-1901.2642 -3466.5647 10355.325 1711629
-1825.0922 -3439.041 10273.106 3159065
-1731.036 -3374.7451 10081.042 5463599
-1587.428 -3205.769 9576.2764 10792569
-1318.4241 -2761.5674 8249.3564 5265965
-1067.8452 -2323.1245 6939.6396 3094552
-972.49548 -2200.7175 6573.9849 3028509
-914.60052 -2156.3672 6441.5015 3357479
-908.88824 -2236.5488 6681.0205 1515023
-864.54425 -2224.6516 6645.4814 1449236
-765.55859 -2064.2773 6166.4111 2041628
-785.52582 -2224.6516 6645.4814 2831143
-746.59113 -2226.365 6650.5996 2304544
-674.90344 -2125.1372 6348.2119 1712150
-637.16156 -2125.1372 6348.2119 922380
-573.00739 -2031.4972 6068.4902 1382932
-563.35297 -2131.4756 6367.1455 1646360
-525.49854 -2131.4756 6367.1455 1514518
-474.22168 -2072.8066 6191.8896 1712410
-457.68777 -2168.9036 6478.9502 1449238
-414.8486 -2146.5505 6412.1777 2172961
-376.3963 -2144.6694 6406.5586 2041375
-338.30753 -2144.6694 6406.5586 1580311
-340.6098 -2433.2104 7268.4883 1448725
-312.55154 -2557.2036 7638.8809 2106142
-272.58206 -2609.334 7794.605 1645336
-230.59023 -2659.4961 7944.4492 1973790
-193.2921 -2803.5803 8374.8574 2434343
-163.53822 -3195.0425 9544.2334 3025969
-111.90442 -3347.9004 10000.851 7038829
-58.996918 -3766.0381 11249.912 13881042
7.1389685 -3408.8796 10183.008 13749714
64.336769 -3240.4988 9680.0215 13946833
124.23243 -3302.8499 9866.2764 10196632
185.38676 -3347.9363 10000.958 2434599
244.84526 -3347.9363 10000.958 2369063
297.56705 -3273.8191 9779.5557 2631977
0 0 0 0
415.10794 -3283.7593 9809.248 12502209
417.18515 -2893.6594 8643.9424 6448742
449.71494 -2777.1858 8296.0117 3751225
493.40674 -2745.8525 8202.4131 2040863
526.27179 -2665.3237 7961.8569 2237988
536.83997 -2494.4807 7451.5146 1975073
554.41656 -2379.7678 7108.8447 2106402
596.6806 -2379.7678 7108.8447 3225396
653.70038 -2434.7258 7273.0151 3620155
724.68591 -2531.6531 7562.5566 2633261
793.93256 -2611.5359 7801.1821 2238504
892.58142 -2773.9775 8286.4277 3094072
911.48096 -2684.543 8019.2686 4212040
972.71088 -2722.4763 8132.5835 5199448
979.91302 -2612.7615 7804.8433 5857890
992.57257 -2526.8611 7548.2417 4936788
1030.8473 -2510.7815 7500.209 4147018
1039.7678 -2427.5039 7251.4419 4541519
1046.9066 -2346.8628 7010.5503 4936790
1095.962 -2362.7637 7058.0498 5989479
1151.0844 -2390.0896 7139.6777 6055528
1209.6777 -2422.4224 7236.2622 4871769
1259.519 -2435.6101 7275.6567 4805721
1300.5964 -2431.5374 7263.4907 4871772
1339.6394 -2424.0454 7241.1104 4739930
1382.6898 -2424.0454 7241.1104 5135203
1425.5018 -2423.6399 7239.8994 7372165
1409.9836 -2326.9922 6951.1929 4937824
1445.6974 -2317.9924 6924.3091 5200999
1568.1907 -2444.7786 7303.0444 4477279
1707.9519 -2590.9282 7739.6235 5924983
1667.3925 -2463.0432 7357.6045 6582911
1711.1355 -2463.0432 7357.6045 10003117
1743.5557 -2447.1511 7310.1318 6317165
1934.468 -2649.0723 7913.311 12632262
2233.7976 -2986.3469 8920.8184 13619412
2382.3354 -3111.0605 9293.3633 13553875
2455.5833 -3134.0293 9361.9746 13553620
2492.8386 -3111.0605 9293.3633 10784679
2498.2292 -3050.1833 9111.5107 11113385
2387.7178 -2853.3843 8523.6318 9142419
2438.3931 -2853.3843 8523.6318 9344930
2504.9966 -2871.6438 8578.1768 6713206
2699.8289 -3033.2385 9060.8926 6119784
2682.842 -2955.1895 8827.7441 12827071
3110.553 -3360.5774 10038.72 13422031
3227.7231 -3421.5166 10220.757 7173233
3340.4985 -3475.6301 10382.405 5791065
3382.6936 -3455.6777 10322.804 7304305
3425.9526 -3437.5034 10268.514 6778471
3371.936 -3324.0713 9929.668 6843751
3425.5593 -3318.8286 9914.0078 6515558
3490.0051 -3324.0713 9929.668 4080448
3686.3235 -3452.6523 10313.767 3488058
3697.2727 -3406.248 10175.147 3356474
3618.8708 -3280.3457 9799.0508 3225146
3619.0774 -3228.5579 9644.3506 3422525
3591.311 -3153.8208 9421.0957 5858403
3647.322 -3153.8208 9421.0957 5858146
3703.3333 -3153.8208 9421.0957 6252647
3852.4043 -3231.8911 9654.3086 3883845
3952.7957 -3267.4307 9760.4717 4344396
3967.1995 -3231.8911 9654.3086 3949125
3971.4597 -3189.2205 9526.8418 5133141
4097.8755 -3244.4651 9691.8691 5856865
4027.4587 -3144.4976 9393.2461 4869970
3903.696 -3006.1838 8980.0752 5198679
4049.9426 -3076.7275 9190.8027 3686468
4108.7832 -3079.8748 9200.2041 4213067
4226.1768 -3126.2529 9338.7451 5923942
4044.3171 -2952.9309 8820.998 6581616
4498.9224 -3242.8079 9686.918 2961977
4669.3843 -3323.136 9926.875 3619396
4668.1997 -3280.8257 9800.4854 5001048
4559.7412 -3165.0952 9454.7754 3357248
4195.2183 -2876.6035 8592.9922 4541523
4246.3057 -2876.6035 8592.9922 4673109
4160.8867 -2785.2278 8320.0352 4608339
4286.3906 -2835.5293 8470.2959 4542291
4336.749 -2835.5293 8470.2959 4278603
4630.6133 -2992.915 8940.4385 5726049
4582.6807 -2928.3213 8747.4844 7172469
4634.687 -2928.3213 8747.4844 6843760
4658.187 -2910.5105 8694.2793 6120038
4639.2837 -2866.8865 8563.9658 5659744
4893.7598 -2991.313 8935.6533 6251367
4946.8843 -2991.313 8935.6533 3488829
4555.3442 -2725.2874 8140.9805 7239035
5380.3755 -3185.0305 9514.3262 5463137
5557.188 -3255.4731 9724.752 3752525
5505.4453 -3191.9526 9535.0039 3359562
5279.8813 -3029.9761 9051.1475 3687247
5491.437 -3119.5874 9318.835 4082005
5546.8398 -3119.5874 9318.835 4016469
5602.2427 -3119.5874 9318.835 3819091
5342.8657 -2946.02 8800.3535 3687506
5395.186 -2946.02 8800.3535 3950676
5752.4873 -3110.9539 9293.0439 4477277
5941.124 -3182.4036 9506.4785 5661806
5997.6431 -3182.4036 9506.4785 6056049
6367.3086 -3347.0112 9998.1943 9477284
6426.751 -3347.0112 9998.1943 7500928
6486.1924 -3347.0112 9998.1943 7437445
6503.3423 -3325.3855 9933.5947 10199983
6587.4458 -3338.0769 9971.5059 10790580
6553.998 -3291.5063 9832.3906 5986668
5945.9429 -2959.7341 8841.3203 12500422
6157.8496 -3038.3557 9076.1787 13158606
6500.333 -3179.4797 9497.7451 13356237
6884.2817 -3338.2798 9972.1123 13553615
6953.6431 -3343.1233 9986.5811 13684944
7266.0815 -3463.7605 10346.948 13553358
7180.2764 -3394.1218 10138.924 13619151
7389.1123 -3463.7605 10346.948 13553613
7300.834 -3394.1218 10138.924 13750480
7275.4229 -3354.6113 10020.898 13354956
7405.8652 -3387.0212 10117.713 12364479
7466.0181 -3387.0212 10117.713 9010834
7432.6304 -3344.925 9991.9629 11709627
6312.2319 -2818.1853 8418.4854 12829130
6797.0161 -3010.7512 8993.7188 13619405
8313.1367 -3653.5784 10913.973 13684687
8525.96 -3718.0923 11106.688 13750737
8630.3477 -3734.6902 11156.27 13750737
8745.6729 -3755.7314 11219.125 13750737
8855.2803 -3774.0181 11273.75 13750737
8630.9277 -3650.7688 10905.58 13750737
8559.1426 -3593.4102 10734.238 13684943
7777.0864 -3240.9128 9681.2578 13619658
8350.7607 -3454.4119 10319.022 13685198
8614.9287 -3537.6985 10567.816 11380934
8643.6475 -3523.7932 10526.278 12234696
8211.3779 -3323.5049 9927.9766 5324120
8255.4531 -3317.4976 9910.0312 4871266
8268.958 -3299.3774 9855.9033 4870753
8470.8867 -3356.166 10025.542 4871262
8417.3779 -3311.6636 9892.6035 4871262
8383.8359 -3275.5796 9784.8145 4739676
8397.665 -3258.3738 9733.417 6648698
8447.2227 -3255.1714 9723.8506 6648440
8210.874 -3142.5862 9387.5361 5463910
8153.0405 -3099.384 9258.4824 4345688
7912.125 -2987.6292 8924.6484 4477530
7829.0806 -2936.5784 8772.1494 3753297
7679.4854 -2861.4062 8547.5957 2569284
8019.0596 -2968.2908 8866.8809 2634307
8071.7759 -2968.2908 8866.8809 2765124
8454.6729 -3088.9226 9227.2324 2699589
8975.2246 -3257.9675 9732.2031 2963016
9067.6895 -3270.4482 9769.4854 3620174
8308.7646 -2977.6533 8894.8486 2436157
8679.209 -3090.7397 9232.6602 2501950
9338.3926 -3304.5815 9871.4482 2896451
9523.8145 -3349.1484 10004.579 2632509
9531.5996 -3331.0823 9950.6113 2632250
7442.1396 -2584.8191 7721.374 2697784
7336.5181 -2532.5132 7565.1255 2631993
0 0 0 0
0 0 0 0
0 0 0 0
0 0 0 0
-6371.439 -2320.1289 7056.0039 460813
-6692.3345 -2453.1331 7460.4971 395017
-7052.5312 -2602.4143 7914.4937 330251
-7005.4775 -2602.4143 7914.4937 461578
-6085.3755 -2275.8989 6921.4907 461832
-4897.2524 -1844.0165 5608.0449 329990
-4755.873 -1803.0569 5483.478 2173730
-4671.7407 -1783.3851 5423.6523 1318422
-4593.5259 -1765.715 5369.9136 1384215
-4554.8926 -1763.1185 5362.0171 1713437
-4523.0142 -1763.1185 5362.0171 1318936
-4468.729 -1754.3223 5335.2661 2766638
-4420.5981 -1747.8334 5315.5322 2898224
-4388.9956 -1747.8334 5315.5322 3489848
-4486.0308 -1799.4323 5472.4551 1976612
-4467.0215 -1804.8975 5489.0762 988692
-4498.686 -1831.0686 5568.668 725262
-4438.061 -1819.7853 5534.3525 725781
-4393.4902 -1814.9653 5519.6943 1119769
-4293.3765 -1786.9552 5434.5098 5330269
-4243.002 -1779.3794 5411.4702 856084
-4478.6973 -1892.5729 5755.7153 2895921
-4520.9771 -1925.1482 5854.7837 1054483
-4518.771 -1939.1389 5897.3325 792593
-4724.9395 -2043.467 6214.6167 2503468
-4687.9917 -2043.467 6214.6167 2437675
-4583.3267 -2013.715 6124.1343 1384731
-4890.2539 -2165.7703 6586.5664 2634541
-5005.0835 -2234.5186 6795.6445 3095093
-5224.8208 -2351.6025 7151.7222 1976097
-5201.2544 -2360.2029 7177.8774 858131
-5257.1567 -2405.3049 7315.042 2305577
-5280.5938 -2436.1814 7408.9438 3950144
-5236.5454 -2436.1814 7408.9438 2897715
-6204.3979 -2910.938 8852.7793 4015940
-6923.5908 -3276.156 9963.4854 2239529
-6367.9126 -3039.2188 9242.9082 1384219
-6313.8486 -3039.6458 9244.207 7831931
-6258.8887 -3039.6458 9244.207 2502955
-5990.8179 -2935.2305 8926.6582 2173477
-5943.1211 -2937.8877 8934.7393 2436649
-5818.0151 -2901.9812 8825.54 2568491
-5695.6572 -2866.8047 8718.5605 2963504
-5643.8228 -2866.8047 8718.5605 2371369
-5863.2588 -3005.8745 9141.502 2700334
-5795.1743 -2998.7671 9119.8867 2503212
-5754.561 -3005.8745 9141.502 2305578
-5823.6689 -3070.9763 9339.4902 3226680
-6042.4844 -3217.0366 9783.6904 2371628
-5995.521 -3223.0596 9802.0068 3095094
-6173.936 -3351.5479 10192.768 4411979
-5903.7656 -3236.6533 9843.3496 5792864
-6054.6328 -3352.5972 10195.958 7831425
-5994.0151 -3352.5972 10195.958 3555395
-6364.3091 -3596.0786 10936.438 9738913
-6116.0176 -3491.4543 10618.253 3488066
-5834.4727 -3365.4663 10235.097 13750488
-5742.9814 -3347.606 10180.779 12831186
-5675.4917 -3343.5044 10168.306 9343644
-4423.6387 -2634.0791 8010.793 10394282
-4146.4409 -2495.8918 7590.5361 13619156
-4176.8042 -2541.8325 7730.252 10657965
-3630.6504 -2234.0476 6794.2124 5131362
-3229.1262 -2009.333 6110.8076 9472418
0 0 0 0
0 0 0 0
0 0 0 0
-3339.2532 -2175.7776 6617.0005 9603231
-3539.9907 -2334.071 7098.4048 13157324
-3663.5767 -2444.7012 7434.854 13816273
-3502.7849 -2365.9509 7195.3579 13684943
-3411.3787 -2332.6992 7094.2329 13684944
-3393.6987 -2349.6599 7145.814 13684944
-3351.2148 -2349.6599 7145.814 13553615
-3256.041 -2312.2427 7032.02 13553875
-3214.2334 -2312.2427 7032.02 13291733
-3172.4263 -2312.2427 7032.02 5069405
-3174.8674 -2344.9243 7131.4116 3883338
-3211.4011 -2404.0117 7311.1094 5198683
-3222.6091 -2445.5017 7437.2891 3882308
-3131.1116 -2409.1233 7326.6548 4342605
-3330.5601 -2598.7346 7903.3032 6908276
-3283.5728 -2598.7346 7903.3032 3158075
-3163.5896 -2540.1245 7725.0571 2499890
-3099.5793 -2525.3916 7680.2515 3157307
-3053.9182 -2525.3916 7680.2515 8288131
-3036.0083 -2548.6885 7751.1021 13417161
-2989.9258 -2548.6885 7751.1021 11245234
-3196.0747 -2767.0625 8415.2236 12891596
-3307.7009 -2909.2458 8847.6338 12697806
-3225.8608 -2883.114 8768.1611 12237766
-3202.4978 -2909.2458 8847.6338 13552856
-3166.5623 -2924.6389 8894.4473 6449279
-3465.418 -3255.0195 9899.2041 6316384
-3406.5642 -3255.0195 9899.2041 2500647
-3414.7107 -3320.1641 10097.323 6250590
-3594.3362 -3557.3555 10818.672 14803935
-3767.1494 -3796.3252 11545.43 6315371
-3504.9014 -3597.5977 10941.057 2892588
-3553.0718 -3716.0078 11301.167 13093063
-3485.8835 -3716.0078 11301.167 13487565
0 0 0 0
0 0 0 0
0 0 0 0
0 0 0 0
-3037.6501 -3583.5381 10898.299 1448725
-3132.9814 -3776.5552 11485.305 1909784
-2975.8826 -3667.1101 11152.459 6383193
-2828.7917 -3565.29 10842.804 5659725
-2547.6394 -3285.8159 9992.8633 2501405
-2545.3169 -3361.2029 10222.131 2435099
-2474.8008 -3348.0225 10182.046 2566688
-2377.5859 -3297.1562 10027.352 987659
-2274.5151 -3235.344 9839.3662 790537
-2207.8223 -3223.3792 9802.9795 988427
-2149.5408 -3223.3792 9802.9795 1909528
-2081.8721 -3208.9102 9758.9756 2238492
-1993.1737 -3160.2676 9611.0439 1251856
-1981.4429 -3234.3916 9836.4707 1909018
-1967.4048 -3309.1431 10063.806 1382414
-1907.5726 -3309.1431 10063.806 1579793
-1847.7405 -3309.1431 10063.806 1316872
-1790.9705 -3314.8108 10081.042 2501397
-1720.056 -3293.7849 10017.098 4278058
-1040.1678 -2063.2856 6274.8892 6909780
-1053.0244 -2166.49 6588.7549 725505
-1067.8452 -2281.8665 6939.6396 2831383
-1000.4951 -2223.8701 6763.2603 5332032
-914.60052 -2118.0703 6441.5015 2897696
-851.48462 -2058.0808 6259.0601 1910037
-852.69391 -2155.1907 6554.3916 2042396
-767.06531 -2031.6069 6178.5474 2897706
-782.3219 -2176.2302 6618.377 4148029
-742.97388 -2176.2302 6618.377 923404
-706.62701 -2185.5125 6646.6069 1580564
-647.0033 -2119.6379 6446.2681 1448724
-573.00739 -1995.4185 6068.4902 1448724
-551.17224 -2048.353 6229.4761 1646104
-514.13629 -2048.353 6229.4761 1711897
-475.33533 -2040.7755 6206.4307 1646617
-452.63977 -2106.8875 6407.4917 1580824
-404.79416 -2057.3276 6256.769 1910045
-367.59595 -2057.3276 6256.769 2370597
-330.39771 -2057.3276 6256.769 461831
-346.58545 -2431.9275 7396.0068 1513750
-313.25327 -2517.4275 7656.0308 1579543
-279.92368 -2632.0237 8004.5425 1579543
-243.08295 -2753.7893 8374.8574 1447956
-200.38272 -2854.8081 8682.0762 2040096
-158.93982 -3050.0559 9275.8662 2500391
-107.18687 -3149.8118 9579.2451 7369332
-59.064487 -3703.3909 11262.797 4670278
7.8869395 -3699.1541 11249.912 12235702
62.968517 -3115.2571 9474.1572 13750482
120.21636 -3139.3169 9547.3281 11447215
182.8902 -3244.1924 9866.2764 1646367
241.54794 -3244.1924 9866.2764 2041125
295.69528 -3195.4497 9718.04 1382680
343.73868 -3107.4614 9450.4492 2830381
418.50574 -3251.842 9889.541 5661021
477.30182 -3251.842 9889.541 1976355
502.65717 -3048.9985 9272.6514 2041637
498.96045 -2727.4448 8294.7383 1975074
530.32593 -2638.1558 8023.1909 1711388
541.22778 -2470.2058 7512.4194 1974046
571.04108 -2407.5952 7322.0078 2172196
610.46027 -2391.4858 7273.0151 2237989
653.70038 -2391.4858 7273.0151 2896432
724.68591 -2486.6917 7562.5566 3554362
793.93256 -2565.1558 7801.1821 3488826
892.58142 -2724.7124 8286.4277 3686720
924.36047 -2674.1257 8132.5835 4147272
972.71088 -2674.1257 8132.5835 3818308
928.46094 -2431.6082 7395.0361 3555393
953.54425 -2384.3921 7251.4419 3686723
996.65607 -2384.3921 7251.4419 4081224
1026.3896 -2353.7131 7158.1406 4344396
1046.9066 -2305.1831 7010.5503 5397084
1095.962 -2320.8018 7058.0498 5989478
1175.256 -2396.9402 7289.6035 5528669
1259.3557 -2477.1157 7533.4346 5331549
1304.144 -2477.1157 7533.4346 5002585
1340.3728 -2461.3975 7485.6313 4015948
1382.0087 -2456.2996 7470.1274 5529703
1426.4207 -2456.2996 7470.1274 5924975
1511.4615 -2524.1501 7676.4756 6451321
1487.627 -2411.5298 7333.9731 5200998
1524.7721 -2401.3599 7303.0444 6121072
1687.5154 -2584.0811 7858.7383 13289940
1739.506 -2591.9307 7882.6108 13749207
1741.9077 -2527.418 7686.4136 9010833
1799.9803 -2544.9141 7739.6235 11447479
2004.5658 -2763.5225 8404.458 13488339
2116.8071 -2847.2874 8659.2041 13488337
2439.9104 -3203.9673 9743.9443 13554387
2506.7622 -3215.4104 9778.7451 13554387
2581.5325 -3236.2622 9842.1592 13488594
2511.2429 -3078.3696 9361.9746 13488594
