# .PCD v0.7 - Point Cloud Data file format
VERSION 0.7
FIELDS x y z rgb
SIZE 4 4 4 4
TYPE F F F U
COUNT 1 1 1 1
WIDTH 1305
HEIGHT 1
VIEWPOINT 0 0 0 1 0 0 0
POINTS 1305
DATA ascii
1047.4314 -898.99255 3196.291 3487538
1061.2225 -894.59869 3180.6687 3421745
1080.2789 -894.71936 3181.0979 3421744
1102.7284 -897.59778 3191.3318 3290414
1118.6464 -895.15234 3182.6372 2106396
1127.9535 -887.58612 3155.7363 2698022
1119.6022 -866.59937 3081.1196 2435105
1124.326 -856.24591 3044.3091 2106397
1157.793 -867.76355 3085.2588 2369312
1133.7084 -836.45978 2973.9609 2369312
1132.2224 -822.53497 2924.4524 2632229
1151.7323 -824.05359 2929.8518 2566691
1149.5707 -810.25232 2880.7825 2237726
1159.4266 -805.20221 2862.8274 2303518
1159.4543 -793.57141 2821.4751 2566690
1163.967 -785.29834 2792.0608 2500897
1176.5364 -782.617 2782.5276 2698277
1168.9294 -766.77521 2726.2036 2632483
1176.1752 -760.97638 2705.5862 2961446
1183.2354 -755.21539 2685.1035 2764067
1166.7694 -734.79205 2612.49 2764070
1177.03 -731.5155 2600.8406 2764070
1219.7362 -748.22717 2660.2576 2764070
1192.7069 -722.28058 2568.0066 3027242
1214.35 -726.09241 2581.5591 3158573
1175.3069 -693.97607 2467.3723 2961708
1182.8223 -689.80365 2452.5378 3159089
1175.5621 -677.22113 2407.8015 3422523
1165.459 -663.32312 2358.3884 5659485
1175.3409 -660.99493 2350.1108 5860223
1167.9594 -649.12671 2307.9143 11517898
1190.2249 -653.82007 2324.6011 5461089
1208.6503 -656.32043 2333.491 6121329
1228.463 -659.50879 2344.8269 659732
1254.0741 -665.70355 2366.8518 922133
1253.2004 -657.85785 2338.9573 131589
1240.5632 -644.07703 2289.9607 4
1241.5907 -637.61279 2266.9775 4
1276.3999 -648.44952 2305.5066 4
1279.5632 -643.14978 2286.6638 4
1238.1289 -615.78088 2189.356 5
1229.7079 -605.22968 2151.8423 5
1233.7083 -600.94635 2136.6133 8
1222.2983 -589.3205 2095.2783 11
1227.2654 -585.74542 2082.5676 268
1205.1947 -569.46625 2024.6885 9
1215.8666 -568.82727 2022.4165 6386046
1225.9155 -567.91217 2019.163 7973568
1220.4244 -559.88568 1990.6254 8636110
1240.7853 -563.75934 2004.3979 8701133
1248.0841 -561.68091 1997.0083 10669777
1250.4601 -557.44708 1981.9552 12112340
1247.1753 -550.79242 1958.295 13161174
1243.4601 -544.07239 1934.4027 13423060
1244.5402 -539.55457 1918.34 13554132
1254.0267 -538.73022 1915.4089 13554389
1250.8359 -532.5235 1893.3416 13882331
1241.7092 -523.92291 1862.7631 8026503
1255.4257 -525.02753 1866.6904 6248810
1258.8748 -521.85663 1855.4164 5525339
1219.8558 -501.28891 1782.2897 5657693
1239.9781 -505.16968 1796.0874 5328722
1206.2061 -487.21497 1732.251 5460305
1219.9203 -488.58276 1737.1141 5328973
1205.337 -478.68945 1701.9393 5526352
1201.8022 -473.31216 1682.8208 5526350
1199.8529 -468.64288 1666.2196 5460557
1183.3035 -458.39432 1629.7816 4671041
1214.4604 -466.64276 1659.1084 5394506
1228.6676 -468.2981 1664.9937 5460041
1241.4402 -469.38449 1668.8562 5394504
1248.851 -468.44244 1665.5068 5393477
1263.0653 -470.04718 1671.2124 5656904
1273.3915 -470.19122 1671.7245 3485991
1275.6299 -467.36975 1661.693 5919560
1282.2678 -466.19113 1657.5027 5656642
1291.0254 -465.79535 1656.0953 5656131
1288.4802 -461.35834 1640.3201 5656127
1284.6698 -456.53845 1623.1833 5656383
1290.9973 -455.3663 1619.0159 5787454
1295.8289 -453.68777 1613.0479 5655867
1297.7115 -451.00903 1603.5239 5787197
1299.3485 -448.28461 1593.8374 5985088
1301.3885 -445.73767 1584.782 5918783
1302.3621 -442.86465 1574.5673 5853758
1310.3666 -442.40646 1572.9382 5853502
1317.8701 -441.7869 1570.7354 5919040
1334.9658 -444.3689 1579.9154 5853247
1333.2061 -440.68228 1566.808 5919040
1331.1112 -436.93689 1553.4916 5984833
1336.1793 -435.57812 1548.6605 6050627
1338.7366 -433.42502 1541.0054 5984834
1346.9525 -433.12076 1539.9237 6116421
1355.613 -432.96271 1539.3617 5721663
1365.5928 -433.22519 1540.2949 5853248
1374.4407 -433.12753 1539.9478 5984833
1378.5454 -431.54633 1534.3259 5853247
1385.125 -430.75558 1531.5144 5918782
1390.5352 -429.6138 1527.4551 5918013
1418.8119 -435.50583 1548.4036 5918270
1406.1652 -428.84134 1524.7086 6115649
1454.6171 -440.77628 1567.1422 6247235
1410.3438 -424.64062 1509.7733 5984063
1414.7574 -423.27554 1504.9198 5852990
1436.704 -427.1402 1518.6604 6115392
1442.0828 -426.06174 1514.8259 6049855
1448.629 -425.33942 1512.2577 5918270
1462.5336 -426.7731 1517.3552 5984064
1462.262 -424.07803 1507.7731 5984063
0 0 0 0
0 0 0 0
0 0 0 0
0 0 0 0
0 0 0 0
0 0 0 0
0 0 0 0
0 0 0 0
0 0 0 0
0 0 0 0
0 0 0 0
0 0 0 0
-1601.7334 -515.49652 1872.3834 3684400
-1614.9725 -523.39502 1901.0723 3289639
-1603.5282 -523.34882 1900.9044 3552810
-1613.1885 -530.23889 1925.9304 3487017
-1603.6553 -530.8736 1928.236 3420968
-1577.9518 -526.12592 1910.9915 3289638
-1580.6957 -530.86316 1928.198 3290150
-1550.2445 -524.43994 1904.8677 3290150
-1505.9192 -513.19409 1864.0205 3224357
-1529.2804 -525.01898 1906.9709 3290150
-1528.9058 -528.81091 1920.7439 3026722
-1522.0455 -530.39984 1926.5151 3158564
-1449.6102 -508.98807 1848.7435 3092771
-1437.0507 -508.43335 1846.7285 3092771
-1568.8351 -559.3327 2031.605 2895649
-1566.4281 -562.8078 2044.2271 3092771
-1555.0172 -563.07684 2045.2042 2829599
-1552.4324 -566.57123 2057.8967 2763806
-1542.2874 -567.34009 2060.6895 2632220
-1525.6793 -565.72479 2054.8223 2369304
-1510.0857 -564.46265 2050.2378 1777167
-1468.9457 -553.55304 2010.6122 1053445
-1461.4921 -555.26294 2016.8228 263681
-1431.4186 -548.33606 1991.663 512
-1421.2197 -548.97052 1993.9674 512
-1407.6443 -548.30048 1991.5336 512
-1399.4822 -549.74548 1996.7822 396039
-1389.5526 -550.51489 1999.577 198407
-1375.8842 -549.80371 1996.9937 66565
-1358.3956 -547.54028 1988.7725 395789
-1337.9266 -544.02515 1976.0048 856597
-1331.1862 -546.07941 1983.4664 1317149
-1311.5732 -542.84271 1971.7101 988184
-1299.7979 -542.8208 1971.6305 988185
-1285.8625 -541.88818 1968.243 527890
-1276.6857 -542.96216 1972.1439 527632
-1258.4291 -540.15881 1961.9615 922390
-1246.2969 -539.95624 1961.226 856597
-1233.4768 -539.44916 1959.3839 1383455
-1219.7454 -538.52991 1956.0452 1383455
-1207.8308 -538.40295 1955.584 857625
-1190.9348 -536.03137 1946.97 856598
-1185.0674 -538.62579 1956.3936 856598
-1175.6757 -539.65405 1960.1282 1054233
-1182.8097 -548.36438 1991.7657 1185305
-1177.3632 -551.35938 2002.6442 1843234
-1172.303 -554.59833 2014.4088 1645853
-1155.3857 -552.23688 2005.8315 1580061
-1143.4647 -552.2392 2005.84 1645853
-1128.7944 -550.89972 2000.9746 1580060
-1126.0381 -555.40814 2017.3501 724753
-1126.0551 -561.3963 2039.1003 593166
-1121.1965 -565.05762 2052.3989 1
-1125.7682 -573.60455 2083.4429 257
-1120.3641 -577.20209 2096.51 257
-1111.9297 -579.30182 2104.1367 256
-1103.8247 -581.62299 2112.5676 256
-1094.6763 -583.44147 2119.1726 0
-1088.4075 -586.85492 2131.5708 0
-1090.0743 -594.67798 2159.9858 0
-1091.5468 -602.58026 2188.6885 0
-1090.6455 -609.34698 2213.2666 0
-1085.399 -613.82178 2229.5198 0
-1072.4906 -614.02051 2230.2417 0
-1066.761 -618.38574 2246.0969 0
-1081.3555 -634.79248 2305.6895 0
-1084.8674 -645.03131 2342.8789 0
-1085.7196 -653.93445 2375.2168 0
-1029.6444 -628.3327 2282.2263 0
-1020.4277 -631.02411 2292.002 0
-1012.6013 -634.65979 2305.2075 0
-1009.4357 -641.35645 2329.5312 0
-1007.8733 -649.27228 2358.283 65536
-988.99634 -646.10004 2346.7607 65536
-1019.764 -675.7334 2454.3948 131072
-1005.3906 -675.88074 2454.9299 329217
-1078.608 -735.78339 2672.5081 460545
-1358.6715 -940.68915 3416.7656 657920
-1337.2821 -939.93365 3414.0212 723458
-1327.9519 -947.76141 3442.4534 526337
-1319.2272 -956.27313 3473.3696 1118730
-1341.9255 -988.19556 3589.3179 1250317
-1320.8917 -988.4248 3590.1509 592389
-1307.8314 -994.72632 3613.0388 1250830
-1293.9084 -1000.5711 3634.2686 1250575
-1245.5657 -979.5459 3557.9006 1513748
-1187.5813 -950.08063 3450.8772 1711127
-1162.4221 -946.30164 3437.1511 1645078
-1124.1827 -931.54852 3383.5652 1776920
-1087.8928 -917.90289 3334.0012 1711127
-1097.6144 -943.29285 3426.2227 1974299
-1071.7622 -938.49286 3408.7883 2040094
-1100.5986 -982.31934 3567.9744 2303266
-980.211 -892.06348 3240.1475 2237473
-966.88409 -897.5752 3260.1672 2105887
-998.50464 -945.8916 3435.6619 2172194
-935.67212 -904.88129 3286.7043 1975071
-1011.1442 -998.72772 3627.573 2172450
-905.46173 -913.83502 3319.2263 2435622
-941.00037 -970.86218 3526.3599 2435622
-885.49237 -934.41193 3393.9653 2369316
-917.8894 -991.18604 3600.1802 2435108
-856.45721 -946.93048 3439.4351 2369315
-843.59344 -955.52228 3470.6423 2435622
-920.69305 -1068.9998 3882.8145 2501414
-812.47931 -967.61652 3514.571 2370341
-810.45038 -990.67908 3598.3386 2370341
-785.07251 -985.67719 3580.1707 2501672
-766.66461 -989.39124 3593.6609 2567465
-748.67828 -993.87787 3609.9573 2698794
-733.23828 -1002.1094 3639.856 2435879
-706.63123 -995.11566 3614.4531 2633001
-691.68976 -1004.6265 3648.9983 2633001
-669.78674 -1004.3147 3647.866 2698537
-645.84241 -1000.8188 3635.1682 2764330
-622.8869 -998.6662 3627.3494 2764587
-599.48969 -995.62567 3616.3054 2830379
-578.53131 -996.55981 3619.6987 2698792
-557.81073 -997.99176 3624.8997 2830377
-525.47955 -977.93109 3552.0354 1119759
-505.48596 -980.11249 3559.9587 2369826
-486.66837 -984.86438 3577.2185 2632998
-466.11038 -986.36755 3582.6785 2566948
-446.91351 -991.03314 3599.6245 2829864
-427.22345 -995.0191 3614.1025 2895656
-400.75037 -982.79297 3569.6948 2698277
-373.36838 -966.84564 3511.771 2764070
-347.70505 -953.72327 3464.1082 2764071
-326.39899 -951.65259 3456.5869 2566691
-306.76865 -954.51758 3466.9932 2698277
-284.71078 -949.698 3449.4875 2566690
-261.14398 -938.70618 3409.563 2632482
-241.6279 -941.65027 3420.2566 2566689
-217.80206 -926.79657 3366.3049 2698275
-199.32887 -934.01807 3392.5349 2435103
-180.41643 -940.57574 3416.3538 2764068
-160.59427 -943.453 3426.8042 2566689
-141.94916 -955.086 3469.0579 2566689
-121.79609 -958.80322 3482.5593 2698278
-102.75047 -974.547 3539.7439 2566691
-82.170082 -980.09497 3559.8953 2566691
-61.943245 -995.17297 3614.6614 2566691
-40.172398 -988.28723 3589.6511 1842967
-18.604006 -976.41882 3546.5427 2698275
2.4405909 -960.14783 3487.4434 1053707
22.220066 -920.57776 3343.717 1054478
0 0 0 0
56.260818 -835.62946 3035.1682 4870473
75.200462 -845.68384 3071.6877 2765096
93.119759 -842.57642 3060.4011 4015420
112.77854 -853.65167 3100.6284 4146747
131.28198 -854.09833 3102.251 4212284
149.46205 -852.59045 3096.7739 4212029
167.6214 -851.30792 3092.1157 4343615
185.89612 -850.80713 3090.2966 4014905
204.06866 -849.97076 3087.2585 3883576
221.93626 -848.10712 3080.4897 3949112
239.5578 -845.65894 3071.5974 4014904
256.86423 -842.52411 3060.2109 3949111
272.92639 -835.99268 3036.4878 4013879
283.41696 -814.2644 2957.5664 66048
296.50082 -802.09015 2913.3472 0
311.58701 -796.3775 2892.5977 0
327.94226 -794.3363 2885.1838 0
342.935 -789.36188 2867.1157 0
359.13486 -787.50562 2860.3733 0
375.55414 -786.27655 2855.9089 0
392.24017 -785.68811 2853.7717 0
408.24796 -783.84625 2847.0815 0
424.85672 -783.25885 2844.9482 0
442.11746 -783.8725 2847.1772 0
457.72336 -781.61517 2838.978 0
474.29538 -781.10938 2837.1406 0
490.62048 -780.24567 2834.0037 0
507.12421 -779.71393 2832.0723 0
523.82922 -779.51599 2831.3533 0
540.15924 -778.78955 2828.7148 0
555.90704 -777.29309 2823.2793 0
572.9187 -777.59955 2824.3926 256
590.1745 -778.21057 2826.6118 256
608.48584 -780.14105 2833.6238 0
627.00708 -782.22943 2841.209 3422263
659.42773 -801.09363 2909.7278 3422776
676.31323 -800.60333 2907.9465 3686718
691.9201 -798.66138 2900.8933 3949890
723.70972 -815.03894 2960.3796 3686975
751.2832 -826.00342 3000.2046 3949120
759.7984 -815.99133 2963.8389 3817534
803.41595 -843.27722 3062.9465 3751741
827.39496 -849.19745 3084.45 3685949
827.37793 -830.76678 3017.5061 3686202
843.12732 -828.61316 3009.6838 3883068
864.11572 -831.59106 3020.5002 3553846
883.20081 -832.65326 3024.3584 3685433
907.21252 -838.22516 3044.5964 3619894
931.38763 -843.72705 3064.5803 3356722
956.47681 -849.82983 3086.7468 3225136
986.54968 -860.04761 3123.8599 3290673
1015.1232 -868.6048 3154.9412 2566436
1041.8224 -875.27673 3179.1748 3619124
1061.7161 -876.09528 3182.1479 3421745
1077.8428 -873.83105 3173.9241 3421745
1095.776 -873.08423 3171.2114 3158829
1096.0477 -858.52844 3118.342 1974299
1100.5165 -847.68988 3078.9741 2171933
1106.2261 -838.14606 3044.3091 2237726
1098.3649 -818.79285 2974.0146 2369057
1125.7512 -825.91248 2999.8745 2237471
1134.8657 -819.61395 2976.9971 2171933
1123.3439 -798.83392 2901.5198 2369312
1126.8456 -789.20435 2866.5435 2303519
1142.6956 -788.38129 2863.5537 2500898
1149.6089 -781.50708 2838.5854 2369311
1157.1426 -775.24756 2815.8496 2435104
1164.0724 -768.7677 2792.3135 2303517
1163.3568 -757.492 2751.3579 2500896
1172.2538 -752.70117 2733.9568 2500898
1182.8545 -749.12042 2720.9507 2698277
1172.9099 -732.80005 2661.6721 2632484
1176.5282 -725.27521 2634.3403 2829863
1193.7634 -726.23199 2637.8157 2764070
1179.0685 -707.99103 2571.5608 2961449
1183.1729 -701.3609 2547.4788 2961193
1177.9391 -689.43286 2504.1541 2961194
1219.9629 -705.11664 2561.1204 2764843
1183.6576 -675.69904 2454.27 3093555
1192.3806 -672.38953 2442.2493 3488828
1162.9634 -647.91095 2353.3384 5396314
1150.5509 -633.37549 2300.5427 5531510
1158.5453 -630.28351 2289.312 10995144
1187.5677 -638.57043 2319.4116 5001567
1215.8401 -646.26831 2347.3721 6121072
1225.7538 -644.14392 2339.6558 922392
1248.448 -648.70807 2356.2336 395790
1216.7617 -625.22772 2270.9485 260
1244.8 -632.61517 2297.7812 3
1254.6083 -630.67828 2290.7458 2
1259.0485 -626.1134 2274.1655 2
1260.0907 -619.97375 2251.865 4
1237.9082 -602.65656 2188.9656 4
1234.26 -594.62903 2159.8081 4
1242.2175 -592.30054 2151.3503 7
1237.9734 -584.2608 2122.1487 11
1255.212 -586.41992 2129.991 268
1212.8369 -560.9632 2037.5271 264204
1223.4747 -560.28711 2035.0715 5795193
1223.1036 -554.63214 2014.5316 8238015
1224.7391 -549.98798 1997.6631 12309203
1236.8717 -550.10162 1998.0758 13030101
1242.0688 -547.15784 1987.3834 13357780
1247.3137 -544.29047 1976.9685 13488596
1252.5873 -541.48889 1966.7928 13423059
1260.8113 -540.00293 1961.3953 13357012
1261.4561 -535.32776 1944.4142 12435657
1270.4254 -534.2381 1940.4564 6577524
0 0 0 0
1211.631 -500.42499 1817.6407 5328986
1199.6902 -491.11292 1783.8174 5263446
1227.3258 -498.02335 1808.9174 5197651
1215.4968 -488.9389 1775.9209 5329235
1213.8478 -484.0705 1758.238 5394515
1208.0316 -477.63773 1734.8728 5394514
1211.3433 -474.89227 1724.9009 5591893
1213.7216 -471.83002 1713.7782 5460305
1211.4161 -467.01321 1696.2826 5526352
1200.9026 -459.13779 1667.6775 5855315
1190.7457 -451.52649 1640.0319 5000006
1209.5093 -454.91635 1652.3445 5328458
1221.1058 -455.57764 1654.7465 5394248
1235.2527 -457.17224 1660.5383 5262662
1246.8088 -457.79034 1662.7834 5393221
1259.7399 -458.8996 1666.8124 5525319
1271.5818 -459.59781 1669.3485 4011565
1273.5081 -456.72916 1658.929 5722182
1278.7333 -455.07858 1652.9338 5656644
1286.5748 -454.37723 1650.3862 5919303
1280.5575 -448.82901 1630.234 5590590
1293.545 -449.97522 1634.3973 5919555
1288.7496 -444.96439 1616.197 5722174
1298.7639 -445.1033 1616.7015 5590588
1300.2631 -442.34329 1606.6766 5984833
1296.844 -437.96262 1590.7653 5787454
1298.9353 -435.49289 1581.7946 5787454
1305.5322 -434.55826 1578.4 5721660
1311.2639 -433.35117 1574.0155 5787454
1320.4606 -433.2981 1573.8228 5787709
1320.5292 -430.27158 1562.8298 5721916
1328.8412 -429.95456 1561.6783 5721916
1344.7833 -432.0936 1569.4478 5590330
1353.2585 -431.82053 1568.4558 5787711
1343.6768 -425.82855 1546.692 5853246
1351.62 -425.4343 1545.26 5984833
1358.3645 -424.67059 1542.486 5919040
1367.8673 -424.77371 1542.8605 5787454
1387.0157 -427.85077 1554.037 5853247
1402.8615 -429.87509 1561.3898 5787454
1440.4756 -438.49939 1592.7148 5787454
1405.4886 -425.05469 1543.881 5853247
1399.4265 -420.47525 1527.2477 5919296
1411.8525 -421.47406 1530.8755 5919039
1428.8263 -423.80896 1539.3563 5985089
1507.8566 -444.40378 1614.1608 6050626
1419.8575 -415.82166 1510.345 5984833
1428.996 -415.86786 1510.5127 5720891
1451.213 -419.69583 1524.4166 5984063
1460.2505 -419.68842 1524.3896 6115648
1466.4628 -418.87405 1521.4318 6049856
1466.7366 -416.38382 1512.3868 6049856
0 0 0 0
0 0 0 0
0 0 0 0
0 0 0 0
0 0 0 0
0 0 0 0
0 0 0 0
0 0 0 0
0 0 0 0
0 0 0 0
0 0 0 0
0 0 0 0
-1593.1882 -501.67349 1862.3943 3684656
-1622.5869 -514.50659 1910.0354 3355689
-1609.6194 -513.99207 1908.1252 3158564
-1598.2968 -513.99921 1908.1517 3026978
-1585.8029 -513.62708 1906.7701 3553065
-1573.3539 -513.26422 1905.4231 3421479
-1533.0739 -503.75107 1870.1069 3224357
-1574.1763 -521.03577 1934.2739 3290150
-1539.5035 -513.30951 1905.5912 3158564
-1529.8398 -513.86902 1907.6685 3092771
-1507.3324 -510.09061 1893.6416 3092771
-1577.694 -537.91919 1996.9514 3158564
-1454.0803 -499.53201 1854.4442 3158564
-1578.8212 -546.5293 2028.9153 3290150
-1573.5713 -548.90588 2037.738 3224357
-1560.302 -548.50024 2036.2323 2961185
-1555.4528 -551.07135 2045.777 2895392
-1556.473 -555.77881 2063.2529 2632220
-1550.3115 -557.97626 2071.4106 2829599
-1530.8839 -555.39606 2061.832 2303767
-1506.6193 -551.00519 2045.5314 1448459
-1455.4838 -536.63562 1992.1863 987910
-1457.9749 -541.96448 2011.9691 461314
-1430.4961 -536.14886 1990.3794 512
-1419.6066 -536.50574 1991.7042 512
-1406.5397 -536.03882 1989.9708 512
-1389.6444 -534.09259 1982.7456 197892
-1379.5045 -534.73157 1985.1178 724752
-1375.7378 -537.87329 1996.7811 527373
-1358.0566 -535.58228 1988.276 198153
-1337.5723 -532.13574 1975.4813 593425
-1323.296 -531.11993 1971.7101 593425
-1309.5999 -530.3208 1968.7435 988183
-1297.1744 -530.02655 1967.651 856597
-1285.2363 -529.9278 1967.2845 790804
-1273.8549 -530.0589 1967.7711 527632
-1260.4006 -529.3219 1965.0352 461839
-1251.8987 -530.67035 1970.0411 659218
-1246.6559 -533.43884 1980.3188 1053977
-1222.8964 -528.26141 1961.0983 1580320
-1204.3135 -525.242 1949.8892 1448735
-1191.7942 -524.83411 1948.375 1382941
-1184.2207 -526.61761 1954.9957 922391
-1177.2523 -528.70813 1962.7567 593426
-1174.885 -532.92767 1978.421 1053719
-1174.0986 -537.95685 1997.0913 1382941
-1163.5231 -538.5578 1999.322 1711649
-1151.1165 -538.31476 1998.4199 1580575
-1138.3032 -537.87451 1996.7856 1843490
-1129.6538 -539.41327 2002.498 1712160
-1118.8807 -539.9599 2004.5273 1515038
-1110.6603 -541.76349 2011.2229 1580831
-1129.499 -556.94904 2067.5972 257
-1123.3256 -559.99969 2078.9224 256
-1115.8475 -562.46069 2088.0583 258
-1109.0311 -565.31421 2098.6516 256
-1101.8152 -568.02679 2108.7217 256
-1089.4073 -568.0943 2108.9724 0
-1083.2145 -571.4422 2121.4009 0
-1097.8252 -585.9729 2175.3442 0
-1095.2535 -591.56952 2196.1208 0
-1090.9333 -596.3454 2213.8508 0
-1084.6063 -600.1275 2227.8914 0
-1069.3048 -598.97607 2223.6167 0
-1066.6876 -604.98993 2245.9424 0
-1084.7881 -623.0556 2313.0088 0
-1085.6674 -631.56702 2344.6062 0
-1082.2976 -637.79602 2367.7305 0
-1025.9459 -612.55554 2274.0286 0
-1018.35 -616.13989 2287.3352 0
-1010.423 -619.61829 2300.2483 0
-1008.2716 -626.78259 2326.8447 256
-1029.1454 -648.65863 2408.0566 0
-980.6153 -626.79041 2326.8735 0
-1013.7617 -657.24933 2439.9482 256
-1014.3051 -667.14838 2476.697 789506
-1374.5845 -917.43726 3405.8604 460288
0 0 0 0
-1346.3457 -925.86847 3437.1602 591872
-1330.6608 -929.18585 3449.4753 395264
-1341.3691 -951.32574 3531.6667 855813
-1335.6036 -962.30029 3572.4084 1447949
-1317.4065 -964.52802 3580.6782 527108
-1310.3 -975.08209 3619.8589 1382416
-1274.6794 -964.41504 3580.259 1711382
-1226.0219 -943.35443 3502.0745 1579541
-1192.9574 -933.77148 3466.499 1711127
-1164.7227 -927.69843 3443.9536 1842713
-1126.4319 -913.25519 3390.335 1908506
-1088.0109 -898.17804 3334.363 1908506
-1143.1598 -961.21887 3568.3936 1842713
-1026.5917 -879.52637 3265.1213 1842715
-998.56451 -872.00385 3237.1948 2434852
-986.4541 -878.35809 3260.7844 2105887
-972.60126 -883.38464 3279.4446 2105887
-948.95276 -879.53772 3265.1633 2106657
-938.2514 -887.78076 3295.7646 2304036
-1001.6399 -967.9751 3593.4753 2238243
-908.45789 -897.05927 3330.2097 2238243
-902.93335 -911.46936 3383.7053 2238243
-894.72406 -923.7644 3429.3491 2304036
-879.61713 -929.34534 3450.0674 2501415
-857.16766 -927.24982 3442.2881 2435622
-855.87592 -948.49921 3521.1736 2567208
-855.59363 -971.961 3608.2722 2370340
-829.99054 -967.12518 3590.3201 2370339
-816.85352 -976.94324 3626.7681 2436132
-795.84723 -977.62708 3629.3066 2567465
-771.12262 -973.65399 3614.5574 2633258
-752.55786 -977.45392 3628.6638 2633258
-737.57074 -986.26202 3661.363 2567465
-708.07544 -975.61591 3621.8406 2501415
-684.67157 -972.95819 3611.9741 2830380
-665.94171 -976.98541 3626.9248 2764587
-644.47302 -977.12976 3627.4607 2698794
-619.10992 -971.17499 3605.3545 2698794
-598.37451 -972.31268 3609.5781 2896173
-576.96844 -972.40497 3609.9204 2896170
-555.15356 -971.78857 3607.6323 2764585
-524.84357 -955.65448 3547.7366 790795
-507.65796 -963.0672 3575.2551 2501412
-489.43417 -969.07233 3597.5483 2567205
-466.06903 -964.98114 3582.3606 2567205
-444.0184 -963.35016 3576.3057 2698534
-420.94922 -959.23419 3561.0259 2764070
-398.94846 -957.24579 3553.644 2632481
-371.43976 -941.0802 3493.6313 2764068
-347.70505 -933.12744 3464.1082 2698274
-329.37704 -939.59686 3488.1248 2632479
-307.07263 -934.83008 3470.429 2566689
-281.56635 -918.92688 3411.3904 2698275
-259.89212 -914.03186 3393.2183 2764068
-239.64978 -913.77271 3392.2561 2632482
-217.14134 -904.03137 3356.0928 2698275
-198.53069 -910.18848 3378.9502 2632482
-180.91438 -922.80383 3425.783 2566689
-161.32271 -927.26593 3442.3479 2895654
-142.69193 -939.35034 3487.2097 2698274
-122.89706 -946.57764 3514.04 2566689
-103.10195 -956.76312 3551.8521 2632482
-82.834923 -966.68835 3588.6985 2566688
-61.532265 -967.2218 3590.6787 2500896
-40.374218 -971.80286 3607.6853 1842966
-18.652117 -957.80347 3555.7144 2369311
2.4463632 -941.63513 3495.6917 1185294
22.134384 -897.22461 3330.8237 1251601
0 0 0 0
56.058811 -814.64825 3024.2703 4936266
74.96199 -824.79712 3061.9468 2239010
93.563461 -828.3089 3074.9836 4080444
112.43459 -832.66962 3091.1721 3948858
130.68349 -831.84442 3088.1086 4146237
149.1647 -832.51904 3090.613 4146237
167.97876 -834.69952 3098.708 4080188
185.82349 -832.10852 3089.0891 4080698
203.85536 -830.74615 3084.0317 3751732
221.68835 -828.86517 3077.0486 4014903
240.05746 -829.12256 3078.0042 3949110
257.02145 -824.83423 3062.0842 3554353
274.68085 -823.19727 3056.0071 3750963
282.59573 -794.3717 2948.9963 66048
297.04559 -786.21069 2918.6997 0
311.24783 -778.33136 2889.4487 0
326.414 -773.56079 2871.7385 0
342.58517 -771.52765 2864.1909 0
358.02075 -768.10901 2851.4998 0
374.68405 -767.51447 2849.2925 0
391.30554 -766.88922 2846.9714 0
407.64316 -765.78278 2842.8638 0
424.15292 -765.07483 2840.2356 0
440.46655 -764.08087 2836.5459 0
456.78601 -763.17004 2833.1643 0
473.06174 -762.25342 2829.7615 0
489.17682 -761.14972 2825.6643 0
505.72293 -760.76788 2824.2468 0
522.28479 -760.43341 2823.0051 0
538.91949 -760.22266 2822.2227 0
554.44159 -758.50238 2815.8364 0
570.62378 -757.75964 2813.0791 0
589.18481 -760.12817 2821.8718 0
608.26642 -763.01855 2832.6021 256
623.59204 -761.16852 2825.7341 1447960
649.77631 -772.3222 2867.1406 3291189
665.71765 -771.04218 2862.3887 3751741
689.80261 -779.02283 2892.0156 3620155
709.27441 -781.53217 2901.3313 3685948
738.66992 -794.59735 2949.834 4080706
753.30225 -791.54401 2938.4988 3817534
770.45795 -791.22034 2937.2974 3686204
801.54785 -804.90363 2988.0945 3619386
817.67749 -803.29626 2982.1277 3817275
841.35748 -809.0174 3003.3665 3817275
865.17377 -814.62897 3024.1985 3554103
881.40698 -813.01733 3018.2158 3554104
906.04224 -819.06561 3040.6692 3422772
929.67804 -823.99133 3058.9551 3356722
958.91339 -833.59583 3094.6106 3225136
973.2771 -830.15387 3081.8328 3422258
1016.0078 -850.58771 3157.6904 1974299
1044.432 -858.5202 3187.1387 3158572
1056.4393 -852.91565 3166.3328 3355952
1075.5909 -853.17438 3167.293 3553331
1095.5642 -854.06476 3170.5986 3355952
1094.6215 -838.89551 3114.2847 2040348
1093.8457 -824.35651 3060.311 2500898
1103.5024 -818.02698 3036.8135 2237726
1109.714 -809.38855 3004.7444 2303263
1088.7495 -781.51654 2901.2734 2171677
1138.3903 -804.40472 2986.2427 2303519
1111.4382 -773.29938 2870.7683 2237726
1110.9061 -761.23895 2825.9956 2303519
1123.0193 -758.07385 2814.2456 2500898
1143.7314 -760.72113 2824.0732 2303519
1155.4103 -757.37036 2811.634 2566691
1152.8765 -744.93176 2765.4573 2435105
1167.9359 -744.05096 2762.1875 2566691
1196.5129 -751.68677 2790.5344 2566692
1177.3379 -729.52466 2708.2605 2632228
1182.005 -722.53473 2682.3115 2764070
1193.5656 -719.88873 2672.4885 2829863
1185.2855 -705.50275 2619.0825 2829863
1205.5149 -708.23914 2629.241 2829351
1189.7208 -690.01263 2561.5774 2763557
1185.4329 -678.83569 2520.0847 2763815
1201.6265 -679.52026 2522.626 2764073
1191.9076 -665.71503 2471.376 3093299
1172.731 -647.02789 2402.0024 3225657
1161.959 -633.3717 2351.3059 5462877
1164.8059 -627.37555 2329.0459 5201766
1157.6216 -616.18079 2287.4868 10468807
1179.2524 -620.40564 2303.1711 4934495
1208.1947 -628.336 2332.6113 6121331
1226.2275 -630.47705 2340.5598 461843
1241.0706 -630.94843 2342.3098 725269
1243.7827 -625.31061 2321.3801 259
1241.9147 -617.5191 2292.4553 260
1243.7563 -611.72131 2270.9319 4
1235.6078 -601.18732 2231.8257 4
1248.8771 -601.18732 2231.8257 4
1227.8219 -584.83777 2171.1304 4
1233.694 -581.52112 2158.8176 4
1242.2175 -579.50964 2151.3503 7
1234.9946 -570.26813 2117.0425 11
1247.5814 -570.26813 2117.0425 267
1212.3353 -548.62213 2036.6846 330513
1216.0724 -544.87097 2022.7589 5992574
1224.8798 -543.44281 2017.457 10010308
1219.4791 -535.7998 1989.0835 13030102
1234.309 -537.10687 1993.9359 13226965
1244.741 -536.49359 1991.6591 13357782
1254.4194 -535.57013 1988.2308 13423322
1262.4972 -533.98688 1982.3533 7370122
1273.6581 -533.72485 1981.3806 5921648
1275.4347 -529.57123 1965.9609 5790058
1208.6584 -497.28784 1846.1132 5592415
1203.4803 -490.70126 1821.6614 5525849
1210.3333 -489.09384 1815.694 5525847
1208.9968 -484.2348 1797.6554 5394518
1213.9298 -481.94995 1789.1733 5394771
1212.653 -477.26086 1771.7657 5394769
1210.8655 -472.45328 1753.9182 5460559
1204.0342 -465.77658 1729.132 5328972
1223.6407 -469.35382 1742.4119 5328972
1206.584 -458.92603 1703.7001 5394765
1198.4353 -452.0318 1678.1062 5657421
1194.9353 -446.99036 1659.3906 5789005
1188.4403 -440.92038 1636.8566 4933697
1207.6635 -444.41312 1649.8229 5656650
1214.309 -443.2583 1645.5359 5854539
1232.6033 -446.34015 1656.9768 5328451
1246.0024 -447.61462 1661.7081 5656389
1257.4812 -448.18457 1663.8239 5524803
1267.8049 -448.3371 1664.3903 4209198
1273.3623 -446.81488 1658.739 5788230
1276.5565 -444.49316 1650.1201 5590848
1283.1953 -443.39709 1646.051 5656385
1289.5392 -442.21649 1641.6683 5721919
1281.5242 -436.16656 1619.2087 5656381
1285.719 -434.33151 1612.3964 5853761
1301.8005 -436.50943 1620.4816 5721917
1302.2468 -433.45111 1609.1279 5721660
1297.7772 -428.81311 1591.91 5787454
1305.6495 -428.29074 1589.9708 5853247
1303.8165 -424.61511 1576.3257 5787454
1312.382 -424.35437 1575.3575 5787454
1313.3593 -421.66101 1565.3589 5852990
1321.5466 -421.30414 1564.0339 5919039
1335.9326 -422.91458 1570.0125 5721660
1328.3773 -417.60483 1550.3009 5590075
1337.9218 -417.70697 1550.6801 5853247
1364.1455 -422.97946 1570.2534 5853247
1351.7496 -416.28687 1545.4082 5787457
1360.8295 -416.25372 1545.285 5985090
1370.8672 -416.51205 1546.2441 5787711
1379.2999 -416.28256 1545.3921 5853503
1395.8638 -418.49387 1553.6012 5721661
1390.046 -414.00998 1536.9554 5721661
1395.764 -412.99805 1533.1989 6313798
1408.0621 -413.93362 1536.672 6050627
1411.9318 -412.39532 1530.9613 5984835
1474.9462 -428.04108 1589.0439 5984835
1423.1388 -410.37747 1523.4703 5853504
1447.7897 -414.84552 1540.0573 5787710
1435.7057 -408.79761 1517.6052 5984062
1442.3302 -408.11899 1515.0858 5918270
1457.7511 -409.92227 1521.7804 5984063
1469.3793 -410.64343 1524.4576 6049855
1480.2775 -411.15298 1526.3492 6049856
0 0 0 0
0 0 0 0
0 0 0 0
0 0 0 0
0 0 0 0
0 0 0 0
0 0 0 0
0 0 0 0
0 0 0 0
0 0 0 0
0 0 0 0
0 0 0 0
-1429.8435 -440.30084 1671.4486 3815727
-1575.9523 -488.68951 1855.1393 3289894
-1556.3864 -486.0239 1845.0201 3355943
-1548.0842 -486.86276 1848.2047 3487530
-1542.4419 -488.55606 1854.6328 3355944
-1538.8646 -490.93262 1863.6545 3290150
-1553.1062 -499.06952 1894.5433 3158564
-1572.01 -508.83435 1931.6122 3421479
-1538.812 -501.75427 1904.7351 3158307
-1507.9099 -495.32333 1880.3224 3026978
-1507.3326 -498.832 1893.6418 3224357
-1561.995 -520.81189 1977.0808 2632475
-1554.6808 -522.30371 1982.7439 2764061
-1457.4269 -493.37177 1872.9138 3026978
-1553.1232 -529.81512 2011.2583 3026978
-1558.8928 -535.90936 2034.3932 2895392
-1496.7231 -518.56049 1968.5341 3026978
-1551.1643 -541.65802 2056.2158 2698013
-1542.7668 -543.00525 2061.3301 2632221
-1527.2687 -541.85486 2056.9629 2106130
-1505.5956 -538.47736 2044.1416 1645325
-1480.5757 -533.8382 2026.5306 1250568
-1453.4548 -528.35919 2005.7314 723971
-1439.6478 -527.66949 2003.1132 256
-1419.5413 -524.63995 1991.6125 256
-1408.5806 -524.96808 1992.8583 256
-1391.5385 -523.01605 1985.4481 256
-1361.1416 -515.96826 1958.6935 1053201
-1371.8171 -524.50244 1991.0907 527373
-1353.9232 -522.16681 1982.2244 264202
-1338.4226 -520.72144 1976.7373 395532
-1324.1991 -519.75159 1973.0558 724497
-1309.3844 -518.5304 1968.4197 593425
-1299.811 -519.38135 1971.6503 988183
-1292.5095 -521.16406 1978.4175 988440
-1272.6505 -517.86945 1965.9108 725011
-1262.3014 -518.41943 1967.9985 659218
-1271.9686 -527.27722 2001.624 527632
-1235.6597 -517.06348 1962.8513 725012
-1218.9227 -514.9231 1954.726 1185305
-1204.571 -513.75879 1950.3062 1382685
-1194.8236 -514.55463 1953.3273 922134
-1183.4727 -514.66888 1953.7609 461839
-1200.6417 -527.31104 2001.7524 132360
-1183.4387 -524.95935 1992.8251 132360
-1175.3452 -526.64172 1999.2118 3
-1164.0361 -526.90302 2000.2036 329225
-1153.8068 -527.66351 2003.0905 526863
-1140.8774 -527.1922 2001.3013 790292
-1128.4884 -526.9632 2000.4321 1316891
-1123.8439 -530.38434 2013.4192 198152
-1118.2561 -533.42908 2024.9775 264458
-1126.6525 -543.28351 2062.3865 258
-1119.6664 -545.85553 2072.1501 256
-1110.7108 -547.51404 2078.446 256
-1109.2787 -552.96014 2099.1204 256
-1101.0223 -555.08966 2107.2043 256
-1089.4838 -555.59436 2109.1204 0
-1081.4088 -557.89771 2117.8643 0
-1079.0665 -563.2478 2138.1738 0
-1084.0846 -572.61304 2173.7258 0
-1083.5033 -579.21106 2198.7727 0
-1081.1614 -585.01758 2220.8152 0
-1071.0988 -586.73828 2227.3472 0
-1066.3403 -591.44409 2245.2112 0
-1083.6646 -608.67261 2310.6133 0
-1082.4633 -615.80438 2337.6868 0
-1077.2128 -620.78833 2356.6064 0
-1026.9525 -599.62305 2276.2598 0
-1020.772 -603.97363 2292.7754 0
-1007.6111 -604.25598 2293.8472 0
-1003.3416 -609.95135 2315.4675 0
-999.3717 -615.98981 2338.3904 256
-980.57074 -612.9281 2326.7678 256
-1010.1308 -640.44055 2431.2092 65536
-1016.8144 -654.03717 2482.8242 723715
0 0 0 0
-1365.4868 -904.57532 3433.9048 658176
-1351.702 -909.0351 3450.8347 657920
-1329.8864 -908.14819 3447.468 197888
-1343.7972 -932.01227 3538.0596 1053191
-1322.6156 -931.90924 3537.6687 1381902
-1331.0933 -953.03851 3617.8784 921352
-1295.8269 -943.02753 3579.8752 329219
-1295.8601 -958.80011 3639.7502 1448211
-1272.3435 -957.38812 3634.3901 1513748
-1214.8123 -929.8905 3530.0051 1579542
-1164.4313 -906.99548 3443.0923 1842714
-1139.6316 -903.56348 3430.0635 1908507
-1133.0817 -914.73932 3472.4888 1776920
-1100.5093 -904.93219 3435.2595 1908506
-1073.1731 -899.14111 3413.2759 1974300
-994.59088 -849.36365 3224.313 1909534
-973.45343 -847.65063 3217.8098 1909535
-964.45007 -856.64661 3251.9602 2106657
-991.03619 -898.26868 3409.9641 2106914
-948.77765 -877.9259 3332.7395 2303266
-1003.4838 -948.35272 3600.0903 2566438
-923.74384 -892.02045 3386.2446 2369059
-933.11505 -921.14612 3496.8101 2369573
-936.32312 -945.37646 3588.7922 2238243
-901.21136 -931.14435 3534.7649 2304036
-874.12878 -924.72662 3510.4021 2369829
-879.02667 -952.65399 3616.4187 2369829
-869.48853 -965.94434 3666.8708 2369829
-829.99054 -945.77899 3590.3201 2370086
-824.38123 -964.18457 3660.1907 2567208
-807.81995 -970.43188 3683.9062 2567208
-778.13055 -960.81689 3647.4065 2764587
-766.38611 -973.44391 3695.3406 2633001
-733.06665 -958.60352 3639.0042 2698794
-708.4032 -954.5238 3623.5168 2633001
-686.11377 -953.48743 3619.5825 2896173
-661.63007 -949.23572 3603.4424 2830380
-640.28772 -949.35718 3603.9033 2896173
-616.4281 -945.62531 3589.7368 2896171
-596.42493 -947.75409 3597.8179 2764841
-574.48297 -946.84576 3594.3696 2830377
-553.11267 -946.84576 3594.3696 2896170
-523.77228 -932.65375 3540.4949 922124
-508.24902 -942.9071 3579.418 2501412
-488.29285 -945.47308 3589.1589 2632998
-467.11316 -945.79633 3590.3862 2106654
-441.71243 -937.19464 3557.7324 2500898
-421.18387 -938.58514 3563.011 2566691
-397.18832 -931.98755 3537.9658 2764070
-371.33536 -920.05005 3492.6492 2895656
-345.97574 -907.9931 3446.8794 2764068
-324.83817 -906.19611 3440.0576 2764069
-303.56348 -903.74945 3430.7695 2829861
-282.29498 -900.96991 3420.2183 2632482
-260.5162 -896.00397 3401.3665 2698275
-240.68507 -897.46442 3406.9106 2698275
-220.23122 -896.65796 3403.8491 2500896
-197.82788 -886.94794 3366.9885 2632482
-179.93556 -897.55328 3407.248 2698275
-161.03575 -905.18646 3436.2249 2500896
-142.80127 -919.32117 3489.8823 2698275
-122.2774 -921.01746 3496.3215 2632483
-103.41454 -938.4823 3562.6208 2500896
-82.513756 -941.68652 3574.7844 2632482
-61.910915 -951.69409 3612.7747 2303518
-40.845776 -961.45319 3649.8218 2040346
-18.565996 -932.3382 3539.2966 2566691
2.5092747 -944.53247 3585.5881 1317137
21.980768 -871.33179 3307.7073 1119758
0 0 0 0
57.055416 -810.83044 3078.0349 5067596
75.937798 -817.09216 3101.8054 3422514
93.64431 -810.72656 3077.6409 4212030
112.479 -814.61279 3092.3933 4080955
130.7697 -814.02063 3090.1458 4212540
148.92946 -812.8598 3085.7388 4146491
167.59352 -814.40424 3091.6016 4015161
185.94234 -814.26282 3091.0649 3751732
204.06212 -813.23407 3087.1597 3883573
222.29428 -812.78601 3085.4587 3949110
240.35246 -811.81866 3081.7866 3685938
256.84476 -806.0741 3059.9792 3620146
274.56537 -804.68927 3054.7224 3882294
0 0 0 0
296.04773 -766.27478 2908.895 0
310.63248 -759.6474 2883.7363 0
326.10541 -755.77161 2869.0234 0
342.37543 -754.03674 2862.4375 0
357.72592 -750.53687 2849.1516 0
374.17728 -749.55878 2845.4385 0
390.64383 -748.6944 2842.1572 0
407.04196 -747.77606 2838.6711 0
423.38571 -746.8349 2835.0981 0
439.57083 -745.69666 2830.7773 0
455.9353 -744.93549 2827.8877 0
472.09665 -743.90833 2823.9885 0
488.45679 -743.25421 2821.5054 0
504.76501 -742.56714 2818.8972 0
521.0636 -741.91058 2816.4048 0
536.71466 -740.40155 2810.6763 0
552.81598 -739.58606 2807.5806 0
569.0965 -739.05109 2805.5498 0
586.60339 -740.09387 2809.5083 0
604.89355 -742.03967 2816.895 256
625.43469 -746.56769 2834.084 0
641.50928 -745.66632 2830.6624 3488310
656.49225 -743.57465 2822.7219 3554103
677.69055 -748.45166 2841.2356 3949118
700.77026 -755.11859 2866.5444 3883325
719.68469 -757.08716 2874.0176 3620152
743.50305 -764.00372 2900.2737 3817531
763.5097 -766.77869 2910.8079 3685688
780.14026 -766.11511 2908.2891 3685690
805.31805 -773.69196 2937.0518 3751482
833.33728 -783.6192 2974.7371 3685687
854.07562 -786.42957 2985.4055 3554102
876.11841 -790.302 3000.1062 3750966
904.05914 -799.23413 3034.0137 3553588
934.37952 -809.87933 3074.4246 3553588
949.90973 -807.54254 3065.5537 3356465
973.47791 -811.99835 3082.4688 3421745
1026.114 -840.08765 3189.0999 2369057
1049.7051 -843.80975 3203.2292 3421745
1055.9431 -833.69836 3164.8452 3355952
1072.9424 -832.28876 3159.4939 3421745
1101.3844 -839.65106 3187.4424 3027242
1073.7427 -804.73145 3054.8826 2040347
1091.3411 -804.31555 3053.3037 2106140
1095.0503 -793.84442 3013.5537 2303519
1099.0944 -783.94928 2975.99 2369312
1090.0099 -765.15173 2904.6318 2171933
1089.7551 -753.04218 2858.6621 2303519
1099.568 -748.15466 2840.1082 2106140
1112.745 -745.66925 2830.6733 2303519
1115.9999 -736.70795 2796.655 2369312
1145.6581 -745.18372 2828.8303 2303519
1147.1682 -735.37042 2791.5774 2369312
1149.8076 -726.55054 2758.0959 2303519
1153.7072 -718.76379 2728.5361 2369312
1183.178 -726.90314 2759.4343 2500898
1176.2773 -712.78009 2705.821 2632484
1178.7504 -704.6416 2674.926 2698277
1199.7198 -707.62946 2686.2686 2895656
1181.0601 -687.47144 2609.7456 2698277
1187.5325 -682.27545 2590.021 2764070
1185.4564 -672.36407 2552.3958 2961449
1182.8033 -662.38 2514.4949 3026730
1188.9264 -657.4986 2495.9641 2830636
1191.6455 -650.8783 2470.8325 3356472
1185.7754 -639.78485 2428.7202 3159607
0 0 0 0
1159.8256 -610.90497 2319.0876 5267047
1157.0627 -602.28961 2286.3826 9745600
1174.4988 -604.26648 2293.887 5526631
1200.2688 -610.43646 2317.3091 6317939
1225.0392 -615.96375 2338.2917 527892
1229.0641 -611.05304 2319.6497 461839
1233.0635 -606.23877 2301.374 260
1233.374 -599.73645 2276.6902 4
1242.2694 -597.50433 2268.2168 4
1281.5907 -609.79724 2314.8826 4
1219.6381 -574.15344 2179.5735 5
1224.1914 -570.23828 2164.7107 5
1233.6536 -568.66724 2158.7468 5
1242.2175 -566.71881 2151.3503 4
1249.1274 -564.06317 2141.269 262
1238.7432 -553.73047 2102.0447 266
1209.313 -535.17548 2031.6072 330770
1214.2898 -532.06354 2019.7937 6517633
1221.9323 -530.16913 2012.6023 10667207
1224.8258 -526.27106 1997.8044 12898262
1237.7174 -526.70239 1999.442 12372431
1252.9694 -528.12036 2004.8248 9804990
1271.1521 -530.73541 2014.7518 7041169
0 0 0 0
1226.6052 -502.66235 1908.1824 5592928
1246.403 -506.09448 1921.2113 5593182
1217.3848 -489.82291 1859.4419 5395545
1258.0361 -501.6239 1904.2401 5328981
1211.4272 -478.73093 1817.3351 5329237
1243.7058 -487.14188 1849.2643 5395028
1205.3346 -467.97531 1776.5051 5197648
1210.6038 -465.93814 1768.7717 5263438
1202.075 -458.6712 1741.1853 5197388
1197.4742 -453.0144 1719.7112 5197386
1203.4948 -451.43744 1713.7249 5131594
1228.9635 -457.12088 1735.2999 5263178
1200.4821 -442.8096 1680.9722 5328971
1195.2358 -437.23441 1659.808 5591626
1191.1281 -432.16364 1640.5585 5131076
1204.6986 -433.53708 1645.7725 5327940
1211.7316 -432.55472 1642.0432 5328195
1225.5166 -433.9791 1647.4503 5328194
1245.2008 -437.45331 1660.639 5459010
1252.3921 -436.51852 1657.0903 5393216
1268.6793 -438.7439 1665.5382 4406577
1273.2418 -436.91147 1658.582 5525056
1276.3497 -434.61197 1649.8528 5524800
1271.5396 -429.67188 1631.0994 5919300
1277.8281 -428.52863 1626.7594 5919299
1292.7168 -430.26492 1633.3507 5722432
1300.5782 -429.6539 1631.0311 6051394
1301.827 -426.88358 1620.5145 5854018
1295.3553 -421.6409 1600.6125 6182214
1304.5205 -421.52737 1600.1816 5984833
1304.126 -418.34885 1588.1155 5984832
1311.0605 -417.5502 1585.0837 6050626
1312.2307 -414.94022 1575.1759 6116419
1316.3903 -413.30582 1568.9714 5853247
1323.3472 -412.56653 1566.1649 5919041
1328.3116 -411.2207 1561.056 5984836
1335.5352 -410.58807 1558.6545 5919298
1342.733 -409.95636 1556.2563 6050628
1386.463 -420.41074 1595.9427 6050628
1352.8524 -407.43079 1546.6689 5853249
1359.6735 -406.72043 1543.9723 5984835
1370.7524 -407.28479 1546.1147 6182211
1375.9658 -406.11038 1541.6565 5984833
1397.8608 -409.84247 1555.8241 5853247
1392.2653 -405.51843 1539.4093 5918783
1404.8259 -406.50458 1543.153 6050626
1411.7328 -405.85263 1540.678 5853248
1415.0341 -404.17917 1534.3252 5984833
1428.3358 -405.3653 1538.8279 5919040
1433.4568 -404.22931 1534.5157 6116419
1439.5292 -403.37442 1531.2703 6050626
1458.0966 -406.00943 1541.2733 5918270
1466.6543 -405.8418 1540.637 6050112
1483.7122 -408.01373 1548.8818 5984063
1481.5455 -404.90485 1537.08 5984319
1486.4564 -403.75647 1532.7206 5984063
0 0 0 0
0 0 0 0
0 0 0 0
0 0 0 0
0 0 0 0
0 0 0 0
0 0 0 0
0 0 0 0
0 0 0 0
0 0 0 0
0 0 0 0
0 0 0 0
-1562.1068 -470.17273 1826.061 2895652
-1544.2257 -468.04367 1817.7922 3158565
-1532.2101 -467.67502 1816.3604 3224357
-1524.7168 -468.69119 1820.307 3355943
-1531.156 -474.03534 1841.0627 3290150
-1531.7034 -477.61926 1854.9819 3158563
-1524.7402 -478.89621 1859.9414 3158564
-1519.4113 -480.70883 1866.9812 3158564
-1532.0225 -488.26581 1896.3311 3290150
-1519.3651 -487.82184 1894.6068 3093028
-1551.7612 -501.94461 1949.4569 3092771
-1535.825 -500.52829 1943.9563 3158564
-1542.5117 -506.51932 1967.2242 3092771
-1512.7876 -500.55417 1944.0568 3092771
-1556.9816 -519.14362 2016.2548 2895646
-1555.4633 -522.6615 2029.9175 2895646
-1555.4043 -526.72858 2045.7133 2698267
-1430.6101 -488.28601 1896.4095 2566681
-1518.698 -522.4693 2029.171 2566679
-1527.2687 -529.62512 2056.9629 2303507
-1506.3109 -526.57404 2045.1128 1513993
-1482.9481 -522.62561 2029.7781 987651
-1463.709 -520.07764 2019.8821 855811
-1434.7723 -514.01331 1996.3293 256
-1419.6913 -512.85297 1991.823 256
-1409.1776 -513.33704 1993.703 256
-1391.3647 -511.14774 1985.2002 256
-1361.0791 -504.29968 1958.6036 922129
-1366.132 -510.53983 1982.839 922131
-1360.1808 -512.74048 1991.386 724497
-1339.5403 -509.39374 1978.3879 198410
-1324.0537 -507.965 1972.839 198410
-1314.2094 -508.69476 1975.6732 527632
-1298.2321 -507.04227 1969.2554 790547
-1286.8606 -507.17499 1969.7708 856340
-1273.925 -506.68805 1967.8795 724754
-1264.6235 -507.65091 1971.619 724754
-1260.9259 -510.90225 1984.2467 724754
-1264.5253 -517.19965 2008.7046 329996
-1231.3278 -508.4234 1974.6194 593168
-1221.359 -509.16183 1977.4873 330253
-1210.1663 -509.39944 1978.41 330253
-1198.7051 -509.52759 1978.9077 516
-1201.4877 -515.77277 2003.163 260
-1189.8474 -515.88965 2003.6167 260
-1178.651 -516.20325 2004.8347 2
-1165.3198 -515.5788 2002.4095 1251098
-1152.4729 -515.15784 2000.7747 1909028
-1141.8845 -515.74835 2003.068 1513500
-1130.1775 -515.84058 2003.4263 460812
-1132.494 -522.40375 2028.9163 1250328
-1126.2462 -525.11499 2039.4463 197638
-1130.3035 -532.74243 2069.0698 197380
-1119.3484 -533.38409 2071.5618 256
-1112.9078 -536.21515 2082.5571 256
-1108.5138 -540.10712 2097.6729 256
-1100.5581 -542.33246 2106.3157 256
-1089.6335 -543.12933 2109.4104 0
-1083.5548 -546.38812 2122.0671 0
-1077.042 -549.50238 2134.1621 0
-1083.8342 -559.55994 2173.2239 0
-1082.8479 -565.79584 2197.4429 0
-1080.2906 -571.35315 2219.0266 0
-1070.9318 -573.40619 2227 0
-1064.4586 -577.07507 2241.2493 0
-1057.2427 -580.42914 2254.2759 0
-1081.5763 -601.4126 2335.7715 0
-1079.5914 -608.117 2361.8103 0
-1075.7332 -613.92896 2384.3828 0
-1012.8436 -585.75677 2274.9673 0
-1004.6368 -588.87445 2287.0759 0
-997.63251 -592.79236 2302.2922 0
-993.74121 -598.6947 2325.2158 0
-975.22125 -595.82593 2314.0742 256
-1007.8257 -624.55731 2425.6614 65536
-1002.0627 -630.00116 2446.804 0
-1033.7465 -659.49506 2561.3528 657923
0 0 0 0
-1353.5172 -889.7113 3455.4688 657921
-1335.5049 -891.40137 3462.0327 329472
-1356.1785 -919.37012 3570.6577 1053192
-1343.7299 -925.41736 3594.144 1118473
-1328.9061 -929.99786 3611.9338 1052938
-1312.2018 -933.39105 3625.1125 790280
-1293.8243 -935.68768 3634.0322 1250831
-1246.6622 -916.89185 3561.0327 1513748
-1205.1827 -901.69812 3502.0234 1447955
-1217.5009 -926.92841 3600.0127 1776920
-1157.5156 -897.02936 3483.8906 1579541
-1115.3323 -880.08795 3418.0933 1908762
-1095.353 -880.36359 3419.1638 1711640
-1113.7081 -912.04266 3542.1992 1711641
-999.50696 -834.29694 3240.25 1777947
-989.04169 -841.7865 3269.3379 1909020
-970.31372 -842.40277 3271.7314 2105886
-960.81812 -851.22357 3305.9897 2172450
-948.35522 -857.72906 3331.2559 1909535
-926.7901 -856.10406 3324.9446 1909535
-943.16614 -890.21954 3457.4424 2304037
-929.24213 -896.6189 3482.2964 2435365
-940.49689 -928.15833 3604.7896 2435365
-915.19116 -924.24652 3589.5969 2369572
-882.83875 -912.86163 3545.3801 2435622
-877.08966 -929.10059 3608.4492 2435622
-873.12 -948.08618 3682.1858 2699051
-845.42236 -941.62036 3657.0737 2633258
-832.58447 -951.80084 3696.6125 2764587
-806.8111 -947.34448 3679.3052 2567722
-778.08466 -939.07593 3647.1914 2370086
-766.38611 -951.47327 3695.3406 2633258
-735.77966 -940.43555 3652.4719 2764844
-708.88654 -933.61682 3625.9893 2830380
-685.58643 -931.25085 3616.8003 2764587
-658.39514 -923.27509 3585.824 2698537
-638.71857 -925.65607 3595.0713 3159345
-612.54535 -918.46075 3567.126 2632744
-594.80536 -923.84772 3588.0479 2895914
-575.18561 -926.60724 3598.7656 2895915
-556.70624 -931.48822 3617.7222 2830120
-526.13531 -915.71661 3556.4683 1119759
-514.34619 -932.68188 3622.3582 2632998
-489.44263 -926.30981 3597.6104 2304033
-466.7326 -923.69659 3587.4609 2435362
-445.65967 -924.22815 3589.5254 2698277
-423.11926 -921.61676 3579.3833 2698277
-398.11554 -913.0791 3546.2249 2698277
-373.51263 -904.55737 3513.1279 2961449
-346.40994 -888.61359 3451.2053 2698274
-325.11865 -886.50812 3443.0281 2829861
-303.72955 -883.83508 3432.6465 2632482
-280.86401 -876.17108 3402.8809 2829861
-261.18564 -878.03162 3410.1069 2764068
-240.42088 -876.24585 3403.1714 2764068
-216.34444 -860.95282 3343.7761 2829861
-200.32802 -877.88568 3409.5403 2566689
-180.69434 -880.995 3421.6162 3027240
-160.91228 -884.078 3433.5901 2632482
-142.81142 -898.63586 3490.1299 2632482
-122.19899 -899.65289 3494.0798 2829861
-103.41628 -917.3161 3562.6804 2829861
-82.63559 -921.79169 3580.0627 2632482
-61.880383 -929.75562 3610.9929 2566689
-40.632992 -934.85754 3630.8081 1842966
-18.689739 -917.36908 3562.8862 2435103
0 0 0 0
22.022045 -853.26514 3313.9187 987913
0 0 0 0
56.833874 -789.45276 3066.0835 4803652
75.45179 -793.53888 3081.9534 3882550
94.060669 -795.95172 3091.3245 4079927
112.05132 -793.19946 3080.635 4211771
130.4659 -793.79974 3082.9666 4212284
148.77426 -793.68555 3082.5232 4146491
166.79924 -792.25049 3076.9495 4014905
185.39651 -793.54865 3081.9912 3949111
203.52184 -792.77478 3078.9858 3949110
221.82793 -792.77478 3078.9858 4146489
239.17946 -789.62347 3066.7466 4014903
256.35519 -786.37921 3054.1465 3685684
274.61166 -786.66016 3055.2375 4145724
282.68771 -759.55237 2949.9563 256
296.84473 -750.99634 2916.7263 65536
311.01559 -743.41791 2887.293 65536
326.427 -739.44232 2871.8528 0
341.69836 -735.56067 2856.7771 0
357.49603 -733.12579 2847.3206 0
373.95459 -732.2052 2843.7451 0
390.16724 -730.90356 2838.6899 0
406.47876 -729.88745 2834.7434 0
422.79868 -728.96674 2831.1675 0
439.07498 -728.04413 2827.5842 0
455.36658 -727.21405 2824.3604 0
471.38742 -726.02594 2819.7458 0
487.44254 -724.97046 2815.6467 0
503.68567 -724.25543 2812.8696 0
520.04724 -723.75116 2810.9111 0
535.89362 -722.58362 2806.3767 0
552.11841 -721.98132 2804.0376 0
568.54883 -721.67554 2802.8499 256
586.50525 -723.26892 2809.0383 0
604.60065 -724.94073 2815.5312 256
623.40826 -727.35339 2824.9016 256
641.28418 -728.58093 2829.6692 658698
654.57385 -724.66833 2814.4734 3225138
668.70038 -721.85425 2803.5439 3423031
691.57623 -728.39203 2828.9355 3488567
713.28705 -733.42151 2848.469 3422774
727.45801 -730.64484 2837.6848 3751739
749.06055 -735.28888 2855.7217 3751739
764.63391 -733.94006 2850.4829 3751229
794.79486 -746.34802 2898.6731 3751482
830.9942 -763.7793 2966.3728 3685689
844.76184 -760.29724 2952.8491 3554101
879.36749 -775.32965 3011.2322 3554101
903.45172 -780.67053 3031.9751 3422514
931.03259 -788.76495 3063.4121 3619379
947.72595 -787.50171 3058.5061 3356463
973.16559 -793.41693 3081.4797 3159084
1012.4334 -810.1792 3146.5813 2566692
1028.7579 -808.30658 3139.3083 3158573
1053.653 -813.1145 3157.9814 3421745
1070.1287 -811.37061 3151.2085 3421745
1089.3801 -811.75513 3152.7019 3422000
1098.0874 -804.40253 3124.1455 2171933
1086.1266 -782.40582 3038.7148 2237725
1126.0292 -797.87823 3098.8066 2040346
1080.7112 -753.43933 2926.2144 2171933
1086.6287 -745.56238 2895.6218 2171933
1086.548 -733.87982 2850.249 2303518
1131.809 -752.71063 2923.3843 2369312
1091.2209 -714.74146 2775.9192 2435105
1100.7595 -710.24695 2758.4634 2171932
1129.238 -717.92572 2788.2864 2500897
1139.9515 -714.25146 2774.0161 2369310
1149.8198 -710.15991 2758.1252 2566689
1161.0212 -706.99512 2745.834 2566689
1176.0673 -706.22693 2742.8506 2632482
1173.1807 -694.85846 2698.6975 2237724
1177.2683 -687.87183 2671.5627 2829350
1184.252 -682.74078 2651.6348 2698277
1181.9054 -672.43616 2611.6135 2829863
1183.1199 -664.3985 2580.397 2632484
1192.8195 -661.27069 2568.249 2764071
1195.3812 -654.31488 2541.2339 3026987
