# .PCD v0.7 - Point Cloud Data file format
VERSION 0.7
FIELDS x y z rgb
SIZE 4 4 4 4
TYPE F F F U
COUNT 1 1 1 1
WIDTH 1324
HEIGHT 1
VIEWPOINT 0 0 0 1 0 0 0
POINTS 1324
DATA ascii
203.30508 -225.04581 3075.7068 3553582
221.11951 -224.5663 3069.1531 3487788
239.14217 -224.35521 3066.2683 3553581
258.04041 -224.9373 3074.2239 3619629
263.13232 -214.20332 2927.5222 3422250
291.46774 -222.54875 3041.5793 3554348
301.20334 -216.54698 2959.553 3356970
322.9502 -219.36647 2998.0872 3356970
337.08817 -216.99297 2965.6482 3356971
353.1499 -216.03223 2952.5178 3554352
368.95749 -215.01439 2938.6069 3422512
384.30325 -213.83159 2922.4417 3685170
401.91592 -213.95793 2924.1682 3685172
418.23831 -213.41537 2916.7534 3750965
432.29828 -211.80754 2894.7791 3553588
447.4967 -210.85928 2881.8188 3422515
462.10553 -209.71335 2866.1577 2567462
473.63617 -207.30171 2833.1975 1909789
490.74625 -207.41383 2834.73 1382934
507.11041 -207.21373 2831.9954 1645849
544.42981 -215.31398 2942.7017 256
557.70917 -213.69835 2920.6206 0
574.51984 -213.49252 2917.8079 0
592.28864 -213.64438 2919.8831 0
610.08405 -213.79691 2921.9678 0
627.27844 -213.73622 2921.1382 0
644.45795 -213.67384 2920.2856 0
660.92804 -213.3857 2916.3477 395266
687.00623 -216.13504 2953.9231 724487
704.17627 -216.01465 2952.2776 1250576
718.47888 -215.04187 2938.9827 1580312
740.15759 -216.27057 2955.7751 1843485
761.45416 -217.33318 2970.2979 1778206
777.50232 -216.88358 2964.1533 1975071
799.37488 -218.0426 2979.9937 2040864
822.25537 -219.42035 2998.8235 2040864
844.05444 -220.45717 3012.9937 2172450
868.89984 -222.23 3037.2229 2040864
890.2077 -223.04434 3048.3525 2106655
925.50476 -227.26125 3105.9851 2369827
935.63586 -225.25446 3078.5583 2172702
955.00714 -225.50659 3082.0042 2567459
979.00085 -226.82018 3099.9568 2961447
1005.2078 -228.58849 3124.1248 2829861
1019.1929 -227.5638 3110.1201 1908759
1060.6733 -232.6053 3179.0225 2764068
1085.9792 -233.98535 3197.8838 2895654
1104.41 -233.86208 3196.1987 2895141
1127.7812 -234.77139 3208.6265 1645073
1140.4456 -233.45871 3190.686 1711121
1132.7709 -228.09351 3117.3596 1645327
1151.5831 -228.14857 3118.1123 1711121
1151.7231 -224.56123 3069.084 1645328
1165.7156 -223.74457 3057.9226 1776914
1171.6208 -221.42461 3026.2156 1908500
1187.5176 -221.03455 3020.8848 1513742
1181.7885 -216.69084 2961.519 1908500
1187.319 -214.50888 2931.6982 2040086
1181.8152 -210.4254 2875.8892 1842707
1188.3966 -208.57948 2850.6611 1908757
1178.4425 -203.92412 2787.0359 2040601
1188.5414 -202.81978 2771.9431 2172187
1192.6039 -200.72966 2743.3772 2171929
1177.9777 -195.59285 2673.1724 2106136
1178.7234 -193.11121 2639.2556 1909012
1165.3159 -188.40652 2574.9565 2106390
1174.2927 -187.39595 2561.145 2304025
1161.7839 -183.02643 2501.4268 2369049
1167.6807 -181.63031 2482.3459 2105877
1164.6996 -178.90533 2445.1038 2303258
1162.2241 -176.32428 2409.8284 2763809
1159.5183 -173.77158 2374.9404 2830118
1159.621 -171.69609 2346.5747 3487794
1171.9197 -171.45427 2343.2698 4014652
1201.5962 -173.73068 2374.3816 4541256
1202.0796 -171.78239 2347.7544 5988704
1223.2373 -172.79936 2361.6533 460551
1224.8182 -171.05916 2337.8699 256
1238.2321 -170.99205 2336.9526 65536
1242.7006 -169.70486 2319.3606 0
1249.7421 -168.79341 2306.9038 65536
1257.2963 -167.97026 2295.6538 0
1268.5867 -167.65858 2291.394 0
1278.9207 -167.22845 2285.5154 0
1289.4794 -166.83646 2280.158 0
1264.1548 -161.85823 2212.1204 0
1276.1588 -161.71272 2210.1318 256
1283.6782 -161.00772 2200.4966 256
0 0 0 0
0 0 0 0
1213.4657 -147.68562 2018.423 5725271
1217.1973 -146.6891 2004.8035 1842970
1225.0967 -146.2093 1998.2463 1250574
1249.8734 -147.73363 2019.0791 3487277
1248.5315 -146.1711 1997.724 3815985
1255.8 -145.6366 1990.4191 3882031
1255.2883 -144.21822 1971.0339 4013616
1271.5664 -144.73717 1978.1266 4276016
1271.5045 -143.40378 1959.903 4144430
1286.1431 -143.73749 1964.4637 4275759
1292.9084 -143.19321 1957.0251 4341552
1312.6713 -144.08531 1969.2174 4078379
1324.7693 -144.12773 1969.7974 4407345
1319.7809 -142.32681 1945.184 4472884
1267.3058 -135.48062 1851.6171 4407090
1337.9513 -141.80115 1937.9998 4406834
0 0 0 0
1241.4155 -129.34215 1767.7224 4538676
1262.0101 -130.38402 1781.9618 4801078
1224.5833 -125.46402 1714.7198 4670005
1251.5454 -127.16772 1738.0044 4604213
1259.5988 -126.93796 1734.8643 4670262
1249.8691 -124.93437 1707.4812 4735800
1226.9431 -121.65462 1662.6567 4867387
1215.525 -119.5592 1634.0187 4209455
1246.6793 -121.65125 1662.6107 4407091
1261.9758 -122.17516 1669.7709 4735799
1271.0532 -122.0935 1668.6548 3551268
1280.8021 -122.07709 1668.4305 4998712
1282.0413 -121.25607 1657.2098 5130296
1295.7732 -121.62016 1662.1857 5195830
1308.1172 -121.84944 1665.3193 4998452
1322.4692 -122.26092 1670.9431 5130039
1330.4874 -122.08507 1668.5397 5261625
1343.2983 -122.34835 1672.1379 5130039
1359.6112 -122.92439 1680.0106 5064246
1374.3488 -123.35062 1685.8359 5063736
1403.7072 -125.07343 1709.3817 4932406
1399.4177 -123.79493 1691.9084 4932406
1423.6981 -125.04398 1708.9792 5129785
1434.4955 -125.0995 1709.7379 4998199
1450.7811 -125.62949 1716.9813 5063992
1470.2565 -126.42635 1727.8722 4998199
1474.4442 -125.90672 1720.7703 5063992
1490.2944 -126.38326 1727.2832 5063992
1500.5442 -126.3816 1727.2605 4998198
1510.6372 -126.36683 1727.0587 4866867
1522.9836 -126.53952 1729.4187 5327418
1522.2513 -125.63049 1716.995 5261625
1529.7467 -125.40807 1713.9553 5195832
1531.2291 -124.69894 1704.2634 5129526
1539.8015 -124.5727 1702.5382 5064246
1543.2249 -124.03427 1695.1794 5327418
1461.4343 -116.69834 1594.9192 5327417
1566.4543 -124.278 1698.5105 5327161
1574.9989 -124.15551 1696.8364 5261371
1577.8918 -123.59189 1689.1334 5195578
1596.0973 -124.22721 1697.8164 4998199
1614.4974 -124.86962 1706.5962 5195578
1622.9165 -124.73682 1704.7814 5063992
1621.178 -123.82985 1692.3856 5261372
1590.5427 -120.74046 1650.1627 4866614
1621.568 -122.34097 1672.0372 4800822
0 0 0 0
0 0 0 0
0 0 0 0
0 0 0 0
0 0 0 0
0 0 0 0
0 0 0 0
0 0 0 0
0 0 0 0
0 0 0 0
0 0 0 0
0 0 0 0
-1495.452 -117.51598 1748.1432 65536
0 0 0 0
0 0 0 0
-1415.7651 -113.6231 1690.2335 2631707
-1417.3276 -114.56167 1704.1954 2895132
-1419.2847 -115.54588 1718.8363 2500375
-1421.8917 -116.59766 1734.4824 2566168
-1420.3192 -117.31959 1745.2216 2697498
-1418.7642 -118.05359 1756.1404 2434582
-1436.697 -120.43205 1791.522 2500375
-1452.84 -122.69489 1825.1835 2368789
-1462.9619 -124.47948 1851.7306 2434581
-1475.6606 -126.51203 1881.9666 2566167
-1476.0369 -127.51114 1896.8291 2434582
-1493.9167 -130.04938 1934.5873 2302996
-1491.9528 -130.88612 1947.0347 2500377
-1512.9417 -133.76534 1989.8651 2237205
-1466.8043 -130.70825 1944.3885 2302999
-1503.7855 -135.06819 2009.2462 2171412
-1492.5028 -135.12823 2010.1394 1842959
-1495.1158 -136.4575 2029.9133 1579530
-1472.5852 -135.4949 2015.5939 1119237
-1456.4186 -135.10687 2009.8215 1184775
-1441.0227 -134.7845 2005.0261 921602
-1431.0804 -134.97112 2007.8021 1118981
-1444.2534 -137.3593 2043.3281 512
-1420.0204 -136.20023 2026.0861 256
-1401.53 -135.57683 2016.8126 256
-1385.3853 -135.17155 2010.7838 256
-1369.8123 -134.81549 2005.4869 256
-1351.7371 -134.20474 1996.4016 0
-1334.6016 -133.67729 1988.5555 256
-1319.8423 -133.38054 1984.1411 256
-1300.7762 -132.63931 1973.1145 197635
-1285.1191 -132.23532 1967.1051 461065
-1273.946 -132.28957 1967.912 132099
-1256.8163 -131.72052 1959.4469 66050
-1246.2986 -131.8403 1961.2286 461064
-1237.8811 -132.1866 1966.3802 132099
-1219.7325 -131.49048 1956.0248 263685
-1208.5828 -131.54268 1956.8014 329478
-1198.7162 -131.73694 1959.6912 0
-1200.0793 -133.18126 1981.1764 256
-1190.1648 -133.39021 1984.2849 256
-1175.1471 -133.02571 1978.8625 263685
-1171.7833 -133.98637 1993.1532 263685
-1160.2849 -134.02701 1993.7578 395271
-1150.4331 -134.26067 1997.2335 461064
-1142.0016 -134.66667 2003.2733 461064
-1129.4055 -134.58498 2002.0579 395528
-1129.288 -136.00436 2023.1725 790543
-1105.8687 -134.61778 2002.546 922129
-1096.683 -134.95256 2007.526 987922
-1087.9102 -135.34605 2013.3795 263942
-1075.5133 -135.29242 2012.5818 856079
-1080.5294 -137.45267 2044.7172 1053715
-1066.4664 -137.20743 2041.0691 395014
-1070.6564 -139.33192 2072.6726 256
-1063.8405 -140.05696 2083.458 0
-1056.6766 -140.75273 2093.8081 0
-1051.8923 -141.78583 2109.1763 0
-1047.0707 -142.83875 2124.8394 0
-1045.5103 -144.36772 2147.584 0
-1037.8774 -145.08565 2158.2637 0
-1032.8773 -146.19417 2174.7539 0
-1028.2339 -147.38191 2192.4226 0
-1020.1875 -148.10614 2203.196 0
-1008.0276 -148.24428 2205.2507 0
-1004.6445 -149.69379 2226.8135 0
-1018.5905 -153.79858 2287.8755 0
-995.63776 -152.36766 2266.5894 0
-987.60797 -153.21255 2279.158 0
-975.47778 -153.436 2282.4819 0
-983.54358 -156.88725 2333.822 0
-972.83069 -157.399 2341.4346 0
-953.3205 -156.48157 2327.7869 0
-942.82239 -157.03818 2336.0669 0
-931.79102 -157.52127 2343.2534 0
-918.11145 -157.56454 2343.8972 256
-902.03815 -157.19205 2338.356 256
-886.90295 -156.97389 2335.1108 256
-882.4328 -158.66644 2360.2888 461056
-915.25171 -167.22685 2487.6316 329472
0 0 0 0
0 0 0 0
-1201.9169 -230.79243 3433.22 461056
-1136.4785 -221.99712 3302.3826 658179
-1108.4653 -220.33163 3277.6072 724485
-1055.5894 -213.57607 3177.113 987657
-1032.6891 -212.74979 3164.8213 987658
-1008.1583 -211.55072 3146.9841 1119246
-988.15002 -211.27321 3142.856 1250832
-966.56604 -210.64162 3133.4607 1448210
-937.43567 -208.30833 3098.7512 1513748
-926.46393 -209.99741 3123.8774 1316369
-912.58441 -211.08302 3140.0269 1185296
-902.05646 -213.00539 3168.6235 1251345
-873.9726 -210.77583 3135.4573 1317138
-857.96649 -211.42532 3145.1191 1514517
-838.62823 -211.26439 3142.7246 1711382
-816.56989 -210.3952 3129.7952 1908761
-786.81714 -207.45679 3086.0835 1645590
-758.23425 -204.69385 3044.9827 1777173
-736.78107 -203.76755 3031.2034 1711893
-715.73181 -202.90933 3018.4368 1580563
-683.39166 -198.72371 2956.1721 1842968
-660.61322 -197.17088 2933.073 256
-646.24109 -198.11095 2947.0569 0
-629.04834 -198.21463 2948.5991 256
-612.41101 -198.50424 2952.9075 256
-596.54498 -199.06836 2961.2993 256
-580.83301 -199.71976 2970.9893 257
-562.29156 -199.40858 2966.3604 256
-554.04626 -202.84686 3017.5076 263943
-537.37244 -203.32617 3024.6377 264455
-515.48053 -201.79593 3001.874 256
-504.7326 -204.67494 3044.7017 2763559
-512.75098 -215.66119 3208.1309 1974042
-544.80902 -237.99803 3540.4089 1974040
-531.84265 -241.67102 3595.0476 1119245
-513.07715 -242.90613 3613.4207 1250574
-491.9939 -243.10393 3616.3633 1579796
-469.54941 -242.61647 3609.1118 1645589
-443.33847 -240.043 3570.8296 1843225
-422.01459 -239.98982 3570.0383 2040349
-397.83075 -238.21848 3543.6882 1843483
-372.57431 -235.57083 3504.3025 1646104
-348.15234 -233.16838 3468.5642 1843483
-325.41034 -231.65941 3446.1169 1646104
-301.41934 -228.99873 3406.5371 1317139
-279.12317 -227.33511 3381.7893 1448725
-255.13683 -223.92975 3331.1321 1514517
-233.19026 -221.89217 3300.8213 1514517
-211.8488 -220.1088 3274.2925 1119760
-195.26875 -223.41216 3323.4324 1119760
-169.95021 -216.33582 3218.1663 461830
-154.43265 -221.52275 3295.3262 256
-133.73091 -219.70018 3268.2139 512
-113.88053 -218.89438 3256.2271 256
-94.557549 -218.97984 3257.4983 256
-74.928642 -218.21838 3246.1709 256
-55.453842 -217.53302 3235.9758 256
-36.131321 -217.03426 3228.5562 65536
-16.902985 -216.61177 3222.2715 65536
2.2476704 -215.90601 3211.7727 65536
21.292887 -215.3965 3204.1934 256
39.766613 -212.31697 3158.3828 256
0 0 0 0
76.202148 -209.2395 3112.603 3553326
94.508018 -208.79742 3106.0266 2500892
112.08596 -207.15451 3081.5872 3356203
130.0359 -206.56421 3072.8059 3422250
148.64507 -207.03749 3079.8462 3421994
167.1638 -207.29483 3083.6746 3553582
185.40184 -207.18764 3082.0798 3553582
203.11478 -206.56567 3072.8279 3619374
220.95355 -206.1638 3066.8494 3356459
238.43121 -205.51193 3057.1526 3422249
256.09439 -205.101 3051.0396 3553835
273.33261 -204.42657 3041.0071 3488812
289.87598 -203.34845 3024.9688 3488812
304.60446 -201.19748 2992.9717 3554861
319.99448 -199.69679 2970.6477 3225641
336.85571 -199.22322 2963.603 3751731
350.7756 -197.14365 2932.6675 3620147
366.5791 -196.2695 2919.6638 3619894
383.35779 -195.97292 2915.252 3685686
399.84546 -195.55963 2909.1042 3751479
415.84314 -194.95096 2900.0498 3619893
430.89618 -193.9655 2885.3901 3488308
446.04938 -193.09888 2872.4985 3620150
468.26038 -195.23886 2904.3325 3094319
479.93765 -192.99088 2870.8918 2567719
491.52444 -190.86215 2839.2253 2238242
504.38589 -189.3533 2816.78 2303779
542.83563 -197.23894 2934.085 256
559.2309 -196.86951 2928.5896 0
576.8537 -196.9415 2929.6606 0
594.41797 -196.98987 2930.3801 0
612.78284 -197.29327 2934.8936 0
630.78198 -197.46538 2937.4536 0
651.34753 -198.40994 2951.5049 526854
671.52075 -199.18861 2963.0881 526853
694.91553 -200.85863 2987.9309 1053196
708.11053 -199.57071 2968.7722 1250577
741.85492 -203.99612 3034.6038 1514519
748.23511 -200.86543 2988.032 1711898
786.28479 -206.18451 3067.1577 1975326
782.23175 -200.47229 2982.1838 1909020
802.23688 -201.04228 2990.6631 2040862
822.96808 -201.76559 3001.4229 1975070
848.05267 -203.50287 3027.2659 1975071
872.23926 -204.95691 3048.896 2040864
893.33331 -205.63985 3059.0554 2238241
915.11499 -206.4507 3071.1172 2304034
936.19446 -207.07448 3080.3965 2304033
953.40186 -206.83429 3076.8235 2830631
979.42157 -208.47894 3101.2891 2699302
1004.9155 -209.95296 3123.2163 2698273
1017.5374 -208.73297 3105.0681 1711378
1064.454 -214.46617 3190.354 2566687
1085.187 -214.81552 3195.5508 2895652
1104.41 -214.85909 3196.1987 2961445
1125.2958 -215.21916 3201.5552 1711121
1117.059 -210.09006 3125.2559 1579535
1142.4469 -211.34929 3143.9878 1645327
1151.573 -209.60803 3118.0852 1645328
1151.5043 -206.2748 3068.5007 1711121
1167.7836 -205.92838 3063.3474 1842707
1175.6106 -204.125 3036.521 1842707
1189.7294 -203.45212 3026.5112 1776914
1180.9076 -198.93475 2959.3115 1711121
1185.9047 -196.84372 2928.2061 2040086
1186.7888 -194.14041 2887.9922 1711121
1198.1453 -193.20288 2874.0457 2040343
1195.3379 -190.03989 2826.9937 1974550
1189.8944 -186.55133 2775.0984 1842964
1195.0895 -184.8033 2749.0952 1974550
1203.5658 -183.60298 2731.2395 1777425
1179.7281 -177.57076 2641.5054 2040597
1202.0757 -178.55745 2656.1831 1975060
1167.5872 -171.18553 2546.52 1843474
1179.4816 -170.71571 2539.5312 2237463
1171.2007 -167.37457 2489.8291 2171670
1172.7406 -165.50278 2461.9846 2434843
1167.8851 -162.78572 2421.5662 2500637
1160.8685 -159.83727 2377.7058 2763300
1160.0205 -157.79889 2347.3833 3224110
1167.4788 -156.92545 2334.3901 3686203
1197.937 -159.12773 2367.1509 4212293
1199.0085 -157.42064 2341.7563 5856863
1219.842 -158.31752 2355.0984 328965
1226.9247 -157.42966 2341.8906 256
1239.2089 -157.22165 2338.7964 0
1241.621 -155.77966 2317.3457 0
1252.8173 -155.45934 2312.5806 0
1261.0061 -154.77681 2302.4275 0
1277.355 -155.09979 2307.2319 0
1279.0763 -153.65862 2285.7935 0
1257.6903 -149.50104 2223.946 0
1266.7618 -149.01274 2216.6824 256
1276.8217 -148.64957 2211.2798 256
1287.416 -148.35539 2206.9038 256
0 0 0 0
0 0 0 0
1212.2593 -135.55019 2016.4163 5593176
1225.9092 -135.73413 2019.1525 1711386
1230.8264 -134.957 2007.5919 1119245
1247.6732 -135.49026 2015.5249 3553325
1236.4156 -132.99045 1978.3381 4013361
1254.9872 -133.71596 1989.1306 4078897
1262.5664 -133.26765 1982.4618 4012846
1274.832 -133.31775 1983.2069 4012844
1275.7445 -132.19052 1966.4384 4209966
1285.1287 -131.95361 1962.9143 4078380
1289.8907 -131.25066 1952.4573 4341552
1314.4021 -132.55186 1971.8138 3946794
1323.3345 -132.27289 1967.6638 4407345
1324.4816 -131.22746 1952.1122 4275249
1263.2123 -124.06979 1845.6362 4341298
1285.328 -125.15476 1861.776 4406834
0 0 0 0
1245.267 -119.20083 1773.2065 4670263
1239.3477 -117.63828 1749.9623 4670263
1231.4902 -115.9193 1724.3914 4670263
1234.5043 -115.2436 1714.3396 4670263
1242.4927 -115.03951 1711.3037 4670263
1235.4622 -113.45947 1687.7993 4670263
1229.2085 -111.97566 1665.7266 5130813
1224.4015 -110.6463 1645.9512 4077869
1246.792 -111.77631 1662.7609 4538677
1260.5737 -112.12283 1667.9158 4538677
1273.4183 -112.38123 1671.7596 3420196
1275.9097 -111.72901 1662.0574 4801335
1287.6223 -111.8881 1664.424 4867126
1295.3282 -111.69927 1661.615 5064503
1309.459 -112.06312 1667.0275 5130039
1322.4692 -112.32635 1670.9431 5393211
1329.6691 -112.09578 1667.5134 5129782
1346.8702 -112.70556 1676.5842 5064246
1359.9802 -112.96653 1680.4666 5063733
1375.6298 -113.43312 1687.4073 4998196
1394.6925 -114.17235 1698.4039 4998453
1404.7903 -114.17235 1698.4039 4998453
1416.566 -114.30774 1700.418 5130039
1426.2568 -114.27417 1699.9186 5327417
1456.3541 -115.86456 1723.577 5327418
1442.9846 -113.99877 1695.8218 5064246
1448.2236 -113.61877 1690.1691 5195832
1463.236 -114.00549 1695.9219 5327418
1481.0885 -114.6067 1704.8652 4998453
1500.4596 -115.31643 1715.4231 5327417
1515.4291 -115.68058 1720.8401 5459004
1526.8331 -115.76951 1722.163 5327162
1527.8523 -115.07508 1711.8328 5261115
1534.0465 -114.77703 1707.399 5129016
1541.4697 -114.57426 1704.3827 5195579
1451.882 -107.21059 1594.8424 5261372
1550.6729 -113.76259 1692.3085 5326908
1576.9169 -114.94215 1709.8552 5129786
1582.413 -114.60392 1704.824 5195579
1623.0927 -116.80192 1737.521 5129785
1642.2903 -117.43599 1746.9532 5063992
1648.871 -117.16556 1742.9304 5195578
1655.9951 -116.93689 1739.5287 5261371
1657.0726 -116.28672 1729.8568 5327164
1558.0166 -108.66093 1616.4174 5195578
1642.241 -113.83286 1693.3538 5327163
0 0 0 0
0 0 0 0
0 0 0 0
0 0 0 0
0 0 0 0
0 0 0 0
0 0 0 0
0 0 0 0
0 0 0 0
0 0 0 0
0 0 0 0
0 0 0 0
-1487.7847 -106.57318 1739.1804 65536
-1468.5217 -105.92956 1728.677 0
0 0 0 0
-1410.2384 -103.1695 1683.6353 2829342
-1416.2871 -104.35271 1702.9442 2566169
-1423.514 -105.64041 1723.9584 2763548
-1428.0682 -106.74699 1742.0168 2566168
-1434.0278 -107.97558 1762.0662 2434582
-1435.3508 -108.87055 1776.6713 2631961
-1431.2516 -109.36446 1784.7317 2697754
-1450.4458 -111.65895 1822.1757 2631962
-1453.2074 -112.71344 1839.3839 2631962
-1487.806 -116.27196 1897.4559 2500376
-1478.1173 -116.39738 1899.5026 2500375
-1483.4709 -117.71838 1921.0602 2302996
-1500.3525 -119.98177 1957.9966 2434582
-1508.9139 -121.60999 1984.5679 2105617
-1511.421 -122.77209 2003.5322 2040080
-1507.0381 -123.38853 2013.592 2039824
-1501.9761 -123.95879 2022.8982 1710859
-1487.5546 -123.75959 2019.6473 1907979
-1476.257 -123.81916 2020.6195 1381893
-1456.2327 -123.14175 2009.5648 1052416
-1440.2756 -122.79993 2003.9866 1249536
-1435.6753 -123.42876 2014.2485 460800
-1434.0542 -124.32646 2028.8982 0
-1420.9797 -124.23802 2027.4548 256
-1402.7743 -123.69561 2018.6033 256
-1387.5779 -123.41145 2013.9662 256
-1370.0546 -122.91361 2005.8418 256
-1352.3224 -122.38811 1997.2661 0
-1336.3419 -122.01324 1991.1484 256
-1319.9015 -121.5893 1984.2301 256
-1300.2563 -120.85983 1972.3258 131843
-1284.7832 -120.50841 1966.5908 329479
-1271.1237 -120.32219 1963.552 329478
-1258.1945 -120.20232 1961.5957 197892
-1251.0498 -120.63798 1968.7053 66050
-1231.6145 -119.8855 1956.4255 131586
-1220.3933 -119.92587 1957.0842 197892
-1217.4269 -120.786 1971.1208 66049
-1207.0002 -120.91548 1973.234 256
-1198.9354 -121.28645 1979.288 256
-1190.2703 -121.60343 1984.4607 132099
-1185.0985 -122.28723 1995.6199 263685
-1162.213 -121.13856 1976.8745 329478
-1158.9705 -122.03472 1991.499 395271
-1150.3281 -122.37495 1997.0513 329478
-1134.3595 -121.93475 1989.8676 526857
-1125.4108 -122.24781 1994.9764 263685
-1115.6979 -122.48366 1998.8252 790029
-1107.8531 -122.93187 2006.1396 987408
-1095.5339 -122.88792 2005.4226 658186
-1080.9106 -122.58172 2000.4255 329478
-1073.6947 -123.11808 2009.1786 724750
-1071.3522 -124.23163 2027.3507 921872
-1065.8588 -125.00099 2039.906 395014
-1073.4622 -127.3417 2078.1042 256
-1064.3397 -127.72968 2084.4358 0
-1058.9148 -128.57578 2098.2432 0
-1062.2484 -130.51817 2129.9414 0
-1052.0323 -130.82253 2134.9082 0
-1040.3053 -130.94412 2136.8926 0
-1036.0001 -132.01448 2154.3599 0
-1031.0747 -133.0316 2170.9583 0
-1027.3514 -134.23158 2190.541 0
-1019.539 -134.92123 2201.7957 0
-1006.8538 -134.9756 2202.6829 0
-1004.6951 -136.46115 2226.9258 0
-997.23242 -137.25635 2239.9026 0
-1014.4877 -141.52122 2309.5017 0
-1002.3235 -141.74283 2313.1179 0
-975.37323 -139.85052 2282.2373 0
-967.91602 -140.73921 2296.7397 0
-959.15106 -141.46046 2308.51 0
-955.48083 -142.96497 2333.062 0
-942.13855 -143.04526 2334.3726 0
-932.27985 -143.66479 2344.4827 0
-904.65442 -141.52371 2309.5422 0
-906.50897 -143.99954 2349.9456 0
-888.35077 -143.3241 2338.9229 256
-880.04565 -144.2421 2353.9038 263168
-886.8374 -147.70418 2410.4019 460544
0 0 0 0
0 0 0 0
-1186.895 -207.75082 3390.3103 723969
-1109.3579 -197.53368 3223.5754 592897
-1108.2898 -200.81281 3277.0879 855558
-1054.0022 -194.39383 3172.3359 1118473
-1027.9927 -193.05141 3150.4287 1316621
-1004.953 -192.22722 3136.9788 1185036
-984.04352 -191.78703 3129.7952 1185037
-945.72064 -187.87064 3065.8831 1185038
-931.0705 -188.5954 3077.7104 1250831
-923.52826 -190.81784 3113.9788 1250831
-915.27887 -192.98212 3149.2979 1316369
-908.12451 -195.47247 3189.9385 1382161
-873.98273 -192.1362 3135.4934 1382162
-858.89679 -192.93503 3148.5295 1514003
-836.04871 -191.98695 3133.0579 1448210
-804.72052 -189.004 3084.3784 1579796
-780.4364 -187.57489 3061.0569 1579796
-753.59967 -185.4494 3026.3706 1514517
-734.81122 -185.24893 3023.0994 1514516
-705.1922 -182.23952 2973.9883 1580566
-681.84937 -180.73895 2949.5002 1580310
0 0 0 0
-645.75653 -180.45381 2944.8472 256
-627.13977 -180.13551 2939.6528 256
-610.1015 -180.26535 2941.7717 260
-593.20197 -180.44507 2944.7043 790290
-578.28754 -181.25789 2957.969 395533
-561.98059 -181.67157 2964.7197 1028
-545.75818 -182.14024 2972.3682 514
-532.65387 -183.71576 2998.0791 256
-516.42957 -184.28697 3007.4009 256
-500.61533 -185.05077 3019.8652 197891
-508.91422 -195.11626 3184.1252 592647
-530.78546 -211.3642 3449.2773 1447955
-529.90997 -219.49614 3581.9834 1118989
-511.97726 -220.94788 3605.6746 1514002
-490.22266 -220.80507 3603.344 1250830
-466.65317 -219.79439 3586.8503 1579794
-441.04218 -217.67929 3552.334 2106138
-416.62091 -215.96817 3524.4102 2040346
-393.92215 -215.01604 3508.8723 1974553
-367.90955 -212.04745 3460.4272 1580311
-346.28854 -211.40822 3449.9956 1777690
-321.13919 -208.39882 3400.885 1646104
-297.54486 -206.06197 3362.7493 1514518
-275.19128 -204.30954 3334.1516 1382677
-253.40813 -202.74144 3308.5618 1448213
-231.75848 -201.02522 3280.5544 1447955
-209.80467 -198.70552 3242.6987 1382162
-188.38684 -196.47531 3206.304 855562
-166.27039 -192.93231 3148.4854 256
-153.70886 -200.98402 3279.8818 256
-133.75043 -200.29826 3268.6912 256
-114.08576 -199.89409 3262.0952 256
-94.643433 -199.79372 3260.457 256
-74.96917 -199.02588 3247.9268 256
-55.490715 -198.42543 3238.1279 256
-36.107746 -197.70981 3226.4497 65536
-16.887033 -197.26746 3219.2307 65536
2.2456226 -196.63112 3208.8464 65536
21.292385 -196.34137 3204.1182 65792
40.04113 -194.87486 3180.1858 256
57.311691 -189.46248 3091.8606 4013620
75.901512 -189.98103 3100.323 3356456
93.638039 -188.57849 3077.4346 2566940
112.59611 -189.6924 3095.6128 3356203
130.86519 -189.49565 3092.4021 3356203
149.23993 -189.48152 3092.1714 3487788
167.54562 -189.39244 3090.7178 3487789
185.57928 -189.0439 3085.0295 3290923
203.30652 -188.47394 3075.7285 3356971
213.61423 -181.68745 2964.979 3554093
238.08173 -187.06105 3052.6714 3488300
254.82388 -186.03351 3035.9028 3554093
271.78674 -185.29239 3023.8083 3619629
288.85449 -184.71028 3014.3091 3817008
305.29541 -183.81879 2999.7605 3619373
320.12515 -182.10916 2971.8611 3554351
334.99615 -180.60063 2947.2429 3554352
349.93393 -179.27626 2925.6306 3620148
363.39951 -177.35883 2894.3396 3751480
380.25781 -177.19574 2891.6782 3751478
397.68115 -177.29868 2893.3579 3751480
422.58609 -180.59029 2947.0742 3817272
429.95352 -176.42363 2879.0781 3817273
446.0401 -176.01677 2872.4385 3554101
463.08496 -176.00415 2872.2327 3751737
480.47012 -176.11717 2874.0769 2436135
495.15775 -175.26759 2860.2126 2370087
506.13248 -173.20384 2826.5339 2633259
546.80011 -181.10741 2955.5132 256
560.6593 -179.91597 2936.0698 0
578.80835 -180.13153 2939.5876 0
597.11176 -180.3811 2943.6604 0
615.56763 -180.66118 2948.2312 256
640.39703 -182.74451 2982.2292 526597
662.0213 -183.82562 2999.8721 658439
679.11151 -183.62402 2996.5823 1250577
698.26587 -183.97662 3002.3362 1250578
722.4552 -185.60515 3028.9124 1382165
741.11902 -185.76944 3031.5935 1711899
755.65405 -184.91559 3017.6592 1777692
773.09467 -184.79585 3015.7053 1580313
788.50323 -184.20685 3006.0933 2040864
809.23425 -184.8598 3016.7488 1975071
827.19019 -184.86423 3016.8213 2040864
848.46564 -185.59459 3028.74 2040864
874.24481 -187.25928 3055.9062 2238243
893.80542 -187.55132 3060.6721 2238240
915.70026 -188.31172 3073.0813 2304034
935.35767 -188.59125 3077.6428 2304033
954.52655 -188.76347 3080.4534 2632996
980.40582 -190.23122 3104.4058 2633251
1002.1815 -190.86319 3114.719 2764836
1040.2589 -194.52054 3174.4038 2040343
1060.0007 -194.68007 3177.0071 2698273
1083.0859 -195.43727 3189.3638 3093031
1105.7921 -196.10118 3200.1982 3027494
1112.5424 -193.96091 3165.2708 1711378
1142.4512 -195.86211 3196.2971 1382413
1149.0961 -193.77802 3162.2864 1776914
1150.9254 -190.96201 3116.3315 1711121
1148.0903 -187.47359 3059.4036 1842451
1160.0669 -186.47485 3043.105 1842707
1175.6046 -186.07045 3036.5056 1513742
1188.6761 -185.29382 3023.8318 1842707
1180.65 -181.30063 2958.6663 1776914
1185.1322 -179.31721 2926.2988 1842707
1199.3951 -178.84967 2918.6689 1645328
1212.4736 -178.22139 2908.416 1842964
1203.1635 -174.36613 2845.5015 1777171
1206.9178 -172.48488 2814.801 1974549
1206.9342 -170.12817 2776.3418 1975061
1201.2157 -167.0376 2725.9062 1974804
1187.5465 -162.93842 2659.0112 1974804
1192.9741 -161.53273 2636.0718 2106390
1180.1799 -157.72818 2573.9849 2040597
1186.9459 -156.60178 2555.6028 2237464
1180.0597 -153.72534 2508.6621 2237465
1175.6031 -151.23331 2467.9941 2303259
1157.098 -147.01772 2399.1995 2500639
1164.5022 -146.15668 2385.1482 2632482
1168.4124 -144.88312 2364.3647 2896427
1176.9419 -144.20583 2353.312 4080701
1202.7533 -145.63704 2376.668 4080960
1196.115 -143.15141 2336.105 5791068
1217.7939 -144.073 2351.1443 197635
1225.3788 -143.32513 2338.9399 256
1238.2344 -143.20363 2336.957 0
1239.6118 -141.77209 2313.5957 0
1258.1987 -142.3186 2322.5142 0
1265.0497 -141.54016 2309.8105 0
1279.9403 -141.6683 2311.9016 0
1276.5469 -139.79144 2281.2732 0
1305.0691 -141.41235 2307.7249 0
1268.2108 -135.98885 2219.218 256
1277.4203 -135.56595 2212.3167 256
1289.2991 -135.43207 2210.1318 256
0 0 0 0
0 0 0 0
1208.593 -123.1879 2010.318 5791066
1220.2457 -123.15767 2009.8246 1447955
1230.3112 -122.96935 2006.7515 1119244
1238.6241 -122.61121 2000.9067 3816241
1248.5591 -122.41889 1997.7684 3882287
1256.8063 -122.06628 1992.0139 4013615
1267.6144 -121.96665 1990.3882 3948079
1279.8257 -122.00263 1990.9753 4078638
1270.1429 -119.96998 1957.8042 4078381
1287.8335 -120.53627 1967.0458 4078125
1271.4664 -117.9334 1924.5691 4275761
1277.4296 -117.4297 1916.3491 4209712
1321.2576 -120.38492 1964.5757 4275505
1318.6149 -119.09133 1943.4656 4407092
1316.3855 -117.85722 1923.3257 4341298
1316.2689 -116.83189 1906.5934 4407091
0 0 0 0
1245.5854 -108.68603 1773.6602 4472884
1219.741 -105.53742 1722.2777 4735541
1230.3719 -105.57098 1722.8254 4736055
1242.1482 -105.70146 1724.9546 4670262
1241.309 -104.76505 1709.6733 4472884
1236.6152 -103.5212 1689.3748 4472884
1231.1205 -102.23087 1668.3176 4670263
1237.0717 -101.90401 1662.9836 4407091
1249.1951 -102.08676 1665.9658 4736056
1256.7556 -101.89667 1662.8638 4538420
1269.2623 -102.10744 1666.3035 3946540
1276.0536 -101.85874 1662.2449 4603956
1287.9644 -102.01937 1664.8662 4998455
1295.6528 -101.84566 1662.0314 5130297
1308.8992 -102.10814 1666.3148 5392957
1323.093 -102.44004 1671.7312 5195578
1333.5291 -102.47823 1672.3541 5129785
1348.8064 -102.88511 1678.9943 5129784
1356.832 -102.73695 1676.5764 5261370
1375.0304 -103.35559 1686.6721 5064245
1394.6925 -104.07449 1698.4039 5064246
1405.6382 -104.13731 1699.429 5064246
1415.1193 -104.09148 1698.6813 5063991
1426.1632 -104.16047 1699.807 5063991
1435.0839 -104.07449 1698.4039 4932662
1445.7526 -104.1156 1699.0748 5064247
1460.6958 -104.46184 1704.725 4998198
1471.5261 -104.51118 1705.5304 5063992
1475.3219 -104.06367 1698.2274 5261624
1484.6121 -104.00716 1697.3052 5130039
1484.304 -103.28352 1685.4961 5261625
1515.2432 -104.72934 1709.0903 5261625
1439.7615 -98.849358 1613.1343 5130039
1532.139 -104.49561 1705.2761 5063477
1543.4065 -104.57208 1706.5242 5195831
1550.0922 -104.33915 1702.7229 5195832
1463.4905 -97.870674 1597.1631 5195831
1614.1458 -107.24982 1750.2225 5261624
1623.0878 -107.15317 1748.6453 5261624
1645.5159 -107.94242 1761.5251 5459004
1664.3872 -108.48984 1770.4585 4932660
1681.3867 -108.90913 1777.301 5195577
1678.5284 -108.04496 1763.1985 4932405
1668.4724 -106.73109 1741.7572 5195576
1675.3015 -106.5069 1738.0986 5063992
1656.8336 -104.68706 1708.4005 5195579
0 0 0 0
0 0 0 0
0 0 0 0
0 0 0 0
0 0 0 0
0 0 0 0
0 0 0 0
0 0 0 0
0 0 0 0
0 0 0 0
0 0 0 0
0 0 0 0
-1484.6971 -96.033188 1735.5712 196608
-1466.521 -95.521408 1726.3219 196608
0 0 0 0
-1409.3209 -93.098846 1682.5399 2434582
-1414.9073 -94.13607 1701.2853 2631958
-1414.7358 -94.802391 1713.3274 2500373
-1428.0206 -96.386627 1741.9587 2631959
-1441.0348 -97.975609 1770.6759 2500372
-1456.7805 -99.775078 1803.1969 2631959
-1448.9269 -99.972916 1806.7723 2368787
-1470.0795 -102.19002 1846.8412 2434583
-1497.3622 -104.86982 1895.2723 2631961
-1487.151 -104.94443 1896.6206 2368789
-1502.5415 -106.84063 1930.8898 2434582
-1498.4409 -107.36939 1940.446 2566168
-1511.9132 -109.1753 1973.0836 2368019
-1516.0212 -110.32799 1993.9155 2170640
-1512.8298 -110.96343 2005.3998 2104847
-1514.4584 -111.96531 2023.5063 2104847
-1493.6282 -111.30955 2011.655 2039054
-1505.4072 -113.09296 2043.8859 1578503
-1480.4755 -112.12507 2026.3936 1512453
-1461.2305 -111.57552 2016.4618 1183746
-1443.0105 -111.09579 2007.7919 1117698
-1432.4717 -111.20435 2009.7539 789504
-1431.2426 -112.04355 2024.9204 0
-1419.23 -112.04565 2024.9584 512
-1401.8881 -111.62345 2017.328 256
-1385.4348 -111.26532 2010.8557 256
-1368.8199 -110.88787 2004.0342 256
-1352.6135 -110.53717 1997.696 256
-1336.0447 -110.15038 1990.7057 256
-1319.2693 -109.73949 1983.2798 256
-1302.1904 -109.2957 1975.2595 329476
-1290.2816 -109.28175 1975.0073 329476
-1275.9606 -109.06133 1971.0238 197893
-1259.0343 -108.61209 1962.905 263685
-1244.5166 -108.36418 1958.4244 263685
-1231.1836 -108.2157 1955.7411 197892
-1221.282 -108.36889 1958.5095 263685
-1217.8342 -109.10319 1971.7803 256
-1207.593 -109.23725 1974.2031 256
-1196.4606 -109.29254 1975.2023 256
-1182.4296 -109.08151 1971.3885 527114
-1172.2393 -109.22412 1973.9658 461064
-1161.6138 -109.32867 1975.8552 461064
-1150.4279 -109.38205 1976.8201 329478
-1142.7841 -109.77679 1983.9541 329478
-1136.1617 -110.27893 1993.0291 263685
-1125.2523 -110.37115 1994.6957 527114
-1114.6725 -110.498 1996.9882 724493
-1105.7334 -110.79198 2002.3011 987408
-1097.1949 -111.13293 2008.463 263685
-1084.9983 -111.10679 2007.9905 658700
-1088.6249 -112.71844 2037.1172 987665
-1074.3625 -112.49324 2033.0474 1185043
-1070.2765 -113.34056 2048.3608 461064
-1072.3787 -114.87029 2076.0068 256
-1064.5416 -115.35856 2084.8313 0
-1056.5667 -115.84321 2093.5901 0
-1055.0126 -117.05182 2115.4329 0
-1053.4934 -118.2935 2137.8733 0
-1041.1548 -118.33578 2138.6375 0
-1039.1503 -119.56819 2160.9104 0
-1033.7311 -120.43365 2176.5515 0
-1027.3521 -121.20779 2190.5422 0
-1020.3604 -121.92863 2203.5696 0
-1010.626 -122.33618 2210.9351 0
-1004.4265 -123.18803 2226.3303 0
-996.75531 -123.87973 2238.8311 0
-1010.1696 -127.24617 2299.6716 0
-989.38074 -126.33749 2283.2493 0
-975.58252 -126.30859 2282.7271 0
-970.75677 -127.45692 2303.4805 0
-964.51483 -128.44954 2321.4197 0
-953.69678 -128.85271 2328.7058 0
-938.28424 -128.63783 2324.8225 0
-931.9624 -129.6815 2343.6843 0
-921.53021 -130.17622 2352.6252 0
-903.42957 -129.58624 2341.9629 65536
-894.09106 -130.25429 2354.0361 65536
-872.9386 -129.19511 2334.894 131584
-880.8194 -132.46809 2394.0454 394496
0 0 0 0
0 0 0 0
0 0 0 0
-1066.0261 -171.40082 3097.6616 592898
-1064.1605 -174.10886 3146.6028 856326
-1051.7803 -175.1627 3165.6487 921863
-1060.6915 -179.8654 3250.6389 1185035
-1004.0156 -173.41441 3134.0525 987657
-982.22662 -172.85909 3124.0164 1185036
-940.77557 -168.75539 3049.8518 1514003
-921.10675 -168.47446 3044.7747 1382417
-927.20825 -172.99026 3126.387 1382417
-913.07745 -173.83885 3141.7234 1250576
-891.92468 -173.35806 3133.0342 1382161
-869.70605 -172.64517 3120.1504 1447954
-864.24451 -175.30016 3168.1328 1711383
-839.42383 -174.05923 3145.7061 1579796
-804.72052 -170.66583 3084.3784 1514003
-779.29071 -169.12674 3056.563 1777173
-754.3949 -167.63283 3029.5642 1711637
-726.91931 -165.47858 2990.6311 1382931
-702.12616 -163.84221 2961.0579 1711639
-692.30731 -165.70584 2994.7385 1711127
-672.72754 -165.2699 2986.8599 329219
-646.24609 -163.06877 2947.0798 2
-627.63086 -162.7852 2941.9548 4
-610.63129 -162.91641 2944.3262 8
-591.09839 -162.35951 2934.2617 526351
-577.72992 -163.51347 2955.1167 66566
-561.13947 -163.79932 2960.2825 771
-547.43201 -164.97244 2981.4841 513
-531.38519 -165.49554 2990.938 256
-516.27472 -166.35658 3006.499 256
-499.45044 -166.70734 3012.8381 256
-492.33609 -170.44574 3080.4009 921353
-546.25494 -196.41896 3549.8052 1382161
-529.3609 -197.99411 3578.272 1382159
-512.3399 -199.65167 3608.2285 1250829
-488.71539 -198.76834 3592.2646 1185036
-467.06512 -198.64398 3590.0168 1579794
-434.63919 -193.70531 3500.762 1777175
-414.74197 -194.13432 3508.5154 1777175
-390.65668 -192.5446 3479.7849 1974299
-366.72638 -190.85773 3449.2988 1776663
-342.99149 -189.07874 3417.1477 1777690
-318.07388 -186.38269 3368.4233 1448725
-308.13184 -192.68925 3482.3994 1448724
-272.40497 -182.61842 3300.3931 1448725
-251.5372 -181.7188 3284.1345 1382932
-232.23419 -181.8933 3287.2881 1317139
-208.23906 -178.08713 3218.5007 1382675
-188.38684 -177.41225 3206.304 987404
-170.27055 -178.40427 3224.2322 256
-155.90881 -184.08096 3326.825 256
-133.44666 -180.45349 3261.2671 256
-114.27713 -180.80208 3267.5669 256
-94.593452 -180.31339 3258.7351 256
-74.994392 -179.77579 3249.0193 256
-55.468422 -179.10114 3236.8267 256
-36.113026 -178.55307 3226.9214 65536
-16.878368 -178.0361 3217.5786 65536
2.246408 -177.61505 3209.969 65536
21.310276 -177.44028 3206.8103 256
39.976898 -175.6848 3175.0842 256
57.453014 -171.50171 3099.4849 4014133
76.006172 -171.78462 3104.5981 3553582
93.799988 -170.57611 3082.7571 2500895
112.85562 -171.68225 3102.7478 3421999
131.2448 -171.60616 3101.3726 3553583
149.63797 -171.55338 3100.4187 3356204
168.11005 -171.59273 3101.1299 3487789
186.78523 -171.81113 3105.0769 3224872
204.72903 -171.37799 3097.249 3290921
221.1277 -169.82965 3069.2666 3291178
230.85965 -163.78758 2960.0703 3488557
254.04918 -167.47289 3026.6733 3554349
271.08847 -166.88448 3016.0393 3620141
287.21024 -165.83929 2997.1504 3554092
302.12027 -164.25746 2968.5625 3553836
318.75089 -163.73405 2959.103 3422764
335.00183 -163.08057 2947.2927 3620402
348.4382 -161.19 2913.1255 3686197
373.46265 -164.58536 2974.4885 3619894
377.70383 -158.92862 2872.2563 3685686
396.05524 -159.44167 2881.5283 3751480
412.48492 -159.17061 2876.6296 3817273
429.37766 -159.09271 2875.2219 3685687
447.14413 -159.33212 2879.5486 3817273
463.67651 -159.13034 2875.9019 3817530
487.11496 -161.22873 2913.8252 3225394
497.59378 -159.04082 2874.2839 2567209
513.62378 -158.71356 2868.3696 2895917
546.51599 -163.45044 2953.9773 0
561.60626 -162.73396 2941.0288 0
580.21545 -163.04964 2946.7339 0
599.78125 -163.60774 2956.8203 256
621.01459 -164.57599 2974.3191 329217
642.76001 -165.62256 2993.2334 855305
668.27435 -167.55772 3028.2068 1118990
686.46021 -167.60208 3029.0085 987660
708.28894 -168.51086 3045.4326 1185041
725.711 -168.35205 3042.5625 1579799
743.875 -168.36891 3042.8669 1712154
762.06494 -168.39069 3043.2607 1580568
782.672 -168.93318 3053.0649 1711899
794.45447 -167.58954 3028.7817 1975071
814.15356 -167.93846 3035.0876 2106657
834.97693 -168.4991 3045.22 2106657
855.10657 -168.89893 3052.4458 1909278
875.84509 -169.39992 3061.5 2106657
893.76666 -169.34676 3060.5393 2106655
916.83148 -170.25078 3076.8774 2040605
936.11084 -170.43027 3080.1213 2369570
953.83929 -170.32591 3078.2354 2895655
980.22302 -171.74194 3103.8267 2829861
1003.2564 -172.5295 3118.0598 2895653
1016.1431 -171.5752 3100.8132 2369309
1050.8663 -174.27631 3149.6292 2566688
1081.3289 -176.18861 3184.1897 2829602
1100.9634 -176.30118 3186.2241 2829601
1115.7572 -175.64789 3174.4172 1777171
1142.0063 -176.78967 3195.0525 1579535
1145.4618 -174.42326 3152.2849 1645329
1151.0129 -172.44698 3116.5686 1711121
1151.377 -169.76851 3068.1614 1645329
1167.4656 -169.45599 3062.5134 1776913
1172.0356 -167.50684 3027.2871 1974293
1175.5992 -165.47498 2990.5662 1908500
1186.322 -164.49635 2972.8799 1776914
1187.8567 -162.29115 2933.0261 1842707
1199.3951 -161.49673 2918.6689 1974293
1208.5021 -160.40228 2898.8892 1974549
1213.0222 -158.73834 2868.8174 1975061
1216.1244 -156.93756 2836.2727 1909012
1218.2437 -155.06093 2802.3572 1711888
1211.275 -152.09384 2748.7339 2106646
1195.8619 -148.15952 2677.6304 2040597
1193.8965 -145.97276 2638.1099 2237720
1192.2152 -143.877 2600.2339 2303769
1187.9161 -141.52303 2557.6917 2171670
1191.83 -140.19464 2533.6843 2303256
1182.3658 -137.34543 2482.1914 2105879
1179.4907 -135.32239 2445.6299 2434843
1169.8848 -132.58583 2396.1731 2895141
1177.7842 -131.87515 2383.3293 2632481
1181.4554 -130.71359 2362.3369 3948858
1215.8292 -132.93626 2402.5063 4014909
1190.986 -128.70784 2326.0876 5725271
1215.957 -129.89804 2347.5977 197635
1225.0942 -129.38893 2338.3967 0
1238.254 -129.31131 2336.9941 0
1246.799 -128.75887 2327.0098 0
1256.7169 -128.35876 2319.7788 0
1268.37 -128.14264 2315.873 65536
1284.6306 -128.39166 2320.3735 0
1294.2928 -127.98293 2312.9866 0
1269.2028 -124.18251 2244.3032 0
1276.4081 -123.5882 2233.5623 256
1283.1093 -122.95779 2222.1692 256
1294.8503 -122.81828 2219.6479 256
0 0 0 0
0 0 0 0
1198.3494 -110.29276 1993.2791 5725529
1227.0559 -111.82891 2021.0413 1053712
1231.2833 -111.12596 2008.3372 856073
1239.536 -110.79633 2002.3798 3487791
1250.2715 -110.69277 2000.5082 3750703
1260.6243 -110.55761 1998.0654 3684653
1268.0688 -110.17229 1991.1017 3947568
1280.6643 -110.23748 1992.2799 4079152
1266.093 -107.98444 1951.5615 3881260
1297.472 -109.65582 1981.7677 4078639
1278.217 -107.05627 1934.7872 4143663
1313.0311 -108.99125 1969.7573 4209456
1283.4971 -105.59785 1908.4297 4275249
1323.1521 -107.90649 1950.1527 4209455
1324.1383 -107.04886 1934.6531 4275505
1313.1622 -105.24725 1902.0934 4275505
1254.1639 -99.660385 1801.1241 4407091
1263.7689 -99.573433 1799.5526 4472883
1250.619 -97.710106 1765.8776 4538674
1223.6117 -94.804161 1713.3594 4538930
1233.2827 -94.764534 1712.6433 4407602
1231.5709 -93.858063 1696.261 4736569
1240.1025 -93.740631 1694.1387 4341811
1233.1306 -92.462601 1671.0414 4736570
1234.4491 -91.821678 1659.4581 3815465
1247.0457 -92.023148 1663.0992 4012846
1257.9359 -92.096535 1664.4255 4341811
1274.7909 -92.602058 1673.5616 3947052
1285.7748 -92.676559 1674.9081 3552549
1278.3944 -91.436432 1652.4957 4999481
1292.3633 -91.730568 1657.8116 4867380
1308.1835 -92.150658 1665.4037 4932917
1318.0851 -92.150658 1665.4037 5063990
1333.5291 -92.53524 1672.3541 4998454
1351.0272 -93.055634 1681.7589 5327418
1368.5146 -93.567627 1691.0121 5064246
1376.6074 -93.434517 1688.6064 5130038
1386.7328 -93.440308 1688.7111 5195832
1396.946 -93.451874 1688.92 5195578
1410.9255 -93.71344 1693.6472 5195578
1423.4795 -93.877289 1696.6084 5195577
1427.7004 -93.493141 1689.6658 4998457
1434.9308 -93.310051 1686.3569 4998457
1423.2405 -91.907661 1661.0122 5129786
1433.116 -91.907661 1661.0122 5195578
1468.8207 -93.552788 1690.7438 5129530
1464.9899 -92.674553 1674.8718 5195832
1500.6541 -94.289734 1704.0624 5064246
1514.8468 -94.543198 1708.6432 5327418
1522.2958 -94.375206 1705.6072 5130040
1529.8955 -94.218727 1702.7791 5195831
1444.7563 -88.390511 1597.448 5064245
1550.5789 -94.245201 1703.2576 5130038
1584.0248 -95.653358 1728.7067 4932659
1630.6863 -97.836266 1768.1575 5064245
1536.7686 -91.610886 1655.6487 4998453
1665.6366 -98.661095 1783.0643 5195831
1681.8636 -98.992226 1789.0487 5261625
1524.6189 -89.173035 1611.5903 5130038
1696.1394 -98.585487 1781.6979 5195832
1549.8174 -89.521645 1617.8905 5195321
1537.687 -88.273087 1595.3258 5129528
1576.691 -89.957275 1625.7635 4998199
0 0 0 0
0 0 0 0
0 0 0 0
0 0 0 0
0 0 0 0
0 0 0 0
0 0 0 0
0 0 0 0
0 0 0 0
0 0 0 0
0 0 0 0
0 0 0 0
-1479.09 -85.39064 1729.0165 0
-1460.5968 -84.913155 1719.3481 131072
0 0 0 0
-1402.4216 -82.688522 1674.3031 2631191
-1411.1941 -83.800583 1696.8204 2697238
-1428.3644 -85.430931 1729.8323 2566166
-1428.0206 -86.029816 1741.9587 2566166
-1426.7955 -86.583969 1753.1794 2500373
-1419.6487 -86.784271 1757.2352 2237201
-1437.998 -88.557709 1793.1443 2434580
-1479.0343 -91.765213 1858.0909 2302997
-1507.825 -94.255524 1908.5155 2434582
-1502.4532 -94.631889 1916.1361 2434582
-1513.2916 -96.042793 1944.7046 2499605
-1523.2147 -97.416878 1972.5275 2433812
-1520.5312 -97.999779 1984.3303 2302225
-1515.7678 -98.456696 1993.5822 2368019
-1515.0125 -99.18322 2008.293 2039054
-1511.5248 -99.740982 2019.5868 2039054
-1497.2494 -99.590126 2016.5322 1841675
-1486.068 -99.644302 2017.629 1578502
-1470.9299 -99.4319 2013.3282 1316101
-1456.8849 -99.290482 2010.465 1052929
-1444.6605 -99.271858 2010.0876 1052932
-1432.0709 -99.227615 2009.1918 789760
-1431.8633 -100.04777 2025.7987 66048
-1418.824 -99.977669 2024.379 256
-1402.3468 -99.662033 2017.988 256
-1387.8508 -99.482971 2014.3623 256
-1370.7046 -99.109169 2006.7935 256
-1352.6289 -98.660995 1997.7188 256
-1336.0632 -98.316002 1990.7333 256
-1321.6534 -98.124908 1986.8639 256
-1305.3073 -97.785301 1979.9874 512
-1290.3066 -97.541229 1975.0455 197634
-1279.3453 -97.600838 1976.2524 197892
-1264.3149 -97.348251 1971.1379 263685
-1252.608 -97.349213 1971.1575 263685
-1235.1354 -96.897873 1962.0186 513
-1221.6936 -96.757164 1959.1694 0
-1217.6077 -97.361862 1971.4136 256
-1207.5432 -97.495605 1974.1217 256
-1195.1093 -97.438797 1972.9713 131843
-1177.3383 -96.941414 1962.9001 263685
-1175.9086 -97.793068 1980.1447 395271
-1159.8953 -97.436859 1972.932 197892
-1151.0144 -97.67865 1977.828 263685
-1142.2959 -97.939362 1983.1068 263685
-1137.3995 -98.536629 1995.2004 724236
-1121.5122 -98.18425 1988.0656 724236
-1116.4189 -98.779427 2000.1169 1053458
-1100.7887 -98.445084 1993.347 592907
-1091.4509 -98.67234 1997.9485 922129
-1086.2388 -99.281662 2010.2861 987922
-1078.8805 -99.706215 2018.8828 1119508
-1072.4161 -100.22385 2029.364 724750
-1073.6884 -101.48454 2054.8909 257
-1071.9871 -102.48994 2075.2485 256
-1064.6815 -102.97674 2085.1052 0
-1056.5143 -103.39066 2093.4866 0
-1063.679 -105.33271 2132.8098 0
-1053.0071 -105.53403 2136.8862 0
-1041.4191 -105.64733 2139.1804 0
-1037.1704 -106.51719 2156.7935 0
-1046.4227 -108.81271 2203.2739 0
-1029.5454 -108.4149 2195.219 0
-1020.9128 -108.88622 2204.7625 0
-1009.913 -109.11404 2209.3752 0
-1003.6927 -109.87106 2224.7039 0
-997.3186 -110.63125 2240.0962 0
-990.98724 -111.41681 2256.0024 0
-1002.524 -114.26041 2313.5806 0
-975.98163 -112.78277 2283.6609 0
-966.21075 -113.22887 2292.6936 0
-965.93811 -114.81673 2324.8452 0
-959.85101 -115.74953 2343.7329 0
-946.75452 -115.8521 2345.8096 0
-925.21014 -114.90852 2326.7039 0
-918.0387 -115.74849 2343.7117 0
-903.69574 -115.6962 2342.6528 65536
-890.65466 -115.81155 2344.9885 65536
-873.26471 -115.35611 2335.7666 65792
-870.18048 -116.80622 2365.1289 328960
0 0 0 0
0 0 0 0
0 0 0 0
-1022.3168 -146.71104 2970.6511 461057
-1023.4567 -149.45671 3026.2463 855815
-1044.4347 -155.24947 3143.5398 921864
-1030.0406 -155.89966 3156.7051 856071
-1003.7715 -154.74329 3133.2908 1185036
-983.14362 -154.42931 3126.9331 1119245
-964.01233 -154.34283 3125.1821 1185037
-955.9538 -156.06059 3159.9639 1250831
-919.62946 -153.1403 3100.833 1250576
-909.59741 -154.56837 3129.749 1381906
-905.60211 -157.10338 3181.0784 1316369
-878.7486 -155.69649 3152.5913 1316369
-853.80432 -154.57393 3129.8613 1316369
-826.83679 -153.0269 3098.5366 1579541
-796.19794 -150.7144 3051.7124 1579541
-776.44531 -150.40279 3045.4028 1579541
-752.69916 -149.28426 3022.7544 1711127
-730.56787 -148.4391 3005.6416 1710870
-705.37683 -146.91432 2974.7671 1645590
-679.03021 -145.06419 2937.3054 1776920
0 0 0 0
-643.96582 -145.03336 2936.6809 0
-628.36377 -145.46349 2945.3904 0
-611.0528 -145.51129 2946.3584 1
-594.37469 -145.7171 2950.5256 131844
-576.08789 -145.52905 2946.7178 258
-562.19086 -146.47289 2965.8289 256
-547.1192 -147.16193 2979.7808 256
-531.75848 -147.81671 2993.0391 256
-516.89734 -148.66052 3010.125 256
-498.93338 -148.64047 3009.719 132097
-553.32135 -170.9756 3461.9675 1448209
-542.70984 -174.17587 3526.7676 1448208
-537.6156 -179.4752 3634.0703 790278
-511.61441 -177.94662 3603.1191 1250830
-486.63062 -176.65376 3576.9409 1382415
-463.80463 -176.06187 3564.9558 1514001
-436.36395 -173.57761 3514.6538 1908759
-414.25436 -173.07074 3504.3906 1842966
-389.10492 -171.1729 3465.9626 1579794
-363.55539 -168.87695 3419.4736 1711381
-339.94885 -167.26503 3386.8347 1579797
-317.64603 -166.13199 3363.8926 1514518
-292.76526 -163.40778 3308.7319 1448725
-271.24576 -162.30232 3286.3484 1382931
-251.96005 -162.46564 3289.6553 1251603
-233.60501 -163.30704 3306.6921 1383189
-213.83528 -163.22324 3304.9951 1185553
-188.11716 -158.12251 3201.7141 329733
-172.33324 -161.16359 3263.291 256
-153.45711 -161.71765 3274.5098 256
-133.33919 -160.93393 3258.6406 256
-114.10578 -161.1328 3262.6675 256
-94.694931 -161.11124 3262.231 256
-74.958763 -160.38252 3247.4756 256
-55.489834 -159.91832 3238.0764 0
-36.161137 -159.57973 3231.2202 65536
-16.91604 -159.26068 3224.7603 65536
2.2464797 -158.53525 3210.0713 65792
21.319294 -158.44121 3208.1672 256
39.925365 -156.60521 3170.9915 65792
57.85564 -154.14645 3121.2058 4079927
75.883591 -153.07896 3099.5908 3487789
93.975502 -152.53247 3088.5254 2172699
112.52853 -152.79074 3093.7549 3028008
131.27495 -153.20215 3102.0852 3356973
149.43497 -152.91214 3096.2129 3291180
167.60403 -152.69397 3091.7954 3356460
186.02415 -152.72505 3092.4248 3291179
204.84854 -153.0526 3099.0571 3356971
221.1277 -151.58134 3069.2666 3356971
238.52536 -151.04268 3058.3596 3225385
253.49339 -149.15077 3020.0518 3225385
270.23959 -148.48621 3006.5952 3554350
288.15494 -148.50662 3007.0088 3554350
301.84726 -146.4754 2965.8799 3224871
320.29971 -146.85081 2973.4812 3488043
331.64468 -144.09877 2917.7571 3685168
348.67828 -143.96915 2915.1326 3750964
362.79965 -142.70631 2889.562 3554101
377.70383 -141.85164 2872.2563 3751479
395.01208 -141.93472 2873.9387 3751479
412.82224 -142.18381 2878.9822 3751479
429.60364 -142.07283 2876.7351 3751481
447.29172 -142.2587 2880.4988 3619894
465.01007 -142.44017 2884.1731 3619895
492.68832 -145.55107 2947.1638 3422517
500.83215 -142.87561 2892.99 2764588
517.2431 -142.65791 2888.582 2830124
543.1947 -145.00099 2936.0256 0
561.28186 -145.16418 2939.3301 0
580.65442 -145.63995 2948.9634 0
602.18756 -146.61386 2968.6833 395010
625.41931 -147.93405 2995.415 526853
648.00848 -149.03339 3017.6748 987147
669.38782 -149.80272 3033.2524 922381
690.9682 -150.57552 3048.9001 1053967
713.42999 -151.49594 3067.5374 1514519
728.8609 -150.91472 3055.7686 1646105
747.1463 -150.93842 3056.2485 1514520
765.0683 -150.88933 3055.2544 1646362
786.07153 -151.43611 3066.3259 2106657
802.5871 -151.11316 3059.7866 2238243
822.67053 -151.4614 3066.8379 2238243
838.58661 -151.04393 3058.3848 2172450
858.74176 -151.39148 3065.4224 2304036
880.13812 -151.93887 3076.5061 2172450
896.79016 -151.66164 3070.8926 2435620
915.98694 -151.81725 3074.0432 2304291
933.85406 -151.7507 3072.6958 2698278
956.43182 -152.43747 3086.6018 2764070
988.7876 -154.62749 3130.946 2698275
1023.0528 -157.02965 3179.5857 2698275
