# .PCD v0.7 - Point Cloud Data file format
VERSION 0.7
FIELDS x y z rgb
SIZE 4 4 4 4
TYPE F F F U
COUNT 1 1 1 1
WIDTH 1435
HEIGHT 1
VIEWPOINT 0 0 0 1 0 0 0
POINTS 1435
DATA ascii
-568.11627 343.88727 3094.1372 0
-550.56274 344.4144 3098.8801 0
-522.77869 338.35654 3044.3743 65536
-519.16077 348.06613 3131.7368 0
-504.31046 350.68735 3155.321 65536
-471.59146 340.60544 3064.6089 65792
-478.73337 359.65964 3236.0496 65792
0 0 0 0
0 0 0 0
0 0 0 0
0 0 0 0
0 0 0 0
0 0 0 0
0 0 0 0
0 0 0 0
0 0 0 0
0 0 0 0
0 0 0 0
0 0 0 0
0 0 0 0
0 0 0 0
0 0 0 0
0 0 0 0
-69.718994 165.34341 1487.6829 262
-60.768784 165.05768 1485.1121 260
-51.976494 165.17665 1486.1825 259
-43.392666 166.14255 1494.8732 5462621
-34.260376 164.96513 1484.2793 5332061
-25.515823 165.48543 1488.9607 5200475
-16.697292 165.82387 1492.0059 5266012
-7.7976089 165.21014 1486.4838 5002070
1.0385039 164.92894 1483.9536 259
9.9426908 166.28943 1496.1947 4
18.844851 166.34717 1496.7142 1119254
27.658979 165.84004 1492.1512 5264986
36.650444 166.38429 1497.0482 5265755
45.609669 166.59808 1498.9718 5199962
54.534145 166.63579 1499.3112 5134168
63.857643 167.71088 1508.9843 592908
72.747017 167.52138 1507.2793 256
81.256615 166.59483 1498.9426 0
90.184998 166.6252 1499.2157 256
99.722031 167.67346 1508.6476 1645849
107.91323 166.47256 1497.8425 3356467
0 0 0 0
0 0 0 0
228.44385 282.47629 2541.5898 2369308
242.84937 281.65805 2534.2278 2369562
267.3775 291.98981 2627.188 2369049
287.83163 296.9776 2672.0659 2435097
308.25543 301.41394 2711.9822 2435354
323.79218 300.86823 2707.0718 2303768
345.55365 305.88428 2752.2041 2237976
364.99084 308.48233 2775.5801 2237976
375.56326 303.68744 2732.4377 2369562
399.56848 309.70172 2786.5518 2501147
418.92413 311.77682 2805.2224 2566430
439.02655 314.22748 2827.2722 2632223
454.81625 313.52444 2820.9468 2632479
486.22134 323.25299 2908.4795 2632223
492.78748 316.36682 2846.521 2632223
499.4248 309.98212 2789.0745 2698016
519.01459 311.78876 2805.3296 1907992
571.75299 332.77625 2994.1655 658182
582.09937 328.56802 2956.3018 986889
614.84033 336.87668 3031.0591 1776660
641.56348 341.50879 3072.7368 2040087
668.9895 346.24823 3115.3801 2105878
696.30878 350.67853 3155.2417 2171671
717.68109 351.9599 3166.7708 2303258
734.70825 351.0993 3159.0276 2237721
748.73785 348.88483 3139.103 2500637
781.22528 355.16965 3195.6506 2303515
797.37561 353.90494 3184.2715 2500894
816.30774 353.905 3184.272 2435356
837.36285 354.80457 3192.366 2369563
853.34503 353.56238 3181.1895 2237975
868.52533 352.04907 3167.5732 2435611
883.37335 350.46817 3153.3491 2501148
893.96619 347.29984 3124.842 2501147
910.31549 346.45135 3117.2078 2237975
922.84479 344.21191 3097.0583 2172182
939.42529 343.54156 3091.0269 1974805
956.4165 343.04425 3086.5522 1974551
975.23206 343.20773 3088.0232 1908501
993.73749 343.25803 3088.4756 1777171
1018.4124 345.39893 3107.7383 1579792
1055.3998 351.56491 3163.217 724229
1084.4747 354.92545 3193.4534 1645327
1092.9678 351.55017 3163.0845 2434842
1118.3574 353.63193 3181.8152 1974291
1136.6562 353.43954 3180.0842 1447948
1149.2826 351.51849 3162.7996 1513741
1143.1075 344.00131 3095.1633 1711121
1142.1671 338.27261 3043.6191 1513742
1150.4635 335.41559 3017.9131 1447949
1141.6428 327.73251 2948.7844 1382156
1145.5259 323.8736 2914.0635 1513742
1142.5106 318.20831 2863.0901 1447949
1145.8711 314.45908 2829.3562 1447949
1136.8911 307.48077 2766.5686 1447949
1143.7076 304.91284 2743.4636 1513742
1154.5076 303.4642 2730.4294 1382156
1152.9647 298.85641 2688.9705 1382156
1160.395 296.6687 2669.2866 1513742
1158.9744 292.30771 2630.0483 1447949
1154.8096 287.37994 2585.7107 1711121
1161.5945 285.27075 2566.7332 1842707
1174.7369 284.75732 2562.1138 1711121
1178.9844 282.12851 2538.4607 1710867
1175.687 277.78351 2499.3665 1842453
1181.9556 275.77893 2481.3301 1710867
1185.474 273.19 2458.0361 1579281
1196.0303 272.26624 2449.7246 1644819
1189.9496 267.62299 2407.9468 1316624
1182.3455 262.75162 2364.1165 856073
1180.9882 259.36661 2333.6597 526598
1173.3524 254.69734 2291.6479 395012
1171.9863 251.48062 2262.7053 197634
1163.7573 246.881 2221.3201 592646
1168.4048 245.08556 2205.1655 1250576
1167.9764 242.27708 2179.8962 2106141
1170.8811 240.21405 2161.334 2500386
1171.3488 237.70126 2138.7251 2303006
1180.907 237.06741 2133.022 2105628
1184.8098 235.32372 2117.333 2500386
1191.8585 234.235 2107.5371 2434593
1187.1499 230.88226 2077.3708 2303006
1191.7303 229.38657 2063.9133 2237214
1197.9742 228.23831 2053.5818 1645078
1206.0076 227.45067 2046.495 1118734
1207.5881 225.47394 2028.7094 987148
1209.1313 223.5294 2011.2134 855562
1217.7638 222.92072 2005.7366 986893
1220.0201 221.16794 1989.9658 986637
1225.4769 220.02345 1979.6683 855307
1222.2942 217.36432 1955.7428 789769
1224.1449 215.64203 1940.2463 723975
1225.4551 213.85753 1924.1902 855561
1235.0468 213.5379 1921.3145 592390
1222.6122 209.45073 1884.54 592389
1225.5331 208.04453 1871.8876 328706
1233.1555 207.45457 1866.5795 526084
1230.1422 205.10184 1845.4106 197377
1232.8114 203.72977 1833.0653 262912
1225.8499 200.80414 1806.7419 262912
1224.5109 198.84236 1789.0908 394498
1226.3947 197.43321 1776.412 722949
1212.3302 193.50258 1741.046 657410
1216.6592 192.54948 1732.4705 986888
1221.318 191.66414 1724.5045 1776145
1216.0848 189.25409 1702.8199 2302744
0 0 0 0
1212.0281 185.53355 1669.3444 2894881
1211.6892 183.97514 1655.3225 3026211
1220.4493 183.81226 1653.8569 2762783
1212.5099 181.15694 1629.9656 3354406
1213.7811 179.90894 1618.7367 2170130
1231.6823 181.12611 1629.6882 3157278
1244.3665 181.5631 1633.62 3223069
1250.3137 181.01794 1628.715 3354655
1261.2119 181.19243 1630.285 3748896
1266.0129 180.49503 1624.01 4340778
1272.6733 180.07123 1620.1969 5327672
1271.24 178.51723 1606.2147 5327416
1271.718 177.25281 1594.838 5656381
1278.9401 176.94012 1592.0248 6182725
1263.7637 173.556 1561.5759 5392694
1268.7068 172.96416 1556.2509 5524280
1285.4008 173.9713 1565.3126 5392951
1276.6431 171.54399 1543.4728 5392951
1281.4421 170.95998 1538.218 5392438
1281.6571 169.77696 1527.574 5392438
1282.0256 168.63083 1517.2615 5457717
1284.1908 167.73535 1509.2045 5326645
1286.687 166.89526 1501.6458 5261364
1295.6151 166.89526 1501.6458 5327155
1304.7434 166.9209 1501.8763 5327156
1310.2627 166.48758 1497.9777 5392949
1315.6669 166.04559 1494.0009 5392692
1319.6947 165.43701 1488.525 5458742
1320.1344 164.38971 1479.1019 5524535
1334.7272 165.10704 1485.556 5458741
1331.6409 163.64236 1472.3777 5327156
1349.9082 164.8038 1482.8278 5524535
1356.3619 164.51727 1480.2496 5721914
1360.236 163.92354 1474.9075 5656123
1350.0823 161.65773 1454.5209 5590329
1361.3308 161.96716 1457.3049 5590330
1369.437 161.90117 1456.7112 5392951
1381.7252 162.3273 1460.5454 5458744
1394.5801 162.81429 1464.927 5327158
1372.656 159.26004 1432.9476 5392951
1417.9324 163.4984 1471.0823 5524281
1428.4105 163.69685 1472.8679 5392695
0 0 0 0
0 0 0 0
0 0 0 0
0 0 0 0
0 0 0 0
0 0 0 0
0 0 0 0
0 0 0 0
0 0 0 0
0 0 0 0
0 0 0 0
-1686.6292 229.25832 1958.0157 2236689
-1674.6748 229.21547 1957.6498 2237202
-1673.7601 230.69366 1970.2744 1974028
-1665.295 231.14464 1974.1261 2040078
-1670.7495 233.54776 1994.6504 2171407
-1672.0287 235.39748 2010.4481 2237203
-1679.3994 238.13759 2033.8505 1908238
-1670.8922 238.64961 2038.2235 1974031
-1623.7611 233.6123 1995.2015 1908238
-1556.3318 225.55899 1926.421 2039568
-1630.2382 238.02191 2032.8624 1907468
-1615.5112 237.6335 2029.5452 1842445
-1612.868 239.03009 2041.4729 1645066
-1603.8857 239.50122 2045.4968 1710859
-1601.8633 241.02682 2058.5264 1645066
-1531.5317 232.21852 1983.2979 1645066
-1569.3101 239.79289 2047.9879 1710604
-1530.9296 235.75755 2013.5234 1513738
-1535.1843 238.276 2035.0326 1382152
-1527.9489 239.03691 2041.5314 1382152
-1517.5696 239.31424 2043.8999 1382408
-1494.9581 237.65152 2029.6992 1185027
-1480.4058 237.25331 2026.2982 987648
-1466.4656 236.94746 2023.686 592640
-1459.174 237.71973 2030.2816 460800
-1447.3657 237.76288 2030.6503 263680
-1431.7957 237.18361 2025.703 66304
-1421.0756 237.40475 2027.5916 132096
-1409.6598 237.51245 2028.5115 256
-1398.697 237.69902 2030.1049 256
-1387.2374 237.80367 2030.9985 0
-1372.6696 237.37262 2027.3171 65536
-1357.7156 236.86658 2022.9952 65536
-1343.8639 236.54552 2020.2532 65536
-1332.1506 236.59846 2020.7054 65536
-1318.7797 236.3553 2018.6287 65536
-1305.1659 236.06375 2016.1384 0
-1291.4407 235.74643 2013.4283 0
-1278.7595 235.61555 2012.3107 0
-1264.4059 235.17111 2008.5149 256
-1251.519 234.99365 2006.9991 256
-1237.3234 234.56462 2003.335 256
-1223.7032 234.23743 2000.5405 256
-1210.1984 233.92609 1997.8816 256
-1197.6381 233.79297 1996.7445 256
-1184.5996 233.56293 1994.7799 256
-1170.8217 233.18095 1991.5175 256
-1157.6895 232.92107 1989.298 256
-1145.3026 232.80733 1988.3265 256
-1131.4725 232.39479 1984.8033 256
-1114.8407 231.39204 1976.2391 329478
-1110.8245 233.01428 1990.0942 526857
-1096.0399 232.38829 1984.7477 256
-1084.0807 232.35425 1984.4569 256
-1072.7745 232.46094 1985.3682 0
-1060.6805 232.3974 1984.8256 66049
-1053.158 233.34534 1992.9214 658443
-1043.5565 233.84894 1997.2225 461064
-1036.0549 234.84013 2005.6881 1185044
-1027.837 235.69016 2012.9479 1119251
-1028.116 238.53154 2037.2151 131586
-1023.7813 240.35751 2052.8101 724236
-1021.6119 242.74205 2073.1755 0
-1031.6042 248.1098 2119.0198 256
-1025.6709 249.73268 2132.8801 256
-1017.3486 250.80725 2142.0576 256
-1011.4314 252.50951 2156.5959 256
-999.78656 252.80714 2159.1382 0
-984.65527 252.21951 2154.1194 0
-972.94244 252.50357 2156.5454 0
-961.82672 252.95222 2160.3772 0
-950.1142 253.25394 2162.9541 0
-937.05768 253.20081 2162.5002 0
-924.44739 253.26843 2163.0779 0
-910.47156 252.95859 2160.4316 0
-899.78937 253.56805 2165.6367 0
-923.06396 263.90341 2253.9075 0
-912.67908 264.77832 2261.3796 0
-894.92383 263.50916 2250.5403 0
-886.00427 264.84265 2261.9292 0
-850.90125 258.2699 2205.7935 0
-852.3833 262.76968 2244.2246 0
-830.9433 260.23386 2222.5671 0
-826.34601 262.97617 2245.988 0
-816.23126 264.02377 2254.9353 65536
-808.90137 266.02225 2272.0037 65536
-788.34094 263.6636 2251.8594 65792
-749.63885 255.05109 2178.3027 131328
-766.19067 265.26538 2265.5396 197120
-741.03699 261.14786 2230.3733 66048
-729.7804 261.867 2236.5151 256
-712.58221 260.44122 2224.3381 131840
-696.53705 259.3909 2215.3677 263680
-700.703 265.97183 2271.573 329472
0 0 0 0
0 0 0 0
0 0 0 0
-905.99078 372.62299 3182.4436 461315
-873.20276 366.79807 3132.6951 395522
-862.16248 370.05374 3160.5007 527107
-847.35657 371.80225 3175.4338 461060
-825.81763 370.60873 3165.2405 461060
-805.50159 369.92117 3159.3684 526853
-786.32977 369.73883 3157.811 395268
-778.98175 375.24323 3204.822 526853
-774.40997 382.39447 3265.8984 395267
-757.96167 383.89832 3278.7422 512
-721.08856 374.86353 3201.5791 66048
-698.20453 372.80829 3184.0261 65792
-670.34131 367.90576 3142.1553 0
-645.77655 364.58438 3113.7886 0
-625.38446 363.49219 3104.4607 0
-612.46472 366.80884 3132.7869 0
-591.53314 365.38474 3120.624 0
-570.289 363.66901 3105.9707 0
-552.36072 364.02371 3109.0002 0
-534.02081 364.12234 3109.8425 65536
-518.14386 365.96765 3125.6025 65536
-503.01318 368.49695 3147.2043 0
-466.52884 354.974 3031.7097 512
-469.66235 371.72018 3174.7332 256
0 0 0 0
0 0 0 0
0 0 0 0
0 0 0 0
0 0 0 0
0 0 0 0
0 0 0 0
0 0 0 0
0 0 0 0
0 0 0 0
0 0 0 0
0 0 0 0
0 0 0 0
0 0 0 0
0 0 0 0
0 0 0 0
-69.8274 174.45929 1489.9962 261
0 0 0 0
0 0 0 0
-43.1008 173.85301 1484.8182 3818309
-34.186062 173.41295 1481.0598 4674387
-25.348213 173.19284 1479.1799 5134939
-16.599958 173.67625 1483.3086 5200476
-7.821393 174.5789 1491.0178 4344396
1.0375061 173.58484 1482.5278 2
9.9358616 175.06471 1495.167 3
18.82546 175.06554 1495.1741 197381
27.685081 174.8765 1493.5594 4475211
36.496475 174.5486 1490.759 4015688
45.406963 174.73018 1492.3098 4080969
54.520916 175.50735 1498.9474 3818308
63.495171 175.67964 1500.4189 395272
72.611496 176.15414 1504.4714 256
81.232117 175.45389 1498.4907 256
90.190086 175.54868 1499.3003 256
99.147804 175.62596 1499.9604 1316117
107.5836 174.84227 1493.2671 3290932
0 0 0 0
0 0 0 0
0 0 0 0
0 0 0 0
267.86249 308.16772 2631.9536 2237463
292.22321 317.63788 2712.835 2040083
306.04742 315.26355 2692.5564 2303256
329.79211 322.83652 2757.2346 2369049
341.84741 318.79123 2722.6853 2237462
355.60632 316.62863 2704.2153 2237463
375.56372 319.9335 2732.4409 2369049
401.93054 328.19794 2803.0247 2237463
411.80621 322.87448 2757.5588 2237463
427.78571 322.56116 2754.8828 2369048
445.98138 323.88034 2766.1497 2369051
472.86395 331.18994 2828.5784 2632223
489.96042 331.37875 2830.1909 2500637
518.44135 338.99908 2895.2737 2566429
530.48688 335.72824 2867.3384 1513232
564.51343 346.13904 2956.2534 131840
580.71246 345.31998 2949.2581 197376
618.85468 357.215 3050.8491 329217
640.76587 359.33047 3068.9167 657922
668.93402 364.74045 3115.1216 723714
696.59448 369.58957 3156.5364 460545
719.77179 371.86807 3175.9961 460802
734.85016 369.9527 3159.6377 855556
767.73608 376.87442 3218.7537 987144
790.45288 378.58893 3233.3967 987402
806.2511 376.98706 3219.7156 987402
809.28485 369.62949 3156.8772 1052938
842.22125 375.95346 3210.8879 1119502
858.68329 374.80624 3201.0901 1052939
874.62067 373.48474 3189.8035 855817
895.547 374.30447 3196.8047 1052937
898.29779 367.65143 3139.9832 1118986
916.69574 367.54282 3139.0557 1184779
955.77185 375.56393 3207.5613 1316624
972.14734 374.52563 3198.6934 1316623
959.75854 362.6582 3097.3379 1514002
979.20569 363.0408 3100.6055 1645586
1003.7413 365.26096 3119.5671 1580050
1021.4142 364.94849 3116.8984 1711635
1048.9486 368.10788 3143.8816 1711379
1083.4596 373.56204 3190.4639 1842452
1102.0768 373.4429 3189.4463 1382156
1112.325 370.53986 3164.6523 1184778
1119.1836 366.62302 3131.2 1711121
1116.23 359.67267 3071.8394 1842707
1125.394 356.78781 3047.2009 1974293
1132.3311 353.2995 3017.4084 1908500
1130.3547 347.18231 2965.1636 1711121
1128.024 341.14584 2913.6082 1316363
1136.7128 338.5741 2891.644 1776913
1132.2314 332.21475 2837.3308 1513742
1140.4226 329.70581 2815.9031 1579535
1131.8365 322.48923 2754.2686 1382156
1132.6294 318.11264 2716.8896 1250570
1150.7621 318.6608 2721.5713 1382156
1142.5598 312.00232 2664.7036 1382156
1152.0084 310.28009 2649.9946 1645328
1144.2017 304.0195 2596.5249 1645327
1161.8123 304.58917 2601.3904 1579535
1163.8115 301.10486 2571.6321 1776916
1172.4667 299.41064 2557.1624 1710867
1178.9844 297.22092 2538.4607 1908247
1174.3749 292.31686 2496.5769 1842453
1179.8811 290.02176 2476.9751 1645074
1186.3208 288.00983 2459.792 1645074
1189.5969 285.28821 2436.5476 1974039
1188.8351 281.67538 2405.6917 1909016
1187.8326 278.0921 2375.0881 2040345
1182.3519 273.55692 2336.3545 2105882
1185.223 271.0369 2314.832 2105625
1171.2313 264.76288 2261.2478 1711126
1171.6538 261.8526 2236.3923 1184782
1173.4253 259.30582 2214.6409 921612
1173.3739 256.41714 2189.97 592904
1171.8784 253.27982 2163.175 657672
1179.385 252.1351 2153.3984 460548
1187.2299 251.0865 2144.4426 592134
1192.0372 249.42461 2130.249 723974
1194.0461 247.21825 2111.4053 1711125
1197.9603 245.4482 2096.2878 2435105
1201.1199 243.56157 2080.1748 2632483
1204.5128 241.76022 2064.7903 2303262
1205.332 239.48387 2045.3486 2434333
1215.9762 239.18559 2042.8011 2303006
1212.6154 236.1656 2017.0085 2105626
1220.0712 235.29079 2009.537 2040347
1221.3602 233.25522 1992.1519 1316625
1222.6171 231.25262 1975.0485 1448211
1223.424 229.20387 1957.5507 855564
1226.0782 227.53653 1943.3105 987405
1227.2478 225.6274 1927.0052 921613
1228.3856 223.74777 1910.952 790028
1227.2701 221.49593 1891.72 921613
1228.7854 219.75548 1876.8553 658442
1224.347 216.99118 1853.2463 790028
1231.2806 216.2737 1847.1185 657928
1234.0138 214.83759 1834.8533 1052687
1231.6974 212.55525 1815.3606 855051
1229.6428 210.35733 1796.589 657928
1232.9634 209.10892 1785.9266 657928
1228.0007 206.48898 1763.5508 394500
1229.2996 204.95737 1750.4697 394757
1226.2532 202.73311 1731.473 131328
1216.1283 199.38533 1702.8809 197376
1216.6648 197.82635 1689.5662 131328
1212.2378 195.49246 1669.6333 65792
1208.2866 193.27258 1650.6741 196608
1204.4187 191.10172 1632.1334 394241
1196.3083 188.29778 1608.1859 2893857
1213.7811 189.53313 1618.7367 1249288
1229.1232 190.41896 1626.3022 2828063
1234.7413 189.79626 1620.984 3288609
1246.6169 190.1376 1623.8993 3420449
1254.1398 189.81491 1621.1433 3617312
1262.261 189.58704 1619.197 3551261
1274.1399 189.92271 1622.064 3288345
1278.5742 189.15201 1615.4816 3419421
1273.9136 187.05731 1597.5916 3288094
1279.2073 186.44446 1592.3574 3550498
1273.3993 184.23444 1573.4824 3945512
1264.9232 181.67343 1551.6097 4142377
1255.7839 179.05498 1529.2463 4931892
1271.0769 179.93277 1536.7433 5326903
1248.3046 175.44798 1498.4403 5787453
1271.1178 177.38835 1515.0123 5787710
1271.0885 176.13611 1504.3174 5853246
1274.8605 175.42445 1498.2394 5721660
1277.3535 174.5479 1490.7529 5590329
1285.7843 174.4892 1490.2516 5524536
1292.636 174.21849 1487.9396 5721660
1293.0277 173.0867 1478.2734 5721659
1300.4058 172.89909 1476.6711 5787194
1305.7408 172.44421 1472.7861 6049853
1311.3461 172.03079 1469.2554 5852474
1311.8633 170.95981 1460.1084 5786938
1316.5201 170.43883 1455.6589 5786937
1322.7426 170.12602 1452.9873 5523765
1319.4418 168.60036 1439.9572 5260592
1338.7554 169.96545 1451.616 5458485
1342.1385 169.30353 1445.9626 5327156
1356.4104 170.01482 1452.0376 5326899
1360.282 169.42178 1446.9727 5458742
1348.6963 166.92311 1425.6323 5261364
1365.1147 167.89996 1433.9753 5261363
1388.708 169.74168 1449.7047 5458485
1394.7946 169.43402 1447.0771 5261365
1383.4227 167.02237 1426.4801 5326901
0 0 0 0
0 0 0 0
0 0 0 0
0 0 0 0
0 0 0 0
0 0 0 0
0 0 0 0
0 0 0 0
0 0 0 0
0 0 0 0
0 0 0 0
-1684.2823 240.56451 1955.2914 2236686
-1677.6924 241.28868 1961.1774 2171408
-1669.6805 241.81708 1965.4722 1974029
-1670.8491 243.69182 1980.71 2105614
-1668.731 245.11047 1992.2406 1776650
-1674.6545 247.73903 2013.6053 1842445
-1668.7704 248.64609 2020.9779 2105617
-1670.8713 250.76472 2038.1981 1842445
-1661.0227 251.1078 2040.9866 1974031
-1547.5947 235.68196 1915.6063 1710859
-1640.8987 251.74379 2046.1558 1842701
-1630.3666 251.99626 2048.2078 1842188
-1619.4661 252.19513 2049.8242 1710602
-1605.444 251.90721 2047.4841 1644552
-1608.035 254.24159 2066.4578 1645067
-1599.5369 254.84511 2071.363 1710860
-1581.6614 253.95233 2064.1067 1710861
-1564.5016 253.16141 2057.6782 1447945
-1509.075 246.11707 2000.4222 1447946
-1516.7371 249.33177 2026.551 1119238
-1524.2239 252.56888 2052.8621 1316359
-1508.5026 251.98155 2048.0884 1382408
-1489.6588 250.85886 2038.9631 1118976
-1472.2687 249.96455 2031.6942 657920
-1460.4624 250.01131 2032.0742 395008
-1442.5624 249.00697 2023.9111 263680
-1431.1212 249.11002 2024.7488 197632
-1421.2778 249.4953 2027.8802 131840
-1407.8882 249.25931 2025.962 66048
-1398.5784 249.74782 2029.9326 512
-1386.3475 249.71867 2029.6957 256
-1371.7084 249.25137 2025.8976 256
-1358.5872 249.05408 2024.2939 256
-1344.9847 248.76424 2021.9382 256
-1332.6394 248.7038 2021.4469 256
-1320.1761 248.62006 2020.7662 256
-1306.8988 248.38 2018.8152 0
-1292.6251 247.94443 2015.2749 0
-1277.7025 247.37508 2010.6472 256
-1263.283 246.89326 2006.7311 256
-1250.267 246.6792 2004.9912 66049
-1236.3533 246.2822 2001.7644 0
-1223.3684 246.06429 1999.9932 256
-1210.359 245.8371 1998.1466 0
-1197.9005 245.71844 1997.1823 256
-1184.9091 245.48698 1995.3009 256
-1170.7283 245.00197 1991.3586 256
-1157.2455 244.65457 1988.5352 256
-1146.3201 244.84627 1990.0931 66050
-1136.1978 245.21524 1993.0922 395271
-1117.7468 243.77562 1981.391 329478
-1111.145 244.91704 1990.6685 66050
-1098.7864 244.80049 1989.7211 256
-1085.1393 244.39122 1986.3947 256
-1073.4207 244.41206 1986.564 131586
-1062.1046 244.52605 1987.4905 132099
-1054.5145 245.51006 1995.4884 461064
-1043.0984 245.61554 1996.3458 987922
-1035.9536 246.74078 2005.4918 1053972
-1028.7633 247.8813 2014.7617 461578
-1018.145 248.21297 2017.4575 131842
-1018.6158 251.28816 2042.4525 1053458
-1023.0942 255.43819 2076.1836 256
-1029.4225 260.15707 2114.5383 256
-1021.455 261.33508 2124.113 256
-1015.1108 262.96313 2137.3459 256
-1006.5348 264.047 2146.1553 256
-995.69196 264.55637 2150.2957 0
-984.95813 265.10837 2154.782 0
-972.9552 265.32877 2156.5735 0
-958.37402 264.84262 2152.6221 0
-949.10236 265.83038 2160.6506 0
-935.14697 265.51544 2158.0908 0
-922.47717 265.56186 2158.468 0
-910.39587 265.78134 2160.252 0
-898.52271 266.06873 2162.5879 0
-888.01672 266.77524 2168.3303 0
-912.49518 278.16724 2260.9238 0
-892.96375 276.28329 2245.6111 0
-881.99628 277.03201 2251.6968 0
-870.50665 277.63733 2256.6167 0
-848.44397 274.83664 2233.8528 0
-838.98499 276.09448 2244.0767 256
-825.24438 275.96124 2242.9937 256
-810.25214 275.39825 2238.4175 65536
-811.73535 280.50977 2279.9636 131072
-792.26276 278.4303 2263.0618 131072
-774.35364 276.83792 2250.1191 131328
-731.80273 266.22501 2163.8582 196864
-743.02161 275.14346 2236.3467 66048
-734.46936 276.93216 2250.885 66048
-708.36511 272.04645 2211.1743 131840
-692.65607 271.0437 2203.0242 66048
-682.80939 272.34055 2213.5647 197888
0 0 0 0
0 0 0 0
0 0 0 0
-879.68115 380.17389 3090.0266 263937
-862.67969 380.77872 3094.9426 329729
-847.65747 382.30261 3107.3286 329729
-830.65411 382.9809 3112.8418 461059
-802.71094 378.53134 3076.676 263426
-797.51245 384.84995 3128.0332 263682
-780.83459 385.79852 3135.7432 592646
-769.81012 389.65506 3167.0889 329219
-757.55072 393.06424 3194.7986 66048
-737.36475 392.43024 3189.6453 66048
-708.5542 387.05151 3145.9275 256
-685.07819 384.37415 3124.166 0
-669.8382 386.29727 3139.7971 0
-641.10669 380.32709 3091.2717 0
-621.51111 379.58414 3085.2332 0
-608.44055 382.90234 3112.2031 0
-590.58923 383.32571 3115.6443 0
-571.71625 383.09189 3113.7439 0
-550.99274 381.56094 3101.3003 0
0 0 0 0
-517.45441 384.03922 3121.4436 65536
-470.9234 362.50659 2946.428 65536
0 0 0 0
0 0 0 0
0 0 0 0
0 0 0 0
0 0 0 0
0 0 0 0
0 0 0 0
0 0 0 0
0 0 0 0
0 0 0 0
0 0 0 0
0 0 0 0
0 0 0 0
0 0 0 0
0 0 0 0
0 0 0 0
0 0 0 0
0 0 0 0
0 0 0 0
-60.811058 182.84427 1486.1453 2
-51.977379 182.85199 1486.208 65538
-42.882179 181.75439 1477.2869 1
-34.370724 183.20287 1489.0599 2
-25.511202 183.15747 1488.691 3
-16.603256 182.53151 1483.6033 3
-7.8075585 183.11926 1488.3805 2
1.0400919 182.85379 1486.2227 1
9.9239216 183.73318 1493.3704 65537
18.817371 183.87607 1494.5316 1
27.78178 184.39827 1498.7761 3
36.62632 184.06442 1496.0626 2
45.538479 184.13448 1496.6321 2
54.451675 184.18513 1497.0438 1
63.775154 185.41438 1507.035 1
72.302185 184.31049 1498.0626 256
81.197655 184.28494 1497.855 0
90.161781 184.40486 1498.8297 256
98.716515 183.74121 1493.4355 1316116
108.2666 184.88687 1502.7474 2698792
0 0 0 0
0 0 0 0
0 0 0 0
237.88736 305.42184 2482.4473 592644
270.15042 326.58185 2654.4341 1052939
293.09927 334.76767 2720.968 987398
310.69211 336.29962 2733.4197 1118984
324.58798 333.87656 2713.7251 1447947
346.194 339.23819 2757.3042 1645326
357.83365 334.79044 2721.1531 1382157
378.87192 339.1405 2756.51 1908496
400.00531 343.21143 2789.5984 1908496
413.17529 340.39746 2766.7266 2171669
437.1651 346.37173 2815.2849 2237462
449.63571 343.11508 2788.8152 2434842
469.74545 345.71216 2809.9241 2369050
489.08954 347.5867 2825.1602 2763553
509.78259 350.26364 2846.9182 2566175
543.08649 361.15479 2935.4407 1513231
563.02631 362.75726 2948.4656 256
581.92609 363.6131 2955.4216 328961
612.61884 371.57153 3020.1074 657925
645.24554 380.21637 3090.3718 790021
680.1687 389.69824 3167.4399 724230
696.19293 388.13287 3154.7168 395264
725.29437 393.74902 3200.3645 527105
753.52924 398.6196 3239.9521 658690
770.21063 397.28796 3229.1284 790022
793.362 399.27719 3245.2969 856071
771.78406 379.1954 3082.0735 987403
835.36237 400.914 3258.6008 724231
843.19141 395.49881 3214.5864 921354
849.66528 389.70215 3167.4717 855817
871.979 391.26437 3180.1692 1316369
886.16693 389.19153 3163.3213 1316112
905.41034 389.37897 3164.845 1250830
924.95416 389.68533 3167.335 1250829
946.40503 390.76694 3176.1262 1448209
945.19147 382.63123 3109.9995 1645589
963.39056 382.5155 3109.0591 2106140
991.56396 386.28992 3139.7373 1974554
1006.0064 384.67444 3126.6067 1908760
1020.6954 383.21011 3114.7048 1645589
1050.2952 387.29636 3147.9175 1448209
1068.9659 387.28 3147.7847 1645076
1097.3319 390.71628 3175.7144 1776659
1113.8284 389.8815 3168.9294 658180
1127.1305 387.97501 3153.4336 394753
1131.5531 383.12442 3114.0083 131584
1124.5718 374.63098 3044.9744 855302
1113.1234 364.94217 2966.2244 1513488
1114.0042 359.53467 2922.2725 1644818
1113.9153 353.98514 2877.1663 2171417
1115.6864 349.18561 2838.156 2369051
1124.3579 346.65659 2817.6001 1974293
1122.3087 340.94495 2771.1765 1776914
1126.9813 337.41107 2742.4534 1645328
1131.7985 334.02066 2714.8965 1645328
1141.6611 332.19376 2700.0474 1711121
1142.7242 327.89255 2665.0874 1579535
1142.8595 323.44635 2628.9492 1645074
1156.1129 322.78268 2623.5549 1645329
1155.2765 318.25525 2586.7563 1776913
1160.6095 315.52399 2564.5566 1711121
1166.5342 313.02237 2544.2236 1842707
1167.1727 309.18442 2513.0293 1711121
1173.5287 306.93893 2494.7781 1645328
1177.172 304.04886 2471.2878 1513741
1180.9315 301.25967 2448.6174 1579534
1189.2827 299.69553 2435.9041 1974295
1192.0021 296.76688 2412.1001 2237723
1195.9822 294.21802 2391.3833 2435103
1186.6052 288.48169 2344.759 2106395
1196.1438 287.42392 2336.1614 2500126
1203.1045 285.77805 2322.7839 2105627
1190.7444 279.63229 2272.8315 2171420
1199.2749 278.47531 2263.4277 2303006
1192.6737 273.86935 2225.991 2105627
1188.3616 269.8844 2193.6013 1974042
1184.5219 266.09207 2162.7776 1842453
1186.6289 263.70273 2143.3572 1645075
1189.5294 261.5386 2125.7673 1184525
1179.2208 256.5463 2085.1902 723976
1195.2568 257.32962 2091.5571 263682
1206.5898 257.09473 2089.6479 658440
1191.3588 251.26218 2042.2413 132096
1204.2681 251.42236 2043.5432 790025
1207.8401 249.64938 2029.1327 1579540
1200.1107 245.59869 1996.2089 1776919
1212.8743 245.78008 1997.6832 2368799
1219.3132 244.68874 1988.8129 2566178
1223.5449 243.17969 1976.5474 2237211
1222.863 240.73206 1956.6531 2237213
1227.1176 239.29315 1944.9579 2434591
1229.8706 237.59106 1931.1234 2303006
1225.3662 234.53143 1906.2549 2303006
1228.6379 233.00253 1893.8281 1645333
1224.9139 230.18678 1870.942 987148
1227.9694 228.68425 1858.7294 1052941
1226.7943 226.42766 1840.3881 855308
1232.1647 225.4084 1832.1036 1315601
1232.9041 223.56725 1817.1388 1052686
1229.9252 221.08971 1797.0016 1250065
1228.6415 218.95692 1779.6664 986893
1228.8356 217.12167 1764.7496 855307
1228.5712 215.23718 1749.4326 921100
1226.2532 213.02757 1731.473 986636
1221.0388 210.35574 1709.7567 657669
1222.4098 208.85321 1697.5441 789256
1227.1018 207.93805 1690.1057 591876
1219.7384 205.01144 1666.3186 394498
1208.9078 201.554 1638.2167 328192
1194.4344 197.54932 1605.6669 2762530
1207.8085 198.17732 1610.7712 657414
1224.5587 199.34508 1620.2628 131072
1229.988 198.66606 1614.7438 328192
1237.8411 198.38602 1612.4675 262656
1245.1681 198.0266 1609.5463 656900
1257.6979 198.49379 1613.3435 591364
1264.1177 197.99692 1609.3051 1052170
1270.807 197.54942 1605.6677 1907221
1271.3895 196.16634 1594.426 2236182
1267.1544 194.0659 1577.354 3025183
1270.8662 193.20447 1570.3523 3419426
1272.3357 192.0172 1560.7023 3748390
1273.4407 190.79251 1550.748 3353629
1272.6337 189.30103 1538.6254 3090201
1271.0952 187.72281 1525.7977 3353374
1267.199 185.8212 1510.3416 3287584
1271.6006 185.15459 1504.9235 3155998
1276.1943 184.52509 1499.8069 3287839
1276.3774 183.271 1489.6138 3090204
1276.5286 182.02963 1479.524 4406318
1278.9572 181.12781 1472.194 5261625
1287.4081 181.08531 1471.8486 5195830
1291.4849 180.43231 1466.5411 6182212
1292.6517 179.38423 1458.0223 6182467
1296 178.65083 1452.0614 6379845
1303.861 178.54509 1451.2019 5721916
1302.6216 177.20276 1440.2915 5656122
1303.5476 176.17061 1431.9022 5458486
1302.4155 174.8755 1421.3759 5721914
1316.0627 175.56873 1427.0103 5458742
1304.77 172.94728 1405.7034 5392949
1338.5748 176.29884 1432.9446 5392951
1317.6693 172.44789 1401.6443 5392950
1354.7238 176.18307 1432.0037 5261364
1351.1169 174.61661 1419.2715 5063986
1369.0787 175.83977 1429.2133 4998193
1364.6937 174.1954 1415.848 5064243
1367.8501 173.52792 1410.4227 5326902
0 0 0 0
0 0 0 0
0 0 0 0
0 0 0 0
0 0 0 0
0 0 0 0
0 0 0 0
0 0 0 0
0 0 0 0
0 0 0 0
0 0 0 0
-1689.9989 253.04564 1961.9277 2105358
-1681.4341 253.51302 1965.5514 1974029
-1682.1659 255.39838 1980.1693 1908236
-1672.865 255.77637 1983.0999 1908493
-1669.0205 256.99991 1992.5862 1974028
-1666.0137 258.37088 2003.2157 1973771
-1628.9326 254.43916 1972.7321 2236176
-1665.7341 262.07458 2031.9314 2236433
-1661.1168 263.25742 2041.1024 2104846
-1496.2582 238.87538 1852.0621 2039054
-1640.8987 263.90921 2046.1558 1973261
-1638.0184 265.4137 2057.8206 1644809
-1632.391 266.49237 2066.1838 1842445
-1614.6494 265.59476 2059.2244 1645066
-1607.1873 266.38718 2065.3682 1645066
-1452.6146 242.62088 1881.1021 1579274
-1585.9325 266.94339 2069.6807 1513482
-1569.0446 266.16602 2063.6533 1448201
-1555.6799 265.97876 2062.2017 1448201
-1521.1396 262.13931 2032.4335 921862
-1527.5688 265.35522 2057.3672 1250822
-1508.1896 264.10367 2047.6635 921602
-1487.7739 262.64877 2036.3833 987138
-1477.0785 262.90005 2038.3315 658176
-1463.6237 262.66031 2036.4728 723968
-1449.7279 262.33679 2033.9644 197632
-1437.0466 262.2294 2033.132 65792
-1423.1432 261.89532 2030.5417 256
-1408.6432 261.44479 2027.0486 256
-1398.3593 261.77573 2029.6145 256
-1386.6896 261.85077 2030.1963 256
-1372.9689 261.53647 2027.7593 256
-1358.7063 261.1124 2024.4714 256
-1345.4873 260.88312 2022.6937 256
-1332.1957 260.6355 2020.7738 256
-1318.26 260.25623 2017.8333 0
-1305.3333 260.07095 2016.397 0
-1292.3882 259.87863 2014.9056 0
-1277.6455 259.31781 2010.5575 0
-1262.483 258.6604 2005.4604 256
-1252.5015 259.06204 2008.5746 460805
-1235.116 257.92529 1999.761 461061
-1227.9801 258.92764 2007.5325 395269
-1211.5289 257.96619 2000.0781 66304
-1197.3463 257.47351 1996.2583 256
-1185.0458 257.37973 1995.531 66307
-1171.895 257.0975 1993.3431 256
-1158.8839 256.84048 1991.3503 66049
-1150.5178 257.61829 1997.3806 263686
-1137.9856 257.46967 1996.2285 395271
-1127.7451 257.84192 1999.1145 66306
-1110.5875 256.62375 1989.6698 256
-1100.2161 256.96426 1992.3101 256
-1085.774 256.3512 1987.5566 256
-1074.1307 256.39267 1987.8782 65536
-1063.5997 256.70349 1990.2881 0
-1058.681 258.39114 2003.3729 263685
-1043.7328 257.64142 1997.5601 197892
-1034.8379 258.38586 2003.332 197892
-1025.2081 258.96207 2007.7993 329992
-1014.8313 259.36087 2010.8915 527114
-1017.7755 263.21426 2040.7678 197893
-1016.166 265.96875 2062.124 256
-1025.7997 271.76923 2107.0967 256
-1021.4539 273.96375 2124.1111 256
-1012.4317 274.94318 2131.7051 256
-1005.0791 276.40665 2143.0515 256
-994.64862 277.05035 2148.0425 0
-982.12549 277.12033 2148.585 0
-968.9483 277.00516 2147.6921 0
-957.18848 277.29758 2149.9592 0
-944.60388 277.35571 2150.4099 0
-931.23798 277.18283 2149.0698 0
-919.50818 277.49899 2151.5208 0
-907.99518 277.89038 2154.5554 0
-896.87988 278.41641 2158.634 0
-889.32196 280.07809 2171.5173 0
-879.1012 280.93771 2178.1824 0
-897.388 291.06961 2256.7373 0
-877.43439 288.91736 2240.0505 0
-873.14612 291.93655 2263.459 0
-851.54297 289.17038 2242.0122 0
-826.99139 285.29904 2211.9968 0
-817.30609 286.51413 2221.4177 0
-810.74152 288.8811 2239.7693 65536
-809.22302 293.15515 2272.907 65536
-767.35541 282.70895 2191.915 65792
-739.89752 277.30237 2149.9963 66048
-725.70111 276.76324 2145.8164 196864
-746.23511 289.6871 2246.0186 66048
-739.7254 292.39236 2266.9929 66048
-703.25507 283.13562 2195.2231 512
-688.47168 282.42523 2189.7153 256
-672.34589 281.12619 2179.6436 512
0 0 0 0
0 0 0 0
-853.39496 378.72696 2936.3674 263936
-869.06073 393.73398 3052.7207 132352
-852.83221 394.62308 3059.614 132352
-841.33063 397.78583 3084.1357 132352
-806.67554 389.8985 3022.9832 263683
-784.07782 387.6123 3005.2578 263426
-764.95026 386.97498 3000.3164 263682
-759.35974 393.31891 3049.5024 461060
-757.16357 401.77429 3115.0593 395268
-733.1936 398.81024 3092.0781 197633
-715.46509 399.17587 3094.9131 512
-710.93915 407.12134 3156.5164 66048
-679.27405 399.53503 3097.6975 0
-659.10059 398.4733 3089.4658 0
-635.5777 395.2677 3064.6121 0
-617.2439 395.19528 3064.0503 0
-600.74658 396.32993 3072.8479 0
-581.63477 395.75693 3068.405 0
-562.37848 395.04526 3062.8872 0
-545.52802 396.03253 3070.5417 0
0 0 0 0
-497.62396 387.16895 3001.8203 65536
-470.17072 379.41718 2941.7188 65536
0 0 0 0
0 0 0 0
0 0 0 0
0 0 0 0
0 0 0 0
0 0 0 0
0 0 0 0
0 0 0 0
0 0 0 0
0 0 0 0
0 0 0 0
0 0 0 0
0 0 0 0
0 0 0 0
0 0 0 0
0 0 0 0
0 0 0 0
-78.384247 191.43942 1484.2791 1515555
0 0 0 0
0 0 0 0
-51.983803 191.7119 1486.3916 2
-43.196098 191.93243 1488.1014 2
-34.361893 192.00671 1488.6774 2
-25.518467 192.06317 1489.1151 2
-16.672131 192.14604 1489.7576 4
-7.815804 192.17116 1489.9523 2
1.0430088 192.22772 1490.3909 2
9.9208069 192.55154 1492.9016 2
18.804703 192.63202 1493.5254 2
27.681818 192.61368 1493.3833 2
36.570347 192.66438 1493.7765 2
45.473499 192.75728 1494.4966 2
54.382717 192.84128 1495.1479 256
63.30125 192.93007 1495.8364 256
72.197571 192.93765 1495.8951 256
81.158691 193.09775 1497.1364 0
90.1026 193.18927 1497.8459 256
99.674026 194.48877 1507.9214 921358
108.60999 194.43619 1507.5137 2764843
0 0 0 0
0 0 0 0
247.48691 355.13547 2753.4563 512
263.97598 355.29483 2754.6921 256
280.95114 356.05161 2760.5596 65792
299.49728 358.6059 2780.3635 65792
316.72873 359.40112 2786.5291 65792
335.21503 361.4704 2802.5728 256
352.49411 362.10361 2807.4822 65792
369.35162 362.26605 2808.7417 512
385.74945 361.98309 2806.5479 512
406.65161 365.77518 2835.9487 512
423.06708 365.39026 2832.9644 66304
442.45514 367.50391 2849.3521 66304
457.59857 366.06601 2838.2039 131840
476.97687 367.99777 2853.1812 197888
493.34219 367.55203 2849.7251 395008
513.22821 369.67178 2866.1604 329472
536.06311 373.71115 2897.4785 197632
561.62122 379.33835 2941.1074 460800
583.84943 382.44443 2965.1899 526594
611.76001 388.98154 3015.8738 1316108
652.1015 402.82535 3123.2083 1777171
667.00317 400.62259 3106.1299 1777424
705.74243 412.47043 3197.9893 1777425
717.56512 408.37799 3166.2593 2040597
746.68304 414.08606 3210.5156 2171927
756.73462 409.19968 3172.6299 2303512
777.59308 410.25253 3180.793 2303257
796.90924 410.461 3182.4094 2369307
810.92853 407.99481 3163.2886 2434844
825.3432 405.83487 3146.542 2369308
844.99298 406.28781 3150.0537 2237721
867.29547 407.96893 3163.0879 2303769
890.3703 409.9343 3178.3259 2369305
906.53442 408.70233 3168.7739 2764321
915.54291 404.36011 3135.1079 2501149
950.34949 411.35797 3189.3638 2369821
968.76257 411.12485 3187.5564 2435614
994.42419 413.91779 3209.2109 2369565
1006.5572 411.08047 3187.2126 2435359
1033.5443 414.3024 3212.1929 2106137
1045.376 411.44247 3190.019 2237723
1068.6058 413.09061 3202.7976 2237723
1079.2391 409.89691 3178.0359 1974039
1096.8972 409.43521 3174.4563 2105881
1109.0325 406.96252 3155.2849 1579535
1123.343 405.35703 3142.8372 1053191
1128.4333 400.5314 3105.4229 1053190
1133.0374 395.69135 3067.8967 724482
1140.9712 392.14905 3040.4324 658176
1121.1458 379.32532 2941.0066 0
1116.9355 372.0975 2884.9673 395008
1115.4163 365.97122 2837.4688 658435
1116.2067 360.77399 2797.1733 1316365
1119.5479 356.54175 2764.3596 1776914
1128.855 354.30444 2747.0132 2369051
1133.337 350.63812 2718.5874 2369051
1134.0219 345.91663 2681.9802 2237465
1138.3854 342.43262 2654.968 1842707
1146.8806 340.26978 2638.199 1776913
1147.1744 335.76483 2603.271 1711121
1154.3037 333.35388 2584.5781 1711120
1159.5336 330.46494 2562.1794 1579535
1162.9692 327.14618 2536.4482 1645328
1167.3489 324.17453 2513.4084 1711121
1171.3911 321.18555 2490.2339 1842707
1177.0792 318.71677 2471.093 1776914
1180.1538 315.60992 2447.0049 1645328
1185.269 313.11789 2427.6833 1710866
1192.015 311.11139 2412.1265 2368797
1192.5347 307.54688 2384.49 1908246
1179.1355 300.51874 2329.9988 2237211
1190.7015 299.94263 2325.5322 2105625
1195.9095 297.79651 2308.8928 2303005
1197.2513 294.74731 2285.2517 2500384
1204.5848 293.2251 2273.4495 2303006
1196.8806 288.1167 2233.8428 2303006
1196.6709 284.90475 2208.9397 2303006
1199.1265 282.3902 2189.4436 2434592
1196.4181 278.72659 2161.0388 2105626
1200.5872 276.72607 2145.5283 2105625
1206.3707 275.13583 2133.1987 2237210
1203.2676 271.57297 2105.575 2171931
1201.843 268.45847 2081.4272 1776917
1198.0828 264.89096 2053.7676 1908762
1206.8051 264.12747 2047.8481 921612
1209.8934 262.15851 2032.5823 724490
1218.9642 261.5119 2027.569 460805
1211.8179 257.43289 1995.9432 395012
1217.5989 256.15256 1986.0166 460549
1225.7181 255.38403 1980.058 395013
1220.4707 251.87158 1952.8251 921356
1223.9767 250.21481 1939.9797 2105627
1224.166 247.91725 1922.1661 2829607
1232.5355 247.30357 1917.408 2631712
1231.5061 244.83252 1898.2493 2500126
1228.0771 241.93362 1875.7734 3026212
1219.155 238.0145 1845.3875 2500125
1226.8868 237.38757 1840.5269 2631455
1225.6818 235.05791 1822.4644 2236699
1227.1824 233.28339 1808.7059 2368286
1207.6897 227.58359 1764.514 1776663
1232.38 230.23634 1785.0815 1645334
1233.6102 228.49838 1771.6066 1381907
1232.7048 226.3976 1755.3187 1250066
1228.4777 223.72714 1734.6139 1381651
1218.3853 220.04187 1706.0411 1118477
1218.5214 218.24948 1692.1443 1118477
1224.5182 217.52757 1686.5471 986634
1211.9442 213.5452 1655.6708 855048
1203.627 210.371 1631.0604 854791
1206.6185 209.20831 1622.0458 3025702
1204.708 207.22084 1606.6365 789254
1217.6995 207.80777 1611.187 920323
1225.3082 207.47411 1608.6001 722947
1233.2216 207.19681 1606.45 657668
1241.9219 207.05495 1605.3502 525570
1248.4891 206.56236 1601.5309 591105
1253.3806 205.80205 1595.6361 327936
1260.6573 205.44188 1592.8436 262400
1267.5516 205.02521 1589.6132 196608
1268.8077 203.70949 1579.412 262656
1267.8768 202.06456 1566.6584 196608
1265.3469 200.19064 1552.1295 196864
1261.6384 198.15877 1536.3757 393985
1266.7501 197.53145 1531.5121 525570
1268.4866 196.39056 1522.6664 1906188
1267.4553 194.84035 1510.6472 2301202
1271.5482 194.09413 1504.8616 3288096
1275.2998 193.30656 1498.7555 3090204
1270.8381 191.29369 1483.149 3616547
1270.7697 189.96524 1472.8494 3287836
1277.0071 189.59122 1469.9493 3089942
1274.7699 187.97263 1457.4 3419419
1281.3586 187.66855 1455.0424 3221527
0 0 0 0
1284.6354 185.64177 1439.3282 3353369
1283.1201 184.19579 1428.1172 3682335
1284.1909 183.13762 1419.913 4208423
1278.0365 181.06961 1403.8792 4603181
0 0 0 0
1288.8623 180.24901 1397.5168 5853502
1316.1135 182.88115 1417.9244 6050881
1296.1616 178.9624 1387.5414 5985087
1297.6821 178.03917 1380.3833 5655866
1312.8368 178.98637 1387.7273 5392950
1318.5239 178.63904 1385.0343 5787707
1318.054 177.46703 1375.9474 5721914
1340.4832 179.37364 1390.73 5524278
1341.2015 178.36952 1382.9447 5326386
0 0 0 0
0 0 0 0
0 0 0 0
0 0 0 0
0 0 0 0
0 0 0 0
0 0 0 0
0 0 0 0
0 0 0 0
0 0 0 0
0 0 0 0
-1677.3317 262.72617 1947.2223 2302223
-1668.5842 263.17245 1950.5302 2170893
-1674.3647 265.93243 1970.986 2170639
-1661.8929 265.81195 1970.0929 2039309
-1658.6191 267.17139 1980.1685 2236433
-1656.4396 268.72775 1991.7037 2170640
-1627.486 265.93164 1970.9801 1973261
-1562.4857 257.16223 1905.9847 2104847
-1619.8872 268.55743 1990.4415 1973261
-1653.1118 276.08258 2046.2148 1973261
-1641.4319 276.16434 2046.8207 1841674
-1639.2299 277.85382 2059.3425 1776397
-1458.9734 249.1609 1846.6821 1974032
-1625.8602 279.76694 2073.5217 1710861
-1625.7474 281.88492 2089.2195 1776654
-1612.173 281.68347 2087.7263 1645067
-1596.6805 281.14114 2083.707 1579275
-1582.2052 280.77087 2080.9626 1513482
-1564.5272 279.82193 2073.9294 1513482
-1544.001 278.34448 2062.979 1381896
-1527.5688 277.58731 2057.3672 1513482
-1515.6007 277.63565 2057.7256 1250310
-1497.8813 276.62268 2050.2178 987139
-1477.067 275.01682 2038.3158 855552
-1453.4347 272.85535 2022.296 395008
-1450.0957 274.4993 2034.4803 197632
-1437.0466 274.31738 2033.132 328448
-1420.7434 273.50592 2027.1177 65536
-1409.5686 273.6763 2028.3804 65792
-1399.2113 274.0097 2030.8513 65792
-1386.5322 273.89023 2029.9659 65536
-1373.1394 273.62646 2028.011 0
-1358.2437 273.05588 2023.7821 0
-1345.7369 272.95966 2023.069 65536
-1332.0134 272.6127 2020.4974 65536
-1318.439 272.29019 2018.1071 65536
-1305.288 272.04999 2016.327 256
-1291.2321 271.61502 2013.1031 0
-1277.6261 271.26746 2010.527 0
-1263.8937 270.8862 2007.7013 512
-1252.2625 270.9523 2008.1913 132097
-1238.65 270.58688 2005.4829 263683
-1225.441 270.30341 2003.3817 329476
-1210.8822 269.71359 1999.0105 329476
-1202.2433 270.44385 2004.4226 131841
-1184.7986 269.18802 1995.115 513
-1172.0435 268.98303 1993.5957 66306
-1163.374 269.72107 1999.0659 329478
-1152.4446 269.94501 2000.7256 395271
-1140.6959 269.97974 2000.9829 329222
-1127.437 269.65393 1998.5684 256
-1110.514 268.43558 1989.5382 256
-1097.5864 268.16708 1987.5483 256
-1084.5931 267.87653 1985.3949 256
-1073.2196 267.98407 1986.1919 197122
-1067.3274 269.47794 1997.2637 131842
-1057.8098 270.07971 2001.724 263428
-1043.2352 269.3894 1996.6077 197892
-1034.8713 270.30542 2003.3967 132099
-1025.1737 270.89032 2007.7319 513
-1022.1417 273.27109 2025.3771 263942
-1017.2892 275.21609 2039.7927 256
-1012.4062 277.19965 2054.4941 66563
-1022.0483 283.25729 2099.3911 256
-1018.0811 285.64627 2117.0972 256
-1010.36 287.02869 2127.343 0
-1002.381 288.37192 2137.2986 0
-988.03662 287.8949 2133.7629 0
-977.22552 288.44843 2137.8655 0
-965.76428 288.82205 2140.6348 0
-952.18927 288.56509 2138.7302 0
-942.26624 289.42291 2145.0881 0
-930.11707 289.61115 2146.4832 0
-919.80255 290.38379 2152.2097 0
-908.34064 290.81088 2155.3752 0
-895.03705 290.65216 2154.1987 0
-886.93536 292.20258 2165.6899 0
-896.82379 299.81287 2222.0942 0
-892.69464 302.8945 2244.9343 0
-882.16931 303.86655 2252.1387 0
-870.1416 304.34308 2255.6704 0
-860.76459 305.77609 2266.2915 0
-830.14862 299.58987 2220.4417 0
-818.3905 300.11923 2224.365 0
-807.78845 301.09692 2231.6113 0
-795.7995 301.58163 2235.2036 256
-791.08301 304.88568 2259.6919 65536
-738.84106 289.67096 2146.9265 65792
-721.44257 287.8222 2133.2244 196864
-712.04102 289.15485 2143.1013 65792
-739.72522 305.87067 2266.9924 263168
-693.84503 292.22415 2165.8496 66304
-680.96796 292.22415 2165.8496 512
-664.68799 290.73569 2154.8179 768
0 0 0 0
0 0 0 0
-858.23547 398.43228 2953.0225 132096
-873.30383 413.89493 3067.6255 132352
-874.74109 423.41901 3138.2141 329728
-819.32526 405.23865 3003.4688 395522
-810.89697 410.00607 3038.8027 395011
-772.07208 399.27139 2959.2415 395267
-752.25458 398.09479 2950.521 461060
-742.69928 402.42245 2982.5959 395268
-738.56848 409.97296 3038.5571 460804
-729.42834 415.05167 3076.1987 197890
-716.50677 418.18466 3099.4192 256
-687.37329 411.77127 3051.8857 256
-664.10291 408.61765 3028.5125 0
-648.2489 409.9787 3038.5999 0
-626.22314 407.40256 3019.5066 0
-609.48596 408.21652 3025.5393 0
-592.14691 408.66461 3028.8604 0
-572.53748 407.52475 3020.4124 0
-552.71332 406.15335 3010.2478 0
-536.76099 407.63052 3021.196 0
-516.4729 405.80325 3007.6531 0
-497.05682 404.55466 2998.3989 0
0 0 0 0
0 0 0 0
0 0 0 0
0 0 0 0
0 0 0 0
0 0 0 0
0 0 0 0
0 0 0 0
0 0 0 0
0 0 0 0
0 0 0 0
0 0 0 0
0 0 0 0
0 0 0 0
0 0 0 0
0 0 0 0
0 0 0 0
-87.43821 200.79048 1488.1797 4936279
-78.603035 200.82318 1488.422 2369836
-69.314201 199.55804 1479.0453 4
-60.762619 200.35628 1484.9614 2
-51.977463 200.52478 1486.2102 2
-43.179924 200.70474 1487.5442 2
-34.352589 200.80325 1488.2743 2
-25.528748 200.99765 1489.715 2
-16.674995 201.03792 1490.0135 65538
-7.8210368 201.16426 1490.9498 65536
1.0436014 201.20305 1491.2374 65536
9.9177599 201.36574 1492.4431 0
18.793764 201.39456 1492.6567 0
27.668192 201.3934 1492.6482 0
36.554489 201.45824 1493.1288 0
45.453571 201.55441 1493.8416 0
54.358971 201.64258 1494.495 0
63.263756 201.70403 1494.9504 0
72.182495 201.78935 1495.5828 0
81.093216 201.83598 1495.9285 0
90.046684 201.96927 1496.9164 256
99.704727 203.51677 1508.3859 724236
108.54175 203.27129 1506.5664 2896171
0 0 0 0
0 0 0 0
249.94753 375.1998 2780.8325 263424
266.88925 375.77466 2785.093 131840
284.05624 376.58099 2791.0693 66304
301.53671 377.69101 2799.2964 512
319.48727 379.24292 2810.7983 512
337.60614 380.83032 2822.5637 512
355.45328 381.97543 2831.0508 256
373.19592 382.90979 2837.9758 256
391.15921 383.97989 2845.907 197888
409.16751 385.0036 2853.4944 131840
428.0813 386.76392 2866.541 131584
445.90836 387.44519 2871.5903 131840
463.66528 388.01749 2875.832 263168
483.09085 389.89584 2889.7537 131840
502.20816 391.40494 2900.9385 328960
525.54248 395.99124 2934.9304 197888
544.87036 397.36102 2945.0828 461056
562.73535 397.61185 2946.9417 658433
588.58417 403.31836 2989.2361 855813
616.17419 409.84848 3037.6348 1382156
643.87012 416.07516 3083.7844 1776913
676.71753 425.19379 3151.3682 1974291
686.20789 419.54083 3109.4707 1842962
703.03796 418.5542 3102.158 1974804
724.34229 420.21359 3114.457 2106389
727.09253 411.29486 3048.3545 2369561
776.30243 428.45154 3175.5134 2237721
795.27692 428.5025 3175.8909 2303514
811.2052 426.94775 3164.3679 2171929
831.14636 427.52771 3168.6663 2303515
825.23962 415.08087 3076.415 2303516
861.52783 423.93698 3142.053 2369307
889.61328 428.4664 3175.6235 2435101
911.37183 429.8237 3185.6831 2369309
932.62854 430.89386 3193.6147 2435101
954.49554 432.19763 3203.2778 2566687
981.47974 435.72214 3229.4001 2369308
999.33472 435.13632 3225.0583 1974550
1024.2384 437.58398 3243.1992 1842964
1037.8312 435.19812 3225.5161 2106138
1054.2867 434.07751 3217.2107 1908760
1071.0367 433.11594 3210.0837 1974807
1087.3557 432.01672 3201.937 1974293
1099.8788 429.47314 3183.0852 1842964
1118.5293 429.36777 3182.304 1513742
1118.5326 422.22693 3129.3789 1118984
1124.6895 417.60458 3095.1199 1184777
1128.0128 412.09592 3054.2917 1184777
1132.3198 407.11545 3017.3787 1052935
1144.105 404.9371 3001.2336 921607
1130.1345 393.84988 2919.0593 1052936
1126.0448 386.48938 2864.5063 657925
1128.3616 381.51428 2827.6331 329218
1127.4762 375.61856 2783.936 197632
1133.1233 372.03818 2757.3997 460803
1138.2485 368.39105 2730.3687 1316109
1130.9641 360.8866 2674.7485 1908245
1141.043 359.05399 2661.166 2566431
1150.7643 357.16055 2647.1326 2829602
1146.0923 350.91129 2600.8154 2500637
1154.4211 348.75595 2584.8411 2171671
1157.0389 344.95459 2556.667 1776912
1159.4525 341.19174 2528.7783 2040085
1161.9441 337.54791 2501.7715 1842707
1166.1658 334.49243 2479.1255 1645328
1169.9855 331.39932 2456.2007 1711121
1173.4263 328.27652 2433.0557 1776914
1175.6205 324.88525 2407.9209 1776915
1183.848 323.2229 2395.6001 2039832
1190.406 321.14957 2380.2336 2105625
1188.4904 316.86581 2348.4841 2303004
1204.0663 317.29089 2351.6345 2171418
1194.9047 311.2623 2306.9529 2434591
1203.4725 309.93643 2297.1262 2368800
1209.8308 308.07776 2283.3503 2500385
1207.0477 303.95828 2252.8186 2105627
1208.3995 300.95908 2230.5896 2237213
1198.4541 295.24188 2188.2161 2368797
1188.3694 289.61356 2146.501 2303002
1196.9877 288.61441 2139.0957 2303257
1196.7844 285.53165 2116.2476 2303257
1199.9374 283.30542 2099.7476 2369050
1203.4572 281.21072 2084.2227 2434843
1199.5277 277.43582 2056.2446 2368797
1205.0735 275.90652 2044.9099 2565918
1208.5784 273.94513 2030.3729 2565921
1205.5657 270.55984 2005.2825 2434335
1205.2375 267.83743 1985.105 2434592
1216.1208 267.63513 1983.6057 1908249
1223.3885 266.64871 1976.2948 1381904
1223.5175 264.13986 1957.7002 1513491
1227.7229 262.55011 1945.9175 1184526
1228.3278 260.2272 1928.7009 526596
1221.0659 256.29605 1899.5651 460804
1227.3785 255.2601 1891.8868 526340
1216.7914 250.76019 1858.5354 855305
1215.8813 248.31764 1840.4321 1513491
1211.0411 245.12315 1816.7559 2171421
1210.0693 242.76123 1799.2501 2631968
1225.1321 243.6293 1805.684 2763553
1225.879 241.6602 1791.0898 2829603
1227.0844 239.81461 1777.411 2763553
1226.0685 237.57014 1760.7759 3092520
1225.7917 235.50566 1745.4747 2829348
1230.1252 234.35416 1736.9403 2631971
1221.791 230.82857 1710.8101 2500386
1219.0847 228.41568 1692.9266 1842456
1212.0834 225.24413 1669.4204 1513492
1213.5386 223.68288 1657.849 1381651
