# .PCD v0.7 - Point Cloud Data file format
VERSION 0.7
FIELDS x y z rgb
SIZE 4 4 4 4
TYPE F F F U
COUNT 1 1 1 1
WIDTH 1304
HEIGHT 1
VIEWPOINT 0 0 0 1 0 0 0
POINTS 1304
DATA ascii
-1207.918 -959.08752 2034.0463 1382944
-1205.3479 -966.72552 2050.2451 922394
-1197.6392 -970.35608 2057.9448 725015
-1194.731 -977.99133 2074.1377 988185
-1203.1284 -995.13702 2110.5005 922393
-1216.4254 -1016.7393 2156.3149 592912
-1219.5685 -1030.2244 2184.9143 262
-1214.4928 -1036.9823 2199.2466 6
-1213.6091 -1047.5056 2221.5645 7
-1215.0028 -1060.2477 2248.5881 9
-1208.1572 -1066.0034 2260.7949 9
-1210.6962 -1080.2623 2291.0354 9
-1207.3159 -1089.5042 2310.6355 9
-1212.7552 -1107.0092 2347.7605 9
-1216.8302 -1123.6619 2383.0779 9
-1213.725 -1133.9985 2405 8
-1214.0433 -1147.8185 2434.3096 262
-1214.532 -1162.1349 2464.6719 1030
-1205.1632 -1167.2534 2475.5273 776
-1190.7457 -1167.5485 2476.1531 661021
-1179.0394 -1170.5422 2482.5024 2635067
-1168.9603 -1175.248 2492.4827 1778986
-1170.7253 -1192.1355 2528.2976 463120
-1165.4207 -1202.1696 2549.5779 790544
-1167.139 -1219.8079 2586.9856 855822
-1165.6512 -1234.522 2618.1914 1053201
-1156.0461 -1240.9209 2631.7625 790029
-1146.405 -1247.4563 2645.6228 1184787
-1129.0046 -1245.6128 2641.7131 724236
-1149.2736 -1285.8638 2727.0779 1184787
-1156.099 -1312.01 2782.5293 1118994
-1156.4497 -1331.4609 2823.781 987665
-1143.7875 -1336.2821 2834.0059 1118994
-1139.8495 -1351.5922 2866.4756 921615
-1128.0348 -1357.8853 2879.822 1118994
-1126.5774 -1377.0323 2920.4297 1119250
-1119.3591 -1389.627 2947.1404 1184789
-1120.2928 -1412.9036 2996.5056 1053717
-1112.405 -1425.6268 3023.4893 1053717
-1106.7454 -1441.6705 3057.5151 1053974
-1105.6742 -1464.3269 3105.5649 1053717
-1102.5906 -1485.0425 3149.4988 1053973
-1091.0392 -1494.8717 3170.3447 1251097
-923.89093 -1288.1097 2731.8413 856594
-1065.094 -1511.5518 3205.7202 1185303
-1042.6302 -1506.6327 3195.2878 987927
-921.35608 -1356.0969 2876.0293 922390
-999.12775 -1498.3734 3177.7712 1053719
-874.88184 -1337.3329 2836.2344 988183
-949.71368 -1480.2507 3139.3367 1119769
-916.03625 -1456.3828 3088.717 922646
-895.15204 -1452.2939 3080.0454 1185816
-875.46436 -1450.0161 3075.2146 1120023
-855.04181 -1446.3979 3067.541 1185816
-835.46613 -1444.0859 3062.6377 1251354
-815.99176 -1441.85 3057.8955 1185562
-797.73547 -1441.7133 3057.6057 922390
-783.5025 -1449.0111 3073.083 988183
-767.34198 -1453.0073 3081.5583 1119770
-752.73285 -1460.2087 3096.8311 1317149
-742.72363 -1476.9182 3132.2688 1448735
-728.53351 -1485.9595 3151.4436 1448735
-714.71466 -1496.2552 3173.2793 1448478
-703.37152 -1512.4331 3207.5894 1317406
-685.55493 -1515.2048 3213.4678 1252126
-673.81586 -1531.9531 3248.9878 1186333
-660.58716 -1546.2034 3279.2097 1186334
-643.43066 -1551.8472 3291.1792 1054234
-627.47418 -1560.8301 3310.2302 790806
-613.55786 -1575.6337 3341.626 988441
-601.03491 -1595.1263 3382.9663 1054490
-580.92151 -1595.1263 3382.9663 1317406
-564.28113 -1605.0048 3403.9167 1252126
-544.32422 -1605.834 3405.675 1383968
-521.51093 -1597.975 3389.0076 1252125
-504.65115 -1608.4596 3411.2439 988953
-481.60178 -1599.2683 3391.7507 1120539
-460.65161 -1596.5493 3385.9841 1120795
-428.43481 -1552.7489 3293.0918 1383454
-418.34964 -1588.8047 3369.5593 1317147
-395.27048 -1576.6567 3343.7959 1053976
-373.05624 -1566.8552 3323.0085 1119769
-355.11407 -1574.9034 3340.0774 527634
-334.40512 -1570.9081 3331.604 922392
-314.35043 -1569.6764 3328.9919 659476
-296.10059 -1577.8972 3346.4265 659477
-272.55667 -1557.0583 3302.2312 659476
-256.87521 -1581.3876 3353.8289 659989
-240.80899 -1607.2438 3408.665 856597
-221.33896 -1613.0458 3420.9702 856597
-202.28636 -1623.3724 3442.8708 987926
-179.49974 -1602.6844 3398.9956 856595
-162.59016 -1635.8782 3469.3933 1053717
-142.44997 -1641.491 3481.2969 1053717
-120.02676 -1618.2316 3431.9683 987923
-99.931458 -1623.2583 3442.6289 922129
-79.967056 -1633.5485 3464.4526 1053457
-59.095196 -1626.0101 3448.4651 921613
-38.752777 -1632.7689 3462.7993 592649
-17.882921 -1607.4392 3409.0796 263427
2.3642504 -1592.9532 3378.3577 921613
0 0 0 0
39.041077 -1462.0604 3100.7583 4738120
57.924351 -1473.4496 3124.9126 4277827
75.013039 -1444.7433 3064.0317 3554359
94.01149 -1456.8501 3089.7083 3949118
111.588 -1446.5658 3067.897 3818048
129.52838 -1443.2255 3060.8127 4147525
145.8484 -1424.8778 3021.9009 4015427
162.53865 -1413.7751 2998.3542 4080963
180.3701 -1413.8124 2998.4331 4278085
192.92371 -1376.1942 2918.6519 4343878
206.89226 -1354.0452 2871.678 4343878
231.44283 -1399.2493 2967.5476 4475464
237.38142 -1333.4965 2828.0981 4410441
263.67889 -1383.244 2933.6033 4476236
304.41989 -1497.8872 3176.7402 4608078
298.03384 -1380.7953 2928.4102 4738638
297.14105 -1300.6748 2758.4895 4541259
314.65616 -1305.2983 2768.2949 4672845
331.49478 -1306.7952 2771.4695 4672589
350.90924 -1317.8239 2794.8594 4738638
377.12045 -1352.2261 2867.8201 4869970
399.59735 -1370.8413 2907.2993 4804689
419.76602 -1380.3225 2927.4072 4805200
442.81155 -1398.1322 2965.1785 4805201
466.30109 -1415.9265 3002.9167 4870738
486.9505 -1424.1023 3020.2561 4870482
502.36945 -1416.9437 3005.0742 4936277
507.72626 -1382.8712 2932.8127 4804692
522.40686 -1375.6129 2917.4192 2107439
559.39069 -1425.6633 3023.5667 2634041
572.57843 -1413.8384 2998.4883 3555401
589.72479 -1412.2074 2995.0291 3292742
603.823 -1403.5864 2976.7456 3423815
630.17719 -1423.1342 3018.2029 3950413
652.47986 -1432.7032 3038.4971 3818570
672.9071 -1437.7496 3049.1997 3752519
681.00262 -1416.8744 3004.927 3818312
701.63513 -1422.4835 3016.823 3883592
733.48883 -1449.9957 3075.1711 3818056
754.8927 -1456.0143 3087.9355 3752007
764.94171 -1440.3661 3054.7488 3554114
786.67017 -1446.926 3068.6609 3554112
805.88617 -1448.6722 3072.3643 3619904
835.69104 -1468.9535 3115.3772 3554367
838.60791 -1442.1171 3058.4622 3619645
855.28052 -1439.5732 3053.0671 3422264
873.48474 -1439.6593 3053.2495 3290677
889.5556 -1436.2972 3046.1194 3159091
907.72174 -1436.385 3046.3054 3158834
921.24646 -1429.2684 3031.2124 3158575
955.8786 -1454.5436 3084.8164 3026987
1019.6785 -1522.4158 3228.7607 2105885
1044.0487 -1529.9974 3244.8398 2698023
1051.6649 -1513.1973 3209.21 3158574
1066.4418 -1507.1154 3196.3115 2895402
1087.6677 -1510.2012 3202.856 2698024
1107.4999 -1511.2784 3205.1406 2040094
1110.304 -1489.4763 3158.9023 2236960
1121.4049 -1479.3445 3137.4146 1974300
1148.2404 -1489.9617 3159.9314 2237470
1167.2207 -1490.2081 3160.4541 2237471
1145.7529 -1439.624 3053.1748 2303266
1253.8655 -1550.8945 3289.1589 2238243
1214.0833 -1478.6272 3135.8933 2106657
1169.9819 -1403.3652 2976.2766 2435622
1176.9784 -1390.7231 2949.4651 2369830
1190.5316 -1386.0863 2939.6311 2435368
1201.7157 -1378.8649 2924.3159 2435368
1274.964 -1442.0474 3058.3142 2830126
1252.5747 -1396.8031 2962.3596 2764333
1232.5599 -1355.4249 2874.6042 3158578
1239.2777 -1344.1736 2850.7422 3290163
1293.5984 -1384.1616 2935.5493 3224370
1253.7194 -1323.6322 2807.1777 3224370
1256.3051 -1308.937 2776.012 3289906
1356.3561 -1394.8546 2958.2271 3290678
1267.9019 -1287.1982 2729.9082 3159351
0 0 0 0
0 0 0 0
0 0 0 0
0 0 0 0
0 0 0 0
1157.4182 -1091.2196 2314.2739 12505034
1162.9927 -1083.5935 2298.1001 13422800
1168.0365 -1075.6556 2281.2656 13488848
1166.9257 -1062.2972 2252.9348 12632271
1188.7441 -1069.8785 2269.0134 6915757
1201.4589 -1069.1884 2267.5496 5861272
1189.5153 -1046.8132 2220.0962 1516879
1200.6965 -1045.0566 2216.3706 2607
1216.4569 -1047.2803 2221.0867 4355218
1236.3362 -1052.9641 2233.1411 2895431
1274.1536 -1073.6426 2276.9963 28
1286.8856 -1072.9707 2275.5713 27
1301.2369 -1073.6489 2277.0098 28
1313.5426 -1072.6426 2274.8755 28
1331.0769 -1075.8831 2281.7478 284
1336.1428 -1069.0818 2267.3237 284
1345.1628 -1065.5487 2259.8306 2768731
0 0 0 0
0 0 0 0
1196.6315 -920.315 1951.8169 13489101
1199.3451 -913.54279 1937.4543 13488591
1199.0753 -904.6485 1918.5913 13685201
1229.8004 -919.08582 1949.2102 13685457
1239.0511 -917.35468 1945.5387 13685457
1239.6283 -909.29321 1928.4418 13619921
1240.483 -901.5813 1912.0863 13750737
1231.2677 -886.75702 1880.6467 13750737
1232.9037 -879.94434 1866.1982 13750737
1235.2896 -873.78351 1853.1323 13750737
1242.502 -871.1156 1847.4742 13750737
1240.0472 -861.77618 1827.667 13619664
1240.3423 -854.49341 1812.2217 13684946
1261.1069 -861.31653 1826.6921 13553877
1260.4969 -853.54907 1810.219 13488598
0 0 0 0
1162.2882 -773.83228 1641.1543 7369866
1161.9957 -767.1969 1627.0819 5462630
1168.8881 -765.37555 1623.2192 4278100
1176.5972 -764.1145 1620.5448 5528422
1176.6814 -757.9624 1607.4973 3093825
1176.1825 -751.5368 1593.8699 5593446
1171.8207 -742.76544 1575.2673 3093052
1176.6664 -739.9231 1569.2393 5001305
1184.3539 -738.89844 1567.0662 724246
1185.7594 -734.0011 1556.6798 4935765
1179.6814 -724.58313 1536.7061 3026996
1186.063 -722.90399 1533.145 4606286
1185.3988 -716.98895 1520.6002 3487805
1181.3531 -709.13354 1503.9404 2566703
1184.8342 -705.88025 1497.0408 6185318
1181.7744 -698.80786 1482.0415 2368810
1187.1956 -696.81787 1477.8212 5329493
1185.937 -690.96539 1465.4091 3158067
1185.9165 -685.91431 1454.6967 2631982
1187.0112 -681.57678 1445.4976 5592407
1191.1185 -679.01892 1440.0729 1118739
1189.3601 -673.17755 1427.6844 4144448
1191.5735 -669.65112 1420.2056 3026478
1188.6276 -663.29529 1406.726 526344
1188.8499 -658.78387 1397.1581 7434609
1184.5963 -651.87201 1382.4993 1447446
1190.3889 -650.54565 1379.6864 1907997
1183.6008 -642.40918 1362.4303 4474181
1187.347 -640.06201 1357.4524 1052944
1184.0374 -633.96857 1344.5294 2895405
1189.0007 -632.35681 1341.1112 5264210
1185.8247 -626.46655 1328.619 592137
1193.4362 -626.31549 1328.2987 3882044
1192.0764 -621.48932 1318.0632 8684676
1182.5221 -612.48169 1298.9598 7829624
1190.3939 -612.55835 1299.1223 7434609
1196.6013 -611.78296 1297.4779 7566196
1201.6349 -610.42126 1294.59 5262929
1204.5045 -607.98462 1289.4224 2959918
1206.8649 -605.32336 1283.7783 1907743
1213.6481 -604.89996 1282.8804 1315860
1217.6963 -603.12726 1279.1207 1447446
1226.5311 -603.73254 1280.4044 1315860
1231.11 -602.24847 1277.2571 1579032
1239.0056 -602.3952 1277.5681 1579032
0 0 0 0
0 0 0 0
0 0 0 0
0 0 0 0
0 0 0 0
0 0 0 0
0 0 0 0
0 0 0 0
0 0 0 0
0 0 0 0
0 0 0 0
0 0 0 0
-1606.1907 -874.15436 1877.5939 3750191
-1608.9921 -881.80756 1894.0323 3881776
-1609.6816 -888.4032 1908.199 3618603
-1629.7823 -905.88184 1945.7413 3684396
-1621.4669 -907.70282 1949.6526 3684395
-1609.3987 -907.43408 1949.0754 3618859
-1592.8961 -904.64319 1943.0808 3750702
-1566.9644 -896.41718 1925.4122 3487531
-1569.3169 -904.37 1942.494 3487532
-1569.7809 -911.34418 1957.4739 3553325
-1593.201 -931.84955 2001.5173 3553325
-1618.1489 -953.56366 2048.157 3487532
-1614.423 -958.58179 2058.9353 3355946
-1604.1737 -959.77368 2061.4954 3355946
-1576.6602 -950.57526 2041.7382 3355946
-1495.6848 -908.75153 1951.9052 3224360
-1625.7781 -995.51819 2138.271 3290409
-1610.9203 -994.19458 2135.428 3290154
-1504.1501 -935.67468 2009.7334 2829862
-1545.3071 -968.9743 2081.2576 2698275
-1495.4023 -945.25104 2030.3024 1316624
-1453.8328 -926.45325 1989.9265 512
-1440.6056 -925.55634 1988 198149
-1438.4608 -931.82349 2001.4614 1053715
-1431.6921 -935.17511 2008.6603 1448733
-1415.278 -932.22968 2002.3337 1251357
-1413.5392 -938.98279 2016.8387 1317152
-1392.3064 -932.79114 2003.5398 1251358
-1381.7441 -933.70331 2005.4989 1251358
-1368.5437 -932.83301 2003.6298 1448737
-1355.476 -932.03876 2001.9237 1514531
-1343.5736 -932.03876 2001.9237 1579813
-1325.0402 -927.39777 1991.9552 1448228
-1313.1929 -927.39478 1991.9489 1382692
-1280.3868 -912.45587 1959.8616 1515047
-1258.1584 -904.84961 1943.5243 1186083
-1249.057 -906.6308 1947.3499 1383717
-1256.7285 -920.73364 1977.6416 1448227
-1225.4463 -906.29437 1946.6274 1053726
-1234.8801 -921.97888 1980.316 1382690
-1213.7179 -914.90198 1965.1156 1777449
-1205.8356 -917.79523 1971.3301 1382434
-1214.5325 -933.48804 2005.0366 1514532
-1202.6473 -933.51581 2005.0963 1646116
-1200.3324 -941.047 2021.2726 1382944
-1196.1823 -947.2774 2034.6548 1119772
-1193.5812 -954.87421 2050.9719 1053977
-1186.0922 -958.67706 2059.1401 527633
-1198.9603 -979.18494 2103.189 922391
-1213.4214 -1001.4398 2150.99 988184
-1201.2086 -1001.9202 2152.0217 132102
-1215.2439 -1024.5399 2200.6067 1031
-1218.2002 -1038.2098 2229.9685 6
-1216.1045 -1047.828 2250.627 6
-1215.0245 -1058.5448 2273.6458 8
-1214.252 -1069.7737 2297.7642 7
-1212.2909 -1080.199 2320.1567 6
-1210.3948 -1090.923 2343.1907 6
-1209.5524 -1102.8574 2368.8247 7
-1207.3525 -1113.8207 2392.3728 6
-1217.9929 -1137.0323 2442.2288 262
-1213.3397 -1146.3546 2462.2522 261
-1208.7776 -1155.9917 2482.9517 260
-1189.257 -1151.3849 2473.0569 515
-1195.3877 -1171.8083 2516.9243 259
-1188.7737 -1180.0979 2534.7292 513
-1182.192 -1188.6326 2553.061 593677
-1168.2795 -1189.9227 2555.832 658957
-1184.924 -1222.7802 2626.4062 790029
-1154.9678 -1207.7834 2594.1951 1053457
-1162.8296 -1232.4636 2647.2053 921615
-1139.4978 -1224.3054 2629.6826 1053201
-1151.3192 -1254.2155 2693.9263 921615
-1154.3287 -1275.2346 2739.0732 921872
-1145.3793 -1283.4546 2756.729 1250580
-1152.1333 -1309.7653 2813.2415 1053201
-1141.9592 -1317.3235 2829.4758 1118994
-1140.989 -1335.8837 2869.3413 987408
-1142.6245 -1358.1045 2917.0691 1184787
-1131.6272 -1365.7637 2933.5203 1119508
-1119.6239 -1372.4293 2947.8376 1053714
-1120.8258 -1395.7515 2997.9312 987924
-1119.3973 -1416.4988 3042.4941 987924
-992.93622 -1277.1111 2743.1038 1053717
-1102.8051 -1442.111 3097.5066 1251096
-968.7652 -1288.345 2767.2329 1119510
-1091.0392 -1476.0223 3170.3447 1119510
-937.27704 -1290.2955 2771.4226 1382682
-1053.3877 -1476.0884 3170.4866 1185305
-1035.0317 -1476.7935 3172.001 1053719
-909.5354 -1321.8187 2839.1311 922390
-996.01617 -1474.8724 3167.8748 988183
-974.19409 -1470.3633 3158.1897 988183
-944.92468 -1454.2157 3123.5063 1053976
-910.08734 -1428.6801 3068.6584 1119769
-887.07928 -1421.0494 3052.2686 922390
-872.53778 -1426.9464 3064.9346 1053976
-853.6756 -1425.8779 3062.6396 1251355
-834.68561 -1424.545 3059.7766 1317148
-816.46991 -1424.5034 3059.6873 1317150
-779.51227 -1391.0155 2987.7585 1185563
-785.3656 -1434.1421 3080.3904 1185562
-768.85706 -1437.5187 3087.6428 1185563
-749.95135 -1436.4688 3085.3877 1119770
-741.84821 -1456.5763 3128.5767 1317149
-731.40662 -1473.0088 3163.8718 1185563
-712.27014 -1472.3356 3162.4258 1120540
-702.1413 -1490.7504 3201.979 1252126
-688.97766 -1503.5687 3229.5115 1054747
-674.54761 -1514.2791 3252.5161 1186333
-658.38348 -1521.6139 3268.2708 1186333
-642.4856 -1530.0289 3286.3452 1186333
-627.40155 -1540.9707 3309.8472 1186333
-611.21051 -1549.8141 3328.8418 1317148
-594.0578 -1556.7294 3343.6951 1317148
-581.52728 -1576.6553 3386.4939 1448734
-564.26733 -1584.728 3403.8333 1514527
-544.646 -1586.5228 3407.6885 1185562
-525.29169 -1589.2643 3413.5767 1383710
-504.69028 -1588.3013 3411.5083 1186586
-482.94113 -1583.4943 3401.1836 1252379
-461.15625 -1578.145 3389.6936 1515295
-440.72223 -1577.1407 3387.5366 1251867
-418.82388 -1570.5494 3373.3792 1317404
-399.58255 -1573.7595 3380.2742 1120024
-375.97571 -1559.2057 3349.0139 1251609
-357.32535 -1564.7283 3360.876 856596
-336.08725 -1558.9025 3348.3625 856338
-314.88867 -1552.5377 3334.6919 790545
-292.97617 -1541.5612 3311.1155 856338
-275.81024 -1555.7775 3341.6506 658959
-256.08682 -1556.6552 3343.5356 856338
-239.45197 -1578.0343 3389.4561 987924
-220.62915 -1587.5988 3409.9995 987924
-201.35448 -1595.5187 3427.0105 921360
-179.51578 -1582.6169 3399.2991 1118994
-158.70035 -1576.6075 3386.3914 987922
-142.77209 -1624.4579 3489.1689 1053715
-122.02724 -1624.4579 3489.1689 1053715
-101.59378 -1629.4519 3499.8958 1316630
-81.67691 -1647.4387 3538.5293 1382165
-59.827881 -1625.4131 3491.2205 790283
-39.329163 -1636.1595 3514.303 263427
-18.076208 -1604.3257 3445.927 66304
2.3767853 -1581.2064 3396.2693 922383
0 0 0 0
39.207054 -1449.7623 3113.9409 4869709
58.010464 -1457.0332 3129.5581 4080706
75.827469 -1442.0143 3097.2988 3685948
93.867661 -1436.2795 3084.9812 3817790
111.66368 -1429.2942 3069.9775 4015683
129.11827 -1420.5155 3051.1218 3950147
146.05324 -1408.8871 3026.145 4278341
162.27911 -1393.7196 2993.5667 4278085
183.57373 -1420.7798 3051.6895 4343878
194.5611 -1370.3741 2943.4231 4146499
209.12094 -1351.3737 2902.6121 4278085
222.44456 -1327.8904 2852.1724 4607050
236.90947 -1314.0643 2822.4753 4409671
250.97215 -1299.9839 2792.2322 4803916
281.88098 -1369.4963 2941.5376 4540744
281.38257 -1287.2117 2764.7986 4738637
314.88202 -1360.9526 2923.1868 4804175
315.40155 -1291.8925 2774.8528 4804431
351.09473 -1366.6088 2935.3354 4803918
353.06757 -1309.2103 2812.0496 4738125
380.03024 -1345.4774 2889.9475 4936017
402.33002 -1362.8121 2927.1809 4870480
423.69446 -1375.6727 2954.804 4673615
441.62817 -1376.8135 2957.2544 4739408
462.58224 -1386.9227 2978.9678 4739407
485.94012 -1403.2277 3013.9893 5199705
502.59961 -1399.7181 3006.4509 5002584
521.04724 -1401.2584 3009.7595 4409936
533.8985 -1388.1459 2981.5952 2041903
559.19904 -1407.2043 3022.5308 2634297
573.23474 -1397.6111 3001.9253 3621193
588.57678 -1391.6858 2989.1985 3687241
602.01611 -1381.741 2967.8379 4147537
619.88843 -1382.2473 2968.9255 3884620
650.50366 -1410.3534 3029.2944 4015950
656.98163 -1386.0229 2977.0354 4081486
673.99811 -1384.6189 2974.0193 4015693
712.14948 -1425.595 3062.0317 3949898
746.80841 -1457.7111 3131.0139 4014922
742.29175 -1413.6571 3036.3906 4014407
767.76746 -1427.458 3066.0334 3685697
794.62317 -1443.1249 3099.6843 3817026
817.23877 -1450.5557 3115.6448 3948612
836.88849 -1452.5094 3119.8413 3619646
850.38416 -1443.9288 3101.4111 3751231
860.96387 -1430.8666 3073.3547 3488570
877.39667 -1427.8724 3066.9236 3356470
889.5636 -1418.1992 3046.1465 3224884
909.04974 -1420.3481 3050.7622 3356213
928.40576 -1422.2135 3054.7688 3421746
976.85699 -1467.7229 3152.5183 3355953
1001.9832 -1477.1324 3172.729 2369057
1021.9824 -1478.776 3176.2593 3092780
1038.7819 -1475.8137 3169.8967 3158572
1059.0729 -1477.8293 3174.2261 2895401
1080.0276 -1480.6841 3180.3577 2895402
1113.3837 -1500.15 3222.1685 2040094
1107.4896 -1466.9672 3150.8953 2039837
1113.6024 -1450.5281 3115.5854 2105887
1147.7733 -1470.5758 3158.646 2237473
1130.9674 -1425.7159 3062.2915 2369059
1140.5986 -1415.0767 3039.4397 2434595
1157.2222 -1413.3091 3035.6428 2304036
1148.2297 -1380.7913 2965.7981 2369829
1226.5654 -1452.6844 3120.2173 2501415
1171.9458 -1367.3156 2936.8538 2501416
1185.924 -1363.3118 2928.2539 2698540
1193.1155 -1351.7349 2903.3879 2764333
1359.0032 -1517.718 3259.9028 2566954
1212.6296 -1335.2075 2867.8889 2830126
1229.6218 -1335.1437 2867.7517 2961198
1242.5936 -1330.7758 2858.3699 3092784
1253.7963 -1324.6566 2845.2268 3487542
1265.7208 -1319.453 2834.0498 3355956
1268.5233 -1305.0018 2803.01 3553335
1268.8879 -1288.4498 2767.4583 3487804
1268.785 -1271.8529 2731.8098 3356732
1297.1898 -1283.8911 2757.6665 3422785
0 0 0 0
0 0 0 0
0 0 0 0
1143.932 -1077.7178 2314.8271 7640481
1143.443 -1064.4504 2286.3303 11259593
1159.0372 -1066.2913 2290.2842 13553362
1171.6736 -1065.3995 2288.3691 13292497
1184.4709 -1064.6732 2286.8088 8819640
1168.8835 -1038.7389 2231.1047 5267588
1179.6914 -1036.58 2226.4673 1517385
1188.4553 -1032.6926 2218.1179 1582407
1201.2778 -1032.3787 2217.4436 1056
1215.5237 -1033.2815 2219.3826 3629695
1247.9417 -1049.4467 2254.1038 2040640
1281.6268 -1066.3225 2290.3516 28
1292.5021 -1064.0652 2285.5029 27
1308.642 -1066.1438 2289.9675 27
1321.9153 -1065.8683 2289.376 27
1338.3381 -1068.1121 2294.1951 283
1352.0454 -1068.165 2294.3091 282
0 0 0 0
0 0 0 0
0 0 0 0
0 0 0 0
1200.3597 -902.78674 1939.0934 13488846
1195.0712 -890.25873 1912.1846 13685457
1233.0536 -909.89734 1954.3663 13685457
1238.3527 -905.27686 1944.4419 13685457
1238.892 -897.29437 1927.2964 13619665
1239.8564 -889.76337 1911.1205 13750737
1230.5594 -875.07196 1879.5649 13750737
1232.3639 -868.46838 1865.3811 13750737
1235.543 -862.94281 1853.5126 13750737
1241.2124 -859.23865 1845.5566 13750737
1240.1516 -850.98138 1827.8208 13619920
1240.4323 -843.78009 1812.3531 13684947
1255.5817 -846.72992 1818.689 13553617
1257.8445 -841.013 1806.4098 13619412
0 0 0 0
1171.5432 -770.15894 1654.2224 6843264
1164.0918 -758.88953 1630.0168 5461351
1169.2938 -755.987 1623.7826 3290438
1170.2166 -750.38812 1611.7567 5198175
1175.1637 -747.43976 1605.424 3290433
1174.04 -740.7088 1590.9666 5395809
1171.3179 -733.08496 1574.5914 4145739
1177.2629 -730.96362 1570.0349 2895666
1181.452 -727.79382 1563.2266 2896183
1181.5699 -722.18524 1551.1799 2764594
1184.0852 -718.11743 1542.4426 5988453
1184.5869 -712.90045 1531.2371 1974051
1181.5806 -705.66785 1515.7021 5066837
1183.9463 -701.72882 1507.2416 2698288
1186.9465 -698.22223 1499.7097 5132885
1181.0312 -689.56244 1481.1095 4671308
1182.3958 -685.24982 1471.8463 1315861
1184.9832 -681.70404 1464.2305 4605769
1186.03 -677.33026 1454.8359 1710620
1187.7588 -673.40637 1446.4078 3750459
1187.5186 -668.43066 1435.7205 4210752
1189.2977 -664.65448 1427.6096 921102
1185.812 -658.01025 1413.3386 4342338
1187.4963 -654.30835 1405.3872 2829099
1187.2386 -649.59552 1395.2645 1973790
1186.0143 -644.42279 1384.1542 4737608
1184.3833 -639.10205 1372.7257 658187
1188.7439 -637.06506 1368.3505 2697513
1186.1407 -631.34912 1356.0732 4934475
1188.304 -628.23035 1349.3744 723723
1186.2137 -622.91968 1337.9677 2697513
1191.4656 -621.50964 1334.9391 8224125
1181.7965 -612.3866 1315.3436 7171439
1187.47 -611.28143 1312.9698 7500404
1188.8585 -607.99939 1305.9203 7303536
1194.8337 -607.09027 1303.9677 5198160
1211.418 -611.54858 1313.5437 2369317
1218.156 -611.01111 1312.3892 1514007
1216.0242 -606.05975 1301.7542 1249811
1219.6683 -604.03149 1297.3977 1118222
1222.858 -601.80511 1292.6157 986895
1229.1593 -601.1283 1291.162 1579032
1236.9432 -601.18042 1291.2739 1579032
1243.2029 -600.49573 1289.8032 1579032
1250.5289 -600.3313 1289.4501 1381653
0 0 0 0
0 0 0 0
0 0 0 0
0 0 0 0
0 0 0 0
0 0 0 0
0 0 0 0
0 0 0 0
0 0 0 0
0 0 0 0
0 0 0 0
0 0 0 0
-1616.532 -868.54724 1889.6824 3815983
-1604.2429 -867.97717 1888.4419 3750191
-1639.3513 -893.22406 1943.3711 3815984
-1627.8372 -893.24597 1943.4189 3750451
-1613.1357 -891.5069 1939.6353 3750451
-1601.8278 -891.63165 1939.9067 3882034
-1568.6862 -879.51678 1913.5485 3684911
-1509.1504 -852.31818 1854.373 3816496
-1565.7949 -890.81714 1938.1344 3421739
-1589.8954 -911.23444 1982.556 3553324
-1588.6442 -917.31836 1995.7926 3553324
-1482.6666 -862.56714 1876.6715 3553325
-1576.4929 -924.10663 2010.5618 3553325
-1581.4459 -934.09271 2032.2885 3487532
-1584.3644 -943.02167 2051.7148 3487532
-1613.7755 -967.98004 2106.0164 3421739
-1608.3573 -972.27399 2115.3586 3290667
-1492.6432 -909.43469 1978.6404 3092774
-1580.2139 -970.43793 2111.364 2566430
-1546.1893 -957.14642 2082.4458 2632224
-1500.4425 -936.32507 2037.1453 1842965
-1456.9946 -916.61133 1994.2544 131584
-1443.1021 -915.32013 1991.4451 66050
-1434.9612 -917.68579 1996.592 1448475
-1423.0112 -917.6347 1996.481 1448475
-1414.6653 -919.92627 2001.4668 1250843
-1403.9717 -920.71722 2003.1876 1382943
-1387.1571 -917.47339 1996.13 1580323
-1374.3596 -916.85333 1994.7809 1251871
-1369.8844 -921.82263 2005.5927 1580324
-1354.822 -919.69238 2000.9579 1382943
-1337.9963 -916.31671 1993.6135 1514790
-1320.7579 -912.5957 1985.5176 1186081
-1318.4696 -919.23059 1999.9531 1186081
-1279.8145 -900.4007 1958.9854 1383460
-1260.8071 -895.17499 1947.6158 1251874
-1296.8048 -929.26794 2021.7913 1383460
-1238.683 -895.92358 1949.2445 1514790
-1224.6063 -894.10742 1945.2931 1448996
-1243.8046 -916.78296 1994.6278 1251618
-1213.2021 -902.83459 1964.2806 1448483
-1213.037 -911.4859 1983.1031 1382690
-1206.6616 -915.59479 1992.0428 1119774
-1198.8761 -918.70459 1998.8087 1777961
-1199.6246 -928.48175 2020.0808 1251615
-1195.778 -934.86426 2033.967 1185566
-1195.0902 -943.87195 2053.5649 1185563
-1190.5243 -949.97113 2066.8347 593426
-1194.665 -963.21729 2095.6543 659219
-1207.5905 -983.90021 2140.6536 593426
-1202.8165 -990.44928 2154.9023 922391
-1200.3622 -999.06995 2173.6582 66054
-1218.9329 -1025.5682 2231.3098 66315
-1226.4573 -1043.2531 2269.7866 7
-1226.4346 -1054.8405 2294.9971 7
-1226.3429 -1066.6285 2320.644 6
-1224.2438 -1076.9192 2343.0332 7
-1216.2113 -1082.167 2354.4509 7
-1211.7347 -1090.738 2373.0986 6
-1209.3105 -1101.3804 2396.2529 7
-1213.0663 -1117.9716 2432.3503 5
-1222.0602 -1139.8491 2479.9487 5
-1222.0847 -1153.7928 2510.2859 260
-1214.9985 -1161.285 2526.5864 260
-1194.587 -1156.0692 2515.2385 257
-1182.1832 -1158.5687 2520.6768 257
-1174.3967 -1165.7157 2536.2263 461321
-1172.5681 -1179.0393 2565.2141 724236
-1177.087 -1199.1808 2609.0356 658443
-1136.8916 -1173.6982 2553.5938 724236
-1148.4323 -1201.6599 2614.4292 724236
-1148.7729 -1218.509 2651.0876 987408
-1131.3375 -1216.7094 2647.1721 987408
-1093.0649 -1192.1332 2593.7021 1250580
-1161.8693 -1285.3064 2796.4175 1053201
-1153.3927 -1294.4525 2816.3167 1184787
-1147.728 -1307.0706 2843.7693 1119508
-1149.7922 -1328.9993 2891.4792 922129
-1094.8364 -1284.6862 2795.0681 987922
-1136.4615 -1354.0824 2946.0522 1119508
-1130.2653 -1367.7806 2975.8552 1251096
-1127.4735 -1386.1 3015.7122 1185303
-1055.3601 -1318.4109 2868.4424 1185303
-1103.4558 -1401.1366 3048.427 1251096
-1100.0238 -1420.1041 3089.6946 1185303
-1094.5837 -1437.0796 3126.6277 1119510
-1082.1403 -1445.2878 3144.4863 987924
-1072.3889 -1457.4436 3170.9333 1053717
-1053.3877 -1457.2383 3170.4866 1053717
-1031.3796 -1452.79 3160.8086 1185048
-916.61523 -1315.0962 2861.2307 988183
-934.20813 -1365.6829 2971.2913 1251355
-957.39172 -1426.5502 3103.719 1251355
-886.41321 -1346.7472 2930.0933 1185562
-902.59222 -1398.8197 3043.3862 1119769
-886.17688 -1401.4751 3049.1636 1251355
-841.86322 -1359.1992 2957.1848 988183
-847.54102 -1397.5533 3040.6311 1185562
-831.91046 -1401.6774 3049.6035 1251355
-813.77911 -1401.6774 3049.6035 1185562
-798.14758 -1406.0813 3059.1853 1185562
-786.05505 -1417.0708 3083.0947 1448734
-773.02948 -1426.8625 3104.3987 1054746
-759.6814 -1436.5237 3125.4182 1054746
-746.5788 -1447.145 3148.5269 988953
-731.85199 -1455.0836 3165.7986 1120538
-718.52551 -1466.2987 3190.1992 1120540
-700.43573 -1468.1381 3194.2012 1252125
-692.86633 -1492.7455 3247.739 1317920
-676.33014 -1498.8916 3261.1111 1186334
-657.28662 -1499.6799 3262.8259 1252127
-640.51038 -1505.8462 3276.2419 1252126
-621.71936 -1507.514 3279.8706 1120540
-607.22815 -1520.0536 3307.1526 1252126
-594.01428 -1536.7368 3343.45 1383712
-579.16052 -1550.186 3372.7114 1514784
-562.92346 -1560.7646 3395.7271 1251869
-541.51959 -1557.2717 3388.1277 1449247
-523.45465 -1563.4818 3401.6387 1317917
-504.12857 -1566.2729 3407.7112 1384221
-485.63947 -1572.0071 3420.1868 1318173
-462.10538 -1561.1981 3396.6702 1318172
-445.09235 -1572.439 3421.1267 1514781
-420.0126 -1554.8937 3382.9536 1448988
-400.17142 -1555.9517 3385.2556 1251609
-376.38672 -1540.9768 3352.6748 922388
-356.5072 -1541.2092 3353.1807 856339
-336.58765 -1541.2861 3353.3479 724752
-315.65109 -1536.4224 3342.7659 790802
-298.33289 -1549.7006 3371.655 724753
-274.11877 -1526.4905 3321.1572 659472
-257.4957 -1545.2307 3361.9302 987924
-236.75586 -1540.3416 3351.2927 987924
-217.63141 -1546.0292 3363.6672 1053717
-201.27014 -1574.4838 3425.5752 1250581
-180.84573 -1573.9817 3424.4829 1053458
-161.20464 -1581.0347 3439.8284 1316116
-143.4678 -1611.5277 3506.1714 1250580
-122.45769 -1609.37 3501.4768 1381909
-102.48791 -1622.8011 3530.6985 1250580
-81.804138 -1628.9337 3544.0413 1184529
-60.902946 -1633.4905 3553.9553 1381907
-39.192581 -1609.6558 3502.0986 197634
-18.186808 -1593.5287 3467.011 197890
2.3684378 -1555.5316 3384.3416 790284
0 0 0 0
38.577831 -1408.2788 3063.9663 4541258
57.720978 -1431.2484 3113.9409 4080706
76.569954 -1437.5388 3127.6267 3554618
94.186638 -1422.7561 3095.4644 4014913
112.36508 -1419.905 3089.2612 4212292
130.16872 -1413.7842 3075.9443 4146499
146.94734 -1399.4099 3044.6704 4081219
162.66292 -1379.1754 3000.6467 4213062
182.92456 -1397.676 3040.8979 4344391
203.01526 -1411.6598 3071.3223 4409671
212.44626 -1355.3306 2948.7678 4606793
230.96042 -1361.1193 2961.3623 4607050
246.47083 -1349.6399 2936.3867 4607050
250.25 -1279.6898 2784.1978 4672843
291.43689 -1397.8412 3041.2573 4607307
281.45737 -1271.1112 2765.5334 4541256
298.38577 -1273.1848 2770.0449 4738638
317.91528 -1285.5594 2796.968 5001297
335.96094 -1291.002 2808.8091 4935504
355.80228 -1302.5024 2833.8306 5067346
378.57709 -1323.2161 2878.897 4869970
405.56073 -1356.2125 2950.6865 4869713
421.7933 -1352.011 2941.5454 5067862
440.62271 -1356.1367 2950.5217 5002325
461.36884 -1365.6198 2971.1538 4936789
485.16364 -1383.0945 3009.1733 4673616
503.27301 -1383.6948 3010.4792 4607825
518.44708 -1376.4607 2994.7402 5002583
536.39746 -1376.8334 2995.551 2041901
558.31653 -1387.0415 3017.7607 2831418
575.91333 -1386.2103 3015.9524 3423557
594.2431 -1387.1405 3017.9761 4015694
602.41852 -1365.0076 2969.8218 3884366
632.3808 -1392.0957 3028.7571 4015949
637.13599 -1363.7302 2967.043 4278865
655.78784 -1365.8367 2971.6257 4146766
692.146 -1403.7427 3054.0972 4212302
696.7843 -1377.024 2995.9658 4212043
746.10754 -1437.7451 3128.0757 4146250
743.04907 -1397.0282 3039.4885 4080457
773.34528 -1419.4669 3088.3081 3948871
798.16412 -1431.0443 3113.4968 3817283
819.88239 -1436.6638 3125.7231 3685697
838.76172 -1437.1699 3126.8242 3554111
855.09503 -1433.3862 3118.592 3619904
868.67712 -1425.2491 3100.8884 3488316
887.11346 -1425.2491 3100.8884 3817280
908.20624 -1429.4303 3109.9851 3488056
918.54761 -1416.8601 3082.6367 3356213
935.98035 -1415.5067 3079.6919 3092782
959.37195 -1423.0438 3096.0903 3092782
988.35913 -1438.4408 3129.5894 2105885
1018.3647 -1454.7236 3165.0154 2895400
1034.2926 -1450.6707 3156.1975 2829608
1057.6881 -1457.0493 3170.0754 2829609
1080.0601 -1461.8192 3180.4534 2895403
1100.8964 -1464.3823 3186.0298 2171936
1099.1422 -1437.318 3127.1462 2237216
1106.6342 -1423.0437 3096.0901 2171680
1117.7094 -1413.7687 3075.9106 2369059
1122.9652 -1397.5502 3040.6243 2500645
1131.2524 -1385.5585 3014.5342 2500645
1134.4302 -1367.7803 2975.8545 2172450
1141.5244 -1355.1978 2948.4788 2501415
1154.9742 -1350.4269 2938.0989 2633001
1169.9059 -1347.5049 2931.7417 2501161
1182.9641 -1342.5426 2920.9453 2698540
1191.5219 -1332.6903 2899.5098 2632747
1212.037 -1336.3024 2907.3684 2830126
1220.9381 -1327.188 2887.5386 3027505
1239.2505 -1328.4149 2890.208 2829612
1254.348 -1326.2092 2885.4089 3158577
1257.3408 -1311.4375 2853.2705 3158577
1268.8336 -1305.8066 2841.0195 3290163
1304.6357 -1325.0131 2882.8064 3158834
1343.5521 -1346.8429 2930.3015 3159093
1306.2122 -1292.6495 2812.3938 3159353
1296.1528 -1266.4821 2755.4619 3290938
1281.278 -1236.3214 2689.8418 3620677
0 0 0 0
0 0 0 0
1138.7853 -1059.168 2304.4124 7309467
1137.1055 -1045.0327 2273.6584 10339273
1156.7472 -1050.5945 2285.759 13095123
1170.2048 -1050.4756 2285.5005 10991033
1171.9238 -1039.9429 2262.5847 6913177
1171.7949 -1028.0282 2236.6619 6320523
1179.2881 -1022.9925 2225.7061 1451581
1191.8806 -1022.4431 2224.5107 1253946
1202.5604 -1020.283 2219.811 794
1212.5675 -1017.6053 2213.9851 4154490
1253.2889 -1040.4843 2263.7625 2238016
1289.489 -1059.1631 2304.4016 24
1298.4542 -1055.3142 2296.0278 27
1315.4988 -1058.0436 2301.9661 283
1331.0044 -1059.4918 2305.1169 283
1344.7496 -1059.5234 2305.1858 540
1355.5608 -1057.266 2300.2744 280
1340.5613 -1035.1238 2252.0999 3425625
0 0 0 0
0 0 0 0
0 0 0 0
1203.2218 -893.383 1943.7169 13488593
1200.1858 -882.65131 1920.3682 13685457
1211.1145 -882.29523 1919.5934 13685457
1237.6351 -893.1983 1943.3152 13685457
1238.5972 -885.62488 1926.8378 13685201
1239.8054 -878.36469 1911.0419 13750737
1229.0381 -862.82898 1877.2412 13750737
1226.5515 -853.33405 1856.5831 13750737
1233.5247 -850.53101 1850.4847 13750737
1240.0238 -847.45367 1843.7894 13750737
1240.0909 -840.073 1827.7314 13619665
1240.3767 -832.96735 1812.2719 13685203
1258.0587 -837.56592 1822.2769 13553617
1259.8112 -831.57123 1809.2341 13619412
0 0 0 0
0 0 0 0
1161.2443 -747.3656 1626.0297 5328739
1170.9366 -747.38147 1626.0641 6184300
1164.1219 -736.9472 1603.3625 4540242
1170.5718 -735.01141 1599.1509 4869205
1171.4131 -729.61353 1587.4067 3619136
1178.1295 -727.93201 1583.7483 6053735
1178.4476 -722.3551 1571.6147 1909034
1174.7682 -714.43494 1554.3829 4277837
1177.0405 -710.22961 1545.2335 2237996
1180.8883 -707.03284 1538.2783 4672079
1185.3241 -704.23444 1532.1899 2697774
1186.7803 -699.72198 1522.3722 3553853
1187.95 -695.11029 1512.3386 5461847
1185.0773 -688.22015 1497.348 1908769
1179.2996 -679.75836 1478.9379 5395029
1181.4814 -675.97589 1470.7084 1842460
1183.4481 -672.12671 1462.3337 2434854
1184.804 -667.98926 1453.332 4277058
1186.8104 -664.276 1445.2531 526857
1186.476 -659.31512 1434.4598 4079421
1188.396 -655.66907 1426.5272 1776409
1186.463 -649.96387 1414.1145 657930
1184.2637 -644.19415 1401.5614 5066061
1183.2148 -639.12646 1390.5356 1776411
1187.3066 -636.88654 1385.6624 2697513
1186.7415 -632.19672 1375.4589 5460819
1189.6344 -629.40076 1369.3756 592136
1186.0188 -623.22253 1355.9338 3355700
1187.449 -619.76141 1348.4036 7633015
1180.6545 -612.08282 1331.6973 7501429
0 0 0 0
1190.5146 -609.02618 1325.047 7304050
1188.5321 -604.01501 1314.1443 4606023
1198.1403 -604.9212 1316.116 2631720
1202.0809 -602.97284 1311.8768 1644826
1214.1846 -605.11774 1316.5436 1447446
1221.483 -604.85571 1315.9735 1249810
1224.4216 -602.4519 1310.7437 1512726
1229.2118 -600.98383 1307.5494 1381653
1237.6085 -601.28632 1308.2076 1315860
1239.8413 -598.60907 1302.3828 1381653
1245.9785 -597.83844 1300.7061 986895
1251.6776 -596.86835 1298.5956 1052688
1258.248 -596.32318 1297.4094 723723
0 0 0 0
0 0 0 0
0 0 0 0
0 0 0 0
0 0 0 0
0 0 0 0
0 0 0 0
0 0 0 0
0 0 0 0
0 0 0 0
0 0 0 0
0 0 0 0
-1553.4131 -823.83771 1815.8982 3750191
-1590.7806 -849.55975 1872.5946 3750192
-1626.1083 -874.54736 1927.6721 3750704
-1623.4631 -879.32227 1938.1969 3947826
-1601.2137 -873.47125 1925.3002 3487275
-1592.2578 -874.8399 1928.3169 3487531
-1559.298 -862.94421 1902.0964 3619118
-1511.5376 -842.6239 1857.3064 3684911
-1542.3152 -866.10858 1909.0714 3553325
-1554.403 -879.36816 1938.298 3487532
-1484.3774 -846.02515 1864.8036 3619118
-1578.6035 -906.50043 1998.1029 3619118
-1580.33 -914.37299 2015.4554 3553325
-1548.5704 -902.84283 1990.0408 3553325
-1589.5438 -933.86615 2058.4221 3553325
-1473.6515 -872.4964 1923.1512 3487531
-1599.099 -954.17273 2103.1819 3356203
-1537.6753 -924.75293 2038.3348 3158567
-1566.8826 -949.80383 2093.5518 3026984
-1544.6764 -943.84076 2080.4082 2631969
-1497.8101 -922.5918 2033.5713 1579281
-1451.4824 -901.33148 1986.7095 66048
-1445.6571 -905.07953 1994.9708 256
-1431.1086 -903.38312 1991.2317 1251096
-1424.2872 -906.5769 1998.2712 1251098
-1407.8032 -903.62207 1991.7584 1185308
-1395.6902 -903.44666 1991.3717 1119261
-1384.4518 -903.83917 1992.2369 1382944
-1371.4954 -903.1073 1990.6237 1185567
-1364.1243 -906.07245 1997.1594 1514533
-1350.6138 -904.97595 1994.7426 1251618
-1331.4506 -900.039 1983.8605 1317668
-1321.49 -901.29004 1986.618 1186081
-1319.0187 -907.71777 2000.786 1251875
-1321.7072 -917.84558 2023.1096 857116
-1263.5563 -885.52203 1951.8624 1251874
-1253.3822 -886.534 1954.0929 1251874
-1248.6273 -891.4339 1964.8933 857116
-1235.8022 -890.61023 1963.0779 1120288
-1226.8531 -892.59094 1967.4436 1251874
-1229.7595 -903.31812 1991.0884 1382947
-1214.6287 -900.87592 1985.7052 1580323
-1206.9827 -903.99164 1992.5729 1317151
-1191.8395 -901.49823 1987.077 922393
-1197.9763 -915.21228 2017.3053 1448735
-1193.3787 -920.91974 2029.8859 988183
-1194.2163 -930.9812 2052.0632 988182
-1195.0507 -941.24786 2074.6929 725010
-1192.1476 -948.75415 2091.2383 396301
-1210.0209 -973.1275 2144.9619 593680
-1208.3385 -982.12549 2164.7952 856338
-1205.123 -990.05786 2182.2795 658702
-1217.1028 -1010.7819 2227.9595 658704
-1225.851 -1029.249 2268.6646 197896
-1225.9333 -1040.7701 2294.0591 5
-1227.1228 -1053.5007 2322.1201 5
-1228.427 -1066.6207 2351.0391 7
-1222.9502 -1074.0874 2367.4968 6
-1214.8103 -1079.3615 2379.1221 5
-1207.819 -1085.7925 2393.2974 5
-1211.4053 -1101.9991 2429.0198 5
-1226.4904 -1129.1833 2488.9392 4
-1232.3151 -1148.4017 2531.3 260
-1220.4187 -1151.3768 2537.8579 260
-1199.5492 -1145.8549 2525.6865 257
-1190.2872 -1151.4214 2537.9563 0
-1188.9102 -1164.8563 2567.5693 724493
-1174.3423 -1165.5488 2569.0957 461064
-1172.2214 -1178.776 2598.251 329478
-1186.5814 -1209.1509 2665.2031 526857
-1183.5867 -1222.4237 2694.459 132099
-1146.1591 -1200.0103 2645.0554 855821
-1158.4691 -1229.7721 2710.6562 855820
-1152.4285 -1240.6185 2734.564 592907
-1158.5883 -1265.0977 2788.5208 658444
-1085.3785 -1202.3632 2650.2417 856336
-1146.3628 -1288.6282 2840.3865 856336
-1148.9381 -1310.8335 2889.3313 790543
-1138.4777 -1318.6145 2906.4822 1184787
-1134.1964 -1333.9027 2940.1802 1053201
-1133.7031 -1354.1941 2984.9065 987922
-1127.7006 -1368.4456 3016.3193 1316887
-1120.9941 -1382.2896 3046.8342 1119508
-1114.1849 -1396.4595 3078.0676 1185302
-1102.3018 -1404.6372 3096.0928 1251095
-1088.7672 -1410.9525 3110.0129 1053716
-1074.3309 -1416.2972 3121.7939 1119510
-1014.8146 -1361.356 3000.6926 1119509
-949.79822 -1296.9379 2858.7029 922130
-1019.5347 -1417.5287 3124.5081 1185303
-997.63373 -1412.8209 3114.1313 987924
-973.25031 -1404.3531 3095.4668 1119510
-944.91382 -1389.745 3063.2676 1185304
-919.4447 -1378.8627 3039.2808 1053719
-899.6153 -1376.1713 3033.3484 987925
-884.26447 -1380.361 3042.5833 922646
-867.15112 -1381.9167 3046.0127 1185562
-847.64874 -1379.6508 3041.0178 1317148
-829.32074 -1379.2388 3040.1099 1185562
-812.64044 -1381.6101 3045.3367 1448478
-798.60675 -1388.6913 3060.9451 1448734
-782.23779 -1391.9475 3068.1223 1580064
-773.02948 -1408.4054 3104.3987 1383455
-760.16718 -1418.8481 3127.4167 1120540
-746.43994 -1428.1598 3147.9412 1120796
-763.81854 -1498.9957 3304.0774 1120539
-720.53247 -1451.3741 3199.1101 1186332
-705.44165 -1459.5039 3217.0298 1120539
-689.52161 -1466.3234 3232.061 1186332
-675.7345 -1478.1997 3258.239 1186332
-659.71692 -1485.754 3274.8899 1252126
-644.45294 -1495.5164 3296.4082 1383712
-625.8606 -1497.9253 3301.7178 1252126
-608.35614 -1503.178 3313.2959 1186333
-593.13239 -1514.6064 3338.4863 1449761
-580.01886 -1532.4014 3377.71 1383711
-563.87396 -1543.1766 3401.4607 1449504
-544.81854 -1546.4918 3408.7678 1252382
-524.96478 -1547.7097 3411.4524 1317916
-485.41824 -1488.6334 3281.2368 1252379
-486.77975 -1555.3157 3428.2173 1252379
-467.7139 -1559.7062 3437.895 1383965
-443.8046 -1547.6083 3411.2288 1448988
-422.06961 -1542.2969 3399.5215 1317401
-399.73169 -1534.1371 3381.5359 1185815
-380.04443 -1535.825 3385.2561 1185815
-356.57962 -1521.582 3353.8621 1185302
-337.23132 -1524.2582 3359.7607 1053715
-314.75674 -1512.251 3333.2947 922129
-296.01486 -1517.769 3345.4575 922129
-271.46237 -1492.1432 3288.9729 922129
-256.64865 -1520.225 3350.8708 1053972
-236.76253 -1520.4591 3351.387 987922
-221.07556 -1550.1809 3416.8994 1119508
-199.92079 -1543.6979 3402.6096 790543
-179.94331 -1545.869 3407.395 1053715
-163.38693 -1581.7097 3486.395 1382680
-143.92334 -1595.7325 3517.304 987922
-123.60958 -1603.4946 3534.4133 922384
-103.02267 -1610.1671 3549.1208 1119761
-82.12146 -1614.0997 3557.7888 856589
-61.575512 -1630.1661 3593.2024 855820
-40.047474 -1623.4906 3578.4883 461062
-18.225441 -1576.2566 3474.3755 264453
2.3978992 -1554.5092 3426.4397 659211
0 0 0 0
38.44249 -1385.1853 3053.217 4343876
58.02248 -1420.1139 3130.2065 4014910
76.290184 -1413.759 3116.1992 3554359
94.15554 -1403.8884 3094.4426 4080961
112.28053 -1400.4832 3086.9365 4278085
130.73009 -1401.5144 3089.2097 4146756
147.54834 -1386.9572 3057.1228 4081476
162.37564 -1358.9309 2995.3474 4147269
181.65105 -1369.9916 3019.7273 4212805
200.04655 -1373.0234 3026.4102 4409928
209.96733 -1322.1885 2914.3601 4409671
222.20198 -1292.5642 2849.0623 4278086
247.59721 -1338.2699 2949.8064 4475464
262.49295 -1324.9329 2920.4089 4475464
266.78452 -1263.0469 2784.0002 4607050
281.96951 -1256.9519 2770.5659 4804429
300.3335 -1264.9187 2788.1262 4804431
318.66205 -1271.9106 2803.5378 4870224
334.36163 -1268.236 2795.438 4804431
357.24298 -1290.8596 2845.3052 4738895
378.25937 -1305.0035 2876.481 5067346
399.98969 -1320.2802 2910.1536 5001810
421.60968 -1333.9412 2940.2649 4870994
440.84308 -1339.2638 2951.9973 4936788
460.80606 -1346.3104 2967.5293 5068119
482.10626 -1356.6003 2990.2102 5068118
502.20282 -1362.8917 3004.0776 5265754
521.06274 -1365.5103 3009.8494 5002326
538.51117 -1364.3787 3007.3552 1975853
560.18207 -1373.6741 3027.844 2436661
575.93439 -1368.3291 3016.0627 3620937
588.5965 -1356.1869 2989.2988 3818573
621.78394 -1390.6626 3065.29 4015952
620.1731 -1347.5624 2970.2888 3884108
672.00311 -1419.7543 3129.4138 4081743
659.6181 -1356.0431 2988.9822 4015693
677.90503 -1357.0759 2991.2588 3949386
714.48792 -1393.7458 3072.0862 3883592
761.64337 -1448.6974 3193.21 3883592
746.07324 -1384.5692 3051.8591 3949640
773.9928 -1402.2784 3090.8938 3882820
799.51447 -1414.9229 3118.7644 3619904
816.74622 -1412.6555 3113.7668 3751490
841.17279 -1422.6573 3135.8127 3554110
862.05341 -1426.358 3143.9697 3751232
876.68488 -1419.7812 3129.4734 3488060
883.19495 -1400.5988 3087.1914 3619646
902.0755 -1401.4154 3088.9915 3619643
919.935 -1400.6449 3087.293 3553335
937.93689 -1400.1169 3086.1294 3355955
960.07343 -1405.663 3098.354 3290161
1003.1816 -1441.1273 3176.5242 2566438
1010.6957 -1425.0927 3141.1807 3027245
1030.5743 -1426.7577 3144.8508 2961196
1051.5498 -1429.8551 3151.678 3026988
1073.1738 -1433.7103 3160.1758 3092781
1087.3693 -1427.6793 3146.8821 2040094
1125.9877 -1453.3766 3203.5239 1974301
1100.7485 -1397.1653 3079.6233 2105887
1111.0568 -1387.1752 3057.603 2105887
1116.4667 -1371.4894 3023.0286 2105887
1126.8549 -1362.3191 3002.8154 2303523
1125.4684 -1339.4219 2952.3457 2435622
1286.8176 -1507.9259 3323.7612 2369829
1151.3114 -1328.7312 2928.7812 2567209
1167.0597 -1326.8384 2924.6091 2369829
1166.547 -1306.7856 2880.4089 2500388
1187.5403 -1311.0557 2889.821 2829610
1213.7622 -1320.894 2911.5066 2961198
1349.2803 -1447.7264 3191.0701 3026991
1243.6277 -1315.8627 2900.4165 3421749
1258.7101 -1313.6063 2895.4431 3355956
1275.4142 -1313.0804 2894.2842 3355956
1279.2568 -1299.5037 2864.3582 3026993
1290.4106 -1293.6128 2851.3735 3224371
1285.605 -1272.0833 2803.9182 3159095
1297.7648 -1267.6768 2794.2056 3290939
1295.7437 -1249.7048 2754.592 3356479
1313.233 -1250.764 2756.9265 3818060
0 0 0 0
0 0 0 0
0 0 0 0
1136.6614 -1031.1118 2272.7705 9746880
1155.6306 -1036.0035 2283.5527 13291988
1172.5404 -1038.9567 2290.062 11383744
1178.8096 -1032.522 2275.8787 6717086
1186.3306 -1027.3173 2264.4065 6583951
1197.7096 -1025.533 2260.4736 1517119
1186.4001 -1004.5767 2214.282 1385531
1206.4884 -1010.3746 2227.0618 1050
1210.3748 -1002.6256 2209.9814 5204351
1253.8474 -1027.4827 2264.771 2106940
1293.288 -1048.5424 2311.1907 28
1304.3143 -1046.3644 2306.3901 25
1319.9946 -1047.9266 2309.8335 282
1337.2473 -1050.692 2315.929 538
1350.7943 -1050.5189 2315.5476 539
1351.5829 -1040.5273 2293.5242 279
0 0 0 0
0 0 0 0
0 0 0 0
1192.1381 -882.17627 1944.4877 13488850
1206.9492 -884.55829 1949.7382 13488849
1201.5503 -872.22418 1922.5514 13685457
1231.5598 -885.58392 1951.9987 13685457
1237.0975 -881.26141 1942.4711 13685457
1237.8124 -873.61499 1925.6169 13684945
1239.0194 -866.45288 1909.8302 13750737
1229.6842 -852.1156 1878.2281 13750737
1224.5746 -840.93805 1853.5907 13750737
1234.8083 -840.40265 1852.4105 13750737
1243.0815 -838.5542 1848.3361 13750737
1243.613 -831.56134 1832.9226 13685201
1245.6602 -825.6947 1819.9913 13685203
1257.9703 -826.67358 1822.1489 13619410
1259.2502 -820.44891 1808.4287 13750739
0 0 0 0
0 0 0 0
1158.0881 -735.69312 1621.6104 4605269
1165.092 -734.03149 1617.9478 6776435
1174.7036 -734.02649 1617.9368 4473936
1170.3458 -725.36365 1598.8422 5724514
1170.7135 -719.74554 1586.4587 3356221
1176.6621 -717.62091 1581.7756 5461597
1178.4796 -713.03046 1571.6575 2303533
1171.8845 -703.46234 1550.5675 2303531
1175.6486 -700.21344 1543.4062 5132629
1176.652 -695.38336 1532.7599 2961716
1180.0673 -692.04199 1525.3948 4672334
1191.1957 -693.24036 1528.0363 987668
1184.1046 -683.89764 1507.4431 5198679
1185.7421 -679.69879 1498.188 3422266
1182.8875 -673.00665 1483.4373 2302756
1182.1115 -667.58752 1471.4924 4869195
1180.7819 -661.93774 1459.0392 855309
1186.3685 -660.21924 1455.2512 4408644
1187.5859 -656.11163 1446.1974 3290163
1189.6255 -652.5141 1438.2677 658188
1184.8798 -645.27277 1422.3064 3552822
1185.9329 -641.26959 1413.4825 1052688
1185.146 -636.3349 1402.6056 1184273
1186.2235 -632.4632 1394.0715 5197647
1185.6874 -627.79083 1383.7727 526344
1188.1531 -624.76123 1377.095 3289649
1182.7759 -617.67743 1361.4808 7895160
1183.9045 -614.06421 1353.5167 7631988
1179.4286 -607.61255 1339.296 7763574
1184.3091 -606.03534 1335.8195 7303023
1187.666 -603.70459 1330.682 5263440
1199.3748 -605.62201 1334.9083 2763306
1204.1145 -604.01831 1331.3735 1250068
1206.6943 -601.35919 1325.5123 1381652
1219.7308 -603.9118 1331.1388 1381653
1227.1193 -603.65314 1330.5686 1447446
1232.8508 -602.58801 1328.2208 1710618
1236.13 -600.34528 1323.2775 1842204
1242.5333 -599.63861 1321.7198 1381653
1252.4503 -600.62585 1323.896 1118481
1254.0691 -597.64624 1317.3282 986895
1259.83 -596.66522 1315.1659 855309
1263.7156 -594.81372 1311.0848 723723
1268.7815 -593.53705 1308.2708 526344
0 0 0 0
0 0 0 0
0 0 0 0
0 0 0 0
0 0 0 0
0 0 0 0
0 0 0 0
0 0 0 0
0 0 0 0
0 0 0 0
0 0 0 0
0 0 0 0
-1666.6461 -872.3064 1948.2645 3947314
-1648.9023 -869.05951 1941.0128 3882032
-1529.6218 -811.87445 1813.292 3750701
-1599.8102 -855.1554 1909.9585 3553323
-1599.5007 -861.10217 1923.2404 3750702
-1569.0258 -850.77795 1900.1815 3684911
-1554.4482 -848.98651 1896.1804 3619118
-1549.8127 -852.63849 1904.3372 3553325
-1558.6161 -863.79224 1929.2487 3487532
-1524.9502 -851.40015 1901.5713 3619118
-1560.5297 -877.77234 1960.4727 3618605
-1491.5773 -845.30151 1887.9501 3684399
-1484.9979 -847.95422 1893.8748 3684399
-1577.1454 -907.45233 2026.7618 3618862
-1579.3749 -915.73175 2045.2534 3487532
-1594.5156 -931.68378 2080.8818 3290409
-1579.7462 -930.27191 2077.7285 3487535
-1559.4576 -925.56207 2067.2092 3092520
-1547.167 -925.56207 2067.2092 3026727
-1543.698 -930.88171 2079.0903 2631969
-1481.689 -900.70135 2011.6836 1842456
-1459.6265 -894.5105 1997.8566 66048
-1442.0751 -891.00525 1990.0278 0
-1432.3275 -892.30359 1992.9277 1119508
-1422.5703 -893.61768 1995.8624 1185305
-1408.3458 -892.12384 1992.5261 1185306
-1399.9144 -894.30548 1997.3988 921880
-1381.9316 -890.37067 1988.6105 1119773
-1381.5813 -897.82642 2005.2627 1053725
-1357.7881 -890.04486 1987.8829 1250848
-1348.5824 -891.77289 1991.7423 1251104
-1330.5345 -887.63275 1982.4955 1448227
-1335.5439 -898.93823 2007.7457 1251874
-1322.4579 -898.1579 2006.0029 1317668
-1299.3353 -890.48492 1988.8656 1383460
-1288.6853 -891.29736 1990.6802 1251874
-1269.9072 -886.45117 1979.8564 1383461
-1256.3124 -885.16632 1976.9867 725529
-1242.089 -883.41016 1973.0645 725529
-1232.699 -885.09088 1976.8182 1317667
-1220.3768 -884.67841 1975.8971 857116
-1217.3331 -891.04938 1990.1265 1646117
-1208.381 -893.17834 1994.8812 1646116
-1195.9576 -892.75824 1993.943 791321
-1194.0566 -900.26306 2010.7047 988954
-1194.0656 -909.37427 2031.0543 1711906
-1194.5325 -919.02386 2052.6064 988183
-1197.2806 -930.64612 2078.5642 857107
-1195.1239 -938.65833 2096.4592 725521
-1199.5428 -952.05835 2126.3877 791059
-1200.3696 -962.86261 2150.5186 527375
-1209.8693 -980.93115 2190.874 724754
-1209.5487 -991.34436 2214.1316 517
-1206.4091 -999.65076 2232.6836 922131
-1219.3113 -1021.5826 2281.6675 790545
-1222.1995 -1035.5233 2312.8035 3
-1221.3743 -1046.5991 2337.5413 4
-1225.2014 -1061.9625 2371.8547 4
-1217.1437 -1067.2625 2383.6919 4
-1206.7819 -1070.6431 2391.2422 4
-1209.4095 -1085.7657 2425.0181 5
-1235.25 -1122.3445 2506.7153 5
-1224.877 -1126.5111 2516.0215 4
-1227.8981 -1143.2517 2553.4111 4
-1222.3134 -1152.2986 2573.6169 3
-1196.9318 -1142.6754 2552.124 2
-1195.5066 -1155.9692 2581.8152 855823
-1178.3131 -1154.1636 2577.7825 1118994
