# .PCD v0.7 - Point Cloud Data file format
VERSION 0.7
FIELDS x y z rgb
SIZE 4 4 4 4
TYPE F F F U
COUNT 1 1 1 1
WIDTH 1314
HEIGHT 1
VIEWPOINT 0 0 0 1 0 0 0
POINTS 1314
DATA ascii
-1525.5752 -325.86862 1808.495 3092514
-1493.0402 -321.18277 1782.4895 3224096
-1612.0186 -349.25644 1938.2919 2961179
-1594.3309 -347.91144 1930.8274 3092764
-1581.0245 -347.50995 1928.5992 2960666
-1563.3457 -346.13452 1920.9659 3157789
-1549.2319 -345.53397 1917.6329 3026460
-1502.2715 -337.54416 1873.2915 3091742
-1494.0201 -338.19754 1876.9176 3091742
-1500.1945 -342.15082 1898.8573 3091742
-1486.6792 -341.63937 1896.0189 3157535
-1477.7242 -342.17609 1898.9976 2894366
-1470.473 -343.11862 1904.2283 3025951
-1478.3019 -347.6218 1929.22 2566170
-1470.6343 -348.52298 1934.2213 2763549
-1470.9272 -351.33975 1949.8538 2895132
-1470.6997 -354.07599 1965.0393 2500375
-1474.5881 -357.85495 1986.0115 2039821
-1470.87 -359.83398 1996.9948 1382149
-1460.6938 -360.25253 1999.3176 1185028
-1449.9243 -360.5304 2000.8596 1382153
-1449.7535 -363.47003 2017.1741 263680
-1430.4048 -361.6105 2006.854 768
-1416.7153 -361.16241 2004.3673 512
-1403.0656 -360.71692 2001.8948 512
-1389.002 -360.15652 1998.7848 256
-1372.7511 -359.01437 1992.4462 256
-1358.1525 -358.28827 1988.4164 132097
-1344.712 -357.85757 1986.0262 131841
-1325.5363 -355.87949 1975.0481 527115
-1308.6205 -354.47818 1967.2712 658956
-1302.2061 -355.92188 1975.2833 1185044
-1285.4762 -354.54672 1967.6517 1185044
-1276.3582 -355.26501 1971.6379 988692
-1266.1964 -355.7034 1974.071 1448986
-1256.9608 -356.41266 1978.0071 1712158
-1251.9104 -358.33322 1988.6659 1251608
-1239.302 -358.10645 1987.4072 1185815
-1234.2986 -360.09396 1998.4376 1120023
-1225.344 -360.95621 2003.2229 988437
-1209.599 -359.81552 1996.8922 988437
-1201.2255 -360.86664 2002.7257 988437
-1189.2506 -360.84607 2002.6117 1119512
-1184.5847 -363.06531 2014.9279 922133
-1162.1925 -359.84134 1997.0355 1119512
-1151.5474 -360.22556 1999.168 461582
-1148.4512 -363.00391 2014.587 132101
-1134.4794 -362.36694 2011.0521 922131
-1131.0172 -365.10913 2026.2705 1185303
-1133.6268 -369.89148 2052.8115 258
-1125.8151 -371.34055 2060.8535 66565
-1109.5217 -369.99316 2053.3757 592651
-1100.4244 -371.04211 2059.1973 256
-1092.9806 -372.6785 2068.2788 256
-1084.7013 -374.064 2075.968 256
-1074.6981 -374.88007 2080.4971 0
-1084.2324 -382.60965 2123.3943 0
-1077.4215 -384.68539 2134.9143 0
-1065.9712 -385.1344 2137.4062 0
-1058.3475 -386.9935 2147.7236 0
-1056.9021 -391.18472 2170.9841 0
-1045.4426 -391.72739 2173.9956 0
-1035.969 -393.03693 2181.2634 0
-1033.3326 -397.00662 2203.2942 0
-1029.4204 -400.58176 2223.1355 0
-1053.906 -415.44421 2305.6184 0
-1020.53 -407.58905 2262.0242 0
-1011.7991 -409.49847 2272.6211 0
-999.88757 -410.15488 2276.2642 0
-995.03296 -413.76389 2296.2932 0
-982.55151 -414.25766 2299.0334 0
-973.10126 -416.06137 2309.0437 65536
-966.08453 -418.97211 2325.1975 65536
-951.7475 -418.74658 2323.946 65792
-935.10809 -417.48651 2316.9529 65536
-960.98578 -435.45465 2416.6719 65792
-975.98718 -448.96509 2491.6516 263424
0 0 0 0
0 0 0 0
-1292.2278 -622.79889 3456.3889 1710866
-1276.7766 -625.29608 3470.2473 790280
-1245.6317 -620.06299 3441.2051 329474
-1200.4171 -607.53442 3371.6743 855818
-1167.5663 -600.94403 3335.0991 1118990
-1141.7733 -597.82111 3317.7681 1382162
-1119.7847 -596.6156 3311.0774 1316626
-1099.5448 -596.31512 3309.4099 1119760
-1071.8555 -591.8902 3284.8525 1514518
-1056.5419 -594.26172 3298.0142 1514518
-1039.0953 -595.50067 3304.8899 1646104
-1018.6934 -595.06104 3302.45 1646104
-1000.6668 -596.01874 3307.7654 1909276
-984.34296 -598.04956 3319.0356 1317139
-962.45026 -596.71069 3311.6055 1711897
-951.35583 -602.15063 3341.7959 2040862
-942.63788 -609.35895 3381.8 2106655
-929.31116 -613.83716 3406.6531 2040864
-910.4231 -614.75964 3411.7727 1843483
-892.32239 -616.26801 3420.1438 2172448
-864.50696 -610.9809 3390.8015 2041118
-859.13794 -621.6839 3450.2007 2106655
-840.29779 -622.92407 3457.0833 2369827
-824.16638 -626.28485 3475.7351 2369827
-801.41925 -624.66187 3466.728 2172448
-783.82648 -627.0769 3480.1306 2304034
-823.71838 -676.8587 3756.408 2369827
-755.19965 -637.85028 3539.9202 2632743
-731.01581 -635.12445 3524.793 2632485
-710.44476 -635.46948 3526.7073 2632486
-693.54712 -639.22095 3547.5273 2566949
-675.79913 -642.39954 3565.1677 2632741
-656.60925 -644.3689 3576.0972 2435619
-639.91028 -648.9964 3601.7788 2567205
-628.34143 -659.32745 3659.1138 2501412
-605.6217 -658.27911 3653.2957 2501411
-584.95056 -659.46234 3659.8623 2830377
-563.54932 -659.88208 3662.1917 2698791
-541.32465 -659.33258 3659.1423 725002
-513.19537 -651.24414 3614.2532 2370079
-493.75729 -653.9599 3629.325 2436129
-473.45114 -655.72156 3639.1021 2106394
-451.20126 -654.83099 3634.1594 2896168
-427.30356 -651.33917 3614.7805 2567203
-406.41879 -652.31317 3620.1863 2567203
-380.19998 -644.3562 3576.0269 2304287
-355.41803 -638.03589 3540.9507 2698275
-329.22836 -628.23364 3486.5503 2698275
-308.04779 -627.31458 3481.4497 2566687
-285.02039 -622.23126 3453.2385 2632480
-261.75992 -615.81055 3417.605 2632480
-241.77324 -616.659 3422.3137 2237721
-215.84883 -601.1272 3336.116 2435356
-197.79863 -606.60034 3366.4907 2830113
-179.44957 -612.28613 3398.0454 2566940
-156.86981 -603.14795 3347.3308 2698526
-139.24152 -613.15839 3402.8862 2698269
-120.05713 -618.55511 3432.8367 2632220
-100.46259 -623.61658 3460.9265 2566427
-80.868759 -631.29089 3503.5173 2632220
-60.495419 -636.09418 3530.1743 2698013
-39.719952 -639.52637 3549.2224 1974547
-18.885334 -648.70703 3600.1731 2303512
2.4843738 -639.6676 3550.0061 1974547
23.044645 -624.85529 3467.8013 1251082
39.145123 -560.2077 3109.0222 3290410
57.647961 -560.38422 3110.0017 4408891
76.815384 -565.36639 3137.6516 4014133
94.0867 -557.17291 3092.1799 3619375
112.0555 -555.11334 3080.7498 3685423
130.39062 -555.19232 3081.188 4079926
149.52231 -558.22565 3098.0225 3882547
167.98741 -558.37799 3098.8677 3816754
188.19215 -563.71112 3128.4653 3686195
207.18915 -564.79248 3134.4668 3751731
226.24722 -565.84827 3140.3259 3620145
244.50201 -564.88715 3134.9919 3554352
261.21381 -560.74982 3112.0308 3488817
279.9834 -561.28516 3115.0017 3093033
292.61539 -550.21326 3053.5554 1053198
298.84875 -529.10638 2936.4172 0
311.21219 -520.58368 2889.1179 65536
328.62903 -520.9635 2891.2261 65536
342.8992 -516.56525 2866.8167 65536
358.50952 -514.50677 2855.3926 0
374.2966 -512.87665 2846.3459 0
390.5401 -511.9859 2841.4026 0
406.52176 -510.84012 2835.0435 0
423.00772 -510.39386 2832.5671 65536
438.80759 -509.18576 2825.8623 65536
454.68414 -508.15247 2820.1277 65536
471.05225 -507.72238 2817.741 65536
487.5444 -507.45108 2816.2351 65536
504.02917 -507.19028 2814.7878 65536
519.95001 -506.397 2810.3855 65536
536.40295 -506.15527 2809.0439 65536
552.49982 -505.60229 2805.9749 65536
569.11816 -505.54495 2805.6565 65536
586.33325 -506.0058 2808.2144 65536
603.08484 -506.05231 2808.4724 65536
620.48376 -506.62479 2811.6494 65536
637.87311 -507.15961 2814.6177 65536
655.24829 -507.65619 2817.3735 65536
672.43091 -507.98245 2819.1843 65536
690.06592 -508.62634 2822.7576 0
708.56238 -509.85947 2829.6013 0
724.33813 -509.12317 2825.5149 256
737.17694 -506.40262 2810.4165 0
754.31769 -506.69241 2812.0249 2895400
783.02649 -514.57172 2855.7529 3026986
807.93109 -519.66956 2884.0452 3290415
844.13702 -531.67371 2950.665 3290158
865.11292 -533.79175 2962.4199 3421744
911.80908 -551.3786 3060.0227 3356207
926.99902 -549.59784 3050.1401 3290414
961.15759 -558.91583 3101.8528 3224621
986.97467 -563.12372 3125.2056 3290414
1024.2194 -573.57568 3183.2114 2895656
1036.5417 -569.94476 3163.0608 2698277
1051.9285 -568.09821 3152.8127 3224621
1071.7214 -568.65424 3155.8984 3356207
1085.2178 -565.90765 3140.6558 3356205
1111.6888 -569.90546 3162.8425 1777173
1129.4177 -569.36316 3159.8328 1842964
1150.3741 -570.43903 3165.8037 1842964
1170.981 -571.30963 3170.6355 1777427
1185.2861 -569.12695 3158.522 1777172
1198.7316 -566.60596 3144.5308 1711380
1191.8527 -554.70312 3078.4731 2040346
1206.6982 -553.11835 3069.678 2040345
1211.2684 -546.94092 3035.3948 2040345
1217.4054 -541.64203 3005.9871 1974808
1207.5419 -529.48053 2938.4937 1711380
1226.5133 -530.12921 2942.0935 1908759
1228.3284 -523.44843 2905.0166 2303517
1211.631 -509.17331 2825.7932 2303517
1185.8705 -491.53207 2727.8884 2237467
1194.4955 -488.42697 2710.656 2303259
1192.8674 -481.26804 2670.9255 2434844
1206.814 -480.4982 2666.6531 2566430
1204.4806 -473.35056 2626.9851 2566430
1186.1262 -460.17032 2553.8379 2500893
1197.7964 -458.82434 2546.3682 2500893
1188.3778 -449.53464 2494.8125 2632738
1195.2037 -446.54315 2478.2104 2895910
1203.641 -444.21921 2465.313 3027240
1159.139 -422.64832 2345.5996 4212541
1168.0245 -420.82516 2335.4814 4672581
1188.4169 -423.14191 2348.3389 3291188
1199.245 -422.039 2342.2183 5001551
1204.9384 -419.17517 2326.3245 3685692
0 0 0 0
1210.5905 -411.69009 2284.7839 0
1218.873 -409.90714 2274.8892 65536
1221.449 -406.26523 2254.6775 65536
1216.5935 -400.25751 2221.3359 0
1233.2311 -401.37408 2227.5327 0
1221.0314 -393.18109 2182.0635 0
1210.5511 -385.70825 2140.5908 0
1216.8146 -383.67026 2129.2805 0
1218.4637 -380.23431 2110.2119 256
1223.8124 -378.01114 2097.8738 257
1249.4598 -382.03943 2120.2297 261
1209.396 -366.09583 2031.7465 1776929
1202.6431 -360.45139 2000.4211 5988195
1216.7277 -361.10165 2004.03 6448742
1230.8671 -361.7554 2007.6582 1908767
1240.5889 -361.11078 2004.0807 3947832
1239.1809 -357.2695 1982.7626 4737087
1249.8143 -356.93967 1980.932 4540217
1257.3987 -355.75327 1974.3477 4671290
1267.0632 -355.17191 1971.1212 4473652
1271.5907 -353.17444 1960.0358 4736567
1275.3344 -350.9975 1947.9543 4933945
1285.4209 -350.58978 1945.6915 4604979
1271.2023 -343.61935 1907.0073 4736565
1277.9214 -342.38177 1900.1392 4933943
0 0 0 0
1253.8723 -330.10214 1831.99 4802103
1170.4904 -305.4967 1695.4354 4867896
1221.9779 -316.21167 1754.9011 4736567
1247.5699 -320.10101 1776.486 4933945
1243.3887 -316.34991 1755.6683 4736566
1212.7897 -305.99591 1698.2059 4999481
1204.7377 -301.45465 1673.0031 4407345
1223.8621 -303.7323 1685.6434 4802103
1226.1191 -301.82089 1675.0356 4999482
1235.9581 -301.7916 1674.873 5065275
1248.6128 -302.44482 1678.4983 5327933
1258.1581 -302.34045 1677.9192 5131325
1266.6426 -301.98486 1675.9456 4538418
1272.9589 -301.12192 1671.1565 4274989
1285.2039 -301.66391 1674.1644 5459261
1300.1519 -302.82715 1680.6201 5459261
1310.2229 -302.8454 1680.7213 5196343
1321.3759 -303.11154 1682.1985 5393465
1334.3997 -303.79962 1686.0171 5656381
1346.6829 -304.31009 1688.8501 5524538
1357.3997 -304.46167 1689.6913 5393209
1364.9899 -303.91489 1686.6567 5590075
1376.0068 -304.13345 1687.8698 5787197
1392.0016 -305.44113 1695.1271 5852990
1398.4847 -304.65793 1690.7805 5655868
1375.2445 -297.45691 1650.8165 5853247
1376.7274 -295.66751 1640.8857 5656380
1387.6375 -295.9136 1642.2516 5327416
1404.2153 -297.35654 1650.2595 5787967
1414.7914 -297.51727 1651.1516 5722173
1415.8142 -295.68073 1640.9591 5656381
1426.8364 -295.94327 1642.4163 5656381
1444.5852 -297.58795 1651.5438 5524795
1460.4392 -298.82275 1658.3966 5590588
1476.9891 -300.1824 1665.9424 5656382
1492.6053 -301.33542 1672.3414 5722430
1482.0659 -297.22772 1649.5446 5524795
1493.2312 -297.49826 1651.046 5655869
1530.5911 -302.94998 1681.3018 5590590
1564.6902 -307.68973 1707.6062 5524797
1575.1171 -307.74329 1707.9036 5853762
1546.7588 -300.26697 1666.4117 5590846
1625.9841 -313.63776 1740.6165 5721667
1654.3597 -317.09296 1759.792 5524544
1673.3809 -318.72305 1768.8386 5919045
1686.4971 -319.21503 1771.5691 5787715
1699.3259 -319.64694 1773.9661 5656129
1708.203 -319.33472 1772.2333 5524544
1721.4807 -319.84402 1775.0597 5524798
0 0 0 0
0 0 0 0
0 0 0 0
0 0 0 0
0 0 0 0
0 0 0 0
0 0 0 0
0 0 0 0
0 0 0 0
0 0 0 0
0 0 0 0
0 0 0 0
0 0 0 0
-1529.9736 -313.81299 1801.0154 3158307
-1513.6226 -312.64734 1794.3257 2960925
-1624.9174 -338.01831 1939.9331 2895384
-1612.6997 -337.87506 1939.111 3158045
-1599.8154 -337.58905 1937.4696 3157789
-1582.7693 -336.41434 1930.7277 3026203
-1544.6881 -330.71878 1898.0402 3091996
-1541.3165 -332.42551 1907.8352 3223582
-1503.2509 -326.61932 1874.5128 3091998
-1506.4066 -329.74976 1892.4786 3091742
-1495.8251 -329.89752 1893.3268 2762777
-1485.7427 -330.15851 1894.8246 2828571
-1479.9227 -331.37787 1901.8228 2828572
-1474.7532 -332.76282 1909.771 2631193
-1483.6174 -337.36035 1936.157 2631964
-1472.1061 -337.36035 1936.157 2631963
-1464.1388 -338.17896 1940.8551 2302995
-1456.9629 -339.19482 1946.6852 2434582
-1461.4628 -342.96695 1968.334 2105617
-1479.2119 -349.9343 2008.3206 1447685
-1466.8892 -349.84314 2007.7974 1382151
-1454.9518 -349.84314 2007.7974 1053189
-1447.5491 -350.9425 2014.1068 461056
-1432.6339 -350.22369 2009.9816 512
-1420.2384 -350.11395 2009.3517 256
-1404.4818 -349.16678 2003.9156 256
-1390.3545 -348.61188 2000.7311 256
-1374.2681 -347.55197 1994.6481 0
-1359.1704 -346.7258 1989.9066 0
-1341.9438 -345.33731 1981.9379 132097
-1326.0211 -344.26273 1975.7706 198147
-1312.7667 -343.86786 1973.5044 264454
-1303.8782 -344.61975 1977.8197 659212
-1288.5278 -343.66196 1972.3228 658956
-1285.8159 -346.08829 1986.2478 1120021
-1267.2394 -344.24994 1975.6973 1317144
-1255.4432 -344.23633 1975.6191 1251350
-1248.6194 -345.59869 1983.438 1382937
-1237.1042 -345.67621 1983.8829 1317399
-1227.269 -346.22913 1987.0562 1317402
-1217.2789 -346.74872 1990.038 1317402
-1202.9257 -346.02338 1985.8752 1054743
-1195.9119 -347.41583 1993.8667 857878
-1183.5962 -347.28052 1993.0902 1317148
-1169.8805 -346.72751 1989.9164 659217
-1162.5146 -348.06442 1997.5891 258
-1153.137 -348.82037 2001.9277 66308
-1140.2111 -348.50757 2000.1324 790545
-1135.6622 -350.7756 2013.1489 527374
-1129.2047 -352.49615 2023.0233 257
-1122.2913 -354.10989 2032.2848 527371
-1115.8193 -355.89954 2042.5559 1251351
-1108.246 -357.37341 2051.0146 1119508
-1097.3883 -357.80923 2053.5159 256
-1093.7745 -360.64334 2069.7812 256
-1088.3157 -362.92667 2082.8855 256
-1077.993 -363.62192 2086.8757 0
-1081.5366 -369.06506 2118.1147 0
-1075.5905 -371.36005 2131.2859 0
-1061.2596 -370.78036 2127.959 0
-1051.5667 -371.82654 2133.9631 0
-1052.4255 -376.67493 2161.7888 0
-1046.3334 -379.12463 2175.8479 0
-1036.9998 -380.44644 2183.4338 0
-1031.8054 -383.33954 2200.0378 0
-1027.3539 -386.58649 2218.6726 0
-1046.4642 -398.89941 2289.3381 0
-1022.0262 -394.71805 2265.3406 0
-1008.7911 -394.80939 2265.8647 0
-999.72461 -396.55676 2275.8933 0
-989.85889 -398.03073 2284.3525 0
-988.13562 -402.86545 2312.0996 0
-975.3869 -403.27798 2314.4673 0
-963.38696 -404.01639 2318.7051 0
-951.15094 -404.67575 2322.4893 65536
-931.07092 -401.96814 2306.95 65792
-931.20752 -408.03806 2341.7859 0
-964.63837 -429.10263 2462.6785 263168
0 0 0 0
0 0 0 0
-1289.33 -600.89844 3448.6379 256
-1272.2455 -602.51782 3457.9316 789764
-1253.1038 -603.20013 3461.8477 329474
-1224.1337 -599.09509 3438.2883 921611
-1158.4519 -576.57874 3309.064 1184783
-1136.8811 -575.61835 3303.5522 1184783
-1115.6001 -574.77362 3298.7039 1250832
-1093.7808 -573.61621 3292.0615 1317139
-1074.7676 -573.9151 3293.7769 1382932
-1051.4093 -571.86182 3281.9929 1514518
-1032.6774 -572.29474 3284.4775 1711897
-936.4574 -528.97388 3035.853 1580311
-997.65314 -574.61676 3297.8037 1843739
-905.15942 -531.79474 3052.0422 1777690
-961.79773 -576.63043 3309.3604 1909276
-947.5498 -579.95258 3328.4268 1842969
-943.87 -590.02271 3386.2205 1711384
-928.62354 -593.14368 3404.1323 1843483
-851.04614 -555.70392 3189.2603 2106654
-836.62982 -558.7395 3206.6821 2238240
-878.83429 -600.61249 3446.9968 2369827
-864.75311 -605.09985 3472.7505 2040862
-859.63184 -616.22968 3536.626 2238241
-824.79279 -606.0802 3478.3767 2369827
-819.10876 -617.38361 3543.2485 2304034
-785.05084 -607.33301 3485.5669 2567206
-773.08685 -614.29321 3525.5125 2435620
-767.34644 -626.72449 3596.8572 2435620
-738.78827 -620.69794 3562.2703 2501413
-715.8717 -619.19543 3553.647 2632742
-697.56165 -621.70709 3568.0618 2763814
-678.61621 -623.7923 3580.0291 2698023
-659.06506 -625.43774 3589.4724 2961194
-642.11566 -629.74493 3614.1919 2698022
-629.71124 -638.96216 3667.0908 2698792
-606.71033 -637.70264 3659.8623 2698792
-590.73608 -644.00989 3696.0603 2567206
-565.18274 -639.95801 3672.8062 2632998
-537.45105 -633.01483 3632.9583 395013
-522.61072 -641.30951 3680.5625 2303516
-496.26334 -635.59137 3647.7454 2369310
-473.20935 -633.76141 3637.2432 2171930
-452.29095 -634.75342 3642.9365 2632482
-425.64798 -627.4071 3600.7749 2566946
-408.21024 -633.56982 3636.1436 2436129
-376.12442 -616.41565 3537.6936 2370080
-352.01413 -611.07428 3507.0386 2698273
-327.25848 -603.86945 3465.689 2500894
-304.49139 -599.61224 3441.2563 2632480
-283.40662 -598.29327 3433.6865 2435101
-258.2728 -587.55811 3372.0759 2698527
-238.95457 -589.35968 3382.4155 2435355
-214.78131 -578.41748 3319.6167 2566940
-194.97261 -578.20416 3318.3923 2369562
-175.25403 -578.24017 3318.5989 2566940
-155.25755 -577.25208 3312.9282 2764319
-136.95023 -583.16962 3346.8899 2566941
-120.07922 -598.25525 3433.4683 2632221
-99.9188 -599.77551 3442.1931 2566428
-80.685287 -609.07574 3495.5686 2566428
-59.637054 -606.37781 3480.085 2895393
-39.82188 -620.01147 3558.3303 1974293
-18.825104 -625.3017 3588.6914 2369308
2.4289353 -604.75793 3470.7883 2040342
23.284889 -610.53674 3503.9536 1185288
0 0 0 0
57.776253 -543.09967 3116.9229 4014133
76.156166 -542.01965 3110.7246 3948083
93.936394 -537.92767 3087.2402 3685170
112.0555 -536.79675 3080.7498 3619378
130.81638 -538.6261 3091.2485 3553585
149.90215 -541.17767 3105.8923 3948342
169.1949 -543.83484 3121.1423 3487792
189.82169 -549.83087 3155.5542 3554610
206.94809 -545.52112 3130.8201 3488559
226.77951 -548.46478 3147.7141 3554352
242.60985 -542.02069 3110.7307 3422766
265.75809 -551.68054 3166.1699 3356717
284.23517 -551.0072 3162.3052 3159340
296.34769 -538.84473 3092.5034 2829864
300.67825 -514.78021 2954.3936 0
311.7807 -504.32599 2894.3955 0
328.49429 -503.56717 2890.0405 65536
343.35867 -500.18991 2870.658 65536
358.42715 -497.41577 2854.7368 65536
374.29297 -495.94891 2846.3184 65536
390.60486 -495.17441 2841.8735 65536
406.55161 -494.02057 2835.2512 65536
423.00568 -493.55051 2832.5535 65536
439.01642 -492.61893 2827.207 65536
455.30829 -492.05991 2823.9988 65536
471.3884 -491.31989 2819.7517 65536
487.92676 -491.09201 2818.4438 65536
504.28821 -490.70706 2816.2346 65536
520.13275 -489.86008 2811.3735 65536
536.47357 -489.51859 2809.4138 65536
552.92291 -489.29382 2808.1238 0
569.5141 -489.20404 2807.6084 0
586.34589 -489.32016 2808.2749 0
603.41406 -489.62164 2810.0054 65536
620.7998 -490.15771 2813.0818 65536
638.22192 -490.69351 2816.157 65536
655.41394 -491.02957 2818.0857 65536
671.58252 -490.60126 2815.6274 65536
689.01086 -491.09167 2818.4419 0
706.68518 -491.72992 2822.105 0
724.573 -492.48367 2826.4309 0
740.7998 -492.09991 2824.2283 256
757.27917 -491.89719 2823.0649 395012
778.73566 -494.86615 2840.104 2961449
803.88208 -500.00412 2869.5918 2896426
840.93146 -512.17816 2939.4602 3027499
864.34973 -515.72333 2959.8066 3356207
902.87628 -527.96167 3030.0439 3093035
927.41656 -531.7027 3051.5142 2961449
956.82849 -538.03955 3087.8821 3158828
988.60669 -545.44324 3130.3733 3356207
1012.7153 -548.4201 3147.4578 2961192
1039.7515 -552.84546 3172.8555 2829352
1054.0377 -550.45471 3159.1345 3224110
1070.6735 -549.35315 3152.8127 3355695
1085.8417 -547.5495 3142.4612 3224108
1102.3687 -546.48047 3136.3259 1974296
1123.4028 -547.64417 3143.0044 1711379
1130.8497 -542.25458 3112.0728 1974552
1166.0055 -550.11127 3157.1636 1842966
1182.7897 -549.18884 3151.8694 1974552
1183.8066 -541.08832 3105.3796 1842966
1190.9462 -535.99213 3076.1316 1842966
1193.9419 -529.21332 3037.2273 1908760
1205.4199 -526.34027 3020.7385 1974554
1278.4265 -550.02332 3156.6589 1842967
1225.4458 -519.60126 2982.0623 1974552
1226.8929 -512.79559 2943.0039 2040345
1238.3905 -510.32309 2928.8137 2106137
1228.5081 -499.23087 2865.1541 2106136
1237.3715 -495.95575 2846.3574 2303515
1249.5559 -494.08206 2835.6042 2303259
1259.53 -491.39597 2820.1882 2237465
1231.3823 -474.10287 2720.9409 2303258
1231.3899 -467.95795 2685.6743 2632222
1223.0421 -458.83578 2633.321 2566430
1215.2251 -450.14087 2583.4197 2566687
1219.6672 -446.14725 2560.4998 2435102
1209.8999 -437.11847 2508.6824 2895652
1222.8558 -436.41916 2504.6689 3158825
0 0 0 0
1170.3864 -407.76242 2340.2041 4870216
1179.8842 -406.242 2331.4783 3356724
1193.5726 -406.18301 2331.1396 5330259
1198.3652 -403.13278 2313.634 3816765
0 0 0 0
1235.4293 -406.2742 2331.6631 0
1221.8348 -397.345 2280.417 0
1229.3202 -395.39175 2269.207 0
1223.1045 -389.12204 2233.2244 0
1233.8364 -388.3208 2228.626 0
1223.8204 -381.07614 2187.0479 0
1216.2947 -374.75101 2150.7471 0
1221.1316 -372.32687 2136.8347 0
1222.7646 -368.98596 2117.6606 256
1226.5155 -366.34564 2102.5076 258
1244.6036 -367.99777 2111.9893 771
1211.405 -354.60419 2035.1217 1054744
1207.1439 -349.86237 2007.9077 6055782
1224.7214 -351.4808 2017.1962 6580841
1234.8488 -350.95053 2014.1528 1646104
1249.2992 -351.64725 2018.1515 4013879
1245.6688 -347.28986 1993.1438 4473655
1258.0365 -347.43277 1993.9639 4539958
1263.1425 -345.58621 1983.3663 4539960
1289.3792 -349.50162 2005.8373 4539958
1288.6139 -346.09311 1986.2755 4671287
1278.7549 -340.32629 1953.179 4670774
1286.0299 -339.18228 1946.6133 4604981
1280.2878 -334.65613 1920.6371 4736567
1277.3174 -330.92807 1899.2412 4604980
1278.004 -328.20453 1883.6104 4736567
1253.8723 -319.21005 1831.99 4802103
1251.1719 -315.77948 1812.3014 4867895
1196.4482 -299.38962 1718.2378 4802102
1206.6641 -299.38962 1718.2378 4867896
1226.8351 -301.8389 1732.2946 4671030
1225.4474 -298.98749 1715.9299 4604724
1212.9008 -293.48303 1684.339 4736310
1222.928 -293.48618 1684.3571 4802103
1229.4309 -292.6503 1679.5599 5065275
1237.175 -292.121 1676.5222 5065532
1249.8657 -292.75879 1680.1826 5525056
1260.8477 -292.98941 1681.5061 5196091
1268.7124 -292.49771 1678.6843 4801333
1267.8373 -290.0145 1664.4327 4406318
1284.8848 -291.63776 1673.7488 5393469
1302.1208 -293.2785 1683.1653 5459263
1308.2847 -292.41946 1678.2351 5590846
1322.9379 -293.45651 1684.187 5459261
1337.9421 -294.5553 1690.493 5524538
1351.8638 -295.40112 1695.3473 5393209
1360.5001 -295.08807 1693.5507 5524282
1351.0875 -290.89365 1669.4783 5524281
1369.5863 -292.72595 1679.9941 5787710
1379.7603 -292.76535 1680.2201 5721661
1383.3635 -291.41995 1672.4988 5721661
1376.0881 -287.81842 1651.8292 5721661
1371.486 -284.82312 1634.6387 5656381
1378.6202 -284.29016 1631.5798 5327416
1390.7434 -284.78622 1634.427 5787967
1411.4039 -287.01154 1647.1982 5524795
1408.2423 -284.39523 1632.183 5656381
1417.7954 -284.36496 1632.0092 5787968
1437.6145 -286.3801 1643.5745 5722174
1453.3036 -287.55087 1650.2937 5656381
1469.5308 -288.81174 1657.5298 5722173
1484.1385 -289.73962 1662.8551 5459002
1499.8296 -290.8653 1669.3156 5722173
1518.299 -292.51144 1678.7631 5458491
1538.3872 -294.44595 1689.8655 5787968
1498.072 -284.8692 1634.9032 5590590
1538.2499 -290.6236 1667.9283 5722175
1590.8678 -298.63953 1713.9329 5722176
1495.6936 -278.9863 1601.1404 5656383
1660.0387 -307.68271 1765.8329 5919558
1669.2252 -307.44098 1764.4457 5656384
1496.4211 -273.8923 1571.9053 5524542
1691.2922 -307.63852 1765.5795 5524798
1708.4088 -308.83514 1772.447 5524797
1721.186 -309.23746 1774.7559 5656639
0 0 0 0
0 0 0 0
0 0 0 0
0 0 0 0
0 0 0 0
0 0 0 0
0 0 0 0
0 0 0 0
0 0 0 0
0 0 0 0
0 0 0 0
0 0 0 0
0 0 0 0
-1583.0166 -313.61343 1863.4551 3223075
-1603.8719 -319.98462 1901.3119 3223844
-1603.0566 -322.0921 1913.8344 3289632
-1575.1708 -318.75174 1893.9862 3157788
-1489.7378 -303.63412 1804.1592 3091996
-1575.7139 -323.48676 1922.1212 3026202
-1539.2247 -318.30423 1891.3271 3223582
-1525.9415 -317.87961 1888.8041 2960410
-1500.4597 -314.88864 1871.0322 3026203
-1486.4998 -314.28909 1867.4698 3026202
-1495.6208 -318.59726 1893.0684 2763031
-1481.8842 -318.06467 1889.9037 2631445
-1475.4592 -319.10526 1896.0868 2500372
-1468.6155 -320.07059 1901.8228 2566167
-1484.902 -326.13107 1937.8334 2566680
-1476.7756 -326.88254 1942.2986 2566424
-1467.1317 -327.30731 1944.8225 2369301
-1464.4053 -329.29434 1956.6292 2368789
-1474.8577 -334.30038 1986.3745 1974031
-1470.0449 -335.89923 1995.8746 1316614
-1472.4211 -339.18008 2015.3691 1250821
-1459.5239 -338.96762 2014.1068 1184775
-1447.7996 -339.02631 2014.4553 592896
-1434.563 -338.72885 2012.688 512
-1421.53 -338.47491 2011.1791 256
-1405.8644 -337.58447 2005.8882 512
-1391.9453 -337.10184 2003.0204 256
-1375.9198 -336.09625 1997.0454 256
-1356.9359 -334.34427 1986.6353 256
-1347.5056 -334.93613 1990.1521 131841
-1329.9982 -333.51309 1981.6964 329477
-1317.9564 -333.44739 1981.3062 395269
-1303.2365 -332.69684 1976.8463 658441
-1290.6517 -332.48264 1975.5736 395784
-1280.1522 -332.80664 1977.4988 461578
-1267.1831 -332.48868 1975.6095 725006
-1255.7976 -332.58411 1976.1766 856592
-1243.7484 -332.50394 1975.7003 1119764
-1232.4421 -332.62277 1976.4064 988437
-1219.9833 -332.42984 1975.2599 1120023
-1209.4832 -332.77206 1977.2933 1054229
-1198.912 -333.10123 1979.2493 659471
-1184.8361 -332.45352 1975.4006 198921
-1171.1337 -331.89874 1972.1042 264201
-1160.4736 -332.20361 1973.9159 257
-1154.2318 -333.79245 1983.3564 772
-1148.5443 -335.57605 1993.9543 395787
-1145.3109 -338.12137 2009.0784 198408
-1139.512 -339.95493 2019.9731 329479
-1127.908 -340.07724 2020.7 1448475
-1122.7926 -342.17972 2033.1925 1316889
-1115.4635 -343.6459 2041.9045 395788
-1103.709 -343.76602 2042.6183 329993
-1085.3601 -341.81201 2031.0078 0
-1092.8191 -348.03317 2067.9731 256
-1085.9788 -349.79013 2078.4128 256
-1076.5833 -350.7551 2084.1465 0
-1067.5078 -351.84799 2090.6404 0
-1070.2421 -356.90494 2120.6882 0
-1058.0657 -357.05072 2121.5544 0
-1049.2297 -358.34094 2129.2207 0
-1056.0626 -365.07938 2169.2598 0
-1045.0341 -365.73343 2173.146 0
-1035.2808 -366.85571 2179.8145 0
-1031.5847 -370.17999 2199.5671 0
-1024.7419 -372.44611 2213.032 0
-1032.5145 -380.15216 2258.8206 0
-1025.0697 -382.38477 2272.0864 0
-1010.3275 -381.91846 2269.3157 0
-1003.0505 -384.29971 2283.4648 0
-995.86414 -386.78146 2298.2112 0
-986.99658 -388.67032 2309.4343 0
-972.57654 -388.39499 2307.7986 0
-963.28485 -390.18918 2318.4592 65536
-949.56976 -390.21768 2318.6287 65536
-936.76355 -390.62598 2321.0547 196608
-919.21979 -389.04141 2311.6394 131328
-946.242 -406.5567 2415.7134 460032
0 0 0 0
0 0 0 0
-1285.5168 -578.6781 3438.4387 592640
-1249.0376 -571.34271 3394.853 723972
-1208.6868 -561.96643 3339.1401 592901
-1231.2073 -581.99652 3458.1565 1119246
-1206.7931 -580.14392 3447.1487 1119245
-1132.2241 -553.69977 3290.0203 1185038
-1112.8691 -553.80219 3290.6289 1514003
-1099.7418 -557.06274 3310.0029 1448724
-1067.7316 -550.703 3272.2141 1382931
-1048.2069 -550.66638 3271.9966 1317139
-1026.3528 -549.38153 3264.3618 1514518
-967.74255 -527.99316 3137.2749 1646104
-1000.05 -556.34302 3305.7266 1711641
-951.59143 -539.9975 3208.6033 1711897
-965.58807 -559.14948 3322.4021 1843483
-907.125 -536.26544 3186.4277 1711897
-952.49109 -575.09515 3417.1492 2172448
-932.55072 -575.32727 3418.5286 1909276
-913.50061 -576.13123 3423.3057 2172448
-863.03162 -556.70483 3307.8762 2172448
-868.88251 -573.54919 3407.9636 1975069
-873.23193 -590.18311 3506.8003 2238241
-836.08362 -578.89807 3439.7458 2369827
-828.11011 -587.75397 3492.3667 2172448
-811.21594 -590.57117 3509.1062 2435621
-820.21362 -612.88409 3641.687 2501413
-775.08099 -594.86279 3534.6064 2369827
-755.9953 -596.38477 3543.6497 2435619
-735.69574 -597.00891 3547.3586 2435876
-714.66327 -597.05768 3547.6482 2369826
-698.29578 -601.12524 3571.8171 2501411
-681.73755 -605.27856 3596.4956 2304033
-661.62488 -606.44287 3603.4138 2238240
-650.93622 -616.61224 3663.8391 2435619
-633.89691 -621.26172 3691.4658 2764585
-614.90607 -624.26343 3709.3018 2698792
-593.43054 -624.87219 3712.9187 2698792
-568.16296 -621.3808 3692.1731 2698792
-541.21344 -615.69525 3658.3904 461830
-515.11401 -610.54114 3627.7654 2303776
-493.52277 -610.51349 3627.6013 2369570
-471.35519 -609.73773 3622.9917 2106398
-456.96948 -619.43634 3680.6194 2698277
-425.65936 -606.01489 3600.8711 2369568
-402.11588 -602.81506 3581.8579 2435618
-375.62897 -594.59808 3533.0334 2567202
-347.47296 -582.60901 3461.7959 2500897
-323.01794 -575.70642 3420.7815 2698275
-307.07028 -584.05743 3470.4021 2632482
-275.50629 -561.76917 3337.968 2632480
-263.66672 -579.36163 3442.5002 2435355
-241.95813 -576.40479 3424.9309 2435354
-212.59982 -553.00629 3285.9001 2566942
-198.27394 -567.93091 3374.5803 2303770
-174.93437 -557.49072 3312.5459 2566942
-156.62961 -562.4823 3342.2053 2566686
-133.96854 -551.00714 3274.0212 2698272
-115.24796 -554.59271 3295.3264 2698015
-96.96891 -562.20703 3340.5696 2698014
-80.039009 -583.58075 3467.5698 2566429
-59.279076 -582.17133 3459.1953 2632222
-40.237911 -605.11188 3595.5054 1645585
-18.678991 -599.27734 3560.8374 2303515
2.4195728 -581.87085 3457.4099 1909014
21.99605 -557.06342 3310.0068 856839
0 0 0 0
57.533772 -522.36646 3103.8416 4211768
76.018898 -522.58124 3105.1179 3685425
93.530556 -517.32776 3073.9021 3027751
111.64626 -516.58667 3069.4985 3816754
130.92302 -520.67126 3093.7688 3553582
149.30969 -520.64569 3093.6169 3750961
168.4993 -523.11859 3108.3105 3816754
188.10399 -526.26385 3126.9995 3488560
206.94269 -526.89307 3130.7383 3751734
226.42937 -528.93213 3142.854 3620147
244.37453 -527.33386 3133.3572 3554352
266.97049 -535.28711 3180.6145 3488045
283.34433 -530.53766 3152.394 3290410
300.00076 -526.87396 3130.6245 3487534
300.33188 -496.64203 2950.99 0
311.63889 -486.89581 2893.0791 131072
328.53287 -486.44156 2890.3799 131072
344.87463 -485.25543 2883.332 131072
358.89481 -481.06979 2858.4614 65536
374.61456 -479.43771 2848.7639 65536
390.78052 -478.49323 2843.1519 65536
406.65411 -477.28387 2835.9661 65536
422.98987 -476.69174 2832.4475 65536
439.16412 -475.96991 2828.1584 65536
455.60416 -475.57867 2825.834 65536
471.77463 -474.94388 2822.062 65536
488.16324 -474.56482 2819.8096 0
504.58691 -474.24387 2817.9026 0
520.65753 -473.62241 2814.21 0
536.98413 -473.26517 2812.0874 0
553.50311 -473.09399 2811.0703 0
569.82288 -472.76755 2809.1306 0
585.22552 -471.72049 2802.9092 0
602.45618 -472.16406 2805.5447 0
620.04474 -472.85669 2809.6602 0
637.52765 -473.43454 2813.0935 0
655.16162 -474.09207 2817.0005 0
671.36035 -473.70422 2814.696 0
689.18939 -474.45752 2819.1721 0
706.85193 -475.06317 2822.7708 0
724.9054 -475.89737 2827.7275 0
743.22333 -476.86346 2833.468 256
757.75031 -475.40823 2824.8213 526598
777.6076 -477.2879 2835.99 2698278
806.93384 -484.77634 2880.4854 2764326
835.95282 -491.7728 2922.0576 3159085
864.34973 -498.12585 2959.8066 3290414
900.30487 -508.49429 3021.4146 3290414
930.00946 -514.99573 3060.0457 3158827
967.48254 -525.46704 3122.2649 3158828
992.12744 -528.70782 3141.5215 3093035
1013.8649 -530.30817 3151.0303 3158828
1040.7623 -534.50049 3175.9404 2764070
1051.1952 -530.23828 3150.6152 2764070
1065.2495 -527.9201 3136.8408 3158315
1082.7571 -527.36365 3133.5344 3224620
1095.4132 -524.50305 3116.5369 1777174
1123.2548 -528.8877 3142.5901 1711380
1129.3713 -523.06708 3108.0044 1908760
1165.8158 -531.25397 3156.6501 1645588
1158.6586 -519.6272 3087.5654 1842967
1173.6899 -518.15894 3078.8411 1974552
1186.9946 -515.98529 3065.9253 1842966
1252.8256 -536.36505 3187.0195 1908759
1213.4285 -511.75809 3040.8079 1777173
1216.7015 -505.60541 3004.2493 2040345
1276.6707 -522.8501 3106.7153 1974552
1232.5641 -497.58746 2956.6077 2237211
1243.8475 -495.08188 2941.7197 2237723
1244.7537 -488.57263 2903.0425 1711380
1261.5222 -488.38232 2901.9119 2171931
1255.889 -479.64166 2849.9758 2434588
1259.4449 -474.5965 2819.9978 2303258
1187.4994 -441.60638 2623.9744 2500636
1241.8442 -455.82764 2708.4756 2500637
1198.8252 -434.40421 2581.1799 2631965
1213.9487 -434.32443 2580.7061 2435101
1216.5708 -429.8298 2553.9993 2566687
1203.3571 -419.91989 2495.116 2895653
1209.9357 -417.07401 2478.2058 2895911
0 0 0 0
1175.4242 -395.54407 2350.2773 4475459
1185.4856 -394.24298 2342.5466 3356471
1192.4071 -391.94012 2328.8633 5265493
1179.9756 -383.40186 2278.1299 3356470
0 0 0 0
1216.5869 -386.42636 2296.1011 0
1223.4709 -384.30072 2283.4707 0
1232.7694 -382.97171 2275.574 65536
1230.5297 -378.1261 2246.7817 0
1231.6967 -374.42004 2224.761 0
1222.5684 -367.69647 2184.8103 0
1217.1505 -362.21841 2152.2603 0
1225.0621 -360.77991 2143.7129 0
1225.522 -357.19907 2122.4358 256
1227.7609 -354.20447 2104.6423 2
1240.6832 -354.32135 2105.3367 514
1196.4305 -338.2706 2009.965 1581601
1201.8387 -336.43918 1999.0831 5922915
1225.0397 -339.57581 2017.7205 6646380
1232.9745 -338.46088 2011.0957 1119764
1250.7194 -340.03442 2020.4456 3750709
1246.3679 -335.6279 1994.2623 4606014
1258.0365 -335.57764 1993.9639 4671546
1265.6846 -334.46591 1987.358 4671289
1272.382 -333.12579 1979.3954 4670773
1281.6156 -332.46826 1975.4882 4802360
1283.0186 -329.80969 1959.6914 4539188
1285.1077 -327.37378 1945.2174 4933946
1287.3545 -325.02115 1931.2383 4604981
1290.7994 -323.00986 1919.2876 4868153
1260.5153 -312.66748 1857.8342 4802360
1251.733 -307.7919 1828.8643 4670774
1231.4432 -300.19507 1783.7247 4802360
1232.606 -297.91293 1770.1644 4802103
1208.5404 -289.6235 1720.9095 4867896
1223.3499 -290.71136 1727.3735 4802103
1219.8765 -287.4726 1708.1292 4736310
1216.8652 -284.39532 1689.8444 4802103
1221.558 -283.15424 1682.47 4736053
1228.8331 -282.52707 1678.7433 4999225
1239.868 -282.7674 1680.1715 5064761
1251.8777 -283.22446 1682.8872 5327678
1263.0005 -283.47522 1684.3772 5459265
1273.6624 -283.61938 1685.2338 4998714
1265.9802 -279.70834 1661.9949 4669748
1298.6627 -284.70703 1691.6965 5393469
1310.8672 -285.17401 1694.4712 5196089
1316.3424 -284.18106 1688.5713 5656126
1319.3212 -282.66833 1679.5828 5393210
1342.236 -285.41751 1695.9182 5393209
1351.6378 -285.27377 1695.064 5327416
1355.0223 -283.87152 1686.7321 5458745
1367.972 -284.479 1690.3416 5327415
1375.3306 -283.9234 1687.0403 5656380
1375.1151 -281.82358 1674.5634 5656381
1377.4102 -280.26474 1665.301 5722174
1383.7659 -279.54852 1661.0453 5722174
1377.1819 -276.24689 1641.4274 5656380
1383.5057 -275.56268 1637.3618 5524794
1386.5299 -274.23541 1629.4753 5524793
1399.0017 -274.78214 1632.724 5459000
1405.9877 -274.25131 1629.5698 5524794
1413.8541 -273.89835 1627.4725 5524794
1432.6946 -275.66162 1637.9497 5524795
1443.2251 -275.81299 1638.8491 5656380
1462.0294 -277.53293 1649.0688 5853503
1472.2805 -277.61716 1649.5692 5590331
1493.9313 -279.83557 1662.7507 5459001
1510.2849 -281.03909 1669.9021 5985092
1523.1152 -281.57556 1673.0897 5656383
1535.7734 -282.07349 1676.0482 5656126
1535.8812 -280.27472 1665.3601 5656383
1536.1837 -278.53427 1655.0187 5656639
1600.0341 -288.26489 1712.8369 5590590
1656.1783 -296.49286 1761.7266 5853762
1580.0807 -281.09192 1670.2159 5656126
1683.0349 -297.53726 1767.9324 5590076
1597.7557 -280.70798 1667.9346 5787198
1562.431 -272.80859 1620.9973 5655868
1606.3679 -278.76068 1656.364 5655612
0 0 0 0
0 0 0 0
0 0 0 0
0 0 0 0
0 0 0 0
0 0 0 0
0 0 0 0
0 0 0 0
0 0 0 0
0 0 0 0
0 0 0 0
0 0 0 0
0 0 0 0
-1572.889 -300.59879 1851.5334 3223331
-1599.4652 -307.83228 1896.088 3354914
-1481.4503 -287.14301 1768.6527 3289889
-1590.3939 -310.46277 1912.2904 3289374
-1570.3024 -308.74786 1901.7275 3355167
-1560.2429 -308.9949 1903.2491 3223582
-1506.8392 -300.59875 1851.5333 3157532
-1493.8136 -300.19339 1849.0364 3289118
-1495.5248 -302.76538 1864.8787 3025949
-1483.8342 -302.64243 1864.1211 3026206
-1481.0776 -304.35349 1874.6604 2960413
-1482.1489 -306.88306 1890.2413 2894876
-1474.6235 -307.65771 1895.0128 2763291
-1469.4792 -308.94492 1902.9413 2631961
-1468.254 -311.08243 1916.1074 2434838
-1459.3306 -311.60959 1919.3544 2566167
-1466.4783 -315.60376 1943.9563 2302994
-1473.1322 -319.55429 1968.2896 2302994
-1474.338 -322.37677 1985.6746 1908236
-1471.4977 -324.35297 1997.847 1579272
-1463.0402 -325.1131 2002.5291 1316101
-1455.1289 -326.00809 2008.0417 1052931
-1464.3514 -330.7883 2037.4854 592128
-1433.8394 -326.5976 2011.6729 512
-1422.1058 -326.64972 2011.9938 256
-1407.3184 -325.9953 2007.9629 512
-1391.8947 -325.18103 2002.9474 256
-1376.7247 -324.41251 1998.2136 0
-1360.6108 -323.40622 1992.0155 0
-1322.7367 -317.16461 1953.5704 197890
-1334.0651 -322.71469 1987.756 197635
-1318.8164 -321.87744 1982.599 329733
-1305.5677 -321.51761 1980.3826 330246
-1291.7759 -321.01624 1977.2943 264454
-1279.4401 -320.87085 1976.3988 527115
-1266.505 -320.57104 1974.5522 395785
-1255.5564 -320.77316 1975.7972 264199
-1243.5956 -320.71802 1975.4576 132356
-1224.3511 -318.7655 1963.4312 264201
-1221.2681 -321.02362 1977.34 461580
-1201.6425 -318.935 1964.4751 264201
-1193.3503 -319.84296 1970.0676 132616
-1185.147 -320.79294 1975.9191 66566
-1173.5115 -320.82364 1976.1082 259
-1166.2064 -322.05084 1983.667 257
-1151.1074 -321.12878 1977.9878 527630
-1144.6339 -322.61887 1987.1658 724752
-1137.4486 -323.93726 1995.2864 132357
-1123.4435 -323.32077 1991.4893 1645854
-1120.2227 -325.82785 2006.9315 1645855
-1123.3353 -330.25092 2034.1754 66565
-1114.5969 -331.24826 2040.3184 987924
-1111.7473 -334.03683 2057.4946 790288
-1100.0398 -334.19641 2058.4775 0
-1096.9962 -337.02136 2075.8777 256
-1087.35 -337.85904 2081.0374 256
-1077.6544 -338.70047 2086.2202 0
-1079.3149 -343.17218 2113.7637 0
-1069.545 -344.07214 2119.3069 0
-1059.842 -345.01535 2125.1165 0
-1050.4733 -346.09137 2131.7444 0
-1044.1062 -348.19479 2144.7002 0
-1042.9537 -352.11063 2168.8198 0
-1034.6458 -353.67853 2178.4773 0
-1028.8298 -356.1489 2193.6934 0
-1025.5011 -359.55469 2214.6714 0
-1032.1969 -366.60953 2258.1257 0
-1021.2756 -367.51071 2263.6765 0
-1009.5793 -368.15344 2267.6353 0
-997.80756 -368.78558 2271.5291 0
-989.03546 -370.55902 2282.4524 0
-981.45746 -372.83533 2296.4734 0
-972.88617 -374.7933 2308.5334 0
-962.26605 -376.00665 2316.0071 0
-949.95374 -376.58447 2319.5662 65536
-934.33521 -375.8493 2315.0378 65536
-920.57147 -375.84943 2315.0386 65792
-932.16888 -386.36115 2379.7854 592128
0 0 0 0
0 0 0 0
-1285.0531 -558.03351 3437.1985 592385
-1281.9583 -565.68549 3484.3308 921351
-1211.9713 -543.58679 3348.2141 658182
-1232.1992 -561.88837 3460.9426 987659
-1152.0702 -534.27124 3290.835 1119245
-1132.8514 -534.43488 3291.843 1119245
-1134.6298 -544.68402 3354.9724 1185040
-1079.4058 -527.44604 3248.7957 1382932
-1064.1224 -529.45233 3261.1533 1448724
-1002.5311 -508.06503 3129.4185 1317138
-1028.7697 -531.22119 3272.0486 1514003
-1014.8061 -534.1109 3289.8477 1711382
-998.61957 -535.9212 3300.998 1514003
-982.23706 -537.69678 3311.9348 1777175
-893.53998 -499.14871 3074.4985 1514261
-918.05383 -523.5531 3224.8171 1777690
-950.9574 -553.88519 3411.6472 1975068
-892.95435 -531.43689 3273.377 1909534
-910.49091 -553.94684 3412.0269 1975069
-898.0675 -558.8396 3442.1638 2106655
-882.29736 -561.82947 3460.5798 1909276
-818.61975 -533.72717 3287.4841 2106655
-853.84491 -570.31036 3512.8176 2106655
-822.56873 -563.19611 3468.9973 2106655
-824.05035 -578.72125 3564.6243 2304035
-798.22766 -575.38434 3544.0708 2435622
-776.12561 -574.62128 3539.3704 2369829
-802.78784 -610.92535 3762.9851 2435364
-781.38525 -611.68488 3767.6633 2501156
-720.44141 -580.62195 3576.3315 2304033
-700.95917 -582.10071 3585.4402 2435619
-684.76819 -586.49127 3612.4836 2567205
-668.46796 -591.06958 3640.6838 2369826
-656.5451 -599.95428 3695.4089 2698791
-635.22778 -600.57239 3699.2161 2632999
-612.24432 -599.60309 3693.2456 2501413
-586.46002 -595.71655 3669.3064 2632998
-573.63037 -605.19727 3727.7029 2632998
-536.05994 -588.28864 3623.5547 461318
-514.44611 -588.20862 3623.0618 2369827
-495.49774 -591.30243 3642.1182 2304033
-481.32428 -600.63751 3699.6174 1777689
-449.90616 -588.31683 3623.7283 2567202
-428.14551 -588.02051 3621.9028 2370336
-404.91824 -585.57178 3606.8201 2370080
-380.52725 -581.0722 3579.105 2435873
-356.51041 -576.64471 3551.834 2304285
-323.96213 -556.99152 3430.7803 2435101
-301.2666 -552.77533 3404.8108 2435100
-277.85828 -546.54968 3366.4641 2237721
-254.11104 -538.6391 3317.739 2501147
-233.60062 -536.83551 3306.6299 2435354
-217.06593 -544.6767 3354.9272 2369562
-193.22139 -533.90619 3288.5869 2566687
-171.84856 -528.30939 3254.113 2566688
-156.46941 -542.05627 3338.7871 2566941
-139.23622 -552.44183 3402.7568 2698527
-115.61658 -536.71155 3305.8665 2369049
-98.052406 -548.40558 3377.8958 2434841
-78.749573 -553.8949 3411.7068 2632223
-59.020031 -559.15051 3444.0789 2632222
-39.25375 -569.45752 3507.5645 1974293
-18.696262 -578.64099 3564.1299 2303515
2.4861019 -576.74884 3552.4756 1777684
0 0 0 0
0 0 0 0
57.168503 -500.71329 3084.1357 4080696
75.646736 -501.65186 3089.9165 3751731
95.325752 -508.63052 3132.9016 3357230
112.14738 -500.57376 3083.2761 3553582
130.61555 -501.09766 3086.5032 3685422
150.77858 -507.19376 3124.0518 3553582
168.83022 -505.62915 3114.4148 3684911
188.20163 -507.93588 3128.6228 3751734
207.20389 -508.92087 3134.6899 3620147
228.91982 -515.8584 3177.4216 3422769
248.90088 -518.12683 3191.394 3620145
266.11887 -514.72955 3170.4683 3356973
286.47458 -517.44916 3187.22 3290409
301.58832 -510.95047 3147.1914 3356204
0 0 0 0
315.85434 -476.04846 2932.2129 65536
328.81268 -469.65643 2892.8416 65536
343.19269 -465.82962 2869.2703 65536
359.03387 -464.25464 2859.5691 65536
374.82602 -462.76147 2850.3721 65536
390.82404 -461.64072 2843.4685 65536
406.90512 -460.70688 2837.7168 65536
423.38608 -460.2822 2835.1008 65536
439.20755 -459.20044 2828.438 65536
455.76456 -458.93918 2826.8286 65536
472.08517 -458.46698 2823.9199 0
488.63297 -458.2402 2822.5232 0
505.00311 -457.86737 2820.2268 0
520.80615 -457.0209 2815.0132 0
537.36475 -456.86954 2814.0806 0
553.71106 -456.55225 2812.1262 0
570.22504 -456.38776 2811.1133 0
586.81335 -456.29047 2810.5139 0
604.0434 -456.68369 2812.936 0
621.38446 -457.13742 2815.7307 65536
638.84021 -457.64951 2818.885 65536
656.10999 -458.00565 2821.0784 65536
672.77954 -457.93539 2820.646 65536
690.80139 -458.76666 2825.7661 0
709.62109 -460.07574 2833.8293 0
727.36707 -460.6441 2837.3301 256
758.2453 -469.31491 2890.7378 724747
757.19232 -458.27563 2822.7415 2435619
793.0274 -469.5567 2892.2271 2830120
818.17468 -474.16495 2920.6116 2961193
842.78308 -478.27582 2945.9324 3158829
874.28284 -486.05051 2993.8203 3356207
901.55658 -491.21243 3025.6152 3290413
937.57141 -500.84177 3084.927 3290412
972.85553 -509.71872 3139.6045 3027239
999.32819 -513.73175 3164.3225 2895654
1021.053 -515.20068 3173.3706 2895656
1040.0165 -515.24841 3173.6643 2500898
1047.1427 -509.53442 3138.4692 2763814
1066.6093 -509.92014 3140.845 3026729
1087.51 -510.9664 3147.2893 3289899
1100.3529 -508.25534 3130.5908 1842709
1108.6726 -503.58005 3101.7932 1776916
1137.9468 -508.41983 3131.6038 1777173
1175.7228 -516.84113 3183.4749 1777173
1177.0615 -509.23181 3136.6052 1645587
1167.342 -497.15033 3062.1895 1777173
1215.0066 -509.50339 3138.2781 1777173
1196.1479 -494.00879 3042.8394 1908759
1208.3221 -491.60144 3028.0115 1842966
1232.6556 -494.13919 3043.6426 2105882
1232.6676 -486.99472 2999.6362 1908505
1239.3661 -482.65793 2972.9241 1908505
1245.4166 -478.19437 2945.4307 2106138
1231.022 -466.11325 2871.0171 2171931
1262.1792 -471.37442 2903.4231 2171674
1270.9723 -468.25415 2884.2041 2171671
1272.2407 -462.48166 2848.6484 2105879
1270.2471 -455.69061 2806.8191 2500637
1254.4193 -444.17712 2735.9019 2566430
1229.9456 -429.93613 2648.1848 2434844
1213.8826 -418.95804 2580.5654 2698016
1191.8311 -406.21292 2502.062 2500637
1178.6293 -396.76114 2443.844 2697759
1193.3169 -396.81357 2444.167 3026982
1160.3269 -381.20129 2348.0034 4014135
1193.2271 -387.34967 2385.8743 4474687
1193.204 -382.79153 2357.7983 3028271
1193.8806 -378.56113 2331.7412 5133393
1200.6444 -376.33575 2318.0342 2960942
1223.703 -379.21057 2335.7415 0
1216.4097 -372.72064 2295.7668 65536
1221.2012 -370.03653 2279.2341 0
1232.5876 -369.38782 2275.2385 65536
1230.4932 -364.75702 2246.7151 0
1232.1146 -361.31534 2225.5161 0
1225.3734 -355.52051 2189.823 0
1220.2352 -350.30777 2157.7151 0
1227.9644 -348.85901 2148.7915 0
1231.0408 -346.13187 2131.9937 0
1230.6023 -342.48206 2109.5129 257
1241.094 -341.91724 2106.0337 258
1212.1891 -330.61844 2036.439 1844515
1208.3453 -326.31076 2009.9059 5923682
1223.3843 -327.13678 2014.9939 6119775
1229.7825 -325.65863 2005.8892 1645078
1248.2078 -327.36319 2016.3883 4079416
1249.2847 -324.52869 1998.9293 4605501
1259.1832 -324.01764 1995.7815 4605242
1266.9386 -322.96976 1989.3271 4604984
1278.8029 -322.97903 1989.3842 4473397
1282.4991 -320.94412 1976.8502 4539188
1294.8776 -321.09912 1977.8049 4604981
1291.4808 -317.37466 1954.8641 4670774
0 0 0 0
1275.5052 -307.90677 1896.5468 4605234
1277.8501 -305.76968 1883.3835 4605235
1270.0775 -301.26984 1855.6667 4802102
1246.7045 -293.17883 1805.8303 4736309
1203.6492 -280.63699 1728.5791 4736310
1220.0988 -282.06393 1737.3683 4802103
1227.0488 -281.28918 1732.5963 4867896
1217.7419 -276.8317 1705.1404 4736309
1219.255 -274.88718 1693.1631 4802103
1226.9771 -274.36288 1689.9338 4341808
1234.7152 -273.85068 1686.7789 5262654
1244.9149 -273.88831 1687.0106 4999482
1254.0908 -273.7019 1685.8624 5196091
1263.5687 -273.5838 1685.135 5064505
1262.8159 -271.26984 1670.8823 5130299
1269.5276 -270.58301 1666.6519 4406576
1302.3153 -275.42151 1696.4545 5722180
1312.9932 -275.54568 1697.2192 5393213
1308.5719 -272.52338 1678.6035 5327930
1332.1138 -275.32639 1695.8685 5656382
1336.915 -274.24298 1689.1953 5459001
1341.5438 -273.14059 1682.4053 5524795
1350.4797 -272.92502 1681.0773 5590587
1342.2675 -269.27249 1658.5797 5590587
1367.4109 -272.31595 1677.3257 5722173
1401.2239 -277.0293 1706.3577 5853760
1384.0392 -271.66489 1673.3156 5721917
1361.5634 -265.34589 1634.3938 5590332
1375.1167 -266.08817 1638.9659 5656381
1381.1007 -265.36563 1634.5155 5590587
1373.7056 -262.10052 1614.4039 5524794
1394.9341 -264.30411 1627.9769 5656380
1390.1525 -261.58304 1611.2167 5656380
1400.1641 -261.66379 1611.714 5656383
1418.5916 -263.30554 1621.8263 5656382
1428.2341 -263.30554 1621.8263 5787969
1439.7596 -263.65033 1623.9501 5656383
1470.0077 -267.39621 1647.0227 5524797
1479.3605 -267.31677 1646.5333 5656383
1488.5276 -267.20505 1645.8452 5656126
1510.6472 -269.40472 1659.394 5722176
1516.1117 -268.62485 1654.5906 5524284
1536.999 -270.57007 1666.5721 5458491
1557.166 -272.36438 1677.624 5590331
1587.8593 -275.96527 1699.8037 5590074
1616.5962 -279.18277 1719.6218 5655867
1580.0811 -271.16174 1670.2164 5852990
1650.9673 -281.55722 1734.2472 5655869
1675.4745 -283.96323 1749.0669 5655868
1630.0936 -274.56781 1691.1962 5655868
1716.803 -287.40005 1770.2362 5721404
0 0 0 0
0 0 0 0
0 0 0 0
0 0 0 0
0 0 0 0
0 0 0 0
0 0 0 0
0 0 0 0
0 0 0 0
0 0 0 0
0 0 0 0
0 0 0 0
0 0 0 0
-1559.4474 -287.11569 1835.7106 3354916
-1598.5192 -296.38367 1894.9664 3223328
-1592.1583 -297.29974 1900.8234 3355167
-1520.838 -286.01239 1828.6564 3091996
-1547.583 -293.13773 1874.213 3289374
-1533.58 -292.59207 1870.7244 3223841
-1481.8719 -284.79218 1820.8547 3158304
-1494.0916 -289.25372 1849.3804 3223842
-1490.9659 -290.78864 1859.1938 3092513
-1481.3729 -291.07565 1861.0291 2763547
-1477.921 -292.58273 1870.6648 2960929
-1475.1058 -294.23975 1881.259 2566427
-1472.3662 -295.93723 1892.1119 2566427
-1465.1344 -296.75098 1897.3149 2828828
-1460.228 -298.052 1905.6332 2762779
-1471.3488 -302.67032 1935.161 2565143
-1470.1335 -304.80383 1948.8018 2696986
-1459.5208 -305.00732 1950.1029 2499606
-1470.0793 -309.67386 1979.939 2302227
-1456.9077 -309.37659 1978.0383 1381125
-1444.6982 -309.28046 1977.4237 1184772
-1456.6118 -314.38937 2010.0881 1184516
-1455.5911 -316.76804 2025.2964 395264
-1434.6096 -314.80621 2012.7534 512
-1423.2517 -314.94098 2013.6149 256
-1408.1357 -314.23938 2009.1292 256
-1392.6534 -313.4433 2004.0393 0
-1377.833 -312.78372 1999.8223 0
-1361.0074 -311.65353 1992.5962 0
-1347.7535 -311.32849 1990.5182 197636
-1335.3236 -311.18979 1989.6312 132100
-1321.1851 -310.64685 1986.1598 1027
-1306.7032 -310.01266 1982.1051 461578
-1293.36 -309.63947 1979.7191 395785
-1277.4668 -308.6434 1973.3506 132100
