# .PCD v0.7 - Point Cloud Data file format
VERSION 0.7
FIELDS x y z rgb
SIZE 4 4 4 4
TYPE F F F U
COUNT 1 1 1 1
WIDTH 1312
HEIGHT 1
VIEWPOINT 0 0 0 1 0 0 0
POINTS 1312
DATA ascii
-1286.6489 -977.77496 3335.3835 526849
-1307.2466 -1008.9788 3441.8259 1184523
-1323.1002 -1037.4553 3538.9648 1381901
-1305.9209 -1040.5322 3549.4607 65792
-1281.6625 -1037.9768 3540.7441 1711124
-1237.9203 -1019.2936 3477.0117 1185037
-1212.0659 -1014.9545 3462.2102 1514001
-1171.8036 -998.19208 3405.0303 1514002
-1136.943 -985.52258 3361.8123 1777175
-1104.8917 -974.87848 3325.5032 1711382
-1068.5945 -960.03192 3274.8586 1908761
-1046.8412 -957.94318 3267.7334 1842968
-1033.1289 -963.27271 3285.9133 2040603
-1013.0732 -962.77917 3284.23 2237471
-1001.4518 -970.43933 3310.3604 2105885
-981.71075 -970.38068 3310.1604 2171678
-962.59674 -970.95215 3312.1096 2303265
-953.35596 -981.71442 3348.8218 2237471
-949.07965 -998.15686 3404.9104 2171678
-932.15302 -1001.7217 3417.0708 2434851
-919.51605 -1010.158 3445.8484 2172451
-906.08972 -1018.0917 3472.9121 2304036
-824.04437 -947.49646 3232.0979 2435622
-880.78125 -1036.9137 3537.1174 2501415
-758.43164 -914.71588 3120.2766 2501415
-853.52856 -1055.2198 3599.5635 2501416
-832.38953 -1055.5524 3600.6975 2435622
-768.84064 -1000.7028 3413.5947 2633001
-793.63568 -1060.9827 3619.2214 2699051
-768.26929 -1055.6946 3601.1829 2501415
-747.56451 -1056.6926 3604.5874 2567208
-711.78503 -1035.8123 3533.3604 2435622
-704.81647 -1056.8636 3605.1707 2896171
-678.12085 -1048.7273 3577.416 2830378
-649.1087 -1036.3654 3535.2471 2830378
-629.8266 -1039.231 3545.022 2764585
-607.56244 -1037.2042 3538.1084 2632485
-587.70721 -1039.2917 3545.2297 2829609
-569.27014 -1044.136 3561.7542 3026988
-548.32196 -1044.5708 3563.2375 2764329
-529.37128 -1048.9988 3578.342 1842713
-512.09363 -1057.2517 3606.4941 2434850
-486.14926 -1047.5508 3573.4026 2632229
-464.95187 -1047.6597 3573.7739 2698278
-441.7002 -1042.9281 3557.634 2303519
-414.53589 -1028.0178 3506.772 2829863
-388.84033 -1015.3636 3463.6057 2698275
-364.177 -1004.1401 3425.3203 2763812
-341.29898 -996.80121 3400.2859 2633252
-315.43811 -979.27783 3340.5103 2501666
-293.38849 -972.02679 3315.7754 2633251
-271.90799 -965.7522 3294.3718 2633250
-251.27678 -961.75446 3280.7344 2370080
-232.47278 -964.66571 3290.6653 2435873
-213.32362 -966.54816 3297.0869 2370080
-194.12213 -968.5506 3303.9175 2763812
-175.18596 -972.47668 3317.3101 2895654
-156.321 -977.84424 3335.6201 2632482
-140.80173 -1008.7413 3441.0159 2566689
-121.43066 -1017.8567 3472.1104 2632482
-102.31202 -1033.2555 3524.6389 2500896
-81.305923 -1032.6158 3522.4568 2566689
-61.090225 -1045.0535 3564.8838 2632483
-39.908764 -1045.4081 3566.0938 1974554
-18.222731 -1018.3693 3473.8589 2369312
2.4500847 -1026.3286 3501.0095 1053454
22.245491 -981.33954 3347.5432 856588
0 0 0 0
57.420246 -908.10248 3097.717 5133133
76.691803 -918.32965 3132.6038 3488307
95.296989 -918.13983 3131.9565 4277566
112.29991 -905.09839 3087.4695 4343102
131.25319 -909.23218 3101.5708 4146237
149.20386 -906.25769 3091.4241 4343616
167.44356 -905.49878 3088.8352 4212030
185.80821 -905.49878 3088.8352 3751479
202.86346 -899.69153 3069.0256 3817529
220.58347 -897.54773 3061.7126 3948344
236.78574 -890.02594 3036.0542 4014137
253.98918 -887.06628 3025.9585 3553330
0 0 0 0
283.05301 -865.90356 2953.7683 0
298.85611 -860.83826 2936.4895 65536
317.2662 -863.427 2945.3201 65536
332.0116 -856.29315 2920.9851 65536
347.77875 -852.3728 2907.6121 65536
364.69949 -851.51715 2904.6934 0
381.10767 -849.59625 2898.1409 0
397.44055 -847.68091 2891.6072 0
413.51324 -845.39264 2883.8013 0
429.88675 -843.87677 2878.6306 0
446.08032 -842.13757 2872.6975 65536
461.6846 -839.45502 2863.5471 65536
478.13248 -838.44269 2860.0938 65536
494.5625 -837.4696 2856.7742 65536
511.16293 -836.84003 2854.6267 0
526.73969 -834.62897 2847.0842 0
542.92871 -833.49561 2843.218 0
557.68701 -830.30042 2832.3188 0
574.3587 -830.05786 2831.4915 256
596.5498 -837.57855 2857.146 1777182
616.72516 -841.93103 2871.9932 3488312
646.85107 -859.26709 2931.1299 3685948
668.31439 -864.48816 2948.9399 3949120
694.15479 -874.95959 2984.6599 3751741
726.69958 -893.14886 3046.7073 3883327
754.95697 -905.31207 3088.1985 3949120
785.38702 -919.44135 3136.3962 4146756
809.78461 -926.01678 3158.8264 4014400
829.81744 -927.4162 3163.5999 3882814
856.14697 -935.63477 3191.635 3948607
878.55206 -939.30096 3204.1414 3883068
902.47095 -944.39594 3221.521 3882812
923.59943 -946.41962 3228.4243 3751482
941.09875 -944.7179 3222.6194 3751482
960.97949 -945.42688 3225.0378 3356724
970.49652 -936.11163 3193.2617 3882298
984.00854 -930.93335 3175.5977 3619126
1002.5182 -930.58905 3174.4233 3421747
1011.6135 -921.68024 3144.0332 2698024
1050.6659 -939.89325 3206.1614 3290161
1061.8835 -933.00073 3182.6499 3553332
1081.3037 -933.43036 3184.1155 3553332
1092.0707 -926.50403 3160.4883 3158573
1125.2922 -938.53986 3201.5449 2171933
1139.7329 -934.77203 3188.6919 2434848
1172.8414 -946.18756 3227.6328 2237982
1185.9159 -941.33344 3211.0745 2237726
1205.4197 -941.65558 3212.1733 2106140
1222.1877 -939.86395 3206.0615 2435105
1244.0452 -941.98083 3213.2827 2303519
1250.0482 -932.21051 3179.9543 2435106
1279.7523 -940.14276 3207.0127 2369313
1294.6721 -937.14062 3196.772 2434850
1301.8586 -928.70874 3168.009 2303007
1307.4485 -919.39447 3136.2361 2829350
1282.5492 -889.2038 3033.2498 2895144
1260.5785 -861.85266 2939.9497 2698278
1256.208 -847.11823 2889.6875 2829863
1249.3934 -831.15546 2835.2356 2961450
1220.2954 -800.99103 2732.3386 3027242
1205.3302 -780.77399 2663.3745 3027242
1212.9569 -775.52582 2645.4719 3027242
1210.783 -764.22607 2606.926 2961449
1213.0377 -755.97186 2578.7693 2961193
1192.985 -734.19513 2504.4846 2830635
1192.5719 -724.89307 2472.7534 3224882
1199.745 -720.37256 2457.3333 3160631
0 0 0 0
1169.7646 -685.67139 2338.9607 5730432
1166.6262 -675.79785 2305.28 11847379
1196.7312 -685.18707 2337.3086 5988975
1208.5875 -684.03235 2333.3696 6382704
1228.105 -687.1908 2344.1436 1250846
1241.392 -686.83118 2342.9167 987673
1257.5171 -688.03223 2347.0139 197387
1280.6749 -693.01263 2364.0029 9
1242.0526 -664.81665 2267.821 9
1483.4143 -785.48016 2679.428 9
0 0 0 0
0 0 0 0
1213.2629 -622.38135 2123.0657 11
1224.0392 -621.44391 2119.8679 11
1233.4337 -619.83118 2114.3667 11
1236.2466 -614.97699 2097.8081 267
1209.6053 -595.71399 2032.0983 267
1216.4982 -593.18378 2023.467 6254976
1219.8525 -588.99457 2009.1769 10204102
1229.1516 -587.72913 2004.8601 12438484
1232.5017 -583.67078 1991.0162 9477568
1237.0181 -580.23669 1979.302 7242412
1238.481 -575.44849 1962.9686 7111605
1238.9679 -570.30054 1945.4078 7441600
1236.389 -563.84961 1923.4026 7180223
1253.7277 -566.51703 1932.5016 7510468
1246.2935 -558.04364 1903.5972 9877710
1242.6492 -551.40448 1880.9497 11522520
1243.1558 -546.70917 1864.933 13226967
1248.083 -544.0238 1855.7727 13357523
1258.427 -543.72583 1854.7563 13488595
1261.3624 -540.25989 1842.9333 13488594
1267.2292 -538.09845 1835.5601 13816790
1274.049 -536.37506 1829.6813 9605537
1230.0165 -513.45331 1751.4906 6841465
1258.8303 -521.06976 1777.4719 5789021
1243.7784 -510.55322 1741.5979 5526360
0 0 0 0
1188.8965 -480.03226 1637.4849 4605510
1210.3666 -484.73172 1653.5156 5197645
1223.5469 -486.06226 1658.0543 5527120
1236.9916 -487.47565 1662.8759 5263948
1247.4414 -487.69592 1663.6271 5132105
1259.0345 -488.35611 1665.8792 5593169
1267.7401 -487.89468 1664.3052 3618610
1277.0044 -487.65378 1663.4834 5526858
1285.1788 -487.0036 1661.2655 5460295
1292.7076 -486.12054 1658.2533 5657159
1291.8225 -482.11078 1644.5751 5657158
1285.9106 -476.29932 1624.7511 5460290
1304.625 -479.62805 1636.1061 5722690
1304.1252 -475.89597 1623.3752 5723202
1309.8142 -474.46054 1618.4786 5656894
1311.6132 -471.64716 1608.8817 5722687
1315.1157 -469.48273 1601.4984 5788224
1313.2301 -465.43973 1587.7069 5656382
1314.2119 -462.46341 1577.5541 5919555
1314.6318 -459.33301 1566.8756 5854018
1322.3191 -458.76797 1564.9482 5984834
1324.9264 -456.46072 1557.0778 5853247
1326.0074 -453.66324 1547.535 6248005
1332.4921 -452.74039 1544.387 5919040
1340.7654 -452.43369 1543.3407 6050626
1344.0344 -450.45401 1536.5876 5984833
1345.2012 -447.80121 1527.5385 5787708
1359.4098 -449.49637 1533.3209 5787708
1378.6317 -452.81558 1544.6434 5853501
1390.7125 -453.76083 1547.8679 5985086
1402.6862 -454.65897 1550.9316 6182466
1416.3235 -456.08112 1555.7827 5853503
1431.7655 -458.06213 1562.5404 6116673
1439.7235 -457.6387 1561.0961 5985088
1450.3722 -458.0705 1562.569 5985344
1462.7513 -459.03983 1565.8756 5985345
1493.2635 -465.65146 1588.4291 5787966
1508.1401 -467.33487 1594.1716 5787967
1534.9185 -472.66232 1612.3445 5918783
1528.5062 -467.7663 1595.6433 5919040
1540.288 -468.46426 1598.0242 5787708
1541.942 -466.09235 1589.9331 5590329
0 0 0 0
0 0 0 0
0 0 0 0
0 0 0 0
0 0 0 0
0 0 0 0
0 0 0 0
0 0 0 0
0 0 0 0
0 0 0 0
0 0 0 0
0 0 0 0
-1661.5037 -557.82812 1942.2532 3421480
-1652.0199 -558.52588 1944.6827 3618858
-1773.089 -603.68268 2101.9104 3487269
-1582.3066 -542.55109 1889.0616 3421476
-1702.3906 -587.89929 2046.9553 3421477
-1597.3494 -555.59644 1934.4829 3487269
-1650.576 -578.27374 2013.441 3355684
-1615.9353 -570.27344 1985.5854 3355684
-1620.0879 -575.94647 2005.338 3289893
-1604.5638 -574.65674 2000.8474 3355943
-1531.0464 -552.42279 1923.4331 3158564
-1570.0582 -570.76202 1987.2867 3290150
-1567.3595 -574.10132 1998.9136 3224357
-1585.132 -585.0473 2037.0253 3158565
-1576.3435 -586.28302 2041.328 2829856
-1560.714 -584.97394 2036.7699 3026978
-1543.2896 -582.96625 2029.7797 2895393
-1545.1034 -588.2514 2048.1814 2698014
-1531.5006 -587.70441 2046.277 2632219
-1522.5885 -588.96313 2050.6597 2303254
-1515.1108 -590.80157 2057.0605 1842705
-1465.4639 -576.09247 2005.8464 1119240
-1451.4629 -575.27002 2002.9827 526337
-1438.1395 -574.70471 2001.0145 256
-1427.0784 -575.0415 2002.1871 0
-1410.661 -573.20764 1995.8018 256
-1394.6627 -571.51422 1989.9058 724237
-1380.7057 -570.63556 1986.8463 658702
-1350.876 -563.125 1960.696 527117
-1347.7789 -566.72449 1973.2288 1316891
-1334.766 -566.18109 1971.3368 1185304
-1321.3794 -565.46814 1968.8544 1185302
-1309.4457 -565.36975 1968.5117 922133
-1296.2928 -564.73846 1966.3137 790547
-1290.0907 -567.15137 1974.7151 790804
-1281.3938 -568.50171 1979.4167 1382941
-1271.278 -569.24182 1981.9937 1448734
-1260.9084 -569.88104 1984.2195 1382941
-1245.4652 -568.21759 1978.4275 988441
-1238.141 -570.2619 1985.5454 922648
-1226.3235 -570.2561 1985.5253 659219
-1220.1057 -572.87946 1994.6592 593426
-1196.0616 -567.10211 1974.5436 1514528
-1188.2206 -568.96887 1981.0433 1448477
-1183.183 -572.229 1992.3944 1580320
-1167.9958 -570.59662 1986.7108 1448477
-1160.6931 -572.82202 1994.4594 329738
-1146.0948 -571.45569 1989.702 1
-1141.3193 -575.0097 2002.0763 1
-1132.235 -576.44489 2007.0735 771
-1120.2509 -576.41864 2006.9821 198149
-1116.4517 -580.64862 2021.71 724494
-1118.1041 -587.83685 2046.7382 256
-1121.7628 -596.24969 2076.03 256
-1120.9307 -602.43616 2097.5701 256
-1125.9415 -611.93744 2130.6519 256
-1127.4615 -619.73602 2157.8052 0
-1125.4586 -625.75549 2178.7637 0
-1113.5664 -626.35266 2180.843 0
-1099.3298 -625.6297 2178.3257 0
-1085.9414 -625.37793 2177.449 0
-1084.5859 -632.13318 2200.9697 0
-1081.545 -638.05927 2221.6033 0
-1097.2845 -655.34839 2281.8005 0
-1100.4653 -665.47577 2317.0623 0
-1092.7621 -669.1947 2330.011 0
-1082.7568 -671.58136 2338.3208 0
-1076.8081 -676.57886 2355.7212 0
-1053.968 -670.95508 2336.1401 0
-1040.4557 -671.19836 2336.9873 0
-1028.6857 -672.5874 2341.8237 0
-1016.8901 -673.99774 2346.7341 0
-1008.6962 -677.86755 2360.2083 256
-1005.331 -685.13751 2385.5208 256
-998.23291 -690.0351 2402.5732 328960
-1127.9164 -790.9986 2754.1094 526336
-1186.5156 -844.35168 2939.875 592128
-1176.3702 -849.6485 2958.3174 329728
-1237.4396 -907.32257 3159.1277 395264
-1286.6489 -957.9444 3335.3835 131840
-1327.3701 -1003.7324 3494.8088 921351
-1331.8668 -1023.1489 3562.4136 1118731
-1301.5787 -1016.0392 3537.6587 789767
-1282.0253 -1017.2132 3541.7463 987403
-1243.2384 -1002.911 3491.9487 1185039
-1202.7098 -986.69409 3435.4846 1514003
-1173.2889 -979.18707 3409.3464 1777175
-1124.8374 -955.25452 3326.0178 1777175
-1097.0355 -948.31555 3301.8577 2040346
-1068.214 -940.22638 3273.6924 1908505
-1042.995 -935.06671 3255.7275 2303264
-1027.4763 -938.57275 3267.9351 1974299
-1016.3913 -946.3421 3294.9866 2105885
-981.44543 -931.76398 3244.228 2171680
-976.24976 -945.41168 3291.7468 2434853
-960.53357 -949.22113 3305.0107 1975583
-927.08179 -935.297 3256.5293 2238497
-909.55884 -937.19153 3263.126 2238241
-914.73633 -963.06866 3353.2251 2238241
-911.94147 -981.51819 3417.4631 2172961
-864.18274 -951.31134 3312.2883 2238754
-886.25183 -998.35632 3476.0901 2304548
-869.60693 -1002.9955 3492.2429 2501669
-760.75995 -898.91534 3129.8555 2304034
-847.59674 -1026.6338 3574.5471 2435621
-826.36694 -1026.662 3574.6453 2567206
-809.87097 -1032.7281 3595.7664 2698792
-789.18378 -1033.6338 3598.9197 2698794
-767.43976 -1033.167 3597.2944 2501415
-688.04095 -952.83051 3317.5779 2501415
-720.04095 -1026.5753 3574.3435 2698794
-698.78967 -1026.5753 3574.3435 2632998
-676.87268 -1025.5667 3570.8313 2698792
-651.70142 -1019.402 3549.3677 2632998
-630.42139 -1019.1155 3548.3701 2632999
-607.30804 -1015.7429 3536.627 2829865
-586.97217 -1016.9402 3540.7957 2764072
-569.38013 -1023.1572 3562.4424 2895658
-546.75348 -1020.4583 3553.0449 2961707
-528.01007 -1025.0811 3569.1406 1645078
-517.41962 -1046.582 3644.0034 2303520
-488.51022 -1031.2893 3590.7568 2369312
-463.51587 -1023.2416 3562.7361 2566691
-441.54001 -1021.4058 3556.344 2632482
-414.96429 -1008.2092 3510.396 2698275
-390.13464 -998.08191 3475.1348 2764068
-366.17795 -989.18005 3444.1404 2698018
-344.08392 -984.55365 3428.0317 2436130
-318.95245 -970.1059 3377.7275 2699302
-297.34839 -965.16632 3360.5288 2632995
-273.23718 -950.79083 3310.4761 2501410
-252.57678 -947.1236 3297.7073 2303774
-233.5499 -949.47998 3305.9119 2370080
-213.5652 -948.01776 3300.8206 2370080
-194.66064 -951.53949 3313.0828 2632482
-175.83551 -956.28613 3329.6099 2632482
-158.26537 -969.92847 3377.1099 2764068
-140.44456 -985.77582 3432.2874 2566689
-121.23589 -995.61383 3466.5415 2435102
-102.22063 -1011.3956 3521.4905 2500895
-81.788475 -1017.6775 3543.3628 2566690
-61.111179 -1024.2096 3566.1067 2566689
-39.926006 -1024.6484 3567.6348 1842966
-18.148476 -993.6499 3459.7031 2764069
2.4108174 -989.39801 3444.8992 1250831
22.357285 -966.26843 3364.3662 922379
0 0 0 0
57.153858 -885.5575 3083.3459 5198925
76.293716 -895.03461 3116.3433 3356721
94.594147 -892.88458 3108.8574 4211774
112.37001 -887.29535 3089.3967 4342590
130.98965 -889.0033 3095.3433 4408639
149.47453 -889.4884 3097.0325 4146237
167.98297 -889.99194 3098.7856 3948859
185.04823 -883.50555 3076.2014 3948858
202.86346 -881.44464 3069.0256 4014652
222.58305 -887.31555 3089.467 4211516
236.90218 -872.40387 3037.5471 4277309
253.0343 -865.80817 3014.5823 3750453
0 0 0 0
282.21658 -845.83521 2945.04 0
298.71414 -842.97876 2935.0945 0
316.04541 -842.66058 2933.9868 0
332.64221 -840.5199 2926.5334 0
347.24316 -833.79962 2903.1345 0
363.87772 -832.36755 2898.1482 0
380.17041 -830.31836 2891.0134 0
396.38675 -828.28687 2883.9402 0
412.3537 -825.92444 2875.7146 0
428.97827 -825.01483 2872.5474 0
445.27234 -823.56354 2867.4944 0
461.29214 -821.73065 2861.1128 0
477.37552 -820.13745 2855.5654 0
493.61633 -818.91492 2851.3088 65536
509.95929 -817.93732 2847.905 0
525.98474 -816.52972 2843.0039 0
542.35535 -815.72888 2840.2156 0
558.63049 -814.83716 2837.1106 0
572.39716 -810.44604 2821.8215 0
591.25989 -813.31488 2831.8105 0
617.61334 -826.04358 2876.1294 3422007
643.40997 -837.36163 2915.5369 3751741
670.75281 -850.04553 2959.6997 3751997
706.44348 -872.38953 3037.4976 4014913
730.63983 -879.77911 3063.2266 4014913
760.92249 -893.95972 3112.6008 3949120
787.44019 -903.14886 3144.5955 3949377
807.4679 -904.64044 3149.7891 3949120
830.7912 -909.67322 3167.312 4014657
851.08411 -911.23816 3172.761 3882814
875.84497 -917.41522 3194.2686 3554103
902.47095 -925.24231 3221.521 3751482
915.42883 -919.0224 3199.8643 3751482
942.79395 -927.22504 3228.4243 3685689
963.39734 -928.58282 3233.1521 3488310
969.69165 -916.36548 3190.6135 3554360
979.69049 -908.05054 3161.6624 3619640
1003.9919 -913.05579 3179.0896 3619126
1024.7709 -914.73181 3184.9253 2698022
1035.4406 -907.48712 3159.7004 3421745
1059.053 -911.64172 3174.166 3487538
1079.0613 -912.60284 3177.5125 3487538
1098.7611 -913.27429 3179.8506 3158315
1135.3838 -927.75128 3230.2566 2237213
1152.3711 -925.96875 3224.0503 2237726
1174.8104 -928.55402 3233.0518 2106140
1183.41 -920.29333 3204.2893 2171933
1203.2504 -920.89734 3206.3926 2237726
1220.1653 -919.2785 3200.7561 2237726
1232.4717 -914.29071 3183.3894 2303519
1250.6396 -913.73621 3181.4587 2171677
1278.3544 -920.06934 3203.5095 2434850
1289.5286 -914.48669 3184.0718 2434850
1296.7323 -906.29047 3155.5342 2237727
1296.0435 -892.89075 3108.8787 2500643
1289.7936 -876.09033 3050.3828 2698021
1266.652 -848.44135 2954.1143 2763815
1250.6803 -826.28558 2876.9719 2632484
1250.8838 -815.26984 2838.6174 2698021
1220.4619 -784.85309 2732.7117 2829608
1227.8278 -779.21655 2713.0864 2895401
1212.2012 -759.32373 2643.8235 3158574
1199.4919 -741.74438 2582.6152 3224366
1212.8489 -740.52448 2578.3679 2961194
1192.985 -719.30469 2504.4846 2896173
1191.9978 -709.84937 2471.563 3488312
1184.0553 -696.53284 2425.1973 3029300
1156.4436 -672.10535 2340.1453 5595231
1164.7018 -668.85773 2328.8376 5861503
1163.025 -660.04803 2298.1641 11977679
1194.0101 -669.76428 2331.9941 5659235
1208.0682 -669.87146 2332.3672 6251112
1225.5303 -671.84216 2339.229 1183768
1238.057 -671.09351 2336.6223 1184022
1263.324 -677.1908 2357.8518 4
1243.1732 -659.07568 2294.7783 5
1242.0525 -651.33331 2267.8208 65540
1262.3456 -654.86597 2280.1208 6
1292.9126 -663.59674 2310.5198 6
0 0 0 0
1213.8274 -610.04236 2124.0535 8
1228.0281 -610.82428 2126.7761 9
1235.9307 -608.48956 2118.647 10
1242.1119 -605.36304 2107.761 15
0 0 0 0
1215.8944 -580.86481 2022.4628 6385539
1230.702 -582.1814 2027.0468 8494524
1223.8914 -573.34503 1996.2803 9416914
1234.0002 -572.5285 1993.4373 8365258
1238.3529 -569.08215 1981.4377 7773634
1251.3124 -569.61884 1983.3063 7445699
1245.16 -561.52661 1955.1307 8761549
1259.1628 -562.58936 1958.8309 10996949
1253.8522 -555.08252 1932.6936 12571863
1245.7688 -546.49567 1902.7958 13292500
1241.006 -539.5069 1878.4623 13357523
1251.9213 -539.39789 1878.0828 13488594
1254.2202 -535.61115 1864.8979 13357012
1250.1583 -529.1983 1842.5696 13224404
1266.9092 -531.63037 1851.0376 6577265
1272.9293 -529.55646 1843.8165 4407630
1267.7417 -522.8952 1820.6234 5526877
0 0 0 0
1256.1025 -509.39563 1773.6204 5461079
1254.9954 -504.70956 1757.3044 5461334
0 0 0 0
1182.1818 -467.64041 1628.2366 4211261
1210.5206 -474.96121 1653.7262 5066824
1226.6781 -477.42294 1662.2975 5329483
1239.9225 -478.72067 1666.8159 5724238
1250.6672 -479.04037 1667.9292 5461320
1263.5673 -480.1741 1671.8766 5132355
1275.6743 -480.99115 1674.7213 3487273
1272.3523 -476.02304 1657.4233 5723463
1285.0803 -477.09 1661.1382 5525572
1289.6093 -475.11987 1654.2787 5854022
1292.0219 -472.40582 1644.8289 5788228
1301.1346 -472.164 1643.9868 5985604
1302.0674 -468.9794 1632.8987 5525054
1305.4618 -466.72205 1625.0391 5590846
1308.0649 -464.21704 1616.3171 5656896
1311.6379 -462.0903 1608.9121 5656638
1314.0029 -459.57187 1600.1433 5393466
1317.7888 -457.58295 1593.2184 5853503
1314.2119 -453.08408 1577.5541 5722174
1314.6318 -450.01712 1566.8756 5853760
1321.8125 -449.29141 1564.3486 5984833
1322.1749 -446.27438 1553.844 5919551
1328.9374 -445.44452 1550.9546 5919295
1340.6886 -446.28668 1553.8868 5919294
1345.1021 -444.6915 1548.3328 5656123
1349.6754 -443.17047 1543.0367 5919295
1358.9885 -443.21585 1543.1947 5853500
1357.2054 -439.66592 1530.8346 5919292
1370.7788 -441.10492 1535.8448 5787707
1390.7125 -444.55798 1547.8679 5919293
1393.7303 -442.5939 1541.0292 5919294
1407.9022 -444.17438 1546.5322 6182466
1422.7007 -445.93076 1552.6476 5853759
1439.7235 -448.35721 1561.0961 6116931
1453.2103 -449.65839 1565.6266 5853760
1462.6288 -449.69226 1565.7444 5853760
1474.0729 -450.34448 1568.0154 5985346
1484.0089 -450.53076 1568.6639 5393208
1494.5612 -450.90054 1569.9514 5985345
1530.7599 -458.95511 1597.996 5787966
1537.6086 -458.16486 1595.2445 5985344
1543.1101 -456.98529 1591.1375 5853760
0 0 0 0
0 0 0 0
0 0 0 0
0 0 0 0
0 0 0 0
0 0 0 0
0 0 0 0
0 0 0 0
0 0 0 0
0 0 0 0
0 0 0 0
0 0 0 0
-1683.2473 -553.42938 1967.6708 3684398
-1827.4565 -605.04871 2151.1987 3487271
-1780.4388 -593.63647 2110.6235 3553063
-1736.1035 -582.96283 2072.6743 3553063
-1582.3511 -535.13306 1902.6198 3289891
-1570.4817 -534.94318 1901.9446 3355684
-1681.8541 -577.03412 2051.5955 3487270
-1624.2067 -561.32672 1995.7489 3553063
-1610.4712 -560.67578 1993.4346 3487272
-1601.438 -561.66437 1996.9495 3290149
-1564.2842 -552.73151 1965.1895 3158564
-1545.6531 -550.2583 1956.3961 3290150
-1556.1755 -558.20508 1984.6503 3026722
-1555.368 -562.1781 1998.7761 2895136
-1565.7173 -570.276 2027.5674 3158564
-1565.0162 -574.44348 2042.3845 2895393
-1543.7302 -571.06122 2030.3593 2961186
-1490.7343 -555.80304 1976.1099 2698013
-1535.687 -577.11151 2051.8706 2500634
-1488.3245 -563.79138 2004.512 2434329
-1462.7946 -558.59338 1986.0308 1842193
-1492.9871 -574.76245 2043.5187 1315596
-1466.2288 -569.09241 2023.3593 855559
-1439.7107 -563.42255 2003.2004 256
-1427.6713 -563.37146 2003.0189 256
-1411.9996 -561.87421 1997.6956 256
-1396.563 -560.44586 1992.6171 658189
-1378.6504 -557.99091 1983.8888 527116
-1363.8381 -556.75922 1979.5096 461067
-1349.4485 -555.68018 1975.6731 593169
-1330.6326 -552.74347 1965.2319 1119513
-1320.4038 -553.35339 1967.4006 1119512
-1309.2324 -553.57581 1968.1913 1053719
-1298.2424 -553.87952 1969.2711 1185305
-1285.6287 -553.48969 1967.885 659218
-1275.5907 -554.21179 1970.4525 1120024
-1265.5425 -554.94287 1973.0518 1711905
-1256.7379 -556.23798 1977.6564 1382940
-1243.0132 -555.35931 1974.5325 1317149
-1230.3762 -554.95459 1973.0934 1053977
-1222.4799 -556.70081 1979.302 527633
-1209.114 -555.96613 1976.6898 527633
-1196.2828 -555.46515 1974.9087 659218
-1190.015 -558.0321 1984.0353 987670
-1181.3062 -559.49426 1989.2338 1316891
-1170.937 -560.19171 1991.7136 593168
-1168.2677 -564.62476 2007.4749 1053719
-1153.0898 -563.04144 2001.8457 1053975
-1142.1997 -563.54077 2003.6207 856594
-1131.1375 -563.96466 2005.1279 592652
-1117.8082 -563.25531 2002.606 921615
-1117.8784 -569.35529 2024.2937 790029
-1124.9497 -579.1925 2059.2693 256
-1114.0303 -579.88171 2061.7197 256
-1145.5771 -602.93695 2143.6907 256
-1134.7694 -603.96814 2147.3569 256
-1124.7733 -605.45978 2152.6602 256
-1116.698 -608.03162 2161.8042 0
-1113.7701 -613.4986 2181.2417 0
-1091.801 -608.48248 2163.4072 0
-1096.2181 -618.2276 2198.0552 0
-1087.0504 -620.45404 2205.9712 0
-1091.5291 -630.61884 2242.1113 0
-1104.8899 -646.23022 2297.616 0
-1091.4493 -646.36047 2298.0791 0
-1085.5052 -650.98969 2314.5378 0
-1086.2771 -659.81708 2345.9231 0
-1059.0928 -651.67249 2316.9656 0
-1057.6731 -659.37531 2344.3523 0
-1032.3588 -652.18854 2318.8005 0
-1022.0181 -654.39484 2326.6448 0
-1012.2048 -657.00403 2335.9214 0
-1003.6648 -660.5238 2348.4355 65536
-998.31543 -666.27222 2368.8738 65536
-993.05164 -672.24316 2390.1028 131840
-1037.6003 -712.59729 2533.5786 592384
-1185.0311 -825.83813 2936.1968 395264
0 0 0 0
-1151.6439 -826.93463 2940.0952 526848
-1293.2083 -942.89636 3352.387 395008
-1330.3311 -985.14673 3502.6047 1052938
-1342.657 -1010.086 3591.2742 1118729
-1310.5713 -1001.8806 3562.1003 723975
-1302.686 -1012.2096 3598.8242 1250831
-1243.6952 -982.51056 3493.2319 1316624
-1205.3599 -968.39758 3443.0544 1448210
-1160.3076 -948.30731 3371.6252 1908505
-1125.7152 -936.20972 3328.6133 1908507
-1095.6459 -927.508 3297.6753 1974043
-1066.9955 -919.71234 3269.9583 1908506
-1039.5436 -912.6795 3244.9536 2040348
-1018.6398 -911.23853 3239.8303 2237471
-995.70068 -907.88599 3227.9109 2171678
-988.93054 -919.43451 3268.9705 2040092
-972.07324 -921.87964 3277.6641 1974299
-956.30548 -925.47937 3290.4626 2106655
-935.97235 -924.71899 3287.759 1909532
-918.74908 -927.06415 3296.0969 2041118
-903.30518 -931.34601 3311.3208 2304034
-876.3291 -923.6637 3284.0071 2106655
-892.98669 -962.66986 3422.6899 2370083
-775.49951 -855.51019 3041.6931 2369827
-860.56415 -972.01831 3455.9277 2567463
-853.64801 -987.7915 3512.0081 2435620
-757.42267 -898.4209 3194.2583 2567208
-822.92926 -1001.2264 3559.7747 2567208
-802.43445 -1002.0629 3562.7488 2501414
-785.51862 -1007.5352 3582.2048 2567208
-767.15369 -1011.4022 3595.9536 2435622
-749.90979 -1017.011 3615.8955 2698794
-724.93329 -1012.1548 3598.6294 2501415
-698.01129 -1004.2042 3570.3618 2698792
-649.34827 -963.49573 3425.6265 2633000
-650.64197 -996.67651 3543.5979 2632999
-626.06256 -991.11829 3523.8362 2896171
-604.25153 -989.70953 3518.8274 2896172
-585.7558 -993.82471 3533.4585 2961451
-570.41241 -1003.7935 3568.9014 2764071
-547.48645 -1000.6733 3557.8081 2829865
-527.05786 -1002.0504 3562.7043 1513748
-513.90039 -1017.9456 3619.2183 2698277
-490.03677 -1013.0965 3601.9775 2632226
-463.74106 -1002.5461 3564.4668 2763812
-443.15216 -1003.9137 3569.3289 2698275
-416.33713 -990.60461 3522.0098 2698275
-391.92209 -981.89868 3491.0566 2632482
-368.25 -974.18451 3463.6294 2435103
-343.11487 -961.45679 3418.3772 2566689
-321.44995 -957.46252 3404.176 2829861
-296.29108 -941.82532 3348.5791 2566690
-272.2735 -927.82452 3298.8005 2698275
-252.97462 -928.97803 3302.9016 2632483
-234.07231 -931.9046 3313.3069 2566689
-213.41977 -927.7605 3298.573 2764068
-194.96831 -933.31445 3318.3193 2698275
-177.33224 -944.46149 3357.9519 2632482
-159.03644 -954.47754 3393.563 2435103
-138.91072 -954.82599 3394.8018 2632482
-121.25202 -975.1333 3467.0027 2632482
-102.50852 -993.24811 3531.4084 2369308
-81.830887 -997.1272 3545.2 2500894
-61.090607 -1002.6697 3564.9062 2566687
-39.471916 -992.02472 3527.0588 1974549
-18.117735 -971.43201 3453.8433 2632480
2.3732166 -953.80457 3391.1702 1185036
22.187994 -939.1004 3338.8909 1119501
0 0 0 0
56.905785 -863.46136 3069.9626 5067339
75.330788 -865.44373 3077.0107 3422514
95.213943 -880.13019 3129.2273 3751736
112.14978 -867.22437 3083.342 4211516
130.19449 -865.31494 3076.5532 4146237
150.28647 -875.8067 3113.8555 4014906
168.27472 -873.08191 3104.1677 4146747
185.07883 -865.35907 3076.71 4080954
202.35252 -861.0238 3061.2961 3948856
219.13692 -855.49371 3041.6345 3817273
235.48547 -849.23511 3019.3823 4080444
265.08234 -888.25641 3158.1194 3948089
267.21814 -836.18378 2972.9797 4079676
0 0 0 0
297.73672 -822.82697 2925.4907 0
314.63437 -821.53223 2920.8875 0
331.28088 -819.75165 2914.5566 0
346.46271 -814.70374 2896.6094 0
362.60291 -812.28082 2887.9949 0
378.90646 -810.42651 2881.4019 0
395.14175 -808.59277 2874.8823 0
411.28659 -806.73383 2868.2727 0
427.93121 -805.96405 2865.5361 0
444.27618 -804.71057 2861.0793 0
460.4425 -803.23773 2855.843 0
476.32495 -801.39233 2849.2815 0
492.5191 -800.17981 2844.9707 0
508.87363 -799.29987 2841.842 0
525.09369 -798.27203 2838.1877 0
541.83447 -798.0752 2837.4878 0
557.80011 -796.7829 2832.8933 0
574.94525 -797.20197 2834.3831 0
592.11646 -797.63214 2835.9128 256
619.95935 -812.0163 2887.0542 1514266
638.61182 -813.91205 2893.7944 3488569
675.72906 -838.62439 2981.6572 3685948
703.58789 -850.87677 3025.2192 3883327
729.74738 -860.5144 3059.4851 4014913
760.90308 -875.43152 3112.5215 4080706
800.67041 -899.31281 3197.4294 4080963
833.50079 -914.47546 3251.3391 3685948
834.802 -895.1427 3182.603 3949120
858.8822 -900.55096 3201.8315 3883071
886.39697 -909.2478 3232.7524 3685946
904.33881 -907.96411 3228.1885 3619896
927.72827 -912.08966 3242.8567 3817275
950.09869 -915.06573 3253.4377 3751482
959.12488 -905.32733 3218.8137 3817018
968.53668 -896.32684 3186.8132 3487797
983.16382 -892.40552 3172.8713 3619126
1007.2512 -897.05719 3189.4099 3553333
1035.4733 -905.15137 3218.188 2500643
1041.7025 -894.07562 3178.8093 3487538
1065.1406 -897.90155 3192.4121 3355952
1092.7019 -905.00848 3217.6799 3290159
1091.6714 -888.5976 3159.3325 3093035
1128.9965 -903.43451 3212.084 2435104
1145.3999 -901.31458 3204.5466 2040347
1167.4452 -903.6311 3212.7827 2237725
1178.6936 -897.65039 3191.5188 2303518
1200.1534 -899.51263 3198.1399 2237725
1243.2028 -917.24573 3261.1885 2106140
1221.5859 -887.45551 3155.272 2369311
1250.6396 -894.82086 3181.4587 2303518
1254.4884 -884.20148 3143.7024 2237724
1264.8345 -878.40613 3123.0977 2369310
1297.0105 -887.71973 3156.2112 2435103
1315.0393 -887.22284 3154.4446 2369313
1318.848 -877.28094 3119.0972 2566690
1299.3076 -852.29858 3030.2744 2435103
1290.0548 -834.65552 2967.5461 2698276
1257.6473 -802.7099 2853.9661 2698277
1221.3694 -769.17719 2734.7434 3027242
1244.2251 -773.27679 2749.3193 2961449
1208.1067 -741.09326 2634.8936 2961449
1189.6045 -720.40186 2561.3269 2961449
1191.6422 -712.51477 2533.2852 3224366
1186.3729 -700.51019 2490.6038 2896172
1189.9716 -693.97302 2467.3616 2961969
1191.9546 -686.66449 2441.3767 3291450
1178.425 -670.70282 2384.6262 5331291
1169.4863 -657.70239 2338.4045 5729151
1159.442 -644.39301 2291.084 11452363
1193.1801 -655.44348 2330.373 5790569
1205.3241 -654.51428 2327.0693 5988716
1222.5947 -656.3584 2333.626 790808
1234.338 -655.22699 2329.6033 987158
1253.4611 -657.99469 2339.4436 262919
1237.2898 -642.3775 2283.9182 5
1238.515 -636.03333 2261.3618 5
1242.6825 -631.32007 2244.6042 7
1262.2061 -634.42548 2255.6453 8
1202.2427 -597.93292 2125.8992 9
1209.9292 -595.49512 2117.2319 9
1219.4697 -594.01074 2111.9543 8
1230.6111 -593.32837 2109.5281 11
1238.2899 -591.0072 2101.2754 13
1213.2865 -573.28979 2038.2826 10
1218.2759 -569.95441 2026.424 5794422
1231.0558 -570.29346 2027.6294 8169663
1221.3247 -560.29865 1992.0938 8832209
1237.077 -562.07446 1998.4076 9160655
1246.1471 -560.8092 1993.9091 10931922
1251.2045 -557.77893 1983.1351 11850196
1247.074 -550.74762 1958.136 13096151
1246.6105 -545.45087 1939.3038 13357780
1246.2681 -540.30371 1921.0034 13488594
1250.8989 -537.38654 1910.6316 13554133
1250.3529 -532.31781 1892.6105 13685466
0 0 0 0
1237.8685 -517.68506 1840.5847 6446194
1269.2374 -526.15234 1870.6896 5723230
0 0 0 0
1254.9487 -511.26868 1817.772 5526360
1246.3049 -503.41187 1789.8376 5329235
1241.2159 -497.11172 1767.4381 5592404
1247.5876 -495.4689 1761.5972 5460816
1238.2697 -487.67435 1733.8843 5329484
1213.2191 -473.86353 1684.7811 5592656
1190.2725 -461.09396 1639.38 5000518
1214.8047 -466.77505 1659.5786 5395275
1230.2067 -468.88467 1667.0792 5461068
1243.2506 -470.06897 1671.2898 5329992
1252.8291 -469.93463 1670.8123 5329223
1265.063 -470.79059 1673.8556 5263430
1267.8505 -468.14517 1664.45 4012336
1270.0339 -465.31943 1654.4033 5657671
1286.7959 -467.83743 1663.3558 5854793
1290.2203 -465.50485 1655.0626 5460035
1294.139 -463.38464 1647.5243 5722435
1300.2079 -462.06027 1642.8157 5788226
1302.7111 -459.49805 1633.7059 5656894
1304.587 -456.75415 1623.9502 5788480
1309.5656 -455.12875 1618.1713 5853759
1312.8191 -452.93204 1610.361 5722173
1313.5001 -449.88599 1599.531 5985345
1309.8853 -445.42288 1583.6628 5656380
1322.0081 -446.33685 1586.9125 5919552
1314.8682 -440.78052 1567.1572 5787965
1320.9552 -439.7052 1563.3341 5787709
1325.6248 -438.17633 1557.8984 5919295
1322.4379 -434.08984 1543.3691 6116673
1340.2769 -436.91385 1553.4097 6050880
1334.9539 -432.20032 1536.6512 5853502
1348.4336 -433.59702 1541.6169 5984831
1367.7458 -436.83768 1553.1389 6050111
1367.1267 -433.71182 1542.0251 6049854
1367.6091 -430.97473 1532.2936 5853245
1390.0942 -435.16159 1547.1798 5853501
1399.6132 -435.2612 1547.5338 5656122
1415.6154 -437.36246 1555.0048 5853502
1440.5654 -442.18311 1572.144 5853759
1438.0592 -438.56815 1559.2914 5853758
1452.2561 -440.06088 1564.5986 5853759
1462.7739 -440.42685 1565.8999 5853502
1472.2844 -440.48682 1566.113 5656380
1492.745 -443.80157 1577.8983 5787966
1486.1531 -439.08224 1561.1193 5722173
1529.5502 -449.09906 1596.7332 5787708
1506.3862 -439.56955 1562.8517 5721916
1511.0205 -438.21875 1558.0492 5919038
0 0 0 0
0 0 0 0
0 0 0 0
0 0 0 0
0 0 0 0
0 0 0 0
0 0 0 0
0 0 0 0
0 0 0 0
0 0 0 0
0 0 0 0
0 0 0 0
0 0 0 0
-1614.5092 -523.24481 1900.5267 3552809
-1797.6263 -586.69727 2130.9983 3553064
-1674.021 -550.23389 1998.5563 3487272
-1725.2913 -571.13989 2074.491 3487272
-1641.6156 -547.35291 1988.0919 3750444
-1690.1959 -567.63788 2061.771 3224099
-1607.2188 -543.71405 1974.8749 3421476
-1595.3435 -543.66846 1974.7095 3487269
-1570.5132 -539.17468 1958.3871 3290403
-1550.2743 -536.20178 1947.5889 3027232
-1573.7465 -548.4165 1991.9552 3290659
-1551.5347 -544.77582 1978.7316 3093027
-1554.1198 -549.85278 1997.172 3092771
-1519.486 -541.73834 1967.6989 3158564
-1529.4556 -549.5238 1995.9769 2961185
-1563.209 -566.04309 2055.9783 2829599
-1524.6526 -556.4328 2021.0719 2763806
-1521.8777 -559.83228 2033.4196 2632220
-1477.0859 -547.70636 1989.3757 2106132
-1483.6342 -554.5752 2014.3247 1710350
-1492.9871 -562.61273 2043.5187 1513229
-1457.29 -553.6665 2011.024 723716
-1438.0339 -550.87018 2000.8676 65536
-1427.7667 -551.49939 2003.1528 0
-1413.1774 -550.45569 1999.3618 256
-1398.496 -549.35809 1995.3751 658443
-1372.2397 -543.65594 1974.6638 723981
-1364.5726 -545.28357 1980.5757 395017
-1349.7545 -544.05719 1976.1212 461068
-1333.9065 -542.39044 1970.0674 790548
-1319.4038 -541.24609 1965.9108 922389
-1309.1671 -541.84686 1968.093 1185304
-1298.6587 -542.34503 1969.9025 1185304
-1286.761 -542.26678 1969.6183 527374
-1275.4775 -542.44836 1970.2777 395787
-1268.9117 -544.65826 1978.3046 725008
-1251.3285 -542.13623 1969.144 1317402
-1239.0984 -541.90771 1968.3138 1383708
-1224.6069 -540.67639 1963.8416 1252122
-1216.5472 -542.28839 1969.6967 857621
-1206.6261 -543.09393 1972.6224 988183
-1197.4219 -544.24109 1976.7892 856597
-1186.6552 -544.69379 1978.4336 1250842
-1184.5874 -549.18854 1994.7593 922646
-1173.8846 -549.73041 1996.7274 1580319
-1158.9094 -548.26208 1991.3943 1645856
-1155.2919 -552.19208 2005.6687 1777443
-1141.5503 -551.31451 2002.4814 1580317
-1127.7014 -550.36621 1999.037 1712160
-1133.2435 -558.96216 2030.259 593679
-1126.6213 -561.67865 2040.1259 856336
-1125.7028 -567.32867 2060.6479 0
-1117.6989 -569.49298 2068.509 256
-1117.0592 -575.49945 2090.3257 256
-1116.2971 -581.57727 2112.4014 256
-1129.3152 -595.05432 2161.3528 256
-1121.4502 -597.71143 2171.0039 0
-1111.7853 -599.45984 2177.3545 0
-1098.5112 -599.28064 2176.7036 0
-1091.4631 -602.53412 2188.5208 0
-1086.1959 -606.86102 2204.2371 0
-1078.7625 -610.0686 2215.8875 0
-1090.0035 -624.04694 2266.6597 0
-1085.4196 -629.20178 2285.3831 0
-1086.0763 -637.56384 2315.7556 0
-1080.4719 -642.41785 2333.3862 0
-1076.3671 -648.30139 2354.7563 0
-1060.9929 -647.46289 2351.7109 0
-1042.403 -644.61346 2341.3611 0
-1027.6628 -644.09979 2339.4954 0
-1016.5323 -645.86542 2345.9084 0
-1007.8026 -649.22675 2358.1174 0
-997.73456 -651.80859 2367.4954 0
-984.30322 -652.23578 2369.0469 131072
-1013.7868 -681.52515 2475.4316 394752
-1145.7325 -781.573 2838.825 526336
-1112.0115 -769.91174 2796.469 461312
0 0 0 0
-1277.8082 -911.97375 3312.4656 263680
-1325.1821 -960.58978 3489.0483 1184523
-1318.6702 -971.07031 3527.1157 1250315
-1310.5171 -980.6615 3561.9529 329217
-1315.7899 -1000.7795 3635.0254 921866
-1278.3157 -988.51337 3590.4724 1448209
-1208.0729 -950.06049 3450.8042 1448210
-1180.6989 -944.57452 3430.8782 1579541
-1124.9359 -915.78497 3326.3088 1711381
-1094.0625 -906.58972 3292.9097 1842968
-1066.9037 -900.19336 3269.677 1842713
-1035.865 -890.2254 3233.4712 2039835
-1012.2402 -886.37225 3219.4761 2237471
-991.63165 -885.06274 3214.7197 2106141
-976.09052 -888.31354 3226.5271 2171678
-963.53314 -894.46442 3248.8684 2171678
-950.74988 -900.65314 3271.3469 2172704
-931.7951 -901.13184 3273.0857 2040862
-911.77789 -900.58148 3271.0869 2041118
-889.82294 -898.0517 3261.8979 2369827
-889.91815 -918.159 3334.9316 2304034
-880.8252 -929.48682 3376.0767 2304034
-865.59662 -934.71759 3395.0754 2304034
-839.83997 -928.55786 3372.7021 2369827
-846.21039 -958.48639 3481.4084 2238241
-801.89423 -931.06464 3381.8074 2369827
-817.1618 -973.19318 3534.8264 2369830
-800.38623 -978.37695 3553.6548 2633001
-783.38806 -983.56232 3572.4893 2764587
-700.84497 -904.45007 3285.1382 2830380
-746.08447 -990.43469 3597.4509 2830380
-724.4007 -990.03119 3595.9856 2633001
-696.01086 -980.15955 3560.1296 2830378
-658.88971 -956.98688 3475.9622 2632999
-644.52814 -966.44061 3510.2998 2764585
-624.37097 -967.54602 3514.3149 2698793
-602.77319 -966.41815 3510.2183 2698793
-585.10284 -971.73212 3529.5195 2764585
-566.21375 -975.34204 3542.6316 2698792
-546.54272 -977.83191 3551.675 2632999
-528.55023 -983.64569 3572.792 1382162
-513.12854 -994.93103 3613.7827 2698277
-491.31857 -994.2749 3611.3994 2764070
-463.93195 -981.75769 3565.9343 2500897
-442.6395 -981.55542 3565.1997 2698018
-415.39612 -967.47278 3514.0491 2764068
-389.76285 -955.84729 3471.823 2632482
-366.80331 -949.84534 3450.0225 2698275
-342.87296 -940.4693 3415.967 2698275
-322.44415 -940.12183 3414.7051 2632483
-294.5477 -916.49194 3328.8765 2829861
-275.63867 -919.43652 3339.572 2764068
-254.27608 -914.01886 3319.8938 2632482
-234.13095 -912.43384 3314.137 2303517
-214.44609 -912.51605 3314.4353 2500896
-196.33745 -920.00092 3341.6218 2632482
-178.47037 -930.4303 3379.5034 2566689
-160.06738 -940.35773 3415.5615 2632482
-140.65543 -946.38123 3437.4404 2763811
-121.15324 -953.74249 3464.178 2829604
-102.3875 -971.10419 3527.239 2698275
-81.903557 -976.91602 3548.3486 2632482
-61.059574 -980.97601 3563.0952 2501151
-40.189117 -988.69861 3591.1453 2171929
-18.156517 -952.93274 3461.2366 2566687
2.4042573 -945.85388 3435.5249 1250828
22.164146 -918.26099 3335.3022 1316624
0 0 0 0
56.83326 -844.13171 3066.05 5066826
76.412827 -859.31763 3121.2085 2764070
94.767662 -857.48724 3114.5601 4474688
112.98949 -855.24841 3106.428 4212029
130.51552 -849.112 3084.1394 4146748
151.43336 -863.83557 3137.6184 4080698
168.96864 -858.15033 3116.9685 4080954
185.24376 -847.82135 3079.4517 4080443
202.40469 -843.04004 3062.0852 4080700
219.08495 -837.211 3040.9128 4080701
236.89995 -836.27649 3037.5186 3751479
251.4673 -824.82196 2995.9133 4145724
263.61014 -807.45636 2932.8381 4276796
0 0 0 0
296.75623 -802.78107 2915.8567 0
313.4603 -801.16541 2909.9883 0
330.23413 -799.88776 2905.3474 0
345.70331 -795.73407 2890.2605 0
361.68997 -793.1084 2880.7236 0
377.98907 -791.37445 2874.4255 0
394.41763 -790.04968 2869.6138 0
410.57028 -788.30505 2863.2771 0
427.00836 -787.22571 2859.3564 0
443.46408 -786.26013 2855.8494 0
459.59787 -784.8161 2850.6042 0
475.44186 -782.9975 2843.999 0
491.64865 -781.8808 2839.9426 65536
507.86392 -780.85126 2836.2034 0
524.25653 -780.15186 2833.6628 0
540.84082 -779.77228 2832.2842 0
556.37189 -777.94299 2825.6399 0
569.35004 -772.75592 2806.7996 0
590.59106 -778.75989 2828.6069 256
607.88898 -779.37579 2830.8442 0
625.59668 -780.46991 2834.8181 3356728
672.88879 -817.44653 2969.1245 3817020
696.82306 -824.88226 2996.1323 3751738
723.3938 -834.99054 3032.8477 4014654
750.75146 -845.49323 3070.9956 3948861
777.91089 -855.27936 3106.5405 3948603
807.58234 -867.30933 3150.2358 3948860
833.02136 -874.35144 3175.8142 3883067
857.42761 -880.02148 3196.4089 3751482
882.94672 -886.56305 3220.1692 3554103
900.66351 -885.159 3215.0693 3422517
914.58661 -880.16223 3196.9202 3422517
920.3031 -867.6322 3151.4084 3685689
963.71796 -890.43378 3234.228 3750712
973.14691 -881.55603 3201.9824 3750712
986.04749 -876.10333 3182.1775 3553076
1012.0497 -882.27789 3204.6045 3487797
1010.9378 -865.02344 3141.9331 2566436
1038.8707 -872.797 3170.168 3619124
1060.3295 -874.95111 3177.9922 3619124
1086.1735 -880.58502 3198.4556 3421745
1092.2675 -870.28876 3161.0576 3224364
1131.7211 -886.47125 3219.8357 1974552
1142.4934 -880.02325 3196.4153 2237724
1152.3398 -873.08472 3171.2131 2106138
1173.1058 -874.50964 3176.3887 2106138
1195.9409 -877.40753 3186.9146 2040345
1212.0088 -875.32764 3179.3599 2106140
1230.9116 -875.32751 3179.3596 2303519
1236.2545 -865.83063 3144.8647 2369312
1227.863 -847.14099 3076.9802 2171932
1255.699 -853.6275 3100.5408 2237726
1226.7465 -821.87988 2985.2273 2369311
1285.8108 -849.16522 3084.333 2369312
1267.7695 -825.47778 2998.2957 2369312
1262.9277 -810.92267 2945.4285 2764070
1264.4207 -800.77753 2908.5793 2566692
1250.5699 -781.31989 2837.9053 2764070
1228.3593 -757.22668 2750.3943 2632484
1235.9929 -751.92267 2731.1289 2698277
1215.1112 -729.63348 2650.1704 2961448
1190.134 -705.48737 2562.467 3093035
1181.2079 -691.34607 2511.103 2895400
1185.9158 -685.43799 2489.6438 2896172
1177.8153 -672.36389 2442.1562 3159346
1201.8232 -677.71429 2461.5898 3423033
1171.0361 -652.40851 2369.6743 5462875
1180.917 -650.09192 2361.26 6054775
1162.0017 -632.16394 2296.1421 11323337
1184.1871 -636.75262 2312.8091 5330528
1210.813 -643.59619 2337.6663 5923434
1216.7672 -639.42133 2322.5024 790808
1232.3235 -640.32959 2325.8013 856088
1243.5618 -638.99884 2320.9678 65798
1234.9916 -627.63055 2279.676 5
1241.6085 -624.14349 2267.0103 7
1242.4851 -617.87665 2244.2478 7
1265.9448 -622.854 2262.3267 6
1239.7539 -603.55518 2192.2295 6
1220.6831 -588.08807 2136.05 7
1227.9399 -585.4928 2126.6235 7
1237.2678 -583.9278 2120.9392 10
1245.1135 -581.70197 2112.8545 268
1211.7922 -560.47992 2035.772 264204
1220.674 -559.00452 2030.4128 5927803
1233.7988 -559.48199 2032.1473 8171708
1222.118 -548.81091 1993.3878 12374739
1230.2977 -547.1778 1987.4559 13160917
1240.4685 -546.45288 1984.8229 13423060
1242.6772 -542.26721 1969.6198 13422803
1250.7383 -540.68964 1963.8895 13422803
1253.6572 -536.93884 1950.2661 13290962
1254.2439 -532.26709 1933.2974 12632779
1242.111 -522.33136 1897.2089 5722470
0 0 0 0
1219.7798 -503.79062 1829.8652 5394776
1246.338 -510.20895 1853.178 5198162
1247.7405 -506.30716 1839.0059 5132115
1242.1858 -499.67459 1814.915 5527126
1249.4847 -498.2822 1809.8575 5395282
1226.9645 -485.12347 1762.0625 5395024
1233.4679 -483.56592 1756.4053 5592403
1254.0472 -487.5065 1770.7183 5526865
1244.3744 -479.7189 1742.4323 5526350
1211.6558 -463.24899 1682.6102 5921364
1199.3864 -454.80301 1651.9327 5131334
1219.0061 -458.48825 1665.3184 5066053
1230.2067 -458.97308 1667.0792 5460810
1241.1251 -459.34564 1668.4326 5263430
1256.7267 -461.43192 1676.0103 5395016
1267.5101 -461.73016 1677.0935 5592138
1270.255 -459.11832 1667.6068 4012593
1272.9973 -456.54602 1658.2637 5526085
1285.7574 -457.57834 1662.0134 5591622
1291.189 -456.00674 1656.3051 5854023
1296.5737 -454.44263 1650.6238 5590849
1297.1715 -451.23669 1638.9792 5722432
1300.9181 -449.1658 1631.4574 5722433
1303.906 -446.86554 1623.1023 5985347
1308.0359 -444.98761 1616.2812 5853503
1310.2092 -442.47623 1607.1595 5919553
1315.2838 -440.97397 1601.703 6051139
1314.6501 -437.59326 1589.4236 5656381
1312.486 -433.75497 1575.4823 5590588
1314.8286 -431.44998 1567.1101 5985345
1321.057 -430.44357 1563.4546 5853246
1325.0876 -428.74005 1557.2671 5919295
1317.3676 -423.28458 1537.4518 5919295
1324.6659 -422.69662 1535.3162 5919295
1336.4426 -423.53601 1538.365 5787709
1332.1619 -419.30969 1523.0142 6115648
1358.9344 -424.84875 1543.1332 6049856
1365.8578 -424.14966 1540.5939 6115648
1372.0844 -423.24493 1537.3076 6181442
1390.9288 -426.2186 1548.1086 6049600
1389.7708 -423.06418 1536.6512 5984833
1401.327 -423.79608 1539.3096 6050625
1408.0432 -423.06418 1536.6512 5919040
1426.6075 -425.87872 1546.8743 5854017
1448.495 -429.64297 1560.5466 5722174
1458.7416 -429.92834 1561.5833 5722174
1469.7028 -430.4194 1563.3668 5919297
1473.4613 -428.8082 1557.5145 5722174
1480.0969 -428.04916 1554.7576 6116931
1591.936 -457.53595 1661.8593 5787967
1498.2856 -427.96378 1554.4475 5854016
1499.4489 -425.67035 1546.1173 5788223
0 0 0 0
0 0 0 0
0 0 0 0
0 0 0 0
0 0 0 0
0 0 0 0
0 0 0 0
0 0 0 0
0 0 0 0
0 0 0 0
0 0 0 0
0 0 0 0
0 0 0 0
-1867.171 -592.06183 2197.9487 3487273
-1821.4666 -581.64026 2159.2598 3487270
-1792.0541 -576.30994 2139.4719 3552549
-1774.0629 -574.60272 2133.134 3421477
-1729.85 -564.31683 2094.949 3487271
-1706.1183 -560.61157 2081.1938 3553065
-1579.8309 -522.90735 1941.2222 3421478
-1639.1097 -546.52069 2028.8833 3158305
-1575.8334 -529.31812 1965.0211 2895646
-1560.1086 -527.95038 1959.9436 3093025
-1507.6805 -514.04797 1908.3328 3224610
-1549.0414 -532.15479 1975.5518 3093025
-1555.3297 -538.39746 1998.7268 2961439
-1538.2159 -536.57294 1991.9537 3026978
-1487.8433 -523.0285 1941.6718 3026978
-1537.0579 -544.55432 2021.5835 2829599
-1553.4712 -554.70697 2059.2737 2763806
-1553.7375 -559.20935 2075.9883 2500634
-1526.9558 -553.97095 2056.5415 2105876
-1503.6925 -549.93481 2041.5577 1842705
-1504.415 -554.67645 2059.1606 1513998
-1470.8098 -546.7356 2029.6812 329217
-1440.2987 -539.82294 2004.0187 256
-1427.3678 -539.4389 2002.5933 0
-1412.3475 -538.25226 1998.1877 256
-1392.9973 -535.38123 1987.5295 263430
-1380.3824 -535.07184 1986.3811 724752
-1365.9658 -534.05273 1982.5979 461324
-1349.3641 -532.15424 1975.5498 395789
-1333.9116 -530.6795 1970.075 329740
-1316.2544 -528.2937 1961.2181 790546
-1311.2826 -531.00226 1971.2733 1053719
-1303.7009 -532.69324 1977.5509 922390
-1291.6049 -532.55365 1977.0326 725011
-1280.8392 -532.96515 1978.5602 330508
-1269.2698 -533.04663 1978.8627 396042
-1250.6782 -530.15308 1968.1207 593680
-1236.4403 -529.06769 1964.0916 922644
-1224.3021 -528.86865 1963.3525 1382941
-1213.1017 -529.07483 1964.1179 1711906
-1206.5609 -531.33698 1972.5159 988183
-1199.088 -533.229 1979.5397 988183
-1186.5341 -532.87665 1978.2317 395791
-1180.7195 -535.57428 1988.2461 1316892
-1176.2234 -538.93042 2000.7056 1382684
-1168.6539 -540.93262 2008.1384 1580575
-1156.9371 -541.03674 2008.5249 1843747
-1141.5399 -539.40393 2002.4634 1317402
-1127.5237 -538.39606 1998.7219 1712416
-1123.7581 -542.31366 2013.2654 1317402
-1120.4871 -546.55688 2029.0177 1119508
-1122.5886 -553.54156 2054.9473 0
-1118.317 -557.50281 2069.6531 256
-1118.2797 -563.68658 2092.6094 256
-1133.9629 -578.02289 2145.8308 256
-1125.9028 -580.44482 2154.822 256
-1121.0574 -584.59888 2170.2434 0
-1110.8293 -586.01013 2175.4824 0
-1104.7511 -589.66962 2189.0679 0
-1095.1704 -591.5246 2195.9541 0
-1089.2052 -595.40076 2210.344 0
-1077.4009 -596.14069 2213.0908 0
-1088.101 -609.50482 2262.7034 0
-1085.4648 -615.63977 2285.4785 0
-1082.075 -621.49725 2307.2236 0
-1085.5909 -631.52264 2344.4414 0
-1074.9539 -633.46832 2351.6646 0
-1054.3812 -629.5332 2337.0559 0
-1042.1416 -630.53467 2340.7739 0
-1030.5623 -631.96826 2346.0957 0
-1020.8984 -634.6319 2355.9841 0
-1005.1852 -633.55688 2351.9932 0
-985.65979 -630.01471 2338.8435 256
-975.42023 -632.39148 2347.667 0
-1087.0629 -715.00403 2654.3547 658178
-1140.0691 -760.91486 2824.7925 526848
0 0 0 0
0 0 0 0
-1319.7683 -921.57977 3421.239 395264
-1317.1805 -934.17065 3467.981 789510
-1337.9296 -963.97607 3578.6296 1381647
-1324.2737 -969.55579 3599.3433 461059
-1266.2517 -942.30273 3498.1702 1645588
-1254.27 -948.97339 3522.9338 1382417
-1203.3402 -925.90228 3437.2854 1382418
-1169.3638 -915.30396 3397.9407 1579541
-1131.3601 -901.12531 3345.3044 1776920
-1099.8694 -891.71954 3310.387 1579541
-1062.066 -876.75995 3254.8513 1776920
-1027.9954 -864.38354 3208.9058 1974299
-1007.7029 -863.34357 3205.0449 1842713
-988.71533 -863.40289 3205.2654 1909276
-974.28912 -867.52625 3220.5725 2040606
-949.66473 -862.55206 3202.1067 2106912
-936.26385 -867.77698 3221.5034 2238240
-910.57855 -861.5965 3198.5591 2106655
-904.96991 -874.55414 3246.6628 2106655
-892.19128 -880.99664 3270.5798 2435620
-891.07709 -899.50098 3339.2744 2369827
-870.58789 -898.84485 3336.8386 2435620
-858.51007 -907.04492 3367.2803 2369827
-857.91107 -928.05396 3445.2734 2238241
-835.45758 -925.87122 3437.1704 2435620
-801.29291 -910.2749 3379.2712 2566694
-787.04706 -917.08636 3404.5579 2631975
-784.1095 -937.78198 3481.3875 2829610
-764.38025 -938.97272 3485.8076 2632231
-746.85388 -943.01123 3500.8003 2633001
-725.19293 -941.91113 3496.7166 2567208
-713.32037 -953.83496 3540.9819 2567208
