# .PCD v0.7 - Point Cloud Data file format
VERSION 0.7
FIELDS x y z rgb
SIZE 4 4 4 4
TYPE F F F U
COUNT 1 1 1 1
WIDTH 1434
HEIGHT 1
VIEWPOINT 0 0 0 1 0 0 0
POINTS 1434
DATA ascii
36.880527 328.64706 1506.4462 655360
45.771488 328.17667 1504.29 589824
54.636978 327.70728 1502.1384 589824
63.524624 327.48398 1501.1149 458752
72.438141 327.43262 1500.8795 393216
81.308914 327.22055 1499.9073 327680
90.338348 327.62579 1501.765 919552
99.511353 328.43198 1505.4603 788992
108.68358 329.10278 1508.535 460288
117.85764 329.67639 1511.1644 855301
127.43846 331.22595 1518.2673 1579022
0 0 0 0
0 0 0 0
0 0 0 0
0 0 0 0
350.68158 673.07764 3085.2407 1776657
366.26425 668.04248 3062.1606 1579534
382.26605 664.21246 3044.6045 1513740
399.79929 663.26941 3040.2817 1513739
413.0321 655.58203 3005.0447 1579533
435.52505 662.62103 3037.3096 1447947
456.55423 666.961 3057.2031 1382154
478.06 671.63812 3078.6423 1513740
492.91113 666.96594 3057.2261 1579533
508.39923 663.4574 3041.1433 1316362
528.07812 665.47083 3050.3728 1447948
545.53845 664.64764 3046.5994 1250570
562.88434 663.74249 3042.4502 1513743
586.33606 669.86938 3070.5344 1382157
600.17786 664.9787 3048.1169 1710867
621.90649 668.85699 3065.894 1381902
642.3277 671.14832 3076.397 1579282
664.33698 674.92621 3093.7139 1381903
698.01648 690.03729 3162.98 1579280
699.78772 673.63953 3087.8162 1381903
726.00891 681.01483 3121.623 1250317
734.14386 671.48004 3077.9175 1316108
758.33429 676.73688 3102.0137 987144
781.53259 680.8797 3121.0037 855560
791.6062 673.66125 3087.9158 526596
812.39435 675.68152 3097.176 592390
844.80756 687.06653 3149.3625 526339
860.17377 684.39453 3137.1147 460803
874.07611 680.69586 3120.1609 395266
909.55261 693.60297 3179.324 591876
925.40265 691.32245 3168.8708 789512
942.75031 690.22949 3163.8608 197377
976.06592 700.64142 3211.5869 592390
997.90076 702.57068 3220.4304 658183
1020.9975 705.29919 3232.937 329219
1042.2112 706.65002 3239.1292 395011
1063.6313 708.08929 3245.7263 723975
1075.8733 703.47589 3224.5796 1052939
1086.5114 697.99377 3199.4507 1250318
1096.6157 692.36328 3173.6418 394755
1106.2932 686.65839 3147.4917 855561
1106.5569 675.39734 3095.8738 723974
1106.465 664.29138 3044.9663 658181
1095.8118 647.30438 2967.1016 789767
1113.427 647.28955 2967.0334 921353
1122.1096 642.16309 2943.5352 855558
1125.1638 634.02252 2906.2205 723972
1122.1528 622.76221 2854.6057 855813
1119.6912 612.13776 2805.9055 1513742
1125.0245 606.02423 2777.8826 1645328
1131.2086 600.53925 2752.7405 1513742
1135.4161 594.17633 2723.5745 1447948
1129.3864 582.71045 2671.0171 1184777
1140.2682 580.16718 2659.3591 987655
1139.9409 572.06818 2622.2354 789765
1142.6666 565.69922 2593.0415 2106135
1143.6471 558.64734 2560.717 2961187
1148.1409 553.4743 2537.0051 3026979
1159.7461 551.81921 2529.4185 2434842
1168.9487 549.07794 2516.8533 2434843
1174.7626 544.83429 2497.4011 1513742
1175.741 538.48199 2468.2834 1711121
1181.5853 534.48737 2449.9731 1447694
1179.8168 527.18829 2416.5159 1513489
1183.3501 522.40546 2394.5923 1513488
1190.8862 519.48242 2381.1938 1645074
1192.0818 513.89471 2355.5811 1579281
1186.5879 505.58655 2317.498 1447695
1190.7166 501.52203 2298.8672 1513488
1192.375 496.52112 2275.9441 1645074
1199.4229 493.85144 2263.707 1513488
1193.5331 485.97327 2227.595 1710867
1199.8469 483.18234 2214.8022 1579283
1204.2123 479.67599 2198.7297 1842455
1201.9698 473.64105 2171.0669 1513490
1203.6455 469.2619 2150.9939 1974041
1207.8203 465.93893 2135.762 1908248
1205.873 460.34799 2110.1343 1776659
1201.7169 454.03754 2081.2087 1645074
1210.5026 452.69565 2075.0579 1842453
1197.9121 443.46741 2032.7576 2039831
1192.6041 437.09259 2003.5367 1908246
1202.4451 436.34103 2000.0919 1776659
1199.3788 430.96631 1975.4553 1842194
1200.2506 427.0972 1957.72 1907988
1198.6661 422.43671 1936.3574 2039574
1211.3995 422.86288 1938.3108 2105367
1206.3771 417.14136 1912.0846 2171160
1214.0388 415.87167 1906.2646 1973781
1215.0287 412.36115 1890.1732 1907987
1215.5367 408.75296 1873.634 1907988
1222.2758 407.28656 1866.9124 2170903
1223.5051 404.02713 1851.9719 1907732
1217.2383 398.37253 1826.0526 1183755
1222.2451 396.47495 1817.3544 657669
1228.828 395.11734 1811.1313 657667
1226.4388 390.92352 1791.9078 525824
1233.0366 389.64182 1786.0328 525825
1237.8246 387.81497 1777.6589 328449
1239.0446 384.91068 1764.3462 1380874
1238.1604 381.40695 1748.286 2104337
1246.3314 380.72775 1745.1727 2761240
1247.325 377.88528 1732.1434 1972493
1240.58 372.76413 1708.6692 3353889
1247.4452 371.78253 1704.1697 2696473
1232.5178 364.37408 1670.2111 2762266
1219.8906 357.75864 1639.8873 2564888
1223.8319 356.06863 1632.1407 2893853
1217.4642 351.42947 1610.8759 2762267
1226.7572 351.34799 1610.5023 2762267
1236.7765 351.47415 1611.0807 2630682
1258.4192 354.87628 1626.6752 1906957
1262.047 353.18494 1618.9225 2893852
1271.9342 353.25769 1619.256 2959643
1274.5605 351.32791 1610.4103 3024921
1275.856 349.06277 1600.0273 3222044
1304.8812 354.36166 1624.3163 3156509
1286.2653 346.73999 1589.3802 3222301
1285.1206 343.90491 1576.3848 3222301
1316.4358 349.73441 1603.106 3157021
1282.8214 338.3544 1550.9425 3157278
1274.9496 333.87817 1530.4244 2959897
1265.5142 329.05878 1508.3335 3288605
1267.6154 327.28592 1500.207 3026459
1263.5251 323.95041 1484.9178 3354658
1268.0627 322.85788 1479.9099 3157278
1277.8512 323.10812 1481.057 3223071
1265.027 317.67639 1456.1591 3091485
1266.4233 315.86533 1447.8575 3091484
1268.3221 314.20322 1440.2388 3157278
1278.5022 314.60114 1442.0627 2959642
1276.834 312.09769 1430.5874 3420448
1285.3314 312.09573 1430.5785 3025690
1291.618 311.56046 1428.125 3090713
1299.1218 311.32391 1427.0408 3419421
1309.3292 311.7341 1428.9209 3485471
1315.3033 311.13763 1426.1869 3419421
1325.7225 311.59357 1428.2767 3419421
1332.5081 311.1951 1426.4502 3222299
1339.0697 310.74969 1424.4086 3222299
1346.0603 310.40881 1422.8461 3156507
1351.9811 309.827 1420.1792 3551265
1356.6572 308.96896 1416.2461 3091227
1360.8275 308.00702 1411.8368 3288606
1366.1182 307.30893 1408.6368 3288607
0 0 0 0
0 0 0 0
0 0 0 0
0 0 0 0
0 0 0 0
0 0 0 0
0 0 0 0
0 0 0 0
0 0 0 0
0 0 0 0
0 0 0 0
0 0 0 0
-1626.7699 426.17126 1901.6504 1842445
-1603.7833 423.08994 1887.9009 1579529
-1602.6907 425.78162 1899.9116 1579273
-1582.7837 423.47769 1889.6311 1316101
-1572.2755 423.67346 1890.5048 1710859
-1558.0557 422.86475 1886.8961 1513480
-1558.1072 425.94568 1900.6438 1710859
-1544.4056 425.28442 1897.6931 1184516
-1588.687 440.69778 1966.4702 1381894
-1574.7914 440.08182 1963.7218 1250310
-1549.1744 436.15668 1946.2072 1513226
-1565.4222 444.04779 1981.4187 1447176
-1529.4512 437.13394 1950.5677 1315590
-1542.1639 444.13504 1981.8077 1316103
-1531.9092 444.57852 1983.7867 1250055
-1530.62 447.65094 1997.4965 1315848
-1511.89 445.63074 1988.4821 1250055
-1516.9801 450.65506 2010.9012 1184262
-1523.2067 456.09949 2035.1953 592641
-1499.8539 452.70309 2020.04 790273
-1494.7877 454.81592 2029.4678 461056
-1481.8682 454.55414 2028.2998 658176
-1469.0179 454.30954 2027.2083 329216
-1453.7908 453.3197 2022.7915 131840
-1441.0023 453.08011 2021.7224 132096
-1428.4933 452.92511 2021.0308 66048
-1417.4794 453.24551 2022.4604 66048
-1406.8132 453.68359 2024.4153 66048
-1394.7125 453.66263 2024.3217 65792
-1381.4814 453.27039 2022.5713 65792
-1368.5381 452.96646 2021.2152 512
-1354.808 452.39444 2018.6628 256
-1339.8606 451.40213 2014.235 256
-1327.3445 451.21844 2013.4152 256
-1315.0293 451.10028 2012.8879 256
-1298.8812 449.65305 2006.4302 256
-1287.8236 449.95761 2007.7892 256
-1273.7235 449.19482 2004.3856 0
-1260.5063 448.73203 2002.3204 0
-1247.5626 448.35864 2000.6544 0
-1234.0759 447.78107 1998.077 256
-1220.7743 447.26004 1995.7522 263683
-1205.0239 445.82285 1989.3391 329476
-1192.369 445.51373 1987.9598 263684
-1181.0164 445.68988 1988.7458 263429
-1169.4312 445.78094 1989.1522 66049
-1161.2172 447.17206 1995.3596 256
-1149.2405 447.12799 1995.163 256
-1138.3638 447.51547 1996.892 256
-1125.649 447.18085 1995.3988 256
-1114.8711 447.61676 1997.344 256
-1103.2019 447.70032 1997.7169 256
-1091.2089 447.65295 1997.5054 256
-1079.5878 447.75873 1997.9773 256
-1066.9574 447.4436 1996.5713 256
-1055.1541 447.47214 1996.6985 256
-1044.3647 447.93619 1998.7694 0
-1033.9794 448.5863 2001.6702 131843
-1020.3953 447.84753 1998.3737 263686
-1008.7287 447.94287 1998.7991 526857
-1004.6064 451.43066 2014.3622 256
-999.15356 454.39743 2027.6005 526857
-995.05872 458.0618 2043.9514 197892
-983.67676 458.42084 2045.5536 197892
-972.86804 459.0593 2048.4026 256
-960.76971 459.09772 2048.574 256
-948.4621 459.03583 2048.2979 0
-936.15479 458.97253 2048.0154 0
-922.58411 458.28 2044.9252 0
-909.7959 457.9628 2043.5098 0
-895.96063 457.10284 2039.6725 0
-881.37775 455.83264 2034.0046 0
-870.12549 456.27365 2035.9724 0
-857.67566 456.09018 2035.1537 0
-849.31909 458.10931 2044.1635 0
-835.19739 457.03229 2039.3578 0
-823.5824 457.31549 2040.6213 0
-811.66528 457.43692 2041.1631 0
-792.74164 453.55328 2023.8339 0
-778.60535 452.33121 2018.3807 0
-763.98987 450.78812 2011.4951 0
-750.90881 450.11572 2008.4948 0
-719.79681 438.43872 1956.3899 0
-702.50244 434.93283 1940.7461 0
-715.29559 450.24872 2009.0883 0
-715.76239 458.19412 2044.542 256
-676.11401 440.29074 1964.6539 256
-689.64288 456.99612 2039.1963 65536
-656.11053 442.55594 1974.7617 0
0 0 0 0
-617.20581 431.76688 1926.619 262144
-603.08386 429.86569 1918.1356 196608
-524.60278 381.13321 1700.6827 196608
-485.7056 359.80884 1605.5297 196608
0 0 0 0
0 0 0 0
-452.08853 355.88849 1588.0364 256
-459.53934 369.47003 1648.6396 256
-449.4808 369.25928 1647.6992 256
-436.19696 366.33038 1634.63 256
0 0 0 0
-413.90115 363.81784 1623.4186 256
-405.43347 364.88376 1628.1748 66304
-404.13977 372.61618 1662.6783 512
-392.39746 370.86121 1654.8473 256
-386.16977 374.362 1670.4685 256
-376.83466 374.95566 1673.1176 256
-365.64371 373.68491 1667.4471 256
-357.72629 375.78204 1676.8049 0
-347.54654 375.55481 1675.7909 65536
-337.05927 374.97198 1673.1903 131072
-328.12134 376.12982 1678.3567 262144
-320.77203 379.23843 1692.2279 393216
-308.41592 376.43726 1679.7286 458752
-301.1861 379.91495 1695.2466 458752
-288.75244 376.84204 1681.5348 393216
-277.48553 375.12604 1673.8777 327680
-266.39645 373.53174 1666.7637 196608
-259.22723 377.52286 1684.5728 131072
-248.35358 376.22302 1678.7727 131328
-236.79803 373.73816 1667.6848 196864
-225.49451 371.4512 1657.48 196608
-214.03891 368.69333 1645.1738 327680
-206.20822 372.21442 1660.8855 458752
-194.13033 368.03766 1642.2482 524288
-183.55562 366.41925 1635.0266 524288
-173.42805 365.56238 1631.203 393216
-162.54591 362.91919 1619.4087 393216
-154.39589 366.42734 1635.0626 458752
-144.19328 365.20819 1629.6226 458752
-133.91705 363.61356 1622.507 458752
-122.65759 358.89432 1601.449 458752
-112.94691 358.29391 1598.7699 393216
-104.13248 360.68753 1609.4506 393216
-93.47261 356.52664 1590.884 458752
-83.297447 353.48578 1577.3151 458752
-72.887497 348.55054 1555.2932 458752
-63.306076 346.71893 1547.1202 458752
-54.260777 347.69995 1551.4978 524288
-45.180737 348.8147 1556.4719 524288
-35.730675 346.9111 1547.9777 655360
-26.388193 345.09354 1539.8674 655360
-17.234056 345.11633 1539.9692 720896
-8.0604429 344.35873 1536.5886 720896
1.0806997 346.07541 1544.2487 720896
10.220668 344.68069 1538.0253 720896
19.246145 342.56531 1528.5861 720896
28.48634 344.40289 1536.7858 720896
37.553619 343.76511 1533.9398 720896
46.41312 341.84619 1525.3773 720896
55.187622 340.03091 1517.2772 655360
64.104797 339.48132 1514.8247 655360
72.957161 338.76611 1511.6334 524288
81.751297 337.9671 1508.0681 524288
90.523026 337.24255 1504.835 1511424
99.697403 338.01349 1508.275 1314560
108.74802 338.27222 1509.4296 1511684
117.86873 338.69287 1511.3066 1380872
128.59677 343.34543 1532.0671 1842452
0 0 0 0
0 0 0 0
0 0 0 0
0 0 0 0
0 0 0 0
355.73547 666.52136 2974.1343 1315852
380.22437 678.66992 3028.3433 1447181
398.35272 678.88007 3029.2812 1052424
409.67233 667.97046 2980.6006 1184266
434.05392 678.38 3027.0498 921352
443.27029 665.2027 2968.2502 460801
469.15057 677.08405 3021.2668 592131
488.8396 679.48334 3031.9729 328960
494.68753 663.1571 2959.1226 65792
524.55872 679.0509 3030.0432 197376
540.5282 676.49072 3018.6194 262912
560.8786 679.40179 3031.6091 262912
583.61285 684.9292 3056.2734 263169
584.41937 665.16553 2968.0845 328705
625.75989 691.34253 3084.8909 460034
613.41718 658.40808 2937.9314 657668
668.88904 698.0705 3114.9121 657669
686.24731 696.89105 3109.6492 789254
674.36926 666.86267 2975.6572 1118472
681.01361 656.21747 2928.1567 1316109
702.21191 659.77747 2944.042 1381900
717.91345 658.12531 2936.6697 1316107
744.72314 666.49286 2974.0073 1382156
805.35956 704.04358 3141.5649 855814
807.83002 690.19598 3079.7747 1184523
820.685 685.638 3059.436 1316109
839.87073 686.4519 3063.0679 1645074
875.34613 700.26276 3124.6943 1316110
902.9989 707.3717 3156.4158 1447696
923.16797 708.44812 3161.2188 1381904
945.82477 711.35248 3174.1787 1184525
979.51868 722.28186 3222.9475 1250318
998.6806 722.28186 3222.9475 1513491
1022.2264 725.3927 3236.8284 1579283
1045.2179 728.00244 3248.4736 1316111
1057.6742 723.31274 3227.5476 1118733
1072.1498 720.14661 3213.4197 921354
1095.7466 723.1106 3226.6455 395010
1086.7341 704.82324 3145.0442 921353
1103.4972 703.58899 3139.5366 723974
1108.5725 695.06769 3101.5129 460804
1110.4359 684.8443 3055.8945 789766
1114.8048 676.47034 3018.5286 658181
1113.5447 665.00031 2967.3472 723974
1116.8501 656.5719 2929.7383 986889
1125.0364 651.2276 2905.8911 854791
1125.5728 641.68396 2863.3054 1052679
1128.0596 633.51996 2826.8762 921351
1132.3771 626.60864 2796.0371 1052681
1127.3517 614.80231 2743.355 1711123
1133.0454 609.09497 2717.8877 1842707
1124.5902 596.04889 2659.6741 1579535
1127.6149 589.36487 2629.8486 1645071
1126.1787 580.56403 2590.5779 1512972
1091.0078 554.84448 2475.8127 921093
1141.8663 572.97845 2556.7297 789508
1151.8611 570.40033 2545.2256 1645328
1148.0627 561.14734 2503.9373 2829602
1162.7759 561.06335 2503.5623 2763808
1172.8734 558.78253 2493.385 2829601
1176.6686 553.59357 2470.231 2500636
1181.1306 548.84235 2449.0303 2106135
1182.4532 542.76587 2421.9158 1710866
1183.191 536.57037 2394.2705 1645075
1190.006 533.24536 2379.4336 1776660
1188.2571 526.20612 2348.0232 1513488
1189.9342 520.82983 2324.0334 1776403
1193.1636 516.24866 2303.5913 1776146
1190.2108 509.12695 2271.8132 1645074
1199.5778 507.37582 2263.9993 1842454
1189.5 497.53046 2220.0676 1710869
1197.6007 495.4213 2210.656 1710869
1198.5286 490.42279 2188.3521 1710613
1197.2672 484.64554 2162.5728 1776405
1206.2786 483.1051 2155.6992 1842196
1203.7761 477.03448 2128.6108 1776659
1211.728 475.18979 2120.3796 1842452
1212.9716 470.77954 2100.7002 1907988
1197.1659 459.90945 2052.196 1907988
1194.5344 454.26871 2027.026 1907989
1169.2206 440.20087 1964.2531 1842452
1223.4524 456.06342 2035.0344 1973781
1189.3217 438.99908 1958.8905 1776658
1181.864 432.01578 1927.7296 2302746
1184.4026 428.78555 1913.3158 1842195
1170.4802 419.71408 1872.8374 2171159
1194.1348 424.16113 1892.6809 1842194
1191.3843 419.23349 1870.6929 1842194
1188.3247 414.28925 1848.6307 2039573
1193.9916 412.45007 1840.4242 1710608
1186.2975 406.07083 1811.9589 1907474
1200.5466 407.25006 1817.2207 1973010
1208.2167 406.19632 1812.5187 1775374
1203.5052 401.03543 1789.49 1841424
1220.4603 403.12155 1798.7986 1775888
1220.1547 399.51959 1782.7261 1578252
1225.6276 397.85556 1775.3008 986118
1230.5344 396.03778 1767.1895 591616
1238.719 395.29669 1763.8826 525824
1243.8887 393.61404 1756.3744 1315080
1254.097 393.54053 1756.0464 2696473
1247.7808 388.32559 1732.7764 2564888
1248.4952 385.36618 1719.571 2301716
1244.9156 381.14023 1700.7141 2367509
1237.1222 375.70261 1676.4506 2235923
1230.855 370.81177 1654.6266 2433303
1225.6207 366.30716 1634.5264 2630681
1210.3264 358.89041 1601.4315 2301717
1224.7893 360.34427 1607.9188 2565144
1235.0182 360.53955 1608.7903 2762780
1262.1855 365.63873 1631.5437 1512200
1255.3545 360.88629 1610.3375 2565144
1269.5417 362.20239 1616.2102 3222303
1276.9364 361.57535 1613.4122 3024155
1280.4622 359.87027 1605.8038 3418910
1287.6254 359.20523 1602.8362 3221531
1287.6445 356.57159 1591.0846 3222045
1283.2618 352.76633 1574.1049 3024922
1287.4825 351.36411 1567.8478 3156508
1277.611 346.16376 1544.6429 2762520
1259.2188 338.74548 1511.5414 2828313
1264.7344 337.8183 1507.4042 2894106
1257.1074 333.41843 1487.771 2960156
1263.499 332.77209 1484.8871 3289121
1285.4558 336.20578 1500.2087 3486756
1256.9231 326.47778 1456.8008 3354657
1259.0721 324.79785 1449.3046 3223328
1283.4177 328.82773 1467.2866 3288864
1260.5326 320.78384 1431.3933 3223071
1266.9049 320.24341 1428.9818 3091484
1273.2795 319.71069 1426.6049 3091484
1279.2615 319.08716 1423.8225 3025689
1289.8125 319.60397 1426.1287 3288349
1299.4135 319.88019 1427.3611 3551007
1310.041 320.40384 1429.6978 3551007
1317.7983 320.22333 1428.8922 3814179
1325.6052 320.05707 1428.1504 3485471
1334.2855 320.10248 1428.353 3485728
1341.1222 319.70776 1426.5918 3288349
1348.5201 319.45102 1425.4462 3420191
1353.5804 318.64716 1421.8591 3157275
1365.0953 319.36334 1425.0549 3222299
1361.365 316.52609 1412.3945 3288091
1367.0547 315.90039 1409.6025 3353628
0 0 0 0
0 0 0 0
0 0 0 0
0 0 0 0
0 0 0 0
0 0 0 0
0 0 0 0
0 0 0 0
0 0 0 0
0 0 0 0
0 0 0 0
0 0 0 0
-1629.2972 438.15717 1904.6047 1775625
-1616.9592 437.88251 1903.4109 1710345
-1593.3705 434.53574 1888.863 1841674
-1615.8488 443.79382 1929.1063 1447687
-1579.5726 436.93198 1899.2791 1579273
-1562.6686 435.36844 1892.4825 1447687
-1551.4167 435.36844 1892.4825 1316102
-1544.4056 436.56714 1897.6931 1513481
-1541.6426 438.99319 1908.2388 1447944
-1535.369 440.44812 1914.5632 1513483
-1553.2018 448.89185 1951.2667 1447691
-1542.0852 449.03296 1951.8801 1381641
-1529.3159 448.69138 1950.3953 1118469
-1526.0902 451.16589 1961.1517 1381641
-1517.6666 452.13004 1965.3428 1118469
-1520.4636 456.47787 1984.2422 1184262
-1500.2382 453.92773 1973.1571 1118470
-1502.9181 458.32257 1992.2607 1184006
-1502.15 461.72739 2007.0609 1052934
-1488.5385 461.20728 2004.8002 856067
-1484.3719 463.62881 2015.3263 592640
-1480.2764 466.11218 2026.121 658176
-1458.7966 463.11737 2013.1031 66048
-1446.3333 462.95911 2012.4152 66304
-1432.5939 462.38635 2009.9254 132096
-1423.8083 463.41632 2014.4025 66048
-1415.5629 464.64099 2019.7261 66048
-1401.6459 464.00909 2016.9794 66048
-1391.2114 464.52921 2019.24 65792
-1379.5452 464.6434 2019.7365 65792
-1367.4279 464.60638 2019.5756 256
-1354.5531 464.30908 2018.2832 256
-1339.5657 463.27576 2013.7916 256
-1326.9121 463.0383 2012.7594 256
-1314.3412 462.82559 2011.8347 256
-1300.8524 462.28278 2009.4752 256
-1286.9397 461.57785 2006.411 256
-1273.0538 460.86948 2003.3318 256
-1260.4641 460.62137 2002.2533 0
-1246.7246 459.94434 1999.3104 263683
-1232.2014 458.96243 1995.0421 263683
-1218.0427 458.09848 1991.2867 395269
-1205.1697 457.70581 1989.5798 197890
-1194.5549 458.1716 1991.6045 0
-1182.8223 458.21359 1991.787 0
-1173.0421 459.02045 1995.2943 256
-1162.2465 459.44235 1997.1283 256
-1150.8114 459.61765 1997.8903 256
-1138.4088 459.40613 1996.9708 256
-1125.722 459.07425 1995.5282 256
-1114.4049 459.2998 1996.5087 256
-1102.601 459.32739 1996.6287 256
-1090.1392 459.07861 1995.5471 256
-1078.5452 459.19382 1996.0479 256
-1067.0754 459.36502 1996.7922 256
-1055.3313 459.42062 1997.0338 256
-1044.1201 459.71219 1998.3013 256
-1031.4696 459.36948 1996.8115 197635
-1020.9009 459.95663 1999.3638 0
-1011.1603 460.93515 2003.6173 66050
-1005.5193 463.82812 2016.1926 66049
-994.18817 464.13443 2017.524 461064
-988.84973 467.28009 2031.1978 263942
-984.66376 471.05478 2047.606 132613
-972.32477 470.97491 2047.2587 395271
-958.49762 470.16302 2043.7294 256
-933.18744 463.62524 2015.3108 256
-916.69946 461.35751 2005.4532 0
-903.25287 460.58084 2002.077 0
-886.33423 457.98929 1990.8121 0
-873.21149 457.31564 1987.8838 0
-861.39258 457.31564 1987.8838 0
-851.31366 458.25229 1991.9552 0
-827.55725 451.74902 1963.6865 0
-810.54144 448.79193 1950.8324 0
-815.91534 458.32596 1992.2755 0
-800.5813 456.33722 1983.6309 0
-786.72992 455.14673 1978.4559 0
-775.0672 455.2056 1978.7118 0
-729.64911 435.13577 1891.4712 0
-734.50964 444.89136 1933.8772 0
-715.27991 440.13367 1913.1963 0
-714.93854 447.03265 1943.1852 0
-699.29236 444.43143 1931.8779 0
-679.23682 438.89407 1907.808 0
-667.07855 438.35828 1905.4789 0
-656.85101 439.0946 1908.6796 0
-642.80835 437.26163 1900.7119 65536
-633.2879 438.49423 1906.0699 196608
-618.76025 436.24164 1896.2782 196608
-607.6709 436.37445 1896.8555 262144
0 0 0 0
-571.539 426.24927 1852.8428 262144
0 0 0 0
0 0 0 0
0 0 0 0
0 0 0 0
-509.01804 420.10831 1826.149 262400
-484.49384 408.58282 1776.0494 327680
-469.86444 405.0741 1760.7975 458752
-446.31671 393.54169 1710.6678 458752
-426.84808 385.15213 1674.1996 524288
-417.1734 385.4101 1675.321 524288
-403.56216 381.95496 1660.302 458752
-391.13171 379.47211 1649.5094 524288
-383.32956 381.46735 1658.1825 458752
-378.22491 386.32324 1679.2903 458752
-369.65546 387.80746 1685.7419 458752
-359.32941 387.48019 1684.3193 393216
-351.94122 390.39297 1696.981 393216
-338.06406 386.06741 1678.1782 393216
-329.84808 388.14035 1687.189 393216
-317.4776 385.3013 1674.848 458752
-307.94257 385.83099 1677.1506 458752
-297.17535 384.80066 1672.6718 458752
-289.4313 387.74911 1685.4883 458752
-277.09674 384.53851 1671.5323 458752
-270.58975 389.47714 1692.9999 393216
-256.00305 382.71841 1663.6206 393216
-245.31148 381.47354 1658.2094 393216
-237.9201 385.47131 1675.587 393216
-228.38214 386.18866 1678.7053 458752
-217.15846 383.99081 1669.1516 458752
-204.19377 378.35651 1644.6602 458752
-193.99677 377.54175 1641.1184 458752
-186.85461 382.90057 1664.4125 458752
-176.15944 381.17084 1656.8936 458752
-163.61537 374.99857 1630.0636 458752
-150.90343 367.64008 1598.0773 458752
-140.75626 365.961 1590.7786 458752
-131.02612 365.20239 1587.4811 458752
-121.45039 364.78979 1585.6876 458752
-111.83931 364.19263 1583.0918 458752
-102.29304 363.71616 1581.0206 458752
-92.997894 364.12653 1582.8044 458752
-83.591858 364.14618 1582.8899 458752
-73.974907 363.13556 1578.4968 458752
-64.393829 362.03287 1573.7036 458752
-54.920006 361.2608 1570.3475 524288
-45.546436 360.96695 1569.0702 589824
-36.187931 360.67191 1567.7877 655360
-26.867529 360.68365 1567.8387 655360
-17.520931 360.16934 1565.6031 720896
-8.2130575 360.18753 1565.6821 720896
1.0939256 359.6044 1563.1475 720896
10.327903 357.53732 1554.1621 720896
19.36344 353.79666 1537.902 786432
28.459364 353.20508 1535.3304 720896
37.429871 351.72226 1528.885 720896
46.565929 352.07068 1530.3994 720896
55.408909 350.45151 1523.3611 589824
64.166801 348.82477 1516.2899 655360
72.965576 347.79364 1511.8077 524288
81.787453 347.08676 1508.7351 458752
90.287857 345.29019 1500.9257 1643009
99.600708 346.64438 1506.8121 1446144
108.53799 346.57584 1506.5142 1577733
117.59119 346.85968 1507.7479 1117955
128.01207 350.85184 1525.1013 1052679
0 0 0 0
0 0 0 0
0 0 0 0
0 0 0 0
0 0 0 0
0 0 0 0
0 0 0 0
0 0 0 0
0 0 0 0
427.70761 686.19562 2982.7915 1250826
0 0 0 0
424.20026 628.45306 2731.793 1118984
461.71341 658.80438 2863.7256 855812
491.79007 676.76337 2941.7908 987654
511.50223 679.71576 2954.6243 1118473
527.68329 677.93555 2946.886 986887
538.70319 669.85205 2911.7483 921094
0 0 0 0
563.88483 658.8205 2863.7957 1118219
621.25342 704.57288 3062.6746 1512977
606.22009 667.94568 2903.4614 920840
637.69 683.1662 2969.623 1052426
641.14185 668.35919 2905.259 1249805
661.66492 671.65814 2919.5991 1052938
666.83929 659.6062 2867.2112 1513489
685.81213 661.46375 2875.2854 1250316
714.19214 672.08337 2921.4475 1250315
724.54382 665.63617 2893.4224 1316108
751.08057 674.01227 2929.8323 1052680
801.6095 703.05115 3056.0598 1118729
810.85217 695.39514 3022.7803 526597
838.86993 703.82373 3059.4182 723718
858.85266 705.29608 3065.8184 592388
0 0 0 0
882.29584 695.04535 3021.2598 329218
910.65179 703.06927 3056.1387 131584
0 0 0 0
0 0 0 0
0 0 0 0
0 0 0 0
0 0 0 0
1056.5344 728.48505 3166.6174 0
1078.3816 730.53101 3175.5107 0
1074.6013 715.4444 3109.9314 0
1089.4209 713.04193 3099.4883 256
1080.7056 695.57172 3023.5479 789767
1093.2584 692.13806 3008.6223 789767
1091.8673 680.12915 2956.4214 723971
1110.2194 680.60406 2958.4856 526593
1111.6299 670.84039 2916.0444 723972
1118.7567 664.77325 2889.6714 855558
1118.9939 654.8576 2846.5696 789764
1128.8536 650.78491 2828.8662 855558
1127.6213 640.53113 2784.2944 987143
1138.9875 637.62689 2771.6702 987398
1117.6184 616.74103 2680.8823 1053191
1129.2771 614.41211 2670.759 1645328
1129.609 606.07056 2634.4995 2105879
1126.439 596.10406 2591.1765 1711121
1132.0094 590.96942 2568.8572 1447949
1143.0879 588.80878 2559.4651 1447436
1153.5482 586.39062 2548.9539 1052679
1156.73 580.38324 2522.8406 1184265
1162.5024 575.81281 2502.9736 1381899
1163.6754 569.10858 2473.8313 2500635
1168.5576 564.36304 2453.2031 2763807
1188.0973 566.7262 2463.4753 2829599
1174.8007 553.55951 2406.2417 2237463
1189.842 553.90173 2407.7292 2171927
1190.006 547.39227 2379.4336 1776914
1184.4349 538.42871 2340.4705 1776659
1184.191 532.06689 2312.8167 1579282
1185.1542 526.38727 2288.1279 1645074
1186.5176 521.01227 2264.7637 1579282
1185.2172 514.60126 2236.896 1710869
1189.9658 510.9299 2220.937 1579282
1195.6486 507.73572 2207.0525 1710866
1196.0034 502.37299 2183.7415 1776403
1196.542 497.20169 2161.2627 1776403
1201.8184 494.08817 2147.7285 1842196
1195.6644 486.39032 2114.2671 1710610
1199.7469 482.97342 2099.4143 2171159
1204.4867 479.88873 2086.0056 1907987
1192.896 470.42688 2044.8766 1842194
1173.8671 458.25229 1991.9552 1973780
1182.4545 456.99402 1986.4857 1973780
1172.9889 448.85251 1951.0957 1973779
1183.4384 448.41647 1949.2004 2105365
0 0 0 0
1149.8496 427.32019 1857.4979 2039571
1147.7344 422.47641 1836.4427 2105364
1170.5316 426.80771 1855.2703 2171157
1167.8073 421.83908 1833.6725 2171157
1162.9344 416.19357 1809.1322 1973778
1177.8066 417.65308 1815.4766 1775628
1176.657 413.45636 1797.234 2236181
1196.6188 416.68658 1811.2751 2236179
1178.2725 406.63846 1767.5975 1710094
1174.8851 401.88498 1746.9348 4801848
1191.4974 403.99597 1756.111 2236693
1217.978 409.38724 1779.546 1710092
1229.9154 409.83945 1781.5118 1841677
1232.4376 407.17337 1769.9226 1446918
1233.1158 403.94836 1755.9041 1775884
1242.4592 403.59222 1754.356 1710091
1244.4099 400.8606 1742.4821 2894108
1249.5466 399.19196 1735.2288 2499094
1254.4261 397.46915 1727.7399 2894108
1252.0885 393.5061 1710.5132 3287839
1243.099 387.5332 1684.5498 2695703
1234.8561 381.88669 1660.0052 2629911
1227.1322 376.48895 1636.5421 2564118
1228.7559 374.02145 1625.8162 2433302
1224.0444 369.67917 1606.941 1906702
1230.2886 368.68729 1602.6294 2959644
1261.5895 375.1618 1630.7731 2170130
1260.0789 371.85477 1616.3979 2893852
1270.3284 372.04196 1617.2117 3420196
1278.7498 371.69498 1615.7034 3288095
1283.4888 370.29077 1609.5995 3222301
1287.5529 368.71411 1602.746 3288094
1289.561 366.57617 1593.4526 3156506
1287.0784 363.20218 1578.7864 3024919
1281.9932 359.14789 1561.163 3024920
1272.6929 353.97952 1538.6969 3025433
1300.9979 359.26965 1561.6924 2828311
1273.8949 349.2923 1518.3223 3025692
1263.6313 344.04016 1495.4919 2828827
1255.479 339.43222 1475.4619 2631191
1260.4341 338.40732 1471.0068 2696984
1252.5759 333.98013 1451.7625 3091741
1284.8931 340.25232 1479.0267 3091742
1250.9087 329.00131 1430.1202 3420706
1298.7327 339.27335 1474.7712 3617828
1261.6825 327.38428 1423.0913 3288862
1267.9128 326.80933 1420.592 3419421
1276.6819 326.892 1420.9514 3419677
1284.472 326.72461 1420.2238 3551007
1291.7058 326.41876 1418.8944 3485213
1305.6829 327.80997 1424.9417 3288092
1318.2725 328.83704 1429.4062 3222299
1326.0789 328.66553 1428.6606 3222299
1333.2775 328.34647 1427.2738 3485470
1340.2345 327.97235 1425.6476 3485214
1348.7107 327.97235 1425.6476 3353885
1354.6237 327.35294 1422.9551 3353628
1376.3794 330.54596 1436.8346 3419421
1363.9124 325.53146 1415.0374 3157019
1361.7585 323.02484 1404.1415 3157020
0 0 0 0
0 0 0 0
0 0 0 0
0 0 0 0
0 0 0 0
0 0 0 0
0 0 0 0
0 0 0 0
0 0 0 0
0 0 0 0
0 0 0 0
0 0 0 0
-1627.1675 448.89346 1902.1152 1579273
-1612.3574 447.92087 1897.9939 1842445
-1593.7195 445.86359 1889.2766 1645066
-1586.7428 447.06271 1894.3578 1579273
-1598.6615 453.64081 1922.2313 1645066
-1562.6686 446.62021 1892.4825 1447687
-1610.3722 463.59222 1964.3988 1513479
-1544.6511 447.92105 1897.9948 1513480
-1539.3634 449.67285 1905.4176 1316101
-1552.537 456.88342 1935.9713 1381896
-1533.5679 454.67203 1926.601 1381640
-1525.7726 455.76508 1931.2325 1250311
-1518.0781 456.90512 1936.0632 1315848
-1508.5587 457.50906 1938.6224 1184262
-1508.1495 460.90649 1953.0184 1250057
-1500.8896 462.24673 1958.6976 1053192
-1491.2002 462.85385 1961.2703 1118983
-1495.0381 467.70236 1981.8151 1184777
-1489.4885 469.66791 1990.1436 987398
-1482.8875 471.33066 1997.1892 921602
-1476.5168 473.09409 2004.6616 592640
-1464.3867 473.02579 2004.3721 592896
-1456.293 474.2709 2009.6481 131840
-1439.7206 472.75256 2003.2144 263680
-1423.8484 471.4407 1997.6555 65792
-1417.7108 473.35706 2005.7758 131584
-1407.9708 474.09286 2008.8937 197120
-1395.5256 473.92261 2008.1722 512
-1385.0068 474.4093 2010.2345 65792
-1375.0377 475.09439 2013.1375 65792
-1363.7324 475.32571 2014.1177 65792
-1351.8083 475.3436 2014.1935 65536
-1339.092 475.08072 2013.0796 65536
-1326.2312 474.76138 2011.7264 65536
-1312.0764 473.96884 2008.368 65536
-1298.1931 473.26068 2005.3674 256
-1283.972 472.41507 2001.7843 256
-1271.1726 472.0817 2000.3716 256
-1259.0428 471.99301 1999.9958 256
-1243.4814 470.60385 1994.1096 256
-1230.1592 470.04361 1991.7356 256
-1218.4365 470.08957 1991.9303 256
-1206.8087 470.17337 1992.2855 0
-1197.8199 471.2973 1997.048 0
-1185.8718 471.26764 1996.9221 0
-1173.8685 471.21524 1996.7001 256
-1161.9747 471.20609 1996.6614 256
-1148.4298 470.52036 1993.7557 256
-1137.3734 470.85052 1995.1547 256
-1124.2845 470.33728 1992.98 256
-1113.0892 470.6138 1994.1517 256
-1101.9292 470.91125 1995.4122 256
-1089.3525 470.6033 1994.1072 256
-1077.6006 470.64874 1994.2997 256
-1065.2078 470.41217 1993.2972 256
-1054.1281 470.75662 1994.757 256
-1043.0907 471.12814 1996.3311 256
-1031.4335 471.22495 1996.7413 256
-1024.0291 473.28964 2005.4901 197892
-1011.0666 472.80383 2003.4316 0
-1005.353 475.73672 2015.8593 131843
-999.10541 478.48453 2027.5027 66306
-987.28516 478.59805 2027.9838 592649
-983.27716 482.54837 2044.7225 66050
-963.6582 478.84045 2029.0109 395271
-954.97241 480.5401 2036.2128 256
-932.77124 475.3952 2014.412 256
-913.61823 471.69012 1998.7124 256
-896.39105 468.89481 1986.8678 256
-878.95709 465.91519 1974.2421 256
-862.71057 463.49292 1963.978 0
-843.04492 459.14203 1945.5419 0
-827.19958 456.77966 1935.5317 0
-813.67194 455.64844 1930.7384 0
-791.21429 449.41269 1904.3153 0
-778.2088 448.44263 1900.2048 0
-767.77405 448.9472 1902.3429 0
-750.27026 445.27155 1886.7678 0
-733.84918 442.1366 1873.484 0
-720.883 441.01862 1868.7468 0
-706.53833 439.00919 1860.2321 0
-691.05762 436.21866 1848.4077 0
-698.29053 447.90726 1897.9364 0
-688.68048 448.99872 1902.5613 256
-676.50635 448.42703 1900.1388 256
-664.52631 447.9668 1898.1886 256
-652.79004 447.65778 1896.8792 256
-640.76361 447.13541 1894.6658 65536
-630.99341 448.19696 1899.1639 196608
-614.0705 444.12411 1881.9058 196608
0 0 0 0
-580.98505 436.08688 1847.8492 262144
-525.36566 401.93967 1703.1559 196608
-485.84052 379.00537 1605.9755 196608
0 0 0 0
-455.48901 369.86627 1567.2499 196608
-474.05527 392.98175 1665.1981 262144
-462.9624 391.97217 1660.9203 196608
-454.37955 393.09003 1665.6569 196864
-462.81158 409.30548 1734.3673 196608
-451.569 408.46341 1730.7992 196608
-435.48401 403.09976 1708.0717 196608
-420.92935 398.93036 1690.4044 262144
-395.7164 384.20862 1628.0234 262144
-388.52866 386.68854 1638.5316 262144
-381.87921 389.84546 1651.9086 393216
-374.09088 391.97574 1660.9354 393216
-368.90775 397.02533 1682.3322 393216
-354.94775 392.64725 1663.7809 393216
-346.92627 394.77579 1672.8 393216
-338.42773 396.47104 1679.9835 393216
-329.22299 397.41699 1683.9917 458752
-318.47372 396.49924 1680.103 458752
-307.81842 395.64291 1676.4744 458752
-298.10043 395.97433 1677.8787 458752
-291.40866 400.48764 1697.0032 458752
-277.48315 395.0267 1673.8634 458752
-265.87592 392.58261 1663.5068 458752
-253.21359 388.33151 1645.4934 458752
-246.34634 392.98328 1665.2046 458752
-233.11125 387.44098 1641.72 458752
-229.91339 398.82562 1689.9606 458752
-217.00089 393.62891 1667.9404 458752
-201.68622 383.36844 1624.4633 458752
-196.64864 392.5932 1663.5518 524288
-187.06979 393.24869 1666.3292 524288
-173.48006 385.07443 1631.6921 524288
-163.49756 384.41309 1628.8898 458752
-150.72194 376.68787 1596.1553 655360
-140.23895 374.03922 1584.9321 655360
-132.26845 378.1929 1602.5327 655360
-122.00482 375.92581 1592.9263 655360
-112.64944 376.31116 1594.5591 655360
-103.26266 376.65283 1596.007 655360
-93.669411 376.23431 1594.2335 655360
-83.960052 375.20267 1589.8621 655360
-73.98893 372.59109 1578.796 655360
-64.41745 371.52557 1574.2809 655360
-54.9856 371.03992 1572.223 655360
-45.444347 369.46585 1565.5532 720896
-36.160004 369.70764 1566.5778 720896
-26.81838 369.32834 1564.9706 720896
-17.439375 367.75778 1558.3156 917504
-8.1699743 367.55795 1557.4689 851968
1.0960999 369.63138 1566.2545 851968
10.18371 361.65686 1532.4639 917504
19.240828 360.64209 1528.1638 851968
28.394375 361.50595 1531.8245 851968
37.214195 358.73328 1520.0756 786432
46.082027 357.4165 1514.496 786432
55.363678 359.21515 1522.1176 786432
63.726913 355.38669 1505.895 655360
72.490265 354.45795 1501.9596 655360
81.662804 355.51425 1506.4355 524288
90.437897 354.80255 1503.4198 1708801
99.607834 355.6286 1506.92 1577728
108.34358 354.89603 1503.8159 1315332
116.97211 353.95071 1499.8103 987140
127.19241 357.61472 1515.3359 1513998
137.37151 360.68585 1528.3494 1513999
0 0 0 0
0 0 0 0
0 0 0 0
0 0 0 0
0 0 0 0
0 0 0 0
0 0 0 0
0 0 0 0
0 0 0 0
0 0 0 0
0 0 0 0
0 0 0 0
0 0 0 0
0 0 0 0
0 0 0 0
0 0 0 0
0 0 0 0
0 0 0 0
0 0 0 0
0 0 0 0
0 0 0 0
0 0 0 0
0 0 0 0
0 0 0 0
0 0 0 0
0 0 0 0
0 0 0 0
0 0 0 0
0 0 0 0
0 0 0 0
0 0 0 0
0 0 0 0
0 0 0 0
0 0 0 0
0 0 0 0
0 0 0 0
0 0 0 0
0 0 0 0
0 0 0 0
0 0 0 0
0 0 0 0
0 0 0 0
0 0 0 0
0 0 0 0
0 0 0 0
0 0 0 0
0 0 0 0
0 0 0 0
1104.269 683.62079 2896.7351 723972
1101.4911 671.42926 2845.0754 789765
1116.4869 670.27692 2840.1926 723973
1120.0254 662.38293 2806.7432 789766
1125.6843 655.95636 2779.5115 855558
1124.6017 645.84424 2736.6628 1053192
1135.9832 643.07635 2724.9346 1053192
1130.5688 631.01202 2673.814 1184778
1133.2406 623.73279 2642.9692 724227
1124.8506 610.64758 2587.5227 1711121
1134.9902 607.83893 2575.6216 2303258
1143.6031 604.29828 2560.6187 1645328
1142.9645 596.02625 2525.5671 1579534
1146.1855 589.95538 2499.8428 1711121
1154.6919 586.72559 2486.157 1053190
1154.2927 579.10938 2453.8848 986883
1178.0371 583.64502 2473.1038 1579275
1174.392 574.66632 2435.0579 2302998
1199.0562 579.59027 2455.9221 3026720
1196.4204 571.3584 2421.041 3092512
1201.6974 567.05609 2402.8108 2434584
1192.6521 556.17596 2356.7078 2894879
1175.2898 541.71503 2295.4319 2236693
1184.0573 539.49152 2286.01 1842193
1181.504 532.21893 2255.1938 1710610
1182.2296 526.57007 2231.2576 1579281
1190.0411 524.1676 2221.0776 1710867
1193.111 519.75232 2202.3684 1908245
1192.4313 513.8172 2177.2192 1776660
1190.6451 507.53784 2150.6116 1842196
1199.6831 505.957 2143.9128 1907989
1191.2739 497.12848 2106.5034 1776403
1195.1315 493.54941 2091.3376 1776660
1194.0312 488.01776 2067.8982 1842453
1192.538 482.43985 2044.2628 2039574
1183.5796 473.98499 2008.4365 2039573
1172.6157 464.9039 1969.9569 1841938
1215.8301 477.26987 2022.3558 1776401
1147.491 446.03256 1889.9927 2433818
1131.7328 435.64124 1845.9611 2236438
1131.4077 431.33322 1827.7064 2171158
1142.332 431.35495 1827.7986 2105365
1126.6201 421.41306 1785.6713 2631712
1131.4183 419.25702 1776.5354 3684400
1140.2279 418.61346 1773.8086 3816243
1146.2744 416.97665 1766.8727 3355691
1150.3633 414.66391 1757.0729 4078645
1160.6025 414.58981 1756.7589 3947316
1164.8864 412.4086 1747.5164 5263945
1169.2191 410.28314 1738.51 5395791
1179.8593 410.38879 1738.9578 4469020
1193.5363 411.53983 1743.835 2628878
1202.5983 411.09335 1741.9432 2300940
1219.2855 413.23889 1751.0345 2235923
1236.6786 415.5853 1760.9772 2301971
1237.2069 412.27252 1746.9397 3157536
1242.3446 410.53806 1739.5902 3420451
1250.0397 409.67032 1735.9133 2762520
1252.7135 407.18475 1725.381 3881257
1256.7458 405.17749 1716.8757 3486244
1245.7091 398.38342 1688.0869 3090975
1235.0214 391.80865 1660.2274 2761753
1225.6234 385.74417 1634.53 2498325
1224.806 382.45438 1620.5901 2498325
1217.7056 377.26932 1598.6191 2366739
1236.9913 380.27628 1611.3606 2038288
1247.3821 380.5235 1612.4082 1775628
1256.9686 380.5235 1612.4082 2565144
1270.2626 381.63733 1617.1279 2630680
1280.1573 381.72083 1617.4818 2827544
1286.6675 380.80142 1613.5859 3024920
1287.8566 378.33246 1603.124 2893335
1288.7563 375.81537 1592.4584 3024663
1287.1309 372.604 1578.8506 2827796
1285.0081 369.29623 1564.8345 3090712
1271.5299 362.79602 1537.2909 3025690
1262.129 357.54367 1515.0349 3025690
1281.1075 360.3483 1526.9189 3157277
1252.3474 349.78 1482.1376 3026205
1256.1744 348.39743 1476.2792 3157534
1250.1425 344.31863 1458.9958 3025949
1269.0302 347.11218 1470.8331 3091742
1250.2466 339.634 1439.1455 3091743
1255.447 338.72855 1435.3087 3091484
1272.6982 341.06473 1445.208 3157276
1304.9518 347.36307 1471.8961 3091483
1281.6954 338.89978 1436.0343 3156506
1270.6426 333.75394 1414.2296 3485471
1280.8545 334.22458 1416.2239 3419678
1299.6812 336.92227 1427.655 3485471
1304.9883 336.10303 1424.1836 3156249
1330.301 340.4136 1442.449 3287835
1323.8431 336.59119 1426.252 3485214
1332.0031 336.51038 1425.9095 3156506
1340.7079 336.56735 1426.1511 3353885
1348.5217 336.4014 1425.4479 3485471
1356.2828 336.22443 1424.698 3353885
1363.0638 335.8082 1422.9342 3419677
1370.0404 335.44498 1421.3951 3090713
1362.9965 331.67441 1405.418 3156250
0 0 0 0
0 0 0 0
0 0 0 0
0 0 0 0
0 0 0 0
0 0 0 0
0 0 0 0
0 0 0 0
0 0 0 0
0 0 0 0
0 0 0 0
0 0 0 0
-1613.577 456.35873 1886.2281 2039567
-1602.6921 456.45261 1886.6162 1644298
-1607.0619 460.92307 1905.0935 1841675
-1586.7428 458.32562 1894.3578 1775882
-1587.4535 461.8089 1908.7549 1775883
-1565.7078 458.76248 1896.1633 1775883
-1576.4554 465.26166 1923.0258 1776139
-1545.2589 459.38626 1898.7416 1579531
-1580.0825 473.19586 1955.8196 1513482
-1568.4539 473.19574 1955.8191 1447434
-1533.5679 466.12662 1926.601 1316104
-1532.5491 469.32242 1939.8099 1250311
-1524.2672 470.32562 1943.9563 1250310
-1516.014 471.35309 1948.203 1249799
-1510.1489 473.14453 1955.6075 1184262
-1525.793 481.75516 1991.197 790017
-1502.9485 478.25299 1976.7218 1053191
-1482.1116 475.33951 1964.6798 1053191
-1482.8311 479.34814 1981.2483 921862
-1469.4232 478.81754 1979.0552 855813
-1465.2455 481.3103 1989.3584 724225
-1451.7 480.74146 1987.0072 592384
-1442.2399 481.52728 1990.2551 131840
-1428.6323 480.92993 1987.7863 66048
-1422.3208 482.79922 1995.5123 262400
-1412.6449 483.54828 1998.6084 197120
-1366.7905 471.82117 1950.1377 196864
-1391.147 484.33777 2001.8715 256
-1376.3497 483.32111 1997.6693 65792
-1367.8245 484.50842 2002.5768 65792
-1322.2632 472.48251 1952.8712 256
-1356.738 489.09613 2021.5387 256
-1330.5211 483.93213 2000.1948 256
-1317.0021 483.33502 1997.7271 256
-1277.5298 473.11566 1955.4882 256
-1265.3851 472.92197 1954.6875 256
-1253.7637 472.92206 1954.6879 256
-1243.0037 473.25003 1956.0436 256
-1255.594 482.5585 1994.5173 256
-1241.8352 481.82108 1991.4695 256
-1229.2863 481.54352 1990.3223 0
-1218.0851 481.79361 1991.356 0
-1205.8351 481.62964 1990.6783 0
-1193.754 481.53067 1990.269 0
-1181.8796 481.51385 1990.1996 256
-1170.8802 481.85684 1991.6172 256
-1158.2914 481.54596 1990.3323 256
-1146.4944 481.56128 1990.3956 256
-1135.6517 481.98196 1992.1344 0
-1123.3057 481.76672 1991.2448 0
-1112.224 482.09494 1992.6014 0
-1099.7566 481.82321 1991.4783 256
-1088.0811 481.89612 1991.7797 256
-1076.5308 482.02682 1992.3198 256
-1064.5884 481.98285 1992.1382 256
-1052.9583 482.0809 1992.5435 256
-1042.8333 482.87811 1995.8384 256
-1030.6591 482.73389 1995.2423 0
-1024.0635 485.22955 2005.5575 256
-1012.4684 485.3873 2006.2095 66307
-1002.6384 486.40503 2010.416 197636
-995.48138 488.7597 2020.1483 66306
-989.61011 491.81094 2032.7596 461063
-980.5108 493.31345 2038.9698 66049
-956.42084 487.2171 2013.7725 0
-936.76935 483.25589 1997.3999 256
-935.91083 489.01227 2021.1923 256
-920.94818 487.45316 2014.748 256
-911.69208 488.91315 2020.7826 256
-897.56982 487.76785 2016.0487 256
-882.16003 485.88226 2008.2551 0
-867.76935 484.51395 2002.5997 0
-854.95557 484.00034 2000.4768 0
-838.36572 481.30432 1989.3336 0
-825.61121 480.76459 1987.1028 0
-813.95105 480.85565 1987.4792 0
-802.13458 480.85565 1987.4792 0
-790.30853 480.84991 1987.4553 0
-776.01752 479.32141 1981.1378 0
-770.60339 483.31335 1997.6372 0
-751.00745 478.39627 1977.314 0
-740.07861 478.93161 1979.5267 0
-729.27814 479.5687 1982.1599 0
-717.84338 479.8027 1983.1272 256
-708.73676 481.62668 1990.666 256
-696.76221 481.53058 1990.2688 256
-669.80194 470.89566 1946.3124 256
-656.75739 469.84204 1941.9576 65536
-651.40137 474.34952 1960.5879 196608
-636.70715 472.09729 1951.2789 262144
-602.08276 454.70959 1879.412 196608
0 0 0 0
0 0 0 0
0 0 0 0
-473.32812 386.13568 1595.9812 393216
-466.03186 387.961 1603.5258 393216
-476.41873 404.89081 1673.5002 393216
-469.85458 407.82956 1685.6466 327936
-452.67963 401.48553 1659.4254 327936
-438.45697 397.53558 1643.0995 327680
-428.4256 397.29227 1642.0939 393216
-416.15851 394.91608 1632.2725 393216
-407.80511 396.229 1637.6991 458752
-400.23468 398.38547 1646.6123 458752
-386.50302 394.36362 1629.989 458752
-381.13257 398.88547 1648.6788 524288
-380.27441 408.49326 1688.3899 524288
-370.20044 408.45389 1688.2272 524288
-359.64151 407.8624 1685.7823 458752
-349.51395 407.74017 1685.2772 458752
-338.87045 406.99115 1682.1813 458752
-327.85059 405.73071 1676.9717 524288
-317.92105 405.7829 1677.1875 524288
-307.50635 405.19919 1674.7748 524288
-297.4733 405.0961 1674.3488 524288
-287.49042 405.05664 1674.1855 524288
-278.5275 406.50287 1680.1632 524288
-267.15582 404.41046 1671.5149 524288
-256.93359 403.96353 1669.6676 524288
-247.32788 404.48901 1671.8395 524288
-236.89452 403.64819 1668.3643 655360
-226.32895 402.49881 1663.6135 589824
-215.19028 400.17859 1654.0236 655360
-200.15425 390.04138 1612.1243 655360
-189.85855 388.58652 1606.1111 655360
-186.67279 402.30023 1662.7928 589824
-170.94083 388.99731 1607.809 524288
-160.23129 386.22458 1596.3488 589824
-150.94131 386.73984 1598.4784 655360
-141.09348 385.79901 1594.5897 655360
-131.79358 386.32877 1596.7793 655360
-121.69944 384.43192 1588.9392 655360
-112.30276 384.60434 1589.652 655360
-102.75078 384.22775 1588.0953 721152
-93.010872 383.00107 1583.0253 655360
-83.446373 382.30182 1580.1351 655360
-74.261139 383.38315 1584.6045 589824
-64.677521 382.42319 1580.6367 589824
-55.147724 381.50909 1576.8586 655360
-45.520119 379.4054 1568.1636 655360
-36.159534 379.01682 1566.5575 720896
-26.901237 379.8027 1569.8058 720896
-17.354935 375.19727 1550.7704 655360
-8.0517597 371.3656 1534.9333 720896
1.0725182 370.79086 1532.5579 720896
10.226746 372.33493 1538.9398 720896
19.355436 371.93005 1537.2664 851968
28.330725 369.78262 1528.3906 655360
37.370373 369.31427 1526.4548 852224
46.295345 368.11713 1521.5067 720896
55.110458 366.58057 1515.1558 786432
63.908081 365.37579 1510.1761 720896
72.618523 364.03079 1504.6171 589824
81.551079 363.97214 1504.3746 655360
90.94838 365.79431 1511.906 1708544
99.25885 363.31061 1501.6404 1511424
108.08475 362.96771 1500.2231 1511425
117.20237 363.58212 1502.7626 525312
126.32254 364.11682 1504.9727 327936
137.21773 369.3587 1526.6384 262144
0 0 0 0
170.79312 406.02133 1678.1729 262144
0 0 0 0
0 0 0 0
0 0 0 0
0 0 0 0
0 0 0 0
0 0 0 0
0 0 0 0
0 0 0 0
0 0 0 0
0 0 0 0
0 0 0 0
0 0 0 0
0 0 0 0
0 0 0 0
0 0 0 0
0 0 0 0
0 0 0 0
0 0 0 0
0 0 0 0
374.4252 410.49509 1696.6639 262144
0 0 0 0
0 0 0 0
0 0 0 0
0 0 0 0
0 0 0 0
438.20026 413.56235 1709.3416 524288
449.32016 414.44507 1712.9901 524288
461.67899 416.40616 1721.0956 524288
476.27249 420.25397 1736.9995 524288
485.68851 419.46692 1733.7465 524288
492.66376 416.64841 1722.0968 524288
503.99741 417.55554 1725.8463 524288
513.7923 417.17703 1724.2819 524288
0 0 0 0
0 0 0 0
0 0 0 0
0 0 0 0
0 0 0 0
0 0 0 0
0 0 0 0
0 0 0 0
0 0 0 0
0 0 0 0
0 0 0 0
0 0 0 0
0 0 0 0
0 0 0 0
0 0 0 0
1118.3206 688.29169 2844.8567 723717
1110.4686 673.27618 2782.7942 789766
1115.9225 666.65027 2755.408 855558
1127.9061 664.06055 2744.7041 855558
1129.5006 655.51526 2709.3845 1053193
1123.8076 643.04034 2657.8232 1052937
1125.6565 635.16711 2625.2815 987144
1136.0293 632.25311 2613.2373 1052937
1140.6173 626.2417 2588.3909 921605
1138.139 616.56238 2548.384 1579535
1142.0206 610.53741 2523.4814 2500637
1137.9042 600.44824 2481.781 1842707
1146.0817 597.02173 2467.6182 1776914
1152.6224 592.8399 2450.334 1579532
1157.3298 587.8313 2429.6323 1382156
1165.4911 584.67877 2416.6023 1053191
1164.424 577.02991 2384.988 921093
1186.639 580.96387 2401.2478 2040085
1184.3469 572.94849 2368.1184 2500635
1197.7019 572.60199 2366.6865 3158564
1181.3613 558.23151 2307.29 2632220
1185.866 553.92786 2289.5022 2632221
1186.4927 547.93103 2264.7161 2105879
1176.9683 537.43353 2221.3276 1711121
1184.4132 534.83173 2210.5737 1842454
1180.1359 527.05176 2178.4175 1579281
1186.266 524.03827 2165.9622 1710611
1184.7343 517.74115 2139.9348 1710610
1188.1603 513.72156 2123.3208 1907989
1189.5028 508.89496 2103.3716 1907989
1197.8464 507.1329 2096.0886 1710611
1192.2828 499.5799 2064.8704 1907987
1192.652 494.64133 2044.4583 1711121
1193.1095 489.83865 2024.6079 1908500
1147.3729 466.35617 1927.5497 1842707
1178.9164 474.43845 1960.9553 1973780
1121.5454 446.93033 1847.2585 2105366
1114.0159 439.62473 1817.063 2105366
1119.9755 437.73163 1809.2384 1973780
1104.4934 427.57397 1767.2546 3158055
1119.6724 429.36548 1774.6593 3815986
1125.2495 427.47589 1766.8491 1381646
1134.7366 427.09277 1765.2657 2301978
1138.8248 424.70337 1755.3898 2433305
1146.7062 423.75912 1751.4869 2696221
1154.6035 422.83765 1747.6783 2498841
1162.3918 421.89307 1743.7742 2827292
1168.9977 420.53976 1738.1807 4406067
1174.1187 418.68073 1730.4969 3154713
1179.7336 417.02863 1723.6683 2170126
1200.042 420.55426 1738.2406 1973259
1210.9875 420.76654 1739.1179 2104593
1220.074 420.33466 1737.3329 2236435
1230.4386 420.34671 1737.3828 3025438
1235.5742 418.5871 1730.1099 3091485
1242.8026 417.55963 1725.8633 3683622
1247.2056 415.60757 1717.7948 4209964
1253.5995 414.34521 1712.5773 4078379
1252.8318 410.75519 1697.739 3354147
1238.5662 402.83246 1664.9927 3024926
1231.2795 397.2872 1642.073 2959903
1222.9646 391.50009 1618.1536 2301461
1221.4144 387.95193 1603.4883 2762269
1237.3896 389.98209 1611.8794 1841167
1247.1642 390.04187 1612.1265 1578252
1259.5286 390.90454 1615.692 2367509
1267.4088 390.37296 1613.4949 2564888
1281.9963 391.89975 1619.8054 2893338
1287.5482 390.6622 1614.6904 2695956
1289.2458 388.28223 1604.8534 2695956
1290.895 385.92273 1595.1011 2761237
1291.0514 383.15457 1583.6598 2959127
1286.823 379.13467 1567.0447 2761748
1271.5144 371.93146 1537.2722 2828054
1257.8254 365.30145 1509.8689 2499346
1253.3083 361.41022 1493.7856 2828311
1248.8612 357.59381 1478.0117 2959897
1275.4882 362.66623 1498.9769 2762518
1270.9099 358.85703 1483.2328 3091483
1251.4846 350.93698 1450.4976 3091483
1296.0031 360.9335 1491.8153 3288861
1247.4407 345.04761 1426.1554 3420447
1307.1082 359.1109 1484.2821 3156759
1256.7501 342.96021 1417.5278 3222553
1262.9241 342.34921 1415.0024 3090967
1289.7946 347.31955 1435.5459 3288345
1300.3771 347.86725 1437.8097 3354138
1307.6686 347.53323 1436.4291 3222297
1350.6243 356.62027 1473.9878 3354141
1310.89 343.89743 1421.4015 3288091
1319.8075 344.01901 1421.9041 3353885
1389.3867 359.85043 1487.3387 3222043
