# .PCD v0.7 - Point Cloud Data file format
VERSION 0.7
FIELDS x y z rgb
SIZE 4 4 4 4
TYPE F F F U
COUNT 1 1 1 1
WIDTH 1314
HEIGHT 1
VIEWPOINT 0 0 0 1 0 0 0
POINTS 1314
DATA ascii
-937.29626 -404.65576 2322.3745 65536
-925.48883 -405.53226 2327.4048 0
-948.89862 -422.10107 2422.4956 460032
-1061.0146 -479.24826 2750.4709 328448
-1137.6565 -521.91046 2995.3152 65792
0 0 0 0
-1274.7803 -603.71826 3464.821 1052939
-1252.9592 -603.13049 3461.448 658693
-1236.394 -605.0954 3472.7249 1119244
-1214.9407 -604.69409 3470.4216 1119245
-1198.5488 -606.84161 3482.7466 1250574
-1176.1342 -605.96161 3477.6963 1579541
-1102.8424 -578.36847 3319.3352 1447955
-1125.3081 -600.90326 3448.6658 1514005
-1096.1282 -596.18445 3421.5837 1513748
-1071.0577 -593.56458 3406.5479 1579541
-1031.9042 -582.88861 3345.2771 1645334
-1005.9927 -579.42004 3325.3706 1908506
-974.13257 -572.31744 3284.6079 1776920
-945.78632 -567.03101 3254.2683 1908506
-909.46521 -556.64264 3194.6479 1908761
-891.651 -557.38 3198.8799 1974554
-849.34833 -542.50787 3113.5266 1974554
-825.76685 -539.19733 3094.5269 2435104
-794.8844 -530.86005 3046.678 2303776
-777.72974 -531.51569 3050.4407 2237983
-771.12311 -539.5835 3096.7429 2172447
-758.26178 -543.56219 3119.5776 2369057
-742.93103 -545.9259 3133.1433 2304034
-727.42639 -548.28015 3146.6545 2369827
-765.34918 -592.09137 3398.093 2435620
-752.63129 -598.03925 3432.2288 2369827
-686.22375 -560.46808 3216.6028 2567206
-680.06586 -571.36194 3279.124 2435620
-685.32135 -592.77087 3401.9927 2435620
-655.76044 -584.45154 3354.2468 2501413
-645.06042 -592.94745 3403.0061 2567206
-635.2179 -602.80737 3459.5935 2830378
-618.70862 -606.78882 3482.4436 2435620
-610.74896 -619.72131 3556.665 2567205
-595.72308 -626.15424 3593.5842 2567205
-572.38348 -624.0022 3581.2336 2698791
-553.39777 -626.61389 3596.2224 2632998
-533.86938 -628.79626 3608.7476 460805
-508.16431 -623.58185 3578.8213 2369312
-498.23706 -638.11926 3662.2532 2435105
-481.29639 -644.59229 3699.4031 2106139
-458.53284 -643.51337 3693.2109 2632483
-433.41354 -638.85358 3666.4678 2764068
-410.5401 -637.18591 3656.8967 2566689
-387.95251 -635.80029 3648.9443 2632482
-365.43167 -634.36627 3640.7146 2764065
-343.8764 -634.53345 3641.6738 2632479
-322.51617 -635.10718 3644.9666 2698273
-303.18112 -640.03882 3673.2698 2566687
-282.79251 -643.33923 3692.2117 2764065
-261.45987 -644.86694 3700.9792 2698273
-233.59567 -629.08557 3610.4077 2632480
-213.08746 -631.92499 3626.7034 2500894
-194.16518 -640.63635 3676.6992 2764066
-171.9386 -639.27264 3668.8728 2632479
-149.89354 -638.28564 3663.208 2566687
-128.50186 -640.21832 3674.3003 2632223
-105.92965 -635.85632 3649.2661 2632224
-82.985695 -626.44104 3595.2305 2895395
-61.53653 -625.69135 3590.9277 2632223
-40.703598 -633.7395 3637.1174 1908499
-18.767775 -623.39734 3577.7625 2566428
2.5048015 -623.64722 3579.1963 1711121
22.734455 -596.10425 3421.1233 1184777
0 0 0 0
57.911205 -544.36823 3124.2034 4145973
76.322777 -543.20551 3117.5303 3817522
93.422134 -534.98279 3070.3389 3291178
112.92166 -540.94617 3104.5635 3554352
133.12698 -548.13989 3145.8494 3685938
151.93922 -548.53192 3148.0996 3554351
167.65157 -538.87421 3092.6724 3554350
190.65359 -552.24054 3169.3838 3422764
205.3118 -541.20782 3106.0654 3422764
222.74458 -538.7063 3091.709 3488557
248.17674 -554.45782 3182.1091 3553839
266.94711 -554.14893 3180.3359 3619376
285.24899 -552.97253 3173.5847 3421998
289.84586 -527.02264 3024.6545 2697764
298.95493 -511.82971 2937.4604 256
311.81848 -504.38715 2894.7466 256
328.23398 -503.16809 2887.7502 256
344.24365 -501.4791 2878.0569 256
359.8313 -499.36438 2865.9202 0
375.33392 -497.32822 2854.2344 0
391.80942 -496.70148 2850.6375 0
407.78232 -495.51605 2843.8342 0
424.09158 -494.8175 2839.825 0
440.13196 -493.87064 2834.3909 0
456.73822 -493.60522 2832.8677 0
473.03809 -493.03934 2829.6199 0
489.30399 -492.47815 2826.3992 0
505.93808 -492.31244 2825.4482 0
522.14917 -491.75906 2822.2722 0
538.35437 -491.23474 2819.2632 0
554.70648 -490.8721 2817.1819 0
571.23981 -490.6864 2816.116 0
588.04602 -490.73895 2816.4177 0
605.15247 -491.03226 2818.1011 0
622.68652 -491.64734 2821.6311 0
640.258 -492.25894 2825.1411 0
658.06372 -493.0148 2829.479 0
675.46173 -493.43509 2831.8911 0
692.57532 -493.6322 2833.0225 0
711.16541 -494.84738 2839.9963 256
727.49011 -494.4664 2837.8101 256
741.63879 -492.65726 2827.427 256
757.97723 -492.35068 2825.6675 197634
773.63635 -491.62564 2821.5066 2829862
814.99072 -506.91351 2909.2458 2895911
842.13495 -512.91119 2943.667 3158828
866.24823 -516.85614 2966.3076 3487793
893.23834 -522.32587 2997.6992 3158827
924.50146 -530.03137 3041.9224 3224621
953.88281 -536.38312 3078.3757 3158828
980.664 -541.06104 3105.2231 3356207
1013.8179 -549.01721 3150.8845 3224621
1039.1813 -552.5423 3171.1155 2764070
1057.2015 -552.10693 3168.6169 3093035
1073.1292 -550.61322 3160.0442 3093036
1099.5342 -554.4541 3182.0876 3224619
1129.9496 -560.1532 3214.7957 1579794
1116.1355 -544.10138 3122.6721 1579794
1111.9857 -533.20905 3060.1594 1776403
1131.3242 -533.74896 3063.2578 1645587
1119.3469 -519.73132 2982.8088 1842967
1116.6497 -510.39258 2929.2124 1842967
1108.4337 -498.8569 2863.0078 1908761
1100.6167 -487.84702 2799.8206 2106138
1097.5835 -479.25406 2750.5044 2040345
1209.2935 -520.27991 2985.9573 1777173
1218.9886 -516.86328 2966.3489 1974552
1101.9479 -460.57321 2643.2925 1777173
1101.8667 -454.0636 2605.9329 2106136
1110.302 -451.19534 2589.4714 1908756
1120.6755 -449.18234 2577.9187 2040343
1256.988 -497.02072 2852.4697 2237466
1137.4535 -443.76874 2546.8491 2435101
1149.5212 -442.58496 2540.0554 2500640
1159.3726 -440.58966 2528.604 2566688
1167.1488 -437.86688 2512.9778 2500639
1171.5031 -433.94537 2490.4717 2500639
1200.0137 -438.95807 2519.2402 2566689
1184.5493 -427.95966 2456.1187 3093033
1184.2794 -422.65182 2425.6562 3158826
0 0 0 0
1168.2036 -407.00195 2335.8396 4475459
1191.4227 -410.21481 2354.2786 3027759
1203.7687 -409.65283 2351.0532 4936270
1218.8932 -410.03848 2353.2666 3751484
0 0 0 0
1215.0964 -399.58771 2293.2883 256
1222.4867 -397.55695 2281.6335 0
1229.2994 -395.38507 2269.1687 65536
1223.0839 -389.11545 2233.1865 0
1233.8668 -388.33035 2228.6809 0
1227.0776 -382.09036 2192.8687 0
1216.2728 -374.74429 2150.7085 0
1221.1099 -372.32031 2136.7969 0
1222.7424 -368.97925 2117.6221 1
1226.4926 -366.33878 2102.468 4
1244.5803 -367.99088 2111.9497 516
1213.6129 -355.25046 2038.8308 1185817
1202.0581 -348.38834 1999.4481 5988965
1221.6887 -350.61047 2012.2012 6252904
1234.1917 -350.76376 2013.0811 1580057
1239.0825 -348.77148 2001.6471 3948860
1251.5776 -348.93719 2002.598 4342589
1257.7258 -347.34692 1993.4713 4408635
1263.3468 -345.64212 1983.6873 4342328
1265.2765 -342.96826 1968.3417 4408375
1265.4802 -339.87991 1950.6171 4408117
1263.6616 -336.30939 1930.1254 4604982
1267.4397 -334.27924 1918.474 4736567
1248.2993 -326.29459 1872.6492 4802359
1244.77 -322.49567 1850.8466 4999739
1249.9553 -321.00131 1842.2703 4867897
1225.2932 -311.93439 1790.2339 4933178
1211.6455 -305.80353 1755.0481 4801849
1225.6036 -306.68524 1760.1083 4736055
1210.8849 -300.43689 1724.2482 4867896
1205.2423 -296.52643 1701.8055 4999481
1205.2933 -294.07025 1687.7092 4999481
1204.9764 -291.56558 1673.3346 4736310
1211.6108 -290.77017 1668.7697 4736310
1218.3665 -290.01657 1664.4446 5196860
1233.3177 -291.21021 1671.295 5196860
1246.1481 -291.88797 1675.1849 5327677
1255.8218 -291.8215 1674.8033 5130298
1266.0996 -291.89536 1675.2273 4735284
1268.219 -290.10184 1664.934 4340527
1283.0013 -291.21024 1671.2953 5459265
1290.7644 -290.7207 1668.4856 5787971
1297.5687 -290.02429 1664.4889 5524540
1308.4774 -290.24887 1665.7778 5590590
1314.0071 -289.28589 1660.2511 5787969
1321.4889 -288.76382 1657.2549 5524798
1333.621 -289.25809 1660.0916 5524797
1344.2008 -289.41092 1660.9686 5656382
1356.092 -289.84177 1663.4414 5656381
1359.6278 -288.4935 1655.7035 5590588
1368.3392 -288.25491 1654.3342 5656381
1377.9652 -288.21103 1654.0823 5590590
1387.0295 -288.05112 1653.1646 5787969
1404.1161 -289.54773 1661.7539 5524797
1390.0854 -284.65152 1633.6538 5656383
1433.9105 -291.58826 1673.4648 5590590
1383.42 -279.38239 1603.4135 5524797
1463.4854 -293.52893 1684.6024 5459004
1485.9417 -296.00711 1698.8252 5524797
1512.6703 -299.29721 1717.7074 5392954
1512.7407 -297.30392 1706.2677 5656639
1513.6508 -295.5011 1695.9211 5722176
1504.7709 -291.82358 1674.8153 5722432
1542.4012 -297.15494 1705.4127 5524798
1551.212 -296.9006 1703.9531 5590590
1550.2406 -294.78946 1691.8368 5919555
1560.0083 -294.73444 1691.5211 5722176
1580.5426 -296.70126 1702.809 5787200
1593.6985 -297.26678 1706.0546 5656126
1612.1207 -298.80127 1714.8612 5853249
1512.2274 -278.52484 1598.4921 5787456
1590.5135 -291.1142 1670.7439 5721663
1653.2903 -300.72614 1725.9083 5919042
1672.4636 -302.33722 1735.1544 5655870
1688.819 -303.42221 1741.3813 5392698
0 0 0 0
0 0 0 0
0 0 0 0
0 0 0 0
0 0 0 0
0 0 0 0
0 0 0 0
0 0 0 0
0 0 0 0
0 0 0 0
0 0 0 0
0 0 0 0
0 0 0 0
-1445.9756 -286.46408 1702.1367 2960675
-1534.9241 -306.229 1819.5776 2960930
-1521.2166 -305.6485 1816.1283 3092512
-1512.7181 -306.11377 1818.8929 2895133
-1506.9985 -307.15216 1825.0629 3092511
-1509.2598 -309.84402 1841.0576 2960926
-1504.6204 -311.14819 1848.8069 2895133
-1493.8813 -311.2009 1849.1201 2960926
-1487.0629 -312.07718 1854.3268 2829340
-1486.3025 -314.24741 1867.2219 2829340
-1483.7706 -316.07291 1878.069 2697754
-1489.2388 -319.64319 1899.2832 3025949
-1481.4542 -320.40182 1903.7908 2828570
-1475.1208 -321.48837 1910.2471 2828570
-1480.6958 -325.20728 1932.3442 2565398
-1471.0083 -325.60596 1934.7133 2631192
-1464.5881 -326.73987 1941.4508 2565398
-1459.4312 -328.17584 1949.9832 2236433
-1451.5205 -329.01065 1954.9435 2236177
-1439.8778 -329.00613 1954.9167 1644811
-1450.9498 -334.23407 1985.9806 1250310
-1455.924 -338.13156 2009.1389 1118725
-1456.1167 -340.97388 2026.0277 526848
-1439.7927 -339.96371 2020.0254 256
-1427.718 -339.94833 2019.934 256
-1410.5823 -338.71735 2012.6198 256
-1397.8358 -338.52838 2011.4968 256
-1383.3784 -337.91818 2007.8711 0
-1365.3451 -336.41623 1998.9467 0
-1351.452 -335.91708 1995.9807 328965
-1341.1046 -336.29813 1998.2449 395271
-1309.6394 -331.34317 1968.8031 526602
-1313.4863 -335.31348 1992.3942 395531
-1328.0481 -342.11627 2032.8156 461581
-1306.2578 -339.59344 2017.8252 132872
-1306.4475 -342.79102 2036.8248 659219
-1293.416 -342.54697 2035.3748 725011
-1281.1559 -342.50449 2035.1223 922390
-1265.1597 -341.45288 2028.8738 922133
-1250.0645 -340.62656 2023.964 922133
-1226.6688 -337.50043 2005.3888 1053719
-1212.7285 -336.93994 2002.0585 724752
-1197.5927 -336.0329 1996.6689 593166
-1182.9819 -335.25653 1992.0558 66564
-1171.359 -335.31973 1992.4314 1
-1158.1787 -334.9339 1990.1388 258
-1158.5823 -338.50891 2011.3811 855567
-1144.9008 -338.00024 2008.3588 855568
-1143.5759 -341.16736 2027.1774 461064
-1128.4476 -340.23996 2021.6669 1316116
-1109.1459 -338.02075 2008.4806 1382423
-1098.917 -338.54831 2011.6152 395271
-1103.486 -343.69656 2042.2054 197892
-1084.177 -341.43945 2028.7939 0
-1089.6835 -347.03455 2062.0396 256
-1082.2156 -348.57803 2071.2107 256
-1075.6256 -350.44305 2082.2925 0
-1067.7698 -351.93433 2091.1533 256
-1070.28 -356.9176 2120.7634 256
-1060.0093 -357.70663 2125.4519 256
-1049.2668 -358.35364 2129.2961 256
-1052.4618 -363.83456 2161.8633 256
-1043.8442 -365.31699 2170.6716 256
-1031.6298 -365.56192 2172.127 256
-1024.6411 -367.68839 2184.7622 256
-1025.1171 -372.58243 2213.842 0
-1032.549 -380.16483 2258.8958 0
-1023.6178 -381.84317 2268.8682 0
-1010.3605 -381.93094 2269.3899 0
-1003.0828 -384.3121 2283.5383 0
-995.89606 -386.79388 2298.2849 0
-987.0282 -388.68274 2309.5083 0
-971.97485 -388.15472 2306.3708 0
-960.58282 -389.09467 2311.9558 0
-949.61151 -390.23483 2318.7305 65536
-930.63824 -388.07175 2305.8777 65536
-919.24719 -389.05304 2311.7085 65792
-972.75024 -417.94611 2483.3877 592128
-1146.2102 -500.06412 2971.3237 131840
-1144.1432 -506.97614 3012.394 263168
-1277.334 -574.99457 3416.5518 723971
-1253.8374 -573.53827 3407.8987 658180
-1234 -573.7356 3409.071 658696
-1221.6157 -577.46252 3431.2161 855818
-1214.8112 -583.99847 3470.0518 1316369
-1191.6987 -582.78497 3462.8416 1579542
-1171.9647 -583.21014 3465.3677 1513748
-1121.3263 -567.99622 3374.9683 1447955
-1109.5033 -572.24762 3400.2295 1645591
-1081.506 -568.15979 3375.9404 1579798
-1071.1196 -573.34406 3406.7446 1908507
-1030.8134 -562.40411 3341.7407 1842713
-1012.6651 -563.36102 3347.4263 1645334
-970.35431 -550.64484 3271.8684 1645334
-935.00269 -541.43823 3217.1638 1842712
-906.43939 -535.86017 3184.0195 2040603
-892.22937 -538.71033 3200.9548 2040347
-850.17194 -524.50464 3116.5461 1974554
-821.04822 -517.82288 3076.8442 2106140
-799.84564 -515.94629 3065.6936 2434849
-789.45361 -521.11816 3096.4243 2303520
-773.5802 -522.83246 3106.6104 2434849
-756.47375 -523.77679 3112.2217 2303264
-739.52533 -524.88062 3118.7805 2106655
-724.75708 -527.62842 3135.1077 2304035
-711.05646 -531.31915 3157.0374 2435620
-697.08173 -534.99957 3178.906 2238241
-695.9718 -549.03381 3262.2959 2567205
-691.66754 -561.28058 3335.0647 2501413
-666.93622 -557.18463 3310.7273 2567205
-656.71527 -565.33075 3359.1306 2632999
-643.13702 -571.0072 3392.8591 2764586
-636.08752 -583.0354 3464.3296 2304036
-624.79749 -591.85175 3516.7153 2698537
-610.21533 -598.05219 3553.5574 2698537
-589.86206 -598.83838 3558.2288 2764073
-579.92493 -610.651 3628.4182 3026988
-562.47675 -615.16193 3655.2214 2895403
-533.94879 -607.43085 3609.2844 592646
-514.76514 -610.12769 3625.3088 2500642
-497.14334 -614.99231 3654.2139 2698021
-482.0799 -623.61102 3705.4253 1908761
-460.19525 -623.8089 3706.6008 2895656
-443.8017 -631.84436 3754.3467 2632484
-412.35025 -618.15759 3673.0212 2829863
-388.48254 -614.94452 3653.9297 2698275
-365.88376 -613.47845 3645.2188 2698275
-344.21115 -613.47845 3645.2188 2566688
-322.57202 -613.54218 3645.5974 2566686
-302.52417 -616.8598 3665.3103 2566688
-280.69183 -616.77136 3664.7847 2566687
-259.0943 -617.22742 3667.4944 2764068
-238.36229 -620.01862 3684.0793 2500896
-215.52505 -617.34454 3668.1907 2698274
-193.91809 -617.98914 3672.0205 2764066
-164.17789 -589.58942 3503.2727 2566687
-148.19144 -609.50537 3621.6111 2566687
-126.77464 -610.06104 3624.9128 2698016
-101.10468 -586.18536 3483.0464 2698016
-81.980667 -597.73773 3551.6892 2698016
-60.779774 -596.90948 3546.7676 2961188
-40.458504 -608.4292 3615.2166 1974292
-18.869722 -605.39661 3597.197 2434844
2.5055645 -602.5506 3580.2864 1513742
22.641651 -573.41364 3407.1582 921860
0 0 0 0
56.836418 -516.03497 3066.2207 4277559
76.544182 -526.19226 3126.574 3817265
93.755676 -518.57294 3081.3008 3225128
112.68328 -521.38495 3098.0095 3554094
133.26804 -529.99719 3149.1824 3620144
149.93797 -522.83655 3106.6348 3620144
167.20821 -519.11023 3084.4934 3554350
187.24974 -523.87396 3112.7988 3554350
204.0826 -519.61108 3087.4692 3554350
223.83022 -522.86066 3106.7778 3422765
248.90379 -537.10748 3191.4312 3488301
260.36194 -522.03662 3101.8818 3882803
286.3877 -536.23608 3186.2534 3487791
304.84033 -535.37347 3181.1277 3093035
0 0 0 0
311.81595 -487.17249 2894.7229 256
328.33298 -486.14557 2888.6213 0
344.69946 -485.00897 2881.8677 0
359.99356 -482.54257 2867.2124 0
375.75952 -480.90305 2857.4707 0
392.10855 -480.11929 2852.814 0
407.97672 -478.83618 2845.1897 0
424.20508 -478.06125 2840.585 0
440.33148 -477.23508 2835.676 0
457.0361 -477.07339 2834.7153 0
473.33197 -476.51169 2831.3779 0
489.62057 -475.98157 2828.2278 0
506.18069 -475.74179 2826.8032 0
522.41772 -475.22357 2823.7239 0
538.86548 -474.92331 2821.9399 0
555.07697 -474.43921 2819.0635 0
571.10223 -473.82898 2815.4375 0
586.68805 -472.89938 2809.9138 0
604.0954 -473.44879 2813.1782 0
621.76428 -474.16806 2817.4521 0
639.75836 -475.09103 2822.9365 0
657.72699 -475.94846 2828.031 0
675.02979 -476.29327 2830.0801 0
692.9707 -477.06067 2834.6399 0
711.26074 -478.02625 2840.3772 0
728.24487 -478.08975 2840.7544 0
745.57574 -478.3728 2842.4363 256
761.02747 -477.46436 2837.0383 526597
773.12512 -474.53662 2819.6421 2895399
821.15088 -493.31738 2931.2354 3224621
844.6156 -496.86893 2952.3381 3093035
867.83954 -500.13705 2971.7568 3224621
898.45551 -507.44974 3015.208 3355952
927.0047 -513.33185 3050.1589 3290159
952.39514 -517.27264 3073.5745 3158573
980.92688 -522.73901 3106.0554 3093036
1010.5944 -528.59747 3140.8657 2961192
1037.2632 -532.70337 3165.2622 2763814
1054.9072 -532.11072 3161.7407 2961193
1077.9222 -534.2005 3174.1582 3421999
1092.1222 -531.92499 3160.6372 3356206
1108.8586 -530.94092 3154.7903 1842966
1104.8354 -520.21497 3091.0574 1645587
1118.246 -517.91431 3077.3875 1842453
1137.7633 -518.47058 3080.6929 1711380
1113.5016 -499.37555 2967.2322 1645587
1160.7775 -512.45837 3044.969 1843224
1091.079 -474.29077 2818.1814 1776918
1103.2332 -472.32089 2806.4766 1842711
1096.1321 -462.28885 2746.8674 2039832
1096.9828 -455.85574 2708.6426 1974039
1217.7233 -498.70868 2963.2698 2040088
1097.2458 -442.95935 2632.0137 2105881
1111.4797 -442.39624 2628.6677 2303516
1111.0933 -436.1102 2591.3167 2171929
1213.6378 -469.84451 2791.7622 2303258
1137.0552 -434.25739 2580.3074 2303258
1258.7792 -474.34558 2818.5071 2434844
1156.6064 -430.11792 2555.7114 2500893
1242.2301 -455.96927 2709.3171 2435102
1234.0483 -447.1676 2657.0186 2566430
1178.8418 -421.76395 2506.073 2500894
1181.4692 -417.42795 2480.3091 2435101
1188.1541 -414.61475 2463.5933 2961446
1186.46 -408.98172 2430.1226 3158827
1152.7579 -392.58368 2332.687 3949112
1181.2126 -397.49191 2361.8513 3949628
1184.416 -393.88733 2340.4331 3554356
1207.5016 -396.90164 2358.344 4805968
1212.4497 -393.95349 2340.8264 3225140
1235.3759 -396.84738 2358.0217 256
1215.0697 -385.94449 2293.2378 0
1223.6046 -384.34265 2283.72 0
1231.9851 -382.72806 2274.1262 65536
1230.5087 -378.11957 2246.7432 0
1231.6748 -374.41345 2224.7217 0
1225.4491 -368.56287 2189.9583 0
1217.1278 -362.2117 2152.2202 0
1225.0397 -360.77332 2143.6736 0
1225.499 -357.19235 2122.396 0
1227.7378 -354.19781 2104.6028 2
1240.6592 -354.31445 2105.2959 4
1213.0652 -342.97375 2037.9106 1580831
1210.3235 -338.81442 2013.1964 6119777
1228.688 -340.5871 2023.7295 6449253
1241.3243 -340.75296 2024.7151 1711899
1239.5568 -336.99966 2002.4133 3685942
1248.0852 -336.0903 1997.01 4408894
1260.5266 -336.24188 1997.9106 4342839
1264.5044 -334.15402 1985.5049 4408119
1268.6942 -332.16034 1973.6586 4408373
1268.4631 -329.05634 1955.215 4342580
1273.9568 -327.48032 1945.8503 4539188
1253.9523 -319.4371 1898.0586 4473395
1245.2036 -314.37918 1868.0051 4736566
1253.0945 -313.57458 1863.2242 4868153
1232.0781 -305.61371 1815.9216 4867896
1217.416 -299.35364 1778.725 4867896
1211.488 -295.33051 1754.8199 4867639
1212.9105 -293.15265 1741.8794 5064761
1215.8324 -291.37097 1731.293 4867896
1209.5734 -287.43756 1707.9209 4867896
1213.7845 -286.03699 1699.599 4802103
1220.438 -285.23032 1694.8059 4867896
1215.791 -281.81747 1674.5271 4473138
1225.478 -281.75562 1674.1597 5131068
1241.219 -283.07553 1682.0023 4999481
1252.3331 -283.32748 1683.4995 5196604
1263.6071 -283.61136 1685.1862 4933689
1263.2926 -281.31024 1671.5132 4604724
1272.594 -281.16959 1670.6774 4275503
1282.7692 -281.22269 1670.9929 5459263
1292.7041 -281.22269 1670.9929 5327420
1300.7147 -280.80725 1668.5245 5459260
1309.426 -280.54825 1666.9855 5524797
1315.6871 -279.77209 1662.3738 5393211
1325.1036 -279.67352 1661.788 5590333
1335.9579 -279.87759 1663.0006 5590589
1344.4994 -279.59772 1661.3375 5524796
1351.817 -279.06927 1658.1975 5195829
1364.5973 -279.668 1661.7551 5590075
1375.2213 -279.8194 1662.6548 5655867
1384.644 -279.72595 1662.0995 5524538
1382.8385 -277.38156 1648.1693 5656383
1361.8583 -271.25101 1611.7423 5590590
1432.511 -283.32977 1683.5129 5787968
1428.6921 -280.61377 1667.3748 5524797
1397.3094 -272.55856 1619.5116 5721919
1466.5795 -284.11252 1688.1641 5590589
1476.6165 -284.11252 1688.1641 5590592
1419.9725 -271.36923 1612.4448 5590335
1397.3507 -265.25513 1576.1156 5392956
1503.4211 -283.48911 1684.4597 5787971
1495.7366 -280.17371 1664.76 5656383
1508.3262 -280.67462 1667.7363 5853508
1542.4552 -285.15091 1694.3341 5590590
1556.2582 -285.83588 1698.4039 5524797
1567.338 -286.01505 1699.4686 5787456
1478.7277 -268.11658 1593.1179 5721663
1592.2163 -286.85641 1704.4679 5655870
1620.6362 -290.13 1723.9192 5919042
1511.0481 -268.81125 1597.2455 5787199
1636.3593 -289.28568 1718.9022 5655870
1647.927 -289.52249 1720.3094 5590077
1649.1355 -287.94763 1710.9518 5721663
1660.2903 -288.11807 1711.9646 5655870
0 0 0 0
0 0 0 0
0 0 0 0
0 0 0 0
0 0 0 0
0 0 0 0
0 0 0 0
0 0 0 0
0 0 0 0
0 0 0 0
0 0 0 0
0 0 0 0
0 0 0 0
-1541.0251 -294.50922 1814.0248 3092003
-1531.4015 -294.73276 1815.4017 2895135
-1520.9756 -294.80402 1815.8407 3224098
-1512.0138 -295.16208 1818.0461 3158305
-1502.0304 -295.32446 1819.0463 3224098
-1501.084 -297.27887 1831.0845 3092511
-1493.2499 -297.88785 1834.8354 3026720
-1488.0404 -299.0332 1841.8903 3355684
-1488.1124 -301.26477 1855.6356 3026719
-1490.2454 -303.95001 1872.1754 2895133
-1484.3331 -305.02243 1878.7809 2566168
-1481.8015 -306.8111 1889.7982 3158305
-1480.2072 -308.82266 1902.1882 2697754
-1482.3942 -311.66019 1919.6659 2632217
-1465.1951 -310.43433 1912.1154 2762777
-1473.7063 -314.6792 1938.2616 2499605
-1465.7002 -315.43631 1942.9249 2631191
-1459.6212 -316.62344 1950.2371 2499348
-1450.7998 -317.22995 1953.9728 2105104
-1436.6914 -316.68085 1950.5906 1512968
-1452.9409 -322.8689 1988.7058 1513482
-1453.7581 -325.70099 2006.15 1315848
-1455.0009 -328.67606 2024.4751 658433
-1443.7809 -328.86206 2025.6207 512
-1429.7159 -328.39774 2022.7605 256
-1411.413 -326.94379 2013.8051 256
-1398.2565 -326.66733 2012.1022 0
-1383.2469 -325.9494 2007.6802 0
-1367.0641 -324.94009 2001.4634 0
-1352.6052 -324.32648 1997.6838 395015
-1341.9265 -324.61639 1999.4695 263684
-1332.4888 -325.21439 2003.1528 723981
-1324.5817 -326.2001 2009.2244 264200
-1311.3257 -325.87451 2007.2189 395786
-1300.2878 -326.09924 2008.603 329994
-1297.7183 -328.47159 2023.2155 264201
-1289.0972 -329.34225 2028.5784 198408
-1269.6007 -327.42465 2016.767 198408
-1255.4707 -326.86768 2013.3362 132615
-1241.885 -326.44305 2010.7207 66308
-1224.5972 -325.02753 2002.002 264201
-1211.1248 -324.60687 1999.411 395274
-1197.9037 -324.24591 1997.1875 515
-1185.3247 -324.05325 1996.0009 258
-1172.7159 -323.84845 1994.7395 515
-1161.1658 -323.93484 1995.2715 395787
-1152.9441 -324.96112 2001.5929 593166
-1146.2911 -326.45557 2010.7979 263688
-1131.9553 -325.77042 2006.5778 1579547
-1134.1908 -329.89059 2031.9559 987411
-1123.6157 -330.33334 2034.6831 515
-1111.3059 -330.27017 2034.2938 790288
-1106.0137 -332.31412 2046.8834 1052948
-1094.6788 -332.56775 2048.4458 1
-1088.5261 -334.41919 2059.8496 2
-1081.8395 -336.14682 2070.491 2
-1074.8164 -337.8085 2080.7261 2
-1078.825 -343.01642 2112.8042 256
-1069.5826 -344.08423 2119.3813 256
-1054.7456 -343.35626 2114.8975 256
-1048.9365 -345.58505 2128.6257 256
-1044.8011 -348.42648 2146.1274 256
-1042.9885 -352.12238 2168.8921 256
-1033.7402 -353.36896 2176.5706 256
-1022.9063 -354.09833 2181.063 256
-1024.2422 -359.11328 2211.9526 0
-1028.1549 -365.17392 2249.283 0
-1019.8031 -366.98087 2260.4128 0
-1007.3375 -367.33588 2262.5996 0
-996.81873 -368.42017 2269.2781 0
-989.06635 -370.57059 2282.5237 0
-981.48828 -372.84708 2296.5457 0
-973.10236 -374.87659 2309.0464 0
-960.08887 -375.15594 2310.7671 0
-945.10864 -374.66373 2307.7354 65536
-934.3631 -375.86053 2315.1069 65536
-920.59869 -375.86057 2315.1072 65792
-975.9389 -404.50278 2491.5283 328960
-957.91846 -403.15302 2483.2146 132096
0 0 0 0
-1273.5427 -553.03503 3406.4106 526592
-1248.8965 -551.09644 3394.4697 723971
-1222.6136 -548.35999 3377.6147 526852
-1197.6858 -546.15009 3364.0027 1053196
-1210.9695 -561.58569 3459.0781 1118990
-1189.6378 -561.22443 3456.853 1381906
-1170.5656 -561.93512 3461.2307 1579541
-1152.8228 -563.32092 3469.7661 1514262
-1126.0261 -560.25244 3450.866 1645590
-1071.986 -543.26361 3346.2234 1711127
-1004.9388 -518.91583 3196.2537 1711127
-1030.6299 -542.43921 3341.1458 1908506
-979.65002 -525.74097 3238.2932 1776920
-975.27869 -533.88763 3288.4724 1974299
-938.46442 -524.24438 3229.075 1974299
-910.23956 -519.09674 3197.3682 1908761
-879.97748 -512.54297 3157.0002 1974810
-854.49609 -508.54868 3132.3975 1974554
-823.5094 -501.02692 3086.0674 2040603
-828.85004 -515.76776 3176.8633 2106140
-783.83716 -499.13199 3074.3955 1974554
-770.66034 -502.4584 3094.8845 2369312
-812.42041 -542.64166 3342.3926 2303521
-735.96484 -503.90012 3103.7649 2238240
-760.27026 -533.9292 3288.7285 2238240
-770.22894 -555.20209 3419.7585 2435619
-707.62653 -523.90643 3226.9934 2369827
-679.81671 -517.34375 3186.5706 2369827
-670.92834 -525.21686 3235.0649 2501413
-663.14551 -534.44568 3291.9097 2501413
-649.61194 -539.46027 3322.7969 2435621
-641.28333 -549.24731 3383.0801 2501415
-635.09894 -561.56415 3458.9456 2633001
-622.42444 -568.77472 3503.3586 2633001
-611.45386 -578.09552 3560.77 2567208
-591.04266 -578.83917 3565.3506 2633001
-577.89447 -587.01575 3615.7144 2633000
-561.5318 -592.43286 3649.0811 2501156
-536.54297 -588.81879 3626.8198 856073
-516.67719 -590.75958 3638.7744 2435105
-497.50137 -593.69348 3656.8455 2171932
-477.18103 -595.46722 3667.771 2303519
-458.81097 -599.96112 3695.4512 2698277
-436.71564 -599.79083 3694.4021 2632484
-414.32404 -599.17395 3690.6023 2500898
-399.61426 -610.21844 3758.6306 2435102
-368.35132 -595.797 3669.8022 2435103
-344.41791 -592.16138 3647.4084 2303516
-322.19919 -591.18323 3641.3838 2632479
-301.89288 -593.82593 3657.6616 2369307
-280.55011 -594.68201 3662.9343 2238235
-259.86047 -597.18311 3678.3398 2764323
-238.13248 -597.53827 3680.5276 2435102
-215.08112 -594.30865 3660.6348 2435101
-191.20187 -587.80676 3620.5864 2566687
-164.47412 -569.78699 3509.5938 2500893
-146.62482 -581.75732 3583.325 2435100
-126.37402 -586.64941 3613.4578 2566175
-104.8718 -586.54633 3612.823 2566175
-83.299767 -585.89929 3608.8374 2434846
-60.475964 -572.94391 3529.0388 2434844
-40.348835 -585.34399 3605.417 2303258
-19.018778 -588.62262 3625.6118 2171928
2.4647877 -571.80426 3522.0193 1842964
22.275284 -544.20569 3352.0264 790276
0 0 0 0
56.982639 -499.08545 3074.1089 4015160
76.548035 -507.62875 3126.7312 4080693
93.811447 -500.55063 3083.1338 3159592
113.78821 -507.89764 3128.3875 3554350
133.05598 -510.46021 3144.1716 3554605
151.89992 -510.9657 3147.2852 3620143
167.49773 -501.63852 3089.8345 3685936
186.50859 -503.36652 3100.478 3817521
206.62358 -507.49554 3125.9106 3817521
226.25781 -509.85974 3140.4729 3488557
249.47792 -519.32806 3198.7927 3356970
268.91895 -520.14551 3203.8279 3356456
287.34326 -519.01825 3196.8848 3421995
301.07019 -510.07266 3141.7844 3224618
307.45303 -490.45682 3020.9609 526598
315.85568 -476.05051 2932.2256 0
328.42523 -469.10309 2889.4331 65536
344.20471 -467.20328 2877.7312 0
359.75867 -465.19183 2865.3418 0
375.81729 -463.98532 2857.9102 0
392.15668 -463.21478 2853.1641 0
408.05511 -462.00891 2845.7366 0
424.38678 -461.37009 2841.8018 0
440.67084 -460.73035 2837.8613 0
457.25464 -460.43967 2836.0708 0
473.63852 -459.97546 2833.2117 0
490.18893 -459.69937 2831.511 0
506.5639 -459.28247 2828.9431 0
522.59875 -458.59396 2824.7024 0
539.13843 -458.3775 2823.3691 0
555.49634 -458.02432 2821.1934 0
571.96216 -457.77814 2819.677 0
588.63763 -457.70895 2819.2512 0
605.83777 -458.04034 2821.2922 0
623.45654 -458.66183 2825.1204 0
640.79919 -459.05289 2827.5291 0
658.66437 -459.78873 2832.0615 0
676.20532 -460.26721 2835.0085 65536
694.85339 -461.45764 2842.3411 0
712.94879 -462.23325 2847.1184 256
730.66852 -462.73495 2850.2085 256
752.22736 -465.59009 2867.7949 855818
769.08966 -465.47626 2867.0935 2171931
776.14984 -459.56335 2830.6733 2435104
823.32794 -477.15143 2939.0068 2895653
846.5163 -480.39444 2958.9819 3093032
874.65802 -486.25909 2995.1052 3158828
896.40515 -488.4057 3008.3271 3290414
922.82825 -492.96613 3036.417 3224366
957.22424 -501.5289 3089.1592 3026986
984.052 -505.87854 3115.9509 3093035
1010.5944 -509.92352 3140.8657 3027242
1038.9326 -514.71143 3170.3569 2698277
1063.3407 -517.41626 3187.0171 3093035
1078.1143 -515.42035 3174.7234 3158827
1096.2407 -515.06854 3172.5564 3290411
1118.1525 -516.47699 3181.2319 1842966
1125.6876 -511.30853 3149.397 1645587
1117.3628 -499.22318 3074.9573 1973783
1140.9536 -501.55676 3089.3311 1843222
1127.4847 -487.78339 3004.4939 1777429
1139.0619 -485.10629 2988.0044 1908759
1102.5865 -462.36093 2847.9048 1908759
1137.3934 -469.74319 2893.3757 1974039
1146.8469 -466.59052 2873.9568 2039832
1098.9857 -440.55441 2713.5879 2039833
1099.713 -434.4678 2676.0974 2039832
1106.9458 -431.08823 2655.2812 2105625
1261.7386 -484.46143 2984.0325 1908759
1131.1482 -428.29712 2638.0894 1974551
1234.1862 -460.92014 2839.0303 2106136
1142.6028 -420.95999 2592.8965 2237464
1147.9926 -417.31531 2570.447 2369564
1162.8113 -417.1489 2569.4219 2501148
1164.9702 -412.50409 2540.8125 2435354
1232.2863 -430.75436 2653.2246 2434842
1242.972 -428.99792 2642.406 2566940
1185.1053 -403.92062 2487.9426 2632479
1194.131 -401.97946 2475.9861 2895652
1183.3063 -393.48474 2423.6631 3158826
1179.2439 -387.41608 2386.2832 3948859
1180.4164 -383.19107 2360.2593 4409410
1188.618 -381.32031 2348.7366 3620666
1199.8478 -380.45322 2343.3955 5002320
1209.5548 -379.12872 2335.2373 2962226
1218.5632 -377.61777 2325.9307 256
1226.3325 -375.76108 2314.4944 0
1221.1803 -370.03021 2279.1953 0
1232.5651 -369.38104 2275.1968 65536
1230.4713 -364.75052 2246.675 65536
1225.9587 -359.51013 2214.397 65536
1224.5151 -355.27148 2188.2891 65536
1226.0277 -351.97067 2167.9578 65536
1227.9406 -348.85223 2148.7498 0
1231.0167 -346.12512 2131.9521 0
1230.5786 -342.47549 2109.4724 2
1241.0686 -341.91022 2105.9905 258
0 0 0 0
1202.5961 -324.75821 2000.343 5857374
1229.2242 -328.69839 2024.6127 6120289
1239.3082 -328.18115 2021.4266 1842712
1242.5267 -325.87326 2007.2112 4145978
1251.316 -325.05637 2002.1796 4474683
1260.509 -324.35876 1997.8827 4540216
1265.407 -322.57935 1986.9222 4408631
1266.1521 -319.78394 1969.704 4342838
1265.6644 -316.73123 1950.901 4342578
1263.6775 -313.36224 1930.1497 4342321
1245.9755 -306.19196 1885.9844 4473394
1237.5376 -301.40591 1856.5049 4407602
1221.2595 -294.81183 1815.8888 4604981
1224.2921 -292.95407 1804.446 4736566
1215.6008 -288.34766 1776.0728 4802103
1216.0094 -285.96048 1761.3691 4538931
1209.6115 -282.02713 1737.1416 4999482
1215.6002 -281.02393 1730.9625 4933689
1212.4974 -277.95346 1712.0499 4802103
1215.9038 -276.41382 1702.5664 4736310
1214.2155 -273.75098 1686.1648 4604722
1222.7482 -273.41727 1684.1093 4473136
1233.2148 -273.51791 1684.7292 4670771
1242.4447 -273.34482 1683.6631 4933687
1253.5298 -273.57941 1685.108 4932918
1263.8171 -273.63757 1685.4663 5459263
1269.111 -272.62213 1679.2117 4472368
1272.8082 -271.28223 1670.9586 4406576
1283.4119 -271.42374 1671.8302 5393473
1292.8763 -271.32394 1671.2156 5524800
1300.0337 -270.74521 1667.6509 5392957
1310.252 -270.80789 1668.037 5722175
1319.7246 -270.71671 1667.4752 5590590
1327.462 -270.27356 1664.7456 5590847
1336.6018 -270.12036 1663.8021 5656380
1345.4777 -269.91647 1662.5463 5722174
1354.8477 -269.814 1661.9149 5656381
1363.0125 -269.47473 1659.8252 5459001
1371.2931 -269.16306 1657.9055 5393210
1385.0908 -269.931 1662.6357 5853762
1384.0784 -267.8223 1649.6471 5722175
1371.1945 -263.46225 1622.7916 5590590
1373.1477 -261.99405 1613.7482 5656126
1408.8159 -266.93436 1644.1779 5459004
1432.218 -269.49844 1659.9714 5722175
1450.527 -271.07565 1669.6862 5590590
1448.3458 -268.82825 1655.8433 5656382
1443.1608 -266.05734 1638.776 5524796
1471.915 -269.53867 1660.2192 5656383
1478.8253 -269.00015 1656.9021 5656129
1489.7734 -269.19836 1658.123 5853252
1502.9193 -269.78848 1661.7579 5722177
1516.1558 -270.38708 1665.4449 5919555
1538.5004 -272.59171 1679.0242 5722176
1449.1929 -255.11285 1571.3636 5590333
1502.8522 -262.86432 1619.1086 5656383
1593.6957 -276.97961 1706.0516 5722175
1478.969 -255.41483 1573.2235 5984835
1611.1166 -276.48782 1703.0223 5853248
1631.943 -278.31281 1714.2633 5655613
1641.1097 -278.13901 1713.1927 5721663
1649.1355 -277.77518 1710.9518 5590076
1551.4001 -259.71097 1599.6855 5589820
0 0 0 0
0 0 0 0
0 0 0 0
0 0 0 0
0 0 0 0
0 0 0 0
0 0 0 0
0 0 0 0
0 0 0 0
0 0 0 0
0 0 0 0
0 0 0 0
0 0 0 0
-1515.1703 -278.96368 1783.5896 3486248
-1514.9855 -280.89557 1795.9414 3223330
-1521.0087 -284.0141 1815.8801 3157537
-1506.03 -283.22757 1810.8512 3354657
-1500.6653 -284.2507 1817.3929 3288865
-1538.6027 -293.55035 1876.8513 3289122
-1500.6448 -288.40002 1843.922 3091742
-1488.0404 -288.08224 1841.8903 3157793
-1485.8939 -289.79941 1852.8691 2960412
-1494.0603 -293.5686 1876.968 2763547
-1490.707 -295.11398 1886.8486 2763547
-1479.5701 -295.13022 1886.9524 2631961
-1479.7583 -297.42297 1901.6115 2566168
-1481.264 -300.01791 1918.2024 2829339
-1479.0553 -301.89493 1930.2034 2960670
-1471.6578 -302.73392 1935.5675 2697754
-1466.8945 -304.13226 1944.5081 2566168
-1459.3713 -304.97607 1949.9032 2368789
-1450.7284 -305.59756 1953.8766 2105617
-1452.6459 -308.47159 1972.252 1381124
-1455.0575 -311.49817 1991.6028 1184514
-1450.7754 -313.12967 2002.0341 1184517
-1449.5752 -315.45886 2016.926 855553
-1440.9675 -316.20139 2021.6736 512
-1429.0983 -316.23471 2021.8867 512
-1413.1323 -315.3544 2016.2582 256
-1398.5205 -314.76379 2012.4821 256
-1381.7968 -313.68353 2005.5753 256
-1367.5972 -313.16248 2002.2439 0
-1356.2693 -313.29565 2003.0953 328965
-1350.0958 -314.63235 2011.6418 329478
-1335.0261 -313.90125 2006.9672 461064
-1320.533 -313.2937 2003.0829 329478
-1308.0212 -313.14951 2002.1609 461321
-1293.2467 -312.4559 1997.7263 198151
-1291.8966 -315.02298 2014.1392 132358
-1278.2001 -314.5993 2011.4303 132615
-1267.7987 -314.98624 2013.9043 66565
-1252.8263 -314.2341 2009.0953 260
-1236.8287 -313.20789 2002.5342 771
-1223.4985 -312.84372 2000.2058 258
-1211.3409 -312.77521 1999.7678 2
-1198.4734 -312.52017 1998.1372 2
-1185.5535 -312.24628 1996.386 516
-1174.4133 -312.44034 1997.6267 198408
-1166.863 -313.60312 2005.0612 461580
-1153.1416 -313.11426 2001.9357 198151
-1138.176 -312.27386 1996.5624 395530
-1131.5397 -313.7251 2005.8411 1118738
-1132.1917 -317.24945 2028.3745 131843
-1127.2971 -319.27881 2041.3495 987410
-1109.7913 -317.74164 2031.5212 1184789
-1106.1215 -320.17557 2047.0829 1250583
-1100.8156 -322.18478 2059.9292 1
-1089.5642 -322.47958 2061.814 256
-1081.8395 -323.8367 2070.491 256
-1074.4442 -325.32486 2080.0056 0
-1067.2546 -326.91064 2090.1445 256
-1072.693 -332.44745 2125.5447 256
-1061.5312 -332.91025 2128.5037 256
-1053.2358 -334.29395 2137.3506 256
-1044.1407 -335.45453 2144.771 256
-1038.5984 -337.79935 2159.7629 256
-1032.4286 -339.99628 2173.8091 256
-1020.6143 -340.36646 2176.176 256
-1023.2269 -345.6192 2209.76 0
-1042.3558 -356.65994 2280.3503 0
-1025.2838 -355.44165 2272.561 0
-1017.4298 -357.42914 2285.2683 0
-1004.2453 -357.57248 2286.1848 0
-995.73212 -359.40579 2297.9065 0
-986.71698 -361.10651 2308.78 0
-971.20331 -360.44339 2304.5403 0
-961.41974 -361.91827 2313.9702 0
-945.1087 -360.94315 2307.7356 0
-938.91766 -363.86111 2326.3921 65536
-916.34619 -360.42343 2304.4128 65792
-970.41571 -387.48398 2477.4277 197376
0 0 0 0
0 0 0 0
0 0 0 0
-1248.0364 -530.54901 3392.1321 723972
-1222.6136 -528.27838 3377.6147 592643
-1227.2683 -539.1452 3447.0928 1053450
-1205.7 -538.66553 3444.0261 1185036
-1189.3226 -540.5285 3455.937 1185036
-1170.255 -541.21277 3460.3123 1448208
-1124.4475 -529.3338 3384.3625 1514003
-1106.8103 -530.52466 3391.9766 1645589
-1067.7937 -521.3219 3333.1372 1645589
-1046.5757 -520.62494 3328.6814 1776920
-1044.8284 -529.77374 3387.1753 1842713
-957.08478 -494.82126 3163.7024 1579541
-973.31097 -513.29834 3281.8379 1974299
-942.15289 -507.03091 3241.7661 1908761
-910.83704 -500.41504 3199.4668 1842968
-903.96637 -507.23361 3243.0623 1974554
-865.41565 -496.18576 3172.4263 2040346
-846.11676 -495.92944 3170.7876 2303519
-797.77875 -478.25308 3057.7715 1777431
-780.63531 -478.88892 3061.8369 2171933
-767.58148 -482.1239 3082.5203 2237726
-803.16632 -516.8147 3304.3203 2303519
-757.96289 -499.95679 3196.5369 2238238
-719.77026 -486.97498 3113.5361 2238494
-705.54413 -489.9509 3132.563 2304031
-694.61475 -495.43961 3167.6558 2172701
-678.6087 -497.51239 3180.9082 2435874
-691.17786 -521.25409 3332.7036 2304033
-663.79309 -515.37646 3295.1245 2435619
-655.63855 -524.526 3353.6233 2435620
-669.8645 -552.71606 3533.8599 2435620
-633.34528 -539.50519 3449.3948 2501413
-624.61462 -549.87354 3515.686 2567206
-607.60028 -553.41498 3538.3286 2369827
-594.48328 -560.88745 3586.105 2501413
-572.93115 -560.66156 3584.6604 2632999
-551.33765 -560.37592 3582.8345 2501413
-537.99915 -568.79504 3636.6631 592647
-515.35193 -567.66553 3629.4414 2369312
-496.9202 -571.28357 3652.5737 2237726
-477.35526 -573.87 3669.1104 2171933
-458.72565 -577.88239 3694.7639 2566688
-436.61469 -577.69214 3693.5479 2566690
-415.77823 -579.25745 3703.5557 2632484
-393.56631 -578.9743 3701.7456 2566690
-370.45291 -577.25299 3690.74 2500896
-348.72012 -577.60168 3692.9692 2500895
-326.08932 -576.40979 3685.3489 2435102
-301.89288 -572.07935 3657.6616 2435101
-277.56537 -566.80896 3623.9648 2303516
-256.40625 -567.66608 3629.4448 2566687
-234.52667 -566.93909 3624.7969 2303514
-210.82983 -561.22754 3588.2791 2435101
-189.57851 -561.47266 3589.8462 2369308
-167.37787 -558.61176 3571.5547 2500894
-145.41122 -555.81384 3553.666 2435100
-126.14661 -564.14856 3606.9551 855304
-102.49095 -552.23792 3530.803 460803
-78.291878 -530.50922 3391.8777 2171418
-60.994648 -556.69604 3559.3064 2500638
-40.235706 -562.32697 3595.3083 2040086
-18.918526 -564.07745 3606.5005 2172184
2.4806054 -554.39923 3544.6216 1974550
22.275284 -524.27625 3352.0264 790278
39.643547 -492.46054 3148.6086 2106394
57.90971 -488.63074 3124.1226 3948597
76.75679 -490.37247 3135.2583 4080439
93.704185 -481.66852 3079.6086 3422251
112.64957 -484.40161 3097.0828 3619629
132.98296 -491.49667 3142.446 3619629
151.89992 -492.25354 3147.2852 3488042
171.25304 -494.10284 3159.1089 3750958
190.65244 -495.70688 3169.3645 3553836
206.41263 -488.41132 3122.7195 3619628
229.83578 -498.95557 3190.1355 3488300
249.53889 -500.43185 3199.5745 3619375
267.50546 -498.46326 3186.9878 3685167
282.1842 -491.03384 3139.4868 3553326
304.34576 -496.73944 3175.9663 3355947
318.85178 -490.01337 3132.9624 1381647
316.23502 -459.16769 2935.7468 65536
328.88748 -452.56003 2893.4998 65536
344.48145 -450.4556 2880.0449 65536
360.00757 -448.466 2867.324 65536
376.13635 -447.37311 2860.3364 0
392.2511 -446.35873 2853.8511 0
408.12772 -445.16879 2846.2429 0
424.50146 -444.59427 2842.5696 0
440.91699 -444.1058 2839.4465 0
457.06979 -443.39844 2834.9241 0
473.78354 -443.2663 2834.0791 0
490.40051 -443.05573 2832.7329 0
506.89124 -442.74893 2830.7712 0
522.84857 -442.01089 2826.0525 0
539.56439 -441.94006 2825.5996 0
555.9422 -441.60507 2823.4578 65536
572.45062 -441.39038 2822.0852 65536
589.22058 -441.38379 2822.0432 65536
606.63934 -441.85019 2825.0249 65536
624.05103 -442.28644 2827.8142 65536
641.57935 -442.78024 2830.9714 65536
660.26605 -444.02786 2838.9482 196608
678.26306 -444.76102 2843.6357 131072
696.25665 -445.45627 2848.0811 65536
716.57806 -447.57254 2861.6116 395010
739.05859 -450.90793 2882.9368 1382160
753.9657 -449.57617 2874.4221 1250830
793.30786 -462.55075 2957.3765 2171931
805.70105 -459.5903 2938.4487 2698275
827.24854 -461.86655 2953.0022 3093033
849.76831 -464.57974 2970.3494 3027240
875.31567 -468.80392 2997.3572 3093035
902.13391 -473.52667 3027.5527 3093035
926.05176 -476.57199 3047.0232 3158828
968.25061 -488.72794 3124.7437 3224620
986.10822 -488.37106 3122.4619 3158826
1011.0924 -491.49161 3142.4136 2895652
1038.6783 -495.74069 3169.5806 2369308
1059.4794 -496.65778 3175.4441 3093031
1084.8456 -499.64523 3194.5452 3158824
1103.906 -499.67575 3194.74 2961444
1111.8301 -494.74963 3163.2444 1579792
1129.9304 -494.44037 3161.2671 1777173
1123.1716 -483.44122 3090.9426 1710867
1130.306 -478.67999 3060.501 1710867
1139.3115 -474.84943 3036.0098 1710867
1155.1738 -473.9516 3030.2695 1974039
1211.4291 -489.39954 3129.0376 1974039
1117.8324 -444.75778 2843.615 1908246
1108.1393 -434.33203 2776.9568 1908246
1096.4003 -423.42236 2707.2043 2105625
1104.6736 -420.44507 2688.1687 2105626
1254.4303 -470.63419 3009.0591 1974550
1114.1134 -412.11301 2634.8965 1974807
1227.2744 -447.67664 2862.2771 1711378
1128.0585 -405.8576 2594.9019 2237722
1182.6753 -419.76691 2683.8328 2303768
1150.3611 -402.86218 2575.7502 2435354
1163.1974 -402.00586 2570.2751 2435356
1170.7633 -399.37384 2553.447 2501148
1183.6619 -398.60507 2548.5317 2303255
1188.9954 -395.34033 2527.6584 2435355
1186.2432 -389.50217 2490.3313 2632734
1180.8225 -382.94257 2448.3916 2500894
1172.0419 -375.46628 2400.5911 3224619
1183.2067 -374.48264 2394.302 3949112
1177.676 -368.30112 2354.7798 4475715
1202.4164 -371.62048 2376.0024 3159599
1204.4058 -367.9129 2352.2976 4609360
1216.23 -367.26025 2348.1248 2830898
1215.9366 -363.00482 2320.9172 257
1212.9503 -358.04999 2289.2378 0
1224.9353 -357.57541 2286.2036 0
1231.0269 -355.40979 2272.3574 65536
1230.8589 -351.5036 2247.3826 65536
1226.4456 -346.48193 2215.2761 65536
1228.1556 -343.27856 2194.7949 65536
1219.8309 -337.36722 2157 65536
1229.1746 -336.41458 2150.9092 65536
1231.0171 -333.44968 2131.9526 65536
1230.6115 -329.94244 2109.5288 257
1242.2618 -329.70575 2108.0154 258
0 0 0 0
1201.8644 -312.6748 1999.1259 5923168
1225.6027 -315.72812 2018.6477 5791325
1243.2861 -317.17758 2027.9149 1711125
1241.981 -313.80145 2006.3293 4145720
1251.0021 -313.07385 2001.6772 4474426
1261.363 -312.69208 1999.2363 4408888
1262.9607 -310.16531 1983.0811 4473912
1267.5936 -308.42377 1971.9464 4408374
1264.2838 -304.79932 1948.7728 4277045
1245.2056 -297.47369 1901.9355 4473396
1236.3457 -292.69904 1871.4083 4604981
1232.7839 -289.25266 1849.3735 4670775
1245.6982 -289.69891 1852.2267 4867896
1224.3112 -282.23016 1804.4741 4736310
1212.5109 -277.08188 1771.5581 4736310
1225.8466 -277.71686 1775.6179 4604723
1210.9003 -271.98843 1738.9924 4472882
1224.1614 -272.63922 1743.1532 4801846
1212.8346 -267.84891 1712.5259 4867896
1216.9974 -266.53073 1704.0978 4670774
1219.9047 -264.96158 1694.0653 4406832
1225.204 -263.93341 1687.4917 4472625
1236.6512 -264.23563 1689.4238 4932919
1241.5389 -263.14264 1682.4358 5064761
1254.7905 -263.82571 1686.803 5064505
1264.7274 -263.80649 1686.6802 4998455
1273.8203 -263.61298 1685.4429 4603697
1275.8962 -261.98163 1675.0127 4603696
1290.1473 -262.85614 1680.604 5129528
1294.1653 -261.64835 1672.8817 5261627
1303.1853 -261.46252 1671.6937 5393211
1312.7891 -261.39578 1671.267 5327418
1319.4071 -260.73996 1667.074 5656127
1327.9188 -260.46542 1665.3185 5721917
1335.8499 -260.08182 1662.866 5459002
1348.5474 -260.62509 1666.3394 5524795
1354.0378 -259.77771 1660.9216 5459002
1363.6793 -259.73325 1660.6373 5458745
1359.5952 -257.09393 1643.7626 5590587
1385.0563 -260.03934 1662.5944 5722175
1371.8021 -255.72583 1635.0154 5722175
1381.8811 -255.79208 1635.4391 5656383
1392.2804 -255.91634 1636.2334 5656382
1422.2236 -259.60629 1659.8256 5590080
1377.5023 -249.71037 1596.5548 5721922
1418.3264 -255.35126 1632.6205 5656129
1448.3458 -258.98343 1655.8433 5853508
1439.8507 -255.72615 1635.0175 5722177
1445.6425 -255.03297 1630.5854 5590590
1478.8253 -259.14905 1656.9021 5853762
1513.5 -263.47034 1684.5309 5590590
1519.2742 -262.73688 1679.8414 5327417
1537.8495 -264.21231 1689.2748 5393208
1437.0934 -245.29973 1568.3549 5459001
1445.3259 -245.11452 1567.1707 5393208
1501.3558 -252.98576 1617.4965 5656380
1587.8197 -265.85245 1699.7612 5524282
1600.5916 -266.29599 1702.597 5787454
1609.3848 -266.0762 1701.1918 5590075
1617.5439 -265.75497 1699.1379 5590075
1630.1057 -266.15652 1701.7054 5655868
1644.2169 -266.8046 1705.8489 5721662
1651.204 -266.29575 1702.5956 5721663
0 0 0 0
0 0 0 0
0 0 0 0
0 0 0 0
0 0 0 0
0 0 0 0
0 0 0 0
0 0 0 0
0 0 0 0
0 0 0 0
0 0 0 0
0 0 0 0
0 0 0 0
-1526.6069 -270.38495 1797.0522 3091491
-1521.0063 -271.29172 1803.0789 3223331
-1505.7388 -270.47485 1797.6498 3354915
-1495.2179 -270.5051 1797.8507 3157278
-1496.3705 -272.66284 1812.1918 3223071
-1488.5414 -273.20343 1815.7845 3289120
-1532.9884 -283.4166 1883.6642 3157535
-1484.7332 -276.51535 1837.7965 3289121
-1480.2006 -277.71503 1845.7698 3091741
-1479.5819 -279.67239 1858.7789 3025949
-1501.5469 -285.96014 1900.5691 2565398
-1476.9319 -283.40512 1883.5878 2763547
-1478.365 -285.84756 1899.8209 2697754
-1477.2938 -287.83966 1913.061 2697754
-1466.4049 -287.93494 1913.6942 2500374
-1471.5052 -291.19583 1935.3669 2500374
-1465.7678 -292.3465 1943.0145 2434582
-1459.3713 -293.38297 1949.9032 2039824
-1454.4663 -294.73828 1958.911 1974031
-1456.3293 -297.49802 1977.2531 1315589
-1457.4452 -300.14883 1994.8711 1447687
-1450.5104 -301.17154 2001.6683 1118725
-1446.0137 -302.72162 2011.9705 987138
-1450.556 -306.20563 2035.1262 256
-1431.4325 -304.71048 2025.1891 256
-1414.7991 -303.72455 2018.6364 256
-1398.3201 -302.75516 2012.1935 256
-1383.2272 -302.07175 2007.6514 256
-1369.4132 -301.65817 2004.9026 0
-1357.6215 -301.68671 2005.0923 263685
-1344.0424 -301.31506 2002.6221 66306
-1330.7656 -301.00513 2000.5623 329478
-1317.2979 -300.64606 1998.1757 526857
-1307.1814 -301.05225 2000.8754 329478
-1295.833 -301.17957 2001.7216 132101
-1285.5352 -301.55569 2004.2214 131844
-1272.1156 -301.19971 2001.8555 131844
-1258.15 -300.70648 1998.5774 2
-1250.1412 -301.64117 2004.7897 2
-1235.5774 -300.99695 2000.5079 2
-1223.3058 -300.90408 1999.8907 258
-1211.0774 -300.82013 1999.3328 131845
-1199.2349 -300.8313 1999.4069 66051
-1174.2386 -297.51001 1977.3328 263174
-1171.4424 -299.8031 1992.5731 723982
-1167.2239 -301.77533 2005.6813 723982
-1150.4197 -300.50076 1997.2101 658189
-1142.5872 -301.56757 2004.3004 1118483
-1130.527 -301.52927 2004.0458 1053461
-1119.3491 -301.72797 2005.3665 1711389
-1110.911 -302.67743 2011.6769 1514268
-1104.5229 -304.21222 2021.8773 1316889
-1101.2085 -306.63657 2037.9905 592396
-1098.2095 -309.20374 2055.0525 395015
-1088.7673 -309.99417 2060.3059 256
-1081.2762 -311.36441 2069.4128 256
-1073.1218 -312.57303 2077.4456 0
-1066.0944 -314.14178 2087.8721 256
-1055.7009 -314.74408 2091.875 256
-1059.8811 -319.75732 2125.1946 256
-1051.5757 -321.07941 2133.9814 256
-1042.4475 -322.1795 2141.293 256
-1036.0681 -324.16684 2154.5012 256
-1031.8413 -326.88583 2172.5725 256
-1020.4615 -327.37903 2175.8503 256
-1020.2253 -331.50577 2203.2778 0
-1045.3895 -344.10068 2286.9871 0
-1032.9233 -344.47791 2289.4941 0
-1022.5119 -345.55957 2296.6833 0
-998.90283 -342.15002 2274.0225 0
-996.77014 -346.1041 2300.3022 0
-988.62177 -348.05026 2313.2371 0
-971.38 -346.80481 2304.9595 0
-958.6275 -347.14941 2307.2498 0
-948.95148 -348.63428 2317.1187 0
-935.31683 -348.68719 2317.4702 65536
-918.92719 -347.69916 2310.9036 65792
-907.6676 -348.65173 2317.2346 65536
-988.41193 -385.51874 2562.2627 131584
0 0 0 0
0 0 0 0
0 0 0 0
-1229.4196 -511.02582 3396.417 790021
-1231.8159 -520.57233 3459.8657 921864
-1205.3685 -518.04663 3443.0793 921863
-1188.1519 -519.46936 3452.5352 1316622
-1152.1705 -512.59381 3406.8384 1382417
-1148.9926 -520.32739 3458.238 1448210
-1105.6818 -509.83731 3388.5181 1579797
-1100.2361 -516.7417 3434.4065 1514003
-1069.5819 -511.84381 3401.8538 1711383
-1041.8789 -508.19669 3377.6138 1579541
-1004.7976 -499.74173 3321.4199 1711128
-966.30347 -490.23105 3258.2095 1710871
-949.14526 -491.37701 3265.8257 1776920
-911.77698 -481.8894 3202.7686 1974554
-889.73383 -480.26947 3192.002 2171933
-864.08777 -476.59167 3167.5583 2106140
-834.54749 -470.55426 3127.4321 1974554
-871.46045 -502.56485 3340.1831 2237726
-780.93842 -460.86371 3063.0261 2106140
-764.25079 -461.78427 3069.1445 2040347
-747.34705 -462.61615 3074.6731 2369312
-719.97687 -456.84839 3036.3394 2106654
-717.97253 -467.29343 3105.7598 2172447
-704.29688 -470.49307 3127.0254 2172447
-692.26471 -474.99387 3156.939 2304033
-710.11444 -500.82028 3328.5881 2567205
-665.43085 -482.76038 3208.5571 2304033
