# .PCD v0.7 - Point Cloud Data file format
VERSION 0.7
FIELDS x y z rgb
SIZE 4 4 4 4
TYPE F F F U
COUNT 1 1 1 1
WIDTH 1347
HEIGHT 1
VIEWPOINT 0 0 0 1 0 0 0
POINTS 1347
DATA ascii
287.01413 597.45227 1602.8513 458752
296.31769 596.99658 1601.6288 458752
305.43835 596.21228 1599.5247 458752
314.97812 596.26874 1599.676 458752
324.58981 596.45398 1600.1731 458752
334.34424 596.88348 1601.3254 458752
343.93805 597.01044 1601.6659 458752
354.1116 598.10974 1604.6152 458752
362.90781 596.88605 1601.3323 458752
372.18152 596.49011 1600.2701 458752
382.6431 597.97034 1604.2412 458752
390.59048 595.5451 1597.7347 458752
401.28909 597.3302 1602.5239 458752
408.53033 594.00555 1593.6045 458752
419.65097 596.34448 1599.8793 458752
427.43585 593.9444 1593.4404 458752
439.78336 597.85095 1603.9209 458752
449.41022 597.97174 1604.245 458752
458.88971 597.89551 1604.0404 458752
468.63232 598.15814 1604.7451 458752
474.05527 593.00677 1590.9249 458752
473.46075 580.67682 1557.8461 458752
497.44092 598.38135 1605.3439 458752
506.3512 597.63281 1603.3356 458752
516.26257 598.07153 1604.5127 393216
525.55286 597.7879 1603.7517 393216
521.45825 582.5611 1562.9011 327680
544.92529 598.11963 1604.6417 393216
541.54736 584.1842 1567.2556 393216
544.40851 577.33673 1548.8851 393216
554.34967 578.10034 1550.9338 393216
564.41711 578.96857 1553.2631 393216
572.54401 577.85028 1550.2628 262144
582.28809 578.37372 1551.6671 196608
605.47858 592.02856 1588.3005 131072
614.26324 591.39453 1586.5995 196608
624.36304 592.02667 1588.2954 131072
616.48425 575.8465 1544.8871 0
625.92078 576.07788 1545.5079 65536
645.53729 585.53638 1570.8832 65536
644.02252 575.83124 1544.8462 65536
663.50128 584.90576 1569.1914 65536
661.79401 575.31116 1543.4509 65536
671.1861 575.49591 1543.9467 65536
680.95892 575.9978 1545.293 65536
699.82568 584.07605 1566.9656 65536
709.97949 584.76581 1568.8159 131072
719.22345 584.69794 1568.6339 196608
717.69354 575.98529 1545.2595 0
739.64355 586.09857 1572.3915 65536
750.70978 587.44263 1575.9973 920844
749.78125 579.48309 1554.6434 197121
773.84961 590.80157 1585.0087 196608
778.29657 587.04773 1574.938 393216
770.52905 574.27972 1540.6837 262144
778.54956 573.44031 1538.4318 196608
788.63782 574.12579 1540.2708 196608
803.69165 578.36884 1551.6541 262144
835.0481 594.11456 1593.8969 657157
839.3902 590.5025 1584.2064 393216
845.20142 587.99274 1577.4731 393216
853.26019 587.08441 1575.0364 393216
863.11334 587.41711 1575.929 393216
873.47217 588.08301 1577.7155 458752
883.26691 588.35913 1578.4562 262144
892.63257 588.34656 1578.4225 196608
898.92847 586.33203 1573.0178 131072
907.17804 585.62012 1571.1079 0
915.44708 584.93518 1569.2703 65536
924.16681 584.54907 1568.2345 65536
933.99341 584.86383 1569.079 65536
944.26379 585.44751 1570.6449 65536
950.80896 583.73279 1566.0446 65536
960.25012 583.81195 1566.257 196608
969.67261 583.87842 1566.4352 196608
978.68719 583.70032 1565.9574 196608
985.75092 582.37292 1562.3964 196608
968.73157 566.97516 1521.087 262144
977.20288 566.64331 1520.1968 262144
984.49078 565.63763 1517.4987 262144
989.47705 563.33978 1511.3341 262144
1007.524 568.45227 1525.0499 196608
1004.5776 561.73456 1507.0275 196608
1053.1804 583.70581 1565.9723 196608
1025.5928 563.43494 1511.5892 131072
1033.6422 562.92432 1510.2194 65536
1043.1805 563.22626 1511.0294 65536
1063.9417 569.53064 1527.943 196608
1070.6976 568.2948 1524.6273 196608
1071.7858 564.09668 1513.3645 196608
1126.1355 587.7674 1576.8687 196608
1126.9141 583.3175 1564.9304 196608
1086.3422 557.71179 1496.2352 131072
1112.468 566.48566 1519.7737 196608
1090.52 550.83533 1477.7869 986375
1213.772 608.19122 1631.662 2301715
1223.5525 608.23077 1631.7681 2235405
1232.1569 607.68964 1630.3163 2169355
1232.8641 603.29248 1618.5195 2235405
1239.2638 601.72742 1614.3208 2235405
1238.809 596.88385 1601.3263 2366992
1243.7943 594.71527 1595.5084 1380870
1242.3574 589.53198 1581.6028 788737
1241.3845 584.6452 1568.4923 1183489
1248.6617 583.68768 1565.9236 1117696
1248.2463 579.17511 1553.8173 1907467
1251.2028 576.2818 1546.0551 986371
1269.0684 580.24762 1556.6945 3552033
1264.1354 573.80737 1539.4165 4275243
1273.0161 573.68481 1539.0878 4078117
1273.7737 569.9295 1529.0129 3814430
1274.3656 566.15375 1518.8833 3419930
1278.9749 564.20337 1513.6509 3551773
1277.1204 559.44879 1500.8951 3814946
1271.9652 553.32434 1484.4645 4209194
1275.5757 551.07117 1478.4196 2433039
1277.501 548.12585 1470.5178 2037771
1281.3718 546.04956 1464.9476 2630164
1283.3274 543.19073 1457.2778 2827544
1293.2489 543.71936 1458.696 1972493
1301.2505 543.43909 1457.9442 2170386
1292.4329 536.18475 1438.4823 1972750
1311.6278 540.57092 1450.2495 2170129
1311.5826 537.02203 1440.7284 1841165
1323.8059 538.50983 1444.72 2038544
1322.1097 534.35266 1433.5671 2234896
1338.9835 537.70605 1442.5636 2169360
1342.3696 535.63489 1437.0071 2037774
1345.007 533.29303 1430.7242 2235153
1352.6672 532.95966 1429.8298 2103567
1362.8533 533.61932 1431.5997 2037775
1362.1906 530.04956 1422.0226 2103567
1368.2158 529.11011 1419.5022 2037773
1391.7235 534.90137 1435.0392 2366482
0 0 0 0
0 0 0 0
0 0 0 0
0 0 0 0
0 0 0 0
0 0 0 0
0 0 0 0
0 0 0 0
0 0 0 0
0 0 0 0
0 0 0 0
0 0 0 0
0 0 0 0
-1397.736 623.07629 1645.3513 1250065
-1390.6732 624.29718 1648.5753 1381906
-1384.9902 626.15918 1653.4923 1250319
-1372.5134 624.95441 1650.3108 1118733
-1376.4966 631.28101 1667.0175 789768
-1374.5913 634.97931 1676.7834 1052940
-1370.3171 637.62927 1683.7814 658439
-1372.6653 643.42255 1699.0795 0
-1374.9387 649.2663 1714.5111 256
-1371.9453 652.69177 1723.5565 256
-1372.8411 658.0329 1737.6609 329219
-1370.8812 662.07593 1748.3373 1579542
-1364.202 663.88409 1753.1121 1908762
-1365.1584 669.46448 1767.8483 2303263
-1364.4128 674.29047 1780.592 1118989
-1353.4425 674.0993 1780.0873 460804
-1365.1433 685.28571 1809.6271 658440
-1362.34 689.31116 1820.2571 65536
-1366.0217 696.70868 1839.7916 65536
-1363.47 701.02063 1851.1782 460290
-1353.4144 701.51337 1852.4794 197376
-1347.1931 704.01788 1859.093 196864
-1340.4199 706.27307 1865.0482 196864
-1331.4839 707.41675 1868.0684 196864
-1315.6602 704.88947 1861.3947 262144
-1305.8611 705.57446 1863.2035 262144
-1297.0887 706.83075 1866.5209 196608
-1299.3218 714.15765 1885.869 262144
-1298.6185 719.98425 1901.2551 262144
-1285.6619 719.05981 1898.8141 196608
-1279.9771 722.22217 1907.1648 196608
-1285.0005 731.53717 1931.7628 196608
-1274.0586 731.84924 1932.587 65536
-1261.7816 731.39325 1931.3828 0
-1255.4812 734.42493 1939.3885 0
-1244.1345 734.53351 1939.6753 131072
-1232.9381 734.7337 1940.204 196608
-1222.0978 735.15186 1941.3082 196608
-1210.2223 734.9494 1940.7736 262144
-1195.3026 732.87653 1935.2997 262144
-1186.6261 734.62842 1939.9259 262144
-1173.7002 733.75806 1937.6277 196608
-1159.2839 731.92969 1932.7994 196608
-1150.4279 733.61023 1937.2372 131072
-1133.2885 729.98907 1927.6749 65536
-1118.7117 727.96161 1922.3209 0
-1112.7574 731.5611 1931.826 0
-1100.6787 731.16711 1930.7856 0
-1088.7775 730.88391 1930.0378 0
-1076.8478 730.5755 1929.2235 0
-1061.4412 727.8761 1922.0952 0
-1051.6382 729.00244 1925.0695 0
-1032.3572 723.51105 1910.5685 0
-1019.2475 722.27063 1907.2928 0
-1006.0477 720.93781 1903.7733 65536
-992.6264 719.41406 1899.7495 0
-989.23529 725.20825 1915.0503 65536
-969.93658 719.3399 1899.5537 65536
-952.79913 714.95496 1887.9745 131072
-937.84991 712.12714 1880.507 0
-936.0564 719.34088 1899.5562 0
-907.19781 705.6778 1863.4763 65536
-900.35315 709.01257 1872.2823 0
-883.68866 704.60095 1860.6327 0
-870.55573 702.92908 1856.2178 65536
-860.74408 703.93048 1858.8622 65536
-851.53192 705.45465 1862.887 196608
-840.5426 705.52716 1863.0786 196608
-829.02747 705.15442 1862.0942 327680
-818.70294 705.79803 1863.7938 327680
-802.99481 701.75452 1853.1161 393216
-791.60046 701.42072 1852.2346 393216
-778.82843 699.83954 1848.0593 458752
-766.43488 698.55817 1844.6757 458752
-754.58685 697.74396 1842.5255 458752
-744.41412 698.47772 1844.4631 458752
-726.35632 691.72424 1826.6294 458752
-694.37634 671.30615 1772.7115 458752
-683.56494 671.03943 1772.0072 458752
-673.21802 671.22742 1772.5035 458752
-662.30566 670.84869 1771.5034 458752
-651.66376 670.73602 1771.2058 458752
-642.4165 672.07874 1774.7516 458752
-628.04773 668.0188 1764.0306 458752
-616.25726 666.60999 1760.3103 393216
-600.18347 660.43903 1744.0148 393216
-573.72705 642.42535 1696.4463 393216
-578.95441 659.87946 1742.5371 393216
-566.6377 657.60889 1736.5413 393216
-577.69342 682.88226 1803.2804 458752
-575.78534 693.49738 1831.3115 458752
-559.17688 686.47473 1812.7668 393216
-533.48981 667.81152 1763.4832 393216
0 0 0 0
-461.93552 601.8999 1589.431 393216
0 0 0 0
-453.52872 616.15564 1627.076 393216
-426.67886 592.31195 1564.1122 984832
-410.55249 582.62372 1538.5286 590336
-395.00659 573.33636 1514.0037 787456
-389.74225 578.88721 1528.6616 524288
-381.21564 579.74194 1530.9188 524288
-375.79932 585.48419 1546.0823 589824
-365.15912 583.17175 1539.9758 524288
-356.67029 584.26453 1542.8615 458752
-355.62152 597.92432 1578.9329 458752
-346.4942 598.37372 1580.1195 458752
-337.16507 598.48993 1580.4264 458752
-328.20554 599.28766 1582.533 458752
-318.27084 598.29932 1579.9231 458752
-309.18457 598.89429 1581.4941 393216
-300.25595 599.84149 1583.9955 393216
-290.77228 599.70532 1583.6359 393216
-281.2345 599.4447 1582.9476 393216
-270.9874 597.60175 1578.0809 458752
-262.38235 599.37781 1582.7709 458752
-252.90982 599.23041 1582.3817 458752
-242.81381 597.53735 1577.911 524288
-233.96143 598.89172 1581.4874 524288
-224.31119 598.23163 1579.7444 524288
-215.17667 598.94934 1581.6395 524288
-205.42856 597.94666 1578.9917 458752
-195.94832 597.66504 1578.248 524288
-186.72028 598.16284 1579.5627 458752
-177.42653 598.49188 1580.4316 458752
-167.70749 597.3429 1577.3975 458752
-158.31833 597.30237 1577.2903 458752
-148.98991 597.50024 1577.813 458752
-139.50883 597.07147 1576.6805 458752
-130.08351 596.83667 1576.0605 458752
-120.71352 596.83899 1576.0668 524288
-111.39854 597.13666 1576.8528 458752
-101.96976 596.82288 1576.0242 458752
-90.608055 583.98743 1542.1299 458752
-83.27446 597.14685 1576.8798 458752
-72.011101 581.89056 1536.5925 458752
-61.87125 572.59845 1512.0549 458752
-52.839535 572.14587 1510.8599 458752
-44.503208 580.57977 1533.1312 458752
-35.485615 582.18152 1537.3608 458752
-27.090845 598.65802 1580.8702 458752
-17.663031 597.68494 1578.3007 524288
-8.0465422 580.88556 1533.9387 524288
1.0725211 580.36426 1532.562 524288
10.184369 580.36456 1532.5629 524288
19.237156 578.58826 1527.8722 589824
28.367113 579.52802 1530.3538 589824
37.414207 578.72949 1528.2452 524288
46.460941 578.23865 1526.949 524288
55.529373 578.13409 1526.673 524288
64.292648 575.32825 1519.2635 524288
73.267395 574.87299 1518.0613 655616
82.09491 573.48895 1514.4066 589824
91.003342 572.888 1512.8196 1180928
99.737717 571.39795 1508.8849 2101504
110.18736 579.16968 1529.4076 1838080
119.8045 581.71429 1536.1271 1707264
128.58461 580.12195 1531.9222 655360
138.90695 585.23804 1545.4323 655360
148.41528 586.5025 1548.7712 524288
158.15718 588.48828 1554.0151 524288
167.07326 587.35168 1551.0137 458752
176.25266 587.21118 1550.6428 458752
185.93336 588.67194 1554.5001 458752
195.1308 588.53668 1554.1429 458752
204.32709 588.41034 1553.8093 458752
213.55893 588.39294 1553.7633 458752
222.81976 588.45355 1553.9233 458752
231.94852 588.17438 1553.1862 458752
242.20558 590.66821 1559.7716 458752
251.04276 589.64307 1557.0646 458752
264.29785 598.69849 1580.9772 458752
275.26712 602.1319 1590.0437 458752
284.84152 602.38739 1590.7184 458752
296.10721 606.08826 1600.4912 458752
305.07584 605.00336 1597.6262 458752
305.25427 587.07825 1550.2916 458752
325.20123 607.10919 1603.1873 458752
334.33224 606.38245 1601.2679 458752
343.30963 605.42493 1598.7395 458752
353.36594 606.37048 1601.2365 458752
363.66129 607.66583 1604.657 458752
372.09454 605.86292 1599.8962 458752
381.6839 605.98553 1600.2198 458752
392.23438 607.59088 1604.4592 458752
400.14807 605.13251 1597.9674 458752
409.50958 604.92682 1597.4243 458752
419.06079 605.00439 1597.6292 458752
427.70148 603.79321 1594.4307 458752
437.49219 604.22272 1595.5649 458752
447.4129 604.80981 1597.1152 393216
455.31729 602.70349 1591.5531 458752
463.65665 601.24695 1587.7068 458752
472.94931 601.06006 1587.2134 458752
483.75583 602.76678 1591.7202 458752
493.95996 603.67188 1594.1102 458752
502.57419 602.63641 1591.3759 458752
512.02386 602.62238 1591.339 458752
523.56409 605.02478 1597.6829 458752
533.40753 605.41577 1598.7153 458752
542.64923 605.12195 1597.9395 458752
551.15778 604.03479 1595.0686 458752
544.3576 586.49078 1548.7404 458752
553.2926 586.20148 1547.9763 393216
562.29199 585.98883 1547.4148 327680
570.89319 585.37463 1545.793 262144
579.48669 584.77222 1544.2021 131072
588.89502 584.99799 1544.7983 65536
597.5553 584.48517 1543.4441 0
605.98169 583.76251 1541.5358 0
615.26404 583.87366 1541.8293 65536
624.93762 584.34741 1543.0803 65536
633.70905 583.97607 1542.0997 0
643.56818 584.60339 1543.7562 0
662.72681 593.54175 1567.3597 0
671.30365 592.88654 1565.6295 0
678.57153 591.10895 1560.9355 0
690.04712 592.9953 1565.9167 65536
699.41937 593.04791 1566.0558 65536
710.42834 594.46881 1569.8079 131072
719.53705 594.28326 1569.318 196608
728.63727 594.0957 1568.8225 196608
738.71985 594.70361 1570.4279 196608
747.05121 593.90411 1568.3167 1643537
761.01062 597.54352 1577.9271 723208
766.88983 594.8269 1570.7535 262144
772.42578 591.91272 1563.058 327680
743.28845 562.81342 1486.2157 458752
786.71234 588.69525 1554.5616 196608
794.84448 587.8739 1552.3927 196608
777.27087 568.2774 1500.6445 262144
840.5473 607.56598 1604.3934 1774865
843.82837 603.09344 1592.5829 262401
858.25403 606.59686 1601.8344 327680
855.12048 597.74921 1578.4703 393216
862.41626 596.30475 1574.656 196608
870.35797 595.33319 1572.0903 262144
880.84607 596.10553 1574.1299 196608
889.1358 595.38953 1572.2391 196608
894.19141 592.54529 1564.7284 196608
902.52057 591.90656 1563.0417 65536
910.54932 591.08588 1560.8745 65536
919.9696 591.17584 1561.1122 65536
928.8244 590.90436 1560.3953 0
936.1297 589.66217 1557.1151 0
943.60443 588.54999 1554.1781 0
946.46448 584.60901 1543.7712 0
956.60413 585.19708 1545.3241 131072
966.55328 585.65839 1546.5424 131072
975.13562 585.29065 1545.5713 196608
986.01929 586.29828 1548.2321 196608
976.09247 575.02747 1518.4694 196608
986.2735 575.7005 1520.2466 196608
996.3299 576.28918 1521.8011 196608
1006.6709 577.03046 1523.7585 196608
1009.0578 573.23975 1513.7485 196608
1021.8447 575.37201 1519.3792 65536
1048.9501 585.45868 1546.0149 65536
1035.7772 573.08453 1513.3386 65536
1046.9506 574.27802 1516.4901 0
1054.8158 573.6521 1514.8373 131072
1063.8595 573.67212 1514.8903 196608
1069.9581 572.11713 1510.7839 196608
1081.17 573.29938 1513.9059 196608
1088.1117 572.21637 1511.0461 196608
1092.0143 569.56616 1504.0476 196608
1062.8118 549.8324 1451.9369 196608
1055.0547 541.42181 1429.7271 262144
1122.7113 571.53625 1509.2501 131072
1217.4016 614.82611 1623.5651 2564628
1230.6769 616.64105 1628.3579 3156508
1224.51 608.76215 1607.5521 2498578
1233.1543 608.31165 1606.3624 2235148
1235.6758 604.87079 1597.2762 2235406
1237.8193 601.29883 1587.8439 2104590
1239.137 597.38287 1577.5031 1973003
1240.3024 593.45288 1567.125 1841163
1244.8264 591.17645 1561.1138 1446150
1248.0785 588.33423 1553.6083 1578250
1250.2346 585.02087 1544.8589 1512715
1260.7284 585.62885 1546.4642 1184004
1270.6509 585.96454 1547.3507 2762523
1271.6472 582.20874 1537.4327 3748643
1273.0137 578.67474 1528.1006 4538412
1269.1799 572.84369 1512.7026 4340520
1273.0542 570.54926 1506.6438 4143395
1271.4027 565.8277 1494.1757 3616794
1274.7909 563.39905 1487.7622 3287831
1278.0132 560.93091 1481.2446 3879712
1279.8242 557.88153 1473.1921 4011812
1279.769 554.06549 1463.1152 2695695
1284.9066 552.53406 1459.0712 2366732
1292.9482 552.26355 1458.3568 2300685
1291.1698 547.83008 1446.6495 2366735
1303.1373 549.24896 1450.3964 2498579
1305.464 546.61255 1443.4343 2103822
1311.5278 545.56506 1440.6682 1906700
1310.2633 541.5025 1429.9403 1840907
1314.9125 539.92065 1425.7631 2103822
1324.915 540.54309 1427.4067 2169615
1327.7474 538.25092 1421.3539 2169614
1330.8641 536.10236 1415.6801 2103822
1348.9288 539.96423 1425.8782 2235408
1339.5392 532.85681 1407.1096 2301201
1346.6743 532.3703 1405.8248 2038029
1357.3231 533.27008 1408.201 1972235
1362.9344 532.19196 1405.354 1972236
0 0 0 0
0 0 0 0
0 0 0 0
0 0 0 0
0 0 0 0
0 0 0 0
0 0 0 0
0 0 0 0
0 0 0 0
0 0 0 0
0 0 0 0
0 0 0 0
0 0 0 0
-1397.4673 632.737 1645.0349 1250318
-1392.8676 635.0993 1651.1765 1382162
-1386.3643 636.62097 1655.1327 1250575
-1378.0579 637.33057 1656.9775 987404
-1381.7742 643.65057 1673.4088 1053199
-1379.1647 647.09442 1682.3623 0
-1375.8582 650.25909 1690.59 256
-1372.7108 653.54602 1699.1356 256
-1373.2545 658.65216 1712.4109 66049
-1369.1947 661.61005 1720.1011 1053197
-1368.3014 666.15405 1731.9149 2303776
-1363.8927 669.04254 1739.4246 1974554
-1368.1895 676.2782 1758.2363 1579797
-1358.9469 676.88135 1759.8044 592646
-1361.8214 683.57617 1777.2102 789768
-1369.4858 692.79883 1801.1879 0
-1369.1753 698.10065 1814.972 65536
-1363.8456 700.90729 1822.2688 65792
-1363.343 706.25952 1836.184 65792
-1364.1687 712.39172 1852.127 65792
-1357.5369 714.69763 1858.1219 66048
-1343.0951 712.896 1853.438 131584
-1333.6249 713.72522 1855.5938 66048
-1322.892 713.88678 1856.0139 512
-1313.5768 714.82263 1858.4469 196864
-1303.7571 715.4975 1860.2015 196608
-1293.4679 715.92401 1861.3104 262144
-1284.0044 716.81891 1863.637 262144
-1287.2897 724.90851 1884.6689 262144
-1279.9117 727.0827 1890.3215 262144
-1285.8655 736.93591 1915.9386 262144
-1277.5249 738.69989 1920.5248 262144
-1270.7347 741.40021 1927.5453 262144
-1254.7074 738.7113 1920.5546 262144
-1245.3481 739.93494 1923.7357 196608
-1234.2754 740.15369 1924.3044 196608
-1224.0244 740.8739 1926.177 196608
-1212.8743 741.05847 1926.6567 196608
-1202.3429 741.62811 1928.1377 196608
-1190.7856 741.56989 1927.9863 196608
-1179.3879 741.61084 1928.0928 196608
-1165.6722 740.18073 1924.3746 196608
-1154.6482 740.4483 1925.0704 196608
-1142.8494 740.21942 1924.4753 131072
-1133.5406 741.61517 1928.104 65536
-1125.9413 744.16907 1934.7439 65536
-1114.5658 744.25427 1934.9653 65536
-1105.0845 745.61914 1938.514 65536
-1093.9786 745.90521 1939.2578 0
-1072.5728 739.09979 1921.5645 0
-1058.0023 736.90875 1915.8679 0
-1044.4065 735.35614 1911.8315 131072
-1032.3352 734.85468 1910.5277 131072
-1020.608 734.58966 1909.8387 196608
-1006.8102 732.81165 1905.2161 196608
-992.34747 730.50366 1899.2156 262144
-978.40277 728.52826 1894.0798 131072
-965.21759 727.07898 1890.3119 196608
-950.85162 724.69568 1884.1156 196608
-938.96161 724.16504 1882.7361 196608
-926.17938 722.92517 1879.5126 196608
-914.73706 722.71375 1878.9628 196608
-905.18127 724.00586 1882.3223 196608
-880.57843 713.14453 1854.0841 196608
-880.12909 721.81659 1876.6304 196608
-867.71613 720.77368 1873.9189 196608
-847.61603 713.23535 1854.3202 262144
-848.60718 723.47955 1880.9539 262144
-825.6427 713.30127 1854.4917 262144
-814.82611 713.4845 1854.968 393216
-805.7608 715.22729 1859.4991 393216
-792.14709 712.92505 1853.5135 393216
-787.16058 718.43188 1867.8306 458752
-765.18304 708.36676 1841.6626 458752
-752.09302 706.35651 1836.4362 458752
-737.30634 702.6701 1826.8519 458752
-724.23071 700.52844 1821.2839 458752
-697.23602 684.65393 1780.0122 458752
-685.5033 683.50757 1777.0319 458752
-673.76178 682.31647 1773.9352 458752
-670.27087 689.57574 1792.8083 393216
-662.38434 692.4743 1800.3442 393216
-649.70667 690.37701 1794.8916 393216
-627.84595 678.28888 1763.4639 458752
-615.31512 676.04071 1757.619 458752
-602.79645 673.72852 1751.6077 458752
-576.64447 655.82965 1705.0729 458752
-610.80054 707.10712 1838.3876 458752
-587.76929 692.84271 1801.302 458752
-563.08112 676.05951 1757.6678 458752
-562.73743 688.42322 1789.8119 458752
-568.13251 708.41937 1841.7994 458752
-533.56854 678.39642 1763.7434 458752
0 0 0 0
-461.39066 610.62878 1587.5563 458752
0 0 0 0
-451.46628 622.9834 1619.6768 458752
-431.6532 608.62512 1582.347 787456
-410.08939 591.10345 1536.7931 853248
-393.91745 580.73224 1509.8292 721920
-386.22678 582.67236 1514.8732 524288
-383.12085 591.78687 1538.5698 524288
-374.41168 592.48059 1540.3734 524288
-363.64661 589.87421 1533.5972 458752
-364.84897 607.04553 1578.2404 458752
-354.48212 605.36609 1573.874 458752
-345.10089 605.3244 1573.7656 458752
-335.15292 604.25854 1570.9946 458752
-326.46912 605.4762 1574.1603 458752
-316.28635 603.90369 1570.0719 458752
-307.39502 604.77625 1572.3406 393216
-298.27493 605.23938 1573.5447 393216
-288.75662 604.89838 1572.658 458752
-279.28589 604.63751 1571.9799 458752
-269.76251 604.24066 1570.948 458752
-260.36533 604.10803 1570.6033 524288
-250.94521 603.91052 1570.0897 458752
-241.77129 604.31305 1571.1362 524288
-232.31606 604.01654 1570.3654 524288
-222.42018 602.50159 1566.4266 524288
-213.09596 602.47034 1566.3455 524288
-204.15973 603.58331 1569.239 524288
-194.92938 603.89178 1570.0411 458752
-185.25642 602.79108 1567.1793 458752
-176.01636 603.05695 1567.8705 458752
-167.22816 604.98724 1572.8892 458752
-157.70802 604.34137 1571.21 458752
-148.1786 603.57648 1569.2212 458752
-138.75751 603.17957 1568.1893 458752
-129.37288 602.89545 1567.4507 458752
-119.94175 602.33374 1565.9902 458752
-110.71388 602.78412 1567.1613 458752
-101.32317 602.34918 1566.0305 458752
-92.284294 604.12952 1570.6591 458752
-82.757919 602.76001 1567.0986 458752
-71.879845 589.94904 1533.7917 458752
-61.996853 582.76898 1515.1245 458752
-53.179741 584.87024 1520.5874 458752
-44.430294 588.72882 1530.6193 458752
-35.303692 588.29034 1529.4794 458752
-26.177721 587.56189 1527.5854 458752
-17.153692 589.56299 1532.788 524288
-8.0350227 589.16089 1531.7427 524288
1.0716946 589.02173 1531.3809 524288
10.165781 588.40051 1529.7657 524288
19.23193 587.51257 1527.4572 524288
28.251167 586.22076 1524.0986 524288
37.235138 585.00244 1520.931 524288
46.224464 584.32776 1519.1771 524288
54.690273 578.33771 1503.6036 524288
64.103004 582.63739 1514.7822 524288
73.182426 583.22144 1516.3008 655360
81.963913 581.56348 1511.9902 655360
90.849152 580.89661 1510.2565 983808
99.8032 580.75006 1509.8756 1970176
109.95145 587.00336 1526.1333 1904640
119.8084 590.86652 1536.177 1707264
127.99912 586.54706 1524.947 655360
138.41634 592.3269 1539.9738 458752
148.31206 595.29639 1547.6941 393216
157.11632 593.79382 1543.7877 458752
168.19472 600.57764 1561.4247 458752
177.58429 600.93671 1562.3583 458752
184.87889 594.52332 1545.6841 458752
196.74442 602.72009 1566.9948 524288
206.52042 604.0639 1570.4885 458752
217.63016 609.02386 1583.3838 458752
226.797 608.3609 1581.6602 458752
236.34657 608.73645 1582.6366 458752
246.12581 609.65216 1585.0172 458752
246.87152 588.94946 1531.193 458752
256.13638 589.32031 1532.157 458752
273.63049 607.94934 1580.5901 458752
283.02014 607.93268 1580.5468 458752
283.43475 589.25812 1531.9952 458752
292.3042 588.77655 1530.7434 458752
301.59024 589.138 1531.6831 458752
310.8689 589.46423 1532.5312 458752
319.78189 589.09827 1531.5797 458752
328.73914 588.83185 1530.8871 458752
349.21817 608.66138 1582.4413 458752
358.53857 608.51196 1582.053 458752
367.52487 607.81769 1580.2479 458752
377.35226 608.51447 1582.0593 458752
387.4563 609.61243 1584.9141 458752
396.57806 609.14966 1583.7108 458752
406.47644 609.87347 1585.5927 458752
414.85684 608.33856 1581.6021 458752
425.24518 609.75079 1585.2737 458752
434.21451 609.11127 1583.611 393216
444.11343 609.77527 1585.3373 327680
453.73618 610.04022 1586.0262 327680
462.55292 609.23291 1583.9272 393216
470.40833 607.21686 1578.6858 393216
483.25308 611.59412 1590.066 458752
491.914 610.60999 1587.5074 458752
500.94632 610.11523 1586.2213 458752
510.21643 609.92303 1585.7216 458752
519.80701 610.11401 1586.218 458752
529.112 609.96893 1585.8408 458752
542.33636 614.26813 1597.0182 458752
547.80078 609.78143 1585.3534 458752
542.35571 593.50812 1543.0449 458752
550.78827 592.71002 1540.97 393216
559.24542 591.96411 1539.0306 327680
568.26733 591.83038 1538.683 196608
577.76782 592.19147 1539.6217 131072
587.55969 592.83521 1541.2954 65536
596.38007 592.49408 1540.4084 65536
604.20648 591.1908 1537.02 65536
613.68024 591.51404 1537.8605 65536
622.9101 591.59619 1538.0741 0
630.91235 590.52692 1535.2941 0
643.35925 593.58905 1543.2552 0
666.12823 605.95465 1575.4042 0
661.16479 593.09991 1541.9835 0
670.44403 593.19843 1542.2396 0
679.98846 593.52576 1543.0907 0
686.92108 591.59509 1538.0712 0
695.20081 590.85999 1536.16 65536
702.97516 589.72003 1533.1963 65536
712.04602 589.68298 1533.1 196608
721.69873 590.12262 1534.243 196608
745.27069 601.79083 1564.5787 196608
760.05786 606.16522 1575.9517 196608
767.98889 605.03174 1573.0048 196608
776.63281 604.48035 1571.5713 196608
772.09448 593.80396 1543.8138 393216
787.20544 598.31268 1555.536 393216
794.40387 596.77271 1551.5322 393216
807.78809 599.86151 1559.5629 327680
823.03339 604.2467 1570.9637 262144
841.6861 611.00696 1588.5396 262144
833.93683 598.66388 1556.4491 262144
845.14233 600.04956 1560.0516 262144
853.22412 599.21136 1557.8726 262144
864.69525 600.74585 1561.8621 262144
874.3349 600.98901 1562.4941 196608
880.17255 598.64099 1556.3896 196608
886.81384 596.88287 1551.8187 196608
893.47852 595.17639 1547.3821 65536
906.63385 597.78436 1554.1625 65536
913.81323 596.43921 1550.6653 65536
920.88379 595.05066 1547.0553 65536
929.96313 594.97479 1546.8579 65536
936.91107 593.55005 1543.1538 65536
946.74896 593.96606 1544.2354 65536
955.47784 593.68494 1543.5045 65536
963.04858 592.69647 1540.9347 65536
943.09662 574.94769 1494.7902 65536
950.27899 573.91803 1492.1132 65536
958.13147 573.30841 1490.5282 131072
966.31946 572.90881 1489.4893 131072
979.83759 575.64789 1496.6106 65536
987.27631 574.79828 1494.4016 0
992.31281 572.57764 1488.6283 0
998.72827 571.18494 1485.0074 65536
1013.5442 574.57886 1493.8312 65536
1019.6744 573.03271 1489.8114 65536
1031.2211 574.53082 1493.7063 65536
1036.2893 572.4248 1488.231 131072
1047.2068 573.55811 1491.1774 196608
1051.0717 570.84216 1484.1162 196608
1061.6436 571.78363 1486.564 196608
1070.6476 571.87213 1486.7939 196608
1078.8054 571.5108 1485.8547 196608
1081.5479 568.30994 1477.5327 196608
1088.7817 567.50159 1475.4313 196608
1047.0455 541.38574 1407.5333 196608
1051.6649 539.46259 1402.5334 196608
1210.4308 616.01874 1601.5695 328192
1222.0308 617.06799 1604.2975 2828317
1226.7118 614.63422 1597.97 3353887
1230.1637 611.62683 1590.1511 2761493
1233.36 608.53912 1582.1235 2104590
1236.7472 605.59174 1574.4606 2170382
1238.7939 602.03711 1565.2191 2170384
1245.6051 600.83368 1562.0903 2104336
1251.4592 599.18988 1557.8167 1775371
1248.946 593.59344 1543.2666 1841679
1257.1595 593.13953 1542.0865 131584
1278.0657 598.63733 1556.3801 920577
1274.0853 592.48328 1540.3804 1051651
0 0 0 0
1262.9039 578.96033 1505.2225 3156506
1266.3278 576.44513 1498.6832 4406569
1264.6038 571.638 1486.1853 4274983
1268.061 569.22351 1479.908 4274726
1271.5842 566.87164 1473.7933 3879711
1276.6456 565.23303 1469.5332 3944993
1281.7841 563.65057 1465.4189 3945506
1278.3259 558.33472 1451.5985 4406316
1290.9287 560.05811 1456.079 3616545
1292.111 556.83679 1447.7041 3090458
1293.9917 553.95715 1440.2174 2300686
1296.2697 551.28424 1433.2682 2103565
1301.7616 550.00427 1429.9403 2038029
1305.3862 547.95703 1424.6179 2432786
1311.0111 546.77039 1421.5328 2038029
1312.5808 543.91858 1414.1184 2103821
1318.1469 542.74854 1411.0764 2169615
1321.071 540.51239 1405.2628 2366994
1328.4198 540.10333 1404.1992 1972236
1333.8923 538.94128 1401.178 2169614
1344.7511 539.95636 1403.8171 2169615
1355.0468 540.73413 1405.8394 2038029
1358.4817 538.78149 1400.7627 2235408
0 0 0 0
0 0 0 0
0 0 0 0
0 0 0 0
0 0 0 0
0 0 0 0
0 0 0 0
0 0 0 0
0 0 0 0
0 0 0 0
0 0 0 0
0 0 0 0
0 0 0 0
-1397.1986 642.39398 1644.7186 921613
-1390.7527 643.93719 1648.6696 1118992
-1385.8203 646.20789 1654.4833 855820
-1380.1011 648.14166 1659.4342 131842
-1377.5154 651.58539 1668.2512 256
-1373.2356 654.27197 1675.1298 256
-1368.5083 656.78308 1681.5588 131842
-1368.1348 661.43597 1693.4716 1250578
-1365.1444 664.88324 1702.2977 2303266
-1362.8385 668.71796 1712.1157 2237472
-1367.6381 676.12317 1731.0752 1908508
-1370.0975 682.47504 1747.3379 526598
-1359.7953 682.51849 1747.4491 987404
-1361.6082 688.69031 1763.2509 131840
-1377.4503 702.10889 1797.6063 256
-1372.3778 704.99335 1804.9915 0
-1362.9579 705.67249 1806.7302 65536
-1358.0741 708.72961 1814.5574 65792
-1350.9624 710.66376 1819.5094 65792
-1347.5927 714.6134 1829.6216 65792
-1341.8221 717.34393 1836.6125 131840
-1333.4076 718.69409 1840.0693 66048
-1325.2963 720.23145 1844.0054 65792
-1319.7534 723.20178 1851.6105 196608
-1310.2909 724.05634 1853.7982 262144
-1309.9026 729.98206 1868.9698 262144
-1302.0797 731.83069 1873.7029 393216
-1293.2911 733.16376 1877.116 262144
-1284.1743 734.33234 1880.1079 262144
-1275.3761 735.7052 1883.6229 262144
-1280.6608 745.29816 1908.1836 196608
-1267.8344 744.42841 1905.9568 196608
-1259.4169 746.15503 1910.3774 196608
-1255.2694 750.46594 1921.4147 262144
-1247.72 752.80353 1927.3995 196608
-1230.7247 749.43256 1918.7689 196608
-1218.8699 749.1579 1918.0657 196608
-1207.094 748.92706 1917.4747 196608
-1200.6787 752.0495 1925.469 196608
-1188.8252 751.79297 1924.8123 196608
-1178.6682 752.61475 1926.9163 196608
-1165.7587 751.67773 1924.5172 196608
-1154.6914 751.92188 1925.1423 196608
-1143.2375 751.91675 1925.1292 196608
-1130.1665 750.83704 1922.3647 196608
-1117.9436 750.30444 1921.0012 196608
-1105.3632 749.51849 1918.9889 65536
-1093.6162 749.28723 1918.3967 65536
-1082.7822 749.68311 1919.4104 65536
-1071.5543 749.81183 1919.7399 65536
-1052.3176 744.27887 1905.574 65536
-1041.106 744.3631 1905.7897 65536
-1024.593 740.61737 1896.1995 262144
-1015.2697 742.04291 1899.8492 196608
-997.46497 737.23199 1887.5317 196608
-984.79816 736.15222 1884.7673 262144
-972.31097 735.18335 1882.2867 327680
-959.56573 733.99463 1879.2432 393216
-946.68781 732.67511 1875.8649 327680
-928.61926 727.25909 1861.9983 262144
-918.85583 728.2951 1864.6508 262144
-905.36853 726.36877 1859.7189 262144
-891.60095 724.16718 1854.082 196608
-875.64124 720.10773 1843.6887 196608
-870.63202 725.06488 1856.3805 196608
-852.30554 718.91638 1840.6384 196608
-845.15808 722.15991 1848.9429 262144
-834.13818 722.13654 1848.8831 262144
-820.83185 720.10669 1843.6859 327680
-808.98279 719.31757 1841.6656 393216
-798.0672 719.34827 1841.7443 393216
-786.26691 718.57129 1839.7549 393216
-770.61127 714.19916 1828.561 393216
-760.31567 714.74078 1829.9478 393216
-748.38544 713.73914 1827.3832 393216
-735.18762 711.48126 1821.6023 458752
-722.48651 709.64368 1816.8976 524288
-710.80273 708.76477 1814.6475 458752
-698.92072 707.65808 1811.814 458752
-672.74677 691.8197 1771.2629 458752
-660.07245 689.58057 1765.5302 458752
-647.73071 687.62213 1760.516 458752
-638.65082 689.11902 1764.3484 458752
-625.03571 685.69055 1755.5706 393216
-612.70148 683.57477 1750.1534 458752
-593.67767 673.79346 1725.1104 458752
-573.68054 662.54407 1696.3087 458752
-576.18622 677.3457 1734.2053 524288
-585.87866 701.28931 1795.5079 524288
-553.73816 675.11871 1728.5035 524288
-557.26123 692.26172 1772.3947 524288
-544.8786 689.92578 1766.4139 524288
-531.09955 685.69507 1755.582 524288
0 0 0 0
0 0 0 0
0 0 0 0
-447.18924 626.62 1604.3325 590336
-420.44302 601.98242 1541.2529 787456
-404.9071 592.65521 1517.3727 853248
-392.69565 587.87982 1505.1461 1182208
-382.14413 585.42456 1498.86 524288
-381.65219 598.63086 1532.6719 524288
-383.39011 616.06628 1577.3118 524288
-364.3374 600.13013 1536.5105 590080
-359.36725 607.1673 1554.5278 458752
-353.52402 613.06207 1569.6201 458752
-344.68713 613.94421 1571.8787 458752
-334.85791 613.05878 1569.6117 458752
-325.0173 612.10114 1567.1599 458752
-316.02344 612.7287 1568.7667 458752
-306.7424 612.8208 1569.0024 458752
-297.45251 612.90039 1569.2062 458752
-287.78833 612.18884 1567.3844 458752
-278.5546 612.37604 1567.8636 458752
-269.29526 612.51788 1568.2269 458752
-259.88919 612.32428 1567.7312 524288
-250.40614 611.9281 1566.7169 524288
-241.33508 612.54706 1568.3015 524288
-232.06522 612.69086 1568.6698 524288
-222.75183 612.72693 1568.7622 524288
-213.26318 612.26318 1567.5747 524288
-204.15459 612.89783 1569.1996 524288
-194.27974 611.18274 1564.8085 458752
-185.24023 612.05524 1567.0424 458752
-175.94382 612.12628 1567.2242 458752
-166.7345 612.52527 1568.2458 458752
-157.19299 611.67896 1566.0789 458752
-147.83594 611.48883 1565.5923 458752
-138.4895 611.32025 1565.1605 524288
-129.33005 612.01208 1566.9318 458752
-119.95979 611.73633 1566.2258 458752
-110.57283 611.3219 1565.1647 458752
-101.18613 610.83276 1563.9125 458752
-92.001015 611.58478 1565.8378 458752
-81.03949 599.36774 1534.5585 458752
-71.84359 598.76611 1533.0182 458752
-62.692673 598.41901 1532.1295 458752
-53.376774 596.11127 1526.2212 458752
-44.368927 597.00342 1528.5052 458752
-35.366711 598.45026 1532.2096 458752
-26.230839 597.85474 1530.6849 458752
-17.111601 597.20721 1529.027 458752
-7.8852725 587.11786 1503.1953 458752
1.0516865 586.95984 1502.7906 458752
10.098733 593.55499 1519.6763 458752
19.190529 595.30975 1524.1689 458752
28.265512 595.58453 1524.8726 458752
37.221531 593.82794 1520.3751 458752
46.234016 593.48267 1519.4911 458752
55.253117 593.32129 1519.0779 458752
64.332687 593.76331 1520.2097 524544
72.998863 590.7511 1512.4974 589824
82.035423 591.06824 1513.3093 655360
91.045181 591.14862 1513.5153 1115392
100.11519 591.5705 1514.5955 2036224
110.37648 598.3811 1532.0326 2102016
118.61598 594.0282 1520.8878 1707008
128.42902 597.61401 1530.0686 655360
138.02771 599.79401 1535.65 458752
148.03374 603.36377 1544.7897 524288
157.35207 603.8772 1546.1042 458752
166.86156 605.0271 1549.0483 458752
174.7511 600.49017 1537.4324 458752
184.11766 601.22742 1539.3199 458752
193.1765 600.93756 1538.5778 458752
202.77457 602.27545 1542.0032 458752
211.99763 602.43201 1542.4041 458752
221.28737 602.7572 1543.2366 458752
233.8022 611.49152 1565.599 458752
243.21744 611.7605 1566.2877 458752
253.97556 615.26288 1575.2549 458752
263.82358 616.38989 1578.1404 458752
273.26974 616.53278 1578.5062 458752
282.51257 616.22266 1577.7122 458752
293.37656 619.35492 1585.7317 458752
301.11407 615.89728 1576.8792 524544
311.14862 617.20496 1580.2272 458752
320.83279 617.76129 1581.6516 458752
330.3942 618.05634 1582.4069 458752
340.23001 618.83417 1584.3983 458752
348.70938 617.16925 1580.1357 458752
358.37683 617.63934 1581.3392 458752
367.81805 617.70544 1581.5085 458752
376.70166 616.8551 1579.3315 458752
386.15939 616.96356 1579.609 458752
396.7084 618.76886 1584.2312 458752
404.45084 616.21442 1577.691 458752
413.69199 616.00745 1577.1611 458752
422.99994 615.90692 1576.9038 458752
435.1824 619.90533 1587.141 393216
442.50229 616.95459 1579.5861 393216
451.44974 616.34839 1578.0341 393216
462.58389 618.69165 1584.0334 458752
471.88998 618.5451 1583.6583 458752
480.85516 617.96613 1582.176 393216
490.32257 618.04254 1582.3716 393216
498.29422 616.26611 1577.8235 458752
504.86288 612.85229 1569.0831 458752
502.08917 598.42743 1532.1511 458752
509.72278 596.69983 1527.7279 458752
536.5368 617.09283 1579.9402 458752
526.2326 594.82751 1522.9342 458752
536.43726 596.10547 1526.2063 393216
544.46252 594.95947 1523.2721 393216
554.55176 596.0694 1526.1139 327680
563.20416 595.62402 1524.9735 262144
571.66028 594.98853 1523.3466 196608
581.26855 595.55328 1524.7925 131072
609.15936 614.54486 1573.4166 65536
594.80658 590.9895 1513.1078 65536
607.21808 594.33234 1521.6665 0
615.87622 593.95728 1520.7062 0
624.47137 593.5332 1519.6204 0
630.89026 591.08221 1513.3452 0
662.00159 611.50934 1565.6447 0
670.24713 610.54095 1563.1654 0
660.84052 593.73944 1520.1484 0
667.68683 591.79681 1515.1748 0
673.89966 589.35193 1508.9152 0
685.7453 591.83264 1515.2665 65536
712.92456 607.3111 1554.896 131072
703.68585 591.76752 1515.0997 131072
734.16431 609.59491 1560.7433 196608
740.11957 606.86932 1553.7648 196608
750.17444 607.53094 1555.4587 262144
736.02887 588.81628 1507.5438 196608
769.34052 608.06061 1556.8148 196608
773.9234 604.41095 1547.4707 196608
761.4729 587.70081 1504.6879 196608
770.34442 587.64392 1504.5422 196608
776.65771 585.65924 1499.4608 196608
784.20679 584.64087 1496.8535 262144
792.21869 583.98663 1495.1783 196608
827.34253 603.11066 1544.1416 196608
835.66504 602.49188 1542.5574 196608
844.6261 602.34204 1542.1737 196608
860.9751 607.40741 1555.1426 196608
862.44122 601.97711 1541.2393 65536
872.22668 602.40662 1542.3391 65536
880.94867 602.10046 1541.5552 0
886.30005 599.52063 1534.9501 65536
894.79785 599.10004 1533.8732 65536
901.85272 597.73151 1530.3694 65536
912.87616 598.99432 1533.6027 65536
919.54114 597.4007 1529.5225 65536
926.43445 595.98517 1525.8982 65536
910.66357 580.15826 1485.3767 65536
919.39526 580.0954 1485.2158 65536
925.25226 578.23724 1480.4583 65536
935.60181 579.19525 1482.911 65536
943.16772 578.42816 1480.9471 0
963.32727 585.32739 1498.6111 0
966.4892 581.86676 1489.751 65536
966.16449 576.38904 1475.7263 65536
972.20459 574.77271 1471.5881 196608
979.0213 573.64032 1468.6888 196608
985.94061 572.58759 1465.9935 196608
1007.8032 580.15558 1485.3698 65536
1011.3714 577.1521 1477.6801 65536
1016.6663 575.17737 1472.624 65536
1024.192 574.48755 1470.8579 65536
1033.0391 574.54431 1471.0033 65536
1038.5315 572.75006 1466.4094 0
1054.0774 576.48401 1475.9695 0
1055.7593 572.6366 1466.1189 65536
1059.3892 569.89996 1459.1124 65536
1066.5198 569.07587 1457.0024 65536
1078.4196 570.78931 1461.3893 131072
1084.511 569.4256 1457.8978 196608
1086.9185 566.16455 1449.5486 196608
1069.7512 552.83881 1415.4308 196608
1151.8279 590.60919 1512.1342 196608
1215.2637 618.31036 1583.0573 1709836
1225.1511 618.55035 1583.6718 2038288
1236.5004 619.5191 1586.152 3025950
1236.9966 615.07666 1574.7781 2630936
1236.0518 609.98987 1561.7544 2170129
1243.5171 609.09833 1559.4718 1775371
1248.1603 606.84796 1553.7101 1775371
1248.8262 602.71106 1543.1185 2104337
1261.629 604.44934 1547.569 525312
1268.0228 603.11414 1544.1504 1051650
1273.5662 601.39648 1539.7528 525824
1276.8741 598.65533 1532.7346 920066
1275.7504 593.88989 1520.5337 1248517
1266.8198 585.58301 1499.2655 1643016
1263.1877 579.82416 1484.5212 3024409
1253.0735 571.19049 1462.4165 4207910
1273.2958 576.40887 1475.7771 4668717
1280.3269 575.62518 1473.7706 4274215
1281.8972 572.4137 1465.5483 4405546
1284.158 569.55182 1458.2211 3747873
1285.7505 566.43396 1450.2383 3682337
1293.7952 566.18109 1449.5911 3945511
1298.5604 564.50604 1445.3024 3879974
1290.8352 557.45886 1427.2594 2234893
1295.9431 556.00964 1423.5491 2629907
1298.2893 553.40198 1416.8727 2366480
1302.1631 551.47491 1411.9388 2432272
1304.163 548.78406 1405.0494 2301200
1309.5441 547.54114 1401.8672 2301201
1315.712 546.64087 1399.5623 1972236
1319.0587 544.58716 1394.3041 2366994
1318.3983 540.91504 1384.9023 2301201
1326.8427 541.00079 1385.1221 2169358
1335.1349 541.02393 1385.1813 2038029
1340.0054 539.66864 1381.7113 2169615
0 0 0 0
0 0 0 0
0 0 0 0
0 0 0 0
0 0 0 0
0 0 0 0
0 0 0 0
0 0 0 0
0 0 0 0
0 0 0 0
0 0 0 0
0 0 0 0
0 0 0 0
-1394.4462 650.88794 1641.4786 1119249
-1384.9692 651.02075 1641.8135 263427
-1375.8867 651.3421 1642.624 256
-1369.1028 652.76398 1646.2098 256
-1366.14 656.04132 1654.475 256
-1366.4102 660.92999 1666.8037 1579543
-1357.9354 661.62927 1668.5673 1579030
-1352.8452 664.00006 1674.5461 2434339
-1352.4775 668.74109 1686.5026 2631718
-1361.8038 678.38202 1710.816 1184529
-1361.8778 683.52423 1723.7843 1315858
-1362.5159 689.02966 1737.6686 197634
-1365.8821 696.00958 1755.2711 0
-1373.028 705.0376 1778.0391 65536
-1367.2953 707.54156 1784.3538 65536
-1363.322 711.0022 1793.0812 65792
-1363.9476 716.93463 1808.0422 65536
-1356.1327 718.4895 1811.9634 65792
-1348.8866 720.37311 1816.7136 65792
-1342.3555 722.67194 1822.5111 65792
-1327.9395 720.72876 1817.6106 512
-1325.2212 725.15466 1828.7723 196864
-1317.4447 726.86304 1833.0807 196864
-1315.2981 731.73199 1845.3597 196608
-1306.5521 732.98053 1848.5084 196608
-1295.3636 732.86847 1848.2258 262144
-1298.6056 740.98853 1868.7037 393216
-1289.2726 742.01135 1871.2833 196608
-1280.4469 743.34662 1874.6508 262144
-1286.2483 753.27142 1899.6802 196608
-1275.8375 753.79364 1900.9971 196608
-1264.0444 753.5011 1900.2594 262144
-1254.2583 754.41034 1902.5525 262144
-1248.0051 757.48065 1910.2954 262144
-1234.5405 756.19006 1907.0408 262144
-1225.3657 757.52753 1910.4137 262144
-1217.8687 759.93701 1916.4901 196608
-1209.4432 761.80713 1921.2064 196608
-1200.1169 763.14014 1924.5682 196608
-1187.3789 762.30835 1922.4705 262144
-1175.9194 762.28931 1922.4225 262144
-1162.986 761.30493 1919.9399 196608
-1145.1719 757.07452 1909.2712 196608
-1140.4358 761.4917 1920.411 196608
-1129.641 761.91193 1921.4708 196608
-1119.5476 762.81866 1923.7574 262144
-1109.8186 763.995 1926.724 327680
-1089.2266 757.63965 1910.6964 393216
-1078.0743 757.78577 1911.0649 196608
-1066.5746 757.68805 1910.8185 131072
-1055.3887 757.8136 1911.1351 0
-1040.8369 755.49878 1905.2974 0
-1024.687 751.96021 1896.3734 196608
-1012.4749 751.26471 1894.6195 196608
-993.43805 745.43274 1879.9116 262144
-982.34882 745.49927 1880.0796 327680
-969.17914 743.97046 1876.224 393216
-955.58246 742.07434 1871.4421 393216
-938.59564 737.46991 1859.8302 393216
-927.24573 737.23755 1859.2443 262144
-912.49933 734.26648 1851.7515 262144
-901.17047 734.00641 1851.0956 393216
-892.32983 735.79156 1855.5977 393216
-879.01489 733.88593 1850.7919 327680
-866.39502 732.51965 1847.3462 393216
-855.41168 732.51978 1847.3464 327680
-843.21436 731.46667 1844.6906 393216
-830.81146 730.2052 1841.5094 196608
-819.5589 729.93451 1840.8267 393216
-808.17206 729.53534 1839.8199 393216
-793.47974 726.1004 1831.1575 393216
-783.63806 727.07043 1833.6036 393216
-770.34833 724.82355 1827.9373 458752
-758.53033 723.91687 1825.6506 458752
-744.71289 721.04797 1818.4156 458752
-732.44702 719.61896 1814.8118 458752
-701.88202 699.89978 1765.0819 458752
-686.40594 694.85663 1752.3635 458752
-675.8537 694.7193 1752.0172 458752
-671.13092 700.66376 1767.0084 393216
-654.31146 693.96735 1750.1208 393216
-641.38873 691.25421 1743.2786 393216
-633.53882 694.00897 1750.2258 393216
-625.02509 696.11652 1755.5408 393216
-610.11798 691.05402 1742.7737 327680
-601.35425 692.89514 1747.4169 458752
-585.59503 686.59906 1731.5387 458752
-603.3197 720.03925 1815.8717 458752
-595.84662 724.07764 1826.0562 458752
-570.96356 706.71649 1782.2729 458752
-543.85992 685.89819 1729.7711 458752
-544.12598 699.46045 1763.974 458752
-529.93372 694.60474 1751.7283 393216
0 0 0 0
-487.2579 664.79877 1676.5604 524288
0 0 0 0
-412.29477 586.51868 1479.1454 655616
-413.70178 601.34705 1516.5411 1049856
-403.23999 599.19952 1511.1252 787200
-392.75684 596.92163 1505.3806 852480
-383.19971 595.97778 1503.0002 655360
-380.72113 606.26074 1528.9329 720896
-377.17935 615.31226 1551.76 524288
-366.04462 612.1203 1543.7102 589824
-356.24826 611.05988 1541.0359 524288
-349.7652 615.77667 1552.9313 524288
-341.64511 617.789 1558.0061 458752
-332.52902 618.06232 1558.6954 458752
-323.96323 619.40338 1562.0775 458752
-314.69348 619.43793 1562.1647 458752
-304.71741 618.04211 1558.6444 458752
-295.77359 618.71796 1560.349 458752
-286.31714 618.33051 1559.3717 458752
-278.00955 620.48126 1564.7958 458752
-268.36847 619.70178 1562.83 458752
-258.91049 619.30426 1561.8275 458752
-249.28065 618.45081 1559.6752 458752
-239.81956 617.96619 1558.453 524288
-230.61142 618.12067 1558.8427 524288
-221.31766 618.04901 1558.6619 524288
-211.6635 616.92065 1555.8163 524288
-202.39909 616.87708 1555.7063 524288
-193.53392 618.10431 1558.8014 458752
-184.18576 617.8349 1558.1219 458752
-174.8466 617.56879 1557.4508 458752
-165.48708 617.1969 1556.5129 458752
-156.0481 616.4671 1554.6725 458752
-146.77199 616.32935 1554.325 458752
-137.31627 615.36823 1551.9011 458752
-128.11838 615.5072 1552.2516 393216
-119.12469 616.72491 1555.3226 393216
-109.99965 617.4104 1557.0513 393216
-100.46884 615.73499 1552.8262 393216
-91.415802 616.94495 1555.8776 393216
-82.007179 615.75739 1552.8827 458752
-73.165825 619.06824 1561.2323 458752
-61.155735 592.6344 1494.5686 458752
-52.216927 592.0351 1493.0573 458752
-43.300331 591.49384 1491.6921 524288
-34.40696 591.07251 1490.6298 458752
-25.521023 590.53107 1489.2642 458752
-16.655897 590.15155 1488.307 458752
-7.8878093 596.24683 1503.6788 458752
1.0599924 600.60089 1514.6593 458752
9.9710999 594.97437 1500.4697 458752
18.859571 593.94873 1497.8833 458752
28.057024 600.19073 1513.625 458752
37.066738 600.36017 1514.0524 458752
45.985737 599.28119 1511.3313 458752
54.926754 598.7951 1510.1052 458752
64.038704 600.04712 1513.2628 590592
72.848572 598.50885 1509.3834 589824
81.924271 599.2525 1511.2589 589824
90.937889 599.44 1511.7317 918528
100.42989 602.46338 1519.3563 1839104
110.62504 608.85791 1535.4827 2036224
118.28677 601.39691 1516.6667 1905152
128.57576 607.40424 1531.8168 655360
138.87344 612.65521 1545.0593 524288
148.29871 613.64478 1547.5547 524288
157.91263 615.2536 1551.6122 458752
165.4259 608.95215 1535.7205 458752
176.81499 616.83099 1555.5902 458752
183.44878 608.16199 1533.7277 458752
192.73837 608.70142 1535.0881 458752
205.32919 619.14667 1561.4301 458752
214.81029 619.7168 1562.8678 458752
224.22531 620.05695 1563.7256 458752
234.07379 621.52081 1567.4175 458752
244.33928 623.93762 1573.5123 393216
254.33128 625.50348 1577.4613 393216
263.79346 625.70129 1577.9602 458752
273.22061 625.80524 1578.2224 458752
282.57877 625.74957 1578.0819 458752
291.85464 625.52106 1577.5057 458752
301.3746 625.81366 1578.2435 458752
309.72653 623.73633 1573.0048 458752
318.64606 622.89038 1570.8713 458752
318.38965 604.6662 1524.9117 458752
337.97263 624.08569 1573.8859 458752
336.30554 604.27667 1523.9292 458752
345.43314 604.39398 1524.2251 458752
365.78308 623.63879 1572.7588 458752
374.82709 623.12872 1571.4724 458752
383.62061 622.23712 1569.224 458752
392.56329 621.62415 1567.678 458752
401.04459 620.32581 1564.4038 458752
410.58566 620.6886 1565.3186 458752
423.25385 625.65765 1577.8502 458752
418.9848 605.91742 1528.0671 458752
438.4209 620.56891 1565.0167 458752
448.22498 621.26086 1566.762 458752
459.03082 623.28497 1571.8665 393216
467.0466 621.51544 1567.4039 458752
478.55048 624.36603 1574.5929 458752
486.72021 622.84064 1570.746 393216
493.65552 619.82288 1563.1354 393216
502.86496 619.71912 1562.8738 393216
512.90662 620.6261 1565.1611 458752
520.67389 618.79779 1560.5502 458752
531.27942 620.3476 1564.4587 458752
524.34375 601.71448 1517.4678 458752
532.65546 600.91315 1515.4469 393216
539.95898 599.01996 1510.6724 393216
549.68549 599.83264 1512.7219 262144
557.20367 598.24829 1508.7263 262144
564.05206 596.00635 1503.0723 196608
593.99902 617.86078 1558.1873 196608
602.07819 616.64716 1555.1265 65536
591.72595 596.87823 1505.2711 65536
603.83496 600.0177 1513.1885 0
611.88159 599.08752 1510.8428 0
617.69672 596.03101 1503.1346 0
626.66968 596.06531 1503.2211 0
655.39868 614.62567 1550.0286 0
666.35162 616.23224 1554.0802 0
674.28552 615.04114 1551.0763 0
683.75159 615.26086 1551.6304 0
687.83868 610.69891 1540.1257 65536
696.16644 609.9726 1538.2938 65536
711.30713 615.15692 1551.3684 0
718.59052 613.50043 1547.1908 65536
702.52191 592.20093 1493.4755 0
710.04742 591.07379 1490.6329 196608
0 0 0 0
725.23364 589.01184 1485.4329 196608
758.9469 608.97675 1535.7825 196608
767.82367 608.77527 1535.2743 196608
779.36353 610.66504 1540.0402 131072
785.96918 608.6897 1535.0586 131072
795.09576 608.68964 1535.0585 196608
779.47247 589.95721 1487.8169 196608
784.45844 587.06854 1480.5321 196608
791.89117 586.05481 1477.9755 196608
823.49854 602.75793 1520.0992 196608
833.38477 603.37225 1521.6484 196608
843.90417 604.42688 1524.3081 196608
850.85999 602.93384 1520.5428 0
859.33771 602.53931 1519.5479 65536
871.20453 604.50464 1524.5042 65536
