# .PCD v0.7 - Point Cloud Data file format
VERSION 0.7
FIELDS x y z rgb
SIZE 4 4 4 4
TYPE F F F U
COUNT 1 1 1 1
WIDTH 1352
HEIGHT 1
VIEWPOINT 0 0 0 1 0 0 0
POINTS 1352
DATA ascii
1176.3478 439.81549 2195.5205 1645074
1177.8904 435.55902 2174.2727 1842453
1183.1331 432.74829 2160.2417 1776660
1185.7334 429.04193 2141.7397 1645074
1187.3312 425.05527 2121.8389 1579281
1195.845 423.60239 2114.5862 1052939
1198.2655 420.04373 2096.8218 1579538
1202.6981 417.2565 2082.908 1710867
1205.8774 414.09564 2067.1294 1645074
1211.4591 411.81528 2055.7458 1381902
1198.0293 403.18225 2012.6508 1447697
1200.1349 399.89664 1996.249 1447441
1210.7653 399.48807 1994.2096 789511
1205.1852 393.79065 1965.7687 460546
1207.8579 390.87341 1951.2061 460290
1218.3149 390.50681 1949.3759 460290
1220.0164 387.36707 1933.7026 65792
1219.8425 383.69614 1915.3776 657925
1219.9131 380.16925 1897.7717 1907473
1214.4727 375.00531 1871.9938 2433813
1215.0905 371.78885 1855.9375 2960158
1209.098 366.62592 1830.1646 3288864
1218.293 366.11914 1827.6348 4013098
1220.0104 363.39407 1814.0315 4144684
1234.1991 364.39896 1819.0477 3618339
1240.0424 362.94373 1811.7834 3683619
1244.615 361.1449 1802.8037 3486243
1245.4924 358.31372 1788.6708 3354657
1243.7942 354.79578 1771.1095 3288607
1245.205 352.21628 1758.2329 3157278
1236.0369 346.71234 1730.7577 3091485
1229.703 342.08774 1707.6721 3025437
1221.7417 337.08981 1682.723 2828058
1222.3511 334.51865 1669.8878 3157280
1221.5305 331.60074 1655.322 2893596
1221.2169 328.86597 1641.6703 3025438
1220.9175 326.17838 1628.254 2432787
1231.8436 326.50848 1629.9017 3024924
1239.3718 325.93976 1627.0629 2827288
1249.8606 326.15247 1628.1246 3222303
1260.767 326.47 1629.7098 1708807
1262.182 324.34378 1619.0958 2564886
1271.3706 324.23212 1618.5385 3091231
1279.5807 323.87451 1616.7533 3091485
1286.2738 323.14111 1613.0923 3091485
1289.1749 321.47296 1604.765 3157278
1294.7042 320.47998 1599.808 2894103
1291.1718 317.27466 1583.8074 3091739
1277.7496 311.70325 1555.9954 2960666
1293.8552 313.36331 1564.2823 3026202
1282.4926 308.39459 1539.4789 3026202
1272.087 303.72476 1516.1676 2828824
1275.844 302.47836 1509.9456 3026458
1273.9948 299.92947 1497.2218 2960666
1275.7969 298.26965 1488.9362 3091996
1276.1376 296.29343 1479.0709 3091996
1283.118 295.87527 1476.9835 3223582
1274.4403 291.87671 1457.0231 3091744
1279.8356 291.13345 1453.3127 3420708
1284.0094 290.12418 1448.2745 3025952
1290.3871 289.62296 1445.7726 3420453
1296.1394 288.98898 1442.6078 3289124
1301.2467 288.22046 1438.7714 3025698
1302.2421 286.55713 1430.4681 2960159
1310.5238 286.50836 1430.2247 3223331
1315.5347 285.74973 1426.4377 3223331
1315.0696 283.819 1416.7997 3157538
1330.8741 285.40186 1424.701 2894366
1318.557 280.9722 1402.5886 2894111
1317.9834 279.0849 1393.1675 2630940
1324.1854 278.647 1390.9814 2565147
1325.9874 277.29437 1384.2292 1775633
1338.8629 278.25986 1389.049 1249290
1345.1666 277.85605 1387.0332 1183752
0 0 0 0
0 0 0 0
0 0 0 0
0 0 0 0
0 0 0 0
0 0 0 0
0 0 0 0
0 0 0 0
0 0 0 0
0 0 0 0
0 0 0 0
-1726.4498 413.41443 2004.2439 1841929
-1716.6882 413.9339 2006.7625 1710089
-1703.9163 413.72977 2005.7727 1710088
-1693.5582 414.11298 2007.6306 1907467
-1676.4706 412.84445 2001.4806 1710089
-1697.3771 420.98105 2040.9271 1907470
-1640.8411 409.88925 1987.1539 1710091
-1622.491 408.24484 1979.1818 1644298
-1606.1479 407.08511 1973.5592 1775884
-1590.1692 406.00125 1968.3048 1578504
-1563.3773 402.12012 1949.4889 1710091
-1542.15 399.62289 1937.3824 1382153
-1520.7565 397.0448 1924.8835 1316103
-1499.5183 394.46838 1912.3932 1447689
-1484.2637 393.43872 1907.4012 1381895
-1471.3171 393.0097 1905.3214 1184517
-1566.4993 421.68085 2044.3197 1184516
-1462.0376 396.63867 1922.9147 1184517
-1451.286 396.82489 1923.8175 1184517
-1446.7578 398.72928 1933.0499 1052931
-1444.4139 401.27094 1945.3721 921346
-1445.4938 404.8125 1962.5416 855552
-1444.2397 407.75278 1976.796 592384
-1438.2371 409.38959 1984.7314 526080
-1435.9478 412.11923 1997.9647 262400
-1422.8832 411.77609 1996.3014 131328
-1413.0372 412.36649 1999.1635 131584
-1402.5066 412.76538 2001.0974 196864
-1395.9323 414.3454 2008.7574 196608
-1388.0017 415.54672 2014.5813 256
-1376.1704 415.59094 2014.7957 65536
-1360.6254 414.50452 2009.5289 65536
-1350.9277 415.19608 2012.8815 256
-1337.1716 414.64145 2010.1926 0
-1325.766 414.81226 2011.0208 0
-1314.0627 414.89224 2011.4084 0
-1302.0737 414.88263 2011.3618 0
-1289.5811 414.71085 2010.5291 0
-1276.2458 414.26239 2008.3549 0
-1264.0619 414.18265 2007.9684 0
-1250.9707 413.80133 2006.1198 0
-1235.9282 412.76096 2001.076 256
-1224.5085 412.92209 2001.8572 256
-1210.879 412.33383 1999.0051 256
-1197.6147 411.8595 1996.7057 256
-1184.9878 411.59708 1995.4336 256
-1170.4619 410.66309 1990.9055 132099
-1155.4642 409.54282 1985.4744 263428
-1143.6482 409.5387 1985.4543 461064
-1131.8436 409.5387 1985.4543 526601
-1120.7343 409.79291 1986.6868 132099
-1113.2449 411.3902 1994.4304 132099
-1102.2808 411.72409 1996.0491 256
-1090.645 411.81155 1996.4731 256
-1078.5695 411.73309 1996.0928 256
-1065.6165 411.31421 1994.062 2
-1054.7476 411.69937 1995.9294 131842
-1042.5132 411.55426 1995.226 66049
-1031.8624 412.03818 1997.5719 0
-1018.0749 411.26624 1993.8295 197892
-1008.2281 412.0867 1997.8073 132099
-998.99097 413.17896 2003.1025 131842
-997.86591 417.69312 2024.9873 198407
-987.81763 418.53683 2029.0776 66564
-985.06061 422.5289 2048.4312 198149
-987.16473 428.73215 2078.5046 256
-969.57288 426.43008 2067.3442 256
-957.06207 426.33237 2066.8704 0
-947.47809 427.55286 2072.7874 0
-939.18896 429.39743 2081.73 0
-927.90448 429.90359 2084.1838 0
-915.05853 429.69016 2083.1492 0
-901.59979 429.17923 2080.6721 0
-884.95532 427.11652 2070.6721 0
-872.70532 427.14642 2070.8171 0
-861.20837 427.55115 2072.7791 0
-851.07227 428.65286 2078.1204 0
-838.67242 428.63019 2078.0105 0
-827.6416 429.31699 2081.3401 0
-815.06439 429.2103 2080.8228 0
-800.67804 428.13297 2075.5999 0
-788.79932 428.3837 2076.8154 0
-774.29541 427.19409 2071.0481 0
-755.13562 423.3558 2052.4399 0
-714.25836 407.01575 1973.2231 65536
-697.82184 404.29007 1960.0088 65536
-721.11609 424.8811 2059.8347 65536
-712.03265 426.7771 2069.0266 65536
-681.22522 415.48996 2014.3063 65536
-662.97028 411.59183 1995.4081 65792
-648.52533 409.96014 1987.4974 65792
0 0 0 0
0 0 0 0
-590.99341 395.19406 1915.9111 65792
0 0 0 0
0 0 0 0
0 0 0 0
-493.91547 357.86945 1734.9604 1777168
-476.54727 352.65018 1709.6572 2172182
-486.44122 367.81732 1783.188 2632731
-490.3829 379.05933 1837.6896 2830109
-483.68735 382.4039 1853.9042 2830364
-491.00323 397.2403 1925.8313 2896154
-450.30008 373.0083 1808.3541 3027740
-483.42139 410.23956 1988.8522 3356704
-447.22302 389.03705 1886.0618 3422751
-417.10254 372.16699 1804.2754 3751460
-430.25174 394.03363 1910.2854 3883303
-407.93936 383.72897 1860.3281 3620388
-372.43997 360.09995 1745.7739 3883305
-358.95557 357.01181 1730.8026 4344114
-403.33356 412.98898 2002.1815 4014894
-334.83652 353.27887 1712.7052 4541237
0 0 0 0
-324.14328 364.14502 1765.3846 5724742
-342.694 397.86847 1928.8767 5329984
-330.93042 397.51355 1927.1561 5329470
-308.95761 384.43005 1863.7269 6053191
0 0 0 0
0 0 0 0
0 0 0 0
-244.85747 355.70032 1724.4445 6185286
-235.45972 356.99652 1730.7285 6119493
-220.2924 349.26382 1693.2402 5462077
-207.07845 344.03583 1667.8947 6185543
-194.92502 340.13245 1648.9709 5856835
-182.85313 335.96542 1628.7692 5198135
-172.13155 333.95209 1619.0085 4934961
-161.39926 331.67825 1607.985 4671532
-152.17784 332.41846 1611.5734 4277031
-142.44621 332.06873 1609.8779 4277034
-132.39417 330.86783 1604.056 3750178
-121.96589 328.46729 1592.418 3618592
0 0 0 0
-101.39943 323.26746 1567.2091 3092246
-91.470604 321.12247 1556.8102 2895123
-82.042068 320.44858 1553.5432 2960662
-73.209221 322.22568 1562.1584 2697746
-63.875793 321.99567 1561.0435 2961177
-54.418934 320.95953 1556.0203 2698006
-44.749031 317.98502 1541.5997 1974281
-35.370876 316.08533 1532.39 1909000
-26.155523 314.82712 1526.2902 1645829
-16.996704 313.27393 1518.7603 1580041
-7.9465585 312.47327 1514.8785 2172179
1.0560845 311.27618 1509.0751 2106131
10.051948 312.01068 1512.636 1908498
19.000519 311.27673 1509.0778 1645069
27.983242 311.39368 1509.6447 1513741
36.759739 309.71628 1501.5126 1513998
45.61433 309.22379 1499.125 1316365
54.462208 308.85425 1497.3335 1316108
63.064995 307.39389 1490.2537 1381901
71.713768 306.48987 1485.871 1645328
80.336914 305.68665 1481.9769 1118985
89.421501 306.62445 1486.5234 658946
98.371475 306.97351 1488.2157 724483
107.91708 308.97025 1497.8959 658690
116.9595 309.33176 1499.6486 526593
126.10862 309.90427 1502.4241 461057
0 0 0 0
0 0 0 0
0 0 0 0
327.40546 626.94525 3039.447 1776399
350.72177 636.46405 3085.5942 1644813
369.06714 636.46405 3085.5942 1907729
386.45676 634.89374 3077.9817 1907985
404.61542 634.67188 3076.906 1776399
422.57196 634.16589 3074.4529 1513227
438.0527 630.14032 3054.9368 1513227
456.4364 630.44507 3056.4141 1776401
471.52545 626.34998 3036.561 1644815
486.9523 622.98901 3020.2671 1776402
505.4296 623.63104 3023.3796 1579279
524.1062 624.46637 3027.4292 1579280
543.0321 625.53351 3032.6028 1316110
563.69397 628.46741 3046.8264 1316109
583.27063 630.04639 3054.4814 1447695
601.30975 629.91931 3053.8652 1776660
620.27576 630.74219 3057.8547 1184523
643.76019 635.98206 3083.2578 1447949
664.68268 638.47089 3095.3237 1447949
678.00885 633.72546 3072.3176 1513740
706.80188 643.3064 3118.7664 1447947
733.49951 650.539 3153.8303 1645327
754.21948 652.2417 3162.085 1645327
787.65802 664.59302 3221.9644 1579537
815.47211 671.72473 3256.5391 1842453
839.1731 675.21613 3273.4656 1645074
858.02637 674.73718 3271.1436 1579281
884.80847 680.37628 3298.4822 1645074
903.62262 679.77679 3295.5757 1579282
913.60992 672.70337 3261.2834 1184525
932.04913 672.01788 3257.9604 921353
947.13519 668.99182 3243.29 1381392
968.62817 670.52167 3250.7068 1645076
993.19238 674.07611 3267.9387 1710867
1010.5057 672.66748 3261.1096 1777170
1030.4293 673.01666 3262.8025 1711121
1047.5098 671.53033 3255.5967 1711121
1067.1216 671.69128 3256.377 1711121
1070.2234 661.63953 3207.6458 1776914
1103.1311 670.04395 3248.3906 1842194
1114.7687 665.46191 3226.1768 1776401
1109.0073 650.82428 3155.2131 1052680
1119.674 646.15411 3132.572 1052680
1106.573 628.14502 3045.2637 1052425
1094.1591 611.09955 2962.6267 921353
1109.2745 609.72607 2955.968 1513490
1118.9406 605.44672 2935.2217 1381904
1121.4608 597.49176 2896.6558 1184525
1130.7682 593.33881 2876.522 1119245
1122.375 580.16003 2812.6311 395778
1124.5073 572.72906 2776.6055 921608
1127.4796 565.93469 2743.6663 1645328
1112.9806 550.68945 2669.7571 2237722
1149.8159 560.91553 2719.3333 2303514
1161.0651 558.54938 2707.8621 2237719
1158.4435 549.66644 2664.7974 1974549
1165.2601 545.4411 2644.3127 1579534
1171.3733 541.0033 2622.7983 1382156
1180.0126 537.83356 2607.4312 1316364
1182.9183 532.16656 2579.9575 1382156
1175.2932 521.96771 2530.5132 1645328
1187.2308 520.60504 2523.907 1513742
1193.3014 516.73584 2505.1489 1382156
1193.679 510.52713 2475.0488 1382156
1185.4889 500.84991 2428.1335 1316363
1193.7898 498.28894 2415.7178 1316108
1183.4474 488.09964 2366.3198 1710866
1183.2063 482.26694 2338.0427 1579281
1174.0217 472.9668 2292.9553 1447695
1183.3232 471.24188 2284.593 1579281
1176.2996 463.12869 2245.26 1579281
1180.5956 459.60428 2228.1736 1579281
1179.1119 453.93307 2200.6794 1513488
1181.0857 449.70276 2180.1707 1645074
1180.7233 444.68442 2155.8418 1710867
1192.2094 444.18835 2153.4368 1644818
1192.6714 439.63922 2131.3823 1645074
1186.8269 432.88541 2098.6399 1907990
1193.1725 430.67209 2087.9097 1644817
1194.2917 426.63742 2068.3494 1776147
1195.5516 422.73468 2049.4287 1710610
1195.0186 418.28314 2027.8475 1579024
1196.2181 414.52087 2009.6082 1842454
1201.395 412.19769 1998.3451 2105625
1202.3141 408.47342 1980.2899 1776659
1198.8484 403.34619 1955.4329 1513490
1210.4425 403.3356 1955.3815 1579283
1217.2789 401.75488 1947.7183 1315855
1225.76 400.74167 1942.8063 460291
1223.2683 396.19351 1920.7566 131328
1224.3301 392.86975 1904.6429 460802
1224.0194 389.17056 1886.7091 132096
1226.6 386.44946 1873.5172 197376
1208.3204 377.26434 1828.9874 986888
1209.3568 374.22018 1814.2292 2039055
1215.4767 372.78891 1807.2904 2434067
1222.2219 371.57281 1801.3948 2894358
1236.1301 372.53662 1806.0673 3618081
1248.5402 373.03622 1808.4894 4144168
1246.1228 369.13498 1789.576 4012581
1240.3696 364.32004 1766.2332 3881252
1243.4375 362.15503 1755.7372 3485981
1240.2758 358.22687 1736.6932 3617311
1241.3635 355.58075 1723.8649 3288349
1229.6624 349.3447 1693.6323 2827798
1224.4587 345.04089 1672.7672 2959386
1228.2725 343.32697 1664.4581 2959130
1229.1479 340.82565 1652.3318 3090974
1219.474 335.46207 1626.3289 2499094
1234.538 336.93439 1633.4668 2762266
1239.2017 335.56741 1626.8396 2564887
1248.1848 335.3822 1625.9418 2630680
1264.2372 337.08475 1634.1957 1973007
1267.3813 335.34583 1625.7654 2828059
1275.949 335.05737 1624.3669 3157280
1285.4778 335.0238 1624.2042 3091485
1286.9292 332.90131 1613.9142 3025692
1296.9161 333.0018 1614.4014 3025692
1297.938 330.8158 1603.8037 3157019
1295.3278 327.74271 1588.9053 3157276
1293.8989 325.01089 1575.6614 2959897
1284.0901 320.22855 1552.4763 3091483
1273.9271 315.42673 1529.197 3157536
1268.748 311.91827 1512.188 3354914
1270.0104 310.03165 1503.0415 3025947
1278.3373 309.88388 1502.3252 3091996
1278.7109 307.82367 1492.3372 3223582
1274.4049 304.673 1477.0627 3092253
1270.5817 301.68011 1462.5531 3289374
1272.6653 300.12088 1454.9939 3026203
1291.7103 302.55554 1466.7971 3091740
1284.2369 298.78781 1448.5311 3025692
1305.5316 301.71881 1462.7407 3223070
1296.8779 297.73553 1443.4297 3288608
1305.0101 297.633 1442.9325 3157024
1311.7148 297.20831 1440.8737 3157024
1319.1323 296.94962 1439.6195 3354401
1325.3462 296.42505 1437.0764 3157535
1333.0869 296.24649 1436.2108 3091485
1335.3969 294.87103 1429.5426 3157532
1342.0312 294.46188 1427.5588 3223325
1343.3868 292.90683 1420.02 3157532
1361.0858 294.91245 1429.7432 3091484
1359.8337 292.81241 1419.5623 3025948
1360.7905 291.211 1411.7985 3025435
1363.2688 289.95282 1405.6989 3090974
0 0 0 0
0 0 0 0
0 0 0 0
0 0 0 0
0 0 0 0
0 0 0 0
0 0 0 0
0 0 0 0
0 0 0 0
0 0 0 0
0 0 0 0
-1732.3893 426.79388 2011.1389 1973261
-1718.5743 426.33295 2008.9672 1973261
-1698.7191 424.35678 1999.6549 2039054
-1685.5796 424.04218 1998.1724 1578503
-1673.5231 423.9975 1997.9618 1841675
-1660.9623 423.82349 1997.1418 1775884
-1640.8583 421.70834 1987.1749 1710091
-1621.7142 419.81097 1978.2343 1578505
-1590.7043 414.79181 1954.5829 1841677
-1575.5461 413.86264 1950.2043 1644298
-1610.9335 426.29538 2008.79 1644298
-1532.6252 408.60229 1925.4166 1579276
-1513.6659 406.58456 1915.9087 1447689
-1497.3391 405.24875 1909.6139 1250309
-1485.2002 405.03458 1908.6047 1381896
-1469.2661 403.77411 1902.6653 1184517
-1460.4056 404.45316 1905.865 1316103
-1450.7209 404.91278 1908.0308 1316103
-1443.4309 406.05319 1913.4048 1118724
-1444.5615 409.59946 1930.1155 789761
-1487.7898 425.23471 2003.7919 855553
-1460.5228 420.81104 1982.9465 855552
-1459.0975 423.8215 1997.1326 526592
-1438.2371 421.18979 1984.7314 263168
-1434.2128 423.48581 1995.5508 263424
-1422.3483 423.48581 1995.5508 197120
-1413.2516 424.31686 1999.4668 197120
-1402.5403 424.6731 2001.1454 197120
-1395.2026 426.06567 2007.7076 131328
-1383.5068 426.13992 2008.0574 65792
-1372.954 426.57056 2010.0867 131072
-1361.4437 426.70868 2010.7375 0
-1347.8768 426.19891 2008.3354 0
-1336.7085 426.44531 2009.4965 65536
-1324.5575 426.37979 2009.1877 256
-1312.954 426.49088 2009.7113 0
-1300.7421 426.40463 2009.3048 0
-1288.6525 426.35721 2009.0813 0
-1275.5532 425.97171 2007.2649 0
-1264.5437 426.28345 2008.7338 0
-1250.7903 425.66733 2005.8304 0
-1236.1123 424.72165 2001.3741 256
-1223.9604 424.63394 2000.9609 256
-1208.7355 423.46796 1995.4666 256
-1196.2996 423.26562 1994.5132 0
-1181.9688 422.38205 1990.3496 197892
-1169.452 422.1355 1989.1877 263685
-1157.7942 422.19702 1989.4778 395271
-1144.2603 421.56876 1986.5171 197892
-1133.8518 422.09079 1988.9771 131586
-1122.5143 422.27432 1989.8419 256
-1115.6691 424.16977 1998.7737 256
-1103.1503 423.92569 1997.6234 2
-1090.9174 423.78735 1996.9717 2
-1078.834 423.70471 1996.5823 3
-1067.4963 423.91638 1997.5797 513
-1055.4144 423.83395 1997.1913 513
-1043.9829 424.01379 1998.0387 513
-1028.8519 422.67792 1991.7438 461064
-1016.4307 422.43716 1990.6094 132613
-1006.5046 423.23996 1994.3922 513
-1002.1155 426.41797 2009.3676 329735
-994.86853 428.44189 2018.9047 257
-991.62823 432.26178 2036.9049 329992
-983.04254 433.81726 2044.2347 513
-987.72186 441.33884 2079.6777 256
-968.87341 438.405 2065.853 256
-956.84827 438.52295 2066.4087 0
-946.0387 439.20834 2069.6384 0
-934.07129 439.3671 2070.3867 0
-921.13873 439.07013 2068.9871 0
-908.88818 439.09454 2069.1023 0
-896.70819 439.15424 2069.3835 0
-883.91034 438.90875 2068.2268 0
-873.70135 439.96002 2073.1807 0
-862.33496 440.45023 2075.4905 0
-850.09613 440.50256 2075.7371 0
-832.5069 437.7431 2062.7339 0
-819.9292 437.57571 2061.9451 0
-815.75171 441.95422 2082.5776 0
-804.38904 442.51492 2085.2197 0
-783.3573 437.69077 2062.4873 0
-771.50873 437.92569 2063.5945 0
-733.37732 423.00845 1993.3013 0
-715.35675 419.39151 1976.2576 65536
-712.6474 424.78021 2001.6501 65536
-695.36023 421.51511 1986.2643 256
-681.1825 420.0546 1979.3822 256
-676.62445 424.57907 2000.7024 256
-654.65985 418.14746 1970.3954 65792
-656.10406 426.70572 2010.7236 65792
-639.55548 423.6626 1996.3838 65792
-571.53162 385.76065 1817.7822 65792
-534.90198 367.99597 1734.0713 65792
-597.93152 419.44278 1976.4991 65792
-590.40869 422.46848 1990.7568 0
0 0 0 0
0 0 0 0
-495.87811 377.53229 1779.0084 2764062
-525.88556 409.10434 1927.7823 2895904
-462.04068 367.44568 1731.4783 2698525
-435.36731 354.12329 1668.7006 3027489
-431.44345 359.11523 1692.2236 3027743
-417.61179 355.90186 1677.0815 2896157
-414.1153 361.55469 1703.7188 3159841
-408.68304 365.75854 1723.5282 2896926
-397.10916 364.54068 1717.7894 3094304
-386.29449 363.97391 1715.1185 3094305
-372.23975 360.24072 1697.5271 3028256
-362.37128 360.46371 1698.5779 2830365
-344.57092 352.58319 1661.4432 2764319
-343.4917 361.85239 1705.1216 2895906
-335.4892 364.17023 1716.0437 2829857
-321.1666 359.55786 1694.3093 2566942
-310.86337 359.29233 1693.0581 2632735
-300.98203 359.513 1694.0979 3224616
-292.29626 361.22644 1702.172 2566942
-279.57654 357.89877 1686.4913 2500893
-270.23825 358.81326 1690.8005 2830372
-259.11581 357.33792 1683.8485 2238490
-247.91862 355.63684 1675.8326 2172184
-238.20053 356.00378 1677.5619 2369309
-227.66588 355.12921 1673.4406 2171930
-218.51877 356.43793 1679.6074 2237724
-207.20265 354.16458 1668.895 2106651
-196.04659 351.94983 1658.4587 2237982
-183.91678 347.65991 1638.2437 1711639
-173.64832 346.60538 1633.2747 1580053
-160.8605 340.09949 1602.6174 1580052
-150.9325 339.20132 1598.3851 1316622
-140.76895 337.61752 1590.922 1645586
-130.29561 335.00906 1578.6304 1513999
-120.60262 334.15775 1574.6188 921606
-110.91825 333.18906 1570.0541 789763
-101.51109 332.95154 1568.9349 658179
-91.941833 332.08051 1564.8304 526849
-82.284554 330.65964 1558.135 395008
-72.930077 330.24939 1556.2019 658179
-63.306477 328.32425 1547.1301 790020
-54.200249 328.88385 1549.7671 263681
-44.570148 325.84283 1535.4373 131840
-35.326622 324.78931 1530.4728 66048
-26.095875 323.16296 1522.8092 256
-16.979485 321.97717 1517.2214 0
-7.9282541 320.73944 1511.389 263168
1.0549685 319.90997 1507.4805 460802
10.012262 319.73669 1506.6639 263169
19.129955 322.43057 1519.358 460546
27.74597 317.6528 1496.8442 197376
36.789944 318.9053 1502.7462 131584
45.744003 319.04123 1503.3867 65792
54.739655 319.3754 1504.9613 0
63.081944 316.33917 1490.6541 256
72.394417 318.31693 1499.9736 0
81.281975 318.19742 1499.4105 256
90.11158 317.89706 1497.9952 256
99.025558 317.92166 1498.1111 256
108.00312 318.12943 1499.0902 65536
117.51498 319.7594 1506.7709 65792
126.70704 320.34985 1509.5533 329219
0 0 0 0
0 0 0 0
0 0 0 0
0 0 0 0
360.23779 672.57611 3169.3147 1711119
365.70193 648.83875 3057.4592 1513996
390.05634 659.27789 3106.6509 1645326
408.52689 659.27789 3106.6509 1645326
425.05374 656.27686 3092.509 1513740
440.21466 651.50305 3070.0142 1513996
456.75848 649.07458 3058.5708 1316107
473.33731 646.87994 3048.229 1579022
488.38452 642.83118 3029.1504 1579281
505.09592 641.18292 3021.3835 1447695
523.17981 641.33032 3022.0781 1381904
542.64539 643.10553 3030.4431 1710868
558.29089 640.3847 3017.6221 1447697
582.99554 647.90106 3053.0408 1579282
608.40033 655.71808 3089.8762 1184779
616.38098 644.84808 3038.6543 1447948
638.40717 648.87286 3057.6199 1579535
663.96014 656.1601 3091.959 1513742
678.53241 652.49542 3074.6902 1513742
701.0332 656.4472 3093.312 1645328
723.25409 659.94159 3109.7781 1776914
750.55475 667.78131 3146.7205 1579534
783.55585 680.18811 3205.1838 1513489
795.60999 674.25391 3177.2207 1579281
794.13824 657.39813 3097.7927 1579281
850.47314 688.07483 3242.3477 1908246
864.24823 683.72186 3221.8354 1974039
902.28015 698.3316 3290.6797 1579281
920.07074 696.98761 3284.3464 1579283
923.33771 684.92603 3227.5098 1645075
952.86639 692.43964 3262.9155 1710612
970.15991 690.93964 3255.8472 1710867
995.5827 695.1748 3275.804 1513488
1006.844 689.54858 3249.2922 1710867
1017.8969 683.9942 3223.1191 1513743
1041.9808 687.23987 3238.4131 1908246
1061.7587 687.57904 3240.0115 1645074
1071.6781 681.63586 3212.0059 1250316
1084.7633 677.87909 3194.3032 1842195
1113.8601 684.08521 3223.5476 1973782
1110.7404 670.63 3160.144 921093
1120.745 665.41467 3135.5686 986887
1118.6912 653.32782 3078.6128 789764
1121.3419 644.33337 3036.2292 855816
1133.8511 641.19891 3021.459 921352
1119.3298 623.11481 2936.2429 1184524
1107.3688 606.98944 2860.2571 1710868
1104.678 596.35638 2810.1519 1514000
1113.0371 591.91663 2789.2307 1448208
1116.832 585.21552 2757.6538 1119244
1123.028 579.94824 2732.8333 921864
1133.5057 577.01086 2718.9919 790278
1133.8135 569.05188 2681.4873 987655
1148.1692 568.26642 2677.7861 2632223
1162.6631 567.56982 2674.5037 2369561
1159.9294 558.5957 2632.2158 2237463
1168.4733 555.21912 2616.3049 2105877
1176.0648 551.48474 2598.7078 2303256
1177.6952 545.08826 2568.5659 1250569
1179.2351 538.81403 2539.0007 1513741
1187.3203 535.65137 2524.0974 1513741
1191.2178 530.7019 2500.7747 1447949
1187.7135 522.61755 2462.6797 1513742
1192.5658 518.36243 2442.6284 1645328
1187.5919 509.99005 2403.176 1513488
1180.6174 500.96771 2360.6611 1513488
1180.6345 495.08932 2332.9609 1579281
1176.9132 487.79797 2298.6025 1513488
1182.3176 484.41293 2282.6516 1579282
1176.2996 476.47787 2245.26 1645076
1179.0438 472.23044 2225.2451 1579283
1186.6638 470.0083 2214.7742 1710868
1186.472 464.77496 2190.1135 1447695
1182.0867 458.0303 2158.3313 1645074
1183.1876 453.53348 2137.1414 1579281
1191.0657 451.70233 2128.5127 1908246
1188.5088 445.99396 2101.6138 1776660
1197.321 444.62637 2095.1692 1711378
1193.7607 438.73969 2067.4299 1842193
1197.2394 435.53351 2052.322 1907987
1199.5765 431.98105 2035.582 1842194
1196.3523 426.51685 2009.8335 2171159
1197.1584 422.58334 1991.2982 1842194
1178.3175 411.85971 1940.7661 1579021
1196.7512 414.24628 1952.0122 1907987
1198.3754 410.8244 1935.8877 2170645
1193.6824 405.32263 1909.9623 2038805
1203.4839 404.7999 1907.499 1973013
1210.9199 403.49872 1901.3674 1710353
1209.4768 399.29025 1881.5363 1513230
1210.412 395.93689 1865.7346 1315850
1216.9374 394.45642 1858.7584 592131
1222.8578 392.80829 1850.9922 460545
1217.7488 387.67828 1826.8185 197120
1218.585 384.51492 1811.912 262656
1227.255 383.85727 1808.813 262912
1229.7122 381.28464 1796.6903 2104339
1236.7114 380.15256 1791.3557 2762520
1239.0679 377.62482 1779.4445 2894105
1246.3525 376.62909 1774.7524 3289119
1247.0867 373.68726 1760.8899 3749412
1248.348 370.95105 1747.9963 3617828
1246.6671 367.39297 1731.23 3157276
1241.131 362.76633 1709.4282 2762774
1233.6156 357.64102 1685.2767 2827797
1232.3615 354.3989 1669.9991 2893847
1229.2036 350.6655 1652.4067 2959386
1217.2545 344.50323 1623.3689 3222301
1238.9675 347.88992 1639.3276 3156508
1245.3665 346.95728 1634.9329 2893337
1254.8827 346.90079 1634.6666 2959130
1261.2795 345.9895 1630.3724 2235408
1268.2009 345.23489 1626.8167 2827543
1277.735 345.19757 1626.6407 3024920
1285.2935 344.63107 1623.9713 3156506
1289.3706 343.14655 1616.9758 3353885
1296.9164 342.60025 1614.4016 3222555
1297.938 340.3512 1603.8037 2894104
1301.6259 338.82901 1596.6309 3091483
1301.7323 336.40335 1585.2006 3091483
1274.0977 326.89502 1540.3954 3157276
1272.2693 324.09625 1527.207 3223069
1289.7941 326.23224 1537.2722 3288605
1285.7261 322.91501 1521.6407 3091996
1280.3226 319.3111 1504.6584 3157789
1275.1975 315.82614 1488.2367 2828823
1275.0863 313.62247 1477.8524 3223581
1278.4556 312.29913 1471.6166 3157789
1288.35 312.5769 1472.9257 3157790
1277.2549 307.79288 1450.3823 2894363
1287.1235 308.091 1451.787 3157536
1291.655 307.11609 1447.1931 3157280
1299.162 306.85693 1445.9719 3223330
1308.8639 307.11618 1447.1935 3288868
1320.0511 307.71829 1450.0308 3157280
1331.4889 308.37061 1453.1046 3618088
1340.2975 308.40955 1453.2881 3486500
1348.7438 308.36514 1453.0789 3486243
1356.5668 308.17972 1452.2051 3617828
1359.13 306.80927 1445.7473 3157275
1374.2773 308.27896 1452.6727 2894104
1377.2461 307.01544 1446.7188 3222812
1381.3524 306.01959 1442.0261 3288862
1383.5233 304.60989 1435.3834 3354657
1388.3827 303.80579 1431.5944 3091485
0 0 0 0
0 0 0 0
0 0 0 0
0 0 0 0
0 0 0 0
0 0 0 0
0 0 0 0
0 0 0 0
0 0 0 0
0 0 0 0
0 0 0 0
-1712.8495 433.80237 1988.4551 1973263
-1711.2988 436.42191 2000.4625 1578506
-1700.0493 436.58731 2001.2207 1710092
-1681.3568 434.8302 1993.1664 1710089
-1669.2036 434.75131 1992.8049 1710346
-1656.254 434.46243 1991.4807 1513738
-1633.9121 431.68787 1978.7626 1579532
-1617.6688 430.496 1973.2996 1382153
-1594.9208 427.54306 1959.7638 1381639
-1573.7618 424.97577 1947.996 1513225
-1554.6323 422.92249 1938.5841 1512967
-1528.0994 418.80945 1919.7308 1250308
-1507.5415 416.28442 1908.1567 1381895
-1493.7224 415.59604 1905.0013 1250308
-1483.454 415.89261 1906.3607 1381895
-1466.3413 414.2601 1898.8778 1316102
-1458.1748 415.14935 1902.9537 1118723
-1448.8538 415.72116 1905.575 1250310
-1440.1672 416.48553 1909.0785 921345
-1441.3021 420.12485 1925.7604 987138
-1436.7151 422.14124 1935.0031 855810
-1428.3132 423.06027 1939.2157 723968
-1439.8654 429.95261 1970.8086 658176
-1439.3815 433.33453 1986.3107 395008
-1433.3739 435.09573 1994.3835 394496
-1419.8723 434.5925 1992.077 197120
-1410.486 435.35107 1995.554 197120
-1404.0509 437.04111 2003.3009 197120
-1394.8383 437.88812 2007.1832 196864
-1384.7122 438.46048 2009.8068 65792
-1373.403 438.66489 2010.7439 65792
-1362.0121 438.84659 2011.5768 0
-1348.8459 438.45453 2009.7797 0
-1336.0403 438.17358 2008.4918 65536
-1322.8851 437.77194 2006.6509 0
-1311.7074 438.02335 2007.8031 0
-1299.6139 437.97076 2007.562 0
-1287.3297 437.85229 2007.0192 0
-1273.9481 437.35489 2004.7391 0
-1261.4098 437.14035 2003.7556 0
-1248.4602 436.7778 2002.0938 0
-1233.8031 435.80515 1997.6355 256
-1221.1564 435.53058 1996.3768 256
-1207.751 434.97739 1993.8412 263683
-1194.2682 434.3851 1991.1263 263684
-1182.4227 434.38248 1991.1141 395271
-1170.4792 434.34338 1990.9351 329478
-1159.1406 434.53021 1991.7915 263685
-1146.4404 434.20529 1990.302 131842
-1137.7543 435.4097 1995.8228 0
-1127.2014 435.91757 1998.1508 256
-1115.7861 436.09918 1998.9833 256
-1103.1996 435.82202 1997.7128 256
-1091.2692 435.80084 1997.6157 256
-1079.4344 435.81784 1997.6935 256
-1067.2755 435.70291 1997.1667 256
-1054.5743 435.36142 1995.6016 256
-1044.2285 435.99564 1998.5087 257
-1032.5399 436.07739 1998.8834 132099
-1017.1098 434.5625 1991.9393 263429
-1007.897 435.69949 1997.1511 132099
-1001.2532 437.98743 2007.6384 132356
-995.86578 440.88678 2020.9285 132613
-994.12634 445.49167 2042.0364 395528
-983.74011 446.28772 2045.6853 132357
-975.32477 448.00897 2053.5752 0
-963.72528 448.29279 2054.876 256
-951.13837 448.11859 2054.0776 0
-938.85724 448.08585 2053.9275 0
-925.39764 447.48239 2051.1614 0
-914.58539 448.16003 2054.2676 0
-898.22375 446.09998 2044.8246 0
-886.79932 446.46899 2046.5162 0
-879.31445 448.85938 2057.4731 0
-865.97211 448.28494 2054.8401 0
-854.56586 448.71069 2056.7915 0
-835.63544 445.14066 2040.4274 0
-821.29559 443.9469 2034.9554 0
-810.87372 444.86688 2039.1724 0
-796.68842 443.71881 2033.9098 0
-781.36066 441.88922 2025.5233 0
-766.75641 440.41788 2018.7792 0
-761.9339 444.60764 2037.9843 0
-731.90002 433.98364 1989.2861 0
-720.07526 433.98517 1989.2931 0
-731.1839 448.0394 2053.7146 256
-701.31812 437.03714 2003.2826 256
-683.27069 433.14679 1985.45 65536
-677.92505 437.31317 2004.548 256
-666.66071 437.7424 2006.5155 196608
-645.30023 431.43723 1977.6138 262144
-635.49182 432.76477 1983.699 458752
-559.86835 388.47549 1780.6866 393216
-607.3963 429.57697 1969.0868 393216
-597.10876 430.60077 1973.7795 327680
0 0 0 0
0 0 0 0
0 0 0 0
-456.54169 357.32187 1637.8853 1909014
-446.79462 357.31467 1637.8522 1514513
-439.6669 359.44855 1647.6334 1448977
-431.13403 360.50476 1652.4749 1580566
-423.32086 362.22607 1660.365 1711897
-414.52255 363.16644 1664.6755 1316625
-404.33603 362.90689 1663.4857 1185296
-394.13248 362.61862 1662.1644 1316882
-385.61719 363.90881 1668.0782 1119503
-377.93472 366.0737 1678.0017 461830
-367.43771 365.55591 1675.6283 856073
-358.57928 366.68491 1680.8033 921866
-349.77951 367.94028 1686.5577 921864
-340.05914 368.27283 1688.082 856072
-355.98859 397.24823 1820.899 592646
-318.61377 366.6933 1680.8418 461060
-308.19733 366.19073 1678.5382 395012
-297.95505 365.86832 1677.0603 526598
-287.75992 365.58353 1675.7549 395011
-276.27612 363.58243 1666.5823 526852
-266.90402 364.31482 1669.9393 592900
-256.50711 363.65088 1666.8961 329730
-245.45598 361.9689 1659.1862 197890
-236.28593 363.03616 1664.0782 66304
-227.10446 364.17834 1669.3138 198144
-221.68895 371.73993 1703.9745 66560
-201.79245 354.58041 1625.319 512
-193.32428 356.78613 1635.4294 512
-179.36946 348.56342 1597.7384 0
-172.15544 353.25275 1619.2333 65792
-159.21591 346.05334 1586.2328 256
-152.53221 352.40039 1615.3263 66048
-140.07298 345.36038 1583.0564 66048
-128.94177 340.81635 1562.2275 66048
-120.02553 341.87589 1567.0842 256
-112.31821 346.84695 1589.8705 65536
-100.79897 339.87848 1557.9286 196608
-92.721931 344.28073 1578.1075 262144
-82.705299 341.66162 1566.1022 196608
-72.956299 339.62384 1556.7614 196608
-62.749889 334.55518 1533.5277 262144
-53.515469 333.82639 1530.1871 262144
-45.024208 338.38428 1551.0795 393216
-35.583107 336.31287 1541.5846 458752
-26.248201 334.15604 1531.6982 524288
-17.126169 333.8573 1530.3287 589824
-7.974761 331.65958 1520.2549 655360
1.0576665 329.71378 1511.3357 720896
10.021637 329.00232 1508.0747 720896
18.965263 328.61029 1506.2777 655360
27.916204 328.55582 1506.028 720896
36.761597 327.58728 1501.5884 851968
45.749805 328.02121 1503.5774 786432
54.63633 327.70334 1502.1205 720896
63.451759 327.10834 1499.3931 720896
72.385681 327.1955 1499.7926 524288
81.195305 326.76337 1497.8118 458752
90.304016 327.50128 1501.1942 787968
99.302017 327.74106 1502.2933 855040
108.05225 327.19107 1499.7722 789506
117.91682 329.84192 1511.9232 855303
126.98545 330.04855 1512.8704 1381642
0 0 0 0
0 0 0 0
0 0 0 0
0 0 0 0
354.44495 680.30084 3118.3501 1513740
371.26035 677.15509 3103.9307 1776911
386.75952 672.02014 3080.3933 1645326
415.22116 688.85437 3157.5576 1579533
430.36917 683.10022 3131.1819 1447947
440.21466 669.75586 3070.0142 1513483
467.07803 682.33478 3127.6733 1447949
484.4704 680.64429 3119.9246 1579278
493.03552 667.13428 3057.9976 1447695
508.42065 663.48535 3041.2715 1316109
526.47205 663.4469 3041.0955 1645075
543.49066 662.15277 3035.1636 1382157
561.62085 662.25262 3035.6211 1382156
582.0451 664.9671 3048.0637 1447693
594.98267 659.2226 3021.7322 1579280
616.57129 663.11902 3039.5925 1250570
636.16528 664.70947 3046.8826 1447948
661.3988 671.94116 3080.0312 1513742
675.42334 667.70239 3060.6018 1513742
699.97852 673.82324 3088.6582 1579535
723.24811 678.42517 3109.7524 1711121
750.49927 686.43933 3146.4878 1316619
780.60956 696.6153 3193.1321 921606
793.30859 691.1391 3168.0303 592643
833.10858 708.97998 3249.8091 592388
851.48285 708.19196 3246.197 592131
879.28894 715.10956 3277.9058 329218
901.7016 717.43597 3288.5696 395010
916.62793 713.83356 3272.0569 263427
928.45337 708.01617 3245.3911 460804
950.42242 710.01349 3254.5464 526596
964.59436 706.22241 3237.1692 197633
984.28784 706.54333 3238.6399 526596
997.34949 702.18262 3218.6514 592133
1018.1282 703.31702 3223.8513 526596
1041.7711 706.35156 3237.761 460804
1064.9553 708.97064 3249.7664 1052940
1074.2351 702.40466 3219.6694 1052939
1071.9073 688.61194 3156.4463 1381390
1104.1917 697.14642 3195.5667 592131
1093.6271 678.79669 3111.4556 855558
1123.8727 685.96625 3144.3191 658180
1118.95 671.78699 3079.3247 855301
1124.8945 664.48383 3045.8484 526593
1131.6553 657.88647 3015.6077 986886
1114.6642 637.90222 2924.0042 855301
1121.9569 632.21545 2897.9373 855558
1101.609 611.36096 2802.345 724484
1119.785 612.18915 2806.1409 1777171
1124.5131 605.74878 2776.6196 1579535
1132.3008 601.11914 2755.3984 1448206
1133.6826 593.26923 2719.4163 1448205
1139.3622 587.85754 2694.6104 1185035
1146.4771 583.32617 2673.8396 856325
1139.3193 571.75629 2620.8057 1053449
1152.3845 570.51025 2615.0942 2171672
1147.7618 560.65729 2569.9302 2698014
1170.9674 564.47815 2587.4443 2566428
1165.8197 554.70911 2542.6653 2434842
1178.7346 553.6745 2537.9229 2632221
1162.6443 539.21405 2471.6392 1447947
1181.6216 541.17523 2480.6289 1250571
1186.4331 536.68024 2460.0247 1382156
1189.6089 531.56384 2436.5723 1447949
1186.853 523.9519 2401.6807 1513488
1185.2419 517.02032 2369.908 1776660
1184.3569 510.56461 2340.3164 1710869
1186.4016 505.50714 2317.134 1579284
1185.0378 499.13013 2287.9033 1710870
1188.3049 494.82629 2268.1753 1579283
1191.1411 490.44153 2248.0767 1579283
1184.4464 482.27338 2210.6357 1645074
1202.9435 484.42932 2220.5181 1645074
1184.6337 471.87717 2162.9817 1645074
1208.981 476.40378 2183.7307 1710867
1195.7177 466.17108 2136.8262 1711122
1191.9999 459.83588 2107.7871 1645328
1194.9569 456.18066 2091.0322 1710608
1197.7605 452.54269 2074.3567 1907731
1191.3837 445.54568 2042.2839 1973780
1194.0671 442.04404 2026.233 2236951
1199.2408 439.52499 2014.6863 2368541
1178.176 427.53436 1959.7239 2236954
1185.735 426.06375 1952.9829 2236951
1187.4011 422.52481 1936.7614 1908243
1183.1736 416.97678 1911.3303 2105622
1176.3085 410.61362 1882.163 2104852
1175.5824 406.49316 1863.2756 2368022
1179.6909 404.10571 1852.3323 2236435
1190.4186 404.00888 1851.8882 2104850
1188.9979 399.82864 1832.7269 2104849
1192.4741 397.35605 1821.3932 1907985
1209.7062 399.47046 1831.0851 1710607
1207.6271 395.22705 1811.6343 1315851
1214.5779 393.98782 1805.954 526340
1220.7502 392.52005 1799.226 460291
1225.658 390.67462 1790.7668 591620
1233.1464 389.67645 1786.1917 459777
1235.9637 387.23193 1774.9865 328449
1245.3353 386.86493 1773.3041 1052166
1236.3604 380.85248 1745.7444 1644300
1253.5999 382.94812 1755.3503 2960159
1249.7565 378.62195 1735.5201 1446663
1246.0918 374.42029 1716.2607 2960156
1241.0792 369.88525 1695.473 2630935
1241.4863 367.02548 1682.3645 2894106
1236.3582 362.58807 1662.0244 2433301
1222.0345 355.54568 1629.7437 2959902
1225.4165 353.72495 1621.3977 2630937
1242.7958 355.9415 1631.558 2827547
1252.4962 355.9415 1631.558 2827802
1264.635 356.62915 1634.71 2366994
1271.9928 355.96832 1631.6808 2630163
1279.7272 355.42206 1629.177 3024921
1284.2107 353.98795 1622.6033 3090715
1290.7551 353.13901 1618.712 3024921
1295.6382 351.85156 1612.8105 2828054
1295.0255 349.1015 1600.2048 3025689
1299.7488 347.81949 1594.3284 3091482
1304.8026 346.64383 1588.9395 2828310
1288.2455 339.78503 1557.5002 2959896
1288.9059 337.53299 1547.1774 3223068
1278.1554 332.34576 1523.4003 3091483
1276.3334 329.5368 1510.5247 3091996
1279.2039 327.97021 1503.3436 3026203
1270.5768 323.49799 1482.844 2960410
1285.6073 325.06927 1490.0465 3091740
1310.9753 329.21506 1509.0498 3091997
1288.8761 321.46542 1473.5271 3157534
1281.9697 317.58411 1455.7361 3157535
1286.5669 316.5856 1451.1591 2960153
1294.2043 316.34351 1450.0494 3091741
1302.063 316.15836 1449.2007 3026203
1313.0187 316.72266 1451.7874 3157534
1326.7594 317.94705 1457.3997 3025433
1338.0635 318.57538 1460.2798 3223069
1345.6718 318.32135 1459.1155 2828312
1357.4882 319.05963 1462.4996 3157278
1365.923 318.99881 1462.2208 3223071
1378.2423 319.84021 1466.0776 3288094
1387.8612 320.04828 1467.0314 3354143
1385.4396 317.49454 1455.3254 3485730
1394.3993 317.56448 1455.646 3288094
1378.3099 311.96399 1429.9746 3223070
1361.2369 306.21091 1403.6038 3288610
0 0 0 0
0 0 0 0
0 0 0 0
0 0 0 0
0 0 0 0
0 0 0 0
0 0 0 0
0 0 0 0
0 0 0 0
0 0 0 0
0 0 0 0
0 0 0 0
-1710.4016 448.0806 1999.4137 1775882
-1696.8082 447.63052 1997.4054 1841675
-1674.1425 444.76395 1984.6143 1644295
-1661.006 444.40619 1983.0179 1578505
-1644.3372 443.09155 1977.1517 1578505
-1625.2848 441.11108 1968.3146 1775884
-1601.5051 437.80954 1953.5823 1578248
-1585.8652 436.70117 1948.6367 1775628
-1563.2909 433.65298 1935.0352 1512712
-1542.6283 431.09372 1923.6154 1513225
-1579.0114 444.55701 1983.6909 1381894
-1502.6207 426.23361 1901.9285 1381895
-1487.8076 425.23175 1897.458 1447689
-1474.8356 424.74481 1895.2853 1316102
-1459.7635 423.64096 1890.3596 1381896
-1468.755 429.55765 1916.7611 1250054
-1443.0531 425.34103 1897.9458 1250310
-1436.6039 426.77737 1904.355 1118724
-1441.2439 431.55701 1925.6826 855553
-1447.2653 436.8302 1949.2124 921090
-1434.249 436.3959 1947.2745 855552
-1433.964 439.85983 1962.7312 526592
-1437.0072 444.40988 1983.0343 329216
-1434.5854 447.33112 1996.0693 329216
-1419.1411 446.20651 1991.0511 394240
-1410.4849 447.2153 1995.5525 197120
-1403.1599 448.66684 2002.0297 197120
-1394.4631 449.70081 2006.6433 196864
-1384.762 450.42596 2009.879 196864
-1372.3666 450.27975 2009.2266 196608
-1359.8322 450.08493 2008.3574 65536
-1351.0597 451.14285 2013.078 65536
-1336.5919 450.30087 2009.321 65536
-1323.8746 450.03885 2008.1519 65536
-1313.4274 450.55072 2010.4359 65536
-1299.4686 449.85641 2007.3376 65536
-1287.4559 449.82913 2007.2159 0
-1274.9448 449.62555 2006.3075 0
-1261.4142 449.05521 2003.7625 0
-1248.9274 448.84915 2002.843 0
-1234.0648 447.77707 1998.0592 256
-1221.2793 447.44504 1996.5778 395269
-1205.8423 446.12561 1990.6902 526855
-1195.8596 446.81793 1993.7794 395269
-1183.078 446.4679 1992.2174 131586
-1170.6481 446.24478 1991.222 513
-1160.9695 447.07669 1994.9342 256
-1150.9672 447.79984 1998.1608 256
-1139.3408 447.89954 1998.6057 2
-1127.2161 447.80334 1998.1765 2
-1115.5502 447.88943 1998.5605 256
-1103.3193 447.74799 1997.9296 256
-1091.2577 447.67291 1997.5946 256
-1079.2753 447.62909 1997.3989 256
-1067.8586 447.82156 1998.2577 256
-1056.0898 447.86899 1998.4695 256
-1043.4757 447.5549 1997.0679 0
-1029.2544 446.53635 1992.5229 395271
-1017.6745 446.65335 1993.0452 1027
-1007.7482 447.50748 1996.8563 1027
-1001.7004 450.12479 2008.5353 771
-992.75861 451.48911 2014.623 396042
-990.93811 456.16495 2035.4874 770
-982.3996 457.82565 2042.8977 132869
-972.55286 458.91055 2047.7389 256
-961.32367 459.36243 2049.7551 256
-947.29803 458.4725 2045.7841 0
-935.66754 458.73367 2046.9496 0
-922.5896 458.28275 2044.9374 0
-909.9502 458.04047 2043.8564 0
-894.98315 456.60419 2037.4474 0
-881.38269 455.83521 2034.016 0
-868.54828 455.44656 2032.2819 0
-855.79773 455.09152 2030.6976 0
-847.13947 456.93362 2038.9175 0
-834.00757 456.38123 2036.4525 0
-821.31934 456.05887 2035.0142 0
-810.52478 456.79416 2038.295 0
-795.30627 455.02063 2030.3812 0
-783.53253 455.19366 2031.1533 0
-771.4519 455.19104 2031.1417 0
-759.90009 455.50537 2032.5443 0
-747.58307 455.36371 2031.9122 0
-700.64191 433.78094 1935.6061 65536
-723.83276 455.62253 2033.067 65792
-711.38074 455.38919 2032.026 65536
-693.0647 451.32916 2013.9094 65536
-685.66174 454.35803 2027.4246 256
-674.51196 454.96796 2030.1462 196608
-660.03149 453.31259 2022.7598 393216
-649.92633 454.65652 2028.7566 458752
-519.5675 370.33698 1652.5081 393216
-516.69922 375.39111 1675.0605 393216
-567.67157 420.5289 1876.4731 262144
-575.5777 434.93353 1940.7493 196608
0 0 0 0
-486.93518 383.32007 1710.4409 65792
-455.77789 366.44583 1635.1451 256
-453.75986 372.77463 1663.3853 256
-445.11124 373.81686 1668.036 256
-434.93951 373.59836 1667.0609 256
-422.71219 371.56271 1657.9775 512
-412.70566 371.42859 1657.379 256
-405.16003 373.55685 1666.8757 256
-396.56229 374.79749 1672.4116 256
-387.02173 375.18793 1674.1538 256
-384.12625 382.21091 1705.4917 512
-367.2435 375.31989 1674.7427 256
-362.24988 380.534 1698.0089 256
-349.1683 377.30725 1683.6107 65792
-341.34122 379.73563 1694.4464 65792
-331.42905 379.92145 1695.2758 131072
-322.60498 381.40543 1701.8975 131072
-311.39267 380.07053 1695.9409 196608
-295.32486 372.52161 1662.2562 131072
-290.41623 379.01337 1691.2238 131072
-278.77414 376.86807 1681.651 131072
-267.5466 375.14441 1673.9597 131072
-258.63431 376.65936 1680.7196 196608
-246.90341 374.02621 1668.9701 131072
-233.50204 368.5361 1644.4723 131072
-222.9333 367.23218 1638.6541 196608
-216.18797 372.39517 1661.6921 196608
-202.33939 365.23099 1629.7242 262144
-193.46381 366.77408 1636.6097 393216
-183.35297 366.01471 1633.2214 393216
-174.30463 367.41006 1639.4478 393216
-164.1468 366.49359 1635.3582 393216
-153.81087 365.03894 1628.8673 393216
-143.40324 363.20721 1620.6938 458752
-131.23689 356.3363 1590.0347 458752
-121.63593 355.90497 1588.1099 458752
-114.91664 364.54236 1626.6515 524288
-104.9048 363.36264 1621.3875 589824
-93.135216 355.23975 1585.1416 589824
-82.884293 351.73248 1569.4916 655360
-73.212418 350.10437 1562.2266 720896
-63.395618 347.20935 1549.3086 720896
-54.343491 348.22998 1553.8629 720896
-44.898064 346.63235 1546.7339 720896
-35.631027 345.94363 1543.6608 720896
-26.387941 345.09021 1539.8527 786432
-17.257616 345.5881 1542.0743 851968
-8.0686092 344.70761 1538.1454 851968
1.0774839 345.04556 1539.6534 720896
10.220558 344.677 1538.0088 655360
19.245943 342.56174 1528.5701 655360
28.486031 344.3992 1536.7692 655360
37.553207 343.76135 1533.923 655360
46.166451 340.02942 1517.2705 589824
54.528126 335.96756 1499.1458 524288
64.173332 339.84424 1516.4442 458752
72.406403 336.20874 1500.2219 458752
81.252739 335.90601 1498.8711 393216
89.745255 334.34497 1491.9055 1380096
98.949898 335.47913 1496.9663 1446145
108.2484 336.71808 1502.4946 1315330
117.24185 336.89157 1503.2689 1249798
0 0 0 0
0 0 0 0
0 0 0 0
0 0 0 0
0 0 0 0
327.93051 646.56384 2885.0806 1250570
381.53854 714.86713 3189.8616 1316365
408.27026 728.72955 3251.7183 987400
417.2207 711.03528 3172.7632 921349
436.0264 710.94073 3172.3413 920837
453.21185 708.32178 3160.6553 723714
472.07678 708.4317 3161.1458 657923
484.48511 699.21503 3120.0193 592131
504.39752 701.1087 3128.4692 329216
514.31689 689.4715 3076.5417 395008
527.12781 682.37671 3044.8835 65792
545.82983 683.12585 3048.2266 197632
550.98676 667.41956 2978.1423 460546
575.0199 674.84448 3011.2737 263168
594.72784 676.89825 3020.438 394754
612.28223 676.45239 3018.4482 395011
625.4035 671.27356 2995.3396 526595
651.15063 679.55823 3032.3071 658179
664.66449 674.97351 3011.8494 658180
694.95013 687.21442 3066.4705 1316108
717.62384 691.49463 3085.5696 1250316
743.51959 698.58887 3117.2253 1447694
768.01135 704.05096 3141.5981 1316108
790.3443 707.32172 3156.1926 1184523
811.98022 709.83136 3167.3911 1316364
831.71936 710.60663 3170.8506 1118985
870.41852 727.18768 3244.8379 1447695
865.43719 707.34821 3156.3108 1381901
921.26544 736.9975 3288.6111 1447951
927.82849 726.82214 3243.207 1316622
951.35938 730.0824 3257.7549 1447441
963.53918 724.67548 3233.6282 1184269
979.57318 722.32208 3223.127 1645076
991.65088 717.19769 3200.261 1381904
1012.8198 718.71753 3207.0427 1250318
1033.3517 719.73755 3211.5942 1316111
1048.5444 717.06915 3199.6875 1250317
1061.7006 713.12805 3182.1016 1118732
1076.5963 710.4729 3170.2539 855047
1109.5446 719.61737 3211.0581 920839
1107.15 705.91797 3149.929 526594
1101.4243 690.58582 3081.5142 592387
1110.7263 685.02338 3056.6936 526338
1112.0222 674.78192 3010.9944 658179
1112.9034 664.61731 2965.6382 526593
1109.5372 652.27277 2910.5547 723715
1114.5417 645.15283 2878.7844 921094
1106.5327 630.82935 2814.8704 789764
1138.8152 639.5603 2853.8296 1118984
1133.073 626.99384 2797.7556 1184777
1126.6716 614.4314 2741.7 1776914
1129.8763 607.39136 2710.2859 1711121
1132.0929 600.02545 2677.4182 1513742
1137.8756 594.72778 2653.7791 1316363
1139.5607 587.46265 2621.3606 1711377
1147.9752 583.81592 2605.0884 855814
1155.5103 579.82489 2587.2798 987398
1155.8958 572.39832 2554.1411 1513740
1154.4248 564.25696 2517.8127 2895392
1157.2413 558.39282 2491.646 2698013
1170.5168 557.65979 2488.3752 2632220
1176.4926 553.51074 2469.8613 2434842
1181.0171 548.78967 2448.7949 2040086
1187.9438 545.28619 2433.1619 1776914
1191.4452 540.3136 2410.9734 1645073
1192.4023 534.31921 2384.2253 1579282
1186.1233 525.26117 2343.8069 1579281
1191.5808 521.5506 2327.2495 1776660
1190.4248 515.06366 2298.3037 1513488
1196.0963 511.64456 2283.0471 1579281
1191.9065 504.13123 2249.5212 1645073
1189.9686 497.72653 2220.9424 1645074
1186.5977 490.86957 2190.3455 1381902
1193.168 488.22928 2178.5642 1710867
1190.6984 481.98651 2150.7078 1842196
1211.1572 485.05899 2164.4177 1776403
1200.032 475.55069 2121.99 1907990
1193.3802 467.99463 2088.2734 1973526
1192.9075 462.99225 2065.9519 1710608
1193.6682 458.56577 2046.2003 2039573
1210.8047 460.45605 2054.6353 2105367
1147.6881 432.09415 1928.0792 1973780
1126.1586 419.79541 1873.2003 1842194
1171.8123 432.5361 1930.0514 2368538
1153.8462 421.77426 1882.0302 2171159
1165.0358 421.77426 1882.0302 2039572
1181.2075 423.56073 1890.0018 2171158
1166.0923 414.20035 1848.2341 2170900
1184.5725 416.83652 1859.9971 2104850
1166.3563 406.63037 1814.4554 2104593
1175.1224 405.93198 1811.3391 2039057
1180.4862 404.08167 1803.0826 1973778
1201.6779 407.63382 1818.933 1776399
1198.8507 403.04752 1798.4683 2105365
1200.7032 400.10181 1785.3239 1645071
1205.5446 398.19482 1776.8147 1710868
1215.1262 397.87317 1775.3793 1447185
1219.8419 395.97748 1766.9204 723460
1228.6034 395.41629 1764.4163 328704
1234.2804 393.88025 1757.5623 657409
1236.785 391.36615 1746.344 1249033
1247.0637 391.3335 1746.1981 3157537
1246.8898 388.04834 1731.5392 2368022
1252.9982 386.75607 1725.7731 2170385
1248.7622 382.3179 1705.969 2301715
1251.2891 380.00494 1695.6483 2367252
1247.7506 375.90179 1677.3392 2499094
1246.0396 372.40985 1661.7576 2630423
1212.2001 359.44595 1603.9105 2170129
1238.219 364.29538 1625.5494 2761752
1251.6969 365.40857 1630.5167 2564373
1262.6185 365.76413 1632.1033 2432787
1252.1273 359.95859 1606.1979 2630163
1280.7493 365.39993 1630.4781 3090715
1284.3511 363.67487 1622.7805 3222300
1288.8035 362.2146 1616.2646 3090715
1293.0317 360.71341 1609.566 3222043
1297.9141 359.41544 1603.7742 3025435
1300.8604 357.60413 1595.6919 2959899
1304.6224 356.04169 1588.7201 3025692
1295.801 351.09229 1566.6349 3091483
1293.1959 347.8858 1552.327 2762518
1279.6843 341.81152 1525.2225 3025689
1279.9148 339.46753 1514.7633 3157789
1279.7979 337.06482 1504.0419 3289375
1269.4684 332.02432 1481.5504 4013098
1281.9836 332.98715 1485.8467 3420961
1292.1965 333.3428 1487.4337 3026203
1279.1501 327.73434 1462.4077 3289375
1281.4291 326.10165 1455.1223 3026204
1286.3755 325.1651 1450.9432 3157532
1304.9221 327.65591 1462.0579 3091485
1301.8663 324.72552 1448.9818 2894103
1309.7937 324.55515 1448.2216 2894105
1328.1439 326.95282 1458.9204 2828310
1345.5514 329.08881 1468.4515 3222812
1345.7812 327.02316 1459.2343 3288862
1352.2245 326.48407 1456.8287 3157276
1371.1472 328.94577 1467.8134 3157276
1375.0565 327.79733 1462.6888 3222813
1381.2905 327.21402 1460.0859 3288350
1379.9836 324.86279 1449.5944 3353887
1396.6533 326.74634 1457.999 3288607
