# .PCD v0.7 - Point Cloud Data file format
VERSION 0.7
FIELDS x y z rgb
SIZE 4 4 4 4
TYPE F F F U
COUNT 1 1 1 1
WIDTH 1310
HEIGHT 1
VIEWPOINT 0 0 0 1 0 0 0
POINTS 1310
DATA ascii
700.48859 -637.10339 2797.3594 3093807
721.97583 -641.41711 2816.2998 3356722
750.01819 -651.22699 2859.3726 3290929
774.16406 -657.29382 2886.0105 3685430
803.82922 -667.68195 2931.6221 3947833
828.05072 -673.20349 2955.8657 3553332
860.23706 -684.8363 3006.9424 3356466
885.41168 -690.5271 3031.9292 3553075
911.91425 -697.00574 3060.3755 3553331
949.44977 -711.49878 3124.0107 3684917
981.80573 -721.62872 3168.4885 3684917
1004.0455 -724.08185 3179.2595 3487538
1019.7374 -721.80933 3169.2817 2961194
1038.3654 -721.66003 3168.626 3224366
1051.0631 -717.46783 3150.2192 3355953
1049.1691 -703.63635 3089.4885 3422000
1082.3474 -713.39777 3132.3486 3158827
1086.9467 -704.31067 3092.4492 1842966
1115.0134 -710.479 3119.533 1974551
1145.1713 -717.75616 3151.4854 2106136
1160.7628 -715.81641 3142.968 2040343
1184.2687 -718.74133 3155.8108 2303515
1200.9093 -717.47339 3150.2437 2106136
1220.6909 -718.09216 3152.9604 2237723
1213.0338 -702.79498 3085.7944 2106138
1243.2769 -709.58478 3115.6067 2369310
1197.6554 -673.51208 2957.2207 2303517
1257.0039 -696.65997 3058.8572 2369310
1253.9318 -685.04608 3007.8635 1974553
1282.5681 -690.83807 3033.2947 2237724
1264.4846 -671.65338 2949.0596 2171931
1268.0309 -664.32526 2916.8838 2500896
1262.6371 -652.57458 2865.2893 2435103
1263.9159 -644.53931 2830.0085 2632222
1257.0153 -632.59888 2777.5811 2566429
1247.4911 -619.66492 2720.7913 2566174
1237.9266 -607.0423 2665.3689 2763809
1207.3579 -584.56915 2566.6948 2895141
1213.3025 -580.11505 2547.1379 2829351
1204.5208 -568.81647 2497.5288 3026987
1181.2195 -551.02002 2419.3889 3225138
0 0 0 0
1177.4806 -536.21619 2354.3892 4739154
1183.8112 -532.76544 2339.238 5661029
1199.0286 -533.34796 2341.7954 4806236
1214.4633 -534.01251 2344.7136 5594983
0 0 0 0
1227.5278 -527.64386 2316.7505 329226
1220.2627 -518.70062 2277.4827 4
1216.754 -511.5329 2246.0112 1
1218.7406 -506.80594 2225.2563 2
1229.9547 -505.97656 2221.6147 2
1221.6831 -497.23392 2183.228 2
1212.8698 -488.45697 2144.6907 2
1218.7576 -485.72168 2132.6807 2
1228.3201 -484.49207 2127.2817 4
1231.4434 -480.77359 2110.9548 7
1233.6591 -476.77939 2093.4172 11
1205.9224 -461.40469 2025.911 67084
1208.5503 -457.83722 2010.2469 5728118
1216.4932 -456.33328 2003.6437 6847117
1234.6501 -458.65295 2013.8287 5530745
1247.1586 -458.84988 2014.6935 6319486
1258.8931 -458.76099 2014.3032 5858162
1241.2291 -448.06152 1967.3245 5133919
1248.5002 -446.47891 1960.3755 5132631
1238.2306 -438.71072 1926.2676 4672332
1227.6857 -430.98834 1892.3605 5131596
1254.0223 -436.23621 1915.4025 5000263
1226.058 -422.66989 1855.8362 4934467
1236.0986 -422.33054 1854.3462 5131846
1214.6093 -411.31973 1806.0006 4867645
0 0 0 0
1206.2644 -401.39685 1762.4316 5262146
1202.7567 -396.78287 1742.1729 5065278
1181.8862 -386.56866 1697.325 5197121
1192.8907 -386.86484 1698.6252 5197121
1200.679 -386.12161 1695.3621 5262914
1177.8123 -375.61472 1649.2289 5328708
1181.7661 -373.76398 1641.1028 4868155
1189.1356 -373.01501 1637.8143 4999739
1198.8733 -373.01501 1637.8143 5196860
1212.5378 -374.22699 1643.1357 5328447
1230.5397 -376.74753 1654.2029 5393469
1244.5405 -378.01285 1659.7584 5525056
1256.1981 -378.55206 1662.1261 5788230
1268.9081 -379.39758 1665.8385 4274991
1270.0192 -376.78885 1654.3842 5919815
1269.7858 -373.82434 1641.3679 5919558
1280.377 -374.06757 1642.4358 5787714
1292.3096 -374.69598 1645.1951 6051141
1302.9686 -374.94855 1646.304 5590590
1316.8245 -376.11038 1651.4053 5919555
1339.1104 -379.64496 1666.9247 5721920
1345.8752 -378.75967 1663.0376 5524795
1383.752 -386.57898 1697.3702 5656124
1381.9559 -383.28195 1682.8938 5590589
1422.0342 -391.56259 1719.252 5722172
1405.16 -384.15488 1686.7266 5590586
1416.5068 -384.51273 1688.2979 5787965
1471.7236 -396.69034 1741.7666 5787966
1484.3917 -397.30927 1744.4843 5853760
1450.1805 -385.45908 1692.453 5985089
1497.1296 -395.19601 1735.2054 5984833
1498.0195 -392.72464 1724.3544 6116419
1497.0336 -389.79849 1711.5062 5787710
1479.3093 -382.58292 1679.8245 5984577
1497.3059 -384.64038 1688.8583 5787454
1488.3215 -379.78552 1667.5419 5918783
1497.1633 -379.51361 1666.348 5919040
1497.6691 -377.14612 1655.9529 5984833
1496.1285 -374.29761 1643.4458 5655868
1485.2928 -369.17569 1620.9568 5787454
1481.6707 -365.90121 1606.5793 5787454
1518.7397 -372.65311 1636.2252 5721661
1520.9706 -370.8252 1628.1993 5786941
1523.1688 -369.01251 1620.2402 5655098
1478.9154 -356.03964 1563.2798 6247235
1493.9468 -357.41214 1569.306 5918013
1546.9407 -367.7934 1614.8875 6049600
1481.6946 -350.10779 1537.2345 5852220
1482.6215 -348.17911 1528.7661 6049600
0 0 0 0
0 0 0 0
0 0 0 0
0 0 0 0
0 0 0 0
0 0 0 0
0 0 0 0
0 0 0 0
0 0 0 0
0 0 0 0
0 0 0 0
0 0 0 0
0 0 0 0
-1610.2224 -420.42941 1895.4807 3092768
-1559.0918 -409.94833 1848.2273 3224351
-1539.7144 -407.7269 1838.2122 3224349
-1530.5895 -408.20807 1840.3816 3290143
-1598.3878 -429.35931 1935.7406 3355936
-1582.078 -428.06036 1929.8844 2961179
-1481.0739 -403.65939 1819.874 3289888
-1481.5521 -406.76132 1833.859 3289889
-1480.5885 -409.5105 1846.2535 2960926
-1473.3535 -410.55319 1850.9543 3093025
-1469.5221 -412.56714 1860.0341 3158818
-1460.0629 -413.01959 1862.074 2961439
-1465.5355 -417.7352 1883.334 2829597
-1463.5206 -420.37268 1895.225 2895136
-1463.0283 -423.49188 1909.2877 2764061
-1622.6852 -473.37952 2134.2031 2698268
-1466.4783 -431.18161 1943.9563 2500889
-1469.6515 -435.5473 1963.6388 2698012
-1466.236 -438.01462 1974.7626 2237204
-1464.9031 -441.14899 1988.8937 2171410
-1460.9823 -443.54865 1999.7124 1316103
-1448.1208 -443.25104 1998.3707 921348
-1451.3984 -447.92941 2019.4628 256
-1436.2112 -446.93964 2015.0005 256
-1423.5168 -446.71552 2013.99 256
-1405.6189 -444.84082 2005.5381 256
-1389.7805 -443.5914 1999.905 256
-1375.2512 -442.74182 1996.075 66050
-1347.9276 -437.72272 1973.4465 1579035
-1329.8438 -435.6423 1964.067 1514268
-1313.4595 -434.08667 1957.0536 1316889
-1303.1913 -434.54266 1959.1094 988181
-1302.2229 -438.13583 1975.309 1053461
-1296.104 -440.04568 1983.9194 394763
-1291.7145 -442.58316 1995.3596 395276
-1281.9277 -443.30127 1998.597 526862
-1273.119 -444.37421 2003.4343 395018
-1263.1519 -445.05927 2006.5229 987411
-1250.4041 -444.76831 2005.2112 1053719
-1234.949 -443.49945 1999.4906 724754
-1221.3069 -442.86334 1996.6228 593168
-1210.6895 -443.32239 1998.6923 658962
-1191.3359 -440.55984 1986.2375 527375
-1191.8772 -445.17279 2007.0348 132617
-1165.7812 -439.82928 1982.9438 593168
-1162.1288 -442.93063 1996.9261 527375
-1146.5999 -441.52274 1990.5787 1316890
-1142.0853 -444.37103 2003.42 1185305
-1149.6882 -452.04379 2038.0123 1053975
-1137.4163 -451.98221 2037.7346 1844005
-1129.3359 -453.60291 2045.0415 1844004
-1115.5546 -452.94412 2042.0713 659215
-1116.1707 -458.18088 2065.6809 256
-1112.9913 -461.9588 2082.7134 256
-1105.9432 -464.19791 2092.8083 256
-1096.8229 -465.60831 2099.167 256
-1087.1882 -466.83032 2104.6765 0
-1094.1343 -475.28336 2142.7864 0
-1083.8319 -476.35471 2147.6165 0
-1075.1521 -478.17319 2155.8149 0
-1069.5095 -481.40271 2170.375 0
-1064.8107 -485.14108 2187.2292 0
-1052.6416 -485.52621 2188.9658 0
-1042.5323 -486.883 2195.0828 0
-1079.1407 -510.36887 2300.9673 0
-1071.7852 -513.3985 2314.6262 0
-1052.5248 -510.73026 2302.5967 0
-1028.3514 -505.57629 2279.3604 0
-1026.3799 -511.3457 2305.3713 0
-1007.887 -508.92886 2294.4751 65536
-999.55182 -511.64517 2306.7214 65536
-987.33624 -512.42316 2310.229 65536
-974.46295 -512.87695 2312.2749 65536
-968.01117 -516.77185 2329.8347 65536
-955.90363 -517.71661 2334.0942 65536
-944.07562 -518.8429 2339.1719 0
-989.21436 -551.77863 2487.6606 526336
-1252.1376 -709.03711 3196.6511 526336
-923.24554 -530.8559 2393.3318 329472
0 0 0 0
-1286.3784 -763.17822 3440.7432 1118730
-1265.9215 -763.17822 3440.7432 1118732
-1244.9448 -762.85974 3439.3074 263683
-1210.4471 -754.10706 3399.8462 1382163
-1167.3579 -739.61365 3334.5037 1514003
-1138.0013 -733.47052 3306.8076 1777175
-1133.6927 -743.53918 3352.2017 1908761
-1126.3231 -751.92474 3390.0073 1711382
-1083.4918 -736.51056 3320.5137 1579796
-1050.7797 -727.5304 3280.0271 1711382
-1017.6422 -717.91071 3236.6572 1843226
-987.77637 -710.27264 3202.2214 1975069
-977.74426 -716.87628 3231.9937 1975068
-947.84515 -708.88629 3195.9712 2040861
-933.3316 -712.31158 3211.4138 2106654
-933.52789 -727.34082 3279.1724 2040862
-923.03375 -734.50421 3311.4683 1909276
-895.82178 -728.3869 3283.8884 2238241
-884.75012 -735.41284 3315.5645 2304034
-867.1651 -737.22168 3323.7195 2238241
-845.60181 -735.65387 3316.6511 2238241
-884.45026 -787.82288 3551.8521 2369827
-817.74469 -746.22205 3364.2974 2567207
-805.21307 -753.21033 3395.8035 2369827
-789.46967 -757.4765 3415.0374 2567206
-769.71716 -758.01978 3417.4866 2698792
-751.11829 -759.75934 3425.3291 2632999
-737.56213 -766.83868 3457.2461 2764585
-705.44202 -754.46985 3401.4819 2699305
-685.7514 -755.05658 3404.1272 2765098
-671.80713 -762.19849 3436.3262 2699048
-754.41602 -882.7688 3979.9099 2632999
-636.01099 -768.31744 3463.9128 2501413
-615.45618 -768.36719 3464.1372 2830891
-601.95978 -777.5376 3505.4814 2567719
-590.15485 -789.62897 3559.9949 2765098
-570.7533 -792.07751 3571.0339 2764586
-554.53809 -799.30817 3603.6328 2830377
-529.81708 -794.36688 3581.3552 263937
-512.8576 -801.13623 3611.8745 2435105
-491.74567 -801.72723 3614.5388 2632484
-470.94104 -802.896 3619.8083 2237726
-452.3559 -808.14197 3643.4595 2764581
-426.78146 -800.80115 3610.3638 2699045
-409.22971 -808.53351 3645.2246 2567459
-386.37326 -806.06384 3634.0903 2567459
-360.92416 -797.57233 3595.8071 2633252
-340.85934 -800.659 3609.7229 2633252
-319.27338 -800.34723 3608.3174 2698532
-299.32541 -804.3924 3626.5547 2698532
-277.25253 -802.91199 3619.8801 2829859
-255.51796 -802.24451 3616.8711 2829859
-234.8651 -805.16278 3630.0278 2829859
-212.12149 -800.77875 3610.2627 2961446
-191.6178 -804.81555 3628.4624 2960929
-168.89702 -799.38324 3603.9709 2763807
-149.166 -808.57855 3645.428 2961185
-126.6593 -803.29675 3621.615 2895391
-106.84486 -816.42322 3680.7947 2764576
-83.9533 -806.74261 3637.1504 2764320
-61.833748 -800.3371 3608.2717 2764067
-40.520977 -803.11578 3620.7991 2106135
-18.516005 -782.92419 3529.7666 2435101
2.4490857 -776.22906 3499.582 1448206
22.117159 -738.22247 3328.2314 1645584
0 0 0 0
57.819603 -691.87158 3119.2615 4474684
75.6054 -684.98816 3088.2278 4145719
92.685799 -675.65259 3046.1392 3882547
110.59261 -674.40863 3040.5305 3816753
129.69157 -679.76263 3064.6689 3948340
148.36591 -681.84619 3074.0625 3948340
164.63171 -673.61774 3036.9651 3882804
182.77571 -673.94122 3038.4236 3751217
200.74529 -673.62128 3036.981 3751217
218.62901 -673.08978 3034.5847 3750960
241.89064 -687.93402 3101.509 3750960
255.37462 -674.83752 3042.4644 3619374
273.67047 -675.34808 3044.7661 3684913
282.16751 -653.11456 2944.5278 0
298.88821 -651.40167 2936.8052 65536
312.24734 -642.95587 2898.7278 65536
329.24503 -642.4939 2896.6453 65536
345.04599 -639.85883 2884.7649 65536
360.23361 -636.38965 2869.1245 65536
376.42825 -634.93274 2862.5562 0
391.91772 -632.46393 2851.4255 0
407.84845 -630.88239 2844.2954 0
423.21063 -628.58246 2833.926 0
439.22437 -627.38922 2828.5464 0
455.20749 -626.24182 2823.3735 0
471.16776 -625.14581 2818.4321 0
487.19101 -624.20569 2814.1938 0
503.35574 -623.5033 2811.0271 0
519.3454 -622.63617 2807.1177 65536
535.12415 -621.57806 2802.3472 65536
551.62683 -621.39923 2801.5413 65536
568.10785 -621.20734 2800.6758 65536
584.62341 -621.06305 2800.0254 65536
601.97693 -621.79224 2803.313 65536
619.00171 -622.15179 2804.9338 65536
635.92389 -622.39203 2806.0168 0
654.39362 -624.09583 2813.6985 0
673.24799 -626.07239 2822.6099 256
681.099 -617.96942 2786.0779 2566438
695.24927 -615.83081 2776.4363 3092780
718.42999 -621.60486 2802.4683 3487538
745.20551 -630.15704 2841.0249 3750709
769.58289 -636.34698 2868.9321 3356979
803.3291 -649.84741 2929.7979 3488308
827.48309 -655.17993 2953.8394 3554101
855.99945 -663.6731 2992.1301 3488308
883.74579 -671.23547 3026.2249 3553331
915.74243 -681.65997 3073.2229 3487538
948.16779 -691.98938 3119.7925 3487538
982.59766 -703.35736 3171.0444 3355952
1004.5841 -705.5578 3180.9648 3290159
1018.3165 -701.98688 3164.8657 2764326
1042.1892 -705.40906 3180.2944 3158828
1049.3196 -697.5791 3144.9934 3488049
1067.2109 -697.05188 3142.6165 3290414
1085.2635 -696.64636 3140.7883 3290412
1087.4362 -686.23334 3093.8416 2039832
1121.0488 -695.67719 3136.4187 2105878
1145.5555 -699.2536 3152.543 2106136
1161.9553 -697.84601 3146.1968 1777171
1181.3492 -698.25281 3148.0308 2106392
1200.5748 -698.54895 3149.366 1777171
1217.6959 -697.63037 3145.2246 2106135
1243.21 -701.47516 3162.5586 2040345
1258.6344 -699.59729 3154.0923 2040344
1244.5217 -681.59766 3072.9419 2106138
1275.1431 -688.26422 3102.9978 2237723
1264.9496 -673.0249 3034.2922 2237725
1275.7837 -669.24469 3017.2495 2435103
1263.1489 -653.42877 2945.9443 2500896
1264.2314 -645.04443 2908.144 2566689
1251.8373 -630.10303 2840.7815 2500897
1267.3657 -629.42688 2837.7332 2500895
1255.5947 -615.38855 2774.4421 2632481
1243.0015 -601.31659 2710.9995 2632480
1230.2886 -587.54773 2648.9236 2829602
1221.1127 -575.79468 2595.9358 2895652
1218.8218 -567.54108 2558.7249 2895654
1202.2867 -552.94 2492.8967 3027242
1182.2283 -537.09381 2421.4551 3422001
1158.8417 -520.13507 2344.9978 4935758
1174.2534 -520.78687 2347.9363 5067604
1185.2401 -519.48383 2342.0615 5331549
1205.5653 -522.25659 2354.5623 5397598
1210.6443 -518.43671 2337.3408 5528676
0 0 0 0
1225.4365 -512.9942 2312.8035 395019
1225.8965 -507.4921 2287.9976 4
1233.5415 -505.05258 2276.9993 1
1219.048 -493.70023 2225.8176 2
1227.7911 -491.90115 2217.7068 2
1222.1058 -484.42114 2183.9836 2
1216.2162 -477.01828 2150.6082 2
1218.033 -472.76059 2131.4126 1
1228.5544 -471.93436 2127.6877 260
1229.8428 -467.61435 2108.2112 261
1236.6699 -465.46622 2098.5264 265
1203.6021 -448.49503 2022.0128 522
1203.3585 -443.96982 2001.6111 5530479
1216.2996 -444.34995 2003.325 6517634
1232.3414 -445.84448 2010.0631 4148828
1240.9447 -444.64505 2004.6554 5135207
1249.8894 -443.58957 1999.897 5266020
1258.7975 -442.54108 1995.1699 5068123
1248.3684 -434.77756 1960.1685 5132884
1235.8782 -426.44644 1922.608 5000267
1228.7909 -420.11517 1894.064 4539968
1230.1685 -416.76669 1878.9677 4802111
1224.5065 -411.11508 1853.4877 4933696
1220.8427 -406.22916 1831.4597 4802111
1218.799 -401.96396 1812.2302 4933695
0 0 0 0
1236.8096 -400.8172 1807.0602 4933696
1215.7623 -390.60327 1761.0114 4999489
1167.707 -371.9606 1676.962 5131074
1199.3854 -378.81689 1707.8732 5394500
1198.0836 -375.22903 1691.6975 5065534
1183.3969 -367.5437 1657.0487 5591878
1180.1235 -363.50085 1638.8218 4868153
1188.2224 -362.99838 1636.5564 4999738
1199.9241 -363.59579 1639.2498 5196860
1219.9481 -366.68506 1653.1776 5262654
1232.4127 -367.47098 1656.7207 5524799
1246.0884 -368.60257 1661.8225 5525056
1256.4064 -368.73102 1662.4016 5656642
1276.0128 -371.56219 1675.1658 4078893
1268.0084 -366.37173 1651.7649 5526337
1272.7969 -364.92896 1645.2603 5460543
1282.3898 -364.87515 1645.0177 5525564
1294.7247 -365.5965 1648.2698 5722433
1305.0289 -365.73785 1648.9071 5590847
1318.4692 -366.74948 1653.4679 5788480
1344.7931 -371.30328 1673.9985 5722430
1366.4915 -374.52249 1688.5121 5590587
1383.7836 -376.49588 1697.4091 5590587
1380.0427 -372.75952 1680.564 5590588
1359.4316 -364.55295 1643.5649 5722174
1448.2476 -385.59854 1738.4479 5853760
1463.3846 -386.86783 1744.1703 5721917
1474.8236 -387.14844 1745.4354 5721916
1437.4495 -374.70096 1689.3168 5853502
1449.1371 -375.1265 1691.2352 5853502
1495.639 -384.49615 1733.4778 5787709
1503.9226 -383.97968 1731.1493 5656123
1485.825 -376.7804 1698.6918 5853246
1493.1237 -376.07495 1695.5114 5787453
1500.286 -375.34485 1692.2196 5919296
1491.6201 -370.69092 1671.2377 5721661
1495.412 -369.17401 1664.3988 5853247
1536.6251 -376.85455 1699.0261 6050627
1506.299 -367.00449 1654.6176 5853248
1487.317 -360.02829 1623.1659 5919042
1496.4355 -359.90033 1622.589 5919043
1523.744 -364.12076 1641.6166 5721664
1523.6252 -361.77505 1631.0411 5853249
1475.8937 -348.22519 1569.9523 6049602
1509.0106 -353.8013 1595.0918 5984065
1524.672 -355.24066 1601.5812 5918272
1469.7245 -340.31281 1534.2798 5918269
1477.1023 -339.91141 1532.4701 5853246
1486.6005 -339.99988 1532.869 5787197
0 0 0 0
0 0 0 0
0 0 0 0
0 0 0 0
0 0 0 0
0 0 0 0
0 0 0 0
0 0 0 0
0 0 0 0
0 0 0 0
0 0 0 0
0 0 0 0
0 0 0 0
-1553.0458 -394.63116 1828.1748 3026720
-1538.1985 -393.61325 1823.4594 3224096
-1600.9698 -412.58386 1911.3429 3290142
-1514.1113 -392.98917 1820.5682 3487521
-1502.2264 -392.71188 1819.2836 3290143
-1491.6305 -392.76993 1819.5526 3224096
-1640.036 -435.00238 2015.1992 3224095
-1476.3195 -394.46002 1827.3821 3092511
-1468.2526 -395.2131 1830.8708 3092512
-1463.1698 -396.78671 1838.1608 3224611
-1664.354 -454.74097 2106.6406 2895646
-1456.0577 -400.84607 1856.9662 2895646
-1450.5801 -402.38922 1864.1151 2764060
-1479.1523 -413.47424 1915.4678 2697756
-1456.1896 -410.21375 1900.363 3158817
-1453.8784 -412.76529 1912.1835 2829340
-1466.0908 -419.51297 1943.4427 2500119
-1462.1543 -421.71021 1953.6217 2434582
-1456.423 -423.42078 1961.5463 2302995
-1458.2804 -427.38309 1979.902 1974286
-1450.8118 -428.65439 1985.7916 1316103
-1447.1219 -431.0722 1996.9923 1118726
-1439.0795 -432.22272 2002.3221 197376
-1437.2362 -435.26987 2016.4386 256
-1423.6241 -434.77411 2014.1418 256
-1405.9683 -433.02448 2006.0365 0
-1392.3959 -432.5134 2003.6687 0
-1377.9637 -431.72403 2000.012 0
-1363.7407 -430.98706 1996.5979 855568
-1321.1421 -421.1908 1951.2155 1381911
-1316.1876 -423.32852 1961.1188 1710877
-1305.9973 -423.80533 1963.3278 1447449
-1295.2477 -424.10773 1964.7284 1118740
-1290.4581 -426.38483 1975.2775 723728
-1292.8986 -431.11456 1997.1886 593168
-1283.2047 -431.84839 2000.588 987926
-1271.2935 -431.84271 2000.5618 922133
-1258.9663 -431.69427 1999.874 790804
-1246.0669 -431.34491 1998.2557 987926
-1231.8108 -430.51468 1994.4095 395789
-1216.0824 -429.14874 1988.0818 395789
-1202.3943 -428.48312 1984.998 198154
-1187.8972 -427.51309 1980.5044 658704
-1176.4646 -427.63757 1981.0811 658189
-1164.0292 -427.39642 1979.9637 658959
-1155.2523 -428.50729 1985.11 527373
-1147.6008 -430.06287 1992.3165 1514268
-1138.3041 -431.02789 1996.7871 1317403
-1139.1416 -435.89114 2019.3167 1712416
-1134.178 -438.61453 2031.9331 1844002
-1125.299 -439.86612 2037.7311 329736
-1120.0507 -442.57959 2050.3015 461322
-1123.177 -448.6983 2078.6472 0
-1112.3153 -449.30298 2081.4485 256
-1102.7838 -450.4646 2086.8298 0
-1092.8044 -451.46759 2091.4763 0
-1083.3958 -452.73218 2097.3347 0
-1089.201 -460.45792 2133.125 0
-1075.7325 -460.12173 2131.5676 0
-1064.8662 -460.90375 2135.1904 0
-1066.2417 -467.06726 2163.7437 0
-1058.0565 -469.14206 2173.3555 0
-1049.3033 -471.01328 2182.0239 0
-1038.5826 -472.03702 2186.7666 0
-1072.1554 -493.47336 2286.073 0
-1060.7385 -494.4873 2290.77 0
-1037.2023 -489.80438 2269.0759 0
-1025.3008 -490.56479 2272.5986 0
-1013.9814 -491.62775 2277.5229 0
-1006.6033 -494.65622 2291.5527 0
-996.67242 -496.49622 2300.0767 0
-986.59454 -498.31314 2308.4937 0
-969.88965 -496.78687 2301.4231 65536
-964.82324 -501.26355 2322.1619 65536
-964.23169 -508.22882 2354.4294 65536
-970.85455 -519.258 2405.5232 0
-1060.692 -575.78943 2667.4116 723714
-1159.3793 -638.91388 2959.8433 394752
-1332.6161 -745.70038 3454.5442 263680
0 0 0 0
-1293.6044 -746.89337 3460.0708 987654
-1270.66 -745.50146 3453.6226 1118729
-1254.181 -747.91931 3464.8235 395523
-1224.5703 -742.45618 3439.5149 1382417
-1180.2223 -727.72046 3371.25 1514003
-1160.7626 -728.08679 3372.9473 1579796
-1120.7705 -715.36084 3313.9924 1645589
-1103.7561 -717.10779 3322.0854 1645589
-1071.5699 -708.88177 3283.9775 1908761
-1046.104 -704.8786 3265.4324 1842968
-1012.9405 -695.43921 3221.7034 1645848
-992.14484 -694.29083 3216.3833 1711897
-972.62067 -694.00452 3215.0571 2040865
-955.21765 -695.25073 3220.8301 1975072
-941.23395 -699.08746 3238.6042 2106655
-929.55402 -704.83136 3265.2134 2040862
-918.00378 -710.92065 3293.4229 2040862
-901.4433 -713.31079 3304.4956 2172448
-887.31964 -717.77869 3325.1936 2369827
-872.2915 -721.7019 3343.3684 2172448
-864.31451 -731.77795 3390.0469 2304034
-853.63141 -739.98932 3428.0869 2369827
-884.849 -785.81335 3640.3721 2238241
-824.04242 -750.16187 3475.2124 2435620
-789.2334 -736.95184 3414.0154 2567206
-747.41418 -716.32581 3318.4629 2501413
-740.90265 -729.33783 3378.7427 2632999
-713.22253 -721.65625 3343.1567 2501413
-700.64856 -729.2572 3378.3691 2435620
-681.5451 -730.31012 3383.2468 2764585
-662.74127 -731.75787 3389.9539 2764586
-646.25354 -735.93408 3409.3005 2699050
-632.36951 -743.44165 3444.0801 2896171
-611.82263 -743.35645 3443.6855 2632999
-609.89545 -766.67139 3551.6946 2764584
-585.35571 -762.21393 3531.0449 2698791
-570.33276 -770.27802 3568.4028 2567205
-555.37677 -779.0592 3609.0825 2895913
-526.70874 -768.53851 3560.3442 461315
-514.71985 -782.49292 3624.9897 2566691
-492.92828 -782.1134 3623.2314 2566691
-470.63184 -780.86139 3617.4316 2106140
-457.42804 -795.2984 3684.3125 3026983
-426.76318 -779.30231 3610.209 2632740
-403.54776 -775.93567 3594.6125 2633252
-386.61081 -784.93964 3636.3247 2765094
-360.54245 -775.37262 3592.0042 2633252
-339.77328 -776.71478 3598.2217 2764837
-318.80508 -777.75153 3603.0249 2764838
-297.12164 -777.0672 3599.8545 2764325
-275.92722 -777.65472 3602.5764 2764066
-254.02713 -776.18512 3595.7683 2698528
-232.69757 -776.34888 3596.5269 2895651
-211.23552 -776.05896 3595.1836 2764322
-190.07654 -776.94257 3599.2771 2698784
-169.27675 -779.70483 3612.0737 2763807
-147.65643 -778.94122 3608.5361 2698014
-126.70397 -782.04022 3622.8923 2763807
-105.18038 -782.16132 3623.4539 2829856
-83.24897 -778.53113 3606.6365 2830113
-61.82616 -778.78857 3607.8289 2632481
-40.232983 -776.03326 3595.0647 1974550
-18.814514 -774.22168 3586.6724 2369308
2.4515781 -756.19104 3503.1433 1514254
22.281315 -723.76678 3352.9341 1711633
0 0 0 0
57.547493 -670.15723 3104.5815 4606269
75.751129 -667.91205 3094.1804 4145717
93.136497 -660.7392 3060.9514 3750961
110.59261 -656.33112 3040.5305 3817011
128.93915 -657.70374 3046.8892 3817524
148.62971 -664.74915 3079.5281 3751987
168.79291 -672.13129 3113.7266 3620145
182.80699 -655.98853 3038.9434 4145462
200.91707 -656.12585 3039.5796 4079669
224.44754 -672.4809 3115.3462 3948084
236.3644 -654.19867 3030.6516 3816754
272.66745 -701.22058 3248.4863 3685169
273.38217 -656.55298 3041.5583 3553585
283.17499 -637.87732 2955.041 256
298.66388 -633.46497 2934.6006 0
312.11517 -625.4566 2897.5007 65536
329.42767 -625.6189 2898.2524 65536
344.91931 -622.47876 2883.7056 65536
360.30042 -619.44611 2869.6565 65536
376.20047 -617.53949 2860.824 0
391.84109 -615.39044 2850.8682 0
407.82227 -613.93225 2844.1128 0
423.85468 -612.66418 2838.2385 65536
439.18518 -610.51752 2828.2937 65536
455.18106 -609.4201 2823.2097 0
471.22116 -608.4577 2818.7515 0
487.26816 -607.57007 2814.6394 0
503.38669 -606.82758 2811.1997 0
519.28888 -605.88049 2806.812 0
535.14783 -604.94348 2802.4712 0
551.57104 -604.68158 2801.2581 0
567.86053 -604.29272 2799.4565 0
584.81714 -604.61578 2800.9531 0
602.28741 -605.43726 2804.7588 0
619.45905 -605.92236 2807.0061 0
635.909 -605.69464 2805.9512 0
654.13159 -607.12378 2812.5718 0
673.24225 -609.28546 2822.5859 0
691.53656 -610.62109 2828.7734 592136
710.80286 -612.73114 2838.5486 2961196
721.61517 -607.62482 2814.8931 3487537
743.98077 -612.25775 2836.3557 3618868
766.86224 -617.1004 2858.7898 3356722
802.16077 -631.50854 2925.5371 3554101
823.05084 -634.20264 2938.0178 3619894
858.8277 -648.0174 3002.0161 3554101
882.69653 -652.46747 3022.6316 3422515
913.2962 -661.61597 3065.0132 3488308
938.89673 -666.8559 3089.2876 3290929
979.01569 -682.00861 3159.4846 3553331
1002.5622 -685.26343 3174.5627 3355695
1017.0121 -682.29504 3160.8115 2500899
1042.5393 -686.73132 3181.3628 3421745
1051.9224 -680.56445 3152.7944 3487538
1069.8066 -680.01746 3150.2603 3355951
1085.4271 -678.07495 3141.2615 3356208
1097.9689 -674.30743 3123.8079 1974555
1114.1295 -672.85083 3117.0601 1974553
1136.0437 -674.85974 3126.3665 1974552
1155.923 -675.61456 3129.8633 2303517
1185.1527 -681.72412 3158.1665 1974551
1204.9073 -682.27777 3160.7312 2171929
1196.4108 -667.06281 3090.2463 1974808
1216.7233 -668.12781 3095.1799 2303516
1254.4618 -678.58752 3143.6357 2369310
1261.4525 -672.35156 3114.7471 2369310
1262.9973 -663.43542 3073.4419 2369309
1272.9733 -659.13916 3053.5391 2435103
1229.2004 -627.52417 2907.0791 2435103
1259.0818 -633.86615 2936.4587 2500383
1261.3068 -626.30182 2901.4163 2435103
1253.6799 -614.11572 2844.9626 2369310
1258.02 -608.03802 2816.8071 2566689
1232.6759 -587.96124 2723.7993 2435103
1244.7372 -586.01544 2714.7852 2698273
1239.7462 -576.19415 2669.2866 2895138
1213.3751 -556.80988 2579.4866 2698273
1223.5117 -554.45349 2568.5706 2632737
1203.2291 -538.54028 2494.8506 2961449
1182.2283 -522.69702 2421.4551 3290416
1158.8058 -506.17722 2344.925 4672842
1164.4808 -502.60922 2328.3958 4936017
1178.2677 -502.58505 2328.2839 5331548
1200.7887 -506.24371 2345.2332 5331805
1201.1412 -500.57962 2318.9934 5002587
1234.8605 -508.79193 2357.0381 263947
1227.4982 -500.08331 2316.6943 197639
1223.5271 -492.93427 2283.5754 2
1222.3354 -487.04956 2256.314 1
1214.6719 -478.74182 2217.8274 0
1231.7465 -480.25797 2224.8511 0
1224.1046 -472.20734 2187.5557 1
1212.3046 -462.73877 2143.6914 2
1220.9595 -461.19373 2136.5337 2
1229.2245 -459.5347 2128.8481 3
1225.0333 -453.30032 2099.9668 4
1247.5317 -456.96811 2116.958 7
1198.7004 -434.69562 2013.7782 3
1213.337 -435.65207 2018.2091 6317168
1215.4496 -432.13696 2001.9249 6646903
1225.0897 -431.34042 1998.2349 3686218
1236.658 -431.23157 1997.7306 5264478
1239.0243 -427.94647 1982.512 5396059
1239.3466 -424.02396 1964.3406 4935503
1235.6013 -418.79605 1940.1217 5198415
1242.9595 -417.39349 1933.624 4934727
1233.7616 -410.5079 1901.7258 4803137
1251.9586 -412.77969 1912.2501 4999489
1232.9042 -402.83905 1866.199 4736570
1229.4607 -398.13095 1844.3882 4539191
1222.8514 -392.49002 1818.2559 4670777
1227.4071 -390.50009 1809.0372 4933948
1216.8068 -383.76468 1777.8347 5065535
1222.2374 -382.15775 1770.3903 4933948
1211.4985 -375.56564 1739.8517 5131328
1197.3063 -368.02368 1704.9127 5131327
1192.1829 -363.37256 1683.3657 5131327
1190.5374 -359.85004 1667.0472 5394499
1182.5905 -354.49677 1642.2477 4868153
1198.2061 -356.23648 1650.3071 5197118
1199.975 -353.86465 1639.3193 5065275
1217.3485 -356.09567 1649.6548 5394240
1231.7848 -357.43869 1655.8765 5591107
1244.363 -358.22552 1659.5216 5854023
1257.495 -359.15817 1663.8422 4867128
1273.8997 -361.00366 1672.3916 4274992
1254.5728 -352.77319 1634.2629 5656644
1275.7878 -355.98163 1649.1265 5919816
1285.6831 -356.00662 1649.2423 5459263
1298.9203 -356.94968 1653.6111 5656641
1307.4081 -356.58319 1651.9132 5788226
1322.5193 -358.0152 1658.5471 5788226
1330.3531 -357.47049 1656.0238 5590846
1374.7081 -366.67508 1698.6652 5787967
1386.3909 -367.09433 1700.6073 5590588
1403.8562 -369.02753 1709.5631 5524794
1433.3885 -374.08221 1732.9795 5459002
1445.5691 -374.56857 1735.2327 5722173
1461.5522 -376.02643 1741.9863 5656382
1422.5337 -363.41251 1683.5509 5787967
1485.0867 -376.74191 1745.3009 5655869
1492.8927 -376.09433 1742.3009 5919043
1471.5524 -368.1636 1705.5608 5852995
1497.019 -371.97177 1723.2026 5919042
1481.0039 -365.49106 1693.1801 6115395
1503.4907 -368.53549 1707.2837 6115395
1498.6603 -364.88794 1690.3859 6049858
1504.7122 -363.92096 1685.9062 5589051
1505.5682 -361.71841 1675.7028 6049858
1503.142 -358.76141 1662.0042 5853249
1492.181 -353.8194 1639.1096 5853248
1517.6023 -357.51227 1656.2174 5787456
1562.6178 -365.74374 1694.3506 6116421
1556.0924 -361.88348 1676.4674 5852992
1524.7848 -352.34567 1632.2825 5853249
1509.5031 -346.60834 1605.7036 5984578
1539.2637 -351.22064 1627.0707 5918527
1544.7421 -350.26935 1622.6636 6115649
1486.8735 -335.05511 1552.182 5720890
1471.587 -329.56497 1526.7482 5786684
1470.2347 -327.24356 1515.9939 5852476
0 0 0 0
0 0 0 0
0 0 0 0
0 0 0 0
0 0 0 0
0 0 0 0
0 0 0 0
0 0 0 0
0 0 0 0
0 0 0 0
0 0 0 0
0 0 0 0
0 0 0 0
-1555.9625 -384.48248 1831.6084 3026721
-1531.6748 -381.1485 1815.7257 3224096
-1520.076 -380.94714 1814.7666 3224349
-1505.2174 -379.92014 1809.8741 3093021
-1497.7072 -380.74646 1813.8105 3093021
-1565.203 -400.79102 1909.2994 3027229
-1604.704 -413.90765 1971.7849 3224609
-1472.025 -382.47952 1822.0665 3158561
-1461.4137 -382.53754 1822.343 3158304
-1456.238 -384.02991 1829.4524 2698267
-1454.8188 -386.54285 1841.4236 2895392
-1454.0741 -389.27441 1854.4363 3026978
-1448.0653 -390.62775 1860.8833 3026722
-1456.3193 -395.87906 1885.8997 2763807
-1451.4342 -397.6124 1894.1571 2763549
-1462.1893 -403.69098 1923.1143 2698013
-1466.8702 -408.17514 1944.476 2764059
-1459.7297 -409.41492 1950.3822 2237716
-1451.8915 -410.47729 1955.4431 2369046
-1456.3198 -415.05283 1977.2401 1645835
-1458.3831 -419.02325 1996.1547 1184774
-1443.5455 -418.16315 1992.0571 1053189
-1458.5763 -426.01245 2029.45 0
-1438.1899 -423.56204 2017.7766 256
-1424.9454 -423.19147 2016.0112 256
-1407.6405 -421.59845 2008.4224 0
-1393.4944 -420.9324 2005.2494 0
-1379.3799 -420.2644 2002.0674 256
-1371.031 -421.35681 2007.2712 263431
-1334.6669 -413.78284 1971.1903 1316121
-1325.4807 -414.57532 1974.9653 1382684
-1317.34 -415.71179 1980.3794 1382684
-1302.1263 -414.61667 1975.1625 1382682
-1292.9951 -415.45596 1979.1606 1251355
-1290.2048 -418.36682 1993.0275 922133
-1283.7273 -420.12488 2001.4027 856340
-1273.9611 -420.82956 2004.7595 593168
-1259.9861 -420.14407 2001.494 593168
-1246.0625 -419.46283 1998.2487 593168
-1231.3801 -418.51059 1993.7124 658961
-1216.1118 -417.33871 1988.1299 527375
-1206.2551 -418.01926 1991.3717 593168
-1188.8979 -416.08826 1982.1729 987670
-1175.6611 -415.57504 1979.728 1053206
-1165.2126 -416.04712 1981.9767 1053718
-1154.7373 -416.51907 1984.2251 1185303
-1147.4513 -418.16306 1992.0568 1383195
-1138.8181 -419.34528 1997.6887 1514528
-1137.5829 -423.30527 2016.5535 922901
-1137.2762 -427.69888 2037.4838 264971
-1128.0887 -428.81122 2042.7828 1054232
-1113.2412 -427.77292 2037.8365 1251096
-1107.9346 -430.41824 2050.4385 257
-1108.6542 -435.48959 2074.5974 256
-1099.0184 -436.56161 2079.7043 256
-1089.0641 -437.53006 2084.3179 256
-1097.7236 -446.08496 2125.072 0
-1091.6794 -448.79431 2137.9788 0
-1076.8752 -447.9238 2133.8318 0
-1065.3754 -448.42337 2136.2117 0
-1062.3522 -452.54581 2155.8503 0
-1060.1323 -457.11548 2177.6194 0
-1050.3141 -458.48123 2184.1257 0
-1040.2294 -459.76343 2190.2336 0
-1072.2231 -479.91187 2286.2175 0
-1064.1183 -482.39969 2298.0691 0
-1041.298 -478.1944 2278.0359 0
-1029.1721 -478.85431 2281.1794 0
-1023.9874 -482.80444 2299.9973 0
-1003.5765 -479.58539 2284.6621 0
-993.71741 -481.38959 2293.2571 0
-983.32611 -482.98264 2300.8459 65536
-972.59375 -484.45059 2307.8394 65536
-966.74896 -488.43005 2326.7966 65536
-953.42273 -488.69034 2328.0366 65536
-962.98907 -500.86499 2386.0347 256
-1052.7743 -555.75061 2647.5002 461056
-1077.9709 -577.68915 2752.0115 329472
-952.97552 -518.57477 2470.4009 263680
0 0 0 0
-1293.4403 -726.22943 3459.6321 1118984
-1256.2522 -716.74762 3414.4624 921351
-1246.5361 -722.88574 3443.7034 263681
-1219.1035 -718.78333 3424.1599 1382417
-1195.3574 -716.75201 3414.4832 1514003
-1158.7928 -706.83154 3367.2236 1842968
-1122.3857 -696.65997 3318.7683 1711382
-1098.8688 -694.26849 3307.3755 1645589
-1072.8799 -690.19958 3287.9919 1579796
-1042.7933 -683.29462 3255.0979 1711382
-1023.4402 -683.29462 3255.0979 1777433
-1022.5438 -695.85474 3314.9321 1712153
-979.39417 -679.58948 3237.4473 2040349
-958.22382 -678.22906 3230.9666 2237727
-949.39905 -685.72986 3266.699 2040604
-935.53302 -689.82666 3286.2156 1974812
-920.18109 -692.97937 3301.2344 2106655
-903.26172 -695.06323 3311.1616 2238241
-883.12628 -694.71008 3309.479 2238240
-895.46521 -720.46893 3432.1899 2304034
-890.3139 -733.02869 3492.0225 2172448
-879.36011 -741.29681 3531.4104 2238241
-840.21344 -725.62164 3456.7366 2304034
-853.04993 -755.17944 3597.5449 2369827
-809.42627 -734.98969 3501.3643 2369827
-797.32318 -743.11151 3540.0552 2698792
-726.98578 -695.92725 3315.2776 2698792
-734.84393 -723.05408 3444.5049 2567207
-714.25079 -722.93878 3443.9561 2567209
-679.46454 -708.02704 3372.9189 2567208
-664.96808 -713.99396 3401.3442 2435621
-645.68811 -715.03796 3406.3176 2698792
-629.5033 -719.68805 3428.47 2764585
-609.91425 -720.6272 3432.9441 2632999
-597.79156 -730.75861 3481.2083 2698791
-583.79291 -739.24121 3521.6179 2764584
-570.61481 -749.43262 3570.1677 2764584
-552.36212 -753.48914 3589.4924 2829863
-529.23059 -750.94885 3577.3911 263425
-519.3667 -767.81024 3657.7158 2435103
-493.22049 -761.02234 3625.3794 2566689
-470.36908 -758.93005 3615.4121 2106140
-455.56329 -770.24054 3669.2932 3027240
-432.28867 -767.64996 3656.9521 2764069
-408.02747 -762.94012 3634.5156 2829861
-381.8334 -753.88751 3591.3901 2829861
-359.45279 -751.73755 3581.1482 2829861
-337.05289 -749.27399 3569.4121 2764069
-316.75134 -751.45746 3579.814 2698531
-295.30716 -751.04956 3577.8706 2895654
-274.7478 -753.00323 3587.1777 3027238
-251.91969 -748.54456 3565.9375 2764066
-231.09232 -749.75763 3571.7163 2829860
-210.02921 -750.37396 3574.6523 2961446
-189.08734 -751.61108 3580.5457 2895650
-167.86189 -751.89172 3581.8828 2829858
-147.11307 -754.69916 3595.2571 2698527
-125.43041 -752.85614 3586.4771 2895395
-104.67972 -756.99756 3606.2061 2895653
-83.412186 -758.57233 3613.7078 2829859
-61.598499 -754.5495 3594.5439 2764066
-40.091946 -752.01337 3582.4622 2435102
-18.327839 -733.422 3493.896 2764067
2.4018567 -720.44897 3432.095 1645586
23.133284 -730.74426 3481.1399 1448207
0 0 0 0
57.284939 -648.72571 3090.4175 4738111
0 0 0 0
91.978683 -634.55267 3022.8997 3685423
111.27676 -642.20209 3059.3401 3883058
129.33026 -641.5285 3056.1311 3949110
146.56082 -637.44153 3036.6619 3949110
165.08833 -639.27338 3045.3882 3751731
183.31146 -639.68085 3047.3296 3685938
204.43715 -649.23273 3092.833 3685940
219.41162 -639.28577 3045.4473 3882549
247.69748 -666.68323 3175.9641 3619120
257.00885 -642.74658 3061.9338 3619376
274.9277 -642.07898 3058.7537 3948085
0 0 0 0
297.28738 -613.17822 2921.0754 0
313.30948 -610.55695 2908.5881 65536
329.46243 -608.45148 2898.5581 65536
346.37769 -607.89319 2895.8984 65536
359.99432 -601.8728 2867.2185 65536
376.01947 -600.24158 2859.4475 65536
391.70782 -598.23706 2849.8984 65536
407.85831 -597.07538 2844.3643 65536
424.04602 -596.05841 2839.5198 65536
439.59949 -594.26202 2830.9619 0
455.18231 -592.63629 2823.2173 0
471.18927 -591.65881 2818.5608 0
487.30341 -590.87842 2814.843 0
503.58643 -590.34778 2812.3152 0
519.38312 -589.2995 2807.3215 0
535.4209 -588.58148 2803.9009 0
551.75049 -588.21802 2802.1694 0
568.26001 -588.06195 2801.426 0
584.95526 -588.10162 2801.6147 0
601.85065 -588.33466 2802.7249 0
619.53192 -589.30261 2807.3362 0
636.3338 -589.40533 2807.8254 0
654.29358 -590.54785 2813.2683 0
672.76654 -592.08508 2820.5913 0
691.10767 -593.43427 2827.0188 0
702.19592 -588.63953 2804.1772 2698023
719.46759 -589.13037 2806.5159 3027245
744.31842 -595.66443 2837.6428 3159343
766.34595 -599.69952 2856.8652 3422515
794.91119 -608.56464 2899.0972 3554101
818.604 -613.40247 2922.1438 3488308
854.42725 -626.94006 2986.6345 3488308
887.79541 -638.16162 3040.092 3487281
911.03375 -641.79913 3057.4207 3487538
938.89594 -648.48798 3089.2852 3487538
973.75781 -659.66211 3142.5166 3290159
1001.0237 -665.36646 3169.6912 3224367
1023.8904 -667.98999 3182.1892 3158828
1040.1472 -666.28418 3174.063 3026987
1053.024 -662.5127 3156.0964 3355952
1063.9355 -657.65845 3132.9717 3290159
1098.05 -667.06702 3177.7925 3553587
1101.0515 -657.57599 3132.5786 1908761
1120.4508 -658.03082 3134.7454 1908759
1130.7817 -653.23218 3111.8857 1974552
1154.2656 -656.06396 3125.3757 2106137
1174.9352 -657.23169 3130.9387 2040344
1156.4648 -636.81061 3033.6562 2303516
1219.6156 -661.27136 3150.1829 2106137
1233.7845 -658.83606 3138.5815 2171931
1224.9429 -644.3689 3069.6624 2237724
1235.7357 -640.50342 3051.2478 2171931
1259.875 -643.56726 3065.8438 2237724
1267.0796 -638.01666 3039.4014 2434589
1256.0835 -623.58643 2970.6582 2566176
1260.0424 -616.87769 2938.699 2631712
1261.4076 -609.10016 2901.6482 2040089
1248.8464 -594.8985 2833.9941 2632482
1249.0931 -587.09491 2796.8191 2566689
1243.5155 -576.79486 2747.7512 2632482
1226.3022 -561.43475 2674.5784 2698275
1233.9397 -557.69958 2656.7847 2763811
1223.7264 -546.09283 2601.4924 2500895
1219.2786 -537.31659 2559.6838 2500897
1207.1648 -525.4201 2503.011 2698278
1179.8741 -507.28815 2416.6333 3026987
1178.6244 -500.65402 2385.0295 5263694
1164.2056 -488.65021 2327.8455 4738125
1179.9065 -489.422 2331.5222 4343626
1201.1064 -492.43042 2345.8538 5527901
1210.0522 -490.40347 2336.1978 5133143
1231.3425 -493.36865 2350.3232 133131
1228.9972 -486.90335 2319.5237 259
1222.3289 -478.88779 2281.3391 0
1234.2346 -478.24536 2278.2786 0
1215.5344 -465.88635 2219.4023 0
1233.8059 -467.81097 2228.5708 0
1235.8907 -463.62259 2208.6182 0
1214.2833 -450.72797 2147.1904 0
1221.9158 -448.84222 2138.207 1
1218.5323 -442.99057 2110.3308 1
1222.2965 -439.83017 2095.2751 4
1252.1321 -446.02039 2124.7644 5
1211.9982 -427.4122 2036.118 394759
1213.6456 -423.7605 2018.7222 6119786
1215.189 -420.14444 2001.4957 6909304
1230.0355 -421.15332 2006.3019 3159101
1240.583 -420.68503 2004.071 5067097
1241.0585 -416.84268 1985.7668 5066582
1244.5724 -414.08371 1972.6235 5000527
1243.2197 -409.77219 1952.0841 4934729
1268.2058 -414.14148 1972.8987 4803141
1238.2985 -400.66922 1908.7191 4737087
1241.6982 -398.1207 1896.5784 4868156
1236.2422 -392.8042 1871.2516 4604984
1234.8188 -388.85248 1852.4263 4868156
1235.3215 -385.57181 1836.7977 4736569
1231.5162 -381.01575 1815.0934 4999485
1186.0055 -363.74783 1732.832 4868155
1223.2769 -371.94794 1771.8959 4802619
1218.715 -367.39685 1750.2153 4999999
1201.5356 -359.15137 1710.9352 5131327
1194.5825 -354.07532 1686.7539 5262913
1192.5411 -350.52756 1669.8529 5065533
1180.823 -344.21756 1639.7931 4736567
1192.6932 -344.83069 1642.7141 4802103
1209.7687 -346.92664 1652.6989 5131068
1212.6042 -344.93808 1643.2257 5262654
1231.205 -347.43005 1655.097 5262654
1246.1471 -348.85834 1661.901 5394497
1266.4607 -351.75598 1675.705 5328704
1267.2732 -349.23431 1663.6921 3749415
1273.1877 -348.14685 1658.5116 5723205
1282.1472 -347.90231 1657.3467 5393470
1288.106 -346.85349 1652.3503 5722435
1300.7449 -347.60574 1655.9338 5590848
1314.2141 -348.56693 1660.5127 5590847
1329.0894 -349.88385 1666.7864 5788225
1336.7544 -349.29724 1663.9919 5722429
1373.7473 -356.32645 1697.4779 5524795
1372.7594 -353.47339 1683.8864 5590588
1387.0347 -354.56332 1689.0786 5590331
1433.6542 -363.84622 1733.3007 5524795
1422.3984 -358.41327 1707.4192 5722173
1459.1719 -365.07388 1739.1492 5656381
1468.6929 -364.87042 1738.1798 5525051
1479.8954 -365.08456 1739.2001 5590331
1487.9103 -364.51486 1736.4861 5524281
1490.2485 -362.57187 1727.23 5524537
1476.0004 -356.64774 1699.0083 5656123
1483.5353 -356.03177 1696.0741 5787453
1501.9846 -358.02582 1705.5734 5787197
1498.6566 -354.83688 1690.3818 5852990
1510.8511 -355.34119 1692.7843 6181698
1514.0629 -353.7402 1685.1573 5787454
1507.3649 -349.86014 1666.6735 5919042
1509.6396 -348.09976 1658.2872 5787456
1518.4631 -347.86243 1657.1567 5984835
1559.8802 -355.04691 1691.3823 5918785
1565.0403 -353.93961 1686.1074 6116164
1546.3737 -347.49225 1655.3933 5787456
1530.288 -341.70276 1627.8131 5984066
1539.2637 -341.54691 1627.0707 5984063
1622.8525 -357.84549 1704.7142 5786940
1502.3762 -329.22385 1568.3657 5721917
1473.2753 -320.85535 1528.4996 5656124
1522.6943 -329.58502 1570.0863 5721148
0 0 0 0
0 0 0 0
0 0 0 0
0 0 0 0
0 0 0 0
0 0 0 0
0 0 0 0
0 0 0 0
0 0 0 0
0 0 0 0
0 0 0 0
0 0 0 0
0 0 0 0
-1573.308 -377.75739 1852.0267 3355172
-1523.4023 -368.35284 1805.9192 3421475
-1513.0215 -368.43961 1806.3445 2960923
-1578.2058 -387.06021 1897.6355 3355681
-1493.6942 -368.97119 1808.9507 3224095
-1484.8925 -369.45718 1811.3334 3421219
-1474.0234 -369.43219 1811.2108 3158049
-1470.4937 -371.25977 1820.1709 2960926
-1465.6226 -372.77332 1827.5913 3092257
-1457.8929 -373.577 1831.5315 2895391
-1616.8734 -417.43277 2046.5427 2895648
-1450.6154 -377.34915 1850.0253 2895390
-1448.4615 -379.66776 1861.3926 3027231
-1625.6844 -429.40186 2105.2234 2763806
-1448.286 -385.51273 1890.0486 3158818
-1450.5864 -389.14441 1907.8538 2698266
-1607.7377 -434.70212 2131.209 2632474
-1454.6584 -396.43683 1943.6062 2303509
-1450.1141 -398.36292 1953.0493 1974544
-1452.9065 -402.3519 1972.6058 1447946
-1448.4009 -404.36829 1982.4916 1447690
-1454.1514 -409.3046 2006.6927 1052935
-1467.9364 -416.60278 2042.4736 65792
-1439.2758 -411.8761 2019.3 256
-1426.2422 -411.5795 2017.8459 256
-1409.2964 -410.13928 2010.785 0
-1395.2118 -409.51425 2007.7207 0
-1382.8562 -409.39029 2007.113 0
-1370.2549 -409.19083 2006.135 514
-1345.1437 -405.21924 1986.6637 329737
-1334.494 -405.57245 1988.3951 1316890
-1325.1396 -406.32907 1992.1047 1317145
-1312.3903 -406.04898 1990.7316 1514781
-1302.5784 -406.68088 1993.8295 1251355
-1293.7123 -407.62238 1998.4456 1448734
-1269.1458 -403.58859 1978.6692 856340
-1276.6375 -409.76926 2008.9711 724754
-1232.9875 -399.49652 1958.6068 593168
-1246.3363 -407.67181 1998.6879 658961
-1232.1168 -406.9003 1994.9053 724754
-1216.4083 -405.61719 1988.6146 790547
-1202.0725 -404.77115 1984.4668 1645600
-1188.9196 -404.31061 1982.2089 1250843
-1176.265 -404.01202 1980.745 1119768
-1169.4298 -405.72638 1989.1499 1316633
-1158.9508 -406.19867 1991.4655 1250840
-1149.6766 -407.1073 1995.9203 593166
-1154.3015 -413.008 2024.8494 395273
-1133.5503 -409.85785 2009.4052 658957
-1132.9651 -414.00967 2029.7603 1777438
-1128.4598 -416.80298 2043.455 1646109
-1112.6412 -415.43295 2036.7383 1251094
-1101.51 -415.80222 2038.5486 66050
-1104.6143 -421.61313 2067.0376 256
-1098.9128 -424.15604 2079.5046 256
-1087.8729 -424.67276 2082.0381 0
-1101.7803 -435.05215 2132.925 0
-1091.1847 -435.88531 2137.0098 0
-1083.1254 -437.76318 2146.2163 0
-1069.8086 -437.53558 2145.1006 0
-1060.4363 -438.93521 2151.9626 0
-1060.5115 -444.32727 2178.3982 0
-1050.0002 -445.36246 2183.4731 0
-1040.163 -446.71286 2190.094 0
-1072.0968 -466.26422 2285.948 0
-1063.4362 -468.43604 2296.5959 0
-1045.1471 -466.36792 2286.4565 0
-1023.7995 -462.86261 2269.271 0
-1017.0991 -465.97409 2284.5256 0
-1012.1988 -470.00562 2304.291 0
-995.13654 -468.42307 2296.5322 0
-991.53662 -473.22147 2320.0574 0
-977.8526 -473.27466 2320.3181 0
-964.12518 -473.30811 2320.4819 0
-954.98529 -475.62726 2331.8521 256
-944.66589 -477.41861 2340.6345 256
-973.95544 -499.5806 2449.2878 526848
0 0 0 0
-937.24048 -495.56711 2429.6111 263680
0 0 0 0
-1274.1349 -695.12781 3407.9949 1316363
-1255.0099 -695.75824 3411.0857 1184523
-1200.1469 -676.27136 3315.5476 329731
-1220.6058 -699.28564 3428.3796 1316624
-1185.9113 -690.94757 3387.5005 1382417
-1164.9542 -690.46356 3385.1274 1711382
-1137.1713 -685.8457 3362.4875 1711382
-1105.179 -678.47833 3326.3677 1645589
-1076.4113 -672.85828 3298.8142 1711382
-1050.9069 -669.1073 3280.4246 1777175
-1022.8607 -663.56549 3253.2549 1776920
-1000.9982 -661.89899 3245.0845 1974042
-999.48438 -673.88672 3303.8567 1908506
-966.26965 -664.55292 3258.0957 1974556
-953.1748 -668.95758 3279.6907 1843739
-937.26465 -671.52924 3292.2983 1777690
-922.48621 -675.03864 3309.5039 2106655
-905.58624 -677.11481 3319.6826 2238241
-894.0152 -683.35669 3350.2849 2172447
-903.87653 -706.63861 3464.429 2238241
-903.57263 -722.87408 3544.0264 2238241
-898.17322 -735.711 3606.9617 2369827
-874.43915 -733.79028 3597.5449 2567206
-860.44153 -740.14844 3628.717 2238242
-831.88104 -733.98462 3598.4978 2501413
-812.66125 -735.95441 3608.155 2304034
-828.39221 -770.54089 3777.7219 2567206
-708.70337 -677.58209 3321.9739 2501413
-696.19696 -684.70685 3356.9043 2567206
-682.63361 -691.18207 3388.6501 2304034
-666.60089 -695.47485 3409.6963 2632999
-647.8847 -697.14929 3417.9055 2698792
-629.83868 -699.67664 3430.2964 2632999
-694.41998 -797.23419 3908.5906 2567206
-614.33118 -729.70691 3577.5256 2764585
-590.00739 -725.94977 3559.1052 2896169
-572.75983 -730.9436 3583.5886 2830377
-552.39148 -732.18665 3589.6829 2501411
-534.81287 -737.37604 3615.125 263938
-516.04877 -741.29718 3634.3489 2435359
-494.68698 -741.66626 3636.1584 2237981
-472.82269 -741.28137 3634.2715 1908761
-453.41241 -744.89111 3651.969 2633252
-427.64325 -737.89185 3617.6538 2830888
-402.7634 -731.76697 3587.6255 2633509
-380.39954 -729.78406 3577.9038 2633252
-358.65408 -728.82281 3573.1909 2699045
-341.45856 -737.56854 3616.0686 2501666
-314.25366 -724.41608 3551.5862 2370336
-294.31717 -727.33087 3565.8765 2632482
-272.21024 -724.91803 3554.0469 2829859
-250.77873 -724.04913 3549.7871 2895653
-229.70143 -724.13727 3550.2192 2764322
-208.55048 -723.98743 3549.4846 2895652
-187.95224 -725.93872 3559.0513 2829858
-166.83894 -726.14343 3560.0549 2698015
-146.46684 -730.10236 3579.4641 2829601
-124.65381 -727.00342 3564.2712 2894624
-103.92701 -730.26776 3580.2751 2698013
-83.339798 -736.44733 3610.5715 3026980
-61.554077 -732.64941 3591.9517 2764064
-40.249641 -733.58801 3596.5535 2105879
-18.684332 -726.51068 3561.8552 2435101
2.4089518 -702.11139 3442.2332 1580046
22.361319 -686.35266 3364.9729 1382666
0 0 0 0
57.881485 -636.91589 3122.6001 4540732
76.637543 -638.50433 3130.3875 4145975
92.851601 -622.43164 3051.5881 3685168
111.14487 -623.27313 3055.7136 3817011
129.03329 -621.92688 3049.1135 3817524
148.39749 -627.14917 3074.7168 3751731
166.79436 -627.58618 3076.8594 3685936
183.40826 -621.89124 3048.939 3751731
201.55046 -621.93671 3049.1619 3948340
219.19078 -620.55383 3042.3821 3620145
244.44868 -639.30396 3134.3081 3685682
256.13467 -622.41754 3051.5193 3685169
274.6113 -623.17517 3055.2334 3619377
284.46606 -605.487 2968.5139 256
296.34247 -593.91724 2911.791 0
313.19595 -593.04889 2907.5339 65536
329.56839 -591.40833 2899.4905 65536
346.55997 -590.98651 2897.4226 65536
360.21533 -585.18481 2868.9788 65536
375.77481 -582.86127 2857.5869 65536
391.5762 -581.09766 2848.9407 65536
407.75769 -580.02106 2843.6624 65536
424.08673 -579.23163 2839.7922 65536
440.56006 -578.69226 2837.1479 0
455.72586 -576.53851 2826.5886 0
471.19089 -574.90302 2818.5703 65536
487.2869 -574.12329 2814.7476 65536
503.586 -573.62671 2812.313 65536
519.45404 -572.68671 2807.7046 65536
535.54761 -572.04626 2804.5647 0
551.78326 -571.59167 2802.3357 0
568.10504 -571.25031 2800.6621 0
585.2417 -571.72443 2802.9866 0
602.07745 -571.88647 2803.781 0
619.54681 -572.62543 2807.4038 65536
636.77759 -573.11084 2809.7837 65536
653.745 -573.34052 2810.9097 65536
672.03693 -574.69135 2817.5325 65536
690.57245 -576.17969 2824.8296 131072
707.83307 -576.55896 2826.689 526600
713.53705 -567.72565 2783.3818 2697766
740.73456 -576.00635 2823.9797 3159343
768.03265 -583.99658 2863.1531 3422514
798.04456 -593.65894 2910.5249 3290929
818.08459 -595.6507 2920.2898 3356722
853.06531 -608.21198 2981.8735 3225135
881.70361 -615.83185 3019.2317 3487538
918.42004 -628.67731 3082.2087 3553585
947.90106 -636.16425 3118.915 3421999
979.52509 -644.77454 3161.1284 3487793
997.80542 -644.44244 3159.5005 3356206
1024.2682 -649.30975 3183.3633 3158827
1042.8861 -649.11755 3182.4211 3356206
1055.2614 -645.11591 3162.802 3224619
1069.318 -642.26416 3148.821 3158828
1089.5142 -643.13477 3153.0894 3553327
1114.4399 -646.72064 3170.6694 1842710
1121.4845 -639.98309 3137.6375 1974552
1138.9268 -639.30243 3134.3005 1908759
1157.9506 -639.51721 3135.3535 1842966
1178.3372 -640.46588 3140.0044 1974553
1198.775 -641.41241 3144.645 1908761
1218.3649 -641.883 3146.9521 2106141
1233.2002 -639.8725 3137.0952 1908761
1235.3802 -631.45319 3095.8181 2106140
1246.9452 -628.00769 3078.926 2040347
1259.8938 -625.34863 3065.8894 2237724
1266.1097 -619.47137 3037.075 2303516
1247.2577 -601.66687 2949.7849 2435103
