# .PCD v0.7 - Point Cloud Data file format
VERSION 0.7
FIELDS x y z rgb
SIZE 4 4 4 4
TYPE F F F U
COUNT 1 1 1 1
WIDTH 1306
HEIGHT 1
VIEWPOINT 0 0 0 1 0 0 0
POINTS 1306
DATA ascii
1193.0941 -675.87939 1302.0691 1447446
1199.3193 -675.02594 1300.425 5460306
1197.6949 -669.79376 1290.3453 1907484
1197.0309 -665.1618 1281.4219 525575
1197.1704 -661.03204 1273.4661 6052186
1198.0336 -657.35132 1266.3751 3420723
1193.9808 -651.03613 1254.209 1381653
1194.9728 -647.53284 1247.46 6776423
1199.682 -646.07465 1244.6509 1447446
1198.4989 -641.48065 1235.8007 724236
0 0 0 0
0 0 0 0
0 0 0 0
0 0 0 0
0 0 0 0
0 0 0 0
0 0 0 0
0 0 0 0
0 0 0 0
0 0 0 0
0 0 0 0
0 0 0 0
-1581.1222 -948.42303 1848.2896 3815989
-1624.9022 -981.50568 1912.7611 3881777
-1556.4187 -946.76508 1845.0585 3684397
-1634.6378 -1001.4036 1951.5381 3553066
-1605.0414 -990.30164 1929.9026 3552810
-1597.5416 -992.77142 1934.7158 3618603
-1601.8705 -1002.6813 1954.0282 3487020
-1597.8444 -1007.4679 1963.3562 3552813
-1408.9807 -894.92401 1744.0305 3487278
-1591.0443 -1018.0552 1983.9889 3619121
-1399.9452 -902.4682 1758.7325 3618864
-1577.3859 -1024.5066 1996.5615 3421485
-1578.9681 -1033.3104 2013.7184 3355692
-1581.6124 -1042.9492 2032.5023 3487278
-1389.4008 -923.25476 1799.2416 3289899
-1561.3867 -1045.5895 2037.6477 3289899
-1546.5653 -1043.7628 2034.088 3355692
-1446.0609 -983.62494 1916.8911 3092519
-1526.6051 -1046.661 2039.736 3092520
-1522.5413 -1052.2336 2050.5959 2763557
-1509.7998 -1051.8507 2049.8496 2435361
-1491.7085 -1047.7041 2041.7687 1842968
-1465.8737 -1038.0062 2022.8694 1579540
-1455.668 -1039.3064 2025.4033 1185038
-1437.056 -1034.5767 2016.1859 1250576
-1439.5084 -1045.0594 2036.6149 1250575
-1431.2938 -1047.9106 2042.1711 658185
-1445.2533 -1067.1837 2079.7307 1053974
-1416.8022 -1055.2032 2056.3831 1251096
-1411.0345 -1060.0553 2065.8389 1382429
-1395.4062 -1057.5195 2060.8972 1316638
-1379.1119 -1054.4298 2054.8757 1250843
-1355.2247 -1045.4276 2037.3323 1316639
-1342.4052 -1044.8776 2036.2604 1514016
-1345.8624 -1057.1021 2060.0835 1777189
-1319.9012 -1046.2324 2038.9006 1580324
-1308.8979 -1047.1276 2040.6451 1383201
-1308.9556 -1056.9711 2059.8284 1514529
-1298.5387 -1058.4626 2062.7351 1317407
-1275.037 -1049.2152 2044.7136 1580323
-1265.8894 -1051.7153 2049.5859 1186079
-1261.0931 -1057.9144 2061.6665 1251616
-1254.6 -1062.7975 2071.1829 1317151
-1243.6588 -1063.9723 2073.4722 4
-1224.8079 -1058.3357 2062.4875 7
-1210.2361 -1056.3202 2058.5598 7
-1209.6938 -1066.6338 2078.6589 6
-1204.5217 -1073.0358 2091.1353 6
-1198.7345 -1079.0177 2102.7927 7
-1208.8511 -1099.592 2142.8882 8
-1205.8555 -1108.5507 2160.3467 7
-1196.1842 -1111.4991 2166.0925 4
-1187.1218 -1115.0836 2173.0781 4
-1188.0343 -1128.2197 2198.678 1
-1182.9995 -1135.9374 2213.718 2
-1219.8478 -1184.498 2308.3533 65794
-1226.1864 -1204.2013 2346.751 1052688
-1219.6697 -1211.5879 2361.146 921103
-1222.7544 -1228.7954 2394.6799 1118481
-1222.8135 -1243.3319 2423.0088 921102
-1232.4391 -1268.0581 2471.1953 855309
-1246.9036 -1298.4198 2530.364 724492
-1283.8253 -1353.1936 2637.1074 1118994
-1326.3308 -1415.28 2758.1018 987408
-1258.5038 -1359.7153 2649.8171 987408
-1300.2313 -1422.6075 2772.3816 856078
-1247.0627 -1381.954 2693.1558 987408
-1277.616 -1434.2273 2795.0264 1118994
-1219.9755 -1387.5691 2704.0986 921871
-1259.3926 -1451.5299 2828.7456 1053201
-1254.2405 -1465.1578 2855.3037 855822
-1188.4639 -1407.3689 2742.6846 790029
-1164.8757 -1398.6261 2725.6467 724749
-1228.7358 -1496.1141 2915.6316 592650
-1208.3004 -1492.285 2908.1692 987408
-1215.8608 -1523.4221 2968.8494 987408
-1151.8854 -1464.5248 2854.0701 724236
-1237.4575 -1596.8464 3111.9387 1053201
-1243.3899 -1628.8557 3174.3186 987154
-1215.3309 -1616.6364 3150.5056 1250326
-1200.8645 -1622.3983 3161.7344 987156
-1184.7078 -1626.0236 3168.7993 921364
-1173.1517 -1636.1827 3188.5974 1118742
-1186.3643 -1681.7871 3277.4714 1118742
-1043.9437 -1504.6055 2932.1794 921363
-870.22223 -1275.5264 2485.7493 856596
-1177.9244 -1756.3685 3422.8162 790547
-1158.3246 -1757.5074 3425.0354 1053719
-1174.0576 -1813.2563 3533.679 1119512
-1166.4388 -1834.3142 3574.7166 1185306
-1156.7697 -1852.8693 3610.8772 1316891
-1147.2958 -1872.4452 3649.0266 922133
-1123.2528 -1868.5396 3641.4153 1053975
-1086.4222 -1842.7905 3591.2356 1185050
-1020.2204 -1765.1906 3440.0083 922648
-990.31012 -1748.4918 3407.4658 1119770
-965.27234 -1739.8783 3390.6799 988697
-953.74304 -1755.7656 3421.6409 1054490
-897.7832 -1688.7694 3291.0786 1251356
-892.37347 -1715.9932 3344.1326 1185562
-884.88849 -1740.3762 3391.6504 1382686
-865.6803 -1742.3024 3395.4038 1250841
-852.89807 -1757.5621 3425.1418 1382171
-841.54767 -1776.5911 3462.2256 1645342
-817.34082 -1768.7524 3446.9497 1316377
-797.74414 -1770.7437 3450.8303 1447963
-772.63733 -1760.2866 3430.4517 1381912
-754.14679 -1764.745 3439.1401 1382938
-734.22461 -1766.0082 3441.6018 1251096
-706.15112 -1747.1759 3404.9014 1711646
-680.34113 -1732.9973 3377.2703 1316891
-652.97913 -1713.8832 3340.0203 1645856
-633.2146 -1714.1364 3340.5137 1645599
-618.48578 -1728.4791 3368.4651 1711394
-593.04553 -1712.8451 3337.9973 1908773
-581.6217 -1738.0126 3387.0437 1514785
-561.72363 -1738.7543 3388.4893 1448735
-542.44702 -1741.546 3393.9299 1317149
-519.22717 -1731.405 3374.167 1383712
-499.8688 -1733.8423 3378.917 1515042
-478.92627 -1730.759 3372.9082 1448995
-458.17676 -1728.1343 3367.793 1581350
-437.67288 -1726.2383 3364.0981 1515301
-411.15359 -1699.2994 3311.5994 1515300
-388.95865 -1688.4218 3290.4011 1646630
-368.13947 -1682.6802 3279.2122 1449251
-343.84888 -1659.5424 3234.1211 1580837
-322.43259 -1648.3577 3212.3242 1712423
-301.94528 -1640.8126 3197.6204 1580837
-284.77136 -1651.469 3218.3875 1383458
-263.93253 -1640.8757 3197.7434 1449510
-245.58629 -1645.3372 3206.4377 1515816
-223.75485 -1625.235 3167.2627 1252900
-205.13971 -1626.9464 3170.5979 1450279
-186.91234 -1632.391 3181.2083 1384232
-169.03682 -1642.4803 3200.8704 1318439
-159.83241 -1750.0734 3410.5479 1384233
-131.11609 -1644.246 3204.311 1252647
-111.85394 -1641.1509 3198.2798 1252134
-92.889694 -1642.0547 3200.0408 1251875
-73.675453 -1637.8661 3191.8782 725529
-54.410255 -1629.2455 3175.0781 856342
-35.496037 -1627.5579 3171.7896 790803
-16.495884 -1613.639 3144.6643 1184534
2.2336833 -1637.8188 3191.7861 328966
20.99592 -1621.2545 3159.5054 2237222
38.495171 -1568.861 3057.4009 4473924
57.207474 -1583.6586 3086.2383 3552821
75.260063 -1577.4413 3074.1221 3947580
93.359009 -1574.4354 3068.2644 3750201
112.42992 -1586.1246 3091.0442 4079425
130.95984 -1587.969 3094.6387 4079939
149.35887 -1587.9678 3094.6362 3882560
168.06458 -1590.8698 3100.2913 4079425
187.42487 -1598.7816 3115.7102 4211524
205.80005 -1597.6228 3113.4519 4145988
222.61726 -1585.5591 3089.9419 4343367
241.9032 -1591.5771 3101.6702 4343367
255.21916 -1560.2461 3040.6121 4474953
273.11368 -1559.1987 3038.571 4409160
290.60522 -1556.1239 3032.5786 4409160
305.03162 -1537.9537 2997.1687 4409160
320.17151 -1525.1884 2972.2913 4277831
332.92395 -1502.9801 2929.012 4606539
348.15088 -1493.5956 2910.7234 4672332
366.1301 -1496.3481 2916.0876 4672589
382.45264 -1492.3873 2908.3687 4606539
399.1069 -1490.0077 2903.7312 4672332
417.19388 -1492.9523 2909.4697 4869970
430.73053 -1480.0271 2884.281 4869713
456.33871 -1507.9824 2938.7605 5001300
476.33313 -1516.0092 2954.4031 4869970
494.70044 -1518.4706 2959.2 5001557
517.57117 -1534.1113 2989.6807 3948869
520.41443 -1491.3219 2906.2925 2369839
555.63605 -1541.0858 3003.2725 2961722
551.29877 -1481.4484 2887.0508 3553860
603.46198 -1572.6556 3064.7959 3818058
625.50226 -1582.3152 3083.6206 3752265
651.87262 -1602.0668 3122.1121 3949645
675.69629 -1614.6387 3146.6125 3686473
697.01709 -1620.7136 3158.4514 3686730
717.45233 -1624.4647 3165.7615 3686472
736.13647 -1624.1604 3165.1685 3752519
755.60864 -1625.5669 3167.9092 3489347
766.85632 -1609.6412 3136.8735 3489087
779.35406 -1597.0337 3112.3037 3357501
798.40167 -1598.1213 3114.4233 3422778
815.11688 -1594.5969 3107.5552 3422776
835.47675 -1598.2008 3114.5784 3224884
850.9433 -1592.4907 3103.4504 3027761
866.03345 -1586.3335 3091.4512 3159091
888.98016 -1594.5243 3107.4136 3159346
913.44684 -1605.0522 3127.9304 2764074
932.94348 -1606.6013 3130.9492 2632231
954.67682 -1611.8662 3141.2095 2763558
972.24731 -1610.0354 3137.6416 2829350
997.24396 -1620.3396 3157.7227 1710870
1018.5324 -1624.3495 3165.5369 2236959
1039.1074 -1627.0966 3170.8904 2631718
1059.481 -1629.4355 3175.4487 2565926
1079.954 -1631.8435 3180.1411 2236961
1093.0172 -1623.1643 3163.2273 1644824
1119.6443 -1634.5812 3185.4763 1907995
1141.7996 -1639.1982 3194.4741 1907995
1162.5936 -1641.7419 3199.4314 1973788
1185.4753 -1647.1042 3209.8816 2039835
1190.4193 -1627.7689 3172.2007 2171421
1205.2809 -1622.3864 3161.7112 2171421
1205.8495 -1598.2252 3114.626 2171420
1265.1234 -1651.4259 3218.3035 2040349
1281.2227 -1647.5231 3210.6975 2434852
1293.8536 -1639.3403 3194.751 2566438
1310.7423 -1636.7109 3189.627 2697767
1253.8561 -1543.3485 3007.6819 2829612
1298.1951 -1575.4556 3070.2524 2829612
1322.7773 -1583.0287 3085.011 3158066
1334.9731 -1575.774 3070.873 3487031
1300.5527 -1514.4326 2951.3306 3224116
1316.0974 -1512.132 2946.8472 3224116
1329.1464 -1507.0619 2936.9666 3553081
0 0 0 0
1192.9871 -1318.045 2568.6099 3290939
1208.3188 -1318.1105 2568.7375 3291967
0 0 0 0
0 0 0 0
1144.0428 -1202.4014 2343.2432 9740973
0 0 0 0
1146.2302 -1176.0571 2291.9036 13423317
1152.4122 -1168.5087 2277.1931 13488592
1155.3208 -1157.8547 2256.4307 13619151
1159.424 -1148.6292 2238.4517 13619151
1175.6764 -1151.5123 2244.0706 13619151
1183.4341 -1146.1041 2233.531 13750737
1196.8024 -1146.1892 2233.6968 13750737
1161.2731 -1099.9567 2143.5986 13750737
1185.4072 -1110.6276 2164.394 13750737
1185.9329 -1099.1875 2142.0999 13750737
1195.5739 -1096.3495 2136.5691 13684943
1206.5465 -1094.7795 2133.5095 13619408
1216.02 -1091.896 2127.8901 13422802
1229.8668 -1092.9585 2129.9604 7040397
1233.4017 -1084.9286 2114.312 6450062
1227.2709 -1068.6443 2082.5771 1648718
1228.9191 -1059.3912 2064.5447 2505306
1215.3395 -1037.324 2021.5398 6189969
1212.3176 -1024.6118 1996.7664 12700626
1192.5437 -998.12524 1945.1493 13488593
1197.8252 -992.91675 1934.999 13619407
1196.3494 -982.25922 1914.2296 13750481
1208.3339 -982.75 1915.186 13750737
1238.41 -997.80841 1944.5319 13750737
1244.5798 -993.5047 1936.1448 13750737
1245.2589 -984.93695 1919.4479 13750737
1228.2784 -962.68378 1876.0809 13750737
1231.9591 -956.87897 1864.7684 13750737
1232.5345 -948.78729 1848.9994 13750737
1241.4807 -947.22552 1845.9557 13750737
1249.2869 -944.8288 1841.285 13750737
1247.7241 -935.44971 1823.0071 13619666
1257.303 -934.51318 1821.182 13553617
1261.3158 -929.49121 1811.395 13553877
1234.5686 -902.07831 1757.9727 13488087
0 0 0 0
0 0 0 0
1185.0446 -844.44434 1645.6555 5923445
1176.1301 -831.22906 1619.9016 7042437
1173.0582 -822.3241 1602.5476 7174537
1170.2109 -813.71893 1585.7777 7437711
1171.6371 -808.1991 1575.0206 7568269
1174.916 -804.03461 1566.9049 7633546
1184.7015 -804.35339 1567.5261 4870238
1175.4883 -791.86859 1543.1958 2106158
1182.4967 -790.42035 1540.3734 5527651
1177.1855 -780.82288 1521.6698 2764346
1182.0013 -778.0376 1516.2419 6382702
1186.9335 -775.37067 1511.0446 1645087
1181.5065 -766.02734 1492.8363 5264220
1183.3779 -761.52002 1484.0524 2698292
1188.5519 -759.1889 1479.5095 5263704
1185.0845 -751.41296 1464.3557 2829102
1189.4882 -748.70477 1459.078 2829360
1189.9263 -743.55768 1449.0474 4605772
1186.7595 -736.24829 1434.8027 1776668
1186.7623 -730.99548 1424.5662 6975339
1188.4647 -726.85663 1416.5002 1776924
1180.067 -716.64233 1396.5946 2829612
1190.7103 -718.05341 1399.3445 3618619
1184.0708 -709.09479 1381.886 1315862
0 0 0 0
1187.0336 -701.13898 1366.3817 2565929
1190.7991 -698.58228 1361.399 3487029
1191.8499 -694.47809 1353.4009 5000268
1193.6602 -690.86865 1346.3668 1776411
1195.2263 -687.16687 1339.1528 5263440
1191.4348 -680.45422 1326.0712 4934475
1192.5464 -676.61169 1318.5828 855309
1194.2955 -673.17871 1311.8926 5657682
1199.8002 -671.89343 1309.3878 3223601
1194.1273 -664.40552 1294.7954 920845
1194.2405 -660.21234 1286.6237 5065547
1194.4071 -656.10175 1278.613 2894381
1195.9316 -652.78448 1272.1483 723468
1195.4556 -648.42371 1263.65 5263185
1194.8484 -644.04681 1255.1202 2829100
1199.8838 -642.74677 1252.5867 1184274
1198.0114 -637.78528 1242.9177 5329233
1197.3962 -633.5498 1234.6637 2960684
0 0 0 0
0 0 0 0
0 0 0 0
0 0 0 0
0 0 0 0
0 0 0 0
0 0 0 0
0 0 0 0
0 0 0 0
0 0 0 0
0 0 0 0
0 0 0 0
-1529.1843 -906.64044 1787.5754 3750196
-1538.974 -918.83063 1811.6102 3618607
-1567.3462 -942.36542 1858.0125 4013363
-1590.7504 -963.22614 1899.1425 3618603
-1548.5688 -944.38782 1861.9999 3487530
-1588.0521 -975.43976 1923.2234 3553067
-1600.6636 -990.31689 1952.5559 3684654
-1590.4299 -991.17389 1954.2456 3684398
-1584.4601 -994.72046 1961.2382 3750191
-1581.1862 -1000.0246 1971.6959 3552558
-1575.1056 -1003.6196 1978.7841 3289898
-1384.0768 -888.53729 1751.8824 3421485
-1566.4277 -1013.2264 1997.7253 3553070
-1574.8163 -1026.4354 2023.7688 3289899
-1565.2632 -1028.0637 2026.9794 3355692
-1553.2118 -1028.0637 2026.9794 3289899
-1546.5773 -1031.6771 2034.1036 3289899
-1533.058 -1030.7188 2032.2141 3092520
-1497.83 -1015.0337 2001.2887 3092521
-1515.4475 -1035.1962 2041.042 2960934
-1502.6367 -1034.7307 2040.1243 2632227
-1484.3979 -1030.4896 2031.7625 1777174
-1449.4442 -1014.48 2000.1971 1514003
-1442.1078 -1017.6951 2006.5359 1053196
-1428.8502 -1016.7502 2004.6731 1316371
-1424.5884 -1022.2446 2015.5061 1316631
-1418.5488 -1026.5458 2023.9865 1185303
-1417.8727 -1034.835 2040.33 1448477
-1409.4485 -1037.5636 2045.7097 1514269
-1399.8634 -1039.4777 2049.4836 1382429
-1388.0961 -1039.7908 2050.1008 1382429
-1376.2064 -1040.0168 2050.5466 1316638
-1357.9716 -1035.4089 2041.4614 1580323
-1343.9535 -1033.9622 2038.609 1448738
-1334.5533 -1036.0741 2042.7729 1646117
-1328.1931 -1040.6066 2051.7095 1317151
-1304.1283 -1031.2234 2033.209 1317151
-1299.9092 -1037.5042 2045.5925 1514528
-1297.5557 -1045.4067 2061.1736 1186076
-1277.2478 -1038.8566 2048.259 1448991
-1262.9846 -1037.1442 2044.8827 1448735
-1260.6913 -1045.3235 2061.0095 1185819
-1251.4652 -1047.8586 2066.0078 1251355
-1240.514 -1048.9852 2068.229 1120027
-1239.1652 -1058.3354 2086.6643 131849
-1211.0674 -1044.7981 2059.9736 7
-1208.2529 -1053.0193 2076.1829 9
-1203.804 -1059.9709 2089.8892 8
-1198.4976 -1066.3048 2102.3772 6
-1196.2723 -1075.5424 2120.5903 7
-1207.4542 -1097.1591 2163.2109 5
-1206.6831 -1108.2631 2185.1042 5
-1197.7659 -1112.046 2192.5627 4
-1192.5465 -1119.3829 2207.0286 4
-1183.189 -1122.9556 2214.0725 3
-1189.2063 -1141.3649 2250.3694 1
-1208.2792 -1172.8663 2312.479 328965
-1196.9994 -1175.2905 2317.2588 921102
-1217.7239 -1209.561 2384.8281 855309
-1207.5049 -1213.5408 2392.6748 1052688
-1232.3831 -1253.3087 2471.083 592137
-1245.8372 -1282.2778 2528.2 987408
-1287.3485 -1341.1852 2644.3445 1053201
-1294.1434 -1364.9337 2691.1682 987664
-1286.7083 -1374.0804 2709.2024 921615
-1275.9718 -1379.889 2720.6548 921615
-1269.5679 -1390.5922 2741.7576 921871
-1256.9668 -1394.6976 2749.8523 658443
-1265.704 -1422.8998 2805.4568 1316373
-1242.3512 -1415.2979 2790.4685 987408
-1230.9648 -1421.3069 2802.3164 790029
-1166.7052 -1365.5942 2692.4707 987408
-1208.4163 -1434.0928 2827.5254 724236
-1136.8643 -1368.2123 2697.6323 921615
-1222.4148 -1492.2241 2942.1401 1053201
-1214.2476 -1503.7729 2964.9102 1053201
-1068.9301 -1343.3073 2648.5286 855822
-1217.3413 -1552.6865 3061.3506 921615
-1199.3542 -1552.9639 3061.8975 790029
-1178.8497 -1549.9399 3055.9353 921615
-1174.5674 -1568.4838 3092.4973 790031
-1173.8947 -1592.5144 3139.877 987154
-1147.1683 -1581.406 3117.9751 986898
-924.03949 -1294.7386 2552.7683 1118998
-1127.4252 -1606.0975 3166.6582 1053206
-1035.1857 -1499.7406 2956.96 987926
-1140.5424 -1680.9248 3314.1914 856596
-1131.5844 -1697.0414 3345.9675 1053720
-818.57343 -1249.5857 2463.7424 987926
-805.0293 -1251.3016 2467.126 1119512
-1123.1741 -1778.2123 3506.0081 1119512
-1120.2593 -1807.1362 3563.0356 1251098
-1095.8564 -1801.8438 3552.6008 1251098
-1067.3451 -1789.4551 3528.1746 1316636
-1019.2452 -1743.0699 3436.7197 1053977
-1000.976 -1746.8463 3444.165 922391
-974.5166 -1736.1886 3423.1521 1053977
-950.09808 -1728.7898 3408.5642 988185
-930.37445 -1729.7975 3410.551 1119769
-912.60522 -1734.5647 3419.9504 1316637
-850.19928 -1652.776 3258.6919 1316637
-872.3454 -1735.374 3421.5459 1447966
-848.72064 -1728.6891 3408.3657 1382684
-853.328 -1780.5875 3510.6912 1448477
-818.26099 -1750.2268 3450.8303 1316891
-796.60474 -1747.7272 3445.9019 1185305
-776.45117 -1748.4792 3447.3848 1120026
-747.94275 -1729.948 3410.8479 1317148
-730.20233 -1735.9836 3422.748 1317148
-699.67963 -1711.1055 3373.697 1382941
-677.2182 -1705.0549 3361.7676 1317148
-635.7793 -1649.4033 3252.042 1514528
-633.13318 -1694.0575 3340.0842 1448736
-614.76538 -1698.1752 3348.2026 1119770
-589.23669 -1682.1259 3316.5591 1120028
-573.56335 -1694.0739 3340.1165 1186333
-555.33167 -1699.0515 3349.9307 1252128
-536.38342 -1702.1259 3355.9922 1317665
-523.05188 -1723.9498 3399.0215 1121056
-501.44821 -1719.1677 3389.593 1383973
-480.23087 -1715.3656 3382.0962 1647145
-455.24982 -1697.1991 3346.2786 1186594
-433.44897 -1689.7706 3331.6321 1515818
-410.0473 -1675.0909 3302.689 1450025
-390.26257 -1674.4531 3301.4314 1450025
-366.95755 -1657.844 3268.6841 2174004
-343.72516 -1639.7239 3232.9575 2831420
-321.09656 -1622.5079 3199.0137 2831678
-300.40109 -1613.5072 3181.2676 2042161
-280.19473 -1606.1003 3166.6638 1647148
-265.17899 -1629.5231 3212.845 1581354
-244.98306 -1622.2787 3198.5618 1581355
-224.25697 -1610.0088 3174.3699 1515560
-205.46056 -1610.611 3175.5571 1515559
-194.31154 -1677.349 3307.1411 1383717
-170.52544 -1637.7465 3229.0586 1317922
-151.20935 -1636.4722 3226.5464 1185823
-130.54266 -1618.0869 3190.2971 1054491
-111.43841 -1616.1096 3186.3987 593682
-92.805435 -1621.5566 3197.1382 725265
-73.774635 -1621.0681 3196.175 922131
-54.638687 -1617.1289 3188.4082 724753
-35.520241 -1609.797 3173.9524 922130
-16.791569 -1623.5312 3201.0315 329222
2.2435012 -1625.9576 3205.8154 132356
20.999193 -1602.7196 3159.998 2172196
38.334717 -1544.2198 3044.6572 4672073
57.312115 -1568.1726 3091.8835 2961712
74.779778 -1549.2141 3054.5042 3817021
0 0 0 0
112.95356 -1575.0483 3105.4402 4146245
131.61626 -1577.4371 3110.1501 3948609
149.91928 -1575.4576 3106.2473 3817023
168.13673 -1573.1118 3101.6221 3817023
186.43767 -1571.9337 3099.2991 4014659
204.83821 -1571.7317 3098.9009 3948866
222.87128 -1568.976 3093.4675 4343623
244.71379 -1591.4139 3137.7073 4146244
256.16147 -1547.8622 3051.8386 4278087
271.83478 -1533.9166 3024.3428 4343880
277.49228 -1468.6904 2895.7397 4541259
307.09473 -1530.4156 3017.4402 4475466
321.03952 -1511.6035 2980.3494 4409673
334.01117 -1490.4171 2938.5771 4607052
349.77765 -1483.188 2924.324 4607052
367.16422 -1483.188 2924.324 4475466
385.2518 -1485.8918 2929.655 4672333
398.12854 -1469.1332 2896.6128 4869713
418.09402 -1478.8379 2915.7471 4606541
436.80884 -1483.5221 2924.9827 4869714
450.99142 -1473.0444 2904.3245 4804435
474.67807 -1493.2373 2944.1377 5067350
494.57346 -1500.4913 2958.4402 5001558
506.77817 -1484.7159 2927.3364 4015435
523.40143 -1482.5031 2922.9736 2304562
550.00079 -1507.7814 2972.8135 2700089
567.28833 -1506.7526 2970.7849 3555143
601.0025 -1548.0986 3052.3049 3555142
623.63647 -1559.3165 3074.4226 3620935
650.70587 -1580.6698 3116.5239 3686728
674.68109 -1593.5327 3141.885 3752520
696.31421 -1600.3195 3155.2661 4081229
714.34503 -1598.6886 3152.0505 3818058
738.29675 -1610.0532 3174.4573 3686215
751.32477 -1597.6227 3149.949 3686214
776.85535 -1611.736 3177.7751 3686210
783.67621 -1587.2836 3129.564 3619903
801.41675 -1585.5698 3126.1851 3554108
820.52258 -1586.5737 3128.1641 3159606
833.55023 -1576.0405 3107.3962 3619387
851.6087 -1575.27 3105.8772 3225399
876.60938 -1587.101 3129.2039 3224884
896.56238 -1589.4915 3133.917 3027505
914.54272 -1588.3585 3131.6831 2830126
935.53412 -1592.396 3139.6436 3026992
955.37854 -1594.3612 3143.5183 2697511
979.94403 -1603.9786 3162.4805 2697254
997.48938 -1601.9595 3158.4998 1776408
1017.0452 -1603.1843 3160.9146 2302752
1041.5867 -1612.0812 3178.4558 2565924
1060.2585 -1611.738 3177.7793 2500387
1089.0455 -1626.5144 3206.9131 2368800
1104.8175 -1621.6783 3197.3779 1579030
1111.6198 -1604.0626 3162.646 1776410
1142.8433 -1621.6865 3197.394 1974043
1167.6218 -1629.7378 3213.2686 2237214
1170.9692 -1608.0984 3170.6035 2105628
1187.3047 -1604.6991 3163.9009 2237214
1213.1571 -1614.0674 3182.3721 2171678
1192.7258 -1562.5149 3080.7285 1974299
1262.4614 -1628.8569 3211.532 2369056
1216.4271 -1546.0787 3048.3223 2632231
1284.3915 -1608.4961 3171.3872 2566952
1294.3909 -1597.5658 3149.8367 2435622
1317.6266 -1603.0507 3160.6509 2566954
1281.4661 -1537.1349 3030.6882 3027248
1313.2767 -1553.4489 3062.8535 2895665
1295.2002 -1511.113 2979.3823 3093044
1300.689 -1497.0424 2951.6399 3093301
1329.6378 -1509.9884 2977.165 3158836
1308.6838 -1466.6675 2891.7515 3355702
0 0 0 0
0 0 0 0
1196.1624 -1289.7307 2542.8945 3160126
0 0 0 0
0 0 0 0
0 0 0 0
0 0 0 0
0 0 0 0
1156.256 -1158.8219 2284.7883 13422800
1162.0621 -1151.1171 2269.5972 13684944
1171.0226 -1146.678 2260.8447 13619151
1183.3409 -1145.5902 2258.7002 13685201
1195.021 -1143.916 2255.3992 13619665
1183.7435 -1120.5471 2209.324 13684945
1188.7625 -1112.948 2194.3413 13619921
1193.8551 -1105.5824 2179.8188 13619921
1198.6978 -1098.1458 2165.1565 13619664
1205.1803 -1092.3538 2153.7366 13619408
1208.5087 -1083.8546 2136.9792 12764364
1218.9342 -1081.8312 2132.9897 6975383
1226.0967 -1076.9832 2123.4312 6187666
1214.575 -1055.9894 2082.0388 791611
1203.8507 -1036.1055 2042.8348 531264
1248.9529 -1064.1865 2098.2007 2635610
0 0 0 0
1204.8496 -1006.5015 1984.4661 11979214
1196.8571 -990.12866 1952.1848 13488851
1196.9753 -980.71594 1933.6261 13619663
1196.6852 -971.15082 1914.7671 13750481
1201.5208 -965.88629 1904.3873 13750737
1237.1201 -985.21991 1942.5065 13750737
1243.8083 -981.3847 1934.9447 13750737
1244.6829 -973.07446 1918.5599 13750737
1239.9071 -960.53802 1893.8425 13750737
1232.2515 -946.01642 1865.2109 13750737
1231.8287 -937.25714 1847.9407 13750737
1239.1946 -934.52631 1842.5565 13750737
1246.8721 -932.07635 1837.7261 13750737
1242.0813 -920.42944 1814.7625 13685200
1247.3906 -916.4032 1806.8242 13685202
1264.236 -920.84851 1815.5886 13553620
1235.1182 -892.02307 1758.7551 13422549
0 0 0 0
1175.0332 -834.49878 1645.3375 7764880
1176.4875 -828.63318 1633.7726 6844293
1179.0303 -823.62384 1623.896 7041927
1168.6765 -809.76013 1596.5615 7699856
1170.0621 -804.18835 1585.576 7173768
1171.2021 -798.53815 1574.4358 6910335
1176.9581 -796.09979 1569.6283 2370617
1177.4829 -790.18933 1557.9749 5133924
1180.1884 -785.823 1549.3661 2502206
1181.7229 -780.75079 1539.3654 5133669
1178.1238 -772.39087 1522.8826 4080725
1181.0753 -768.42035 1515.0541 3883085
1184.1913 -764.61609 1507.5535 4343892
1179.7803 -756.04547 1490.6552 2040622
1181.993 -751.81573 1482.3157 4869977
1184.1927 -747.64032 1474.0833 2500911
1182.3204 -740.97437 1460.9403 5066836
1184.1906 -736.73389 1452.5796 1776669
1186.7496 -732.98041 1445.179 4276807
1185.7069 -727.0722 1433.5302 4934734
1186.8005 -722.54907 1424.6121 2368806
1185.2456 -716.48883 1412.6635 4868941
1186.244 -712.04663 1403.905 1052944
1189.9862 -709.302 1398.4935 4342596
1189.0341 -703.81671 1387.6785 3816510
1189.8179 -699.42743 1379.0244 2763565
1182.9535 -690.63318 1361.6852 5461078
1189.283 -689.60895 1359.6658 1644825
1189.0979 -684.8465 1350.276 3421236
1192.9734 -682.47095 1345.5922 6381921
1189.8104 -676.1272 1333.0846 921102
1193.6349 -673.81201 1328.5198 4868682
1190.1545 -667.43073 1315.9381 3092271
1195.9091 -666.27783 1313.665 789516
1190.3434 -658.87402 1299.0673 5197647
1196.9546 -658.26215 1297.861 2697513
1189.7017 -650.08258 1281.7338 263173
1194.924 -648.78046 1279.1664 4671304
1190.1229 -642.0871 1265.9694 3749946
1196.1813 -641.29974 1264.4171 592138
1193.2197 -635.7168 1253.4094 5065807
1192.6338 -631.46088 1245.0183 4079168
1198.8738 -630.84924 1243.8124 394245
1196.1361 -625.55011 1233.3644 4144703
0 0 0 0
0 0 0 0
0 0 0 0
0 0 0 0
0 0 0 0
0 0 0 0
0 0 0 0
0 0 0 0
0 0 0 0
0 0 0 0
0 0 0 0
0 0 0 0
-1553.2869 -910.13519 1815.7507 3750191
-1566.2391 -924.14734 1843.7056 3815982
-1565.1902 -930.03741 1855.4565 3684396
-1583.1268 -947.37268 1890.0408 3552810
-1574.4904 -948.94012 1893.168 3421224
-1550.3904 -941.14325 1877.613 3552809
-1588.5725 -971.315 1937.8066 3552811
-1440.3331 -887.10956 1769.8138 3684398
-1576.9481 -978.39923 1951.9399 3552812
-1570.2831 -981.487 1958.1001 3815985
-1572.8571 -990.43884 1975.9594 3619118
-1570.0098 -996.08594 1987.2255 3158823
-1565.3115 -1000.6354 1996.3018 3224616
-1560.2401 -1005.014 2005.0374 3290153
-1546.3087 -1003.7089 2002.4336 3224105
-1553.3119 -1016.0778 2027.11 3224105
-1544.4182 -1018.16 2031.264 3224106
-1521.4855 -1010.9468 2016.8735 3224106
-1501.8538 -1005.83 2006.6652 3092520
-1500.8691 -1013.2194 2021.4073 2960934
-1493.2682 -1016.2257 2027.4049 2632227
-1454.3224 -997.7757 1990.5967 1514259
-1438.3505 -994.91425 1984.8879 1250578
-1427.0699 -995.2774 1985.6123 1184785
-1418.4435 -997.513 1990.0725 1513751
-1411.3171 -1000.85 1996.7299 1513753
-1414.0109 -1011.2668 2017.5117 1580061
-1409.8026 -1016.8834 2028.7172 1251097
-1396.261 -1015.8067 2026.5691 1382684
-1389.1848 -1019.4559 2033.8495 1645857
-1378.1034 -1020.2042 2035.3424 1448735
-1370.8102 -1023.7951 2042.5062 1646113
-1357.9519 -1023.2567 2041.432 1251355
-1344.395 -1022.1772 2039.2786 1317149
-1333.9443 -1023.4615 2041.8408 1383199
-1322.0413 -1023.6449 2042.2065 1448738
-1310.8275 -1024.3701 2043.6536 1382944
-1296.1473 -1022.3749 2039.6729 1646116
-1285.7961 -1023.7887 2042.4934 1382945
-1271.5172 -1022.0723 2039.0691 1383714
-1265.7938 -1027.2662 2049.4312 1515044
-1256.2385 -1029.421 2053.7302 1383458
-1250.3112 -1034.6201 2064.1025 1186076
-1247.4209 -1042.4606 2079.7444 857111
-1238.0421 -1044.9812 2084.7732 1382686
-1236.0189 -1053.8241 2102.415 723985
-1223.147 -1053.5037 2101.7759 8
-1206.8746 -1050.2175 2095.22 8
-1203.2515 -1057.985 2110.7163 7
-1200.6554 -1066.8289 2128.3601 7
-1199.5104 -1077.1642 2148.9792 5
-1207.6768 -1096.1736 2186.9038 5
-1205.6592 -1106.2524 2207.0115 4
-1201.2529 -1114.3375 2223.1414 4
-1189.58 -1115.7863 2226.0317 4
-1194.2749 -1132.7931 2259.9609 5
-1189.8066 -1141.3966 2277.1252 4
-1201.1316 -1165.5231 2325.2583 855567
-1216.5778 -1194.257 2382.5835 921358
-1222.168 -1213.8788 2421.7297 856078
-1235.9136 -1242.1652 2478.1621 790029
-1235.5256 -1256.7577 2507.2747 987152
-1247.7993 -1284.7432 2563.1064 1315861
-1278.7544 -1332.8928 2659.1667 790029
-1262.1959 -1332.1029 2657.5908 855565
-1221.0605 -1305.0261 2603.5718 987922
-1228.2825 -1329.6002 2652.5979 921871
-1185.8512 -1300.3654 2594.2734 921615
-1235.5269 -1372.6925 2738.5686 987151
-1227.0819 -1381.5162 2756.1721 855565
-1221.7603 -1394.1426 2781.3621 987408
-1208.6664 -1398.1249 2789.3069 987408
-1170.3248 -1372.6064 2738.3967 1053201
-1152.5071 -1370.7788 2734.7507 856078
-1186.4698 -1431.3673 2855.6267 1053201
-1182.4797 -1447.2638 2887.3406 921615
-1177.1377 -1461.9493 2916.6389 1250327
-1169.788 -1474.5432 2941.7642 987155
-1038.213 -1328.5542 2650.511 1052948
-1172.1057 -1523.0078 3038.4526 1052947
-1154.0406 -1523.0078 3038.4526 987411
-1149.1136 -1540.6223 3073.594 855569
-1143.1074 -1557.3356 3106.9375 1053460
-926.60529 -1283.1141 2559.8567 987926
-1137.0488 -1600.8191 3193.6887 790547
-1103.288 -1579.6676 3151.491 1251098
-1131.1598 -1647.5544 3286.9272 1053976
-1102.5092 -1634.0548 3259.9954 922390
-1132.1962 -1708.0831 3407.6843 922390
-1120.7915 -1721.6866 3434.8237 1053719
-1108.3546 -1734.1802 3459.7488 1053719
-1097.9543 -1750.3929 3492.0938 1053719
-1075.5833 -1747.7786 3486.8782 1185305
-1051.3732 -1742.0146 3475.3787 856340
-1029.8788 -1740.609 3472.5745 1119769
-726.81232 -1253.5228 2500.821 1053977
-989.78839 -1742.7253 3476.7966 988184
-955.90173 -1718.9608 3429.3855 1185563
-843.75305 -1550.3573 3093.0159 1119770
-944.97931 -1775.0427 3541.271 988440
-912.77228 -1753.6167 3498.5254 1185305
-871.05023 -1712.4849 3416.4658 1250842
-862.29889 -1735.757 3462.8945 1185049
-840.31311 -1732.8759 3457.1465 1119256
-816.36987 -1725.7123 3442.855 1513757
-797.45807 -1729.0896 3449.593 1382684
-776.05273 -1727.0961 3445.6157 1185046
-748.80267 -1711.6344 3414.7693 1382682
-721.86737 -1696.0503 3383.6785 1251355
-693.87 -1677.0062 3345.6846 1317148
-674.258 -1677.7021 3347.0732 1317149
-653.50562 -1675.5166 3342.7129 1448735
-632.25531 -1671.8777 3335.4529 1382942
-613.68665 -1675.3234 3342.3276 1251356
-585.86182 -1652.8856 3297.5635 1186079
-570.3092 -1664.7163 3321.166 1317665
-577.70709 -1746.7903 3484.9062 1186079
-533.4516 -1672.9781 3337.6487 1251872
-518.25958 -1688.131 3367.8789 1186849
-500.23157 -1694.8928 3381.3691 1186849
-480.11786 -1694.8583 3381.3 1252387
-460.1908 -1695.5084 3382.5972 1449765
-438.81436 -1690.6337 3372.8721 1318181
-418.02649 -1687.6687 3366.9565 1384232
-389.11047 -1649.9395 3291.6855 2042162
-368.86023 -1646.9054 3285.6326 2634815
-347.77011 -1639.5723 3271.0027 4015956
-322.25381 -1609.2673 3210.5432 3884370
-301.5213 -1600.5391 3193.1304 2502458
-280.7865 -1590.6254 3173.3518 2041906
-264.4975 -1606.2825 3204.5884 1120803
-243.9697 -1596.6298 3185.3311 1515561
-227.13049 -1611.5238 3215.0449 1252390
-212.07906 -1643.005 3277.8513 1383974
-194.40462 -1658.4806 3308.7253 1383974
-169.45032 -1608.3435 3208.7004 857371
-150.21001 -1606.6002 3205.2224 988698
-131.14281 -1606.4708 3204.9641 725782
-115.24057 -1651.6584 3295.115 856597
-94.132896 -1625.4702 3242.8689 922645
-74.13047 -1609.7925 3211.5911 922131
-54.962749 -1607.651 3207.3186 987925
-36.332825 -1627.3213 3246.5618 856337
-16.876091 -1612.5762 3217.1445 0
2.2673128 -1623.9525 3239.8406 197636
21.152494 -1595.4951 3183.0671 2304039
38.455544 -1530.928 3054.2537 4343365
57.200893 -1546.7821 3085.8833 3685691
74.789581 -1531.2542 3054.9045 3488056
94.616776 -1558.6705 3109.6011 3882813
113.22488 -1560.3241 3112.8999 3685438
131.87486 -1562.0088 3116.261 4014659
150.17793 -1559.6757 3111.6064 3948610
166.69901 -1541.3774 3075.1006 4211781
185.93317 -1549.303 3090.9124 4277574
204.17419 -1548.2717 3088.855 4277574
221.84488 -1543.4429 3079.2212 4014916
242.75076 -1560.1425 3112.5374 4343880
256.96127 -1534.4938 3061.3674 4409673
273.80573 -1526.9268 3046.271 4343880
289.37845 -1513.6467 3019.7769 4278087
307.13538 -1512.6757 3017.8396 4409673
319.20129 -1485.3301 2963.2842 4541259
333.57718 -1471.032 2934.759 4672845
349.50089 -1464.6416 2922.01 4607052
365.68573 -1459.899 2912.5486 4541259
382.63589 -1458.5024 2909.7622 4672334
397.90958 -1451.1129 2895.0198 4606798
446.3031 -1560.1108 3112.4744 4738384
429.5163 -1441.6545 2876.1501 4804177
446.92319 -1442.6449 2878.1257 5067093
473.02792 -1470.6027 2933.9026 4804175
491.14774 -1472.6305 2937.9482 4804178
511.92279 -1482.2069 2957.0535 4212557
527.46191 -1476.4908 2945.6497 2107440
550.8429 -1492.3879 2977.365 2634040
569.58173 -1495.1097 2982.7952 3226177
596.05573 -1517.3583 3027.1816 3818315
622.67505 -1538.6619 3069.6829 3818316
644.87042 -1548.1316 3088.5754 3884108
668.7019 -1560.896 3114.0408 3686729
691.76093 -1571.218 3134.6335 3686471
712.88995 -1576.7299 3145.6299 3752007
736.58655 -1587.4934 3167.1038 3752005
759.69012 -1596.4745 3185.021 3620418
789.16644 -1618.0848 3228.1345 3619647
790.8606 -1583.0579 3158.2546 3619646
806.38879 -1576.7047 3145.5798 3751487
820.09387 -1567.1559 3126.5295 3619900
835.82751 -1561.8208 3115.8857 3356985
862.08276 -1575.9513 3144.0769 3291192
879.487 -1573.6453 3139.4758 3225653
898.86542 -1574.8938 3141.967 3159348
917.05054 -1574.0436 3140.2708 3093552
940.09247 -1581.397 3154.9412 2830636
957.68616 -1579.4774 3151.1113 2566436
980.02734 -1585.311 3162.7495 2895401
994.10138 -1577.8036 3147.772 1711638
992.44379 -1546.0662 3084.4548 2566692
1046.321 -1600.425 3192.9028 2434593
1049.6681 -1576.9343 3146.0381 2500387
1082.1466 -1597.2646 3186.5974 2631717
1093.7972 -1586.682 3165.4849 2039837
1116.6674 -1592.4572 3177.0066 2170911
1141.283 -1600.4882 3193.0288 1974044
1151.7114 -1588.6862 3169.4834 2105628
1171.1947 -1589.5537 3171.2141 2171421
1182.1543 -1579.0087 3150.1763 2171421
1190.208 -1564.9714 3122.1716 2237728
1247.9351 -1615.6765 3223.3301 2303264
1268.9363 -1618.0189 3228.0029 2304290
1280.8372 -1608.8604 3209.7314 2304036
1231.7324 -1524.4664 3041.3628 2435622
1299.1467 -1584.6394 3161.4097 2567208
1310.1825 -1575.3087 3142.7944 2566954
1289.2483 -1528.3414 3049.0935 2829870
1305.2599 -1525.8668 3044.1565 3027251
1319.5439 -1521.4681 3035.3809 3159093
1304.7856 -1484.1532 2960.9365 3224886
1313.3574 -1474.0159 2940.7122 3290422
1292.9893 -1432.0916 2857.0715 3552824
1292.3605 -1412.8339 2818.6519 3355958
1187.5243 -1281.6062 2556.8481 3225143
0 0 0 0
0 0 0 0
0 0 0 0
1150.6268 -1181.2975 2356.7288 9349830
0 0 0 0
1162.3092 -1164.9192 2324.0537 13554385
1159.2921 -1148.2449 2290.7878 13423053
1167.3264 -1142.7767 2279.8787 13685201
1174.8053 -1136.8967 2268.1479 13619664
1186.8545 -1135.5228 2265.4067 13685457
1180.4796 -1116.7501 2227.9548 13685457
1169.9625 -1094.5192 2183.603 13750481
1183.0453 -1094.6118 2183.7881 13685457
1198.5737 -1096.9408 2188.4343 13553870
1202.6481 -1088.8494 2172.2917 13488593
1205.1289 -1079.5027 2153.6448 11711434
1206.066 -1068.9841 2132.6599 6250880
1219.0142 -1069.2196 2133.1296 4672876
0 0 0 0
1256.64 -1079.7545 2154.1472 1829
1271.896 -1081.8372 2158.3022 1571
1279.5182 -1077.45 2149.5496 3754344
0 0 0 0
0 0 0 0
1199.4396 -980.63342 1956.3972 13489107
1197.5243 -969.66406 1934.5129 13684942
1196.5353 -959.6463 1914.5272 13750737
1209.625 -961.00232 1917.2324 13750737
1212.0771 -953.96094 1903.1846 13750737
1244.2051 -970.18982 1935.5618 13750737
1245.1597 -962.03613 1919.2949 13750737
1240.2917 -949.57275 1894.4301 13750737
1231.0272 -933.99786 1863.3578 13750737
1231.9913 -926.3924 1848.1846 13750737
1237.1344 -922.03595 1839.4932 13750737
1241.3755 -917.08948 1829.6248 13750481
1241.9003 -909.5072 1814.4979 13685201
1250.7706 -908.11493 1811.7202 13685202
1264.2375 -910.05511 1815.5909 13488341
1241.0663 -885.81195 1767.2251 13357270
0 0 0 0
1170.551 -821.57062 1639.0614 7173002
1175.9067 -818.51526 1632.9659 7700113
1180.7648 -815.16644 1626.2849 7371143
1179.3253 -807.55975 1611.1093 6976894
1177.2454 -799.64056 1595.3102 5002335
1171.6375 -789.4707 1575.021 2699582
1178.4602 -787.77173 1571.6316 4804703
1180.2169 -782.73962 1561.5924 3357258
1183.9526 -779.08838 1554.308 4278358
1180.1268 -770.55646 1537.2864 1712176
1184.8152 -767.67212 1531.5321 5922927
1185.1982 -762.06354 1520.3429 1514279
1181.9462 -754.22028 1504.6953 5330273
1180.8149 -747.83807 1491.9625 2500914
1188.0507 -746.81042 1489.9124 5461598
1178.9696 -735.61725 1467.5815 3749952
1183.6277 -733.09802 1462.5557 2566187
1185.0419 -728.62097 1453.6238 3618876
1183.4937 -722.40063 1441.214 1579035
1185.4078 -718.36792 1433.1686 6711146
1190.5031 -716.3067 1429.0564 2237221
1185.8298 -708.4389 1413.3599 2565928
1186.6316 -703.92969 1404.3638 4934734
1186.5791 -698.98016 1394.4894 2566186
1188.6337 -695.33203 1387.2112 5855836
1188.6921 -690.57452 1377.7197 2500393
1187.0789 -684.91748 1366.4338 2631721
1185.2854 -679.23419 1355.0955 5395026
1185.6078 -674.83197 1346.3127 1907997
1186.4525 -670.784 1338.2369 4473924
1192.2512 -669.57214 1335.8193 5395025
1190.2513 -664.0257 1324.7539 460551
1190.9219 -660.03204 1316.7865 4079166
1190.8809 -655.69891 1308.1417 3684408
1196.3999 -654.46344 1305.6769 1513239
1194.3031 -649.10474 1294.9861 4934475
1195.1216 -645.38885 1287.5729 3223857
1190.8219 -638.97406 1274.775 65793
1194.275 -636.77411 1270.3861 3750204
1196.7832 -634.10107 1265.0533 3618871
1200.7592 -632.23444 1261.3292 132099
1197.8857 -626.80676 1250.501 4539719
1199.972 -624.02533 1244.9519 8158590
1190.4172 -615.26141 1227.4675 7631734
0 0 0 0
0 0 0 0
0 0 0 0
0 0 0 0
0 0 0 0
0 0 0 0
0 0 0 0
0 0 0 0
0 0 0 0
0 0 0 0
0 0 0 0
0 0 0 0
-1521.1309 -880.7215 1778.1611 3684396
-1537.1086 -896.20123 1809.4144 3421223
-1554.1361 -912.51544 1842.3525 3289895
-1477.6987 -873.79358 1764.1738 3684396
-1553.7343 -925.32306 1868.2108 3750189
-1555.1755 -932.85022 1883.4081 3618603
-1566.8995 -946.69922 1911.369 3750189
-1567.9763 -954.27081 1926.6559 3750191
-1566.0493 -960.11206 1938.4493 3684397
-1569.8439 -969.57379 1957.5524 3684400
-1573.1346 -978.86346 1976.308 3421229
-1562.8488 -979.78156 1978.1615 3421485
-1555.6216 -982.64551 1983.9438 3224106
-1551.1499 -987.30707 1993.3555 3355692
-1512.1392 -969.88715 1958.1849 3355692
-1543.7653 -997.85492 2014.6514 3224107
-1536.8975 -1001.184 2021.3726 2895140
-1510.288 -991.6037 2002.0303 3158313
-1497.0743 -990.73639 2000.2792 3026727
-1481.5256 -988.29749 1995.3551 3026727
-1464.3271 -984.70984 1988.1116 2434592
-1441.1885 -977.03662 1972.6196 921610
-1431.8015 -978.63684 1975.8505 724235
-1420.3591 -978.84711 1976.2749 1382166
-1411.7261 -981.013 1980.6479 1250582
-1407.1973 -986.09137 1990.9011 1316377
-1399.7799 -989.21466 1997.2069 1645856
-1390.834 -991.30188 2001.4209 1316635
-1386.1548 -996.49249 2011.9006 1448222
-1384.3394 -1003.85 2026.7554 1382942
-1372.7866 -1004.2139 2027.4901 1448737
-1364.4308 -1006.9435 2033.001 1514531
-1355.9187 -1009.6055 2038.3755 1580323
-1351.134 -1015.1159 2049.501 1580323
-1338.7979 -1015.0015 2049.27 1514530
-1323.1123 -1012.3224 2043.861 1514530
-1310.4304 -1011.913 2043.0344 1382945
-1293.6182 -1008.2767 2035.6927 1383202
-1282.9171 -1009.3798 2037.92 1317665
-1271.0326 -1009.564 2038.2919 1383458
-1262.6392 -1012.5515 2044.3235 1515044
-1253.6836 -1015.1417 2049.5532 1448995
-1243.8351 -1017.0527 2053.4114 1449252
-1239.0701 -1023.1995 2065.8215 1186589
-1235.8893 -1030.7905 2081.1479 791831
-1226.8672 -1033.614 2086.8484 988441
-1229.762 -1046.6376 2113.1426 593169
-1214.6877 -1044.4788 2108.7842 5
-1207.3428 -1048.9906 2117.8933 7
-1203.2152 -1056.4221 2132.8977 7
-1201.6465 -1066.2828 2152.8062 5
-1209.9033 -1085.1682 2190.9355 5
-1205.473 -1092.9619 2206.6707 5
-1208.088 -1107.385 2235.7908 5
-1198.8835 -1111.1744 2243.4414 4
-1196.0088 -1120.9817 2263.2422 4
-1197.9847 -1135.6102 2292.7769 4
-1198.1119 -1148.8029 2319.4126 2
-1205.9822 -1169.8136 2361.8328 921616
-1217.8511 -1195.2437 2413.1758 856079
-1223.0474 -1214.6534 2452.3638 855822
-1235.3141 -1241.6381 2506.8452 526857
-1238.504 -1260.0472 2544.0129 790029
-1236.4662 -1273.5271 2571.2285 921615
-1207.543 -1259.3065 2542.5176 790543
-1227.5391 -1296.3885 2617.3855 658957
-1217.4893 -1302.2842 2629.2888 790543
-1202.9286 -1303.4456 2631.6335 856336
-1212.4072 -1331.0287 2687.3235 856336
-1196.1857 -1330.7572 2686.7751 856336
-1183.6425 -1334.6259 2694.5859 790543
-1141.3857 -1304.6372 2634.0396 724750
-1196.125 -1386.226 2798.7656 1184787
-1181.3285 -1388.3927 2803.1401 987408
-1177.9396 -1404.2203 2835.0959 724236
-1179.9709 -1427.0629 2881.2146 1119251
-1176.2118 -1443.472 2914.3445 987408
-1158.8967 -1443.4873 2914.3752 921615
-1159.2458 -1465.8387 2959.5024 1053201
-1147.8732 -1473.829 2975.6345 855823
-1117.4625 -1457.2427 2942.147 987411
-1112.0969 -1473.3082 2974.5833 790803
-962.85577 -1296.2065 2617.0181 856340
-1102.454 -1508.5122 3045.6594 987926
-915.38995 -1273.4653 2571.1038 921363
-1080.5914 -1528.8193 3086.6592 922133
-1084.5509 -1560.9304 3151.491 987926
-1097.3295 -1607.0868 3244.6797 724754
-1041.6587 -1552.8538 3135.1843 856340
-832.39221 -1263.4998 2550.9836 1119511
-1085.8678 -1678.8438 3389.5557 856340
-1085.7051 -1710.334 3453.1343 1053719
-1063.3906 -1707.4698 3447.3513 1185305
-1041.0398 -1704.4333 3441.2207 1184794
-1020.58 -1704.4333 3441.2207 1119770
-1032.3506 -1759.3612 3552.1191 1119770
-1013.9806 -1764.1442 3561.7759 790805
-908.18042 -1613.7738 3258.1807 856598
-936.03076 -1699.5127 3431.2859 1251355
-927.46814 -1721.4854 3475.6484 988183
-923.29797 -1752.7982 3538.8687 1251355
-884.17816 -1717.6757 3467.9568 1251098
-861.22687 -1713.0361 3458.5894 1316891
-840.82855 -1713.3716 3459.2671 1251098
-781.48773 -1632.3806 3295.7476 1316891
-794.41547 -1702.0613 3436.4316 1382684
-778.82556 -1712.708 3457.927 1251100
-748.31903 -1690.2394 3412.5635 1185820
-720.9552 -1673.8149 3379.4028 1317405
-689.4632 -1646.59 3324.4358 1119770
-649.98798 -1598.1293 3226.5947 1382686
-648.72382 -1643.5282 3318.2542 1317662
-632.25531 -1652.0466 3335.4529 1317919
-590.48273 -1592.8579 3215.9519 1316892
-585.62305 -1632.6144 3296.2192 1186334
-568.35736 -1639.3406 3309.7996 1120796
-550.58441 -1645.0336 3321.2937 1252126
-531.65082 -1647.5537 3326.3816 1251871
-518.62549 -1669.285 3370.2568 1186080
-498.33334 -1668.4335 3368.5378 1251872
-480.27603 -1675.3065 3382.4141 1317665
-461.11917 -1678.777 3389.4209 1251871
-440.02435 -1675.1869 3382.1726 922909
-418.33987 -1668.9004 3369.4805 726302
-391.98669 -1642.4199 3316.0168 2700866
-369.90652 -1631.9867 3294.9524 3161934
-348.67157 -1624.3241 3279.4817 3688796
-326.53894 -1611.3241 3253.2349 3754590
-303.98044 -1594.4534 3219.1729 3885659
-281.30658 -1574.6696 3179.2297 1845045
-261.49817 -1569.2307 3168.249 726046
-253.65112 -1640.2988 3311.7344 1515044
-231.1781 -1620.7865 3272.3391 1515043
-213.37299 -1633.422 3297.8499 1448736
-189.4285 -1596.8605 3224.033 988441
-174.53856 -1636.9885 3305.051 922390
-151.00346 -1595.9293 3222.1531 1316892
-133.88841 -1620.6498 3272.0632 856598
-113.4627 -1606.8887 3244.2798 922390
-93.332611 -1592.5347 3215.2993 593423
-75.147705 -1612.526 3255.6614 724751
-55.387711 -1600.8645 3232.1169 856081
-36.195797 -1601.9545 3234.3176 1053201
-17.07168 -1611.9161 3254.4302 0
2.2869983 -1618.6223 3267.9697 257
21.449732 -1598.7242 3227.7959 2631977
38.369354 -1509.3785 3047.4084 4343365
56.939552 -1521.4519 3071.7844 3488312
74.394669 -1505.1017 3038.7737 3356727
94.813675 -1543.3877 3116.0723 4080449
113.37143 -1543.8119 3116.9287 3883330
132.37987 -1549.3917 3128.1946 3948866
150.98495 -1549.4578 3128.3276 4014659
171.10023 -1563.3075 3156.29 4343880
189.74716 -1562.3295 3154.3154 4146501
207.23476 -1552.8402 3135.157 4278087
223.76985 -1538.3691 3105.9399 4409417
240.26378 -1525.8427 3080.6494 4475209
247.85928 -1462.5826 2952.9285 4409673
273.64279 -1507.9172 3044.458 4541259
290.41852 -1501.0684 3030.6304 4541259
306.85733 -1493.38 3015.1077 4607052
322.63757 -1483.5121 2995.1848 4212294
333.61462 -1453.7465 2935.0884 4738894
349.12219 -1445.7007 2918.844 4738638
365.67322 -1442.5331 2912.4487 4672846
382.84891 -1442.0049 2911.3823 4935505
401.14853 -1445.5724 2918.585 5067348
418.34366 -1445.0289 2917.4878 5001813
429.23203 -1423.6117 2874.2466 4804434
456.49594 -1456.0668 2939.7729 4936534
474.4205 -1457.4373 2942.54 4870741
493.31525 -1461.5848 2950.9138 4936534
513.60583 -1469.441 2966.7754 3686213
529.62585 -1464.9631 2957.7346 2107698
555.98218 -1488.4446 3005.1433 2436919
576.88483 -1496.3182 3021.04 3292229
591.42981 -1487.7239 3003.6882 3686987
615.25214 -1502.2861 3033.0891 3949902
634.7843 -1505.842 3040.2683 4015693
660.73706 -1524.0103 3076.9497 3884107
687.23035 -1542.4126 3114.1038 4081487
713.13025 -1558.5526 3146.6902 3883594
730.66467 -1556.0519 3141.6414 3883592
756.77405 -1571.4823 3172.7952 3949641
772.60779 -1565.3433 3160.4004 3949639
792.37292 -1567.2719 3164.2939 3817540
809.57758 -1564.1637 3158.0188 3290938
824.83301 -1557.5159 3144.5969 3488317
841.43292 -1553.6453 3136.7822 3488571
864.37964 -1561.4073 3152.4536 3159093
884.60217 -1564.0233 3157.7354 3093298
905.29944 -1567.3527 3164.4573 3422263
924.11377 -1567.3527 3164.4573 2895916
943.43274 -1568.1918 3166.1511 2895146
963.26294 -1569.8308 3169.4607 2961193
983.91534 -1572.7214 3175.2969 2763815
993.45013 -1558.067 3145.7097 2237727
1005.5292 -1547.8707 3125.1235 2434850
1045.8673 -1580.756 3191.5183 2566436
1052.6862 -1562.71 3155.0837 2566435
1073.2314 -1565.3159 3160.3452 2566436
1092.6428 -1566.2068 3162.144 1974299
1112.5358 -1567.7463 3165.252 1842716
1129.0149 -1564.504 3158.7058 2105628
1169.7373 -1594.4125 3219.0903 2039836
1169.6173 -1568.5837 3166.9429 2105885
1207.8617 -1594.2096 3218.6809 2105886
1230.1981 -1598.3669 3227.0745 2434851
1223.9974 -1565.8884 3161.501 2500645
1230.2158 -1550.0399 3129.5032 2698024
1282.1523 -1591.4093 3213.0271 2434853
1283.9567 -1570.2533 3170.3137 2632233
1297.5758 -1563.9498 3157.5869 2632233
1273.4524 -1512.9841 3054.6882 2763819
1299.6163 -1522.358 3073.614 2895404
1305.1042 -1507.588 3043.7935 3223860
1323.4252 -1507.8434 3044.3091 3158322
1334.3762 -1499.8082 3028.0862 3224116
1314.2949 -1457.5715 2942.811 3289908
1321.8558 -1446.6976 2920.8569 3487287
1335.931 -1443.1428 2913.6799 3224630
1197.8698 -1277.437 2579.1228 3356475
1179.6498 -1242.1064 2507.7908 3226175
0 0 0 0
0 0 0 0
0 0 0 0
1157.3542 -1159.9844 2341.988 10272196
1158.6874 -1147.5146 2316.8118 13357778
1160.4436 -1135.7521 2293.0632 13488335
1167.6088 -1129.4949 2280.4302 13553872
1168.7717 -1117.6418 2256.499 13553871
1175.6248 -1111.4371 2243.9719 13553871
1182.7053 -1105.5846 2232.1555 13685457
1192.4669 -1102.3401 2225.605 13684945
1182.8214 -1081.4235 2183.3748 13488336
1191.1726 -1077.2362 2174.9209 13488851
1210.4615 -1082.9243 2186.405 9344685
1194.8463 -1057.5968 2135.269 6581901
1223.6555 -1071.7097 2163.7629 1780037
1220.4108 -1057.7476 2135.5735 1825
1261.5275 -1082.1256 2184.7925 801
1284.5319 -1090.6285 2201.9597 541
1300.3988 -1092.9612 2206.6692 284
0 0 0 0
0 0 0 0
0 0 0 0
1194.632 -965.11761 1948.5554 13423568
1203.6227 -963.04181 1944.3644 13685198
1197.437 -948.97803 1915.9698 13750737
1229.9636 -965.57007 1949.4688 13750737
1241.1987 -965.2937 1948.9108 13750737
1241.917 -956.91888 1932.0023 13750737
1242.4525 -948.55811 1915.1221 13750737
1228.5756 -929.44586 1876.5348 13750737
1229.8282 -922.02051 1861.5431 13750737
1232.4108 -915.7157 1848.8137 13750737
1241.1423 -914.05084 1845.4525 13750737
1241.0178 -905.95032 1829.0975 13750481
1241.501 -898.43018 1813.9146 13684946
1247.5963 -895.06592 1807.1222 13357265
1257.8206 -894.69604 1806.3755 13488596
1217.3044 -858.54608 1733.3893 13225940
0 0 0 0
1172.8824 -813.44244 1642.3259 7699854
1176.349 -809.11072 1633.5801 7238791
1180.8977 -805.58807 1626.468 7436167
1180.1854 -798.56293 1612.2843 2305081
1177.9446 -790.62494 1596.2577 5265253
1180.3813 -785.92834 1586.7754 3357000
1178.1925 -778.25079 1571.2745 6514550
1177.6077 -771.74518 1558.1399 1776933
1178.9325 -766.58301 1547.7174 4869467
1178.3774 -760.28772 1535.0074 2829622
1183.7512 -757.88519 1530.1567 4803929
1181.7125 -750.80969 1515.8715 3290944
1179.2023 -743.54401 1501.2021 2961466
1184.9723 -741.56934 1497.2153 5132120
1182.8969 -734.75085 1483.449 2763310
1182.9552 -729.349 1472.5427 6184547
1182.0582 -723.44183 1460.6162 1381655
1183.2656 -718.89935 1451.4451 3618876
1188.1626 -716.64801 1446.8997 3355704
1186.797 -710.67889 1434.848 2566185
1189.2175 -707.04596 1427.5133 5329492
1192.8905 -704.20392 1421.7753 855567
1189.3254 -697.15912 1407.5519 4868941
1188.2715 -691.67444 1396.4784 4013632
1190.7975 -688.33521 1389.7366 1579291
1190.6699 -683.51862 1380.012 5921629
1189.7849 -678.33624 1369.5488 1381655
1185.6343 -671.375 1355.4943 2434341
1189.7747 -669.17102 1351.0444 5000268
1188.6171 -664.0368 1340.6785 1250067
1192.8815 -661.9798 1336.5255 4342338
1191.6561 -656.92377 1326.3175 4737096
1190.3376 -651.88318 1316.1405 657930
1189.7697 -647.31677 1306.9211 4079166
1191.1102 -643.84125 1299.9041 3355443
1190.8236 -639.53668 1291.2133 263172
1189.8475 -634.91931 1281.8909 3223857
1197.5673 -634.97144 1281.9961 4211008
1195.0333 -629.62061 1271.1927 131843
1200.8743 -628.72168 1269.3779 4605513
1196.8545 -622.70361 1257.2275 8158334
0 0 0 0
1200.3145 -616.79944 1245.3071 7829369
1202.1714 -613.96643 1239.5874 7500148
0 0 0 0
0 0 0 0
0 0 0 0
0 0 0 0
0 0 0 0
0 0 0 0
0 0 0 0
0 0 0 0
0 0 0 0
0 0 0 0
0 0 0 0
0 0 0 0
-1514.1713 -866.16833 1770.0256 3750192
-1535.6344 -884.59418 1807.6791 3815982
-1531.4541 -888.40381 1815.4641 3750189
-1479.6642 -864.45306 1766.5204 3750445
