# .PCD v0.7 - Point Cloud Data file format
VERSION 0.7
FIELDS x y z rgb
SIZE 4 4 4 4
TYPE F F F U
COUNT 1 1 1 1
WIDTH 1330
HEIGHT 1
VIEWPOINT 0 0 0 1 0 0 0
POINTS 1330
DATA ascii
1254.1727 229.11203 1443.1637 6973286
1250.4977 226.88789 1429.1541 6644834
1246.3585 224.61017 1414.8068 6315868
1249.932 223.74358 1409.3481 5986394
1253.8707 222.95348 1404.3713 6052443
1256.5558 221.95238 1398.0656 6184029
1258.4779 220.83057 1390.9994 6315614
1258.9606 219.4725 1382.4449 5855064
1260.8827 218.38136 1375.5719 5591892
1258.6853 216.59538 1364.3221 6118237
1256.6147 214.85396 1353.353 5789270
1260.7339 214.18633 1349.1476 5591890
1259.3638 212.60042 1339.1581 5197386
1264.5165 212.12868 1336.1866 5131336
1268.2014 211.41818 1331.7112 4670528
1267.2449 209.94751 1322.4475 5130565
1269.7474 209.06453 1316.8856 4933186
1272.4608 208.22685 1311.6093 4538426
0 0 0 0
0 0 0 0
0 0 0 0
0 0 0 0
0 0 0 0
0 0 0 0
0 0 0 0
0 0 0 0
0 0 0 0
0 0 0 0
-1828.6616 347.13486 2107.6243 6118220
-1805.345 345.07413 2095.1125 6184012
-1777.1882 342.05313 2076.7708 5855047
-1757.4871 340.62866 2068.1221 5855046
-1645.9249 321.25455 1950.4924 5789510
-1543.7253 303.44577 1842.3668 5657923
-1606.8715 318.11624 1931.4384 5789253
-1606.7107 320.37476 1945.1509 5526084
-1588.649 319.07071 1937.2334 5591875
-1578.3391 319.31595 1938.7222 5657669
-1514.4814 308.65164 1873.9741 5591876
-1505.0928 309.01236 1876.1642 5460290
-1518.5632 314.10675 1907.0946 5262910
-1503.9089 313.41656 1902.9043 4999739
-1520.6503 319.30844 1938.6766 5131581
-1508.7548 319.23117 1938.2075 5263681
-1452.3662 309.66617 1880.1337 5000510
-1444.5107 310.38095 1884.4736 5000508
-1481.3591 320.78757 1947.6571 4803128
-1370.9387 299.21585 1816.6848 4605749
-1457.9371 320.73157 1947.3173 4671799
-1421.3401 315.18439 1913.6376 4408370
-1412.2544 315.6976 1916.7535 4276786
-1421.2751 320.29962 1944.6947 4013613
-1368.137 310.85406 1887.3461 3618854
-1400.3915 320.81476 1947.8224 3092510
-1394.9583 322.23578 1956.45 2763545
-1402.0074 326.58844 1982.877 2368274
-1395.8074 327.90237 1990.8546 2105617
-1384.6621 328.06714 1991.855 1447434
-1365.8314 326.39813 1981.7217 263424
-1349.1166 325.21011 1974.5085 263424
-1338.1561 325.40048 1975.6646 66048
-1318.0845 323.3591 1963.2701 256
-1319.9133 326.70193 1983.5663 256
-1310.6355 327.33121 1987.3867 256
-1305.0181 328.89444 1996.8779 256
-1300.9641 330.884 2008.9575 0
-1292.3304 331.73486 2014.1234 132356
-1291.3136 334.57516 2031.3684 1053715
-1258.4729 329.14572 1998.4037 2172711
-1236.7758 326.55515 1982.675 3159351
-1216.146 324.19919 1968.3707 2896692
-1197.855 322.42694 1957.6107 3093558
-1182.1411 321.32047 1950.8926 3817026
-1174.5093 322.41058 1957.5114 3619390
-1167.5972 323.72208 1965.474 3224889
-1161.504 325.28946 1974.9902 1711906
-1155.7209 326.97659 1985.2338 1316891
-1127.076 322.16373 1956.0125 1119766
-1102.6259 318.46198 1933.5375 1185816
-1089.9309 318.11313 1931.4194 2304293
-1057.7787 312.01749 1894.4098 3289902
0 0 0 0
0 0 0 0
0 0 0 0
0 0 0 0
-827.61285 257.85757 1565.5786 3418391
-789.91022 248.9111 1511.2603 3089422
-779.17029 248.3528 1507.8705 3417614
-769.33795 248.07413 1506.1786 3351563
-760.05634 247.96855 1505.5376 3483404
-751.10205 247.96855 1505.5376 3417611
-739.16132 246.97072 1499.4791 3351818
-731.30206 247.32887 1501.6537 3483148
-721.3465 246.97812 1499.5242 3614477
-715.50073 248.04333 1505.9917 3548940
-702.66144 246.6804 1497.7166 3548428
-686.73047 244.18312 1482.5544 3746062
-678.95605 244.55887 1484.8357 3549454
-667.98145 243.77663 1480.0863 3417357
-657.5155 243.16159 1476.3522 3352336
-648.25806 242.98288 1475.2671 2694667
-635.47736 241.46056 1466.0244 2628875
-630.76605 243.00462 1475.3992 1970690
-620.89337 242.57578 1472.7954 3483152
-612.31824 242.64886 1473.2391 3614480
-603.23181 242.51851 1472.4476 3811598
-594.72345 242.62013 1473.0647 3680013
-585.89148 242.59079 1472.8865 3877391
-576.45239 242.30537 1471.1537 3745806
-567.79425 242.3445 1471.3911 3811599
-559.7663 242.65797 1473.2944 3811342
-551.69287 242.96146 1475.1371 4140307
-543.3208 243.14107 1476.2275 4074772
-532.36163 242.14983 1470.2092 3877394
-524.2016 242.41994 1471.8492 3811857
-516.61981 242.97122 1475.1963 3746577
-508.26196 243.17023 1476.4045 3943956
-499.08472 242.97731 1475.2333 3549201
-490.54611 243.09398 1475.9417 3615768
-481.74582 243.08286 1475.874 3222299
-472.88004 243.03764 1475.5996 920065
-467.90201 245.02663 1487.6758 1447438
-463.98706 247.65973 1503.6625 855815
-463.69049 252.36565 1532.2345 790018
-457.17032 253.80513 1540.9742 2040085
0 0 0 0
0 0 0 0
0 0 0 0
0 0 0 0
0 0 0 0
-898.32617 566.90955 3441.9834 3224613
-875.60059 565.45386 3433.145 3290149
-846.73071 559.86591 3399.2178 3158564
-819.88458 555.37543 3371.9543 3290663
-788.40485 547.44238 3323.7888 3093286
-773.29926 550.76343 3343.9521 2764066
-744.60706 544.32758 3304.877 2764068
-704.25928 528.79108 3210.5476 2697763
-635.3338 490.33322 2977.0513 263427
-604.62952 480.01407 2914.3987 65536
-587.70544 480.34866 2916.4302 65536
-572.29822 481.98117 2926.3418 131072
-557.95557 484.64081 2942.4897 65536
-541.89764 485.93448 2950.3445 65792
-525.5777 487.07196 2957.2505 197378
-508.99225 488.0336 2963.0891 66048
-494.10675 490.75262 2979.5977 0
-479.99753 494.47369 3002.1899 65792
-465.69421 498.2746 3025.2671 1512974
-465.32272 517.8866 3144.3411 2433559
-482.561 559.56061 3397.3645 526340
-488.94357 591.7392 3592.7361 2236178
-453.21411 573.56403 3482.386 2433558
-430.66678 571.1297 3467.6057 2564887
-402.03409 559.97443 3399.8767 1183754
-373.28091 547.46082 3323.9009 131072
-342.03537 529.68799 3215.9932 256
-320.17798 525.20959 3188.8027 1250315
-310.25467 540.97626 3284.5295 723972
-294.57687 548.15356 3328.1064 592387
-281.39624 561.3465 3408.2073 789765
-259.12912 557.05426 3382.1472 921351
-239.38387 557.91718 3387.3862 1118730
-219.3943 558.31696 3389.8137 987144
-199.91006 560.21368 3401.3296 1579281
-178.05197 555.13629 3370.5022 1579026
-155.74179 547.18213 3322.2087 131072
-136.72092 550.15234 3340.2422 196608
-116.31367 547.60547 3324.7786 262144
-96.207779 545.72449 3313.3584 196608
-76.201469 543.5849 3300.3679 196608
-56.578648 543.64526 3300.7344 196608
-36.882732 542.6944 3294.9612 196608
-17.22049 540.64447 3282.5154 196608
2.2797256 535.31079 3250.1318 986629
21.65778 536.49304 3257.3101 4012837
41.063862 536.92529 3259.9346 131328
59.415112 527.71161 3203.9934 395011
76.712761 515.88745 3132.2031 7500903
94.486122 511.2579 3104.0952 6909534
112.14359 507.61722 3081.9907 5264453
132.85834 516.8941 3138.3152 7303782
152.55978 520.42871 3159.7756 7106658
170.51088 517.87195 3144.2522 7040865
189.46625 518.56927 3148.4858 7106400
208.07988 518.28992 3146.7898 6909020
226.81636 518.33746 3147.0784 6382674
244.19357 515.50818 3129.9006 4277298
262.61496 515.12787 3127.5916 5987662
281.82425 516.24115 3134.3511 6711898
300.40796 516.14154 3133.7461 6646106
319.69681 517.19434 3140.1379 6580312
341.17883 521.48303 3166.1768 6580313
360.17139 521.71704 3167.5977 6053970
374.33618 515.28229 3128.5291 5988177
396.66113 520.15765 3158.1296 5856591
416.4183 521.37714 3165.5339 5790544
435.60547 521.80841 3168.1523 5790544
453.76776 521.0271 3163.4087 5790545
474.28116 522.90009 3174.7805 5856337
490.52618 520.10394 3157.8037 5856337
508.76968 519.55481 3154.47 5922130
527.07483 519.10553 3151.7417 5790544
544.16113 517.52789 3142.1631 5922131
562.96167 517.63123 3142.7905 5856338
582.00098 517.94031 3144.6672 5987924
600.94373 518.14697 3145.9221 5790545
611.37708 511.22571 3103.8997 5790544
629.3653 510.84229 3101.5715 6053970
653.78247 515.55035 3130.1567 6382167
681.74225 522.71399 3173.6504 6448215
698.29395 520.98022 3163.1243 6711388
718.2099 521.78168 3167.99 6645853
743.85663 526.59906 3197.2388 6711647
765.00604 528.07196 3206.1814 6777441
789.1026 531.45801 3226.7397 6843231
811.68707 533.68915 3240.2861 6974817
835.79504 536.79517 3259.1443 6777694
857.72931 538.39606 3268.864 6777694
878.51202 539.21912 3273.8613 6842974
895.66632 537.82776 3265.4136 6711387
915.96851 538.34552 3268.5571 6579801
933.14496 537.04279 3260.6477 6513752
951.06409 536.21191 3255.603 6250580
967.77008 534.74384 3246.6897 6119250
972.99371 527.11279 3200.3577 5856077
995.46887 528.94104 3211.458 5987663
1010.1739 526.6496 3197.5457 5592648
1025.4963 524.75873 3186.0652 5328964
1046.655 525.86884 3192.8049 4671290
1062.9723 524.55017 3184.7991 6447958
1073.4489 520.44598 3159.8804 6645337
1092.7013 520.66461 3161.2078 6579799
1106.5682 518.35309 3147.1736 6711129
1131.7539 521.33234 3165.2622 5592391
1128.8881 511.504 3105.5891 5395268
1136.8435 506.81619 3077.1274 5066302
1142.0027 501.05005 3042.1184 5329474
1140.7797 492.70731 2991.4656 5395525
1139.5444 484.61566 2942.3372 5264195
1149.8608 481.60706 2924.0703 5329475
1155.1772 476.625 2893.822 5461061
1146.752 466.2027 2830.543 5395269
1148.5243 460.16779 2793.9021 5461062
1150.75 454.48407 2759.3936 5395526
1154.7699 449.65884 2730.0972 5461320
1147.7396 440.72418 2675.8506 5461320
1152.1965 436.38461 2649.5029 5527113
1153.5193 430.99115 2616.7566 5461320
1156.2358 426.2551 2588.0017 5461320
1159.9187 421.99506 2562.137 5461320
1162.1473 417.32324 2533.7722 5527112
1164.7166 412.89182 2506.8669 5527114
1167.6653 408.7052 2481.448 5724491
1175.3768 406.26944 2466.6592 5592394
1167.2205 398.47656 2419.345 5263430
1173.2094 395.64374 2402.1453 5197638
1178.2345 392.55798 2383.4102 4013365
1174.4133 386.63318 2347.438 3552556
1179.6221 383.78555 2330.1484 2697245
1177.947 378.79037 2299.8203 3946800
1181.9575 375.71719 2281.1616 6184018
1175.7694 369.50867 2243.4666 7039071
1170.5365 363.73627 2208.4197 7565415
1174.0847 360.79044 2190.5339 7960427
1179.3798 358.44006 2176.2639 8223599
1183.1234 355.67441 2159.4722 7960427
1182.7943 351.75693 2135.6873 7368290
1188.4003 349.66901 2123.0105 7499619
1192.2908 347.12555 2107.5679 7433573
1198.7058 345.36234 2096.8625 7170657
1203.6212 343.20782 2083.7815 7236449
1204.1361 339.85522 2063.4263 7236450
1208.6039 337.67471 2050.1873 7368035
1210.1412 334.72714 2032.2911 7433830
1216.0504 333.03522 2022.0187 7367781
1217.7644 330.23874 2005.0398 7368039
1221.1348 327.94135 1991.0912 7696491
1228.5887 326.77423 1984.005 7368040
1230.5425 324.18027 1968.256 7499625
1227.7231 320.38965 1945.2411 7433832
1235.4518 319.39667 1939.2124 7499624
1239.1766 317.39658 1927.0688 7499624
1229.8408 312.11853 1895.0232 7631210
1233.7369 310.26392 1883.7631 7565418
1230.1519 306.57825 1861.3855 7368809
1230.561 303.94489 1845.3971 7565933
1231.8206 301.56625 1830.9553 7368554
1227.6327 297.90744 1808.7407 7500652
1222.0532 293.97739 1784.8795 7237481
1221.0688 291.21088 1768.0828 7500653
1220.5298 288.59698 1752.2124 7434602
1222.6619 286.65353 1740.413 7566189
1217.6499 283.08185 1718.7275 7566189
1213.3185 279.72656 1698.356 7697262
1215.7122 277.96436 1687.6566 7697005
1209.201 274.21164 1664.8721 7697005
1207.5217 271.60666 1649.056 7631723
1209.6016 269.88242 1638.5872 7566444
1198.6558 265.3027 1610.7817 8684667
1220.9076 268.08514 1627.6752 5855569
1243.4895 270.89566 1644.7393 7171686
1246.004 269.32477 1635.2015 7171431
1252.0685 268.53958 1630.4342 7434604
1257.3892 267.60815 1624.7792 6645344
1255.5186 265.17209 1609.9885 6711137
1257.6179 263.60504 1600.4742 5855829
1258.6908 261.84799 1589.8064 5921877
1256.9485 259.53589 1575.7684 4737347
1256.3041 257.483 1563.3043 4079418
1245.8446 253.46344 1538.8997 3947576
1241.0806 250.65276 1521.8347 4407613
1245.5834 249.74081 1516.2979 5000261
1250.4564 248.91568 1511.288 6513499
1252.6399 247.57074 1503.1222 7763566
1251.9924 245.68932 1491.6992 7631977
1247.5807 243.10088 1475.9835 7303013
1253.6284 242.57248 1472.7754 7434601
1253.2877 240.82387 1462.1587 7237479
1250.6882 238.6683 1449.0713 7499880
1256.5186 238.13989 1445.863 7762542
1259.0471 236.99716 1438.9249 7565419
1259.2747 235.43964 1429.4685 7500396
1260.3611 234.06253 1421.1073 7236969
1258.668 232.19099 1409.7444 7237225
1261.496 231.17276 1403.5621 6842469
1260.7606 229.51918 1393.5225 6579555
1258.1338 227.54515 1381.5371 6316126
1260.3604 226.46878 1375.002 5987161
1263.236 225.52217 1369.2546 5987160
1259.8987 223.48564 1356.8899 6052954
1263.0826 222.6244 1351.661 5855574
1264.0918 221.3932 1344.1857 5986904
1262.1591 219.66544 1333.6956 5789782
1266.1782 218.98866 1329.5865 5921109
1264.3981 217.32352 1319.4767 6052181
1268.2018 216.63274 1315.2826 5722703
1271.4696 215.85947 1310.5876 5788496
0 0 0 0
0 0 0 0
0 0 0 0
0 0 0 0
0 0 0 0
0 0 0 0
0 0 0 0
0 0 0 0
0 0 0 0
0 0 0 0
-1821.5079 358.26303 2099.3794 6052168
-1803.4685 357.16327 2092.9348 5788996
-1777.1902 354.40521 2076.7729 5855045
-1745.3494 350.49149 2053.8391 5921093
-1724.7729 348.80063 2043.9308 5263163
-1628.0155 331.57037 1942.9634 5526337
-1531.9822 314.24222 1841.4225 5460543
-1519.5883 313.94434 1839.6769 5592129
-1550.9535 322.7482 1891.2666 5592129
-1535.4138 321.84869 1885.9956 5526081
-1507.4858 318.32004 1865.318 5460289
-1495.2047 318.0675 1863.8383 5328702
-1482.4229 317.70389 1861.7075 5131580
-1471.3885 317.71216 1861.7561 5197630
-1459.9403 317.63052 1861.2776 5197629
-1460.4854 320.17685 1876.1987 5000509
-1447.0961 319.68411 1873.3114 5132095
-1439.5869 320.49277 1878.05 5000507
-1474.3734 330.80396 1938.4724 4868920
-1423.1719 321.83255 1885.901 4868921
-1459.3601 332.63766 1949.2178 4868921
-1369.0784 314.55826 1843.2744 4211247
-1436.0177 332.6015 1949.0057 4276783
-1425.8146 332.92575 1950.9059 3750440
-1413.3916 332.73276 1949.7749 3421475
-1366.4396 324.3407 1900.5984 3026717
-1399.0162 334.84314 1962.1415 2565395
-1387.0492 334.77142 1961.7213 2763287
-1388.4749 337.95831 1980.396 2040082
-1380.2504 338.83078 1985.5085 1250056
-1348.7803 333.96262 1956.9817 526337
-1336.13 333.71008 1955.502 197633
-1327.1387 334.37503 1959.3984 65792
-1316.5771 334.65262 1961.0251 0
-1307.9641 335.43488 1965.609 256
-1300.3246 336.48312 1971.7517 256
-1298.2737 339.00986 1986.5579 256
-1296.9569 341.77637 2002.7694 1448470
-1309.3534 348.24146 2040.6542 132614
-1296.0023 347.9155 2038.7441 725007
-1263.9175 342.50677 2007.0496 1580318
-1243.3666 340.1503 1993.2407 3093559
-1232.9081 340.53595 1995.5007 3356988
-1199.2372 334.45544 1959.8696 3620673
-1182.9972 333.16458 1952.3054 3554880
-1174.7572 334.12347 1957.9243 2633778
-1161.9742 333.79657 1956.0087 1909798
-1150.7418 333.9129 1956.6904 1317403
-1138.1207 333.6246 1955.001 1317403
-1127.167 333.8241 1956.1702 1646623
-1088.8794 325.84814 1909.4319 2172455
-1087.9586 329.00394 1927.9244 2830640
-1056.0771 322.76456 1891.3625 2962222
0 0 0 0
0 0 0 0
0 0 0 0
0 0 0 0
-800.89758 258.54474 1515.0419 3155987
-791.88684 258.54474 1515.0419 3352595
-779.81287 257.53311 1509.1139 3417870
-779.4259 260.40253 1525.9283 3483404
-767.59216 259.47015 1520.4647 3220233
-753.33997 257.68835 1510.0234 3549197
-744.00873 257.56708 1509.3127 3351819
-737.87787 258.56427 1515.1564 3417612
-726.68103 257.78903 1510.6135 3351819
-715.73523 257.08453 1506.4852 3417612
-705.61035 256.6608 1504.0021 3417099
-692.64136 255.17836 1495.3152 3482892
-680.3266 253.90149 1487.833 3680014
-666.383 251.9751 1476.5444 3351564
-657.08514 251.77737 1475.3859 3351826
-650.01123 252.43797 1479.257 2497034
-637.09882 250.81815 1469.765 2168324
-630.4599 251.65746 1474.6831 1970947
-622.68207 252.05937 1477.0383 3549717
-611.34259 251.01045 1470.8917 3483150
-602.8197 251.10428 1471.4417 3746062
-594.09473 251.11548 1471.5073 3811856
-585.08484 251.00481 1470.8588 3746319
-576.03156 250.87184 1470.0796 3943699
-566.79199 250.65244 1468.7938 4074771
-557.90247 250.58334 1468.3889 3877392
-549.91772 250.92493 1470.3906 3745805
-539.35413 250.08177 1465.4498 3943185
-530.09631 249.82635 1463.9531 3877650
-524.14758 251.14796 1471.6976 4009749
-515.20807 251.05708 1471.165 3812369
-505.29648 250.48116 1467.7903 3746577
-497.49243 250.94814 1470.5266 3351565
-488.08115 250.60655 1468.525 3549975
-479.49286 250.68282 1468.9719 3419165
-472.88727 251.81772 1475.6222 985859
-469.36441 254.66815 1492.3254 1118220
-465.4783 257.42755 1508.4952 987146
-465.66013 262.58942 1538.743 921351
-459.10031 264.08032 1547.4796 2171672
0 0 0 0
0 0 0 0
0 0 0 0
0 0 0 0
0 0 0 0
0 0 0 0
-864.40454 578.38123 3389.2461 3421736
-826.65887 566.33203 3318.6392 3355943
-807.51172 566.74658 3321.0684 3290408
-787.75952 566.74658 3321.0684 3027238
-761.03448 561.60101 3290.916 2698273
-755.07623 571.91309 3351.3435 2566689
-714.80933 556.09351 3258.6428 2697764
-632.46808 505.74783 2963.623 394756
-607.36047 499.59402 2927.5623 65536
-587.5672 497.57724 2915.7444 65536
-573.0332 500.02707 2930.1001 65536
-558.83093 502.9292 2947.1062 65536
-542.64307 504.17438 2954.4026 65792
-526.14099 505.2012 2960.4199 66048
-510.80316 507.45575 2973.6311 0
-493.99054 508.3544 2978.897 65536
-478.2312 510.44403 2991.1421 196864
-459.49628 509.39645 2985.0034 1315338
-452.76843 522.11066 3059.5073 2235667
-484.64874 582.2749 3412.0627 262656
-484.55014 607.59808 3560.4534 1841421
-451.29703 591.7619 3467.6555 1973007
-428.84634 589.25208 3452.948 2236436
-392.9007 567.01447 3322.6384 65536
-370.38028 562.8222 3298.072 256
-341.29828 547.63257 3209.0627 65792
-317.08929 538.92566 3158.0413 1184522
-314.46344 568.11475 3329.0857 592386
-294.60513 568.00214 3328.426 658180
-283.9483 586.89185 3439.1174 658179
-259.27753 577.50037 3384.0842 1118986
-240.27414 580.21368 3399.9841 1250316
-218.71936 576.69843 3379.3853 1316109
-199.53725 579.36084 3394.9866 1974039
-180.28819 582.40649 3412.8337 1052939
-155.83427 567.27783 3324.1816 0
-136.67137 569.81207 3339.0317 196608
-116.30664 567.3454 3324.5776 262144
-96.215126 565.474 3313.6116 262144
-76.234779 563.46014 3301.8103 196608
-56.577148 563.26166 3300.647 131072
-36.878464 562.2262 3294.5796 0
-17.246326 561.00781 3287.4402 196608
2.2763233 553.81335 3245.2815 1118214
21.615646 554.78467 3250.9731 3815714
41.401955 560.89429 3286.7747 65792
59.63427 548.7843 3215.8118 263171
76.690453 534.36084 3131.292 7171943
94.61039 530.41632 3108.1775 7040614
113.41903 531.92932 3117.0435 5856337
132.00005 532.09955 3118.041 7172197
152.32684 538.39838 3154.9512 6974819
171.1295 538.51923 3155.6597 7040864
190.21742 539.42523 3160.9685 7040352
209.2952 540.14203 3165.1689 7106144
228.08817 540.06622 3164.7246 6908766
247.18216 540.66028 3168.2058 6908765
263.12085 534.75751 3133.6165 6842973
284.61761 540.18451 3165.418 6777434
302.52615 538.55042 3155.8423 6843483
321.50784 538.90601 3157.9263 6580056
341.50482 540.83026 3169.2019 6580311
360.93964 541.70947 3174.354 6448725
378.43311 539.73248 3162.7693 6382934
396.9953 539.39478 3160.7903 6382935
422.99298 548.73346 3215.5137 6251606
442.36459 549.04022 3217.3113 5724751
459.17474 546.27423 3201.103 5790544
479.50449 547.74902 3209.7449 5987925
495.21365 544.03467 3187.9795 5922131
511.70645 541.42352 3172.6782 5724752
527.77826 538.56848 3155.948 5527630
548.10785 540.1051 3164.9526 5132615
563.62097 536.95117 3146.4707 4606270
579.30225 534.15503 3130.0857 4540477
598.75977 534.90649 3134.4893 4408891
623.26215 539.98334 3164.239 4014389
632.25513 531.71936 3115.813 3948595
654.11584 534.43945 3131.7527 3093541
673.29071 534.87531 3134.3066 3290407
699.72791 540.90155 3169.6199 3882545
715.99603 538.95697 3158.2246 4145718
741.20312 543.66852 3185.8337 4737855
763.30579 545.92487 3199.0554 4606012
789.53729 550.95258 3228.5173 5198149
817.4845 556.9104 3263.4294 5329481
848.052 564.33551 3306.9399 5132359
879.36865 571.91125 3351.333 5592910
901.08594 573.04651 3357.9854 5395530
927.02771 576.76074 3379.7502 5790030
942.73511 574.08508 3364.0713 5987666
948.25079 565.44336 3313.4316 6250837
974.63831 569.34595 3336.3005 6382169
990.36829 566.99127 3322.5024 6316377
1008.549 566.10449 3317.3057 6382171
1023.0045 563.20074 3300.2903 6316634
1033.6752 558.36188 3271.9351 6513758
1049.158 556.25317 3259.5784 6184792
1056.952 550.21857 3224.2161 5987412
1069.4335 546.79553 3204.1575 6579549
1076.1034 540.573 3167.6943 6579803
1095.2216 540.71033 3168.499 6645594
1108.0742 537.802 3151.4568 6777180
1130.3275 539.47723 3161.2732 5658698
1132.6212 531.72717 3115.8589 5526599
1136.4526 524.93701 3076.0693 5526600
1142.006 519.14471 3042.1272 5263429
1141.8009 510.95627 2994.1438 5329220
1142.3463 503.34995 2949.5715 5526600
1150.8813 499.44092 2926.6653 5526855
1149.4054 491.36874 2879.363 5461062
1143.9413 481.85364 2823.6057 5395269
1144.6255 475.16617 2784.418 5395269
1150.6866 470.86981 2759.2417 5461319
1150.7841 464.28809 2720.6738 5592905
1153.8652 459.07605 2690.1318 5527112
1155.6093 453.48187 2657.3506 5527111
1157.9637 448.27502 2626.8389 5527112
1160.2776 443.19119 2597.0483 5724491
1165.4534 439.31979 2574.3625 5724491
1168.9738 434.93289 2548.6558 5724492
1168.2167 429.0871 2514.4001 5790285
1176.0693 426.51157 2499.3079 5658699
1178.5751 422.08542 2473.3711 5592906
1177.9996 416.67856 2441.6875 5592651
1182.3085 413.10999 2420.7759 5724236
1189.5596 410.64288 2406.3191 5657930
1179.1427 402.20792 2356.8914 5459782
1176.8408 396.70667 2324.6545 5065790
1167.116 388.85995 2278.6738 4275765
1167.3468 384.47238 2252.9631 3486249
1173.6801 382.17148 2239.48 3354664
1178.0792 379.29947 2222.6504 3814959
1166.4108 371.3754 2176.2163 5197640
1169.4835 368.26727 2158.0029 6776411
1167.4948 363.64999 2130.9463 7368546
1161.2498 357.82047 2096.7859 8026477
1183.5408 360.81424 2114.3291 8552821
1183.9769 357.15253 2092.8718 8223856
1188.2418 354.70984 2078.5581 7960428
1197.5404 353.80469 2073.2539 7499622
1202.429 351.62836 2060.501 7236450
1209.1858 350.03674 2051.1743 7302243
1211.5493 347.21786 2034.6559 7236451
1217.6865 345.52554 2024.7391 7368038
1216.2944 341.75079 2002.6195 7368294
1220.6029 339.6355 1990.2241 7237222
1223.7306 337.23535 1976.1597 7237222
1227.1766 334.96786 1962.8723 7433831
1228.3967 332.14117 1946.3083 7368037
1232.7008 330.19336 1934.8944 7302244
1229.9039 326.39709 1912.6488 7368037
1231.0864 323.7168 1896.9425 7368037
1235.4387 321.91113 1886.3615 7499623
1245.3199 321.56561 1884.3369 7500394
1233.0471 315.55673 1849.1254 7500394
1233.0203 312.76028 1832.7385 7697773
1228.756 308.94742 1810.3958 7566187
1225.8696 305.54425 1790.4535 7565931
1223.9653 302.44238 1772.277 7434602
1221.4088 299.2337 1753.4744 7697003
1224.4128 297.43005 1742.9053 7762796
1221.4032 294.20819 1724.0255 7894384
1214.4376 290.095 1699.9226 7828590
1212.6044 287.2655 1683.3423 7828589
1211.7811 284.71976 1668.4243 7894383
1213.1406 282.724 1656.7295 7828590
1210.4625 279.82703 1639.7535 7894383
1203.5554 276.00653 1617.366 8421240
1215.8993 276.6264 1620.9982 6644828
1252.8997 282.80191 1657.1859 6974050
1249.1578 279.75653 1639.3406 7171429
1257.0619 279.34631 1636.9366 7171428
1272.6268 280.63171 1644.469 6907489
1267.5519 277.38086 1625.4193 7631469
1268.2275 275.4281 1613.9763 7631725
1269.6406 273.66364 1603.6367 7829105
1268.3733 271.35202 1590.0911 7829104
1256.3824 266.79749 1563.402 7104868
1248.4395 263.16309 1542.1049 6841440
1248.5264 261.26202 1530.9648 6315353
1241.921 257.99823 1511.8395 5525580
1245.3313 256.84708 1505.0938 5393993
1245.8301 255.11613 1494.9507 4736064
1256.5059 255.47896 1497.0768 3618096
1252.2358 252.81923 1481.491 3355179
1244.1293 249.42747 1461.6157 3683890
1249.6742 248.80072 1457.943 5065798
1255.0328 248.14575 1454.105 6578781
1253.6381 246.1736 1442.5485 7697519
1263.1808 246.36143 1443.6492 7894641
1264.4926 244.95229 1435.3916 7697519
1261.2583 242.68729 1422.119 7631469
1263.2422 241.4498 1414.8676 7893615
1267.6608 240.69102 1410.4211 7762285
1268.3292 239.23485 1401.8882 7828078
1265.6387 237.16821 1389.778 7827566
1267.3534 235.94859 1382.6311 7696750
1267.1145 234.38333 1373.4587 7762287
1269.8269 233.38051 1367.5824 7433579
1265.9584 231.18866 1354.7384 7433580
1267.4441 229.99614 1347.7504 7039077
1265.5101 228.20193 1337.2366 6841698
1266.5985 226.97177 1330.028 6447196
1262.667 224.8629 1317.6702 6315610
1268.9666 224.59082 1316.0758 6118231
1277.3586 224.69014 1316.6578 6052695
0 0 0 0
0 0 0 0
0 0 0 0
0 0 0 0
0 0 0 0
0 0 0 0
0 0 0 0
0 0 0 0
0 0 0 0
0 0 0 0
-1824.2014 371.29745 2102.4839 6051655
-1801.0931 369.1243 2090.1782 5920582
-1684.2504 347.57703 1968.1661 5854789
-1748.5354 363.36896 2057.5884 5986373
-1652.5812 345.84885 1958.3804 5723202
-1546.1722 325.87665 1845.2871 5723202
-1531.8765 325.17175 1841.2955 5328444
-1601.4764 342.39346 1938.8141 5394238
-1584.6052 341.2435 1932.3024 5262651
-1577.2351 342.13773 1937.366 5460030
-1551.6274 339.05984 1919.9374 5394238
-1531.485 337.13947 1909.0632 5394496
-1511.0203 335.11893 1897.6218 5394241
-1503.9908 336.07013 1903.0079 5328704
-1455.9894 327.81104 1856.2405 5262911
-1450.0206 328.96155 1862.7554 5197632
-1441.522 329.55139 1866.0955 5066047
-1431.8384 329.87741 1867.9417 5000252
-1469.1349 341.11679 1931.5848 5066301
-1419.1631 332.1109 1880.5887 4737336
-1455.9624 343.42935 1944.6797 4474166
-1449.0834 344.54373 1950.9901 4145968
-1357.2832 325.32175 1842.1449 3882282
-1417.8679 342.6087 1940.0328 3684647
-1349.9453 328.87241 1862.2506 3224096
-1401.5197 344.26147 1949.3916 2894875
-1399.5499 346.64523 1962.8899 3026718
-1385.8801 346.14688 1960.0679 2368786
-1398.6819 352.30783 1994.9545 2039826
-1382.8923 351.31085 1989.3091 1052678
-1345.2823 344.70557 1951.9065 460546
-1330.4908 343.88303 1947.2488 131840
-1302.1497 339.51318 1922.5044 197632
-1291.1774 339.6347 1923.1925 0
-1289.3781 342.19281 1937.6779 0
-1288.0844 344.9325 1953.1914 0
-1281.0675 346.17545 1960.2297 0
-1291.4807 352.19458 1994.3132 1447956
-1305.3434 359.27466 2034.4044 329991
-1295.0251 359.76956 2037.2068 855567
-1259.8719 353.30933 2000.6254 2698542
-1234.8848 349.60388 1979.6434 3159096
-1216.8489 347.81406 1969.5083 3422524
-1212.1581 349.84097 1980.9857 3554109
-1194.8849 348.2406 1971.9237 2435373
-1167.8655 343.7399 1946.4382 1909029
-1150.9664 342.15765 1937.4788 1909286
-1140.5408 342.48721 1939.345 1448732
-1132.054 343.41171 1944.5798 988437
-1118.4437 342.785 1941.0311 1777697
-1084.5885 335.87579 1901.9075 2369577
-1082.0166 338.61084 1917.3949 2764076
-1058.4526 334.76486 1895.6168 3028016
0 0 0 0
0 0 0 0
0 0 0 0
0 0 0 0
-800.5097 267.42593 1514.3081 3287572
-800.93939 270.61414 1532.3613 3418129
-785.96173 268.61008 1521.0133 3483662
-781.17682 270.08344 1529.3562 3614991
-768.13782 268.7041 1521.5457 3483148
-756.61163 267.82739 1516.5812 3680784
-742.23065 265.90677 1505.7057 3614736
-735.88837 266.85431 1511.0712 3483151
-726.04504 266.54001 1509.2915 3614480
-715.18671 265.84058 1505.3308 3680014
-704.3327 265.125 1501.2788 3680271
-693.06134 264.23193 1496.2218 3680271
-678.7204 262.13013 1484.3204 3614480
-669.6297 262.02734 1483.7384 3548943
-657.74182 260.81271 1476.8604 3352083
-647.36609 260.17285 1473.2373 2957840
-635.43665 258.88248 1465.9304 2036482
-630.17627 260.31104 1474.0197 2497033
-620.98163 260.13184 1473.0049 3549715
-610.8136 259.53391 1469.619 3680529
-601.47839 259.27759 1468.1677 3943442
-591.72748 258.83188 1465.6439 3877649
-583.13641 258.88779 1465.9606 4074772
-573.21967 258.3479 1462.9034 3877393
-564.73456 258.44656 1463.462 4008978
-555.63245 258.26154 1462.4143 4074771
-546.52338 258.06732 1461.3146 4074771
-536.94489 257.6416 1458.9039 3943185
-528.62738 257.81686 1459.8964 3811857
-520.07025 257.87921 1460.2494 3614478
-512.4007 258.3912 1463.1486 3746064
-503.42267 258.24973 1462.3473 3548941
-494.80527 258.29147 1462.5837 3483408
-487.62683 259.0993 1467.1582 3681818
-479.25571 259.29129 1468.2454 3617056
-473.0575 260.68784 1476.1533 985858
-470.95587 264.43741 1497.3854 986888
-465.63525 266.48926 1509.004 856071
-465.43491 271.60971 1537.9988 1514001
-461.60678 274.77603 1555.9281 4803902
-457.16144 277.69696 1572.468 4540729
0 0 0 0
0 0 0 0
0 0 0 0
0 0 0 0
0 0 0 0
-807.69916 559.27454 3166.9102 3158565
-812.86237 576.28864 3263.2529 3487273
-811.28027 589.23584 3336.5671 3225127
-822.14227 612.09723 3466.0205 3158824
-760.29553 580.60956 3287.7205 2500894
-769.2337 602.94232 3414.1802 2303261
-715.87799 576.33484 3263.5146 2565664
-631.29523 522.40363 2958.1274 526086
-606.63507 516.38831 2924.0657 131072
-589.24438 516.38867 2924.0674 131072
-573.66534 518.0249 2933.3325 196608
-559.66058 521.22998 2951.4814 65536
-543.23615 522.3161 2957.6318 65536
-528.3609 525.01428 2972.9104 65536
-511.86935 526.23767 2979.8379 65536
-495.08234 527.23419 2985.4807 131328
-483.44562 533.99365 3023.7563 131584
-466.59497 535.29376 3031.1184 1249801
-454.42679 542.28625 3070.7134 2301716
-451.40375 561.2345 3178.0085 394240
-489.40115 635.06891 3596.0984 2038800
-450.24988 610.96509 3459.6096 1972751
-428.85297 609.79803 3453.0012 2038543
-394.75192 589.54077 3338.2937 262144
-367.89575 578.53064 3275.9485 196608
-341.15173 566.47528 3207.6848 328450
-326.82648 574.83447 3255.0186 855044
-313.35895 585.84967 3317.3928 723715
-297.63095 593.83521 3362.6111 789765
-283.65018 606.70844 3435.5063 987144
-259.85553 598.95959 3391.6282 921351
-240.45236 600.88062 3402.5061 1316109
-220.45554 601.53479 3406.2102 1776660
-200.48277 602.39374 3411.074 1842199
-179.07443 598.64685 3389.8572 789513
-157.01376 591.49194 3349.342 196608
-136.67012 589.66571 3339.0012 196608
-116.30624 587.11652 3324.5662 196608
-96.191238 585.03662 3312.7888 196608
-76.207932 582.89252 3300.6477 196608
-56.573433 582.85406 3300.4302 196608
-36.87455 581.75916 3294.2302 196608
-17.233103 580.11493 3284.9194 196608
2.2819536 574.53241 3253.3083 854787
21.487072 570.70502 3231.6355 3552035
41.05719 575.60907 3259.405 131328
59.677959 568.32654 3218.1675 197377
74.94857 540.42438 3060.1707 7237989
94.887115 550.50787 3117.2688 6843232
114.49657 555.69781 3146.657 5592907
132.43149 552.44403 3128.2324 6842974
152.92967 559.36749 3167.4368 6842717
172.9281 563.1449 3188.8262 6777438
190.19722 558.16595 3160.6328 6711130
210.67081 562.64087 3185.9724 6053201
229.51305 562.37994 3184.4946 5198148
248.98894 563.59308 3191.364 4869182
268.66937 565.06451 3199.6963 4672573
286.96143 563.61444 3191.4851 4738110
309.04819 569.33502 3223.8779 4474938
329.33072 571.25751 3234.7642 4606780
346.65601 568.12134 3217.0054 4409402
368.07703 571.6745 3237.1252 3619629
385.86075 569.50598 3224.8459 3817008
407.29037 572.66913 3242.7576 5330247
425.57898 571.32953 3235.1719 5329993
440.55783 565.85474 3204.1709 5658959
464.67432 572.08374 3239.4429 5987923
486.13016 574.67157 3254.0962 5856340
503.0112 571.86023 3238.1772 5921877
519.03046 568.31268 3218.0889 5922134
531.38422 561.14655 3177.5105 5856341
547.23615 558.03998 3159.9192 5790549
565.51978 557.53699 3157.071 5659219
585.90466 559.07141 3165.7598 5856339
601.76996 556.33197 3150.2476 5593167
621.04523 556.81525 3152.9841 5461580
639.66675 556.70117 3152.3384 5922130
653.3067 552.38159 3127.8787 6185302
673.5097 553.69678 3135.3259 6711646
699.94452 559.92633 3170.6011 6382423
717.24799 558.71588 3163.7468 6448214
740.68243 562.22119 3183.5957 6645593
765.27271 566.40717 3207.2988 6645593
787.24268 568.49731 3219.1343 6645595
809.84436 570.93353 3232.9297 6645852
821.61652 565.79919 3203.8562 6842975
869.95221 585.50592 3315.4463 6448218
880.7348 579.62494 3282.1448 6448474
903.17609 581.50525 3292.7922 6580060
922.07562 581.07391 3290.3499 6579803
945.33777 583.35254 3303.2527 6514010
965.73529 583.8067 3305.8242 6579290
982.72577 582.22418 3296.8633 6645083
994.26654 577.53802 3270.3279 6579289
1015.5338 578.57306 3276.189 6513496
1027.2423 574.22595 3251.573 6316887
1033.9788 567.31134 3212.4189 6316631
1056.2283 569.00482 3222.0083 6316631
1077.4707 570.10504 3228.2383 6053460
1079.2744 561.06152 3177.0288 6514008
1097.8402 560.89301 3176.075 6579544
1111.7642 558.39886 3161.9517 6250322
1126.9791 556.62518 3151.9082 5987406
1127.6296 547.83386 3102.127 5921356
1140.1281 544.98889 3086.0173 5197890
1132.7761 532.89587 3017.5403 5263939
1137.1644 526.61688 2981.9854 5591622
1139.795 519.72931 2942.9841 5263428
1143.7563 513.64764 2908.5464 5329220
1157.5017 512.07562 2899.645 5395269
1153.1423 502.6579 2846.3167 5461062
1151.162 494.5347 2800.3188 5066049
1159.2412 490.90311 2779.7546 5329734
1158.1193 483.53201 2738.0156 5329734
1156.2202 476.04538 2695.6223 5395526
1156.6752 469.71945 2659.8018 5790285
1162.8485 465.85519 2637.9199 5987666
1170.7756 462.78696 2620.5461 5724494
1174.6642 458.22397 2594.708 5527115
1168.8656 450.04953 2548.4199 5724494
1174.6895 446.50198 2528.332 5658699
1185.4027 444.87915 2519.1426 5658700
1174.2355 435.18762 2464.2639 5461320
1192.2823 436.42874 2471.2917 5329735
1193.946 431.71564 2444.6038 5592651
1190.0842 425.142 2407.3804 5460807
1189.4609 419.86792 2377.5156 5723979
1188.4596 414.58578 2347.6055 5658186
1182.4886 407.71289 2308.6875 5658185
1191.3314 406.04678 2299.2532 5460807
1178.3716 397.07181 2248.4319 4605498
1177.7518 392.4097 2222.0327 4210485
1173.599 386.68698 2189.6277 3815215
1168.514 380.78613 2156.2139 3091235
1172.8063 378.03601 2140.6411 2959648
1167.2583 372.20715 2107.635 4341556
1172.0221 369.75537 2093.7517 6052687
1175.604 366.98621 2078.0713 7039840
1180.0159 364.53101 2064.1687 7566185
1185.9124 362.58032 2053.1228 8355699
1202.7816 363.98999 2061.1052 8290418
1213.4398 363.51062 2058.3906 8421234
1217.141 360.97745 2044.0465 8158062
1212.8196 356.13864 2016.6465 7697255
1217.5813 354.03564 2004.7384 7368290
1221.0654 351.60562 1990.9781 7762793
1222.9762 348.77356 1974.9415 7433829
1223.1095 345.49329 1956.3669 7368037
1225.3074 342.85251 1941.4133 7302243
1231.7262 341.43109 1933.3645 7433829
1229.8584 337.76019 1912.578 7368036
1229.208 334.48782 1894.0481 7236449
1231.354 332.02896 1880.1246 7433830
1230.6282 328.84692 1862.1063 7433831
1231.6846 326.19366 1847.0822 7565161
1231.2548 323.19717 1830.1144 7434858
1231.019 320.30368 1813.73 7566187
1238.6946 319.5011 1809.1853 7566190
1229.5238 314.40448 1780.3254 7566189
1227.936 311.31741 1762.845 7697003
1225.7432 308.13052 1744.7991 7762796
1219.1545 303.9014 1720.8514 7762796
1215.9561 300.58072 1702.048 7762796
1213.1182 297.40329 1684.0557 7565161
1212.2477 294.75626 1669.0668 7828332
1214.2479 292.84454 1658.2417 7763052
1207.6228 288.90024 1635.9069 7762795
1210.9056 287.37027 1627.2434 8618105
1202.9719 283.22382 1603.7639 6315350
1245.5619 290.94412 1647.4805 7104866
1249.5363 289.5943 1639.8372 7499368
1257.6226 289.211 1637.6666 7565417
1264.3547 288.52463 1633.78 6973281
1264.9686 286.46313 1622.1067 7762799
1270.1912 285.4686 1616.4752 7894382
1270.4349 283.37854 1604.6401 7894382
1270.0216 281.1741 1592.1575 7894381
1272.6257 279.66544 1583.6146 7893869
1267.2648 276.44138 1565.3583 8025454
1274.0402 275.89249 1562.2502 7893869
1269.3073 272.8775 1545.1777 8025968
1258.5352 268.61688 1521.0518 7697005
1250.9727 265.09723 1501.1216 7368041
1253.1025 263.66681 1493.0219 6117974
1259.559 263.16049 1490.1548 5986389
1252.8806 259.93616 1471.8969 5722960
1250.8567 257.71555 1459.3226 5262409
1255.6781 256.92615 1454.8527 4210491
1264.495 256.9595 1455.0415 2302495
1263.3713 254.98608 1443.8669 2631459
1259.1718 252.42268 1429.3517 3486768
1263.4624 251.58427 1424.6041 5131593
1262.0406 249.62715 1413.5219 6447453
1268.1438 249.17448 1410.9586 8355191
1271.4583 248.18341 1405.3466 8486521
1269.2394 246.13228 1393.7319 8223348
1268.5863 244.40941 1383.9762 7762797
1268.8942 242.89272 1375.3878 7697005
1271.8185 241.89307 1369.7273 7828334
1268.7631 239.77606 1357.7397 7828332
1269.7107 238.43758 1350.1605 7828076
1271.3403 237.24321 1343.3973 7958891
1269.9015 235.49471 1333.4963 7958635
1265.4922 233.22046 1320.6184 8024428
1274.1633 233.37006 1321.4655 7827049
1266.7538 230.59059 1305.7267 7892586
0 0 0 0
0 0 0 0
0 0 0 0
0 0 0 0
0 0 0 0
0 0 0 0
0 0 0 0
0 0 0 0
0 0 0 0
0 0 0 0
0 0 0 0
-1798.3918 380.98349 2087.0435 5986373
-1761.77 375.81921 2058.7534 5920579
-1744.5438 374.74911 2052.8914 5788993
-1647.6527 356.43027 1952.5399 5657665
-1625.4142 354.11539 1939.8589 5526337
-1627.1451 357.02673 1955.8073 5460800
-1608.4703 355.47031 1947.2812 5394751
-1582.7809 352.32986 1930.0778 5197628
-1551.9237 347.9848 1906.2753 5329214
-1506.5179 340.28955 1864.1204 5263165
-1528.4802 347.81 1905.3176 5262911
-1511.0203 346.40512 1897.6218 4868923
-1500.7108 346.63077 1898.8578 5132094
-1491.3112 347.0715 1901.2722 4934716
-1490.5289 349.53986 1914.7939 4803130
-1376.1248 325.19592 1781.4368 4737337
-1425.6239 339.50717 1859.8344 4540469
-1470.0953 352.83551 1932.8477 4343090
-1461.8777 353.62845 1937.1915 4540469
-1351.0342 329.41162 1804.5305 4474676
-1451.2563 356.68143 1953.9158 4408883
-1349.2302 334.28284 1831.2153 3816745
-1381.0315 344.94635 1889.6304 3553574
-1407.8989 354.54233 1942.1978 3487521
-1407.8636 357.46634 1958.2156 2961178
-1394.9805 357.14975 1956.4813 2106126
-1338.1433 345.47983 1892.553 2434579
-1398.6819 364.17291 1994.9545 1908237
-1378.9828 362.11575 1983.6852 1118215
-1342.0721 355.46439 1947.2488 460801
-1313.8439 351.01685 1922.8849 132096
-1301.296 350.71729 1921.244 131585
-1285.0574 349.40894 1914.0768 131584
-1239.7706 340.10834 1863.1277 0
-1269.9879 351.53998 1925.7507 0
-1266.0082 353.62756 1937.1865 0
-1281.7936 361.32513 1979.3542 1382677
-1270.093 361.34558 1979.4661 659214
-1276.6348 366.60489 2008.277 658957
-1255.3878 363.90829 1993.5048 3291962
-1237.4933 362.1413 1983.8252 3554880
-1213.8795 358.65048 1964.7024 3028536
-1198.4436 357.53152 1958.5726 2304557
-1179.0771 355.20651 1945.8361 2830387
-1167.1624 355.10251 1945.2664 3093812
-1149.8429 353.3356 1935.5873 4014660
-1135.3175 352.40027 1930.4634 3817279
-1114.3126 349.41406 1914.1049 3882815
-1094.3629 346.70047 1899.2396 3619899
-1085.1592 347.37015 1902.9082 3554361
-1051.8837 340.26718 1863.9978 3356979
-852.70959 278.7757 1527.145 3159342
-1001.233 330.85654 1812.4459 3224362
0 0 0 0
0 0 0 0
0 0 0 0
-802.9624 277.27933 1518.9478 3287829
-795.76129 277.91949 1522.4546 3418130
-784.80121 277.24643 1518.7675 3549456
-777.09528 277.72067 1521.3655 3680785
-767.03516 277.35486 1519.3615 3746833
-756.88177 276.94617 1517.1227 3746576
-748.18207 277.06598 1517.7789 3746577
-737.06018 276.28073 1513.4774 3680784
-726.71802 275.77197 1510.6904 3680270
-715.48651 274.90878 1505.9618 3943443
-704.53949 274.1344 1501.7196 3877650
-690.54919 272.14078 1490.7986 3877649
-678.87646 271.02051 1484.6616 3680271
-669.17603 270.66846 1482.7332 3549200
-658.23071 269.79675 1477.958 3286800
-647.9693 269.18561 1474.61 3286801
-639.17303 269.17468 1474.5502 2694668
-631.58514 269.67941 1477.3151 3023372
-621.08496 268.93732 1473.2499 3681044
-609.513 267.70328 1466.4897 3746576
-600.64569 267.63852 1466.135 3877649
-590.08252 266.80511 1461.5696 4140564
-581.40137 266.81046 1461.5988 3942926
-572.45068 266.69037 1460.9409 4140562
-564.35925 266.97305 1462.4895 4206098
-555.15082 266.72794 1461.1467 4140562
-544.90448 265.96838 1456.9858 4074770
-535.53259 265.61804 1455.0667 4206100
-526.95099 265.65457 1455.2668 4074772
-518.91095 265.96988 1456.9941 3811857
-510.87732 266.29932 1458.7987 3877906
-502.07684 266.23346 1458.438 3549198
-493.74957 266.42062 1459.4633 3614992
-485.82919 266.83798 1461.7495 3484180
-478.63818 267.67841 1466.3535 2958612
-472.86642 269.35852 1475.5571 723200
-472.20474 274.06802 1501.3562 789763
-466.27365 275.84177 1511.0728 526849
-465.34644 280.70367 1537.7064 4145970
-459.20694 282.55334 1547.839 4475445
-456.45062 286.60297 1570.0231 4343600
-449.69946 288.26102 1579.1058 4409394
-443.0018 290.02484 1588.7682 3948591
0 0 0 0
0 0 0 0
0 0 0 0
-835.58759 598.07104 3276.2581 3290152
-768.18353 562.95459 3083.8887 3224359
-790.11414 593.18945 3249.5166 3224102
-773.88013 595.56958 3262.5549 3158567
-750.08441 592.10297 3243.5649 2303258
-738.80096 598.59106 3279.1069 2566431
-697.25677 580.24841 3178.625 2434079
-630.33893 539.1792 2953.6462 328707
-603.13031 530.6955 2907.1721 65536
-587.16626 531.89716 2913.7549 131072
-572.65326 534.52631 2928.1575 196608
-558.6665 537.82709 2946.239 131072
-544.26331 540.92767 2963.2244 0
-527.44751 541.75769 2967.7712 131585
-512.52161 544.65356 2983.635 263170
-495.08237 544.99054 2985.481 591877
-480.31329 548.40125 3004.165 131584
-463.53601 549.69397 3011.2466 1118472
-450.5369 555.7511 3044.428 2170387
-438.99664 564.19049 3090.6589 591617
-488.12109 654.73987 3586.6926 1710347
-450.72986 632.21454 3463.2976 1710092
-428.09543 629.22162 3446.9021 1907216
-391.96698 605.09619 3314.7422 196608
-365.92697 594.81427 3258.4175 196608
-343.21973 589.10266 3227.1292 657669
-327.09805 594.6875 3257.7231 657923
-313.57452 605.99664 3319.675 526337
-295.58865 609.6225 3339.5376 921351
-280.31018 619.75671 3395.0532 855560
-260.14163 619.81317 3395.3625 1052939
-241.00436 622.54309 3410.3171 1381903
-222.80548 628.42145 3442.519 1710868
-200.41193 622.46124 3409.8687 1907991
-179.19817 619.23578 3392.1995 197377
-157.04515 611.53448 3350.0115 196608
-136.78773 610.04913 3341.8748 196608
-116.50608 607.93231 3330.2786 196608
-96.261452 605.18097 3315.2068 262145
-76.256752 602.90924 3302.7622 262145
-56.598667 602.75232 3301.9026 262144
-36.889572 601.59674 3295.5723 196608
-17.241041 599.92847 3286.4331 196608
2.2836223 594.31586 3255.6873 854788
21.639919 594.1217 3254.6235 3749410
41.451664 600.71124 3290.7212 196608
59.514786 585.86053 3209.3684 65792
75.757965 564.65765 3093.2183 6974306
94.544029 566.99048 3105.9976 6777182
114.15949 572.72162 3137.3931 6777181
132.64375 571.96466 3133.2463 6250837
151.00911 570.94458 3127.6584 6184788
169.99579 572.23987 3134.7539 6711388
188.89583 573.01617 3139.0066 6645594
207.95824 574.10114 3144.95 7500903
226.34702 573.30084 3140.5662 7435109
249.35426 583.42859 3196.0464 7369314
268.27478 583.23706 3194.9968 7369828
288.76709 586.26184 3211.5669 6974813
310.41516 591.11224 3238.1377 6777178
329.14166 590.15753 3232.9075 6777179
349.75198 592.49945 3245.7366 7040350
370.2742 594.4549 3256.4487 6645593
390.33871 595.51764 3262.2705 6711387
411.57132 598.17749 3276.8413 6448215
430.57611 597.50537 3273.1592 6514264
444.19876 589.74561 3230.6511 6645596
468.57144 596.31006 3266.6113 6448474
487.73004 595.98041 3264.8057 6448477
504.61725 593.00684 3248.5161 6119514
517.18976 585.36908 3206.676 5856085
530.69067 579.2879 3173.3633 5724499
548.36316 578.02167 3166.427 5658707
559.40045 570.0777 3122.9094 5921877
587.74805 579.71808 3175.72 5790548
604.58844 577.7616 3165.002 5790548
620.15741 574.74493 3148.4766 5790547
633.51392 569.91473 3122.0166 6185304
651.03528 568.99963 3117.0037 6185302
677.14691 575.43518 3152.2578 6251096
697.36444 576.65015 3158.9138 6447960
717.60693 577.82153 3165.3303 6316631
741.88336 582.09802 3188.7573 6382424
763.95923 584.47784 3201.7939 6382424
787.08301 587.52405 3218.4814 6185301
809.56866 589.96063 3231.8291 6514010
820.57941 584.11603 3199.812 6645341
842.79559 586.33185 3211.9504 6447964
868.85626 591.06488 3237.8782 6250584
893.82648 594.86694 3258.7058 6447963
913.70294 595.18939 3260.4724 6382170
933.5553 595.48322 3262.0818 6447962
958.3327 598.84253 3280.4844 6184790
976.57166 598.06366 3276.2175 6579548
992.24127 595.77246 3263.6665 6513499
1013.324 596.75708 3269.0603 6447705
1025.9518 592.81909 3247.4878 6381913
1041.2052 590.51581 3234.8704 6382168
1050.0276 584.71497 3203.093 6513497
1080.1344 590.76202 3236.219 5921360
1076.8649 578.66223 3169.936 6447704
1102.1526 582.0603 3188.5508 6513494
1115.3055 579.04333 3172.0234 4605499
1114.3685 568.93311 3116.6394 6184785
1125.3502 565.13922 3095.8562 6315857
1144.4376 565.47266 3097.6826 6315601
1134.1722 551.52179 3021.2595 5920586
1142.6343 546.97083 2996.3291 5525829
1142.2697 538.39929 2949.3738 5525830
1154.1661 535.77881 2935.0186 5394757
1157.864 529.48712 2900.5525 5460807
1142.4139 514.7525 2819.8357 5527113
1161.0127 515.56415 2824.2817 5263941
1152.8491 504.63782 2764.427 5329733
1150.6206 496.58023 2720.2874 5263941
1168.8931 497.47119 2725.168 5001025
1157.5278 485.8967 2661.7625 5395527
1167.4493 483.44958 2648.3569 5527113
1172.946 479.25958 2625.4041 5527114
1169.6394 471.63004 2583.6089 5592907
1176.4133 468.21033 2564.8757 5592908
1172.2815 460.59326 2523.1492 5724493
1181.1254 458.20255 2510.0527 5527113
1183.3519 453.33643 2483.3958 5461320
1198.4033 453.44284 2483.9788 5395528
1194.7686 446.56244 2446.2876 5592907
1194.9122 441.24286 2417.1467 5658442
1194.2646 435.76105 2387.1172 6250836
1193.8502 430.4921 2358.2537 5987664
1196.5554 426.4574 2336.1514 5856076
1191.3314 419.72174 2299.2532 5723978
1187.6998 413.69357 2266.2307 5921613
1194.4818 411.38727 2253.5967 5790026
1178.2021 401.27768 2198.2158 5460807
1172.0392 394.79779 2162.7188 4605500
1170.1202 389.87262 2135.7385 4605502
1171.0148 385.98059 2114.4177 4012852
1175.4104 383.31305 2099.8049 3486510
1177.0778 379.82117 2080.6763 2960677
1173.8159 374.82797 2053.3232 2565407
1186.0653 374.83972 2053.3877 5460809
1199.2098 375.13126 2054.9846 7105632
1211.2576 375.07724 2054.6887 7237217
1213.7836 372.10529 2038.4082 7895147
1212.8663 368.14691 2016.7242 8486769
1221.1976 367.0459 2010.6927 8881522
1222.1031 363.75595 1992.6703 8815471
1223.0665 360.54626 1975.0874 8486251
1224.8802 357.6459 1959.1991 7828327
1224.6805 354.21786 1940.4203 7762791
1224.225 350.78055 1921.5905 7565669
1223.3352 347.28351 1902.4336 7696744
1229.4274 345.81448 1894.3862 7564901
1231.42 343.22949 1880.2255 7565158
1235.7858 341.3465 1869.9104 7631209
1232.8679 337.50317 1848.8566 7499623
1230.3253 333.82968 1828.7329 7499623
1236.629 332.59979 1821.9956 7828589
1238.6951 330.26144 1809.1859 7828589
1226.7191 324.25168 1776.2643 7894382
1225.5746 321.18317 1759.4548 7828589
1221.8462 317.49518 1739.2518 7762796
1220.8958 314.5849 1723.3092 7631467
1217.5916 311.12164 1704.3374 7630954
1215.9764 308.14362 1688.0236 7828589
1213.3933 304.97101 1670.6439 7828589
1214.6517 302.80771 1658.7932 7960175
1212.4276 299.81802 1642.4156 7828589
1215.8939 298.27203 1633.9467 8354933
1203.326 292.84842 1604.236 6183764
1245.1694 300.6478 1646.9613 6973281
1249.489 299.336 1639.7751 7433831
1259.0504 299.29053 1639.526 7565417
1263.1826 297.96509 1632.2653 6907489
1269.7048 297.21936 1628.1802 7696748
1269.103 294.8299 1615.0905 7894383
1274.4644 293.85126 1609.7295 7828845
1272.402 291.18829 1595.1416 7894382
1275.7542 289.79468 1587.5074 7828333
1276.6632 287.87067 1576.9675 7893869
1274.2068 285.22137 1562.4546 7762797
1277.8801 283.97263 1555.6139 7762796
1271.0883 280.43295 1536.2234 7828588
1272.8962 278.82758 1527.4291 7828587
1266.3422 275.42624 1508.7964 7762538
1267.8894 273.82239 1500.0104 7630951
1262.8245 270.82285 1483.579 7697003
1268.2772 270.10498 1479.6464 7499623
1257.9672 266.06311 1457.5049 6512731
1260.2175 264.7149 1450.1194 6314840
1258.754 262.61026 1438.59 5855316
1259.8171 261.05759 1430.0844 5525840
1266.7236 260.72845 1428.2814 5854805
1268.7675 259.40948 1421.056 4670017
1263.8848 256.70117 1406.2198 4341050
1270.4847 256.34537 1404.2706 4143672
1271.1437 254.80328 1395.8231 4274998
1268.5292 252.6293 1383.9138 5196613
1269.5254 251.1978 1376.072 6249300
1274.1641 250.50072 1372.2534 7959919
1269.2791 247.9521 1358.292 7894126
1270.3984 246.60123 1350.8918 8090734
1273.6371 245.67615 1345.8242 7959146
1269.6265 243.373 1333.2075 7827304
1272.4875 242.40752 1327.9186 8089962
1276.7239 241.71431 1324.1211 8024426
1269.8148 238.93243 1308.8818 8024425
0 0 0 0
0 0 0 0
0 0 0 0
0 0 0 0
0 0 0 0
0 0 0 0
0 0 0 0
0 0 0 0
0 0 0 0
0 0 0 0
0 0 0 0
-1786.5072 390.79651 2073.2512 5985606
-1665.9742 366.96289 1946.8092 5985861
-1743.5355 386.73517 2051.7048 5986118
-1561.7328 348.85086 1850.7213 5657410
-1692.5259 380.75021 2019.9535 5723203
-1646.0126 372.93375 1978.4857 5591617
-1620.0796 369.70108 1961.3358 5657410
-1580.2875 363.23599 1927.0372 5459775
-1484.9628 343.81873 1824.025 5525823
-1539.6484 359.10379 1905.1151 5262908
-1524.9592 358.31464 1900.9286 5131581
-1469.6498 347.89804 1845.6665 5197374
-1460.2992 348.28601 1847.7246 5131325
-1443.8387 346.97125 1840.7498 4803130
-1438.1971 348.25616 1847.5664 4737337
-1490.5167 363.70413 1929.5208 4408372
-1476.9396 363.18738 1926.7794 4409139
-1466.8984 363.53897 1928.6445 4343090
-1402.1908 350.24136 1858.0981 4408883
-1334.8239 336.06293 1782.8789 4211504
-1442.8484 366.16867 1942.5957 4343090
