# .PCD v0.7 - Point Cloud Data file format
VERSION 0.7
FIELDS x y z rgb
SIZE 4 4 4 4
TYPE F F F U
COUNT 1 1 1 1
WIDTH 1358
HEIGHT 1
VIEWPOINT 0 0 0 1 0 0 0
POINTS 1358
DATA ascii
-1124.5621 -513.28607 1992.788 3162442
-1139.4216 -525.60803 2040.6268 2964036
-1139.2819 -531.20172 2062.344 1976367
-1131.0901 -533.12201 2069.7993 1055006
-1108.9598 -528.44257 2051.6318 263
-1059.0226 -510.26089 1981.0431 261
-1075.8119 -524.18231 2035.0917 5
-1054.2904 -519.54138 2017.0739 4
-1040.2581 -518.52673 2013.1344 4
0 0 0 0
0 0 0 0
0 0 0 0
0 0 0 0
0 0 0 0
0 0 0 0
0 0 0 0
0 0 0 0
-658.1377 -365.96494 1420.8267 131592
-645.87531 -363.81769 1412.4901 460294
-636.15985 -363.06741 1409.5773 658191
-631.34583 -365.13181 1417.592 856343
-618.50537 -362.54724 1407.5577 1053729
-605.67609 -359.89838 1397.2738 1120036
-599.57007 -361.22647 1402.4299 1119779
-587.00293 -358.64438 1392.4053 1382958
-580.50861 -359.75189 1396.7051 1251109
-567.10614 -356.54828 1384.2672 1513763
-567.21008 -361.8671 1404.9171 1448747
-569.21552 -368.57611 1430.9644 2041654
-565.79529 -371.92236 1443.9558 1843762
-554.07312 -369.83038 1435.8339 1842734
-544.69763 -369.26379 1433.6342 1712174
-534.81458 -368.32959 1430.0072 1448487
-526.09192 -368.17728 1429.4158 1512728
-517.61792 -368.19687 1429.4919 1447712
-508.35925 -367.64963 1427.3673 1909035
0 0 0 0
0 0 0 0
-481.37143 -366.49249 1422.8749 9544876
0 0 0 0
0 0 0 0
0 0 0 0
0 0 0 0
0 0 0 0
0 0 0 0
0 0 0 0
0 0 0 0
-946.815 -856.35217 3324.7122 7238508
-942.23309 -870.38574 3379.196 7106922
-918.95953 -867.38843 3367.5591 7304557
-936.95667 -904.0799 3510.0107 7370095
-873.24121 -861.80164 3345.8691 7370352
-872.02216 -880.66748 3419.114 7436401
-864.52759 -893.94519 3470.6636 7436401
-830.47131 -879.73529 3415.4946 7502194
-859.6427 -933.47028 3624.1162 7436401
-801.10333 -892.27631 3464.1843 7436401
-807.64612 -923.31018 3584.6707 7633780
-770.28607 -904.47589 3511.5481 7633780
-750.07336 -905.28735 3514.6985 7699573
-738.38452 -916.72821 3559.1165 7765366
-719.41467 -919.53778 3570.0244 7699573
-696.66608 -917.5415 3562.2742 7765366
-681.14441 -925.23682 3592.1506 7633780
-659.77942 -925.23621 3592.1479 7699060
-635.43488 -920.91724 3575.3801 7830645
-613.65216 -920.14062 3572.365 7830645
-588.36646 -913.86725 3548.009 7896951
-573.03436 -923.16254 3584.0974 7765365
-543.11066 -908.7608 3528.1838 7962744
-525.59387 -914.79553 3551.6133 4739141
-505.63068 -916.89935 3559.7812 7305068
-488.92349 -925.34967 3592.5886 7436652
-465.02386 -920.33752 3573.1294 7370860
-438.53784 -909.48132 3530.9812 7765104
-420.43024 -915.78308 3555.4473 7830897
-398.8002 -914.6734 3551.1389 7830897
-367.276 -889.47766 3453.3186 7633519
-346.04602 -887.70453 3446.4348 7633520
-331.53619 -904.03271 3509.8274 7699313
-310.58267 -903.80389 3508.939 7633520
-288.4939 -900.00043 3494.1724 7633520
-267.98492 -900.91748 3497.7329 7633517
-243.57094 -887.75616 3446.6353 7699311
-223.69699 -890.24384 3456.2935 7699310
-202.80006 -888.75183 3450.501 7633001
-182.3857 -889.27692 3452.5393 7698795
-162.6073 -893.42938 3468.6609 7698795
-143.00705 -899.90955 3493.8196 7633002
-123.91174 -912.31073 3541.9663 7698794
-103.64001 -919.35675 3569.3218 7698795
-83.040131 -926.37195 3596.5576 7698795
-61.689621 -926.97614 3598.9031 7567209
-40.761387 -937.93884 3641.4651 6580314
-19.042093 -934.91974 3629.7437 7896174
2.5148249 -923.47363 3585.3052 5725005
22.712997 -879.8689 3416.0137 5659728
0 0 0 0
57.110054 -793.24188 3079.6919 9739409
75.926453 -798.49786 3100.0977 8489856
94.31353 -798.06702 3098.425 9344907
112.50588 -796.39862 3091.9478 9278857
129.93124 -790.53241 3069.1726 9213066
146.66251 -782.40869 3037.6331 9147273
166.40886 -790.38751 3068.6101 9147271
184.0134 -787.6217 3057.8721 9212552
201.33308 -784.24396 3044.7581 9212552
215.77536 -771.14026 2993.8843 9146249
233.21143 -769.91809 2989.1392 9212298
246.60245 -756.46069 2936.8921 9080455
265.30853 -760.00922 2950.6689 9145735
283.32617 -761.26782 2955.5552 263171
302.61139 -765.58612 2972.3206 0
319.54443 -763.80542 2965.4072 65536
337.04584 -763.49847 2964.2156 65536
354.93759 -764.06226 2966.4045 0
371.78391 -762.42883 2960.0627 0
388.99313 -761.65363 2957.0532 0
406.11905 -760.78943 2953.698 0
423.25919 -760.02246 2950.7202 0
440.10657 -758.81177 2946.0198 2
457.87524 -759.22144 2947.6104 2
474.35214 -757.53796 2941.0745 2
491.81113 -757.48682 2940.876 2
508.78311 -756.7149 2937.8789 2
525.84454 -756.12286 2935.5803 2
542.8175 -755.44568 2932.9514 1
559.80316 -754.82782 2930.5525 0
575.61383 -752.71082 2922.3335 65537
591.88605 -751.30365 2916.8704 2
608.9234 -750.92029 2915.3821 2
625.27106 -749.7312 2910.7654 2
640.1925 -746.94208 2899.937 0
657.97961 -747.55511 2902.3169 4606793
680.93652 -753.86029 2926.7961 7830905
708.71606 -765.05707 2970.2668 8291456
729.61169 -768.45892 2983.4741 8554628
750.72882 -771.92688 2996.9382 8620421
765.38092 -768.74066 2984.5679 8686469
803.74713 -788.97711 3063.1343 8883335
821.9234 -788.93689 3062.978 8751748
852.2038 -800.26489 3106.958 8751748
864.62848 -794.70044 3085.3545 8751749
887.69727 -798.94714 3101.842 8817541
909.55713 -801.95502 3113.52 8817541
937.065 -809.72339 3143.6799 8751748
975.29181 -826.26892 3207.9163 8685954
996.05988 -827.67224 3213.3647 8291196
1018.8821 -830.69751 3225.1099 8553854
1035.1536 -828.36865 3216.0686 6712164
1022.9178 -803.72595 3120.395 8356989
1058.2919 -816.70258 3170.7759 8422782
1077.47 -816.94513 3171.7173 8619904
1095.4788 -816.30768 3169.2429 8356732
1099.0121 -805.08801 3125.6833 6580321
1136.2927 -818.55206 3177.9563 6711908
1153.8533 -817.60223 3174.2688 6843750
1171.7731 -816.93341 3171.6721 6909029
1175.4021 -806.48047 3131.0894 6909029
1175.5319 -793.98999 3082.5962 7106408
1202.351 -799.63318 3104.5054 7106408
1203.321 -788.1745 3060.0181 7106408
1211.015 -781.39587 3033.7007 6974822
1198.1664 -761.75592 2957.4502 6974822
1121.1785 -702.49646 2727.3806 7106408
1123.4529 -693.88245 2693.9375 7040615
1208.1343 -735.69232 2856.2607 7171945
1180.6545 -708.98932 2752.5886 7237995
1184.189 -701.38623 2723.0703 7369580
1165.3802 -680.93317 2643.6631 7434861
1143.8151 -659.43549 2560.2002 7500911
1143.4742 -650.57825 2525.8127 7369325
1174.1467 -659.36688 2559.9338 7435373
1184.6233 -656.73425 2549.7129 7435117
1156.5536 -633.06891 2457.8342 7567474
1160.1309 -627.10083 2434.6638 7500656
1177.6873 -628.7431 2441.0398 8159612
1189.2153 -627.16614 2434.9175 8028283
1160.1698 -604.48706 2346.8677 10659749
1178.0549 -606.50879 2354.717 11121845
1184.1068 -602.4624 2339.0073 13095377
1190.0532 -598.45697 2323.4565 11121337
1204.593 -598.81537 2324.8479 11580601
0 0 0 0
1204.0596 -585.11737 2271.6667 3355962
0 0 0 0
0 0 0 0
1302.7972 -612.48126 2377.9045 9
1308.8624 -608.72455 2363.3193 9
1306.2588 -601.0589 2333.5581 9
1316.4598 -599.38428 2327.0566 9
1325.4998 -597.22144 2318.6597 9
1339.2877 -597.2204 2318.6555 8
1379.5215 -608.89197 2363.9695 8
1304.7178 -570.06519 2213.2278 266
0 0 0 0
0 0 0 0
1217.3461 -516.26447 2004.3512 13422804
1245.1942 -522.95349 2030.3208 13357267
1253.5253 -521.396 2024.274 13357521
1261.8309 -519.85773 2018.302 13225420
1273.3838 -519.67358 2017.587 11516608
1263.6361 -510.88132 1983.4517 10527911
1259.0201 -504.30713 1957.928 10264739
1257.1676 -498.9502 1937.1302 10198176
1249.8372 -491.53625 1908.3462 10066589
1254.7664 -489.03375 1898.6305 9869209
1264.5933 -488.46783 1896.4332 9869463
1220.0292 -467.0882 1813.4288 10000279
1209.052 -458.82941 1781.3647 10000277
1221.9642 -459.70123 1784.7495 9868435
1230.7025 -459.00131 1782.0322 9868689
1229.1498 -454.50806 1764.5875 9934225
1226.7148 -449.76733 1746.1821 10065811
1215.0691 -441.75757 1715.0848 10000276
1179.7686 -425.3526 1651.394 10197654
1192.5967 -426.42755 1655.5675 10658203
1251.7433 -443.91107 1723.4457 9605516
1247.2004 -438.70749 1703.2433 9671562
1253.5692 -437.39511 1698.1481 9934734
1260.5403 -436.31216 1693.9436 10066066
1266.7682 -434.99115 1688.8149 10065551
1272.0944 -433.38379 1682.5743 10460310
1267.0153 -428.28421 1662.7758 9539209
1281.9448 -429.97473 1669.339 10394517
1287.2672 -428.44165 1663.387 10591895
1292.6984 -426.9679 1657.6653 10657175
1302.5446 -426.96371 1657.649 10591380
1310.7556 -426.42761 1655.5676 10591380
1315.9911 -424.93863 1649.7869 10591893
1321.2439 -423.47729 1644.1134 10789015
1331.0828 -423.49658 1644.1881 10656659
1336.3401 -422.06848 1638.6437 10722450
1347.0248 -422.36282 1639.7865 10722450
1355.6641 -422.0162 1638.4407 10722193
1356.181 -419.16406 1627.3677 10722450
1348.4382 -413.81763 1606.6106 10722450
1376.036 -419.31564 1627.9561 10656657
1383.5693 -418.66534 1625.4314 10656657
1363.5383 -409.74106 1590.7836 10656657
1401.0928 -418.12482 1623.3328 10788242
1413.4845 -418.93597 1626.4821 10656657
1407.9452 -414.45779 1609.0958 10787986
1440.5881 -421.20389 1635.287 10985622
1445.9286 -419.93018 1630.342 10919829
1429.7312 -412.46011 1601.3401 10854036
1459.5648 -418.28043 1623.9369 10788243
1462.1105 -416.25549 1616.0752 10919829
1520.4354 -430.03333 1669.5664 10919572
1485.0205 -417.29138 1620.097 10854036
1490.8118 -416.21808 1615.9301 10854036
1488.9016 -413.02216 1603.5222 10854035
1482.1534 -408.53339 1586.0948 10919572
1501.1722 -411.15875 1596.2877 10854036
1479.1162 -402.57178 1562.9495 10788243
1435.5188 -388.26575 1507.4076 10788244
1443.6414 -388.03922 1506.5281 10656659
1422.8253 -380.08496 1475.6464 10656659
1510.3459 -400.99124 1556.8132 10722452
0 0 0 0
0 0 0 0
0 0 0 0
0 0 0 0
0 0 0 0
0 0 0 0
0 0 0 0
0 0 0 0
0 0 0 0
0 0 0 0
0 0 0 0
-1758.3275 -513.4516 2040.5485 2367518
-1660.1366 -488.14795 1939.9874 7303016
-1638.3971 -485.12738 1927.9832 7565928
-1608.879 -479.74475 1906.5916 7829866
-1590.5526 -477.64658 1898.2531 7895403
-1583.8542 -479.03528 1903.7721 7895660
-1563.7474 -476.35944 1893.1377 7698281
-1550.6711 -475.802 1890.9224 7632488
-1533.6346 -474.01239 1883.8102 7632487
-1533.772 -477.54361 1897.8438 7632489
-1523.9788 -478.01227 1899.7063 7566696
-1521.9659 -480.94659 1911.3679 7566696
-1518.8458 -483.57257 1921.804 7698284
-1487.8899 -477.30878 1896.9105 7566697
-1521.1968 -491.72192 1954.191 7566695
-1535.2825 -500.09607 1987.4714 7500903
-1511.8311 -496.27811 1972.2981 7369317
-1504.2314 -497.64471 1977.7291 7369317
-1503.0125 -501.16031 1991.7009 7106145
-1490.7028 -501.00436 1991.0812 6974558
-1478.1783 -500.77322 1990.1625 6777179
-1457.4053 -497.72131 1978.0337 5988176
-1415.4436 -487.32468 1936.7156 5198916
-1406.2085 -488.11737 1939.8658 5198659
-1376.0476 -481.59937 1913.9622 3224620
-1369.5768 -483.3331 1920.8522 2632230
-1361.8342 -484.64337 1926.0594 2106148
-1352.6305 -485.45145 1929.2709 264717
-1372.7247 -496.87817 1974.6829 5265247
-1367.5651 -499.28223 1984.2371 5660521
-1365.3101 -502.79785 1998.2087 5068900
-1333.5544 -495.41568 1968.8707 4740194
-1311.7657 -491.63824 1953.8584 3555921
-1309.9729 -495.35458 1968.6278 4279901
-1301.9373 -496.75595 1974.1971 4740197
-1292.7892 -497.75455 1978.1658 5003369
-1280.4546 -497.53333 1977.2866 5134955
-1265.7616 -496.38312 1972.7155 5135465
-1252.6649 -495.84326 1970.5698 5069929
-1237.7362 -494.56122 1965.4749 4609377
-1231.649 -496.82111 1974.4562 4411227
-1216.9946 -495.63556 1969.7444 3490125
-1210.7242 -497.87451 1978.6426 2437181
-1200.7161 -498.60538 1981.547 2305594
-1184.7057 -496.83347 1974.5052 1911094
-1173.5922 -497.10031 1975.5657 2964039
-1160.1487 -496.37564 1972.6857 4345948
-1148.0393 -496.21283 1972.0387 6056822
-1146.1841 -500.52448 1989.174 4215133
-1128.6792 -498.02078 1979.2239 2372156
-1128.8298 -503.33685 2000.3507 5200485
-1126.7366 -507.75488 2017.9088 5397608
-1132.0217 -515.62885 2049.2014 5200227
-1122.8196 -517.0036 2054.665 3291971
0 0 0 0
-1043.0544 -490.9624 1951.1726 262
-1028.0706 -489.354 1944.7804 5
-1042.8881 -502.05557 1995.2587 4
-1057.5953 -514.99579 2046.6857 5
-1016.4844 -500.74033 1990.0317 5
0 0 0 0
0 0 0 0
0 0 0 0
0 0 0 0
0 0 0 0
0 0 0 0
0 0 0 0
-660.75238 -358.93488 1426.4714 533
0 0 0 0
-642.80029 -358.38617 1424.2909 659230
-633.91083 -358.14978 1423.3514 528414
-624.17419 -357.42184 1420.4585 331547
-616.30389 -357.75735 1421.7919 463388
-608.55133 -358.17151 1423.4377 134935
-604.67181 -360.909 1434.317 266007
-591.95618 -358.37537 1424.2479 594459
-587.21393 -360.66547 1433.3491 264981
-577.52039 -359.9371 1430.4545 659487
-572.39764 -362.07834 1438.9641 659745
-563.55884 -361.89819 1438.2483 791079
-556.31732 -362.75406 1441.6495 791592
-547.83582 -362.81549 1441.8937 989228
-538.82129 -362.52026 1440.7205 1121582
-529.79669 -362.20862 1439.4819 990251
-520.47949 -361.68341 1437.3947 1122091
-511.35519 -361.27695 1435.7793 924969
-502.62704 -361.1413 1435.2402 1253935
-494.41611 -361.37903 1436.1849 6386816
-481.92209 -358.43945 1424.5026 10402754
-473.97006 -358.83334 1426.068 7768968
0 0 0 0
0 0 0 0
0 0 0 0
0 0 0 0
0 0 0 0
0 0 0 0
0 0 0 0
-928.19623 -820.12732 3259.3328 7107691
-966.22998 -871.94293 3465.2576 7173485
-879.64539 -811.10858 3223.491 7304814
-901.3562 -849.64587 3376.6448 7304560
-897.54102 -865.32965 3438.9751 7370353
-869.96252 -858.30017 3411.0386 7436147
-859.43396 -868.15796 3450.2153 7436147
-837.37939 -866.57025 3443.9055 7501940
-815.62708 -865.22363 3438.5535 7436147
-809.24719 -880.53418 3499.4006 7633526
-769.35382 -859.22485 3414.7134 7699574
-762.15253 -874.2608 3474.469 7896952
-754.08417 -889.11249 3533.4924 7699573
-734.95563 -891.40137 3542.5886 7765366
-707.26044 -883.12842 3509.7104 7567986
-691.77551 -890.06238 3537.2671 7633779
-676.08374 -897.15686 3565.4619 7830901
-658.11603 -901.5929 3583.0916 7896438
-633.46661 -896.86578 3564.3054 7830645
-611.77454 -896.14337 3561.4341 7699059
-589.90594 -895.10126 3557.2927 7831158
-570.77307 -898.28717 3569.9541 7699829
-544.61029 -890.22797 3537.9255 7633779
-521.30701 -886.38312 3522.6453 3751993
-510.96045 -905.16913 3597.3042 7304555
-490.17621 -906.29858 3601.7932 7239018
-456.81866 -883.22205 3510.0825 7041893
-444.06549 -899.67975 3575.4883 7830897
-421.76562 -897.47839 3566.74 7699311
-397.06519 -889.66534 3535.6895 7699311
-368.56842 -871.99658 3465.4707 7699311
-346.26407 -867.75317 3448.6064 7633520
-333.05389 -887.20074 3525.8945 7699313
-310.72748 -883.34589 3510.5747 7765106
-289.61548 -882.63684 3507.7568 7765106
-268.65213 -882.30585 3506.4414 7699311
-244.46445 -870.4386 3459.2788 7765104
-226.54836 -880.77283 3500.3491 7567725
-205.92603 -881.61273 3503.687 7698540
-182.57248 -869.63245 3456.075 7764587
-164.57045 -883.33649 3510.5376 7633002
-142.91484 -878.56293 3491.5667 7896174
-124.00424 -891.9101 3544.6106 7764587
-103.771 -899.26312 3573.8328 7698795
-82.707581 -901.35712 3582.1545 7764588
-61.803211 -907.23877 3605.5295 7961967
-40.99472 -921.52618 3662.3101 6711900
-18.940392 -908.45374 3610.3579 7698795
0 0 0 0
22.461636 -850.03943 3378.209 5791311
38.39484 -766.96326 3048.0493 10068115
57.06012 -774.24774 3076.9993 9870995
76.238342 -783.26422 3112.8323 8752514
93.091499 -769.53711 3058.2783 9213066
112.38898 -777.20074 3088.7349 9213067
130.58517 -776.16522 3084.6196 9212811
146.40961 -763.02423 3032.395 9081737
164.57379 -763.62213 3034.7712 9147528
183.56793 -767.5722 3050.4695 9146759
200.27126 -762.09448 3028.7 9146759
213.75159 -746.26843 2965.8044 9015175
232.0327 -748.33838 2974.0308 9212298
245.61295 -736.02814 2925.1077 8751748
265.58456 -743.23254 2953.7393 9211528
282.46439 -741.42737 2946.5652 131842
302.71866 -748.17322 2973.3745 0
319.71149 -746.55853 2966.9573 65536
337.26218 -746.34729 2966.1179 65536
354.68152 -745.88092 2964.2644 0
371.70584 -744.6673 2959.4412 0
388.82751 -743.74963 2955.7942 0
406.06046 -743.11487 2953.2717 0
423.27866 -742.50702 2950.856 0
439.79626 -740.76752 2943.9429 2
457.78156 -741.53864 2947.0073 2
474.42316 -740.15656 2941.5146 2
491.54117 -739.5896 2939.2617 2
508.58313 -738.95117 2936.7241 0
525.70551 -738.46802 2934.8042 0
542.87335 -738.0777 2933.2529 0
559.92035 -737.55261 2931.166 0
576.22229 -736.10736 2925.4224 0
592.7478 -735.02405 2921.1172 0
609.02411 -733.70227 2915.8643 1
625.62335 -732.83197 2912.4055 1
640.88354 -730.48218 2903.0671 2
657.89575 -730.20044 2901.9473 197379
671.32574 -726.05872 2885.4873 8685186
699.80499 -737.99396 2932.9202 8422526
725.875 -746.86975 2968.1941 8685955
740.97955 -744.30939 2958.0188 8685955
763.64288 -749.28436 2977.7903 8817541
789.24084 -756.84808 3007.8499 8817284
814.59387 -763.84674 3035.6638 8949127
846.0918 -776.17914 3084.675 8751748
865.4989 -777.13171 3088.4604 8817541
886.05939 -779.05865 3096.1187 8883334
907.98834 -782.08606 3108.1499 8751748
932.62238 -787.276 3128.7759 8685954
957.35443 -792.34406 3148.9172 8554368
997.63751 -809.84131 3218.4543 8159610
1008.2881 -803.07812 3191.5764 8423039
1025.5598 -801.74103 3186.2625 6909543
1030.6385 -791.09332 3143.9468 8356989
1057.3528 -797.13623 3167.9622 8422782
1077.1946 -797.87708 3170.9065 8488061
1107.1403 -805.94763 3202.9802 8290680
1114.7139 -797.7348 3170.3408 6448476
1137.255 -800.32819 3180.6477 6843234
1147.7415 -794.49237 3157.4548 6777440
1170.4983 -797.20154 3168.2217 6777440
1190.938 -798.27167 3172.4744 6909030
1195.6152 -788.90778 3135.261 6909029
1181.2194 -767.43976 3049.9429 6843236
1186.929 -759.48602 3018.3335 6974822
1230.1979 -775.44446 3081.7554 6974822
1220.4097 -757.98138 3012.3538 6974822
1225.7614 -750.29059 2981.7891 7172201
1214.2844 -732.66534 2911.7432 7237994
1125.858 -669.7594 2661.7439 7106408
1100.1472 -645.3894 2564.8931 7040615
1113.3611 -644.20856 2560.2002 7566959
1128.5881 -644.20856 2560.2002 7369580
1137.7345 -640.78394 2546.5901 7172201
1197.729 -665.71124 2645.6558 7369580
1167.2616 -640.36432 2544.9226 7304043
1143.5825 -619.34277 2461.3792 7369580
1176.9287 -629.34607 2501.134 7435373
1174.4066 -620.159 2464.623 7566960
1174.4683 -612.54602 2434.3677 7764854
1188.1188 -612.11945 2432.6724 8291457
0 0 0 0
1184.7061 -595.84918 2368.0115 10857902
1184.7289 -588.86029 2340.2361 13095374
1198.2693 -588.67438 2339.4976 10200754
1206.5935 -585.95978 2328.709 11383224
0 0 0 0
1250.3615 -593.58759 2359.0234 3421242
981.77808 -460.91031 1831.7401 197385
1275.879 -592.40668 2354.3303 7
1307.2484 -600.38287 2386.0291 9
1320.9744 -600.17151 2385.1892 9
1309.6404 -588.69995 2339.5991 9
1280.5056 -569.55206 2263.502 8
1331.8527 -586.22736 2329.7725 8
1359.0312 -592.03088 2352.8367 9
1308.8831 -564.37372 2242.9224 11
0 0 0 0
0 0 0 0
1207.8839 -505.37219 2008.4396 11386823
1216.9221 -504.16779 2003.6531 13029843
1245.5454 -511.02209 2030.8933 13161171
1254.0369 -509.56439 2025.1002 13226964
1262.1891 -507.99789 2018.8746 12897999
1271.0225 -506.73251 2013.8458 11252921
1264.0758 -499.25827 1984.1417 10462635
1261.6954 -493.70914 1962.0885 9935774
1263.1627 -489.75348 1946.3679 10132380
1264.2252 -485.71411 1930.3149 10000538
1254.6652 -477.70303 1898.4774 9934743
1242.3298 -468.78766 1863.046 9934743
1231.5359 -460.60638 1830.5322 9934742
1230.6586 -456.24487 1813.1989 10000277
1229.3141 -451.78751 1795.4844 9934227
1218.6295 -444.00388 1764.5509 9868689
1213.0436 -438.19495 1741.4651 10000275
1217.8442 -436.20465 1733.5553 9934483
1212.136 -430.5152 1710.9446 10000277
0 0 0 0
1192.0055 -416.37451 1654.7469 10394518
1217.5729 -421.82257 1676.3986 9473416
1244.9567 -427.80637 1700.1792 9671051
1255.3931 -427.91696 1700.6187 9999760
1259.8716 -426.01129 1693.045 10197139
1266.1711 -424.74658 1688.019 10328725
1273.6235 -423.8855 1684.5969 10460311
1273.9388 -420.68106 1671.8619 9078658
1282.4928 -420.22574 1670.0525 10262930
1284.7084 -417.71661 1660.0807 10460309
1291.5667 -416.74374 1656.2142 10591380
1296.7122 -415.23709 1650.2266 10525842
1312.7225 -417.20615 1658.052 10460049
1320.9242 -416.68259 1655.9713 10460048
1327.8356 -415.76282 1652.3158 10591634
1334.9761 -414.92773 1648.9972 10656658
1337.0416 -412.53897 1639.5038 10722450
1345.549 -412.15799 1637.9897 10787986
1350.9058 -410.82443 1632.6898 10722450
1344.3367 -405.90897 1613.155 10590864
1370.9507 -411.01151 1633.4333 10854036
1349.9448 -401.86618 1597.0881 10787987
1382.2769 -408.61594 1623.913 10722194
1392.9498 -408.91379 1625.0967 10722194
1404.1534 -409.36227 1626.879 10854036
1417.2932 -410.36517 1630.8647 10788243
1430.1067 -411.26065 1634.4236 10919829
1444.5345 -412.60513 1639.7667 10919829
1456.2313 -413.15671 1641.9589 10854035
1458.5026 -411.04465 1633.5649 10788243
1467.2068 -410.76144 1632.4396 10788243
1476.1299 -410.54285 1631.5708 10854036
1495.47 -413.20535 1642.1522 10854037
1534.8585 -421.33691 1674.4684 10787989
1520.9457 -414.82602 1648.593 10722195
1499.4688 -406.34875 1614.9028 10919831
1501.1875 -404.22534 1606.4639 10854039
1517.025 -405.9064 1613.1449 10854037
1526.9835 -406.0033 1613.5298 10788243
1432.6313 -378.53741 1504.3755 10722450
1552.9711 -407.78741 1620.6202 10656657
1512.4841 -394.70633 1568.6337 10656656
1515.223 -392.99692 1561.8402 10788242
0 0 0 0
0 0 0 0
0 0 0 0
0 0 0 0
0 0 0 0
0 0 0 0
0 0 0 0
0 0 0 0
0 0 0 0
0 0 0 0
0 0 0 0
-1750.3322 -499.0358 2031.2699 1512726
0 0 0 0
-1630.865 -471.48309 1919.1198 7696997
-1603.26 -466.76929 1899.9327 7763560
-1577.1202 -462.41818 1882.2222 7895404
-1576.9613 -465.67703 1895.4868 7895916
-1565.4945 -465.61951 1895.2528 7500900
-1552.446 -465.08734 1893.0867 7698535
-1542.8898 -465.60129 1895.1786 7500901
-1537.5341 -467.39969 1902.4988 7566438
-1525.2633 -467.10706 1901.3076 7631976
-1536.2727 -473.99277 1929.3352 7500903
-1514.2172 -470.7037 1915.9473 7435110
-1523.0231 -477.03091 1941.7017 7566695
-1511.1531 -476.92944 1941.2886 7303524
-1499.1537 -476.78522 1940.7014 7368804
-1513.683 -485.14127 1974.714 7236962
-1506.7336 -486.69025 1981.0188 7368804
-1502.7415 -489.22632 1991.3417 7039839
-1488.3895 -488.40329 1987.9916 6843231
-1476.7009 -488.44797 1988.1735 6316632
-1458.7092 -486.39166 1979.8035 6053460
-1422.1229 -478.05124 1945.8547 5329480
-1400.4064 -474.61349 1931.8618 4869190
-1375.1129 -469.89658 1912.6621 2829864
-1365.3395 -470.4487 1914.9093 2500645
-1365.8046 -474.56757 1931.6747 2435370
-1359.3566 -476.33383 1938.8643 1119769
-1380.4438 -487.86163 1985.7869 2896954
-1374.3955 -489.91562 1994.1475 5660776
-1361.8705 -489.67661 1993.1746 5661037
-1348.2965 -489.05295 1990.636 5003878
-1323.3455 -484.255 1971.1064 4083033
-1315.2262 -485.58557 1976.5225 4083034
-1303.9264 -485.75531 1977.2134 4477536
-1299.6559 -488.57065 1988.6727 4740708
-1287.9088 -488.60126 1988.7975 4806501
-1266.592 -484.96823 1974.0096 4477535
-1255.4457 -485.19791 1974.9445 4345951
-1231.6189 -480.48489 1955.7607 3951193
-1227.4313 -483.41681 1967.6947 2635075
-1217.9912 -484.31665 1971.3574 2502720
-1210.2367 -485.91071 1977.8458 1713461
-1194.147 -484.15659 1970.7059 2041912
-1184.541 -485.02255 1974.2307 4410204
-1163.2943 -481.09174 1958.2308 5200747
-1147.0432 -479.1683 1950.4016 4674660
-1152.6053 -486.41089 1979.8818 5595762
-1148.6569 -489.74808 1993.4655 5464689
-1141.3956 -491.72769 2001.5232 5859448
-1137.8221 -495.35443 2016.2855 5793652
-1122.7101 -493.98166 2010.6978 5859445
-1128.1385 -501.71423 2042.1722 5793135
-1115.1312 -501.32693 2040.5959 3818829
0 0 0 0
-1045.703 -480.57495 1956.1272 261
-1028.4225 -477.95084 1945.446 5
-1013.9318 -476.57828 1939.8593 4
-1013.54 -481.87741 1961.4288 4
-998.23773 -480.12833 1954.3092 4
-912.9375 -444.27399 1808.3682 4
0 0 0 0
0 0 0 0
0 0 0 0
0 0 0 0
0 0 0 0
0 0 0 0
-662.36993 -351.30878 1429.9635 1043
-653.20453 -350.9538 1428.5187 200986
-645.18243 -351.21188 1429.5691 331033
-637.05286 -351.41757 1430.4064 397338
-628.75763 -351.53616 1430.8892 265753
-616.93811 -349.66061 1423.2549 331804
-612.84039 -352.17023 1433.47 199961
-600.49384 -349.94354 1424.4065 463389
-592.49036 -350.22034 1425.5332 332574
-585.98444 -351.40323 1430.3479 266267
-578.50677 -352.02963 1432.8977 134425
-571.02002 -352.66916 1435.5009 528930
-563.78058 -353.48315 1438.8141 660004
-555.18469 -353.45865 1438.7144 725543
-547.5528 -354.05673 1441.1488 922921
-539.15173 -354.16858 1441.604 791592
-530.22571 -353.93359 1440.6476 989225
-521.93695 -354.12323 1441.4196 989481
-512.89185 -353.79758 1440.0939 792614
-500.85361 -351.36099 1430.1761 1450800
-493.11603 -351.90942 1432.4084 5134441
-482.90271 -350.67929 1427.4012 11124168
-474.91772 -351.05225 1428.9193 7571845
0 0 0 0
0 0 0 0
0 0 0 0
0 0 0 0
0 0 0 0
0 0 0 0
0 0 0 0
0 0 0 0
-963.60651 -849.02173 3455.8491 7239021
-895.59509 -806.29602 3281.939 7239022
-860.42188 -791.88928 3223.2976 7239022
-868.31598 -817.36597 3326.9978 7370608
-854.96539 -823.56641 3352.2361 7370607
-873.58069 -861.59021 3507.0076 7370607
-826.53876 -835.13409 3399.321 7436402
-810.44519 -839.40546 3416.7073 7370608
-825.10114 -876.56409 3567.9573 7567987
-782.59467 -853.35358 3473.4814 7699573
-757.50659 -848.39288 3453.2893 7765366
-743.21729 -855.58698 3482.5723 7699573
-723.33038 -856.565 3486.5532 7765366
-705.75415 -860.41772 3502.2354 7633779
-689.15479 -865.73206 3523.8667 7633779
-671.17633 -869.59296 3539.5818 7699570
-657.5752 -879.5589 3580.1472 7765619
-632.67743 -874.57605 3559.865 7765106
-616.29724 -881.42993 3587.7632 7962228
-590.85864 -875.35553 3563.0378 7765106
-570.03912 -875.92682 3565.3633 7699314
-548.0545 -874.6828 3560.2998 7501934
-524.39551 -870.5592 3543.5151 4146234
-512.16284 -885.8537 3605.7698 7304811
-490.29172 -885.08539 3602.6421 7436653
-461.36542 -870.92859 3545.0186 6910052
-446.14362 -882.52502 3592.2205 7633518
-423.73398 -880.35455 3583.386 7633518
-400.01764 -875.09552 3561.9795 7699311
-369.55087 -853.65497 3474.7083 7830898
-346.52164 -847.87268 3451.1719 7699313
-332.61038 -865.07678 3521.1995 7633520
-310.62335 -862.17755 3509.3984 7699313
-289.49915 -861.42816 3506.3479 7765106
-268.79892 -861.92181 3508.3574 7501932
-243.52664 -846.60406 3446.0083 7633519
-226.84877 -861.09473 3504.991 7567723
-205.5495 -859.2005 3497.2808 7698795
-185.67328 -863.49786 3514.7727 7698795
-164.51813 -862.18329 3509.4216 7764588
-144.58142 -867.7998 3532.2832 7830381
-123.98479 -870.69165 3544.0542 7764588
-103.78795 -878.151 3574.4165 7896174
-82.728973 -880.27966 3583.0811 7764588
-61.830299 -886.18298 3607.1099 7764588
-41.280594 -906.01868 3687.8491 6448985
-19.01955 -890.68787 3625.4465 7699308
2.5310657 -886.51447 3608.4592 5528395
0 0 0 0
0 0 0 0
57.239655 -758.32562 3086.6807 9870993
76.096649 -763.32916 3107.0471 8949891
93.308372 -753.09827 3065.4033 9147528
112.20358 -757.57855 3083.6396 9147271
130.22331 -755.7193 3076.0718 9147527
148.2764 -754.48792 3071.0596 9081479
165.93765 -751.75146 3059.9211 9147015
183.24876 -748.1264 3045.1658 9080966
200.46153 -744.78809 3031.5776 9146759
213.60059 -728.11444 2963.7092 9147015
234.50479 -738.43457 3005.7163 9015174
245.98517 -719.71997 2929.5405 8883333
261.59946 -714.77637 2909.4182 9145735
281.87274 -722.38623 2940.3933 256
302.39816 -729.71558 2970.2266 0
319.63934 -728.74792 2966.2878 0
337.19125 -728.55298 2965.4944 0
354.73468 -728.35999 2964.7087 0
371.75952 -727.17084 2959.8687 0
388.90576 -726.31598 2956.3889 0
406.09079 -725.60449 2953.4927 0
423.1481 -724.73303 2949.9458 0
440.16571 -723.86591 2946.416 1
458.09229 -724.50256 2949.0076 0
474.31506 -722.49713 2940.8447 0
491.18707 -721.58801 2937.1443 0
508.25189 -721.01483 2934.8113 0
525.60199 -720.87109 2934.2261 0
542.65021 -720.33582 2932.0474 0
558.88922 -718.79315 2925.7681 0
575.94379 -718.36084 2924.0083 0
592.89648 -717.83063 2921.8501 0
609.00702 -716.33984 2915.7822 65537
625.5827 -715.46375 2912.2161 65537
641.6925 -714.11633 2906.7317 65538
655.98053 -710.86542 2893.499 256
675.52234 -713.32855 2903.5251 5067086
695.59668 -716.21716 2915.283 7633778
724.99994 -728.33716 2964.616 8357756
736.27472 -722.10211 2939.2368 8685955
762.51599 -730.49426 2973.3962 8817541
792.0863 -741.62286 3018.6938 8949127
811.31531 -742.79041 3023.446 8883334
838.61548 -751.13647 3057.418 8883334
859.29437 -753.32349 3066.3201 8751748
881.93207 -757.1012 3081.6968 8817541
915.07764 -769.56213 3132.4175 8620162
937.96497 -773.0708 3146.6992 8751747
966.85223 -781.29053 3180.157 8620161
991.62964 -785.93774 3199.0725 8685954
1017.7969 -791.49054 3221.6748 8619390
1017.694 -776.78674 3161.8247 6909543
1043.8929 -782.32794 3184.3794 8356989
1057.3824 -778.31647 3168.051 8488574
1076.4307 -778.46545 3168.6577 8488575
1095.1818 -778.39819 3168.3838 8225402
1099.0046 -767.90247 3125.6621 6646114
1144.3749 -786.30322 3200.5603 6777700
1160.0835 -784.05475 3191.4082 6777700
1185.4006 -788.26807 3208.5581 6909029
1174.2041 -768.45184 3127.8982 6843236
1200.5608 -773.44678 3148.2297 6843236
1183.0929 -750.48846 3054.7803 7106408
1222.4207 -763.70776 3108.5881 6843236
1181.8906 -727.38525 2960.7412 6909028
1222.6108 -741.40002 3017.7869 7040615
1232.2869 -736.45612 2997.6633 7040615
1135.2855 -668.80853 2722.311 7172201
1122.2855 -651.85358 2653.2979 7040615
1184.6112 -678.51331 2761.8135 7106408
1126.9886 -636.68036 2591.5369 7303787
1176.9639 -655.94232 2669.9407 7238250
1197.068 -658.26532 2679.3962 7106408
1148.1018 -623.04474 2536.0347 7369580
1136.0076 -608.48749 2476.781 7501166
1143.5861 -604.70544 2461.3867 7566703
1181.3278 -616.76727 2510.4829 7764083
1186.4036 -611.68591 2489.8 7566704
1191.5646 -606.77338 2469.804 7699063
1190.2593 -598.72772 2437.0549 7896698
0 0 0 0
1171.3607 -575.21191 2341.3364 10331814
1184.6824 -574.91895 2340.144 11978958
1195.8031 -573.57721 2334.6826 10201522
1200.3494 -569.14893 2316.6577 10922929
1226.6149 -575.0025 2340.4841 3224376
1252.0389 -580.33466 2362.1882 3421242
0 0 0 0
1295.7231 -587.40033 2390.948 7
1309.9435 -587.40033 2390.948 7
1323.8291 -587.25189 2390.3438 7
1314.0507 -576.7207 2347.4778 8
1282.4307 -556.92578 2266.9048 8
1332.8384 -572.79456 2331.4968 9
1354.3276 -576.03668 2344.6936 8
1367.9161 -575.88647 2344.0823 9
0 0 0 0
0 0 0 0
1207.8087 -493.39615 2008.3146 11320516
1218.3529 -492.82974 2006.0089 13029843
1241.6343 -497.3765 2024.5161 13161172
1253.8872 -497.46066 2024.8585 13226708
1265.509 -497.2952 2024.1851 12503241
1276.65 -496.94565 2022.7623 11055028
1266.8903 -488.54282 1988.5596 10133667
1258.623 -480.86563 1957.3104 9935772
1259.498 -476.79004 1940.7212 9738392
1258.3894 -472.04434 1921.4043 9803673
1258.3794 -467.79245 1904.0975 9869463
1227.1294 -452.10687 1840.251 9803414
1240.0509 -452.82861 1843.1888 9671570
1238.3708 -448.25244 1824.5619 9671569
1214.5842 -435.8233 1773.9706 9868947
1225.9829 -436.12494 1775.1984 9934481
1213.2218 -427.90033 1741.7209 10066067
1220.3478 -426.76974 1737.119 10131861
1208.2021 -418.97519 1705.3921 9934482
1210.2333 -416.18561 1694.0375 10723227
1182.3894 -403.25327 1641.3978 10262932
1226.8962 -415.0058 1689.2352 9539209
1249.1273 -419.09375 1705.8748 9868172
1256.9602 -418.32404 1702.7417 10131344
1259.8888 -415.94745 1693.0681 10262932
1266.6139 -414.85205 1688.6094 10460309
1273.265 -413.74976 1684.1227 10132370
1270.8196 -409.7319 1667.7684 9145476
1274.5287 -407.74518 1659.6818 10526616
1285.895 -408.21988 1661.6139 10460565
1290.7253 -406.62827 1655.1354 10460050
1303.3007 -407.48224 1658.6113 10525842
1338.5885 -415.37115 1690.7224 10525841
1319.16 -406.29031 1653.7598 10460048
1324.825 -405.01523 1648.5696 10591891
1331.7877 -404.15268 1645.0588 10722451
1339.9432 -403.66211 1643.0619 10787986
1347.8392 -403.10098 1640.778 10853779
1356.3892 -402.74203 1639.317 10722450
1365.3225 -402.50134 1638.3372 10722450
1374.7026 -402.39481 1637.9036 10722450
1381.4663 -401.52924 1634.3805 10787986
1394.3361 -402.43826 1638.0803 10722450
1406.547 -403.14569 1640.96 10788243
1415.678 -402.96674 1640.2316 10854036
1425.29 -402.92624 1640.0667 10985622
1423.3201 -399.63431 1626.6672 10985621
1453.4714 -405.34485 1649.9114 10919829
1463.0665 -405.28452 1649.6659 10919572
1467.8003 -403.88733 1643.9786 10788243
1482.324 -405.18457 1649.259 10919829
1451.2012 -394.06967 1604.0171 10854036
1482.9817 -400.06958 1628.439 10919829
1485.1725 -398.06091 1620.2629 10919831
1473.8507 -392.47977 1597.5455 10985623
1484.1031 -392.6785 1598.3544 10919830
1491.0527 -392.00629 1595.6183 10722451
1537.2312 -401.59091 1634.6315 10788243
1489.8152 -386.75781 1574.2549 10787986
1497.8303 -386.41006 1572.8395 10722450
1489.2411 -381.80969 1554.1141 10787986
1564.3169 -398.58362 1622.3906 10722451
1563.6077 -395.96054 1611.7135 10788244
0 0 0 0
0 0 0 0
0 0 0 0
0 0 0 0
0 0 0 0
0 0 0 0
0 0 0 0
0 0 0 0
0 0 0 0
0 0 0 0
0 0 0 0
-1759.6527 -489.54773 2042.0864 2433315
0 0 0 0
-1609.4991 -454.04169 1893.9775 7631462
-1594.3778 -452.94601 1889.4071 7763816
-1588.7113 -454.53989 1896.0555 7895402
-1570.0782 -452.42017 1887.2135 7829867
-1562.4917 -453.47595 1891.6176 7698282
-1554.6427 -454.47031 1895.7654 7829867
-1543.6252 -454.5462 1896.0819 7698282
-1532.1034 -454.47351 1895.7789 7566696
-1526.8666 -456.27805 1903.3062 7566440
-1520.0779 -457.64227 1908.9968 7566696
-1518.7356 -460.67911 1921.6646 7500903
-1521.3718 -464.97791 1939.5966 7369317
-1525.981 -469.95001 1960.3372 7500902
-1514.0424 -469.86328 1959.9753 7303524
-1517.7042 -474.65421 1979.9601 7303525
-1513.6633 -477.09219 1990.1299 7040351
-1495.0652 -474.94415 1981.1696 6908766
-1487.384 -476.25763 1986.6484 6777437
-1468.772 -474.06403 1977.498 6447958
-1452.0143 -472.43832 1970.7168 6250836
-1428.8214 -468.67538 1955.0201 5395526
-1402.1221 -463.69107 1934.2286 5132615
-1374.0148 -458.15479 1911.1346 3093034
-1373.2268 -461.71155 1925.9714 2895400
-1366.28 -463.24002 1932.3472 2040354
-1366.1647 -467.13028 1948.575 1448475
-1376.6133 -474.7301 1980.2765 1383711
-1375.4899 -478.43597 1995.7352 6186860
-1360.9366 -477.49451 1991.8079 5595242
-1349.746 -477.72659 1992.7761 5727854
-1342.0464 -479.20935 1998.9612 4740191
-1329.2443 -478.88031 1997.5887 4017237
-1315.1362 -478.07068 1994.2114 4148825
-1305.5514 -478.90552 1997.6937 4477534
-1291.4214 -478.07309 1994.2214 4543327
-1275.1945 -476.44177 1987.4167 4017239
-1264.7089 -476.94513 1989.5164 3161160
-1235.6041 -470.37003 1962.0891 2174263
-1235.9493 -474.98743 1981.35 2305849
-1219.5803 -473.20844 1973.9293 2503228
-1216.7361 -476.69373 1988.4675 3358538
-1199.0035 -474.35712 1978.7207 4937829
-1179.0073 -471.06973 1965.0079 4938087
-1171.5953 -472.79489 1972.2042 5267052
-1160.672 -473.12369 1973.5757 5332589
-1138.4288 -468.7977 1955.5303 3819605
-1144.1384 -476.01196 1985.6238 5201256
-1139.9025 -479.19577 1998.9047 4609119
-1133.1306 -481.36948 2007.9719 5596012
-1121.3052 -481.41974 2008.1816 4411479
-1123.4467 -487.5322 2033.679 1581353
-1119.1598 -490.95767 2047.9679 2436404
0 0 0 0
-1048.5038 -470.19681 1961.3666 261
-987.15417 -447.66544 1867.3798 5
-1016.9103 -466.40704 1945.558 4
-1006.2889 -466.84772 1947.3964 4
-998.76782 -468.75378 1955.347 4
-912.04871 -433.09659 1806.6077 4
0 0 0 0
0 0 0 0
0 0 0 0
0 0 0 0
0 0 0 0
0 0 0 0
-660.52466 -341.84897 1425.9797 1045
-652.7663 -342.22787 1427.5603 2069
-645.62158 -342.94272 1430.5422 199191
-637.22894 -343.00491 1430.8016 199702
-629.40137 -343.37711 1432.3542 331287
-620.9314 -343.40424 1432.4674 134164
-613.97931 -344.28326 1436.134 331286
-601.66663 -342.13873 1427.1885 199956
-593.2049 -342.15408 1427.2524 594200
-583.29138 -341.32028 1423.7744 198412
-578.02155 -343.21927 1431.6958 724500
-571.36237 -344.33777 1436.3615 461331
-562.60052 -344.20377 1435.8025 724505
-555.49219 -345.09286 1439.5112 1119777
-545.14453 -343.96588 1434.8103 923428
-537.05017 -344.24744 1435.9847 988964
-530.82593 -345.75626 1442.2786 792098
-520.71063 -344.73849 1438.0331 923941
-511.86429 -344.54089 1437.2087 989734
-502.52136 -343.99664 1434.9385 1581360
-491.81598 -342.4848 1428.6321 4475226
-488.13507 -345.89743 1442.8674 10729667
-475.77277 -343.17041 1431.4919 6978172
0 0 0 0
0 0 0 0
0 0 0 0
0 0 0 0
0 0 0 0
0 0 0 0
0 0 0 0
0 0 0 0
-924.79065 -795.09564 3316.6411 7173228
-961.86584 -844.99524 3524.7908 7305071
-879.47479 -789.82928 3294.6731 7370352
-855.83038 -786.11005 3279.1584 7370608
-851.95508 -800.79938 3340.4333 7304815
-858.59338 -826.30829 3446.8408 7436400
-823.26501 -811.68878 3385.8569 7436401
-817.46307 -826.17731 3446.2939 7436401
-788.58112 -817.48492 3410.0352 7502194
-774.99548 -824.60925 3439.7534 7567987
-756.92694 -827.22083 3450.647 7502194
-739.24438 -830.41138 3463.9561 7699573
-721.78027 -834.03735 3479.0815 7699572
-702.35669 -835.54633 3485.376 7633779
-683.50171 -837.84406 3494.9607 7699572
-666.51727 -842.65082 3515.0115 7699826
-651.55719 -850.41107 3547.3821 7765619
-631.27344 -851.5097 3551.9651 7831412
-612.99585 -855.48419 3568.5442 7831157
-598.25439 -864.85559 3607.636 7633778
-571.92969 -857.5564 3577.1882 7699828
-546.60486 -851.25018 3550.8828 7436399
-526.15845 -852.33984 3555.428 3028523
-514.66705 -868.63483 3623.4001 7370348
-493.68777 -869.64069 3627.5962 7436139
-470.4162 -866.51617 3614.5627 6844772
-452.63232 -873.68481 3644.4661 7830896
-424.05975 -859.70264 3586.1406 7699311
-399.79483 -853.43494 3559.9958 7567726
-376.9491 -849.66498 3544.2703 7830899
-354.90097 -847.35278 3534.6252 7699314
-325.20496 -825.33997 3442.8015 7699313
-312.2442 -845.69531 3527.7109 7699313
-290.29141 -842.87427 3515.9436 7765104
-270.29709 -845.74335 3527.9116 7699568
-248.51308 -843.02417 3516.5688 7501930
-227.81189 -843.81604 3519.8718 7633514
-202.9382 -827.74921 3452.8513 7896173
-186.06841 -844.38672 3522.2524 7698795
-165.157 -844.57788 3523.0498 7698795
-144.75285 -847.79541 3536.4714 7830381
-124.97013 -856.36536 3572.22 7830381
-103.89944 -857.8125 3578.2563 7830381
-83.179726 -863.64929 3602.6038 7896173
-61.9468 -866.35883 3613.9065 7896174
-40.371902 -864.62402 3606.6699 6448728
-18.933205 -865.17975 3608.9878 7896174
2.4968848 -853.37091 3559.7288 5725005
0 0 0 0
0 0 0 0
57.361809 -741.54657 3093.2678 9936272
75.546288 -739.46277 3084.5754 8883586
93.311264 -734.8894 3065.4983 9278343
112.11127 -738.63025 3081.1028 9015171
130.33595 -738.06207 3078.7327 9015684
147.45636 -732.15088 3054.075 9147014
165.74269 -732.69049 3056.3259 9212550
183.63252 -731.54395 3051.543 9146759
200.72083 -727.69775 3035.499 9146759
215.00427 -715.15656 2983.1853 9212552
235.42021 -723.37085 3017.45 8949381
245.08006 -699.71228 2918.7612 8817541
267.18756 -712.37128 2971.5669 9342859
281.25903 -703.36346 2933.9917 0
302.12854 -711.4151 2967.5781 0
319.82147 -711.51099 2967.9783 0
337.32358 -711.19446 2966.658 0
354.91098 -711.08044 2966.1821 65536
371.89014 -709.81616 2960.9084 0
388.93549 -708.7868 2956.6147 0
406.08295 -708.02472 2953.4355 0
423.17416 -707.23163 2950.1274 0
440.12222 -706.27209 2946.1248 2
457.89825 -706.66376 2947.7585 0
473.73193 -704.13953 2937.229 0
490.84103 -703.62317 2935.075 0
508.0556 -703.28821 2933.678 0
525.42578 -703.18384 2933.2424 0
542.38287 -702.55109 2930.603 0
558.74561 -701.21173 2925.0161 0
575.70074 -700.67438 2922.7747 0
593.03833 -700.62036 2922.5491 0
608.76965 -698.72565 2914.6458 2
625.89551 -698.49225 2913.6721 2
642.45801 -697.65973 2910.1992 3
657.38269 -695.13892 2899.6841 2
664.11633 -684.30688 2854.4998 658187
688.2594 -691.50653 2884.532 7632758
725.49371 -711.18896 2966.635 8159613
736.12714 -704.47968 2938.6477 8750722
759.31476 -709.81732 2960.9131 8816771
783.24908 -715.59521 2985.0149 8751748
811.13153 -724.6441 3022.7612 8685955
832.76215 -727.83649 3036.0779 8685955
854.77747 -731.22241 3050.2019 8817541
888.04633 -743.89447 3103.0618 8751747
911.87158 -748.3009 3121.4426 8620161
934.03937 -751.19849 3133.5295 8488575
957.33588 -754.87268 3148.856 8554368
988.36285 -764.38452 3188.5334 8356989
996.98175 -756.53442 3155.7878 8487804
1034.354 -770.39008 3213.585 6777958
1043.476 -763.08374 3183.1074 8488576
1055.3293 -757.99963 3161.8997 8422782
1075.6693 -759.08246 3166.4165 8553599
1095.4301 -759.72632 3169.1023 8158840
1114.0277 -759.55536 3168.3892 6645599
1140.835 -764.89429 3190.6599 6842977
1161.2766 -765.86047 3194.6902 6909028
1171.0771 -759.89087 3169.7886 6645856
1183.0691 -755.50964 3151.5129 6711651
1192.2987 -749.52863 3126.564 6777443
1182.1495 -731.73608 3052.3447 6711650
1212.9337 -739.43579 3084.4629 6843236
1202.2585 -722.00793 3011.7649 6974822
1202.337 -711.45496 2967.7444 6909029
1189.9573 -693.9422 2894.6921 6974822
1216.9208 -699.54529 2918.0649 6909029
1200.3531 -680.31897 2837.8645 6974822
1106.1179 -618.21686 2578.8135 7304043
1206.4659 -665.07996 2774.2969 7237994
1174.2462 -638.58478 2663.7756 7172201
1168.4268 -626.961 2615.2886 7106408
1131.2762 -599.05182 2498.8689 7237994
1138.4043 -595.0094 2482.0066 7303787
1142.7687 -589.64453 2459.6277 7632753
1179.2832 -600.79437 2506.1379 7632497
1160.9336 -584.06378 2436.3484 7632497
1191.1061 -591.85626 2468.8535 7699060
1186.6715 -582.47217 2429.709 7962232
0 0 0 0
1173.0042 -562.07416 2344.6213 10002849
1184.748 -561.03192 2340.2739 11517376
1197.6298 -560.54651 2338.249 10332334
1214.5278 -561.93048 2344.022 10988981
1234.0709 -564.49286 2354.7107 2633011
1263.9639 -571.67896 2384.6865 3158329
0 0 0 0
1281.6205 -566.94147 2364.9248 8
1308.3213 -572.47028 2387.9873 8
1328.9182 -575.2381 2399.533 8
1317.0029 -564.02325 2352.7517 9
1325.6288 -561.74884 2343.2644 7
1337.1348 -560.72955 2339.0125 7
1359.8319 -564.37585 2354.2227 7
1390.6008 -571.26385 2382.9551 261
0 0 0 0
0 0 0 0
1207.6072 -481.37128 2007.9794 11189184
1227.0254 -484.32199 2020.2881 12636629
1237.1393 -483.57861 2017.187 12504272
1250.9186 -484.26846 2020.0647 12570320
1264.123 -484.72476 2021.9681 11451330
1265.1598 -480.55078 2004.5569 10529197
1268.296 -477.24469 1990.766 9870238
1260.2319 -469.82425 1959.8124 9869979
1256.4385 -464.11734 1936.0068 9803417
1251.5244 -458.10385 1910.9224 9869463
1245.1306 -451.66187 1884.0504 9672084
1256.5247 -451.72971 1884.3333 9540495
1239.7084 -441.74408 1842.6797 9803155
1233.7257 -435.76001 1817.7179 9803409
1214.7213 -425.32053 1774.1708 9802897
1213.5165 -421.23944 1757.1471 10000275
1207.9745 -415.73544 1734.1879 10000275
1209.9246 -412.88123 1722.2819 10000275
1207.2609 -408.51367 1704.0632 9868689
1194.2875 -400.75943 1671.7172 10395032
1178.3025 -392.13086 1635.7242 9539723
1225.3308 -404.44235 1687.0801 9407623
1249.6716 -409.12613 1706.618 9999760
1250.8823 -406.22308 1694.5082 10065553
1258.4296 -405.40771 1691.1071 10262933
1265.5624 -404.47287 1687.2074 10328723
1272.5536 -403.50778 1683.1818 10394516
1271.8385 -400.13333 1669.1056 9539207
1269.3849 -396.2684 1652.9835 10262930
1285.3458 -398.16727 1660.9043 10460052
1291.8723 -397.13684 1656.6061 10525843
1300.4873 -396.75922 1655.0309 10591636
1310.6548 -396.85736 1655.4403 10657429
1317.0039 -395.80646 1651.0566 10722965
1323.3003 -394.7554 1646.6724 10526100
1331.4941 -394.28171 1644.6962 10525073
1339.5192 -393.7652 1642.5417 10590866
1348.3201 -393.48267 1641.3633 10656915
1358.7468 -393.67523 1642.1665 10657426
1367.6577 -393.42902 1641.1394 10657684
1358.8369 -388.12161 1619.0002 10591891
1381.5925 -391.84454 1634.5299 10591633
1374.592 -387.13501 1614.8848 10723220
1405.8981 -393.2045 1640.2029 10853780
1417.6854 -393.76895 1642.5574 10788243
1426.1095 -393.39792 1641.0096 10854036
1435.8699 -393.39798 1641.01 10853779
1455.5692 -396.10281 1652.2927 10854036
1464.9203 -395.97409 1651.756 10853779
1467.9016 -394.13687 1644.0922 10788243
1475.3583 -393.51761 1641.509 10854036
1478.1956 -391.68246 1633.854 10854036
1485.4224 -391.02686 1631.119 10919829
1489.8987 -389.66034 1625.4189 10788243
1494.2633 -388.2825 1619.6714 10722450
1500.6272 -387.43842 1616.1504 10788243
1500.5072 -384.94174 1605.7358 10722450
1496.0798 -381.37863 1590.8727 10722450
1503.5144 -380.86505 1588.7305 10788243
1499.3082 -377.42755 1574.3914 10722451
1507.6896 -377.18182 1573.3662 10722452
1509.7415 -375.36536 1565.7892 10788246
1513.49 -373.99045 1560.054 10722451
0 0 0 0
0 0 0 0
0 0 0 0
0 0 0 0
0 0 0 0
0 0 0 0
0 0 0 0
0 0 0 0
0 0 0 0
0 0 0 0
0 0 0 0
-1744.1589 -473.19879 2024.1058 1578003
0 0 0 0
-1617.1918 -444.8934 1903.0298 7434597
-1586.4835 -439.52161 1880.0519 7763304
-1589.1296 -443.3797 1896.5549 7829867
-1577.5918 -443.30719 1896.2446 7566694
-1563.2592 -442.4426 1892.5465 7566695
-1549.0474 -441.60001 1888.9423 7566695
-1525.3491 -438.0209 1873.6328 7566694
-1532.1833 -443.22144 1895.8779 7500902
-1525.5194 -444.5654 1901.6268 7435110
-1518.8428 -445.92581 1907.4458 7435110
-1516.783 -448.6723 1919.194 7369317
-1514.1992 -451.30426 1930.4521 7500903
-1509.9475 -453.47552 1939.7399 7369317
-1503.0354 -454.87512 1945.7264 7171938
-1498.9684 -457.16412 1955.5178 7303526
-1507.8958 -463.48303 1982.5468 7237733
-1502.3181 -465.40799 1990.7808 7106147
-1484.7543 -463.62076 1983.136 6842975
-1468.8094 -462.31458 1977.5487 6316631
-1446.1974 -458.87173 1962.8219 5856593
-1418.6094 -453.78119 1941.0472 5724239
-1402.4314 -452.28687 1934.6553 4539967
-1381.9368 -449.3642 1922.1536 3092523
-1375.7225 -451.07504 1929.4717 2763819
-1379.3138 -456.05676 1950.781 2303785
-1378.4471 -459.63657 1966.0935 1382685
-1379.479 -463.91602 1984.3989 461585
-1374.8989 -466.36578 1994.8778 5923947
-1361.502 -465.84152 1992.6353 5726315
-1350.5098 -466.13803 1993.9036 5463914
-1339.6533 -466.48712 1995.3967 5398122
-1324.2668 -465.25092 1990.1088 4280154
-1317.472 -467.03809 1997.7535 4148825
-1305.4685 -466.99448 1997.567 4280156
-1293.5879 -466.99448 1997.567 3884883
-1273.2163 -463.90076 1984.3336 2963781
-1273.0032 -468.16269 2002.5641 2700609
-1249.2863 -463.77966 1983.8157 2635328
-1244.981 -466.58807 1995.8286 2766656
-1229.8451 -465.35242 1990.5432 4542810
-1207.1653 -461.21057 1972.8263 5135204
-1187.6191 -458.19632 1959.933 5003875
-1184.5049 -461.52481 1974.1704 5069926
-1174.9395 -462.38116 1977.8335 5267306
-1149.8927 -457.10077 1955.2467 4543326
-1141.0028 -458.20068 1959.9515 4478046
-1142.097 -463.37418 1982.0812 5925747
-1143.2434 -468.67682 2004.7633 5924977
-1126.5339 -466.69412 1996.2821 5924977
-1120.4539 -469.11951 2006.6569 2898497
-1121.6157 -474.66193 2030.3645 5792875
-1117.3643 -478.00909 2044.682 3621192
-1108.3252 -479.35934 2050.4575 4
-1058.998 -463.12076 1980.9972 7
-1027.1639 -454.25299 1943.0653 5
-1011.166 -452.26642 1934.5677 4
-1000.049 -452.44238 1935.3206 4
0 0 0 0
0 0 0 0
0 0 0 0
0 0 0 0
0 0 0 0
0 0 0 0
-676.99274 -333.12476 1424.9398 9875642
-672.73438 -335.22586 1433.9274 8694450
-661.09747 -333.65695 1427.2163 272
-653.99298 -334.36453 1430.2429 2069
-646.42303 -334.84964 1432.318 199188
-637.77539 -334.78201 1432.0287 199445
-630.53668 -335.46213 1434.9379 265494
-620.39941 -334.59766 1431.2401 396821
-610.88422 -334.04929 1428.8944 265494
-602.16785 -333.92838 1428.3773 265748
-592.51324 -333.27637 1425.5883 1580321
-585.41003 -334.06131 1428.9459 10793914
-579.46222 -335.53842 1435.2643 11123137
-572.14075 -336.25235 1438.3181 11057858
-564.77618 -336.96231 1441.3549 10663101
-555.52618 -336.55191 1439.5994 9808306
-547.36938 -336.80127 1440.6661 397079
-536.98486 -335.66605 1435.8102 660769
-528.1601 -335.48489 1435.0353 726305
-519.72058 -335.54651 1435.2988 923684
-511.03305 -335.44739 1434.8748 1121064
-500.66895 -334.22568 1429.6489 857637
0 0 0 0
-487.7984 -337.08328 1441.8723 10598850
-476.45029 -335.13309 1433.5304 6650233
0 0 0 0
0 0 0 0
0 0 0 0
0 0 0 0
0 0 0 0
0 0 0 0
0 0 0 0
0 0 0 0
-903.38824 -757.42542 3239.884 7041898
-915.73224 -784.50867 3355.7324 7173228
-924.4967 -809.6637 3463.3335 7304815
-830.31982 -743.7561 3181.4138 7304815
-841.46631 -771.3175 3299.3076 7370608
-838.19666 -786.66528 3364.9578 7370607
-836.70856 -804.47681 3441.1465 7370607
-800.80084 -789.25812 3376.0483 7436400
-787.72522 -796.33826 3406.3337 7370608
-768.98657 -797.9162 3413.0833 7633779
-751.86377 -801.30176 3427.5649 7633780
-730.33929 -800.05414 3422.2285 7436401
-716.73285 -807.65765 3454.7522 7567986
-701.94733 -814.34192 3483.3445 7502193
-682.8595 -816.28992 3491.677 7699573
-665.24603 -820.17786 3508.3074 7765366
-648.9541 -825.99951 3533.2097 7765366
-629.2774 -827.75861 3540.7341 7831157
-610.89319 -831.39838 3556.3035 7699826
-594.02521 -837.43695 3582.1331 7634033
-572.51703 -837.13971 3580.8618 7634290
-546.44946 -829.89526 3549.8735 7568240
-528.16388 -834.36188 3568.9795 3160107
-516.3772 -849.89911 3635.4399 7304554
-493.59302 -847.90265 3626.9001 7501934
-471.24631 -846.50946 3620.9409 6778211
-448.34616 -843.94116 3609.9548 7830899
-424.33087 -838.90985 3588.4336 7765106
-401.36496 -835.53021 3573.9771 7830899
-378.7323 -832.505 3561.0369 7830897
