# .PCD v0.7 - Point Cloud Data file format
VERSION 0.7
FIELDS x y z rgb
SIZE 4 4 4 4
TYPE F F F U
COUNT 1 1 1 1
WIDTH 1368
HEIGHT 1
VIEWPOINT 0 0 0 1 0 0 0
POINTS 1368
DATA ascii
21.583771 761.19055 1713.4697 2430987
31.711855 759.68451 1710.0796 2694415
41.511833 752.95862 1694.9393 2497036
52.042351 759.52277 1709.7156 2430730
61.66576 752.86646 1694.7319 2562059
72.211258 757.75635 1705.7393 2693902
81.517815 750.04205 1688.3741 2825488
92.036591 753.95032 1697.1718 2496523
102.59216 757.3576 1704.8417 2364937
112.71398 757.23792 1704.5723 2562316
122.6498 755.99158 1701.7667 2562829
132.69122 755.5365 1700.7423 2299657
143.11107 757.14795 1704.3698 2431243
154.02287 760.97687 1712.9888 2431241
163.82158 759.17242 1708.9269 2299398
174.30087 760.54852 1712.0245 1838593
184.23776 759.5365 1709.7465 2759694
194.79477 761.05322 1713.1606 2562315
204.86493 760.61157 1712.1665 2825488
214.73845 759.5163 1709.7009 2693902
224.90172 759.49847 1709.6609 2430730
234.22313 756.76227 1703.5015 2562317
244.58475 757.47443 1705.1046 2825232
252.84712 751.88739 1692.5281 2298630
264.86554 757.46985 1705.0944 2496009
274.62531 756.41931 1702.7296 2758924
285.09341 757.32526 1704.7689 2561802
293.44055 752.72833 1694.421 2562059
302.52347 750.26141 1688.8678 2496523
314.43018 754.73096 1698.9291 2299143
323.18808 751.59943 1691.8798 2430473
334.98621 755.51379 1700.6912 2693645
345.44312 756.26245 1702.3763 2496009
356.09464 757.38232 1704.8973 2824974
363.67368 752.08624 1692.9757 2693388
377.96356 760.57996 1712.0952 2693388
390.85907 765.89557 1724.0609 2824974
402.73199 768.98688 1731.0197 2890767
410.49371 764.26971 1720.401 2759181
420.30191 763.49957 1718.6675 2562057
428.51663 759.94006 1710.6549 3153939
438.69086 759.94006 1710.6549 3088402
447.08081 756.91925 1703.855 2956814
457.79996 757.88837 1706.0365 2628106
468.57791 758.91064 1708.3376 2298886
478.73831 758.91064 1708.3376 3351316
488.30496 757.98895 1706.2628 3219473
497.96494 757.2467 1704.592 2759179
509.36905 759.13336 1708.839 2693131
520.97699 761.24408 1713.5903 2627594
531.21198 761.30615 1713.7301 2824974
540.2442 759.67468 1710.0575 2496009
551.53113 761.21527 1713.5255 2430215
549.05103 744.04376 1674.8717 2364937
558.47656 743.33057 1673.2662 2299145
576.0271 753.26733 1695.6343 2299144
585.68097 752.71338 1694.3875 1904133
593.05701 749.30029 1686.7043 2101769
595.07269 739.34082 1664.2853 1378562
601.64032 735.2702 1655.1221 1116421
605.45154 728.0163 1638.7932 196608
610.4873 722.44135 1626.2438 66050
617.16748 718.95587 1618.3978 592396
615.73901 706.27649 1589.8561 790804
615.96582 695.85065 1566.3871 923161
629.52118 700.56824 1577.0066 725785
633.31714 694.44604 1563.2252 1055004
0 0 0 0
639.90613 681.65692 1534.4365 857110
648.05212 680.62756 1532.1193 790802
0 0 0 0
0 0 0 0
599.57874 604.22906 1360.1433 1
609.87659 606.42493 1365.0863 65538
610.10626 598.68341 1347.6598 65538
605.78485 586.73462 1320.7627 590852
617.20276 590.14105 1328.4307 786432
614.89221 580.50067 1306.7299 1114112
618.79932 576.89764 1298.6193 2426885
624.34192 574.8894 1294.0986 1376256
627.62109 570.87128 1285.0537 917504
632.52765 568.41229 1279.5184 458752
637.19299 565.79761 1273.6326 459265
641.97131 563.34338 1268.1082 0
652.78229 566.17865 1274.4904 1052175
658.12592 564.26117 1270.174 0
663.01483 562.00171 1265.0879 0
670.21313 561.72858 1264.473 592393
677.54474 561.57202 1264.1206 2
685.81323 562.18689 1265.5048 2
697.3374 565.42828 1272.8011 131075
708.93842 568.66156 1280.0795 2
729.52722 578.95905 1303.2595 2
729.00629 572.4632 1288.6371 2
737.28101 572.93756 1289.705 2
749.48315 576.42279 1297.5503 2
750.96307 571.67456 1286.8619 1
760.7193 573.25903 1290.4286 4
769.79443 574.30365 1292.7802 65540
776.01434 573.21857 1290.3375 196612
785.47803 574.52734 1293.2836 196613
794.77637 575.69104 1295.9031 262148
803.091 576.12659 1296.8835 393220
811.08807 576.32825 1297.3375 720896
817.42957 575.36078 1295.1597 786432
824.82959 575.14948 1294.6841 851968
831.51605 574.44916 1293.1075 851968
840.40143 575.26685 1294.9482 851968
846.33044 574.06445 1292.2416 851968
842.76483 566.50134 1275.2168 655360
848.21094 565.07678 1272.01 393216
844.39984 557.56482 1255.1003 262144
851.56079 557.36597 1254.6527 196608
855.22552 554.90204 1249.1063 196608
881.14301 566.79474 1275.8772 65536
903.50189 576.21472 1297.0819 65536
911.76086 576.55908 1297.8571 65536
912.26215 572.03314 1287.6691 0
897.9317 558.3598 1256.8899 0
930.41205 573.78027 1291.6018 0
939.58557 574.69257 1293.6555 1
946.52051 574.23206 1292.6189 2
926.94824 557.82715 1255.6908 2
934.42731 557.83362 1255.7053 4
942.5683 558.23193 1256.6019 4
949.63275 557.99146 1256.0607 4
981.93817 572.47028 1288.653 3
963.94824 557.62964 1255.2462 4
998.7207 573.30481 1290.5316 4
1005.9962 573.07697 1290.0188 4
1014.0764 573.30743 1290.5376 2
1021.9618 573.42523 1290.8026 2
1029.4934 573.34418 1290.6202 65538
1037.3895 573.46588 1290.8942 65538
1044.8154 573.3277 1290.5831 4
1046.1569 569.8772 1282.8159 196612
1041.564 563.26733 1267.9369 196612
1067.7426 573.27393 1290.462 131075
1061.045 565.61218 1273.2153 196609
0 0 0 0
1098.4021 577.28619 1299.4939 1051398
1148.2406 599.26306 1348.9647 4669499
1148.3884 595.18158 1339.7771 5063999
1217.9932 626.90613 1411.1902 5195842
1209.8201 618.43774 1392.1276 5459013
1221.849 620.34119 1396.4124 5590598
1223.4177 616.94409 1388.7654 5722440
1242.9025 622.56665 1401.422 5788493
1265.0079 629.41833 1416.8453 7104609
1264.4373 624.97119 1406.8347 8222577
1264.5413 620.9137 1397.7012 7827561
1263.0864 616.14893 1386.9755 7630437
1263.0288 612.12311 1377.9132 7104350
1265.1643 609.2052 1371.3448 7103837
1266.8174 606.09387 1364.3412 6643286
1270.5475 604.00958 1359.6493 6709079
1273.6455 601.65308 1354.3447 6709080
1273.3864 597.75024 1345.5592 5261892
1271.2676 593.02869 1334.9309 4801598
1279.9266 593.3623 1335.6818 5393992
1276.6005 588.16974 1323.9932 6380630
1284.9241 588.37543 1324.4561 3419173
0 0 0 0
0 0 0 0
0 0 0 0
0 0 0 0
0 0 0 0
0 0 0 0
0 0 0 0
0 0 0 0
0 0 0 0
0 0 0 0
0 0 0 0
0 0 0 0
0 0 0 0
0 0 0 0
0 0 0 0
0 0 0 0
-1394.182 754.41785 1675.7885 789768
-1383.4426 753.99689 1674.8533 1250318
-1371.2788 752.78772 1672.1674 921352
-1369.4745 757.28949 1682.1672 1250317
-1368.9175 762.55237 1693.8577 1118731
-1368.9318 768.21387 1706.4336 1316109
-1374.1614 776.90851 1725.7469 1184522
-1372.7977 781.97833 1737.0085 0
-1361.3309 781.32642 1735.5604 131072
-1349.2302 780.29797 1733.276 131072
-1336.3823 778.81818 1729.9889 196608
-1322.6587 776.80109 1725.5083 328192
-1303.0325 771.25879 1713.1973 393728
-1302.7448 777.16571 1726.3182 459520
-1253.2594 753.58392 1673.936 525312
-1243.5538 753.73572 1674.2732 328192
-1233.3761 753.6012 1673.9745 657408
-1211.9 746.50519 1658.212 393728
-1227.3462 762.22266 1693.1252 393216
-1100.9006 689.35162 1531.2568 655616
-1169.594 738.47437 1640.3732 655360
-1004.1683 639.35895 1420.208 1641216
0 0 0 0
-990.40173 641.38391 1424.7062 2758912
-982.18677 641.5528 1425.0813 2628096
-971.9436 640.38824 1422.4945 1904640
-961.46271 639.04535 1419.5115 1378560
-982.30463 658.68201 1463.1304 918272
-1037.6268 701.99707 1559.3461 524288
-1066.8724 728.2923 1617.7557 524288
-1055.3123 726.95697 1614.7896 458752
-1005.4334 698.95868 1552.597 393216
-992.72992 696.52454 1547.1899 393216
-991.23169 701.98022 1559.3087 393216
-1017.0218 727.04681 1614.9893 393216
-1006.4008 726.31378 1613.3608 393216
-999.10999 727.9931 1617.0912 393216
-990.82001 728.96997 1619.2611 458752
-986.27063 732.745 1627.6466 589824
-978.9682 734.52936 1631.6101 852736
-982.97009 744.91608 1654.6821 1773056
-975.08679 746.41486 1658.0114 1772800
-966.32214 747.26282 1659.8949 1115904
-958.68408 749.00836 1663.7723 721408
-950.35138 750.24194 1666.5126 524288
-937.04114 747.53082 1660.4902 458752
-922.86652 744.06488 1652.7914 458752
-893.65643 728.27142 1617.7094 393216
-876.63409 722.1745 1604.1663 393216
-870.44232 724.96381 1610.3622 393216
-859.73608 724.01349 1608.2512 458752
-849.185 723.17389 1606.3862 458752
-838.10266 721.85754 1603.4623 458752
-827.44366 720.87976 1601.2903 458752
-816.4231 719.56061 1598.36 458752
-806.24878 718.96497 1597.0369 458752
-794.66467 717.08276 1592.8561 458752
-783.86835 715.87482 1590.1729 458752
-777.28271 718.52979 1596.0703 458752
-763.83734 714.83069 1587.8535 393216
-747.7135 708.5011 1573.7935 393216
-736.08081 706.32043 1568.9496 393216
-722.29218 701.98853 1559.3271 393216
-707.92834 696.97754 1548.1963 458752
-698.61865 696.8761 1547.9709 458752
-687.15137 694.591 1542.895 458752
-677.0954 693.68988 1540.8934 458752
-667.05042 692.77551 1538.8623 458752
-657.47034 692.3252 1537.8621 458752
-645.25671 689.04999 1530.5868 458752
-633.02161 685.65771 1523.0515 458752
-630.68427 693.04327 1539.4572 458752
-620.15411 691.51105 1536.0536 458752
-607.47394 687.49969 1527.1432 458752
-597.72418 686.73334 1525.4409 458752
-588.36353 686.39734 1524.6946 458752
-587.24591 695.81793 1545.6204 458752
-577.03339 694.59027 1542.8934 458752
-565.40784 691.5946 1536.2391 458752
-557.63715 693.29309 1540.012 655360
-520.21002 657.56165 1460.6417 786432
0 0 0 0
-483.80444 632.6745 1405.36 4469522
-491.52008 654.06427 1452.873 4600335
-482.04559 652.93536 1450.3654 4600339
-474.72836 654.7406 1454.3754 3219718
-467.41412 656.61707 1458.5435 1509888
-474.48517 679.15485 1508.6067 655360
-480.74973 701.3847 1557.986 720896
-467.65408 695.68805 1545.3319 721152
-496.80219 753.86505 1674.5605 2956806
-490.36755 759.3233 1686.6849 2693377
-484.92822 766.58295 1702.8108 2430464
-473.27072 764.11279 1697.3237 918272
-463.65283 764.89972 1699.0718 1312768
-453.02386 764.0166 1697.1101 984576
-443.23077 764.53503 1698.2617 918784
-433.03445 764.36591 1697.8861 985088
-422.66806 763.88135 1696.8097 1116672
-411.97668 762.7713 1694.344 1182464
-401.30194 761.63727 1691.8248 984832
-390.68411 760.5556 1689.4222 1116416
-378.18246 755.65277 1678.5316 1116416
-366.85156 752.88684 1672.3876 1116416
-367.29214 774.79846 1721.0599 853248
-352.86444 765.70282 1700.8557 984832
-342.34979 764.81201 1698.8771 984832
-331.26819 762.56207 1693.8793 1445379
-318.05225 755.10364 1677.3118 1182208
-310.34589 760.66638 1689.6683 1182209
-299.45819 758.54291 1684.9514 1445122
-291.28949 763.39819 1695.7365 1445122
-280.56433 761.66162 1691.879 1576965
-272.19705 766.43494 1702.4821 1445122
-261.88147 765.87946 1701.248 1642245
-252.7084 768.75476 1707.635 1444866
-242.48935 768.55566 1707.1927 1313281
-232.75836 769.95367 1710.2982 1773829
-222.64539 770.1582 1710.7524 1905415
-212.36168 769.76343 1709.8755 1971209
-202.65385 771.5213 1713.7803 1839623
-192.32332 770.96912 1712.5538 2102795
-181.48056 768.18707 1706.374 1773829
-171.01642 766.77295 1703.2328 1971208
-160.96709 767.15771 1704.0875 1839107
-150.87309 767.367 1704.5524 2365194
-140.52182 766.20367 1701.9683 1904899
-130.51469 766.8819 1703.4747 2233607
-120.41736 767.09949 1703.9583 2168071
-110.24491 766.83478 1703.3701 2233864
-100.11735 766.86017 1703.4265 2036485
-89.906898 766.18494 1701.9266 2168073
-79.995758 768.21271 1706.431 2168071
-69.78569 767.54199 1704.9412 2168070
-59.686172 768.06586 1706.1047 2430730
-49.729088 771.0127 1712.6505 2430730
-39.584663 771.82477 1714.4545 2364937
-29.359119 771.06995 1712.7778 2232837
-19.138477 769.71033 1709.7577 2825231
-8.9789562 770.51288 1711.5403 2628109
1.2091767 776.07001 1723.8844 2364680
11.3142 766.05829 1701.6453 2496523
21.416977 765.42041 1700.2284 2430473
31.277187 759.30304 1686.6399 2364937
41.277451 758.73114 1685.3695 2430473
52.0923 770.43011 1711.3566 2364681
61.289097 758.28571 1684.3801 2562316
71.593224 761.3291 1691.1404 2233352
81.445999 759.41418 1686.8868 2496524
91.498772 759.57965 1687.2543 2825490
100.77858 753.92975 1674.7042 2825488
110.73727 753.91815 1674.6785 2496522
120.41103 752.12872 1670.7036 2430730
133.34613 769.4306 1709.1364 1773059
142.13754 762.06531 1692.7756 2496523
152.12465 761.66083 1691.8773 2496523
162.24162 761.91656 1692.4453 2562317
172.97249 764.85693 1698.9768 2430730
183.68089 767.37878 1704.5786 2759694
194.03447 768.23212 1706.474 2364937
203.63976 766.18512 1701.9271 2628109
213.97151 766.93579 1703.5946 2496524
223.35541 764.37494 1697.9061 2430730
232.81679 762.28925 1693.2732 2561802
243.8463 765.29803 1699.9565 2430216
253.63963 764.34204 1697.833 2430216
262.12408 759.66595 1687.446 2759182
273.41208 763.15997 1695.2074 2496009
281.76431 758.50262 1684.8619 2890767
291.61368 758.05701 1683.8721 2496266
300.96939 756.40027 1680.192 2496264
309.3139 752.39032 1671.2847 2430984
320.84723 756.14526 1679.6255 2299143
330.72647 755.89288 1679.0649 3088660
343.35846 761.76239 1692.1029 2956303
353.43158 761.78241 1692.1473 2890767
363.20096 761.16461 1690.775 2561802
371.2355 757.04248 1681.6185 2561801
383.76886 762.07013 1692.7864 2693388
397.66675 769.4809 1709.248 2824715
405.67886 765.41748 1700.2219 2692873
417.80383 769.1228 1708.4525 2890252
425.86502 765.34882 1700.0695 2889995
433.87399 761.65833 1691.8717 2890765
444.67538 762.92603 1694.6877 2759179
452.69269 759.46686 1687.0038 3219730
462.18149 758.57269 1685.0177 2890765
469.92151 754.90723 1676.8755 2628107
482.22418 758.57159 1685.0151 2891535
493.04684 759.80579 1687.7567 2956816
503.34409 760.19727 1688.6263 2759181
513.34967 760.14172 1688.5028 2693645
524.4231 761.63898 1691.8287 2430730
537.51392 765.95465 1701.4152 2430730
545.42621 762.86786 1694.5585 2364937
552.13708 758.24323 1684.2858 2496523
552.57971 745.32867 1655.5986 2101765
573.1698 759.56561 1687.2233 2364938
578.32861 753.21521 1673.1169 2496524
584.3429 748.17474 1661.9207 1970184
592.43817 745.92218 1656.917 1708297
598.05713 740.67645 1645.2646 1314313
604.83411 737.01068 1637.1219 591363
610.12109 731.67432 1625.2682 0
617.11469 728.51904 1618.2594 1
621.32593 722.2265 1604.2817 3
0 0 0 0
632.15131 712.91376 1583.5955 66053
624.33411 693.76141 1541.0522 263688
0 0 0 0
602.7218 650.64233 1445.272 132102
0 0 0 0
0 0 0 0
598.87817 619.96771 1377.1344 3
593.96698 606.58759 1347.4131 131074
604.8371 609.46576 1353.8064 196610
601.88269 598.521 1329.4948 196610
607.94788 596.71301 1325.4786 196610
612.59882 593.58093 1318.5214 1643028
613.1817 586.63611 1303.0948 2168858
618.14709 584.00513 1297.2506 919304
625.02008 583.21893 1295.5043 655361
627.59637 578.49152 1285.0032 458753
632.01392 575.5545 1278.4792 458752
635.07257 571.46454 1269.3943 1117198
640.48743 569.56598 1265.177 65536
648.12897 569.6687 1265.4052 65537
656.31659 570.24353 1266.682 262915
661.44031 568.1734 1262.0836 0
667.30389 566.77814 1258.9843 197379
675.12659 567.05939 1259.609 0
685.92572 569.80695 1265.7123 0
694.24597 570.45807 1267.1586 0
701.20068 569.98517 1266.108 0
711.54401 572.24756 1271.1335 0
716.45721 570.14111 1266.4546 0
729.60968 574.56702 1276.2858 2
738.59491 575.65387 1278.7 2
745.31915 574.97424 1277.1904 2
753.92371 575.74438 1278.901 4
767.77777 580.46783 1289.3933 65541
773.29309 578.8559 1285.8127 196613
779.83203 578.0343 1283.9875 196613
788.25531 578.61169 1285.2703 262149
794.45404 577.56091 1282.9362 458756
802.59326 577.92731 1283.75 393218
809.57404 577.46051 1282.7131 458754
817.59821 577.73981 1283.3335 458752
824.6405 577.32642 1282.4153 458752
832.48877 577.47974 1282.7559 458752
838.42322 576.31476 1280.1681 327680
846.51587 576.64093 1280.8926 393216
833.64111 562.80579 1250.1605 262144
839.12494 561.49988 1247.2598 262144
841.48645 558.146 1239.8097 131072
872.05054 573.39404 1273.6803 0
864.00836 563.21362 1251.0665 0
893.56232 577.50531 1282.8126 65536
877.56769 562.36627 1249.1843 65536
884.33093 561.94293 1248.2439 0
888.61755 559.96588 1243.8523 0
898.67773 561.6297 1247.5481 0
902.55731 559.4353 1242.6737 0
910.8158 559.96869 1243.8585 1
921.00885 561.67334 1247.645 2
926.61627 560.57648 1245.2086 2
960.1853 576.27893 1280.0884 4
942.95941 561.48828 1247.234 4
975.03699 576.05731 1279.5962 3
958.27222 561.76788 1247.855 3
991.5271 576.79565 1281.2362 4
998.24463 576.27448 1280.0786 5
1007.1185 576.99664 1281.6827 65541
1012.4711 575.70587 1278.8154 65541
1021.4606 576.48669 1280.5499 131076
1030.6051 577.3429 1282.4519 196612
1037.4143 576.88788 1281.4412 196610
1046.3263 577.60028 1283.0236 196609
1054.4651 577.8786 1283.6418 196608
1064.9973 579.45526 1287.144 196610
1078.4841 582.60547 1294.1416 196609
1080.5793 579.60083 1287.4674 196610
1091.283 581.22333 1291.0714 131073
1095.5609 579.42468 1287.0762 131072
1125.9498 591.36493 1313.599 65536
1128.9941 588.87769 1308.0741 2564894
1171.738 606.99005 1348.307 4867645
1180.8685 607.56183 1349.5771 5261632
1217.5223 622.19116 1382.0732 4998461
1226.2717 622.4599 1382.6702 5525061
1234.1235 622.27252 1382.2539 5459781
1251.5811 626.89886 1392.5305 5327942
1254.1249 624.04358 1386.188 6380630
1258.8734 622.31537 1382.3492 7564904
1265.7046 621.63251 1380.8324 7696490
1264.1062 616.84509 1370.198 7696230
1263.3958 612.54944 1360.6561 7498338
1269.9756 611.82068 1359.0374 6643285
1276.682 611.16174 1357.5736 6840665
1262.9331 600.7804 1334.5135 6840665
1277.3617 603.84918 1341.3302 6577493
1281.149 601.88049 1336.9573 6445907
1280.3584 597.79877 1327.8905 5458755
1286.9783 597.20581 1326.5734 4011566
0 0 0 0
0 0 0 0
0 0 0 0
0 0 0 0
0 0 0 0
0 0 0 0
0 0 0 0
0 0 0 0
0 0 0 0
0 0 0 0
0 0 0 0
0 0 0 0
0 0 0 0
0 0 0 0
0 0 0 0
0 0 0 0
-1390.9059 762.58856 1671.8507 1053193
-1382.9784 763.70172 1674.2911 1052938
-1374.1414 764.3252 1675.6581 1381902
-1375.8239 770.85175 1689.9664 1579280
-1375.2355 776.19257 1701.6753 1711123
-1381.5784 785.55365 1722.198 263425
-1376.597 788.56769 1728.8057 196608
-1356.9878 783.18457 1717.0042 196608
-1350.6265 785.42383 1721.9133 196608
-1342.915 786.90619 1725.1631 196608
-1326.3667 783.19342 1717.0234 262400
-1309.11 779.00134 1707.8331 328448
-1285.2004 770.75403 1689.7522 328192
-1283.6096 775.867 1700.9615 393984
-1236.3802 753.25635 1651.3914 262656
-1264.5607 776.59424 1702.5559 459776
-1185.4591 733.89294 1608.9403 459264
-1210.172 755.289 1655.8477 853248
-1195.6582 752.35327 1649.4115 655872
-1131.4434 717.83643 1573.739 720896
0 0 0 0
0 0 0 0
0 0 0 0
-990.35992 649.83002 1424.646 3088134
-982.63031 650.32208 1425.7249 2627842
-976.98389 652.21338 1429.8712 2167298
-961.9837 647.83881 1420.2806 1509632
-960.11005 652.30487 1430.0718 1049600
-1020.6553 699.6377 1533.8412 458752
-937.94135 648.73743 1422.2507 458752
-1045.6442 729.81317 1599.996 393216
-1002.6923 706.26215 1548.3643 393216
-972.03094 691.01172 1514.9302 393216
-981.24554 704.08881 1543.5996 393216
-1008.349 730.37024 1601.2173 393216
-994.6543 727.32001 1594.5302 393216
-992.92163 733.04218 1607.0751 393216
-982.67493 732.52893 1605.9498 458752
-976.82526 735.31549 1612.059 458752
-970.21649 737.58026 1617.024 590592
-977.40125 750.48138 1645.3077 1839616
-959.2265 743.97479 1631.0431 1181440
-969.16199 759.36023 1664.7731 1379072
-957.05457 757.61377 1660.9443 655360
-947.11395 757.56421 1660.8356 524288
-936.49719 756.96692 1659.5262 458752
-899.24463 734.59802 1610.4861 458752
-886.64984 732.10748 1605.0259 458752
-873.24316 728.88495 1597.9611 458752
-868.72675 733.09381 1607.1884 458752
-857.94849 732.05334 1604.9072 458752
-847.70239 731.44861 1603.5815 458752
-836.73291 730.19885 1600.8416 458752
-826.36554 729.4519 1599.204 458752
-813.74048 726.67133 1593.108 458752
-802.81476 725.3606 1590.2345 458752
-791.14172 723.33551 1585.7948 458752
-781.46045 723.10437 1585.2881 458752
-775.49725 726.35016 1592.4041 458752
-762.51044 723.01636 1585.0951 458752
-751.08667 721.09973 1580.8932 458752
-734.51459 714.12909 1565.6112 458752
-722.32446 711.29449 1559.3969 458752
-707.00684 705.2663 1546.181 458752
-695.65601 703.0885 1541.4065 458752
-685.18237 701.75079 1538.4739 458752
-674.39111 700.0473 1534.7393 458752
-666.34766 701.18848 1537.2411 458752
-656.48004 700.41516 1535.5457 393216
-642.98602 695.69629 1525.2004 393216
-631.44476 692.9856 1519.2576 458752
-620.21271 690.54041 1513.8969 393216
-611.51306 690.88422 1514.6506 458752
-602.5954 690.98834 1514.8789 458752
-592.59735 689.83789 1512.3568 458752
-589.2934 696.5647 1527.1042 393216
-577.63037 693.46674 1520.3124 393216
-575.25323 701.59552 1538.1335 393216
-565.16498 700.43042 1535.5792 458752
-553.98438 697.85101 1529.9242 524288
-519.68695 665.57898 1459.1731 655360
0 0 0 0
-492.68283 652.79675 1431.1501 4666135
-488.67227 658.86566 1444.4553 4664849
-480.78345 659.82941 1446.568 4796436
-474.93799 663.68353 1455.0176 3482121
-468.2634 666.50061 1461.1936 1575936
-476.71625 691.36292 1515.7002 786432
-475.19302 702.43701 1539.9783 720896
-466.2916 702.82532 1540.8296 786688
-501.49673 771.04236 1690.3843 2167042
-489.31076 767.6969 1683.0498 1772032
-481.82166 771.73468 1691.9021 1377792
-471.2774 770.9469 1690.1749 1444096
-461.43909 771.30469 1690.9595 1181440
-451.04703 770.7323 1689.7046 1181696
-441.14185 770.98468 1690.2579 1050112
-431.44528 771.62195 1691.655 1379841
-420.78604 770.52686 1689.2542 1182208
-409.30377 767.83429 1683.3511 984832
-404.51297 777.87427 1705.3621 1313793
-391.03253 771.29071 1690.9288 1182208
-375.23514 759.66901 1665.4501 1182208
-364.0842 757.07898 1659.7719 1182208
-354.31921 757.30676 1660.2712 1116416
-344.28229 756.94971 1659.4885 919040
-339.15796 767.69153 1683.0381 1116160
-328.65305 766.53699 1680.5071 1248002
-314.78299 757.21527 1660.0707 1445379
-304.84085 757.04449 1659.6963 1248001
-296.52695 761.04114 1668.4583 1642758
-286.6037 761.04114 1668.4583 1445380
-277.59091 763.54541 1673.9485 1313794
-268.61349 766.33691 1680.0684 1445380
-259.29425 768.3313 1684.4408 1707781
-249.3335 768.50867 1684.8296 1642243
-239.23047 768.24402 1684.2494 1839622
-230.00645 770.90234 1690.0774 1576450
-219.37291 768.86353 1685.6075 1773828
-209.62352 769.87665 1687.8286 1970693
-199.86513 770.95685 1690.1969 2168073
-188.91118 767.29572 1682.1703 1904901
-178.62416 766.08527 1679.5167 2102025
-168.68759 766.32349 1680.0389 1707522
-158.84464 767.04376 1681.618 2102280
-148.19754 763.7168 1674.3242 2102280
-138.23941 763.7168 1674.3242 2036232
-128.93011 767.57971 1682.793 1904902
-118.53279 765.06995 1677.2908 1773316
-108.98119 768.05933 1683.8445 1970695
-99.130966 769.33624 1686.6439 2168073
-88.882782 767.46448 1682.5403 2036487
-78.960968 768.29327 1684.3573 2168073
-69.052826 769.51526 1687.0364 2233865
-59.162392 771.38379 1691.1328 2365450
-48.996552 769.69122 1687.4221 2233864
-38.943821 769.36133 1686.699 2234121
-28.777712 765.78534 1678.8591 2167815
-18.901518 770.22339 1688.5887 2562315
-8.803257 765.41583 1678.0491 2562569
1.178268 766.22308 1679.8188 2694156
11.149392 764.87262 1676.8582 2759949
21.085823 763.5412 1673.9392 2365191
30.983616 762.11334 1670.809 2760206
40.781647 759.52106 1665.1257 2562570
50.715504 759.97711 1666.1256 2825998
60.905617 763.49652 1673.8412 2168070
70.839149 763.26239 1673.328 2825744
80.43486 759.89453 1665.9445 2693902
90.379906 760.20367 1666.6222 2562317
100.1641 759.23248 1664.493 2364939
109.02212 752.04712 1648.7404 2628111
121.50482 768.98779 1685.88 2693904
129.28635 755.86066 1657.101 2891282
139.15273 755.91876 1657.2283 2759695
149.61053 758.96942 1663.9163 2628364
159.69551 759.86749 1665.8853 2430984
171.13889 766.74664 1680.9667 2628362
181.25253 767.23767 1682.0432 2496777
192.03584 770.36383 1688.8967 2628363
201.42294 767.85663 1683.4 2562313
210.92607 766.00806 1679.3474 2562570
221.03641 766.43237 1680.2776 3022867
231.7135 768.69989 1685.2489 2496522
240.8459 765.86755 1679.0394 2628109
249.09306 760.55786 1667.3987 2693902
260.03271 763.56097 1673.9825 2562316
269.5386 762.28772 1671.1912 2364423
278.11972 758.58264 1663.0685 2824974
287.35541 756.85614 1659.2833 2430216
297.20114 756.79773 1659.1553 2101251
305.69186 753.40356 1651.7141 2299144
316.57846 755.94171 1657.2786 2233351
327.03574 757.3324 1660.3275 2496522
338.92151 761.8526 1670.2373 2693902
348.92203 761.99829 1670.5566 2035974
359.19479 762.71393 1672.1256 2496523
368.0163 760.39246 1667.0361 2627596
379.19418 762.93384 1672.6077 2693388
389.8143 764.25165 1675.4968 2561800
402.37305 769.2099 1686.3669 3088144
410.74936 766.12592 1679.6058 2627336
417.40005 760.0462 1666.277 2824715
427.3103 760.0462 1666.277 2561543
439.97525 764.83478 1676.7753 3022351
449.85233 764.67224 1676.4188 2759179
457.0694 760.09326 1666.3801 2693386
465.64157 757.91425 1661.603 2561800
476.24829 759.0686 1664.1338 2891535
487.19171 760.70166 1667.714 2562316
499.35458 764.13556 1675.2423 2496267
506.1431 759.37201 1664.799 2496523
515.20483 758.13635 1662.09 2891281
527.05127 760.96765 1668.2972 2562316
538.39471 762.98169 1672.7126 2430730
547.04626 761.17706 1668.7562 2496523
556.97131 761.17706 1668.7562 2299143
561.96997 754.56238 1654.2546 2429962
571.53192 754.1972 1653.454 2232583
578.66052 750.6875 1645.7595 2101767
588.44879 750.6875 1645.7595 2233613
596.85266 748.95038 1641.9512 1642505
606.04333 748.24054 1640.395 985607
608.02368 738.79218 1619.681 0
615.34564 736.02771 1613.6204 2
621.38055 731.83234 1604.4227 4
619.98364 719.14343 1576.6044 4
631.22797 721.27722 1581.2823 4
0 0 0 0
0 0 0 0
0 0 0 0
0 0 0 0
636.17853 676.53503 1483.1924 2
576.51544 604.70227 1325.7108 2
589.11743 609.58344 1336.412 65538
595.42731 607.91052 1332.7444 1
610.42786 615.03796 1348.3701 196609
606.14685 602.80524 1321.5519 196608
606.69769 595.62946 1305.8202 393474
611.06793 592.33734 1298.6028 919047
616.93341 590.55878 1294.7035 458752
620.24152 586.40613 1285.5995 655360
625.3194 584.00757 1280.3411 524288
630.70667 581.95209 1275.8348 458752
634.04065 578.07355 1267.3317 393988
640.59882 577.1911 1265.3971 131074
646.74371 575.96118 1262.7007 0
656.58746 578.01562 1267.2047 328965
659.8938 574.33374 1259.1328 0
666.34644 573.44202 1257.1779 0
671.71161 571.64471 1253.2375 131586
681.97205 574.00714 1258.4167 0
689.82172 574.31116 1259.0833 0
694.76447 572.21442 1254.4866 328968
705.81769 575.14148 1260.9037 1
712.55371 574.52612 1259.5546 0
722.27771 576.30762 1263.4602 2
730.88763 577.17261 1265.3566 1
739.88916 578.32611 1267.8855 4
748.28027 578.98407 1269.3279 5
758.39575 580.94977 1273.6373 6
765.7453 580.77875 1273.2625 6
771.97815 579.77246 1271.0563 196613
779.84198 579.9986 1271.5521 196612
787.10028 579.77448 1271.0608 262146
792.44293 578.15698 1267.5146 393218
799.66766 577.93011 1267.0172 327680
807.94202 578.45905 1268.1768 458752
813.9787 577.39081 1265.8348 458752
820.39355 576.60803 1264.1188 327680
829.87347 577.97418 1267.1138 393216
835.98254 576.98914 1264.9543 262144
845.01306 578.02008 1267.2145 196608
835.00793 566.12677 1241.1404 196608
834.95502 561.13037 1230.1865 196608
867.38257 577.8595 1266.8624 65536
872.96613 576.5708 1264.0372 65536
866.06354 567.12775 1243.3348 0
892.71545 579.63123 1270.7466 0
875.81702 563.88538 1236.2264 0
880.56763 562.22406 1232.5844 0
888.4411 562.56763 1233.3375 65536
921.99841 579.03558 1269.4409 0
902.14185 561.96344 1232.0129 65536
908.44196 561.32867 1230.6213 65538
919.93188 563.88519 1236.2261 65538
951.69171 578.72729 1268.765 65540
934.66357 563.90125 1236.2614 4
941.73846 563.73499 1235.8967 5
949.46826 563.96021 1236.3905 5
983.98694 579.97162 1271.4929 5
965.98303 565.01758 1238.7086 4
998.12183 579.39716 1270.2335 65541
1005.9232 579.53918 1270.5449 65541
1015.2746 580.56549 1272.7949 65540
1021.2311 579.64972 1270.7871 65540
1030.4346 580.57678 1272.8196 65540
1037.4805 580.28345 1272.1766 65540
1045.0603 580.29102 1272.1931 65538
1056.0015 582.15143 1276.2719 65538
1067.5406 584.31262 1281.0099 2
1074.0111 583.68848 1279.6416 2
1084.5984 585.29474 1283.1631 65538
1091.1332 584.70697 1281.8744 65538
1099.9878 585.36182 1283.3101 196610
1124.139 594.09174 1302.449 196608
1135.6743 596.08038 1306.8088 0
1151.22 600.13269 1315.6927 525314
1175.407 608.60455 1334.266 3617578
1223.2417 629.12506 1379.2538 5393989
1221.451 624.01929 1368.0603 5196867
1230.6575 624.56226 1369.2506 5328199
1234.9456 622.61841 1364.989 5328455
1240.5254 621.34692 1362.2015 4999747
1255.8026 624.9176 1370.0297 5460041
1261.7759 623.84222 1367.6721 7630697
1262.5508 620.22693 1359.7461 8025455
1270.2635 620.04413 1359.3455 7695974
1271.5182 616.73126 1352.0825 7037787
1275.5712 614.8089 1347.8679 6905945
1275.9751 611.16266 1339.8741 6511700
1276.0873 607.42273 1331.675 6577493
1284.2223 607.52435 1331.8978 6380114
1288.7692 605.93774 1328.4194 6380113
0 0 0 0
0 0 0 0
0 0 0 0
0 0 0 0
0 0 0 0
0 0 0 0
0 0 0 0
0 0 0 0
0 0 0 0
0 0 0 0
0 0 0 0
0 0 0 0
0 0 0 0
0 0 0 0
0 0 0 0
0 0 0 0
-1394.2152 774.37 1675.8285 921351
-1392.6467 779.0683 1685.9961 1381902
-1386.4042 781.20105 1690.6116 1579535
-1375.6006 780.77618 1689.6921 789253
-1375.2823 786.34021 1701.7333 131840
-1371.4509 789.96313 1709.5737 65536
-1363.2413 791.09949 1712.033 196608
-1353.7671 791.51349 1712.929 196608
-1342.9512 791.14343 1712.1281 657152
-1331.7333 790.52917 1710.7987 393728
-1317.5464 788.12933 1705.6052 262656
-1299.2817 783.23413 1695.0115 525312
-1276.5594 775.5542 1678.3911 459776
-1257.8302 770.1983 1666.8003 393728
-1255.9355 775.14734 1677.5106 196608
-1245.9585 775.14734 1677.5106 524800
-1218.6647 764.28711 1654.0078 722176
-1162.2786 734.85638 1590.3163 393472
-1175.9231 749.58325 1622.187 458752
-1136.9614 730.74286 1581.4142 720896
0 0 0 0
0 0 0 0
0 0 0 0
-988.86243 657.30774 1422.4918 2824964
-982.00256 658.3808 1424.8141 2562049
-972.8891 657.94843 1423.8783 2233344
-960.74335 655.43982 1418.4493 1378560
-960.54028 661.10645 1430.7126 1049856
-972.36719 675.22821 1461.2738 655360
-1050.7482 736.23779 1593.3058 458752
-1030.1923 728.40381 1576.3522 458752
-1008.8568 719.86975 1557.8834 393216
-993.99115 715.83679 1549.1556 393216
-1024.6639 744.83032 1611.901 393216
-1003.6246 736.42694 1593.7151 393216
-1001.0487 741.54022 1604.7809 393216
-987.1037 738.24921 1597.6587 393216
-987.2998 745.57288 1613.5081 393216
-976.44647 744.61444 1611.4338 458752
-974.21985 750.28064 1623.6962 656640
-979.19025 761.65857 1648.3193 1247744
-953.29364 749.01398 1620.955 1510400
-963.78265 764.9917 1655.5327 1577216
-955.36304 766.13586 1658.0088 458752
-942.85944 763.99463 1653.3749 458752
-906.30066 742.11108 1606.0164 393216
-894.58954 740.32416 1602.1492 393216
-881.35553 737.22491 1595.442 393216
-877.09625 741.64703 1605.012 393216
-868.17285 742.17914 1606.1636 393216
-857.47198 741.18677 1604.016 393216
-846.79468 740.19257 1601.8644 393216
-834.61707 737.84943 1596.7936 393216
-822.20312 735.24103 1591.1487 393216
-813.56738 735.98975 1592.769 393216
-799.68445 731.95349 1584.0341 458752
-787.21552 729.13055 1577.9248 458752
-783.78333 734.71039 1590.0004 458752
-774.78302 735.14343 1590.9374 393216
-761.52423 731.49652 1583.045 393216
-750.70984 730.13568 1580.1001 393216
-733.2901 722.23456 1563.0012 458752
-722.8526 721.09589 1560.537 458752
-710.71222 718.20679 1554.2845 458752
-693.73364 710.28778 1537.147 458752
-684.11163 709.79004 1536.0698 458752
-672.60175 707.29358 1530.6671 458752
-665.53973 709.47003 1535.3772 458752
-654.19507 707.07819 1530.201 393216
-642.98615 704.7677 1525.2008 393216
-630.20502 700.64313 1516.2747 393216
-620.14948 699.47302 1513.7424 393216
-611.99445 700.4436 1515.843 393216
-600.91656 698.04791 1510.6584 393216
-601.00439 708.74695 1533.8124 458752
-591.51569 708.30829 1532.863 458752
-578.73596 703.85345 1523.2223 458752
-574.07361 709.28625 1534.9795 393216
-563.75836 707.79742 1531.7574 458752
-545.51318 696.14008 1506.5295 655360
-520.56793 675.40051 1461.6467 720896
0 0 0 0
-491.06857 659.14178 1426.4609 4535058
-488.31039 666.96246 1443.3857 4533774
-477.23657 663.50165 1435.8961 4600081
-471.8866 668.0177 1445.6694 3416070
-466.61795 672.81854 1456.0591 1838080
-475.53857 698.64746 1511.9559 720896
-475.7493 712.42908 1541.781 1180928
-473.23322 722.58881 1563.7678 983808
-490.55933 764.06067 1653.5178 1181440
-485.86325 772.22754 1671.1918 1312768
-474.30023 769.5932 1665.4908 1312768
-467.36633 774.51782 1676.1483 1049856
-458.50293 776.38995 1680.1998 1050368
-450.18213 779.28473 1686.4645 1313536
-438.88071 777.0343 1681.5942 1576961
-427.35339 774.26959 1675.6111 1379840
-416.23105 772.12408 1670.968 1576962
-407.72943 774.85419 1676.8762 1576963
-396.09848 771.625 1669.8879 1116416
-381.69739 762.69452 1650.5613 1050880
-373.41037 765.83197 1657.3511 1248256
-361.26227 761.0061 1646.9073 1248000
-351.54288 761.16992 1647.2618 1445376
-344.28702 766.8302 1659.5114 1313792
-333.35657 764.39862 1654.2491 1313794
-326.09232 770.48151 1667.4133 1510915
-315.20218 768.11017 1662.2814 1511172
-302.54233 761.13293 1647.1819 1313793
-293.77066 763.7981 1652.9496 1248004
-284.57339 765.50281 1656.6388 1445380
-275.14111 766.67499 1659.1755 1379586
-265.6524 767.7713 1661.5481 1642758
-256.01242 768.49823 1663.1212 1576708
-246.40077 769.37201 1665.0122 1511170
-237.00397 771.01794 1668.5742 1642243
-226.47173 768.95258 1664.1044 1905416
-216.52541 768.77863 1663.728 1905415
-206.75352 769.23712 1664.7202 1773829
-196.81895 769.10596 1664.4364 2102537
-186.75177 768.41534 1662.9418 2168587
-176.76794 768.00946 1662.0635 1707011
-166.92508 768.20435 1662.4852 2167816
-155.92432 762.75946 1650.7019 2299659
-147.51477 770.11053 1666.6105 2102025
-136.91748 766.27661 1658.3134 1904646
-127.28346 767.65704 1661.3008 1970437
-117.50517 768.32642 1662.7494 2102280
-107.58396 768.09863 1662.2563 2299659
-97.874092 769.48615 1665.2592 2168073
-87.538834 765.71576 1657.0996 2102280
-77.925797 768.10748 1662.2756 2102279
-68.104012 768.83771 1663.856 2365449
-58.232437 769.15857 1664.5503 2364680
-48.26944 768.15607 1662.3807 2430473
-38.402756 768.56451 1663.2646 2364937
-28.459122 767.18219 1660.2731 2956817
-18.534878 765.13123 1655.8346 2562315
-8.8301573 777.7655 1683.1768 2430984
1.163337 766.37775 1658.5322 2299144
11.023681 766.10938 1657.9514 2628108
20.81797 763.67133 1652.6752 2694157
30.601301 762.52405 1650.1924 2628363
40.473873 763.61774 1652.5592 2628106
50.321503 763.9054 1653.1818 2825741
59.936817 761.14874 1647.2161 2365191
69.88269 762.77478 1650.735 2759949
79.54084 761.24658 1647.4277 2628109
89.669464 764.06238 1653.5215 2233351
99.252396 762.13135 1649.3425 2496523
107.89738 753.99329 1631.7308 2759695
117.97807 756.4032 1636.9462 2562316
127.40564 754.57764 1632.9954 2430473
137.18481 754.9455 1633.7915 2759693
147.0009 755.45441 1634.8928 2824972
158.48692 763.94971 1653.2776 2759949
168.36577 764.15796 1653.7284 2365193
178.89636 767.13812 1660.1777 2562057
188.49852 766.03339 1657.787 2561799
199.3784 769.9729 1666.3126 2496263
208.65553 767.64282 1661.27 2956558
218.35841 767.01892 1659.9198 2496265
228.64731 768.41846 1662.9486 2956559
238.6985 768.93622 1664.0691 2430214
248.01248 767.13245 1660.1655 3153938
257.66119 766.46252 1658.7157 2693388
266.31989 763.00562 1651.2345 2496266
275.19873 760.40283 1645.6018 2364937
284.63675 759.47089 1643.585 2628109
292.98059 755.77826 1635.5936 2562316
305.0798 761.69904 1648.407 2628108
311.54422 753.62073 1630.9246 2496523
322.79123 757.24994 1638.7786 2891281
333.54529 759.54382 1643.7428 2693645
345.3562 764.04517 1653.4843 2628109
354.19046 761.89423 1648.8293 2693902
364.68701 763.33862 1651.9552 2561545
374.4895 763.29254 1651.8555 2430216
385.37262 765.39508 1656.4056 2693129
397.21802 769.25641 1664.762 2429958
405.90619 766.96423 1659.8015 2693130
414.26309 764.16986 1653.7542 2890764
423.50848 763.10608 1651.4519 3022351
434.12671 764.50806 1654.486 2956301
443.99792 764.56158 1654.6018 2956559
454.56934 765.79236 1657.2654 2956559
461.35516 760.72882 1646.3073 3022352
471.93762 762.00592 1649.0712 2824972
483.93018 765.46149 1656.5493 3153937
491.69693 762.22821 1649.5522 2561800
504.52301 766.8111 1659.4701 2562316
510.82434 761.49164 1647.9581 2759438
520.41553 761.1842 1647.2928 2430729
529.33984 759.93091 1644.5804 2167559
538.78339 759.4549 1643.5504 2364680
549.80188 761.17633 1647.2758 2233351
559.51788 761.0658 1647.0366 2364938
563.63379 753.47284 1630.6045 2167560
575.45502 756.263 1636.6427 2167561
581.31702 751.25903 1625.8136 1379331
588.79749 748.47626 1619.7913 1510663
597.92883 747.84778 1618.4313 1380621
603.36707 742.69336 1607.2764 985866
612.23029 741.84985 1605.451 0
609.74017 727.48651 1574.3669 3
622.85095 731.88965 1583.8959 4
626.95544 725.73627 1570.5793 4
623.19012 710.7876 1538.2285 4
0 0 0 0
0 0 0 0
0 0 0 0
661.30573 712.42596 1541.7742 2
601.4306 639.06104 1383.0038 2
598.80652 627.68823 1358.3916 2
605.61212 626.37103 1355.541 2
605.91254 618.44867 1338.3962 2
616.06226 620.6546 1343.17 0
612.87524 609.53979 1319.1163 131073
614.17102 603.10803 1305.1973 196609
619.20447 600.46136 1299.4696 328196
621.71014 595.45892 1288.6437 196609
624.64441 590.98383 1278.959 393216
632.07355 590.81787 1278.5999 327680
634.66309 586.18597 1268.5758 262144
641.31006 585.36633 1266.802 525319
645.72443 582.55151 1260.7106 65537
651.26422 580.80505 1256.9309 394502
655.64453 578.07593 1251.0248 1
663.04297 578.03918 1250.9453 1
670.25446 577.84216 1250.5189 526343
677.92773 578.04315 1250.9539 0
685.93433 578.52094 1251.9878 0
692.52576 577.80774 1250.4443 2
701.2713 578.88782 1252.7819 2
706.97974 577.46454 1249.7017 1
714.10272 577.21423 1249.1599 2
721.43726 577.13831 1248.9956 2
731.68549 579.37109 1253.8276 1
739.41382 579.58356 1254.2875 4
747.69574 580.22144 1255.668 65540
759.71802 583.72058 1263.2405 65540
766.61615 583.25262 1262.2278 65539
771.91589 581.58942 1258.6284 131076
779.38446 581.5766 1258.6007 196610
785.43542 580.5163 1256.306 196611
793.0141 580.59442 1256.4751 131074
797.74225 578.60364 1252.1667 131075
811.96271 583.47076 1262.6998 196610
800.0744 569.659 1232.8096 196610
826.02301 582.7937 1261.2346 262145
815.65265 570.29797 1234.1924 196608
828.83557 574.34656 1242.954 196608
853.43982 586.16809 1268.5372 196608
835.26691 568.65924 1230.646 65536
849.27063 573.17053 1240.4089 65536
853.16766 570.84186 1235.3694 65536
875.86963 581.02765 1257.4127 65536
884.51721 581.79663 1259.0768 65536
889.9762 580.47296 1256.2123 65536
890.5545 576.01447 1246.5636 65536
886.2168 568.47614 1230.2498 65536
894.20001 568.90002 1231.1671 0
916.87872 578.59052 1252.1384 196608
912.19067 570.99438 1235.6995 65536
916.11365 568.86676 1231.095 65536
920.31177 566.94226 1226.9303 65538
955.61719 584.06055 1263.9762 65537
958.0423 580.97241 1257.2931 65540
964.06757 580.09833 1255.4016 65541
950.31781 567.43024 1227.9862 4
958.02753 567.6709 1228.5071 5
967.86469 569.159 1231.7275 4
1003.3417 585.58917 1267.2843 65540
1009.7207 584.91821 1265.8323 65540
1017.5077 585.06677 1266.1538 65540
1026.7322 586.03363 1268.2462 65540
1035.5033 586.72961 1269.7523 65540
1042.9543 586.67279 1269.6294 65538
1050.7411 586.80432 1269.9141 65538
1059.7332 587.60236 1271.6411 65538
1071.5155 589.92523 1276.6681 65538
1079.108 589.92499 1276.6675 65538
1085.0004 589.00171 1274.6694 65538
1092.3094 588.8551 1274.3522 65538
1103.7921 590.94482 1278.8746 65538
1108.9528 589.64453 1276.0605 65536
1121.4652 592.24438 1281.687 65536
1127.5853 591.45612 1279.9811 65536
1139.4236 593.65765 1284.7455 0
0 0 0 0
1209.4652 621.81061 1345.6718 4999234
1214.7548 620.4245 1342.6721 4801855
1233.1471 625.70496 1354.0996 5196868
1237.8297 624.00562 1350.422 5131077
1260.9375 631.55664 1366.7633 5328455
1262.2793 628.17896 1359.4537 6051666
1256.9781 621.55951 1345.1284 7564133
1268.7524 623.41394 1349.1416 7761767
1273.965 622.04108 1346.1707 7695974
1271.2791 616.85297 1334.9429 7564131
1279.1404 616.81525 1334.8612 7366753
1282.0759 614.41724 1329.6718 6774872
1286.7327 612.86859 1326.3202 6643286
0 0 0 0
0 0 0 0
0 0 0 0
0 0 0 0
0 0 0 0
0 0 0 0
0 0 0 0
0 0 0 0
0 0 0 0
0 0 0 0
0 0 0 0
0 0 0 0
0 0 0 0
0 0 0 0
0 0 0 0
-1391.4038 777.1994 1660.5779 1118471
-1384.6403 778.95062 1664.3196 1447436
-1387.0586 785.92957 1679.2308 1644559
-1367.1223 780.2514 1667.099 65792
-1358.2883 780.87305 1668.427 196608
-1360.3234 787.79822 1683.2235 196608
-1358.1178 792.35205 1692.9534 328192
-1350.2775 793.66205 1695.7522 327936
-1341.3041 794.32062 1697.1594 459520
-1332.0914 794.8465 1698.2831 656896
-1313.2354 789.5824 1687.0355 656896
-1297.4974 786.12622 1679.6511 262400
-1280.9165 782.10187 1671.0525 459008
-1249.6233 768.96124 1642.9761 524800
-1224.6259 759.51819 1622.7999 393472
-1238.0703 773.9563 1653.6487 459008
-1232.5049 776.64679 1659.3972 524800
-1209.3311 768.1955 1641.34 459008
0 0 0 0
-1150.0886 742.55127 1586.5481 458752
-1117.6235 727.55969 1554.5168 524288
0 0 0 0
0 0 0 0
0 0 0 0
-988.63513 665.61505 1422.1648 2759429
-981.22101 666.32422 1423.6801 2759171
-974.98993 667.85608 1426.953 2233602
-963.85382 666.02545 1423.0416 1181184
-963.12042 671.41431 1434.5557 852480
-1042.6661 733.36432 1566.9191 458752
-1044.507 741.28461 1583.8418 458752
-1009.8636 723.22076 1545.2462 458752
-1006.0541 727.10974 1553.5555 393216
-986.53137 719.60907 1537.5294 393216
-977.83667 719.94025 1538.2371 393216
-1016.0123 755.1123 1613.3862 393216
-983.15021 737.65552 1576.0878 393216
-974.73895 738.3847 1577.6459 393216
-980.85034 750.23627 1602.968 393216
-973.12616 751.63397 1605.9543 458752
-965.59637 753.211 1609.3239 458752
-964.97241 760.26038 1624.3857 589824
-945.88708 752.76038 1608.3611 655360
-937.47064 753.68445 1610.3354 589824
-941.09821 764.41028 1633.2524 524288
-916.69983 752.35834 1607.5021 524288
-904.42737 750.10925 1602.6967 458752
-897.98804 752.70166 1608.2356 393216
-897.58691 760.4657 1624.8245 393216
-881.58777 755.03967 1613.2311 393216
-867.91425 751.50793 1605.6852 393216
-857.85736 751.06415 1604.7368 393216
-846.23541 749.22461 1600.8065 393216
-835.94788 748.53821 1599.3398 393216
-825.81647 747.97723 1598.1412 393216
-816.78223 748.40857 1599.063 393216
-802.81122 744.27338 1590.2275 393216
-793.04712 743.98615 1589.6139 458752
-784.09021 744.45837 1590.6228 458752
-774.48743 744.32153 1590.3304 458752
-760.83038 740.23663 1581.6027 458752
-749.05017 737.89844 1576.6068 458752
-732.10138 730.34479 1560.4675 458752
-718.30017 725.77753 1550.709 458752
-708.05219 724.72827 1548.4672 393216
-696.62769 722.43134 1543.5596 458752
-683.47552 718.25739 1534.6414 458752
-674.42688 718.34131 1534.8207 458752
-666.58984 719.73566 1537.7998 393216
-654.07068 716.04303 1529.9102 393216
-643.25269 714.13483 1525.833 393216
-632.19702 711.90448 1521.0676 393216
-619.4505 707.67755 1512.0363 393216
-610.61011 707.85443 1512.4142 393216
-601.49396 707.71198 1512.1099 393216
-591.58868 706.62274 1509.7826 327680
-587.23071 712.22803 1521.759 262144
-576.50867 710.16931 1517.3602 262144
-565.31384 707.45331 1511.5571 393216
-553.93243 704.41229 1505.0598 393216
-544.39435 703.65399 1503.4396 524288
-534.94977 702.99329 1502.0278 655360
-499.92279 668.12061 1427.5183 1311488
-492.83206 670.02332 1431.5836 4469267
-487.18295 673.9873 1440.0531 4796689
-479.42899 675.12909 1442.4927 4861972
-471.1073 675.49841 1443.2819 3547398
-467.02475 682.07263 1457.3285 1903360
-482.60132 718.14984 1534.4115 1509376
-482.21048 731.39899 1562.72 1049600
-483.9429 748.4527 1599.1572 1115392
-484.94684 765.04095 1634.6 1116160
-479.64926 772.16345 1649.818 1050112
-468.94266 770.69373 1646.6779 1050368
-460.47812 772.92474 1651.4447 984576
-453.564 777.91223 1662.101 1444864
-443.82291 778.16528 1662.6416 1313536
-434.31131 778.84143 1664.0863 1313793
-423.61957 777.38348 1660.9712 1116416
-410.99149 772.21759 1649.9337 1247489
-399.89038 769.73828 1644.6364 1247488
-389.86484 769.25696 1643.6079 1444608
-379.4082 767.87823 1640.6621 1379072
-368.28638 765.04498 1634.6085 1313536
-358.98468 765.94165 1636.5244 1905928
-349.23056 765.89594 1636.4268 1116160
-338.95663 764.67511 1633.8182 1116416
-328.80923 763.67596 1631.6835 1313793
-320.06146 765.96558 1636.5756 1379844
-309.75873 764.56091 1633.5742 1577477
-300.05261 764.58551 1633.6268 1248258
-291.19702 766.85156 1638.4686 1313794
-281.38199 766.66034 1638.0601 1511172
-270.96552 764.75806 1633.9955 1445379
-262.48926 768.39386 1641.7638 1576965
-253.00343 769.24103 1643.574 1444866
-242.55919 767.12524 1639.0533 1708038
-234.87622 773.93085 1653.5942 1510659
-224.45659 771.91962 1649.2971 1905415
-214.69063 772.07544 1649.63 2168588
-204.2679 769.77118 1644.7067 1576451
-193.26208 764.92725 1634.3571 1971208
-184.38594 768.44586 1641.875 1905415
-174.65633 768.60217 1642.209 1905416
-164.27892 765.75745 1636.1309 2102793
-155.03975 768.19434 1641.3375 1773573
-145.18977 767.72876 1640.3428 1839622
-135.27811 766.84644 1638.4576 2102279
-125.57076 767.07532 1638.9467 2431245
-115.75897 766.651 1638.04 1970695
-105.86868 765.58105 1635.754 1970694
-96.386276 767.54254 1639.9449 2365452
-86.387566 765.37146 1635.3062 1773316
-76.421982 762.98016 1630.1969 1904901
-67.317802 769.74371 1644.6479 2168072
-57.303917 766.63647 1638.009 2299916
-47.528225 766.0957 1636.8535 2299658
-37.819004 766.62378 1637.9819 2102022
-27.94873 763.12085 1630.4974 2825488
-18.267996 763.8205 1631.9923 2233351
-8.6003695 767.27594 1639.3752 2760205
1.1415229 761.6864 1627.4326 2825741
10.811832 761.0578 1626.0895 2628363
20.565121 764.10596 1632.6022 2957071
30.1465 760.86005 1625.667 2496520
39.925846 762.97369 1630.1831 2430984
49.737915 764.76459 1634.0095 2562569
59.263817 762.28912 1628.7203 2759694
69.075752 763.67151 1631.674 2430215
78.860199 764.44684 1633.3306 2561802
88.682152 765.37573 1635.3153 2627594
98.440422 765.62579 1635.8496 2759179
107.31622 759.58472 1622.942 2891024
116.91299 759.2226 1622.1683 2693901
126.57993 759.33661 1622.412 2759695
135.71233 756.45496 1616.255 2496523
145.84985 759.18646 1622.0912 2693645
156.81505 765.62012 1635.8374 2759180
166.31662 764.57349 1633.6012 2693386
176.56023 766.86542 1638.4982 2496008
188.22731 774.77679 1655.4017 2430471
197.7011 773.32245 1652.2944 2167558
205.15961 764.49628 1633.4363 2694156
217.99097 775.58405 1657.1266 2298888
226.57793 771.26483 1647.8981 2825488
237.12437 773.69727 1653.0952 2891281
245.70625 769.78113 1644.7279 2693902
254.35706 766.3725 1637.4451 2693902
263.63254 765.02802 1634.5723 2496523
272.18887 761.76654 1627.6039 2693901
281.53662 760.86798 1625.684 2890767
289.30951 755.91418 1615.0995 2693388
297.18958 751.54987 1605.7747 2430986
308.59094 756.0849 1615.4642 2430730
318.68857 757.24811 1617.9497 2628109
328.45102 757.57013 1618.6377 2562059
340.54535 763.09912 1630.451 2496523
349.24481 760.92529 1625.8064 2562570
359.19995 761.53076 1627.1 2890765
368.11572 759.95868 1623.7411 2627593
379.7854 764.00696 1632.3907 2956558
389.31 763.64581 1631.619 3153424
397.14441 760.06744 1623.9735 2956045
405.47247 757.58136 1618.6616 2561800
418.03311 762.9353 1630.101 2693386
425.72516 759.36243 1622.4672 3153424
435.69623 759.92291 1623.6647 2627080
447.00006 762.73328 1629.6693 2824715
458.02188 764.95337 1634.4128 2627593
465.73724 761.67365 1627.4054 2759179
475.90045 762.44934 1629.0626 2759179
485.25641 761.92651 1627.9456 3022351
496.86243 764.88794 1634.2731 2299401
506.2641 764.40747 1633.2465 2496266
513.3761 760.55292 1625.0107 2562316
523.79987 761.65643 1627.3685 2496524
530.35583 757.19788 1617.8423 2430730
543.33344 761.90308 1627.8955 2167558
549.82288 757.5047 1618.4978 2430475
556.53528 753.55933 1610.0682 2364939
565.63324 752.9231 1608.7087 2167560
571.79968 748.4707 1599.1957 2233612
580.95172 748.00818 1598.2074 1773577
595.11719 753.91168 1610.8209 1577226
597.10638 744.4472 1590.599 1380364
607.23883 745.27234 1592.3619 920072
608.6933 735.58502 1571.6639 65538
620.14789 738.09277 1577.0221 3
627.33337 735.52045 1571.526 4
0 0 0 0
590.83948 672.68805 1437.2772 4
601.18658 674.70685 1441.5906 2
609.50763 674.42706 1440.9928 516
600.12982 654.84253 1399.1481 3
0 0 0 0
607.2746 644.75806 1377.6014 2
607.79315 636.71802 1360.423 2
0 0 0 0
614.17584 626.7182 1339.0571 65536
608.54681 613.02502 1309.8 131072
616.00677 612.69659 1309.0984 196608
617.88525 606.89429 1296.701 919817
624.28558 605.62164 1293.9818 920332
624.83215 598.77045 1279.3434 262144
629.4704 595.95789 1273.3341 196608
632.80206 591.98981 1264.856 196608
636.71973 588.6568 1257.7345 327939
643.88336 588.36731 1257.116 65537
648.66486 585.93274 1251.9142 65538
654.59943 584.58313 1249.0306 2
658.38678 581.3678 1242.1606 3
