# .PCD v0.7 - Point Cloud Data file format
VERSION 0.7
FIELDS x y z rgb
SIZE 4 4 4 4
TYPE F F F U
COUNT 1 1 1 1
WIDTH 1340
HEIGHT 1
VIEWPOINT 0 0 0 1 0 0 0
POINTS 1340
DATA ascii
-764.37787 -407.12256 3068.6106 6777957
-758.39984 -413.81912 3119.0847 7238508
-753.64386 -421.53503 3177.2422 7172715
-730.8421 -419.29474 3160.3562 7172715
-720.82635 -424.4653 3199.3281 7172715
-701.39642 -424.22226 3197.4966 7041129
-689.72986 -428.79208 3231.9407 7304044
-678.401 -433.83987 3269.9873 7370094
-661.39313 -435.44666 3282.0981 7172715
-647.01196 -438.93317 3308.3772 7172714
-637.16412 -445.81027 3360.2119 7041130
-624.17383 -450.86279 3398.2944 7172716
-618.78986 -461.9317 3481.7244 7172716
-597.08209 -461.1593 3475.9026 7238509
-591.70062 -473.39346 3568.1152 7238508
-565.06012 -468.8967 3534.2217 7172715
-549.49072 -473.59442 3569.6301 7107176
-545.96765 -489.46951 3689.2854 2962217
-515.45319 -481.46252 3628.9343 6975590
-496.60794 -484.13177 3649.0532 6712418
-470.31448 -479.45212 3613.7812 6251867
-451.64828 -482.47198 3636.543 7172969
-428.30453 -480.54755 3622.0376 7172969
-407.6456 -481.59109 3629.9033 7172715
-393.32721 -490.66089 3698.2654 7172715
-361.8909 -478.1864 3604.2412 7172971
-337.16449 -473.56549 3569.4119 7172969
-315.50076 -472.91422 3564.5032 7041126
-289.99347 -465.99292 3512.335 7172712
-263.47021 -456.23776 3438.8071 6975590
-242.87773 -455.97491 3436.8259 7107176
-225.94514 -463.16623 3491.0293 7238249
-203.52455 -459.42462 3462.8276 7106664
-181.6944 -456.32339 3439.4529 7106921
-158.43765 -448.39792 3379.7158 7369325
-139.47752 -452.09598 3407.5894 263427
-116.57935 -442.11679 3332.373 65536
-97.202614 -444.13965 3347.6201 65536
-77.169884 -443.43524 3342.3108 0
-56.244671 -435.3342 3281.2507 1908249
-36.516613 -432.81378 3262.2534 5527369
-18.872726 -477.28665 3597.4595 6316627
2.4801955 -469.12405 3535.9353 6251347
0 0 0 0
0 0 0 0
55.891224 -399.87268 3013.9658 8949380
75.820107 -410.72397 3095.7556 8751999
93.885986 -409.2146 3084.3792 7896690
111.08544 -405.03955 3052.9104 8620413
129.24278 -405.03955 3052.9104 8751998
148.50424 -408.07355 3075.7786 8686205
166.35631 -406.99393 3067.6411 8620413
184.03772 -405.7515 3058.2764 8620414
201.48784 -404.26846 3047.0984 8883330
218.95708 -403.0654 3038.0305 8817794
239.01649 -406.45038 3063.5442 8883587
254.53342 -402.17841 3031.3452 8686208
275.38333 -406.34073 3062.7175 8686207
288.51276 -399.30133 3009.6597 8357500
298.37799 -388.83072 2930.7393 8356731
318.74365 -392.44427 2957.9758 723978
337.56311 -393.87567 2968.7646 0
355.80872 -394.52841 2973.6848 0
372.6604 -393.64697 2967.041 65536
390.13245 -393.47098 2965.7141 0
406.03619 -391.79678 2953.0955 65538
423.49585 -391.70056 2952.3701 65537
441.1958 -391.82541 2953.311 2
458.42688 -391.54019 2951.1616 2
474.9751 -390.71439 2944.937 2
491.78818 -390.15738 2940.7388 2
508.78674 -389.78073 2937.8999 65538
526.42706 -389.90445 2938.8323 65536
543.29651 -389.46756 2935.5393 65536
559.84717 -388.83652 2930.783 196608
576.72253 -388.46228 2927.9622 196610
594.48944 -388.69284 2929.7002 196610
611.27655 -388.28796 2926.6482 196610
627.62177 -387.63254 2921.7083 196610
645.13684 -387.71552 2922.3337 131072
662.60199 -387.76492 2922.7061 2237214
674.02875 -384.36838 2897.1052 3685426
704.5152 -391.73911 2952.6609 4607041
725.49347 -393.59299 2966.634 5002313
742.96783 -393.50302 2965.9561 5199694
769.89294 -398.30664 3002.1624 5264974
788.12152 -398.49527 3003.584 5462098
810.59821 -400.77585 3020.7737 6054234
834.75543 -403.77045 3043.3447 6251100
860.90033 -407.57898 3072.0508 7041126
883.79187 -409.72098 3088.1956 7369577
912.42889 -414.38507 3123.3503 7764337
934.2063 -415.80988 3134.0896 7961716
957.06311 -417.64996 3147.9587 8027763
978.63885 -418.87109 3157.1631 7962226
1003.9889 -421.63132 3177.9678 8093299
1025.8584 -422.85489 3187.1902 7961713
1055.8898 -427.33731 3220.9753 7303783
1083.8964 -430.85504 3247.49 7961713
1082.7832 -422.87711 3187.3577 8159092
1101.2753 -422.69864 3186.0125 8553850
1122.1332 -423.41895 3191.4417 6382681
1122.0468 -416.34378 3138.1138 6251095
1129.723 -412.33334 3107.886 6382682
1143.762 -410.73694 3095.8535 6382683
1158.4768 -409.43002 3086.0027 6382683
1181.5468 -411.07071 3098.3691 6382682
1164.5099 -398.92175 3006.7986 6251095
1212.9751 -409.23969 3084.5681 6448730
1223.1835 -406.53522 3064.1836 6316890
1212.2037 -396.97153 2992.0989 6316889
1216.4072 -392.58475 2959.0344 6448476
1213.8965 -386.18704 2910.813 6514268
1243.8207 -390.14297 2940.6301 6514269
1215.4399 -375.95456 2833.6877 6580062
1209.921 -369.12909 2782.2419 6645855
1230.7191 -370.40833 2791.884 6711393
1227.5502 -364.53629 2747.6245 6842978
1233.8591 -361.59613 2725.4636 6909026
1207.1722 -349.18774 2631.9377 6909027
1204.5432 -343.96701 2592.5874 6974564
1204.7227 -339.6701 2560.2002 6843234
1194.6698 -332.63141 2507.1475 7106405
1194.1287 -328.38202 2475.1184 7304302
1172.2104 -318.42908 2400.1001 7699060
1166.8412 -313.15701 2360.3628 9278351
1186.0385 -314.52512 2370.6746 9213073
1188.3146 -311.42648 2347.3191 8621195
1194.9592 -309.53134 2333.0349 10332583
1210.7241 -310.01508 2336.6809 4933707
0 0 0 0
0 0 0 0
0 0 0 0
0 0 0 0
0 0 0 0
1318.2844 -315.8064 2380.332 2
1375.6995 -326.05908 2457.6099 1
1423.4254 -333.82391 2516.1357 2
1358.9371 -315.38431 2377.1506 4
1365.0814 -313.54816 2363.311 259
1374.6162 -312.52029 2355.5637 260
1504.4862 -338.59546 2552.1003 515
0 0 0 0
0 0 0 0
1214.8081 -265.36938 2000.1725 8160643
1236.683 -267.52805 2016.443 6383459
1240.2251 -265.7175 2002.7961 9145221
1261.1852 -267.63763 2017.269 9211268
1260.3807 -264.94647 1996.9847 9211010
1256.1744 -261.59708 1971.7394 9211267
1254.2224 -258.77478 1950.4669 9211010
1247.9572 -255.12248 1922.9382 9342596
1240.2457 -251.2435 1893.7012 9407619
1240.8568 -249.10512 1877.5835 9473412
1234.5161 -245.62175 1851.3284 9407619
1232.2739 -243.00822 1831.6293 9407619
1224.9161 -239.44051 1804.7383 9474182
1213.0481 -235.06079 1771.7269 9539975
1211.3765 -232.71532 1754.0485 9605768
1213.2173 -231.07892 1741.7145 9474182
1208.814 -228.29099 1720.7009 9671561
1208.1498 -226.25012 1705.3181 9474183
1212.7209 -225.21545 1697.5195 9605255
1208.5811 -222.59351 1677.7572 9538948
1207.1942 -220.51743 1662.109 9604998
1249.7396 -226.43491 1706.7111 9078654
1255.8873 -225.71547 1701.2883 9670791
1262.7994 -225.1438 1696.9795 9802377
1272.4418 -225.06409 1696.3788 9802119
1278.3698 -224.33386 1690.8748 9539208
1284.2516 -223.60696 1685.396 10065552
1301.1357 -224.79218 1694.3292 10394261
1306.5233 -223.9882 1688.2695 10197139
1318.2742 -224.27911 1690.462 10131603
1330.493 -224.64461 1693.2169 10328724
1344.9346 -225.37708 1698.7378 10328723
1353.4044 -225.10539 1696.6901 10328722
1366.4188 -225.58801 1700.3276 10394515
1371.3322 -224.7359 1693.9052 10394003
1385.3987 -225.38533 1698.8 10262417
1394.1478 -225.16656 1697.1511 10262417
1412.2516 -226.45094 1706.8318 10394002
1418.8046 -225.87805 1702.5138 10459796
1427.317 -225.623 1700.5914 10328211
1459.4601 -229.0807 1726.6532 10394004
1468.2275 -228.84659 1724.8887 10394003
1447.2264 -224.00803 1688.4189 10459796
1454.0002 -223.50568 1684.6324 10394003
1459.4005 -222.80049 1679.3173 10525589
1468.6147 -222.68318 1678.4331 10525589
1474.0624 -222.0002 1673.2853 10525590
1477.5862 -221.0386 1666.0374 10459798
1485.2108 -220.69917 1663.4789 10394006
1493.0558 -220.39674 1661.1996 10459795
1502.7687 -220.37222 1661.0146 10394003
1524.2137 -222.05725 1673.7153 10394002
1543.6 -223.42241 1684.0049 10394003
1525.121 -219.32466 1653.1188 10328210
1587.0579 -226.76976 1709.2349 10328210
1556.0822 -220.92859 1665.2083 10328210
1552.236 -218.98871 1650.5868 10328210
1580.6639 -221.59785 1670.2527 10262417
1612.7778 -224.68793 1693.5435 10130831
1593.6439 -220.6442 1663.0647 10393747
1601.2765 -220.33344 1660.7223 10328210
1608.2648 -219.93837 1657.7445 10262417
0 0 0 0
0 0 0 0
0 0 0 0
0 0 0 0
0 0 0 0
0 0 0 0
0 0 0 0
0 0 0 0
0 0 0 0
0 0 0 0
0 0 0 0
0 0 0 0
-1677.1808 -248.37035 1959.9049 788999
-1392.6736 -207.68166 1638.8281 6578515
-1533.9584 -230.36292 1817.8074 7236703
-1526.5984 -230.88493 1821.9266 6908764
-1536.5532 -234.05183 1846.9169 7237474
-1530.2927 -234.77663 1852.6362 7303781
-1510.316 -233.39229 1841.7124 7040352
-1494.9855 -232.711 1836.3362 7040352
-1491.3933 -233.86031 1845.4055 7171939
-1481.4843 -234.02882 1846.7351 7106147
-1470.9183 -234.09526 1847.2595 6908767
-1464.9807 -234.90488 1853.6482 7040354
-1452.4797 -234.66637 1851.7661 6908768
-1447.5986 -235.6647 1859.644 6974561
-1440.2883 -236.27989 1864.4985 6974561
-1436.1356 -237.42664 1873.5476 6908767
-1432.663 -238.70464 1883.6324 6645596
-1430.2959 -240.18848 1895.3414 6711386
-1434.4478 -242.79927 1915.9434 6382421
-1437.1188 -245.19922 1934.8815 6119504
-1431.8295 -246.26878 1943.3214 5329216
-1457.4764 -252.71996 1994.228 5198398
-1448.3079 -253.1906 1997.9419 5132608
-1451.6442 -255.87317 2019.1104 4606011
-1432.2938 -254.56834 2008.8137 3355945
-1419.7347 -254.45872 2007.9489 2369313
-1409.4608 -254.76031 2010.3286 1974812
-1405.6499 -256.24521 2022.0461 1448727
-1396.7206 -256.81464 2026.5394 856336
-1387.8735 -257.40924 2031.2316 527887
-1366.7172 -255.71123 2017.8324 2830388
-1332.3992 -251.49879 1984.5918 2830905
-1320.8723 -251.55147 1985.0074 1976366
-1301.6538 -250.12708 1973.7675 2634812
-1284.7076 -249.11736 1965.7998 4937825
-1271.241 -248.76999 1963.0587 5267304
-1262.4125 -249.33229 1967.4957 5200998
-1251.5065 -249.49089 1968.7474 5201255
-1239.2908 -249.38899 1967.9434 5596013
-1223.697 -248.59888 1961.7084 5595755
-1215.5947 -249.33011 1967.4785 5530219
-1201.2894 -248.79088 1963.2235 5332582
-1187.9799 -248.44933 1960.5283 5398376
-1173.9619 -247.95135 1956.5989 5398376
-1160.2605 -247.51102 1953.1239 5463143
-1148.7521 -247.53424 1953.3073 5594728
-1136.4706 -247.38966 1952.1664 5528936
-1128.0054 -248.08144 1957.6254 5331557
-1122.2562 -249.39117 1967.9606 1975600
-1119.8164 -251.47176 1984.3784 2436407
-1114.7052 -252.99031 1996.3615 5002846
-1102.4871 -252.91122 1995.7374 5266275
-1107.0023 -256.71091 2025.7208 5595755
-1091.5508 -255.91293 2019.424 4213846
0 0 0 0
0 0 0 0
0 0 0 0
-938.2157 -230.09068 1815.6592 260
-885.14246 -219.60245 1732.8959 4
-875.9187 -219.87425 1735.0406 4
-830.52423 -210.96463 1664.7344 5
0 0 0 0
0 0 0 0
0 0 0 0
-680.07837 -181.39954 1431.4344 2698806
-674.63617 -182.22916 1437.981 5002333
-666.86823 -182.44377 1439.6746 8753824
-660.13129 -182.94974 1443.6671 9345446
-653.95154 -183.62547 1448.9994 9673641
-645.73236 -183.73894 1449.8948 9212835
-638.28271 -184.07742 1452.5658 9081505
-630.28186 -184.26405 1454.0385 8885152
-623.86804 -184.9263 1459.2643 8753566
-615.15082 -184.91483 1459.1738 8754338
-607.46417 -185.21724 1461.5602 8425630
-596.08838 -184.38727 1455.0109 8755110
-589.50342 -185.03667 1460.1353 8623525
-580.77191 -185.02159 1460.0164 8623523
-571.04663 -184.68468 1457.3577 8689059
-561.07745 -184.25729 1453.9851 9017510
-549.68372 -183.34134 1446.7573 9610162
-541.00427 -183.31601 1446.5574 9347762
-531.50323 -183.00696 1444.1187 9414582
-523.11652 -183.07773 1444.6771 9415354
-511.57452 -182.02818 1436.3951 9612730
-506.21982 -183.18192 1445.4993 9941180
-498.88989 -183.64841 1449.1804 9874616
-489.3844 -183.31636 1446.5603 9940151
-482.14502 -183.83649 1450.6646 6321531
0 0 0 0
0 0 0 0
0 0 0 0
0 0 0 0
0 0 0 0
0 0 0 0
-872.37872 -380.2612 3000.6636 6842982
-851.13947 -378.75146 2988.7502 6712165
-843.29462 -383.26495 3024.3662 6712165
-829.95557 -385.42368 3041.4009 6777958
-813.52435 -386.21063 3047.6108 6843751
-816.81287 -396.60849 3129.6609 6843750
-784.33563 -389.72003 3075.3037 6843750
-765.53113 -389.45856 3073.2405 6843750
-747.65448 -389.66791 3074.8923 7041129
-741.26123 -396.02274 3125.0388 6843750
-724.00867 -396.75363 3130.8064 7041385
-709.18689 -398.89041 3147.6675 7238508
-703.45471 -406.3941 3206.8799 7107178
-686.3194 -407.54477 3215.96 7304301
-678.25623 -414.30301 3269.2896 7238508
-648.52197 -407.83197 3218.2263 7238764
-643.63354 -417.06723 3291.1021 7107179
-630.76636 -421.5495 3326.4719 7041130
-618.80115 -426.94434 3369.043 6975592
-607.37653 -433.08575 3417.5051 7304300
-591.99072 -436.7301 3446.2632 7172972
-576.95679 -440.90479 3479.2058 7172715
-564.34723 -447.31174 3529.7632 7238508
-545.18884 -448.82236 3541.6838 7239018
-536.79181 -459.66977 3627.2812 3093547
-514.00775 -458.58963 3618.7581 6909797
-496.67377 -462.49017 3649.5371 6646625
-469.88968 -457.54529 3610.5168 6646625
-450.12692 -459.29114 3624.2932 7041383
-432.04587 -463.01477 3653.6768 7041383
-410.60455 -463.34109 3656.2517 6778211
-387.23599 -461.40738 3640.9929 6778211
-354.04733 -446.85046 3526.1235 6844004
-335.34613 -449.8967 3550.1614 6711649
-316.67032 -453.3887 3577.7168 7106406
-285.89651 -438.81482 3462.7136 6909797
-269.92834 -446.46713 3523.0984 7041383
-243.24274 -436.18875 3441.991 6909797
-225.31372 -441.16684 3481.2734 6909797
-203.3557 -438.46521 3459.9548 6975846
-181.01724 -434.24268 3426.6345 6844262
-158.65912 -428.89551 3384.4399 5133645
-137.45523 -425.56805 3358.1824 593416
-116.74728 -422.90558 3337.1731 0
-97.602051 -425.97284 3361.3767 65536
-77.643333 -426.15527 3362.8164 65536
-56.711159 -419.26755 3308.4651 131584
-36.587219 -414.21072 3268.5613 4869183
-18.834368 -454.96402 3590.1479 4738366
2.4657056 -445.47604 3515.2776 5659212
0 0 0 0
0 0 0 0
56.235241 -384.29788 3032.5171 9147271
75.980125 -393.13977 3102.2891 8949892
94.007378 -391.37552 3088.3672 7699825
113.14236 -394.04593 3109.4397 8554620
130.3506 -390.19843 3079.0789 8620413
148.40627 -389.52301 3073.749 8686206
165.9174 -387.72333 3059.5476 8686205
183.50568 -386.4418 3049.4351 8620413
201.21381 -385.62051 3042.9541 8751999
218.50504 -384.20172 3031.7583 8686206
236.10835 -383.50616 3026.2698 8620413
253.67741 -382.85745 3021.1506 8686205
270.99515 -381.94037 3013.9138 8620414
292.49667 -386.66779 3051.2183 8225913
308.88989 -384.48444 3033.9895 8488317
317.01254 -372.81573 2941.9109 1513238
337.92004 -376.61661 2971.9038 65536
355.29065 -376.29364 2969.3552 65536
372.26169 -375.59808 2963.8667 131072
389.51175 -375.23425 2960.9956 65536
405.69049 -373.91449 2950.5813 65536
422.48874 -373.25146 2945.3494 65536
440.01715 -373.26062 2945.4214 65538
456.81494 -372.673 2940.7847 2
472.52155 -371.27139 2929.7244 2
490.2262 -371.48358 2931.3987 2
505.8605 -370.16617 2921.0029 2
524.61725 -371.1452 2928.7288 65538
540.5929 -370.15707 2920.9314 196609
558.75616 -370.68173 2925.0715 196608
575.58282 -370.31479 2922.1758 196608
593.95697 -370.93576 2927.0759 131072
610.46863 -370.39136 2922.78 131072
627.43829 -370.14728 2920.854 196608
645.29456 -370.42535 2923.0483 65536
659.98145 -368.91714 2911.147 329219
653.62866 -356.02594 2809.4216 3882548
699.87341 -371.71268 2933.2068 4344381
730.48743 -378.53665 2987.0552 4870726
753.53638 -381.20941 3008.146 5528147
774.86615 -382.90866 3021.5549 5659477
796.31836 -384.59006 3034.8228 5791320
817.58679 -386.11008 3046.8174 6054491
838.18597 -387.25497 3055.8518 6514785
864.98431 -391.15463 3086.6243 7172712
886.0647 -392.36017 3096.1372 7567213
918.57397 -398.47449 3144.3857 7830640
935.32843 -397.64676 3137.854 7896176
954.28021 -397.76733 3138.8054 7961713
982.44531 -401.64993 3169.4431 8027249
1006.7157 -403.82404 3186.5991 8093301
1029.8024 -405.45175 3199.4436 7961715
1058.6515 -409.24796 3229.3999 7172199
1068.5945 -405.73056 3201.6438 7961715
1083.2693 -404.10147 3188.7886 8224886
1088.8264 -399.18564 3149.9976 8159092
1113.0336 -401.15799 3165.5615 6185558
1123.7771 -398.293 3142.9534 6251095
1143.3923 -398.61447 3145.4902 6514266
1148.7451 -394.03354 3109.3418 6316888
1177.668 -397.55438 3137.125 6514269
1151.1687 -382.54797 3018.7087 6316890
1206.1475 -394.6629 3114.3081 6514269
1217.8848 -392.47623 3097.0532 6382682
1200.6791 -381.1666 3007.8081 6514269
1202.585 -376.16711 2968.3567 6448475
1217.7427 -375.39743 2962.2832 6514269
1245.139 -378.36868 2985.7297 6580062
1244.8146 -372.95123 2942.98 6580062
1218.0046 -359.8588 2839.667 6711647
1204.4326 -350.98221 2769.6211 6842977
1220.7212 -350.92935 2769.2041 6776928
1203.8335 -341.46738 2694.5393 6842722
1227.9459 -343.73105 2712.4019 7106152
1217.2367 -336.31494 2653.8809 6974566
1213.4302 -330.97144 2611.7151 6974565
1205.54 -324.66327 2561.937 7106406
1194.6698 -317.72003 2507.1475 7172201
1179.5007 -309.81882 2444.7986 7632497
1172.0248 -304.10617 2399.7197 7698033
1178.0016 -301.97958 2382.9387 9409679
1176.2473 -297.94528 2351.1038 9409939
1184.0828 -296.40631 2338.9597 8358023
1201.2052 -297.20087 2345.2295 10464426
1211.4028 -296.28351 2337.9907 3421751
0 0 0 0
0 0 0 0
0 0 0 0
1391.1444 -325.30807 2567.0251 65538
1335.886 -308.99518 2438.2991 1
0 0 0 0
1338.1246 -302.93585 2390.4846 4
1345.6913 -301.44598 2378.728 4
1363.9053 -302.34741 2385.8413 4
1374.1663 -301.48544 2379.0393 260
1371.3115 -297.79282 2349.9006 261
0 0 0 0
0 0 0 0
0 0 0 0
1211.9514 -252.87721 1995.469 7239798
1232.6445 -254.7007 2009.8583 6515044
1242.2692 -254.22406 2006.0969 8948099
1240.4797 -251.44287 1984.1506 9211269
1257.0825 -252.40706 1991.7589 9211012
1257.9438 -250.22203 1974.5167 9145474
1254.1768 -247.16528 1950.3959 9211010
1255.9949 -245.25519 1935.3231 9211010
1241.9442 -240.30927 1896.2947 9277059
1244.2515 -238.58904 1882.7201 9277060
1233.7565 -234.46652 1850.1892 9211267
1230.1006 -231.70514 1828.3988 9342596
1224.809 -228.68671 1804.5803 9408389
1216.64 -225.18817 1776.9731 9342596
1218.8273 -223.65022 1764.8372 9408389
1215.0563 -221.05457 1744.3546 9539975
1219.2263 -219.93533 1735.5226 9605768
1210.9175 -216.60271 1709.2247 9539975
1215.5889 -215.6281 1701.5341 9342596
1216.481 -214.00471 1688.7238 9671048
1223.3146 -213.4446 1684.304 9934733
1237.9485 -214.24355 1690.6084 8619130
1249.0425 -214.42191 1692.0159 9407876
1258.0822 -214.24759 1690.6403 9802378
1268.1229 -214.24515 1690.6211 9933709
1274.0532 -213.55377 1685.1653 9473157
1284.9435 -213.69806 1686.304 9999502
1295.7245 -213.8221 1687.2828 10262675
1316.384 -215.56187 1701.0115 10197137
1320.4904 -214.58513 1693.304 10066065
1331.2629 -214.69827 1694.1968 10131858
1353.1552 -216.58955 1709.121 10000528
1354.8865 -215.24968 1698.548 10196881
1368.1503 -215.74825 1702.4822 10262931
1375.0358 -215.24106 1698.4799 10197395
1391.8528 -216.28455 1706.7142 10328212
1416.4475 -218.51282 1724.2975 10459798
1413.8845 -216.54955 1708.8053 10394003
1420.7078 -216.04166 1704.7975 10328211
1425.6398 -215.25542 1698.5931 10394004
1439.1925 -215.77269 1702.675 10328212
1445.5016 -215.20433 1698.1901 10394005
1449.614 -214.31908 1691.2045 10394003
1460.5961 -214.45468 1692.2745 10525590
1468.0165 -214.06906 1689.2316 10525589
1474.5461 -213.55966 1685.2119 10525589
1482.0082 -213.19128 1682.3051 10459796
1534.2057 -219.22002 1729.8781 10525589
1501.6313 -213.1362 1681.8704 10525589
1552.8558 -218.94833 1727.7341 10394003
1517.1891 -212.51315 1676.9537 10459796
1576.0479 -219.31573 1730.6334 10525589
1523.046 -210.56508 1661.5814 10394003
1543.0085 -211.94969 1672.5076 10262417
1553.3986 -212.01012 1672.9844 10328210
1559.9907 -211.55473 1669.391 10262417
1555.0602 -209.55234 1653.59 10262417
1597.2882 -213.89008 1687.8192 10394003
1592.3287 -211.89429 1672.0703 10196624
1605.6221 -212.33713 1675.5648 10196624
1603.9832 -210.81195 1663.5295 10328210
1609.417 -210.22934 1658.9321 10262417
0 0 0 0
0 0 0 0
0 0 0 0
0 0 0 0
0 0 0 0
0 0 0 0
0 0 0 0
0 0 0 0
0 0 0 0
0 0 0 0
0 0 0 0
0 0 0 0
0 0 0 0
0 0 0 0
-1491.7354 -213.50813 1767.7712 6842973
-1514.4692 -218.30058 1807.4509 6974302
-1519.4657 -220.58656 1826.3779 7171938
-1496.9553 -218.88341 1812.2765 7303524
-1521.3129 -224.05823 1855.1223 7171938
-1494.9855 -221.78929 1836.3362 7106144
-1484.7349 -221.88959 1837.1665 6908766
-1480.307 -222.86801 1845.2676 6842975
-1469.5961 -222.90804 1845.599 6974560
-1466.0345 -224.04124 1854.9816 6974561
-1456.3704 -224.25195 1856.7262 6842975
-1449.4053 -224.88466 1861.9648 6776927
-1472.7035 -230.25883 1906.4609 6777439
-1440.8719 -227.02989 1879.7264 6711135
-1436.5878 -228.12489 1888.7927 6776927
-1458.4781 -233.42633 1932.6868 6382425
-1434.2849 -231.37784 1915.7258 6250838
-1442.603 -234.58322 1942.2653 6316886
-1434.8464 -235.20532 1947.4161 5856077
-1460.8231 -241.41223 1998.8073 5329730
-1452.8284 -242.06091 2004.178 5000508
-1446.6444 -243.02454 2012.1564 4474167
-1436.024 -243.2527 2014.0455 3355944
-1423.3478 -243.13351 2013.0587 2631970
-1413.6198 -243.52023 2016.2605 2040348
-1406.8892 -244.43431 2023.8289 1646106
-1396.4265 -244.71016 2026.1128 1053715
-1389.7263 -245.65591 2033.9432 1287
-1380.5881 -246.18352 2038.3116 2107179
-1340.9562 -241.23471 1997.3373 2830907
-1321.7319 -239.90157 1986.2993 3094593
-1309.4054 -239.8076 1985.5215 2173236
-1299.4238 -240.14534 1988.3177 2567740
-1277.1085 -238.18895 1972.1194 3621455
-1268.2994 -238.73863 1976.6707 4082262
-1256.7643 -238.78065 1977.0187 4016982
-1245.8047 -238.93385 1978.2871 4017241
-1225.5031 -237.2812 1964.6036 4740964
-1213.8512 -237.28758 1964.6565 4083031
-1199.8271 -236.82588 1960.8337 4411227
-1189.1844 -237.02908 1962.5162 4542813
-1177.3784 -237.00215 1962.2932 4411482
-1158.4971 -235.53618 1950.1554 4016724
-1144.1923 -234.98041 1945.5538 4740192
-1133.1467 -235.08948 1946.457 4937057
-1126.4456 -236.11142 1954.9182 2436410
-1127.0842 -238.7092 1976.427 199191
-1122.1919 -240.17798 1988.5879 4081236
-1125.1981 -243.38655 2015.1537 5266021
-1109.3541 -242.54288 2008.1685 5529192
-1098.7141 -242.83098 2010.554 5201510
-1094.3608 -244.53021 2024.6229 4082516
-1087.5565 -245.71346 2034.4197 4082257
0 0 0 0
0 0 0 0
0 0 0 0
-919.81012 -217.4933 1800.767 4
-870.52808 -208.26535 1724.3627 4
-829.63367 -200.84793 1662.9493 4
0 0 0 0
0 0 0 0
0 0 0 0
0 0 0 0
-671.4386 -172.8535 1431.1653 11188419
-666.01215 -173.65802 1437.8264 10794435
-663.96509 -175.37607 1452.0513 10728900
-654.03839 -175.03072 1449.1919 10728646
-645.07898 -174.93845 1448.4279 10597317
-636.16888 -174.85722 1447.7554 10663367
-627.84137 -174.93608 1448.4083 10728904
-619.02826 -174.87996 1447.9437 10729161
-609.93744 -174.74271 1446.8073 10794695
-602.80835 -175.17159 1450.3583 10663623
-593.44373 -174.95387 1448.5555 10664137
-585.29468 -175.09337 1449.7106 10795208
-575.9649 -174.87854 1447.9319 10927049
-566.53076 -174.62502 1445.8328 10992841
-559.40875 -175.08734 1449.6606 11189963
-550.86346 -175.11172 1449.8625 11256012
-540.96375 -174.69945 1446.4491 10993097
-530.74524 -174.16924 1442.0592 10861508
-522.47729 -174.27225 1442.912 10070964
-518.71576 -175.90689 1456.4463 3622732
-513.09033 -176.95425 1465.118 4082510
-509.87695 -178.88402 1481.0958 8753810
0 0 0 0
-484.18893 -175.95132 1456.8142 5462617
0 0 0 0
0 0 0 0
0 0 0 0
0 0 0 0
0 0 0 0
0 0 0 0
-865.14771 -359.41058 2975.7915 6448992
-841.56415 -356.91479 2955.127 6712420
-858.75238 -371.97296 3079.8035 6712420
-828.81445 -366.82971 3037.2192 6712164
-816.8562 -369.59229 3060.0923 6646371
-832.42072 -385.21747 3189.4631 6777957
-794.13226 -376.06882 3113.7156 6843750
-767.84259 -372.30106 3082.5198 6777957
-747.65448 -371.37982 3074.8923 6843750
-743.29163 -378.47031 3133.5989 6909543
-732.89801 -382.77573 3169.2463 7106923
-720.39679 -386.17868 3197.4216 6975336
-699.99988 -385.41879 3191.1301 7106922
-687.75098 -389.22787 3222.668 7106922
-672.87488 -391.72586 3243.3506 7107178
-653.62164 -391.74789 3243.533 7041385
-642.63794 -396.87836 3286.0112 7041385
-632.79144 -403.05499 3337.1516 7041129
-617.32684 -405.93732 3361.0161 6975336
-608.43652 -413.48029 3423.4695 7107178
-591.15625 -415.64655 3441.4053 7238508
-575.10132 -418.86069 3468.0171 7041129
-559.02527 -422.29791 3496.4761 7041384
-547.85748 -429.85187 3559.02 7172969
-539.13678 -440.01019 3643.1272 3554354
-513.90155 -436.97662 3618.0105 6712418
-495.73251 -439.94901 3642.6208 6515039
-469.61777 -435.81921 3608.4275 6317660
-447.0459 -434.73926 3599.4858 6910053
-424.10016 -433.16873 3586.4827 6910054
-400.18069 -430.38467 3563.4316 6581863
-382.86313 -434.78647 3599.877 8424580
-357.73904 -430.31946 3562.8914 8161923
-337.92291 -432.07672 3577.4409 8424324
-315.22357 -430.13586 3561.3716 6712677
-292.89722 -428.46103 3547.5044 6909286
-265.79596 -418.99905 3469.1628 6909285
-244.41235 -417.71631 3458.5417 6646114
-221.11766 -412.63138 3416.4407 6712422
-196.53427 -403.8692 3343.8928 2238500
-173.25818 -396.12292 3279.7563 988178
-155.45239 -400.50464 3316.0356 1053201
-134.79837 -397.75534 3293.2725 0
-117.28295 -404.90695 3352.4851 592137
-98.082245 -407.9783 3377.9146 0
-78.052383 -408.29449 3380.5327 256
-57.328255 -403.93839 3344.4656 0
-37.162849 -400.98169 3319.9856 4079152
-18.739414 -431.42535 3572.0479 4474165
2.4432371 -420.69989 3483.2449 5395269
0 0 0 0
0 0 0 0
56.532402 -368.19724 3048.5415 8949378
75.636055 -372.992 3088.2407 8751998
93.352608 -370.40924 3066.8564 7567724
111.92072 -371.49744 3075.8662 8488825
130.00778 -370.90741 3070.981 8554620
147.97244 -370.15652 3064.7639 8554620
165.85745 -369.39297 3058.4421 8620669
183.28918 -367.87061 3045.8374 8686974
199.19093 -363.82758 3012.3625 8555131
217.56885 -364.60135 3018.769 8489338
235.8157 -365.05426 3022.519 8555131
253.68288 -364.89685 3021.2158 8555389
271.65173 -364.89685 3021.2158 8489083
291.47302 -367.2308 3040.54 8620415
310.00842 -367.76657 3044.9761 8554110
326.15225 -365.56268 3026.7285 5263692
335.07846 -355.92267 2946.9128 65536
354.23889 -357.57159 2960.5652 196608
371.67734 -357.40842 2959.2141 262146
388.23065 -356.44736 2951.2571 196610
404.52747 -355.34412 2942.1226 196610
421.18503 -354.63614 2936.2605 65538
437.88593 -354.0195 2931.1553 65538
455.21802 -353.94095 2930.5046 65538
469.34058 -351.46466 2910.002 2
488.70108 -352.94745 2922.2788 2
503.83145 -351.37823 2909.2864 65536
523.27673 -352.8226 2921.2451 65536
539.58203 -352.125 2915.4695 196608
557.36676 -352.40625 2917.7981 196608
574.68115 -352.38211 2917.5981 196608
593.87299 -353.47684 2926.6621 196608
610.5376 -353.04788 2923.1104 196608
627.94214 -353.05865 2923.1997 65536
646.487 -353.69272 2928.4495 0
662.97668 -353.19867 2924.3589 856075
664.41162 -344.91452 2855.769 3883579
698.9693 -353.80966 2929.4177 4278850
736.6109 -363.79523 3012.0947 5199694
753.6521 -363.37411 3008.6082 5594196
776.47101 -365.69363 3027.813 5923162
799.37482 -367.94717 3046.4712 6055004
822.55261 -370.22406 3065.323 6515041
843.92871 -371.60886 3076.7888 6711907
870.12915 -375.0141 3104.9829 6975589
896.2522 -378.24518 3131.7351 7567982
918.56525 -379.76947 3144.3557 7764335
941.14752 -381.34204 3157.376 7764593
953.44672 -378.76801 3136.0637 7961972
981.06299 -382.26086 3164.9834 7896179
1005.7379 -384.49771 3183.5039 8027510
1027.4014 -385.52191 3191.9839 8159096
1071.6537 -394.83142 3269.0632 6909028
1070.2617 -387.29196 3206.6392 7961716
1084.8425 -385.69528 3193.4194 8224886
1104.7104 -386.00098 3195.9504 8290678
1120.0024 -384.72452 3185.3816 6448474
1126.4219 -380.49344 3150.3499 6251095
1144.4734 -380.26572 3148.4646 6316887
1155.9691 -377.90216 3128.895 6316889
1176.6492 -378.56839 3134.4111 6251095
1152.7546 -365.09637 3022.8677 6448474
1205.0092 -375.78537 3111.3687 6382683
1221.3451 -375.11917 3105.8528 6514269
1219.2179 -368.88663 3054.2495 6382683
1205.3794 -359.3457 2975.2542 6514267
1208.4386 -355.0455 2939.6499 6382681
1254.7594 -363.39713 3008.7986 6514267
1244.2971 -355.29993 2941.7566 6579804
1235.8131 -347.98431 2881.186 6776927
1203.2977 -334.19452 2767.0115 6908514
1228.9875 -336.72421 2787.9563 6974307
1201.9093 -324.92133 2690.2327 6974310
1216.4852 -324.54132 2687.0864 7105893
1210.3497 -318.71732 2638.8655 7040100
1204.9519 -313.23416 2593.467 7171942
1188.3479 -305.01331 2525.4014 7040613
1188.9728 -301.36462 2495.1917 6843237
1179.688 -295.32513 2445.1868 7698288
1164.1134 -287.87732 2383.5215 7633268
1166.3456 -284.9592 2359.3604 9344144
1175.4346 -283.76575 2349.4792 9409682
1186.8756 -283.16153 2344.4766 8884109
1200.5814 -283.10541 2344.0117 10726828
1209.4514 -281.92334 2334.2246 3223345
0 0 0 0
0 0 0 0
1517.3005 -341.909 2830.8845 2
1479.4207 -329.71445 2729.918 65538
1332.7953 -293.81192 2432.658 3
1353.9205 -295.26367 2444.6777 2
1337.5092 -288.58554 2389.3853 2
1352.2979 -288.70883 2390.4062 2
1392.3202 -294.16083 2435.5466 4
1402.6527 -293.29242 2428.3567 260
1364.5723 -282.42184 2338.3521 260
0 0 0 0
0 0 0 0
0 0 0 0
1212.1749 -241.05348 1995.8368 7502713
1233.4924 -242.91393 2011.2406 6778216
1241.6501 -242.17197 2005.0974 8750975
1256.7557 -242.78633 2010.1842 9145730
1260.2025 -241.15802 1996.7024 9211010
1242.0519 -235.46573 1949.5723 9145219
1246.299 -234.08557 1938.145 9276803
1242.8079 -231.2906 1915.0037 9342340
1241.8414 -229.01201 1896.1377 9277060
1228.7686 -224.56189 1859.2924 9276804
1227.334 -222.29915 1840.5577 9211011
1226.282 -220.1451 1822.7229 9408388
1224.0204 -217.81354 1803.4185 9342594
1229.9592 -216.9691 1796.4266 9408387
1226.1316 -214.4312 1775.4137 9539973
1221.2495 -211.75377 1753.2457 9539973
1214.6742 -208.8306 1729.0428 9539975
1209.4675 -206.18982 1707.1781 9539975
1210.0812 -204.57698 1693.8245 9540488
1215.5358 -203.80247 1687.4117 9803404
1209.2394 -201.08653 1664.9248 10001039
1226.5107 -202.302 1674.9884 8158579
1249.0909 -204.36647 1692.0815 9342853
1254.1201 -203.54933 1685.3159 9605770
1261.9384 -203.19427 1682.3761 9803149
1270.8418 -203.01813 1680.9176 9671563
1280.4569 -202.95755 1680.416 9474184
1300.8557 -204.59392 1693.9646 9803150
1316.5867 -205.47664 1701.2732 10066067
1319.7604 -204.40106 1692.3678 10262932
1332.0734 -204.74651 1695.228 10197139
1343.7009 -204.98221 1697.1796 10197139
1355.0583 -205.17352 1698.7635 10197140
1364.8062 -205.12007 1698.3209 10131346
1377.4636 -205.50145 1701.4788 10262932
1388.4231 -205.62587 1702.5088 10262932
1401.1823 -206.01303 1705.7145 10262933
1409.8582 -205.79863 1703.9392 10262933
1418.9645 -205.64963 1702.7056 10393749
1447.7041 -208.32805 1724.882 10394006
1437.0641 -205.34183 1700.157 10459798
1452.5375 -206.10257 1706.4558 10459798
1450.8094 -204.42899 1692.5991 10394005
1467.6964 -205.38339 1700.5011 10262417
1476.1636 -205.15453 1698.6063 10328210
1484.5339 -204.91544 1696.6266 10394003
1484.3236 -203.50314 1684.9333 10525589
1501.519 -204.48013 1693.0225 10394003
1507.6902 -203.95279 1688.6564 10328210
1515.1326 -203.60329 1685.7626 10262417
1518.6759 -202.73784 1678.597 10262417
1528.3314 -202.69435 1678.2368 10130831
1529.314 -201.50862 1668.4194 10262417
1540.1439 -201.62735 1669.4025 10262417
1557.0609 -202.53635 1676.9287 10328210
1586.6104 -205.0665 1697.8773 10328210
1575.0483 -202.28464 1674.8446 10262416
1584.4969 -202.21922 1674.303 10262673
1587.0614 -201.28152 1666.5392 10394256
1594.0344 -200.9111 1663.4723 10262671
1602.3458 -200.71294 1661.8315 10196878
1616.7861 -201.2802 1666.5282 10262672
0 0 0 0
0 0 0 0
0 0 0 0
0 0 0 0
0 0 0 0
0 0 0 0
0 0 0 0
0 0 0 0
0 0 0 0
0 0 0 0
0 0 0 0
0 0 0 0
0 0 0 0
0 0 0 0
-1379.1068 -187.66782 1634.3014 7105374
-1531.8713 -209.93556 1828.2196 7040093
-1482.3658 -204.60335 1781.7843 7171681
-1481.6461 -205.97652 1793.7424 7106402
-1493.0472 -209.06685 1820.6545 7040352
-1461.7001 -206.1727 1795.4507 6908765
-1482.6135 -210.66154 1834.5417 6974559
-1478.4236 -211.6236 1842.9199 6974558
-1473.5336 -212.49907 1850.5439 6777180
-1470.1703 -213.60957 1860.2146 6842973
-1461.5056 -213.96078 1863.2732 6842974
-1453.3507 -214.39256 1867.0333 6777182
-1430.6743 -212.67235 1852.0529 6579546
-1508.3119 -225.95299 1967.7072 6645084
-1454.3177 -219.56802 1912.1036 6579290
-1437.9238 -218.80389 1905.4493 6381909
-1450.0253 -222.39812 1936.7496 6513496
-1440.9016 -222.76845 1939.9746 6184529
-1459.5575 -227.4742 1980.9546 6117965
-1452.4663 -228.21121 1987.3728 5328705
-1458.4866 -231.03726 2011.9835 4868923
-1423.8629 -227.41846 1980.4691 4737340
-1445.0923 -232.73453 2026.7639 3750450
-1422.8042 -231.07246 2012.2899 2631971
-1418.0305 -232.25082 2022.5516 2369058
-1409.3785 -232.80869 2027.4098 1448727
-1389.1157 -231.4417 2015.5055 1251096
-1384.4379 -232.67012 2026.2032 330252
-1374.3884 -233.00946 2029.1583 1515040
-1340.9325 -229.35139 1997.302 3818827
-1328.7028 -229.29088 1996.775 3687499
-1313.407 -228.6954 1991.5892 3227464
-1302.0016 -228.77264 1992.2621 2107956
-1289.8903 -228.72614 1991.8571 1647150
-1280.4398 -229.15498 1995.5917 2173237
-1265.578 -228.61436 1990.8835 1910321
-1259.5797 -229.67972 2000.1613 2107699
-1249.7024 -230.05138 2003.3977 2173749
-1224.5001 -227.58188 1981.8922 2436923
-1203.0216 -225.76321 1966.0543 3094596
-1190.5942 -225.62408 1964.8429 3555919
-1175.6602 -225.00246 1959.4294 3687248
-1158.126 -223.86575 1949.5305 4345435
-1149.7461 -224.49355 1954.9976 4674399
-1140.656 -224.99402 1959.356 3029061
-1134.9441 -226.17805 1969.6671 857378
-1133.1316 -228.17201 1987.0314 3291461
-1123.9359 -228.7056 1991.6782 4081489
-1113.1871 -228.93118 1993.6426 5463657
-1120.1576 -232.84488 2027.725 5793135
-1101.9862 -231.56067 2016.5415 5333097
-1093.5543 -232.31732 2023.1307 5202794
0 0 0 0
0 0 0 0
0 0 0 0
0 0 0 0
-926.73328 -208.33952 1814.3207 5
-913.09406 -207.69162 1808.6783 5
-864.93591 -199.08301 1733.7104 5
-892.16559 -207.82814 1809.8671 5
-807.54443 -190.41321 1658.2096 7
0 0 0 0
0 0 0 0
-669.92883 -163.97203 1427.9473 10860478
-671.49518 -166.46573 1449.6636 10465982
-662.55884 -166.38678 1448.976 10663106
-653.3457 -166.23532 1447.657 10597315
-644.76709 -166.24341 1447.7274 10269633
-636.20538 -166.25615 1447.8384 10400191
-628.63568 -166.53203 1450.2408 8951719
-617.00171 -165.72394 1443.2036 8754339
-610.26575 -166.22719 1447.5861 10859972
-599.01721 -165.49811 1441.2369 10728899
-591.3175 -165.74254 1443.3656 8295071
-583.17712 -165.86885 1444.4656 4939884
-575.67603 -166.1835 1447.2057 8163485
-567.35211 -166.26656 1447.929 10531519
-558.1272 -166.08405 1446.3396 9084329
-550.0849 -166.25327 1447.8132 9413553
-540.0722 -165.82289 1444.0653 10532804
-529.1955 -165.10901 1437.8485 11059405
-518.65253 -164.47751 1432.3491 9939896
-516.36115 -166.48543 1449.835 5399406
-510.71133 -167.4603 1458.3247 5990767
-510.07523 -170.14127 1481.6718 8555923
-513.07605 -174.15094 1516.59 8292494
-509.41797 -176.00348 1532.7228 2501679
0 0 0 0
0 0 0 0
-715.9881 -261.40677 2276.4556 5593684
0 0 0 0
0 0 0 0
-877.50977 -339.64633 2957.8035 6448992
-865.14771 -341.71194 2975.7915 6448992
-836.91412 -337.46399 2938.7983 6514785
-843.8468 -347.51718 3026.3464 6448992
-832.05634 -350.12988 3049.0991 6580578
-812.85895 -349.6727 3045.1179 6843750
-794.14008 -349.4053 3042.7891 6777957
-786.17853 -353.96872 3082.5295 6777957
-764.09729 -352.24109 3067.4844 6975336
-754.81122 -356.47162 3104.3259 6909543
-737.97064 -357.25708 3111.1663 6909797
-726.94067 -360.96826 3143.4851 6910054
-712.67767 -363.22766 3163.1609 7041129
-692.97717 -362.76312 3159.1152 6909542
-678.7356 -365.20996 3180.4238 7041129
-672.677 -372.32639 3242.397 7106922
-650.80042 -370.84924 3229.5332 7106922
-635.56451 -373.1814 3249.8428 7041129
-624.66754 -378.28741 3294.3086 6843750
-607.97223 -380.09912 3310.0854 6975336
-597.78546 -386.23724 3363.5393 7041129
-584.50122 -390.72986 3402.6631 7041129
-567.74591 -393.14111 3423.6616 7106922
-553.04993 -397.21088 3459.103 7107178
-540.20178 -402.97348 3509.2866 6975590
-538.77704 -418.06335 3640.6963 3488561
-530.79602 -429.11652 3736.9524 6778211
-491.99475 -415.13055 3615.156 6515039
-469.42825 -414.1907 3606.9717 6580832
-447.64972 -413.88943 3604.3477 6844260
-427.93353 -415.56052 3618.9004 6712934
-401.23953 -410.27368 3572.8601 6713448
-385.95752 -416.71701 3628.9719 8029824
-357.57291 -408.93893 3561.2363 8096902
-340.65717 -414.1236 3606.3872 8227459
-316.89813 -411.12689 3580.2903 6910825
-288.3114 -400.98413 3491.9622 6581088
-270.01694 -404.69232 3524.2549 6778211
-245.06805 -398.21185 3467.8201 6646881
-221.01816 -392.13541 3414.9033 7041129
-188.88586 -369.03809 3213.7607 1053714
-175.92542 -382.41422 3330.2466 1382422
-155.20998 -380.18854 3310.8643 5592660
-135.34258 -379.69522 3306.5681 256
-115.61797 -379.50278 3304.8923 1447443
-98.028427 -387.67514 3376.061 0
-78.152962 -388.68884 3384.8889 0
-57.570789 -385.67178 3358.615 65792
-36.788998 -377.40076 3286.5869 2302486
-18.279224 -400.10751 3484.3281 3092258
2.4037049 -393.51126 3426.885 4408373
0 0 0 0
0 0 0 0
56.902126 -352.35532 3068.4792 8949378
76.053696 -356.58264 3105.293 9015171
93.227486 -351.69696 3062.7461 7567725
112.27245 -354.31354 3085.5325 8620413
130.12672 -352.96521 3073.7905 8554618
147.94537 -351.86432 3064.2034 8620412
164.93201 -349.2431 3041.3767 8751996
181.99997 -347.29526 3024.4138 8883583
199.19022 -345.91013 3012.3516 8620411
217.67883 -346.82227 3020.2949 8423033
235.27925 -346.28809 3015.6428 8751999
252.84464 -345.78168 3011.2329 8686206
259.35983 -331.22998 2884.5098 8752001
286.2551 -342.89661 2986.1084 8554622
299.26111 -337.53461 2939.4133 8554110
309.06512 -329.35229 2868.158 8619391
0 0 0 0
352.91528 -338.69321 2949.5029 196609
370.45343 -338.68936 2949.4697 196610
387.60098 -338.34494 2946.4702 196610
403.78067 -337.22202 2936.6912 196610
419.78568 -336.05231 2926.5049 65538
436.16049 -335.26004 2919.6055 65538
453.04428 -334.90469 2916.5107 65538
466.91135 -332.4277 2894.9399 2
487.23834 -334.56265 2913.5322 2
502.22516 -333.01004 2900.0112 65537
522.03949 -334.65518 2914.3381 0
539.32593 -334.62622 2914.0857 0
557.03851 -334.85519 2916.0798 65536
574.95624 -335.18991 2918.9946 131072
593.88165 -336.07532 2926.7051 65536
610.8468 -335.83249 2924.5906 65536
627.52179 -335.44806 2921.2429 65536
645.75586 -335.89536 2925.1379 0
666.03308 -337.354 2937.8406 723978
690.48981 -340.8009 2967.8579 2961452
706.36383 -339.9455 2960.4084 4409409
732.05774 -343.74268 2993.4763 5068107
753.65527 -345.48172 3008.6208 5857369
783.76538 -350.95187 3056.2573 6120541
804.5451 -352.09079 3066.1755 6449506
825.53308 -353.26834 3076.4302 6646885
846.33179 -354.31555 3085.5498 6778470
870.08954 -356.53085 3104.8418 7041897
898.63159 -360.57376 3140.0493 7567727
923.14679 -362.8692 3160.0391 7699313
940.71338 -362.39612 3155.9194 7961971
960.10724 -362.63177 3157.9717 7896435
981.00421 -363.41522 3164.7942 7896178
1003.9501 -364.91388 3177.8452 7895922
1034.59 -369.10202 3214.3176 8093301
1060.0558 -371.32587 3233.6838 6448478
1065.5149 -366.58719 3192.4172 7961717
1087.3311 -367.54346 3200.7449 8093302
1102.3722 -366.21616 3189.186 8093301
1111.8811 -363.12695 3162.2839 6316889
1131.2911 -363.32037 3163.9683 6382682
1139.0065 -359.81305 3133.4248 6382681
1162.2755 -361.25302 3145.9646 6382683
1179.4089 -360.77051 3141.7629 6316889
1181.2831 -355.70819 3097.6777 6448475
1205.1791 -357.33075 3111.8076 6514269
1216.6113 -355.26465 3093.8149 6514269
1220.1768 -350.99713 3056.6516 6580062
1204.6938 -341.4559 2973.5618 6448476
1214.9813 -339.3894 2955.5657 6448476
1239.7592 -341.3718 2972.8293 6580061
1192.8552 -323.83817 2820.1382 6580061
1206.431 -322.98224 2812.6843 6645855
1194.041 -315.29333 2745.7256 6711648
1230.9437 -320.65225 2792.3938 6447963
1216.1956 -312.59296 2722.2095 6711135
1202.8246 -305.09473 2656.9114 6908514
1198.0247 -299.9368 2611.9937 6842721
1189.5306 -293.99796 2560.2754 7040101
1176.2797 -287.04837 2499.7549 6711391
1177.3109 -283.71405 2470.718 6908771
1172.0065 -278.95398 2429.2651 7566959
1167.7897 -274.56555 2391.0486 7632498
1171.9574 -272.23035 2370.7124 9145737
1174.0717 -269.47928 2346.7551 9277838
1187.3525 -269.32584 2345.4187 8818059
1201.1488 -269.29147 2345.1194 10858412
1204.8389 -267.01816 2325.3223 2960685
0 0 0 0
0 0 0 0
1505.2721 -322.49518 2808.4426 2
1461.1061 -309.59735 2696.1226 2
1338.8792 -280.61868 2443.7622 2
1433.0585 -297.13239 2587.5715 2
1363.677 -279.74252 2436.1323 2
0 0 0 0
1399.4149 -281.1004 2447.9573 1
1415.1145 -281.32709 2449.9314 2
1330.3633 -261.78287 2279.731 259
0 0 0 0
0 0 0 0
0 0 0 0
1214.389 -229.60178 1999.4824 6187366
1236.8929 -231.58867 2016.7854 6777960
1245.5732 -230.97403 2011.4327 9211522
1257.7161 -231.00705 2011.7202 9014141
1257.5626 -228.80222 1992.5195 9079677
1262.9269 -227.6331 1982.3384 9342080
1256.981 -224.4659 1954.7568 9210494
1245.9496 -220.45689 1919.8446 9210240
1245.2616 -218.33427 1901.3597 9210494
1241.0669 -215.64056 1877.9015 9276543
1230.1591 -211.83885 1844.7943 9276801
1233.3695 -210.51408 1833.2577 9145214
1225.1067 -207.27144 1805.019 9408387
1218.6512 -204.38821 1779.9108 9474180
1220.9197 -203.0052 1767.8668 9474180
1223.5717 -201.70908 1756.5795 9408387
1214.2815 -198.48283 1728.4838 9605766
1209.4001 -196.02536 1707.083 9539719
1210.8375 -194.62447 1694.8833 9868940
1210.1989 -192.91576 1680.0029 9605770
1214.3715 -191.9957 1671.9907 9803149
1222.5428 -191.7177 1669.5697 9276805
1247.6079 -194.07204 1690.0725 9145219
1252.3955 -193.25972 1682.9984 9539977
1261.1089 -193.06128 1681.2703 9474183
1260.7053 -191.48122 1667.5104 9408391
1288.4523 -194.16806 1690.9087 9474184
1297.0642 -193.95203 1689.0273 10000015
1307.698 -194.03932 1689.7875 10065552
1322.3427 -194.71587 1695.6792 10131345
1339.6403 -195.76987 1704.8579 10197139
1343.5056 -194.85983 1696.933 10197136
1354.3019 -194.96112 1697.8151 10197137
1365.7321 -195.1515 1699.473 10328723
1381.5273 -195.95824 1706.4984 10328723
1387.5406 -195.37584 1701.4266 10328723
1401.3458 -195.89107 1705.9136 10197137
1433.0562 -198.88383 1731.976 10262930
1417.3271 -195.29709 1700.7408 10459795
1398.6051 -191.3517 1666.3824 10525588
1434.8959 -194.93549 1697.5918 10394003
1446.3168 -195.11415 1699.1477 10262417
1464.5389 -196.20151 1708.6168 10262417
1463.3506 -194.69138 1695.4659 10394003
1474.9702 -194.8943 1697.2332 10328211
1479.7437 -194.196 1691.152 10394003
1497.6946 -195.22482 1700.1115 10459799
1503.6036 -194.68068 1695.3729 10459799
1514.6487 -194.8044 1696.4502 10525590
1521.0327 -194.33095 1692.3271 10459796
1518.7178 -192.75961 1678.6433 10196624
1533.819 -193.40488 1684.2626 10262417
1546.236 -193.70551 1686.8806 10459796
1552.5365 -193.24097 1682.8352 10262417
1561.0453 -193.05548 1681.2198 10328210
1571.2554 -193.08139 1681.4454 10328210
1579.4198 -192.85719 1679.493 10328210
1585.8314 -192.42314 1675.713 10328210
1580.2478 -190.5481 1659.3843 10065038
1601.618 -191.9263 1671.3864 10328210
1611.6194 -191.93353 1671.4493 10394003
1616.215 -191.30081 1665.9393 10394004
0 0 0 0
0 0 0 0
0 0 0 0
0 0 0 0
0 0 0 0
0 0 0 0
0 0 0 0
0 0 0 0
0 0 0 0
0 0 0 0
0 0 0 0
0 0 0 0
0 0 0 0
0 0 0 0
0 0 0 0
-1518.5126 -197.3262 1812.2765 7104860
-1507.7894 -197.33347 1812.3433 7040092
-1484.9587 -195.74483 1797.7529 6908765
-1484.8824 -197.15433 1810.6981 6777177
-1476.623 -197.49001 1813.7811 6974557
-1478.6882 -199.22165 1829.6847 7106144
-1475.1471 -200.21803 1838.8356 7040352
-1470.8058 -201.11987 1847.1183 6777180
-1465.6355 -201.9211 1854.4768 6842973
-1480.4012 -205.50185 1887.3632 6842974
-1462.6105 -204.58351 1878.9288 6777182
-1459.5697 -205.73004 1889.4589 6974561
-1454.6379 -206.62575 1897.6853 6514012
-1451.0942 -207.73421 1907.8655 6448218
-1439.7471 -207.73421 1907.8655 6316885
-1448.4429 -210.64908 1934.6361 6250578
-1441.0334 -211.24966 1940.1521 6250578
-1454.4161 -214.9326 1973.9767 5658439
-1454.949 -216.76108 1990.7697 5263426
-1440.9235 -216.43285 1987.7551 4868924
-1447.1011 -219.15887 2012.7915 4737084
-1440.6516 -220.00208 2020.5356 3684912
-1421.4331 -218.89313 2010.351 2303519
-1418.7379 -220.33144 2023.5605 1975068
-1409.4089 -220.75533 2027.4535 1317142
-1395.0353 -220.38957 2024.0944 1053715
-1376.1462 -219.29785 2014.0679 725009
-1373.7271 -220.83461 2028.1818 856597
-1344.0946 -217.98515 2002.0118 4542037
-1331.2041 -217.82426 2000.5342 3884878
-1321.8947 -218.25168 2004.4596 3753807
-1304.0565 -217.26591 1995.4064 3885137
-1292.1793 -217.26436 1995.392 2897473
-1278.5089 -216.95844 1992.5823 2568507
-1271.6113 -217.8069 2000.3746 2370872
-1261.1088 -218.04805 2002.5895 2502715
-1248.4974 -217.9257 2001.4659 2503229
-1218.9547 -214.81718 1972.9167 2766915
-1211.6399 -215.60356 1980.1389 2964294
-1185.3745 -213.00015 1956.2288 3227466
-1165.8016 -211.5596 1942.9985 4674912
-1165.191 -213.56578 1961.4236 4411995
-1163.0219 -215.32397 1977.571 3095876
-1140.4576 -213.30356 1959.0151 1056035
-1138.2649 -215.09088 1975.4303 1516332
-1132.4817 -216.22995 1985.8918 3687757
-1127.194 -217.48863 1997.4517 4477018
-1113.0208 -217.04144 1993.3446 4871778
-1110.1887 -218.81999 2009.6792 5332583
-1100.9158 -219.35391 2014.5828 5464426
-1081.8896 -217.93492 2001.5505 5859183
0 0 0 0
-1075.9487 -221.61516 2035.3505 1317920
0 0 0 0
0 0 0 0
-952.09857 -202.95581 1863.9799 5
0 0 0 0
-896.48804 -195.65793 1796.9548 5
-886.09485 -195.72293 1797.5519 5
0 0 0 0
0 0 0 0
0 0 0 0
-669.93262 -155.48013 1427.9553 10662589
-670.65186 -157.64555 1447.843 10531519
-662.19861 -157.68314 1448.1881 10465984
-653.56744 -157.6788 1448.1483 10400962
-643.80444 -157.39763 1445.566 10269633
-635.87421 -157.56299 1447.0847 10269377
-627.68707 -157.66838 1448.0525 8887726
-619.89081 -157.87622 1449.9614 9545399
-607.23944 -156.83597 1440.4076 9939641
-600.84601 -157.40536 1445.637 9215917
-592.4104 -157.44852 1446.0333 7965851
-583.08673 -157.25345 1444.2417 3293519
-575.31586 -157.47758 1446.3002 7570579
-563.05444 -156.46068 1436.9609 9675700
-557.89594 -157.41661 1445.7404 10136764
-551.57684 -158.0699 1451.7401 9610677
-541.14252 -157.54584 1446.9271 8492194
-533.23761 -157.75314 1448.8311 10466498
-520.24854 -156.43845 1436.7567 10071994
-516.28046 -157.83777 1449.6083 6321019
-512.6579 -159.39206 1463.8832 6319734
-510.91199 -161.59358 1484.1023 8095886
-510.56799 -164.32373 1509.1764 8095114
-508.52469 -166.59488 1530.035 4805204
0 0 0 0
0 0 0 0
0 0 0 0
-724.59698 -255.68266 2348.2322 6185820
0 0 0 0
-880.63379 -323.20123 2968.3337 6383199
-865.04535 -323.97491 2975.4395 6185820
-841.75037 -321.83444 2955.7808 6383199
-845.72485 -330.25122 3033.082 6383453
-828.25751 -330.47949 3035.1785 6581088
-808.25195 -329.68256 3027.8594 6515039
-788.0954 -328.78635 3019.6284 6778212
-772.21155 -329.67245 3027.7664 6909543
-778.19525 -340.15942 3124.0808 6909543
-750.2157 -335.95056 3085.4258 6975336
-730.93835 -335.52524 3081.5193 6975336
-716.41254 -337.31519 3097.9587 7106923
-705.7995 -341.09058 3132.6326 6909544
-687.89716 -341.45255 3135.9568 6975337
-675.89374 -344.8443 3167.1072 7172715
-654.32458 -343.41016 3153.9358 6843750
-645.24127 -348.63766 3201.9463 7041129
-627.75336 -349.50388 3209.9016 6843750
-615.0368 -353.16422 3243.5188 6843750
-592.17767 -351.04898 3224.0923 6975336
-585.43921 -358.66852 3294.0713 7041129
-579.63495 -367.40781 3374.3342 6975336
-564.33008 -370.53592 3403.0632 6975336
-544.53571 -370.83936 3405.8501 7106920
-533.28284 -377.20786 3464.3396 6975590
-545.9223 -401.6673 3688.9792 3554099
-529.03644 -405.54193 3724.5645 6778210
-494.30563 -395.47809 3632.1362 6449245
-469.77982 -393.0322 3609.6729 6186074
-447.58267 -392.39359 3603.8076 6844004
-431.20636 -397.05051 3646.5776 6712935
-400.92795 -388.72177 3570.0854 6451303
-385.22382 -394.38239 3622.0735 7703168
-360.98618 -391.45969 3595.2307 6584947
-335.72015 -386.98355 3554.1211 8229000
-316.10336 -388.85526 3571.3113 6319201
-289.03745 -381.17297 3500.7559 6713443
-270.1813 -383.96521 3526.4001 6910055
-245.91284 -378.88843 3479.7742 6580577
-221.83176 -373.19385 3427.4741 7172717
-195.99153 -363.0878 3334.6584 1382682
-173.7325 -358.08749 3288.7351 1448733
-160.58063 -372.97113 3425.4287 7172720
-132.59662 -352.72461 3239.4812 592651
-115.3552 -359.02893 3297.3813 1250066
-97.139771 -364.26343 3345.4558 0
-77.880211 -367.27078 3373.0759 0
-57.541359 -365.50931 3356.8982 131072
-37.042103 -360.31561 3309.1985 526340
-17.21199 -357.23386 3280.895 2631196
2.4012551 -372.74942 3423.3926 3684653
0 0 0 0
0 0 0 0
56.849354 -333.7955 3065.6333 8883585
75.953918 -337.67017 3101.219 8686206
93.853462 -335.72028 3083.3108 7765360
111.14783 -332.59689 3054.625 8423804
129.61885 -333.37744 3061.7937 8685949
147.88564 -333.50507 3062.9661 8686206
164.48351 -330.25388 3033.1062 8751999
183.00502 -331.12592 3041.1155 8686206
199.71388 -328.85632 3020.271 8686206
216.83363 -327.58203 3008.5679 8686206
233.24263 -325.5101 2989.5388 8752256
251.07494 -325.57739 2990.1567 8883073
270.07812 -327.05365 3003.7148 8685695
286.29599 -325.18307 2986.5352 8620415
301.7283 -322.69089 2963.6467 8553854
