# .PCD v0.7 - Point Cloud Data file format
VERSION 0.7
FIELDS x y z rgb
SIZE 4 4 4 4
TYPE F F F U
COUNT 1 1 1 1
WIDTH 1406
HEIGHT 1
VIEWPOINT 0 0 0 1 0 0 0
POINTS 1406
DATA ascii
0 0 0 0
0 0 0 0
0 0 0 0
0 0 0 0
0 0 0 0
0 0 0 0
635.19812 561.6394 1665.6796 458752
645.21503 561.73535 1665.9641 524288
651.01251 558.21039 1655.51 524288
656.29492 554.35547 1644.0773 458752
662.65344 551.50934 1635.6364 393216
671.16199 550.50903 1632.6698 262144
678.08881 548.25848 1625.9951 328450
685.37933 546.36108 1620.3679 197120
690.34656 542.68988 1609.4802 65536
699.18134 542.11792 1607.7839 854539
709.34119 542.57495 1609.1393 262401
722.3241 545.15039 1616.7775 327680
0 0 0 0
730.27234 536.85541 1592.1766 2036232
744.85767 540.56812 1603.1875 1904131
749.24158 536.87701 1592.2406 2167301
761.06696 538.54376 1597.1838 2035457
0 0 0 0
802.08582 553.74603 1642.27 2036227
0 0 0 0
0 0 0 0
859.7959 572.66705 1698.3848 2167558
871.65308 573.82294 1701.813 1969925
897.67401 584.16962 1732.4984 2036234
904.70441 582.06335 1726.2518 458752
906.44843 576.64142 1710.1719 524288
905.78632 569.82617 1689.9595 458752
915.34521 569.5199 1689.0511 458752
922.73511 567.88544 1684.2037 393216
929.50195 565.90674 1678.3354 393216
937.42432 564.66602 1674.6559 327680
927.09552 552.57336 1638.7921 196608
950.81946 560.81744 1663.2418 196608
940.29175 548.89728 1627.8896 131072
946.7406 547.02917 1622.3494 65536
948.49445 542.51331 1608.9565 65536
959.77399 543.48175 1611.8286 65536
973.78558 545.96277 1619.1866 196608
996.15173 553.03333 1640.1562 1644559
1058.5671 581.98535 1726.0205 5460030
1146.6648 624.36536 1851.709 5065527
1189.8077 641.69379 1903.1006 5196599
1185.7948 633.50293 1878.8085 5130807
1201.5853 635.94611 1886.0544 5590846
1210.2788 634.62262 1882.1293 5590590
1199.208 623.05481 1847.8221 5590590
1198.6122 617.08997 1830.132 6117191
1205.9575 615.28418 1824.7764 7104343
1213.4193 613.56934 1819.6907 6973526
1217.3347 610.10754 1809.4238 6315342
1222.2085 607.1825 1800.7489 6644307
1227.9515 604.73639 1793.4944 6446929
1226.4034 598.77258 1775.8073 6118219
1230.3672 595.57874 1766.3351 5131069
1230.4469 590.57471 1751.4945 4275758
1240.0836 590.20337 1750.3931 3551780
1249.8772 589.91217 1749.5294 3749163
1248.7206 584.50024 1733.4791 4867901
1250.1512 580.37805 1721.2537 5920847
1267.5762 583.68774 1731.0695 7828841
1256.3153 573.84155 1701.868 8289137
1261.829 571.75342 1695.6753 8223085
1257.6849 565.35712 1676.7054 8223342
1255.6876 560.01886 1660.8735 8288878
1255.4355 555.53619 1647.5791 8157292
1250.3972 549.02142 1628.2579 8025709
1242.0741 541.1756 1604.9893 6512213
1239.6255 535.9895 1589.6085 6644315
1236.5405 530.60876 1573.6508 6644317
1238.7906 527.58105 1564.6713 6644317
1231.243 520.45697 1543.543 6841696
1244.8816 522.32751 1549.0906 4736320
1261.9359 525.59326 1558.776 6183509
1258.7375 520.43774 1543.4861 4999235
1266.478 519.84692 1541.7338 4999234
1263.7078 514.9812 1527.3033 6117458
1262.7094 510.90195 1515.2052 4933696
1254.875 504.13419 1495.1338 6710106
1275.668 508.88144 1509.213 6578779
1279.7122 506.92783 1503.4189 7104353
1278.5267 502.94403 1491.604 7038303
1279.7336 499.94977 1482.7239 6906974
1282.4097 497.56647 1475.6556 6643802
1278.0825 492.51694 1460.6799 6709595
1284.5613 491.67151 1458.1726 6775387
1288.9709 490.05081 1453.3661 6841181
1294.8132 488.99274 1450.2281 6775387
1298.252 487.04697 1444.4574 7038044
1295.7217 482.90216 1432.165 6906201
1301.5305 481.89911 1429.1903 6709079
1302.2234 479.02719 1420.6729 6774872
1311.7893 479.43521 1421.8829 6774872
1313.5026 476.98639 1414.6204 6445908
1331.3905 480.40503 1424.7592 6774616
1340.7858 480.73544 1425.739 6511700
1348.7568 480.5542 1425.2015 6643286
1354.093 479.44232 1421.9041 6643286
1386.2263 487.77344 1446.6119 6643284
1395.3611 487.95908 1447.1625 6643284
1414.9783 491.78571 1458.5114 6643283
0 0 0 0
0 0 0 0
0 0 0 0
0 0 0 0
0 0 0 0
0 0 0 0
0 0 0 0
0 0 0 0
0 0 0 0
0 0 0 0
0 0 0 0
0 0 0 0
0 0 0 0
0 0 0 0
0 0 0 0
-1343.4589 550.16156 1603.3578 0
-1339.2311 552.35089 1609.7383 65536
-1335.9443 554.96265 1617.3499 256
-1332.5072 557.54944 1624.8885 0
-1328.1077 559.76837 1631.3552 263172
-1328.7477 564.15961 1644.1528 4145727
-1329.4301 568.63403 1657.1929 4014140
-1326.4789 571.60956 1665.8646 3225396
-1335.5023 579.82898 1689.8186 3553335
-1338.3489 585.47076 1706.2607 3684665
-1341.6389 591.39423 1723.5238 3488312
-1338.6132 594.60352 1732.8767 3356470
-1339.089 599.43005 1746.9429 3356469
-1337.2943 603.3078 1758.2439 3356471
-1334.8455 606.94916 1768.8562 3159093
-1328.2939 608.76813 1774.1572 3159092
-1318.674 609.19867 1775.412 3224884
-1316.0496 612.89398 1786.1814 3487540
-1316.0811 617.89642 1800.7603 2829608
-1296.1448 613.52924 1788.0327 789509
0 0 0 0
0 0 0 0
0 0 0 0
0 0 0 0
-999.90027 493.54913 1438.3699 2957320
-982.40314 489.09711 1425.3951 2891272
-973.40082 488.83365 1424.6273 1641728
-977.27661 495.08954 1442.8591 721664
-975.19006 498.40903 1452.5332 459264
-1154.0573 595.09796 1734.3177 196608
-1194.3866 621.44855 1811.1123 196608
-1226.3323 643.87701 1876.4764 196608
-1170.5975 620.25867 1807.6445 0
-1159.8464 620.25867 1807.6445 65536
-1140.2627 615.49091 1793.7498 65536
-1130.3329 615.89337 1794.9226 131072
0 0 0 0
-1110.4325 616.69891 1797.2703 196608
-1102.1058 618.0238 1801.1315 262144
-1105.1138 625.79315 1823.7739 1051138
0 0 0 0
-1016.7579 587.2887 1711.5588 787456
-1014.061 591.65448 1724.2821 984832
-999.31927 589.01007 1716.5756 787200
-992.37903 590.95685 1722.249 656384
-984.46857 592.36047 1726.3397 1314572
-977.6944 594.48462 1732.5302 1184013
-983.20306 604.20203 1760.85 1184272
-980.229 608.8598 1774.4243 1250067
-998.46844 626.93884 1827.1129 1052687
-999.66943 634.59961 1849.4388 1184274
-1006.4427 646.00757 1882.6855 1184272
-1008.7913 654.80017 1908.3102 920844
-1011.163 663.80798 1934.5621 592135
-1008.2745 669.53027 1951.2388 460549
-1007.1193 676.55017 1971.6971 263170
-998.55981 678.70294 1977.9711 197378
-996.62067 685.46033 1997.6644 723721
-992.28992 690.71613 2012.9816 789514
-984.07831 693.36578 2020.7036 460549
-966.62122 689.48633 2009.3975 657928
-964.95581 696.91479 2031.0466 657928
-956.97992 699.91638 2039.7942 855307
-947.19537 701.65509 2044.8615 855307
-942.00214 706.88446 2060.1016 855307
-930.31244 707.31238 2061.3486 592392
-929.30859 715.98462 2086.6226 722951
-916.94922 716.02448 2086.7385 591106
-908.35394 719.04492 2095.5413 327680
-889.73889 714.10748 2081.1519 393216
0 0 0 0
0 0 0 0
0 0 0 0
0 0 0 0
0 0 0 0
0 0 0 0
0 0 0 0
0 0 0 0
0 0 0 0
0 0 0 0
-537.68433 509.51807 1484.9088 655616
-526.18646 506.94922 1477.4224 1048832
-505.78375 495.56818 1444.2542 2494723
-492.9462 491.33432 1431.9152 4861967
-489.66324 496.6423 1447.3845 4862221
-485.95395 501.7002 1462.1249 4862483
-478.04263 502.52515 1464.5291 3680010
-471.33112 504.66531 1470.7662 1049600
-507.94284 554.15088 1614.984 1050112
-502.87595 559.19751 1629.6915 1246208
-502.64047 569.92053 1660.9421 1640704
-497.06277 574.89484 1675.4388 2035200
-489.79407 578.07678 1684.7123 2561796
-483.8967 583.04407 1699.1886 2891018
-479.28137 589.80084 1718.8801 1378304
-469.73029 590.64594 1721.3429 787200
-465.34821 598.17297 1743.2793 853248
-454.48666 597.52448 1741.3893 722432
-456.27655 613.86664 1789.0161 656384
-445.63629 613.86664 1789.0161 524800
-438.91339 619.39484 1805.1271 722176
-437.42627 632.77423 1844.1191 853760
0 0 0 0
0 0 0 0
-441.24792 690.22235 2011.5425 722176
-437.41882 703.30164 2049.6599 985344
-424.85458 702.68341 2047.8582 853760
-416.79453 709.69818 2068.3018 919552
-404.59119 709.87006 2068.8027 984832
-392.94797 711.06647 2072.2893 985344
-383.12015 715.73169 2085.8855 787968
-371.48138 717.21277 2090.2019 722176
-363.37378 725.8501 2115.3738 1051136
-356.24033 737.12262 2148.2258 1051136
-346.06412 742.70361 2164.4907 1116928
-334.40329 745.40649 2172.3679 1248001
-319.10214 739.88611 2156.2795 1313793
-306.27753 739.88611 2156.2795 1379330
-292.51535 737.52203 2149.3899 1379075
-280.45551 739.4303 2154.9512 1313538
-268.07364 740.63165 2158.4524 1116417
-266.70898 773.92297 2255.4746 1379586
-244.77518 747.89307 2179.6145 1445379
-232.14235 748.95947 2182.7224 1445379
-222.77768 761.3208 2218.7476 1576964
-212.00432 770.12158 2244.396 1510914
-194.18877 752.80505 2193.9297 1445121
-181.78711 755.49329 2201.7642 1773830
-165.30011 740.30255 2157.4932 1773831
-152.99329 742.8515 2164.9219 1576452
-140.21619 743.37579 2166.4497 1576452
-127.0722 741.86426 2162.0447 1642246
-114.94014 746.58521 2175.803 1971208
-102.2298 748.27136 2180.717 1905415
-88.524849 742.1095 2162.7593 1971208
-75.97451 745.17737 2171.7002 1970694
-63.129097 746.01514 2174.1416 2036487
-50.049965 743.81097 2167.718 1839107
-38.177059 764.22339 2227.2065 1839107
-24.187319 741.43781 2160.8018 1904900
-11.339866 741.70117 2161.5693 1708034
1.5100518 738.70331 2152.8325 1839621
14.421694 744.25409 2169.0093 1971208
27.25939 742.54883 2164.0398 1839622
40.080059 741.62244 2161.3398 1971208
52.867065 740.67432 2158.5767 2234123
65.823662 742.00848 2162.4648 1970951
78.895798 743.99597 2168.2571 2364939
91.287048 739.90631 2156.3384 2364939
104.67289 743.89258 2167.9558 2495755
123.66238 782.46094 2280.3572 2495755
130.61946 744.79639 2170.5898 2364423
143.52914 744.79639 2170.5898 2496008
157.44402 749.58197 2184.5366 2561545
170.95793 751.87445 2191.2178 2299143
184.76698 755.0484 2200.4675 2430473
196.27701 749.02881 2182.9246 2365450
212.13535 759.32068 2212.9185 2497036
224.72719 757.40094 2207.3237 2497036
235.24931 749.10254 2183.1394 2299657
249.84178 753.95538 2197.2822 2299657
261.49789 749.90521 2185.4785 2431242
271.54831 741.85187 2162.0085 2431243
287.24652 749.25861 2183.5942 2365450
298.73593 745.52118 2172.7021 2365193
311.89978 746.09912 2174.3865 2102023
323.64612 743.37512 2166.4478 2496780
336.59619 743.5188 2166.8665 2365194
350.5567 745.80151 2173.519 2430987
363.42169 745.67401 2173.1475 2628366
374.69431 742.40027 2163.6067 2364680
387.06271 741.44293 2160.8167 2562318
402.17053 745.62604 2173.0076 2496524
417.93668 750.73114 2187.8857 2496779
431.51276 751.71289 2190.7468 2693645
444.20331 751.13953 2189.0759 2561547
457.41202 751.45013 2189.9812 2561803
470.50928 751.56555 2190.3174 2759181
482.07809 749.29907 2183.7122 2693131
496.48697 751.45001 2189.9807 2825231
507.03662 747.79919 2179.3411 2825230
521.52802 749.99902 2185.752 2891278
530.26013 744.01086 2168.3005 2365448
541.16479 741.28302 2160.3506 2628106
554.3985 741.79803 2161.8516 2364422
567.37 741.94678 2162.2852 3088143
577.9577 739.04083 2153.8162 2824973
589.70459 737.71094 2149.9404 2824974
602.36993 737.56213 2149.5068 2890767
612.04675 733.8363 2138.6484 2890767
625.26013 734.41608 2140.3381 2890767
639.22943 735.84302 2144.4966 2758924
647.53711 730.82416 2129.8701 2825488
661.07788 731.79095 2132.6875 2759438
671.97943 729.85461 2127.0444 2693645
684.63013 729.85461 2127.0444 2561546
691.74396 724.05908 2110.1543 2824972
706.86963 726.70679 2117.8706 2890765
0 0 0 0
0 0 0 0
0 0 0 0
0 0 0 0
0 0 0 0
0 0 0 0
0 0 0 0
636.25989 572.5014 1668.4637 655360
643.24164 569.89539 1660.8688 589824
649.81146 567.00861 1652.4558 589824
654.68286 562.74799 1640.0389 458752
658.99115 558.13556 1626.5967 721668
671.75891 560.71771 1634.1219 723208
677.05493 557.07843 1623.516 526085
684.02008 554.89563 1617.1544 855047
686.68878 549.33624 1600.9525 256
693.59094 547.26929 1594.9287 657157
707.12201 550.41797 1604.1051 393986
715.01019 549.14899 1600.4067 262144
717.07635 543.50055 1583.9453 787200
725.63794 542.85797 1582.0725 1905161
734.71075 542.60931 1581.3479 1772802
749.08746 546.23456 1591.9131 2232837
760.37988 547.54834 1595.7419 2298629
776.03009 551.92902 1608.5088 2101249
791.33337 555.95935 1620.2544 2298629
805.133 558.849 1628.6759 2232837
830.66156 569.71423 1660.3409 1969920
847.81757 574.64935 1674.7234 2167044
849.06476 568.81201 1657.7115 1838596
0 0 0 0
903.39893 591.47559 1723.7609 524288
899.63519 582.4021 1697.3176 458752
904.21643 578.87225 1687.0305 589824
913.32367 578.28564 1685.3209 1114112
916.39423 573.93103 1672.6301 2031616
926.14551 573.80914 1672.2749 1769472
932.13043 571.3811 1665.1987 1179648
940.07874 570.19501 1661.7419 720896
943.37677 566.24231 1650.2225 196608
947.1684 562.66425 1639.7949 196608
953.97705 560.93317 1634.7499 65536
950.50897 553.25531 1612.3739 65536
956.31458 551.07471 1606.0189 65536
962.40881 549.10199 1600.2698 196608
975.29767 551.00653 1605.8203 196608
965.80701 540.35321 1574.7729 196864
1145.2245 634.58038 1849.3829 4407603
0 0 0 0
1193.2662 648.7392 1890.6465 4868150
1199.4264 646.00067 1882.6655 5196859
1206.019 643.54364 1875.5049 5065274
1197.2173 632.99231 1844.7546 5262652
1194.8208 625.9884 1824.343 5393981
1198.5675 622.30017 1813.5942 5524797
1213.0677 624.21118 1819.1636 6446157
1217.2258 620.81366 1809.262 7038294
1224.137 618.86749 1803.5903 7564638
1229.5691 616.21393 1795.8568 6446157
1236.5485 614.37482 1790.4971 5657157
1233.9963 607.87183 1771.5452 6249295
1236.0519 603.72955 1759.4731 5920331
1230.8867 596.15955 1737.4115 6249040
1238.5366 594.87061 1733.6553 3354917
1244.9089 592.99463 1728.1877 4012335
1247.9536 589.57703 1718.2279 4538423
1255.045 588.11133 1713.9563 5986124
1233.8993 573.54401 1671.5022 7236191
1240.7954 572.13983 1667.4099 8880758
1253.6974 573.50531 1671.3894 8880758
1253.7865 569.03412 1658.3589 8815222
1254.1406 564.75214 1645.8796 8486257
1250.5571 558.77704 1628.4662 8420464
1241.892 550.64062 1604.7538 8421234
1241.8102 546.40503 1592.4099 7763050
1241.0873 541.95361 1579.437 6775900
1238.7081 536.85126 1564.567 6381145
1244.1682 535.1972 1559.7465 6578524
1251.7917 534.49133 1557.6893 7104868
1265.3662 536.31818 1563.0133 5262664
1267.9855 533.50879 1554.826 6315352
1267.8861 529.60461 1543.4479 6381144
1273.1959 527.99969 1538.7706 5394507
1278.4691 526.40271 1534.1163 3815219
1281.8312 524.04694 1527.2509 5131592
1278.6353 519.06219 1512.7235 6118230
1274.7635 513.87457 1497.6052 7170661
1279.64 512.26105 1492.9028 6973282
1281.3219 509.39975 1484.5641 6907488
1289.4159 509.10934 1483.7177 6973280
1285.5353 504.12698 1469.1974 6906973
1285.6493 500.76791 1459.4078 6643802
1288.9709 498.69476 1453.3661 6774872
1289.9817 495.7612 1444.8167 6774872
1290.6572 492.73843 1436.0073 6774872
1294.839 491.0853 1431.1895 6774872
1297.5516 488.90015 1424.8212 6906458
1301.3007 487.13135 1419.6663 6840664
1308.6949 486.74109 1418.5289 6774871
1318.9299 487.40564 1420.4656 7037785
1329.9222 488.33972 1423.1879 6511698
1338.6182 488.42419 1423.4341 6577491
1346.4606 488.19809 1422.7751 6643027
1358.5717 489.51288 1426.6069 6643284
1361.3776 487.4794 1420.6807 6511698
1377.5604 490.23145 1428.701 6643284
1393.8647 492.99271 1436.7483 6709077
0 0 0 0
0 0 0 0
0 0 0 0
0 0 0 0
0 0 0 0
0 0 0 0
0 0 0 0
0 0 0 0
0 0 0 0
0 0 0 0
0 0 0 0
0 0 0 0
0 0 0 0
0 0 0 0
-1349.3268 558.18018 1599.0109 65536
-1342.1674 559.15955 1601.8164 65536
-1335.4111 560.32208 1605.1467 256
-1334.5626 563.99805 1615.6771 526342
-1335.2268 568.37115 1628.2047 3619126
-1330.4033 570.45526 1634.1749 4013628
-1325.311 572.45386 1639.9004 3355954
-1329.0927 578.34351 1656.7723 3290163
-1332.1696 584.01215 1673.0114 3421749
-1335.1836 589.73846 1689.4153 3158577
-1337.5187 595.24933 1705.2023 3618617
-1341.0964 601.40167 1722.8269 3488056
-1341.4937 606.21155 1736.6056 3422262
-1339.0725 609.81262 1746.9215 3224885
-1338.3868 614.26648 1759.6804 3356727
-1337.0809 618.5036 1771.8185 2961969
-1332.7253 621.38623 1780.0762 2961968
-1328.521 624.38599 1788.6696 2895404
-1334.2018 632.11761 1810.8182 1579543
-1325.1417 632.93433 1813.1578 1579286
-1310.3463 631.0025 1807.6238 3487280
0 0 0 0
0 0 0 0
0 0 0 0
0 0 0 0
-1004.3186 504.32263 1444.7258 2956807
-994.02582 503.46146 1442.2589 3351564
-961.13019 491.03763 1406.6685 1378560
-961.22534 495.3985 1419.161 1116416
-1125.3331 585.11462 1676.1694 393216
-1217.3102 638.59509 1829.3743 196608
-1233.5367 652.94348 1870.4778 256
-1163.1558 621.29211 1779.8066 65536
-1169.379 630.35284 1805.7628 65536
-1099.5255 598.19232 1713.6331 65536
-1099.3525 603.69409 1729.3939 65536
-1126.9238 624.67908 1789.5092 131072
-1093.7896 612.0929 1753.4537 196608
-1075.542 607.67535 1740.7988 196608
-1070.6249 610.77667 1749.6832 262144
0 0 0 0
0 0 0 0
-1010.1881 593.60773 1700.4995 984576
-1014.3522 602.08258 1724.7773 984320
-996.55334 597.56104 1711.8245 524288
-987.19501 598.05945 1713.2523 919552
-966.185 591.43585 1694.278 1512204
-991.98108 613.6264 1757.8469 1184013
-985.45728 616.08405 1764.8871 1250065
-994.19666 628.2395 1799.7087 1053457
-989.05377 631.79175 1809.8848 987406
-982.20404 634.31989 1817.1271 987406
-1004.7418 656.09418 1879.5037 658697
-1020.7213 674.02783 1930.8779 658184
-1011.5357 675.56281 1935.2753 592135
-1004.7918 678.78271 1944.4991 460549
-997.9068 681.98096 1953.6613 394757
-984.67163 680.86383 1950.4609 263170
-989.62604 692.44745 1983.6443 657928
-988.08936 699.71381 2004.4601 526342
-973.98145 698.14673 1999.9709 592135
-964.86603 700.16364 2005.7488 394756
-957.19635 703.29346 2014.7146 855307
-945.65997 703.62537 2015.6656 723721
-950.1524 716.04547 2051.2454 789514
-935.45428 714.13831 2045.7817 657928
-936.21295 724.13623 2074.4229 328706
-916.125 718.06158 2057.0208 591105
-909.82758 722.77789 2070.5315 196608
-901.61438 726.08075 2079.9932 327680
-885.69073 723.17993 2071.6831 393472
-870.64172 720.92139 2065.2131 327680
0 0 0 0
0 0 0 0
0 0 0 0
0 0 0 0
0 0 0 0
0 0 0 0
0 0 0 0
0 0 0 0
-546.21216 518.06152 1484.0835 458752
-535.70276 516.43933 1479.4364 589824
-526.07385 515.62592 1477.1062 1180672
-505.19211 503.56824 1442.5647 2167042
-496.87158 503.83105 1443.3176 4796687
-490.00601 505.6044 1448.3977 4928013
-484.98856 509.38223 1459.2201 4928782
-477.41229 510.5614 1462.5979 3745288
-472.00922 514.15143 1472.8823 1705984
-507.00323 562.7132 1611.9965 983296
-502.35257 568.2981 1627.9954 1245440
-503.98502 581.35004 1665.3851 1443328
-498.01526 585.98029 1678.6494 2035200
-491.38892 590.01166 1690.198 2627584
-484.16119 593.47424 1700.1172 2759171
-479.81442 600.69135 1720.7919 1246720
-470.93729 602.42767 1725.7659 721408
-464.81329 607.84174 1741.2755 721920
-455.55905 609.31573 1745.4982 656128
-450.79858 617.00922 1767.5375 985344
-446.75565 626.07556 1793.5098 1116928
-439.23645 630.59473 1806.4557 656384
-442.48926 651.19324 1865.464 787968
0 0 0 0
-430.43234 666.89288 1910.4385 722176
-442.02991 703.43054 2015.1074 722176
-423.50906 692.73975 1984.4817 1116160
-423.02277 711.78094 2039.0288 1116160
-412.93372 715.31165 2049.1431 1050624
-400.04709 714.06354 2045.5676 787712
-421.06128 775.1463 2220.5505 853760
-378.46442 719.28912 2060.5374 787968
-366.89066 720.6275 2064.3713 985344
-364.2254 740.16205 2120.3315 1051136
-350.66678 738.16669 2114.6157 1248513
-339.04974 740.26227 2120.6187 985344
-325.33905 737.77179 2113.4844 1050880
-315.21008 743.52997 2129.9797 1116416
-315.36124 775.03485 2220.2312 1050624
-287.07666 736.35535 2109.4268 1248002
-275.63943 739.32916 2117.9458 1116418
-263.7359 741.27716 2123.5261 1642758
-252.63899 745.80219 2136.489 1445379
-240.55865 747.74976 2142.0681 1511173
-230.46129 756.42365 2166.916 1313793
-214.98569 747.42694 2141.1433 1576966
-201.16405 743.40967 2129.635 1642758
-192.98491 761.10559 2180.3284 1445380
-177.52858 750.5835 2150.1858 1444866
-162.62225 740.93365 2122.542 1773831
-149.99834 740.93365 2122.542 1642245
-137.80589 743.26086 2129.2087 1839624
-128.12103 760.95245 2179.8896 1905417
-111.79317 738.73065 2116.2312 1576451
-101.48217 755.67407 2164.7688 1839621
-86.751633 739.85004 2119.4377 1905415
-74.165352 740.04138 2119.9861 1970694
-61.579056 740.31116 2120.7588 1707522
-49.602371 749.93646 2148.3323 1970692
-36.405113 741.3844 2123.8333 1904900
-24.086287 751.13855 2151.7759 1970692
-11.17223 743.40277 2129.6152 1971462
1.4994555 746.23389 2137.7256 2234891
14.205691 745.81403 2136.5227 1839876
26.829243 743.49933 2129.8918 2102279
39.429985 742.23993 2126.2842 1970692
52.100536 742.58722 2127.2791 2233864
64.746452 742.51636 2127.0759 2430988
77.540306 743.88776 2131.0046 2299144
90.643646 747.42596 2141.1404 2364939
103.01258 744.78253 2133.5679 2299146
119.81985 771.28888 2209.5002 2429962
128.80887 747.20306 2140.502 2758927
141.39235 746.42566 2138.2749 2758926
154.73877 749.4718 2147.0012 2495755
168.10922 752.16107 2154.7051 2562060
181.25209 753.52319 2158.6072 2364938
194.21268 753.9975 2159.9658 2299657
207.21912 754.57983 2161.634 2497036
220.03432 754.43854 2161.2292 2431244
232.41647 752.90985 2156.8501 2365450
245.16359 752.66162 2156.1389 2431242
256.43222 748.12469 2143.1421 2233864
267.91687 744.61774 2133.0959 2430986
278.3848 738.72998 2116.2292 2496523
293.59659 745.39545 2135.3237 2496266
308.37265 750.44788 2149.7974 2496266
318.4826 744.19476 2131.884 2232837
335.09818 753.03998 2157.2229 2299143
342.22308 740.69171 2121.8489 2298630
358.21625 747.73315 2142.0205 2693131
370.50455 746.82312 2139.4136 2495752
381.39139 743.24243 2129.156 2298631
396.93546 748.67596 2144.7214 2430987
410.14288 749.50122 2147.0854 2365196
424.14398 751.68323 2153.3362 2496266
434.60577 747.64862 2141.7783 2759181
449.52469 751.29303 2152.2185 2430216
462.5174 751.60547 2153.1135 2430216
473.8786 749.32129 2146.5701 2627338
486.65698 749.33905 2146.6208 2693385
499.75958 749.84235 2148.0627 2890765
511.87799 748.88074 2145.3081 2627336
522.73981 746.17218 2137.5488 2758922
532.59668 742.19183 2126.1462 2561800
546.49512 743.89758 2131.0327 3022351
558.06195 742.42407 2126.8115 3088144
569.89856 741.36682 2123.783 2956558
578.38446 736.09113 2108.6697 2759181
593.49408 739.29016 2117.834 3088146
603.86902 736.58105 2110.0732 2956561
618.06799 738.55176 2115.7188 2561545
629.25043 736.91125 2111.019 2562059
642.41284 737.60815 2113.0156 2562316
654.25183 736.78802 2110.666 2628106
664.10614 733.80573 2102.1228 2891536
674.4892 731.50714 2095.5381 2628109
686.25641 730.76587 2093.4146 2562316
690.06824 721.73065 2067.5315 2628108
0 0 0 0
704.20532 711.17084 2037.2809 2496779
664.77386 659.99323 1890.6731 2497036
0 0 0 0
0 0 0 0
0 0 0 0
0 0 0 0
633.87939 580.24573 1662.2216 787458
638.63098 575.61768 1648.9637 1772809
645.21826 572.75934 1640.7754 918532
652.43604 570.53748 1634.4105 524288
655.8988 565.14532 1618.9637 853254
654.9552 556.16754 1593.2452 131072
665.94836 557.43756 1596.8834 65536
680.63867 561.72314 1609.1602 2630947
681.77173 554.85632 1589.4889 0
690.44177 554.22736 1587.6871 525572
703.55621 557.13483 1596.0161 525315
711.34943 555.80719 1592.2129 196608
718.97266 554.3833 1588.134 262144
730.70935 556.12708 1593.1293 524801
730.57343 548.90588 1572.4429 984576
738.02264 547.4942 1568.3988 1444353
749.78217 549.27539 1573.5015 1970435
770.31744 557.36237 1596.668 2298627
778.77338 556.61884 1594.538 2167042
823.13373 581.24658 1665.0889 2232835
819.14526 571.55383 1637.322 2035969
832.37512 573.96149 1644.2194 2035971
834.6756 568.86462 1629.6183 1838595
887.26337 597.76398 1712.406 1510405
892.96893 594.78064 1703.8596 524288
898.00421 591.42279 1694.2404 524288
900.84747 586.71185 1680.745 655360
910.90265 586.74976 1680.8536 720896
913.35559 581.94305 1667.084 655360
926.00507 583.66663 1672.0214 655360
928.80603 579.21179 1659.2598 393216
941.90802 581.20703 1664.9755 262144
943.99457 576.43433 1651.3032 196608
939.48541 567.77386 1626.4937 65536
940.43988 562.55817 1611.5524 65536
947.49536 561.06036 1607.2617 65536
954.56708 559.60211 1603.0842 131072
960.35919 557.42993 1596.8616 196608
965.06189 554.67413 1588.9672 131072
974.51276 554.67438 1588.9678 196608
966.16455 544.64099 1560.2253 196608
978.62195 546.41534 1565.3083 394240
0 0 0 0
1111.7422 609.15338 1745.0331 4867891
1147.6812 623.02905 1784.7823 4999221
1126.3652 605.85388 1735.5811 5328186
1156.0029 616.14886 1765.0729 5327928
1150.9176 607.91779 1741.4934 5130549
1175.2792 615.24872 1762.4943 5788223
1207.425 626.48901 1794.6942 5459518
1220.3148 627.62866 1797.959 5459265
1223.2125 623.65399 1786.5728 6249295
1237.4464 625.47778 1791.7972 6578260
1233.4236 618.12122 1770.723 6578775
1230.9684 611.66809 1752.2369 6249809
1243.3418 612.62988 1754.9921 5854797
1230.3514 601.18219 1722.198 4867902
1240.8623 601.31213 1722.5702 5196869
1245.5793 598.65521 1714.959 5262663
1250.3374 596.06097 1707.5273 4209975
1248.5306 590.40424 1691.3225 4868157
1240.6155 581.97247 1667.1682 5394500
1236.8635 575.61188 1648.947 6775639
1246.2788 575.43085 1648.4286 8223341
1256.2286 575.49762 1648.6198 9012601
1248.1266 567.3576 1625.3011 8683636
1252.624 565.02588 1618.6216 8288877
1250.2338 559.64667 1603.2118 8223086
0 0 0 0
1251.5382 551.81348 1580.7722 8091759
1247.0645 545.74133 1563.3773 7565418
1255.7579 545.47864 1562.6249 7828075
1264.3893 545.19299 1561.8065 4735804
1272.2023 544.56116 1559.9966 6446679
1269.103 539.30145 1544.9292 6775901
1275.8552 538.27362 1541.9846 6644314
1277.6613 535.18848 1533.1469 6710107
1276.4561 530.89478 1520.8467 6183763
1276.8646 527.32794 1510.6288 5196868
1275.5416 523.10077 1498.5194 4275770
1277.4733 520.25775 1490.375 6512729
1276.4573 516.26178 1478.9277 6841694
1280.5311 514.36499 1473.494 7169889
1285.5353 512.86511 1469.1974 6841181
1283.1033 508.43887 1456.5176 6643802
1289.2925 507.46533 1453.7286 6774874
1289.8234 504.29245 1444.6394 6906460
1291.1354 501.46494 1436.5394 6972254
1295.3872 499.80887 1431.7953 6840667
1300.7712 498.60849 1428.3566 6774873
1306.7502 497.65018 1425.6115 6709079
1308.6949 495.17786 1418.5289 6774872
1313.2363 493.71338 1414.3336 6708822
1323.709 494.48322 1416.5391 6709079
1329.2826 493.42477 1413.507 6840409
1340.2285 494.36139 1416.1899 6774872
1347.7935 494.04691 1415.2891 6840665
1354.4252 493.39633 1413.4254 6445905
1368.6619 495.50711 1419.4722 6577491
1378.123 495.87372 1420.5223 6445905
0 0 0 0
0 0 0 0
0 0 0 0
0 0 0 0
0 0 0 0
0 0 0 0
0 0 0 0
0 0 0 0
0 0 0 0
0 0 0 0
0 0 0 0
0 0 0 0
0 0 0 0
-1357.1086 566.96832 1596.9771 65536
-1347.3876 566.87457 1596.7129 0
-1327.2429 562.36285 1584.0048 526343
-1330.7615 567.88464 1599.558 4145211
-1327.4146 570.53503 1607.0233 4211005
-1321.053 571.91882 1610.921 3224108
-1325.1691 577.89203 1627.7456 3223855
-1331.2152 584.8009 1647.2059 3224368
-1332.7277 589.80585 1661.3035 3290161
-1333.8059 594.69214 1675.0664 3421749
-1333.7439 599.13959 1687.5936 3355956
-1334.8497 604.18304 1701.7996 3619129
-1343.7773 612.87103 1726.271 3290420
-1339.0903 615.43561 1733.4945 3421492
-1339.8014 620.5401 1747.8724 2895148
-1337.9677 624.53662 1759.1293 263173
-1338.6586 629.78381 1773.9091 1513751
-1331.2578 631.27734 1778.116 1974559
-1336.2217 638.70508 1799.0375 1251091
-1336.3009 643.89899 1813.6672 2829611
-1331.3237 646.72119 1821.6166 4606277
-1288.76 631.1814 1777.8456 3751479
0 0 0 0
0 0 0 0
0 0 0 0
0 0 0 0
-1000.5769 511.00424 1439.3433 2760455
-986.44141 508.13251 1431.2544 2957834
-962.42993 500.07919 1408.5707 1247232
-959.15625 502.75449 1416.1062 1445376
-1125.3331 595.08368 1676.1694 327680
-1197.0636 638.6731 1798.9475 262144
-1167.4714 628.50232 1770.2994 131328
-1170.2654 635.73987 1790.6855 65792
0 0 0 0
-1090.6057 603.44879 1699.7313 65536
-1083.2509 604.98712 1704.0643 65536
-1075.1185 606.11609 1707.2444 65536
-1105.9901 629.46552 1773.0125 196608
-1092.5282 627.78943 1768.2915 262144
-1061.546 615.91541 1734.8459 262144
-1052.8561 616.86926 1737.5328 393472
0 0 0 0
-1010.1268 603.68494 1700.3964 1050368
-1005.746 607.14539 1710.1436 1050624
-999.5553 609.57281 1716.981 787712
-987.4574 608.41077 1713.7078 656640
-986.44427 614.12543 1729.8042 1051654
-992.13397 624.17755 1758.1178 789255
-983.77368 625.51025 1761.8718 789514
-995.47601 639.76556 1802.0247 592137
-990.6413 643.58752 1812.7898 657929
-998.12463 655.58429 1846.5811 723722
-1010.043 670.79333 1889.4203 394758
-1004.0054 674.28546 1899.2567 394758
-1000.8206 679.79486 1914.7749 328963
-996.49109 684.64465 1928.4353 263169
-1000.1342 695.14868 1958.022 197377
-990.08057 696.26813 1961.175 65793
-989.98157 704.49823 1984.3568 526342
-982.40265 707.53979 1992.924 592135
-969.52087 706.78986 1990.8116 592135
-961.89679 709.90161 1999.5765 526343
-957.19635 715.276 2014.7146 394756
-942.16241 712.96704 2008.2108 394756
-955.46844 732.31982 2062.7217 263171
-929.29919 721.52679 2032.321 460034
-920.69495 724.26672 2040.0387 196864
-917.36951 731.2879 2059.8152 262144
-898.42859 725.88275 2044.5905 262144
-871.44208 713.7395 2010.3867 393216
0 0 0 0
-852.26447 717.72809 2021.6213 393216
0 0 0 0
0 0 0 0
0 0 0 0
0 0 0 0
0 0 0 0
0 0 0 0
0 0 0 0
0 0 0 0
-544.31879 525.06183 1478.9392 655616
-538.55023 528.03015 1487.3 918016
-539.99243 538.28564 1516.1868 1048832
0 0 0 0
-492.10513 507.49966 1429.4719 4796944
-490.01382 514.22699 1448.4208 4796942
-484.86444 517.92847 1458.8467 4666130
-480.21298 522.3064 1471.178 3745548
-473.80524 524.90118 1478.4867 1311744
-500.80954 565.30927 1592.304 1115136
-504.60101 580.56763 1635.282 1049344
-500.60696 587.29199 1654.2225 1443328
-499.0954 597.25671 1682.2902 2232832
-491.72012 600.46863 1691.3372 2824706
-484.4386 603.93158 1701.0913 2825222
-477.42047 607.87775 1712.2063 787456
-470.13998 611.65442 1722.8441 787456
-464.39655 617.6438 1739.7144 853760
-457.18909 621.91455 1751.7438 853504
-450.06796 626.50476 1764.6729 721920
-442.41397 630.55457 1776.08 721920
-438.39603 640.11157 1802.9993 722176
-436.81055 653.78864 1841.5234 787968
-428.4613 657.7854 1852.7809 722176
-430.20255 677.89313 1909.4183 853760
-440.13043 712.34119 2006.4481 722432
-432.09454 718.8252 2024.7115 1116672
-419.37152 717.65991 2021.4292 722432
-408.44589 719.59235 2026.8724 853760
-398.08972 722.67621 2035.5587 787712
-388.26889 726.95587 2047.6132 919552
-384.05307 742.3468 2090.9646 985344
-365.41666 729.961 2056.0776 853760
-353.18802 729.961 2056.0776 919296
-351.57025 752.6778 2120.064 787968
-332.43176 738.1792 2079.2258 1051136
-323.24106 745.50317 2099.8552 1248257
-310.47403 744.83618 2097.9766 1313793
-297.49466 743.58264 2094.4456 1379330
-285.97955 746.03931 2101.3652 1510916
-274.177 747.93634 2106.7087 1313794
-261.81091 748.40424 2108.0266 1445379
-249.15479 748.04834 2107.0242 1576964
-235.59874 744.80988 2097.9023 1379587
-226.83871 757.21887 2132.8547 1445379
-214.21016 757.41943 2133.4197 1642756
-197.97717 744.09784 2095.897 1774342
-185.21597 742.91162 2092.5557 1511170
-172.13448 740.17725 2084.8538 1708036
-159.73471 740.17725 2084.8538 1642243
-151.13789 759.28241 2138.6672 1576450
-135.23412 741.81714 2089.4729 1839622
-122.16523 737.94135 2078.5559 1905417
-109.08834 733.13898 2065.0291 1905417
-97.787163 740.56592 2085.9485 1576453
-85.211761 739.09918 2081.8171 1905417
-75.414726 765.32916 2155.699 1642245
-61.567928 752.78839 2120.3755 1905415
-48.657284 748.18158 2107.3994 1905415
-36.350494 752.88477 2120.647 1773829
-23.450411 743.76849 2094.9692 2102792
-10.999572 744.38428 2096.7036 2103048
1.4748795 746.50903 2102.6885 2300427
13.965227 745.68134 2100.3572 1971207
26.461472 745.80139 2100.6953 2233866
39.080093 748.18744 2107.416 2102280
53.812233 780.05182 2197.1682 2364939
64.103523 747.66833 2105.9539 2562318
76.991417 751.20654 2115.9199 2561547
93.739632 786.12415 2214.2722 2824719
102.50916 753.77026 2123.1411 2758926
114.75116 751.24652 2116.0325 2496265
126.97359 749.10632 2110.0042 2496266
139.41881 748.54712 2108.4292 2101766
152.59593 751.68561 2117.2693 2364937
165.78612 754.40509 2124.9292 2496523
178.884 756.349 2130.4045 2497292
191.51434 756.18964 2129.9558 2102021
204.03642 755.64923 2128.4336 2102021
216.33583 754.39526 2124.9016 2299657
226.79443 747.21503 2104.677 2562829
239.74818 748.5766 2108.5122 2562829
251.88667 747.38379 2105.1523 2562829
262.18793 741.11084 2087.4834 2496523
276.82809 747.11511 2104.3955 2956817
288.22507 744.22565 2096.2568 2758924
300.46027 743.65033 2094.6365 2561545
313.09381 744.06769 2095.812 2561802
325.52057 743.98047 2095.5662 2627338
337.76926 743.50763 2094.2344 2561802
351.6842 746.60577 2102.9609 2824718
363.6908 745.57898 2100.0688 2561804
375.42191 744.07428 2095.8306 2627340
388.74561 745.72144 2100.47 2429962
403.13168 749.24048 2110.3821 2495754
415.31781 748.58173 2108.5266 2364937
427.72809 748.35376 2107.8845 2627339
440.15854 748.17303 2107.3755 2759181
454.49136 751.14648 2115.7507 2758922
466.1351 749.63513 2111.4937 2824971
478.84399 749.87103 2112.1582 2627335
490.60281 748.6452 2108.7053 2561799
501.01779 745.4809 2099.7925 2496007
513.24561 745.10223 2098.7258 2496007
524.92426 743.96326 2095.5178 2627593
537.97174 744.77209 2097.7961 2495751
550.50726 744.85175 2098.0203 2693386
562.23547 743.8595 2095.2256 2956558
574.53326 743.64764 2094.6289 2890766
586.99115 743.64764 2094.6289 2429959
599.18365 743.31842 2093.7014 2759180
609.90039 741.20905 2087.76 2956560
623.36548 742.45728 2091.2759 2562316
636.68634 743.48828 2094.1799 2627852
653.42871 748.3985 2108.0105 2693902
664.21332 746.42871 2102.4622 2759438
664.59912 733.06158 2064.811 2628109
672.67908 728.51227 2051.9971 2628108
684.07587 727.65332 2049.5776 2562572
700.53973 732.11981 2062.1584 2431243
704.20532 723.28766 2037.2809 2497038
0 0 0 0
0 0 0 0
0 0 0 0
0 0 0 0
620.61041 586.9325 1653.2101 1380104
625.2019 582.05322 1639.4664 1709070
634.57837 581.71002 1638.4999 458752
639.74231 577.5741 1626.8502 524288
644.39478 573.10651 1614.2664 524545
650.30841 569.87524 1605.1649 459266
658.20612 568.45105 1601.1533 855049
664.33075 565.55798 1593.0045 131072
675.43811 566.92859 1596.865 2433055
678.86212 561.90155 1582.7054 196608
689.75885 563.11267 1586.1167 262400
702.12463 565.47418 1592.7686 262658
709.58057 563.87128 1588.2535 65536
718.10474 563.14819 1586.2169 262144
729.12817 564.37848 1589.6821 327680
737.86731 563.8316 1588.1418 393216
741.46503 559.41956 1575.7144 787456
748.66064 557.79828 1571.1478 1904387
764.12622 562.30261 1583.8352 2100995
778.39386 565.82654 1593.7609 2100992
798.61639 573.54218 1615.4937 2167042
815.73907 578.87476 1630.5137 2167041
853.47571 598.53839 1685.9003 2035457
851.67627 590.34094 1662.8104 1838594
877.56592 601.30396 1693.6901 1707782
891.84998 604.15637 1701.7245 655360
895.77277 600.0047 1690.0303 851968
894.15112 592.27252 1668.2512 917504
903.62549 591.97925 1667.4252 917504
907.14911 587.8363 1655.7557 720896
915.39026 586.8064 1652.8549 655360
914.65686 580.10651 1633.9832 393216
927.37415 581.98859 1639.2845 722435
931.36932 578.41486 1629.2183 196608
950.10022 583.9718 1644.8706 65536
963.17365 585.97363 1650.5093 65536
971.58496 585.12744 1648.1256 65536
958.79077 571.65479 1610.1774 196608
954.0882 563.2254 1586.4343 196608
969.23132 566.56183 1595.832 262144
975.66559 564.79218 1590.8475 262144
984.43439 564.39496 1589.7286 262144
991.44513 563.00702 1585.8191 262144
989.65027 556.69183 1568.0314 327936
1001.1565 557.90686 1571.4536 3288869
1009.21 557.19305 1569.443 4275247
1103.1045 603.4516 1699.7393 5129526
1113.2139 603.4516 1699.7393 5391930
0 0 0 0
1166.7299 621.1795 1749.6733 4536109
0 0 0 0
1204.6731 630.14026 1774.9131 2827035
1223.674 634.51898 1787.2466 2498324
1230.5985 632.61432 1781.8817 3617318
1230.7552 627.29266 1766.8922 6841433
1224.0298 618.58313 1742.3601 7433828
1232.9554 617.86292 1740.3315 6644054
1232.8831 612.68311 1725.7417 5130818
1241.1608 611.70422 1722.9844 4867904
1240.3297 606.28888 1707.731 5196871
1237.7502 600.11377 1690.3376 6380887
1232.4309 592.72052 1669.5131 6380884
1242.3618 592.72113 1669.5149 4078126
1244.6501 589.10455 1659.3279 5328193
1240.717 582.62329 1641.0723 5788231
1249.7849 582.3006 1640.1633 6183502
1251.0425 578.37219 1629.0983 8091500
1243.4448 570.44165 1606.7604 8881016
1250.0166 569.08295 1602.9332 8881016
1252.3613 565.83496 1593.7847 8617845
1255.0953 562.81036 1585.2653 8420724
1260.6954 561.10645 1580.4658 7762793
1254.7644 554.3335 1561.3884 7236450
1259.5012 552.33832 1555.7687 6315349
1272.1765 553.82819 1559.9652 6315093
1280.903 553.58978 1559.2937 6907486
1276.9447 547.91205 1543.3013 6841693
1279.2267 544.97388 1535.0254 6710108
1280.5826 541.68567 1525.7634 6841694
1290.9053 542.20984 1527.2399 6578523
1277.517 532.83722 1500.84 6446938
1277.3478 529.06989 1490.2286 6117971
1268.2607 521.68622 1469.4312 6776157
1266.29 517.31085 1457.1071 6643802
1282.1083 520.21271 1465.2808 6775388
1283.9269 517.43353 1457.4525 6775388
1286.3319 514.92627 1450.3905 6906459
1291.1517 513.41272 1446.1272 6709079
1291.4904 510.14905 1436.9344 6643287
1295.3376 508.30515 1431.7406 6906459
1299.7146 506.69177 1427.1963 6840667
1300.3905 503.66586 1418.6732 6840668
1309.6366 503.97699 1419.5496 6774872
1312.9845 502.0289 1414.0624 6709079
1314.0667 499.24478 1406.2205 6643799
1325.1355 500.26608 1409.0972 6643799
1330.9967 499.32089 1406.4348 6643029
1337.5317 498.63873 1404.5134 6511700
1344.415 498.09409 1402.9792 6643284
1352.8944 498.14383 1403.1194 6643284
1356.3616 496.35873 1398.0913 6445649
0 0 0 0
0 0 0 0
0 0 0 0
0 0 0 0
0 0 0 0
0 0 0 0
0 0 0 0
0 0 0 0
0 0 0 0
0 0 0 0
0 0 0 0
0 0 0 0
0 0 0 0
-1346.1868 571.82715 1584.1248 1184528
-1318.6313 564.07007 1562.6355 4145468
-1328.6095 572.3725 1585.6356 3750452
-1326.9536 575.74585 1594.9808 3487280
-1323.7627 578.49701 1602.6022 3026729
-1316.2505 579.3858 1605.0646 3026729
-1325.7495 587.83038 1628.4585 3026985
-1324.1976 591.46332 1638.5227 3092780
-1333.1028 599.85535 1661.771 3224367
-1333.5991 604.56085 1674.8066 3355955
-1334.2643 609.41425 1688.252 3290163
-1332.6045 613.2713 1698.937 3684921
-1338.3381 620.61584 1719.2834 2501161
-1346.7009 629.30206 1743.3467 0
-1338.9352 630.52777 1746.7423 257
-1342.8329 637.30817 1765.526 592650
-1345.4768 643.5957 1782.9442 1580316
-1345.649 648.79138 1797.3378 2830895
-1337.4236 649.98901 1800.6556 4804171
-1338.0802 655.55762 1816.0822 3620152
-1328.9114 656.36383 1818.3157 3093291
0 0 0 0
0 0 0 0
0 0 0 0
0 0 0 0
0 0 0 0
-1004.9927 521.85779 1445.6954 3088138
-987.50464 517.20184 1432.7971 3022600
-965.4187 510.03574 1412.9449 1707776
-957.64209 510.36987 1413.8706 1313024
-1114.0186 598.96936 1659.3165 458752
-1134.4797 615.42249 1704.8965 262144
-1111.2537 608.2597 1685.0535 196608
-1139.1312 629.1933 1743.0455 131072
-1131.4346 630.6817 1747.1688 131072
-1092.1692 614.43762 1702.1681 0
-1077.5856 611.90509 1695.1523 196608
-1073.6993 615.45654 1704.9908 196608
-1079.7594 624.83148 1730.962 262144
-1080.4358 631.24146 1748.7195 196608
-1054.6292 622.15302 1723.542 393216
-1047.8691 624.2326 1729.3029 393216
-1018.5133 612.75922 1697.5184 1444611
-1012.5933 615.29688 1704.5485 1642245
-1002.4681 615.30463 1704.5698 1444866
-992.69275 615.52948 1705.1929 655872
-985.54712 617.40649 1710.3926 722176
-986.13281 624.21637 1729.2579 722944
-980.70917 627.32599 1737.8724 591618
-993.60162 642.34265 1779.473 591876
-988.92944 646.20538 1790.1738 328965
-996.53217 658.26031 1823.5696 328963
-981.02698 655.14868 1814.9495 65793
-984.97833 665.1059 1842.5336 131586
-991.83063 677.26794 1876.226 197379
-998.19769 689.37164 1909.7568 0
-991.10822 692.35382 1918.0182 131584
-994.05725 702.49957 1946.1249 0
-985.38593 704.5755 1951.8759 0
-986.22681 713.58356 1976.8307 263170
-970.36218 710.57587 1968.4984 657928
-962.7049 713.57812 1976.8157 592135
-954.17731 716.00165 1983.5294 263171
-960.15869 729.50934 2020.9497 263170
-957.67291 736.84485 2041.2711 0
-942.49615 734.47882 2034.7166 131584
-941.49585 743.24249 2058.9944 196608
-921.22791 736.82617 2041.2195 196608
-910.02301 737.58435 2043.3198 262144
-884.65698 726.72986 2013.2496 196608
-873.44598 727.36523 2015.0098 262144
-886.32562 748.35889 2073.1682 459264
0 0 0 0
0 0 0 0
0 0 0 0
0 0 0 0
0 0 0 0
0 0 0 0
0 0 0 0
0 0 0 0
-586.45966 566.04175 1568.0977 853248
0 0 0 0
-535.6427 533.97748 1479.2704 853248
-526.35846 533.48474 1477.9054 1114880
0 0 0 0
-497.14603 521.28723 1444.1149 4730893
-490.77267 523.65131 1450.6639 4861965
-484.40881 526.11023 1457.4758 4730897
-478.37756 529.02661 1465.5551 3877131
-475.39603 535.48645 1483.4507 1377792
-497.91479 571.45728 1583.1002 983296
-499.30682 584.10028 1618.1249 1180416
-500.1167 596.54578 1652.6025 1574912
-496.79272 604.46051 1674.5286 2626560
-491.09479 609.75153 1689.1863 2889472
-482.2478 611.27203 1693.3984 2956037
-478.11874 618.96515 1714.7106 1312256
-469.82971 621.49078 1721.7073 1049600
-464.625 628.2998 1740.5702 984832
-463.74783 641.40448 1776.8739 919296
-447.78537 633.76947 1755.7229 919296
-440.95212 638.99945 1770.2114 656128
-431.09875 640.00171 1772.9878 722176
-429.75159 653.99884 1811.764 853760
-423.66382 661.31622 1832.0352 985344
-425.68613 682.01349 1889.3727 721920
-427.55313 703.57764 1949.1113 721664
-424.14209 717.41602 1987.4478 919040
-412.32166 717.41602 1987.4478 919040
-406.03439 727.3277 2014.9058 984832
-391.01407 721.72284 1999.3789 985088
-384.3927 731.75519 2027.1714 1182464
-375.37558 737.72894 2043.7202 985600
-363.55313 738.40466 2045.5923 1314305
-352.10248 739.90845 2049.7581 1051136
-347.50995 756.44861 2095.5791 1182720
-332.43176 750.54547 2079.2258 1248001
-321.13632 753.05664 2086.1824 984832
-309.26694 754.36969 2089.8198 1050624
-295.84641 751.85059 2082.8413 1247744
-283.75208 752.62903 2084.9978 1313537
-270.8028 751.10736 2080.7822 1445379
-264.86542 769.81958 2132.6206 1576707
-246.61017 752.81213 2085.5051 1510401
-234.20168 752.79657 2085.4619 1576450
-223.18929 757.51776 2098.541 1445121
-207.24069 745.052 2064.0073 1774085
-200.2926 765.41168 2120.4094 1708293
-182.423 743.9668 2061.001 1379329
-169.48482 740.99255 2052.7615 1576451
-156.98244 739.60992 2048.9312 1708036
-144.89143 740.09576 2050.2771 2102794
-132.87564 741.09039 2053.0325 1971208
-120.57503 740.53711 2051.4998 1773831
-110.38992 754.31476 2089.6677 1773828
-98.69278 759.94562 2105.2668 1708036
-86.290382 760.99316 2108.1689 1773829
-73.013374 753.3725 2087.0574 2036487
-59.686806 742.01373 2055.5903 1839107
-48.615971 760.06952 2105.6101 1970692
-35.318146 743.75732 2060.4207 2102278
-23.269579 750.39703 2078.8145 2168328
-10.863777 747.5108 2070.8188 2037255
1.4521911 747.33875 2070.3423 2036998
13.748121 746.38666 2067.7046 2233864
26.095421 747.80566 2071.6357 1904901
38.469181 748.82965 2074.4724 2299658
50.784378 748.49304 2073.54 2299146
63.39777 751.82422 2082.7683 2430732
75.913887 753.1015 2086.3066 2627340
88.37265 753.53076 2087.4958 2824975
101.15385 756.26501 2095.0706 2627595
113.99047 758.76831 2102.0054 2496009
125.78127 754.50342 2090.1904 2561802
137.90634 752.83051 2085.5559 2430730
150.93811 755.97498 2094.2671 2364937
163.16444 754.91351 2091.3264 2496523
175.77762 755.66541 2093.4094 2233863
187.724 753.64087 2087.801 2628621
199.92049 752.80939 2085.4976 2431243
211.87421 751.21429 2081.0786 2628622
222.69344 745.99487 2066.6194 2497036
235.9528 749.06812 2075.1331 2430987
247.39575 746.3559 2067.6194 2364936
258.50314 742.93616 2058.1458 2430729
271.28873 744.43079 2062.2864 2627595
285.05048 748.35876 2073.168 3153938
296.27795 745.58362 2065.48 2430216
308.91574 746.43713 2067.8445 2693388
320.46686 744.70007 2063.0325 2430216
333.2605 745.87213 2066.2793 2496009
347.40433 749.87512 2077.3687 2824974
357.64151 745.46021 2065.1382 2496009
370.50406 746.62909 2068.3762 2561801
385.1048 751.11304 2080.7981 2430216
395.59995 747.55945 2070.9536 2364423
408.4787 748.58868 2073.8049 2430216
421.90906 750.539 2079.2078 2561546
432.71051 747.83466 2071.7161 2430216
445.55814 748.71863 2074.1648 2496010
459.26813 750.9649 2080.3877 2627592
470.88635 749.7627 2077.0574 2890765
484.13367 751.14972 2080.8997 2627593
495.87265 750.18555 2078.2288 2759179
506.72137 747.95422 2072.0474 2890508
516.40021 744.14319 2061.4895 2693385
528.67584 744.16394 2061.5471 2956558
539.89709 742.7334 2057.584 2825230
553.04547 743.95862 2060.9783 2891538
566.01776 744.89893 2063.5833 2430730
577.1936 743.48529 2059.667 2759694
589.539 743.60565 2060.0005 2825230
602.9754 745.06921 2064.0549 2758924
614.39709 744.03461 2061.1887 3088402
627.97577 745.60138 2065.5293 2759437
640.28906 745.63458 2065.6211 2825231
648.58569 741.07697 2052.9954 2824717
659.21887 739.30829 2048.0955 2824974
665.37952 732.67877 2029.73 2759695
663.45129 717.53735 1987.7838 2233351
693.94067 737.37256 2042.733 2628109
0 0 0 0
0 0 0 0
0 0 0 0
0 0 0 0
612.11938 598.07581 1656.8412 393216
618.91193 595.1319 1648.6857 1050629
622.57672 589.31903 1632.5825 787971
637.87042 594.52338 1647 327680
636.67603 584.43518 1619.0527 327680
637.13641 576.14386 1596.0835 1050888
646.70215 576.20886 1596.2635 131072
654.48413 574.70575 1592.0994 1052173
660.57806 571.78424 1584.006 196608
660.86841 563.992 1562.4193 1578005
674.612 567.73792 1572.7965 131074
688.32928 571.35956 1582.8295 65538
698.8421 572.25934 1585.3221 196867
705.19324 569.77271 1578.4335 65536
714.38593 569.61707 1578.0023 131072
723.67053 569.5379 1577.783 196608
732.8454 569.37549 1577.333 196608
741.77795 569.03125 1576.3794 262144
746.31219 565.36371 1566.2194 2037003
764.42383 571.94525 1584.452 2036487
778.45282 575.34906 1593.8816 2167558
791.02521 577.60736 1600.1377 2036227
798.88342 576.41058 1596.8223 2036226
817.01422 582.56671 1613.8766 1773057
828.79456 584.10431 1618.1361 1904388
867.09814 604.08466 1673.4873 1378305
890.73407 613.50891 1699.5952 786432
886.4176 603.685 1672.3802 917504
894.36902 602.34131 1668.6578 1114112
904.93524 602.76886 1669.8422 1114112
912.33936 601.10364 1665.2291 786432
919.78125 599.49878 1660.7833 655360
926.71454 597.60016 1655.5234 393216
930.11334 593.48615 1644.1265 262144
939.74469 593.39325 1643.869 196608
950.14166 593.78064 1644.9424 0
955.85687 591.26416 1637.9711 65536
937.82574 574.258 1590.859 65536
943.51105 571.96863 1584.5168 196608
949.3429 569.81262 1578.5441 196608
962.09546 571.81195 1584.0829 196608
970.36359 571.13324 1582.2025 196608
976.58539 569.2746 1577.0536 196608
984.60846 568.49139 1574.8838 196608
993.24738 568.07513 1573.7307 131072
1001.1927 567.27374 1571.5105 131072
1005.2861 564.32477 1563.3411 196865
1030.8135 573.35168 1588.3483 262144
984.1015 542.39917 1502.6008 262144
977.68933 534.01544 1479.3757 393217
0 0 0 0
980.92358 526.30908 1458.0267 393220
990.23212 526.64783 1458.9651 393220
1007.8128 531.34186 1471.969 393220
987.83807 516.3255 1430.3694 196612
998.91919 517.65936 1434.0646 131075
1002.4881 515.1106 1427.0039 262401
1021.5377 520.49243 1441.913 591879
990.21307 500.3316 1386.0618 2236444
1007.1815 504.70361 1398.1735 3158570
0 0 0 0
0 0 0 0
1205.6041 589.53192 1633.1721 6447447
1206.4106 585.2113 1621.2028 6513237
1217.1163 585.72314 1622.6207 6183502
1232.4364 588.43005 1630.1196 4867127
1247.2565 590.85773 1636.8451 4867642
1254.6967 589.77899 1633.8567 4933434
1256.8859 586.26752 1624.1288 5656645
1248.8397 578.07172 1601.4241 6972761
1251.0548 574.71393 1592.1221 8486257
1252.9573 571.26392 1582.5646 8946808
0 0 0 0
1256.1982 564.26398 1563.1727 7565668
1258.1395 560.98419 1554.0867 6117966
1267.7499 561.14673 1554.537 6775897
1268.46 557.39594 1544.1462 8618102
1275.8091 556.59552 1541.929 7894122
1276.2312 552.80603 1531.4309 8354675
1272.0823 547.10431 1515.6355 7301986
1273.5348 543.875 1506.6893 7104608
1280.7874 543.15045 1504.6821 7170147
1272.5105 535.89594 1484.5851 6775388
1276.6046 533.91541 1479.0985 6775388
1280.7206 531.97107 1473.712 6709595
1283.6125 529.5481 1466.9999 6841437
1283.9722 526.1203 1457.5039 8091248
1279.0691 520.59656 1442.2014 6577493
1285.026 519.53699 1439.2661 6643286
1288.1654 517.35986 1433.2349 6906458
1293.3806 516.03967 1429.5775 6840665
1299.1008 514.93677 1426.5223 6643286
1302.8486 513.07153 1421.355 6643286
1304.129 510.26489 1413.5798 6774872
1309.5645 509.1095 1410.379 6643286
1313.5215 507.3978 1405.6371 6643286
1318.6021 506.13892 1402.1497 6511700
1324.9592 505.38284 1400.0552 6840665
1332.0771 504.92459 1398.7856 6445907
1336.2985 503.38083 1394.509 6380114
1343.793 503.0816 1393.6801 6577493
1348.6416 501.80154 1390.1339 6643285
0 0 0 0
0 0 0 0
0 0 0 0
0 0 0 0
0 0 0 0
0 0 0 0
0 0 0 0
0 0 0 0
0 0 0 0
0 0 0 0
0 0 0 0
0 0 0 0
0 0 0 0
0 0 0 0
0 0 0 0
-1333.1951 583.81122 1591.1084 3421488
-1330.2781 586.69836 1598.9769 3026730
-1325.6703 588.87598 1604.9117 3092524
-1327.0006 593.74207 1618.1737 2829607
-1326.3602 597.79102 1629.2087 3026988
