# .PCD v0.7 - Point Cloud Data file format
VERSION 0.7
FIELDS x y z rgb
SIZE 4 4 4 4
TYPE F F F U
COUNT 1 1 1 1
WIDTH 1359
HEIGHT 1
VIEWPOINT 0 0 0 1 0 0 0
POINTS 1359
DATA ascii
72.832588 758.24786 2001.6246 2364678
84.370743 754.96729 1992.9647 2627594
96.744377 759.05011 2003.7426 2430214
108.44917 757.56519 1999.8228 2496006
120.94656 761.36328 2009.8489 2627595
133.12582 762.65564 2013.2605 2890766
144.77699 760.95892 2008.7815 2956303
156.81076 761.37866 2009.8894 2496009
168.70146 761.09344 2009.1366 2298630
181.26689 763.68866 2015.9873 2693131
193.01508 762.73224 2013.4626 2693645
205.4084 764.28821 2017.5699 2693901
217.10527 763.22388 2014.7605 2496522
229.72737 765.35345 2020.3821 2496522
241.98576 766.11981 2022.4052 2233351
254.36745 767.18555 2025.2184 2167558
266.77512 768.22961 2027.9747 2628109
277.48303 764.50037 2018.1301 2693902
291.32721 769.36285 2030.9662 2562316
302.8479 767.94641 2027.2271 2299144
315.55212 769.52472 2031.3934 2496523
327.52682 769.27313 2030.7294 2759694
338.37695 766.49207 2023.3878 2693902
349.02414 763.45807 2015.3787 2891281
361.33975 764.15399 2017.2157 2562316
374.22296 765.9668 2022.0012 2562316
385.11063 763.70953 2016.0425 2496523
395.18689 760.02802 2006.324 2430730
410.09238 765.57776 2020.9741 2956559
420.35022 762.38196 2012.538 2890766
428.7749 756.13043 1996.0352 2561801
440.41501 755.7334 1994.9869 2627595
450.19519 752.24927 1985.7897 2364421
464.19553 755.8147 1995.2017 2627593
475.32611 754.64624 1992.1172 2693387
483.85168 749.49939 1978.5305 2890510
499.56577 755.46765 1994.2856 2627595
508.78699 751.56805 1983.9915 2890510
524.40881 757.08582 1998.5573 2758925
536.24945 757.021 1998.3861 2561290
548.81525 757.96057 2000.8665 2561547
557.69916 753.88324 1990.1029 2758927
569.76965 754.19324 1990.9214 2890513
580.94897 753.33508 1988.656 2956304
592.88745 753.47595 1989.0278 2429962
603.60315 752.08771 1985.3632 2495755
608.03528 743.07367 1961.5679 2693134
622.72369 746.6972 1971.1333 2758926
630.05743 741.53082 1957.4951 2758927
638.8443 738.2312 1948.7848 2693388
0 0 0 0
627.81787 700.08618 1848.0894 2627595
673.59387 738.20721 1948.7213 2627595
0 0 0 0
0 0 0 0
0 0 0 0
615.89862 631.51331 1667.0706 327680
616.8797 622.49805 1643.272 196608
621.50281 617.3819 1629.7664 328707
625.52997 611.8399 1615.1366 65537
633.0556 609.83575 1609.8461 0
640.1474 607.47961 1603.6263 0
642.57544 600.83185 1586.0775 65536
648.31549 597.42853 1577.0935 196865
652.08826 592.33527 1563.6482 0
664.09454 594.75909 1570.0466 131586
672.88843 594.27856 1568.7782 1184019
680.5675 592.84009 1564.981 2
692.33936 594.95764 1570.5707 65538
698.56311 592.31439 1563.5931 2
706.97406 591.57092 1561.6305 2
715.70642 591.11206 1560.4192 196608
715.7262 583.56128 1540.4866 131074
724.30267 583.08984 1539.2421 0
746.53821 593.48889 1566.6936 6316638
762.03845 598.34314 1579.5078 2959398
786.75513 610.22766 1610.8805 458752
806.66895 618.14575 1631.7828 393216
819.94202 620.84735 1638.9146 393216
829.11035 620.41394 1637.7704 393216
842.03906 622.77179 1643.9946 262145
848.8028 620.56824 1638.1777 196608
853.22528 616.72235 1628.0254 6577760
856.61804 612.22687 1616.1582 2300950
866.28674 612.26685 1616.2637 1971730
885.81964 619.20111 1634.5688 393216
893.41406 617.73029 1630.686 393216
903.23541 617.81427 1630.9078 196608
914.67853 618.99396 1634.0219 196609
915.59277 613.09851 1618.4591 131073
914.95435 606.29688 1600.504 1
917.88733 601.97748 1589.1018 65537
929.07092 603.10205 1592.0704 65540
938.32263 602.96246 1591.7019 3
943.90375 600.49054 1585.1765 3
945.30682 595.43573 1571.8329 2
941.19458 587.03998 1549.6698 65538
944.80463 583.5769 1540.528 65538
950.42102 581.40771 1534.8016 131074
962.87946 583.42548 1540.1282 196610
965.34869 579.40967 1529.5272 196610
970.68005 577.17065 1523.6166 196611
962.39594 566.95209 1496.6416 196611
980.65082 572.4118 1511.0542 196609
973.07617 562.83234 1485.7664 196610
972.56158 557.47229 1471.6168 327681
987.14471 560.78455 1480.3606 393220
981.69153 552.75653 1459.1682 393219
994.49921 555.06116 1465.252 196612
1001.3124 554.00916 1462.4749 262147
1009.2633 553.59924 1461.3927 196612
1014.1459 551.52771 1455.9243 196609
1021.9145 551.04749 1454.6566 196610
1019.3253 545.03699 1438.79 196609
1025.7284 543.89471 1435.7748 131076
1032.8701 543.15967 1433.8345 65540
1020.3144 532.16321 1404.8059 65540
1026.0162 530.79053 1401.1824 2
999.89178 513.10797 1354.5038 196608
993.51953 505.76312 1335.1149 394243
1189.9998 600.98041 1586.4697 7498593
1222.7993 612.68701 1617.3728 7893092
1227.1001 610.04291 1610.3928 6906197
1231.6937 607.58417 1603.9023 6445647
1240.3052 607.13 1602.7034 6840405
1227.5951 596.32544 1574.1815 6642514
1230.4122 593.16998 1565.8517 6642514
1234.7129 590.77173 1559.5208 6182993
1243.8341 590.69855 1559.3276 5656391
1240.6672 584.83398 1543.8464 6840922
1248.9028 584.39111 1542.6772 6051406
1256.3527 583.58972 1540.5616 4736059
1271.179 586.20154 1547.4563 7301214
1268.6227 580.81744 1533.2435 8551794
1258.5529 572.09485 1510.2175 9209723
1267.8668 572.24463 1510.6129 9144184
1263.2013 566.12714 1494.464 9078134
1264.9418 562.94604 1486.0665 8223084
1268.1768 560.4696 1479.5292 8485486
1269.3472 557.12115 1470.6899 8354413
1276.7793 556.54797 1469.1769 9077625
1276.0251 552.43842 1458.3285 7761509
1280.3959 550.58826 1453.4443 6314319
1277.0398 545.4624 1439.9132 6840663
1283.7786 544.68805 1437.869 6446675
1285.2252 541.69336 1429.9636 6644054
1287.7618 539.19452 1423.3671 6644054
1284.9467 534.50201 1410.9799 6578260
1287.8813 532.2467 1405.0262 6578007
1289.0192 529.28265 1397.2018 6512726
1292.8993 527.47534 1392.4309 6512469
1293.3624 524.30591 1384.0642 6512468
1293.3466 520.98358 1375.2939 6315090
1294.9489 518.35083 1368.3439 6446675
1299.8999 517.08295 1364.9969 6578261
1300.1012 513.95325 1356.7351 6381138
1304.7036 512.59113 1353.1395 6249040
1289.032 503.32935 1328.6902 6380627
0 0 0 0
0 0 0 0
0 0 0 0
0 0 0 0
0 0 0 0
0 0 0 0
0 0 0 0
0 0 0 0
0 0 0 0
0 0 0 0
0 0 0 0
0 0 0 0
0 0 0 0
0 0 0 0
-1359.8041 620.01868 1611.4269 3290159
-1348.4419 619.20215 1609.3048 2895656
-1346.7821 622.86108 1618.8145 3027498
-1342.785 625.48401 1625.6315 2698278
-1343.2673 630.24664 1638.0095 1316113
-1343.3721 634.90051 1650.1047 0
-1337.7358 636.88959 1655.2744 592646
-1307.9541 627.32733 1630.4222 921097
-1324.2257 639.87555 1663.035 3619123
-1326.0667 645.58722 1677.8795 4474434
-1333.1411 653.95264 1699.6212 6119261
-1334.6201 659.68018 1714.5071 5856088
-1330.8259 662.86945 1722.796 2961455
-1332.577 668.89166 1738.4476 2961712
-1324.3513 669.961 1741.2269 526599
-1322.452 674.27277 1752.4332 131585
-1329.4657 683.23352 1775.7223 592644
-1324.0498 685.89899 1782.6498 921352
-1321.329 690.01489 1793.3469 855555
-1317.3575 693.53925 1802.5068 1052675
-1297.8875 688.8952 1790.4369 1709578
0 0 0 0
0 0 0 0
0 0 0 0
0 0 0 0
-995.54694 551.02307 1432.1075 3087875
-986.43896 550.69348 1431.251 2891011
0 0 0 0
-964.25372 547.76196 1423.6321 1246976
-1067.9412 612.03784 1590.6849 524288
-1066.4863 616.66699 1602.7161 393216
-1064.1338 620.85596 1613.603 327680
-1057.5314 622.61896 1618.1852 262144
-1075.3881 638.9469 1660.6215 196608
-1059.2994 635.2218 1650.9398 262144
-1059.9064 641.53241 1667.3411 262144
-1053.5387 643.70074 1672.9766 196608
-1039.843 641.39038 1666.972 393216
-1037.9136 646.36304 1679.896 393216
-1030.5938 648.04291 1684.2618 458752
-1010.4036 641.58337 1667.4735 524288
-1000.2628 641.44 1667.101 1050368
-988.98389 640.55676 1664.8054 1641728
-980.39398 641.41486 1667.0355 1379328
-970.47913 641.41486 1667.0355 984576
-966.11261 645.11963 1676.6643 919552
-962.31506 649.28564 1687.4918 131072
-959.17474 653.98761 1699.7122 65536
-949.89349 654.55811 1701.1948 0
-943.48279 657.1402 1707.9058 0
-943.28107 664.15015 1726.1245 2
-959.0365 682.67316 1774.2659 65538
-962.97015 693.09967 1801.3643 196609
-964.09143 701.71381 1823.7524 131073
-969.01892 713.32574 1853.9319 262144
-970.78729 722.85278 1878.6926 196608
-950.2934 715.83209 1860.4458 196608
-953.29626 726.55396 1888.3119 393216
-826.02637 637.06055 1655.7188 393216
-905.82892 707.03601 1837.5848 393216
-900.8858 711.76538 1849.8765 393216
-845.73889 676.45667 1758.1093 393216
-833.32709 674.87311 1753.9935 393216
-819.39893 672.0058 1746.5415 327680
0 0 0 0
-807.69989 679.64313 1766.3907 393216
-796.2229 678.815 1764.2385 393216
-758.98053 655.70538 1704.1765 458752
-761.1203 666.45404 1732.1124 327680
-752.27277 667.74493 1735.4674 393216
-667.69904 600.91925 1561.7876 656640
-653.62158 596.54877 1550.4287 589824
-637.43036 590.09637 1533.6591 458752
-635.42773 596.78229 1551.0356 393216
-617.24457 588.24487 1528.8469 458752
-602.56897 582.84491 1514.8125 590080
-593.55957 582.84491 1514.8125 590336
-593.54199 591.81055 1538.1141 655872
-580.23218 587.59595 1527.1604 590336
0 0 0 0
-551.24969 576.28784 1497.7706 524800
-542.20898 576.14697 1497.4045 655360
-525.22693 567.422 1474.7283 983296
0 0 0 0
-490.22351 547.90601 1424.0062 4862734
-488.93732 556.07544 1445.2388 4730375
-482.41736 558.47839 1451.484 4467466
-475.00681 559.91913 1455.2284 3350275
-464.8822 558.15472 1450.6427 1705984
-504.83603 617.58661 1605.1061 1048576
-489.8175 610.76331 1587.3723 1311744
-492.14438 625.72534 1626.2585 1705984
-502.27094 651.40265 1692.9939 2955522
-493.65891 653.33112 1698.006 3087107
-484.67896 654.84302 1701.9353 2627584
-478.28998 659.99469 1715.3246 1312000
-468.17746 660.12091 1715.6526 1115136
-459.34717 662.10089 1720.7985 852992
-451.26273 665.27057 1729.0365 918528
-443.19501 668.6134 1737.7246 721408
-434.00366 670.38031 1742.3167 721408
-424.90262 672.37646 1747.5048 918784
-424.93994 689.29608 1791.4789 1050112
-429.19931 714.11078 1855.9722 984320
-437.97266 747.94434 1943.9054 1116160
-415.70398 729.16345 1895.094 984832
-414.84399 747.93408 1943.8788 787456
-406.72104 754.31085 1960.4521 1116416
-392.14105 748.73535 1945.9614 853504
-384.87924 757.21875 1968.0095 1182208
-375.73901 762.42261 1981.5344 1050625
-366.67459 768.12238 1996.348 1181952
-349.7254 757.13354 1967.7882 1247746
-343.77652 770.02338 2001.2888 1510660
-333.5975 774.02283 2011.6833 1379073
-320.72144 771.82928 2005.9824 1379073
-310.8306 776.92798 2019.2339 1444866
-300.51413 781.32977 2030.6742 1444865
-286.54321 776.20093 2017.3442 1444864
-277.12643 783.49933 2036.3129 1642243
-260.51511 770.19464 2001.734 1313280
-249.93092 774.2879 2012.3723 1444864
-238.54675 776.18982 2017.3154 1576450
-226.24945 775.16461 2014.6509 1445122
-217.20081 785.77759 2042.2341 2036230
-204.31441 782.94159 2034.863 1707523
-192.05769 782.31323 2033.2301 1575681
-179.24728 779.19348 2025.1219 1904901
-167.61601 781.11926 2030.1271 2365452
-154.72437 777.01459 2019.459 2102280
-141.86948 772.41907 2007.5151 2036487
-129.92967 772.41907 2007.5151 1904902
-118.38101 774.97961 2014.17 1970694
-106.26649 773.9953 2011.6119 2036742
-94.322685 774.16241 2012.0461 1970949
-82.173508 772.44745 2007.5891 2036742
-70.00563 769.94391 2001.0824 1905669
-57.641251 763.81073 1985.1422 2168841
-45.880444 764.57611 1987.1315 2168327
-34.209053 767.87982 1995.7177 2234120
-22.319675 767.20105 1993.9536 2299657
-10.433171 765.19434 1988.7382 2562829
1.3924409 763.81696 1985.1584 2233607
13.172642 762.27588 1981.1532 2562316
24.854836 759.19641 1973.1497 2430728
36.579437 758.97217 1972.5668 2233605
48.608036 763.63263 1984.6793 2167813
60.103703 759.73541 1974.5504 2430984
72.456947 766.18048 1991.3011 2890765
83.731575 761.01141 1977.8667 2824971
95.345924 759.82306 1974.7782 2561803
106.9152 758.57556 1971.536 2890509
118.61231 758.39209 1971.0592 2496009
130.24809 757.8847 1969.7405 2890509
142.14278 758.84326 1972.2318 2824972
153.75273 758.25153 1970.6938 2561545
166.03014 760.802 1977.3225 2364681
178.63496 764.4162 1986.7158 2101765
189.94736 762.39453 1981.4614 2627851
202.36345 764.78015 1987.6617 2758924
214.83997 767.11816 1993.7383 2628109
225.69138 763.71246 1984.8868 2562059
238.23708 766.09363 1991.0754 2364680
249.92354 765.61707 1989.8369 2299144
261.55292 765.01672 1988.2765 2101764
273.80438 766.20905 1991.3754 2562316
286.27704 767.89581 1995.7593 2759438
298.75452 769.46069 1999.8264 2693902
311.11053 770.60492 2002.8003 2825488
317.51315 757.46234 1968.6427 2891024
331.47437 762.64496 1982.1124 2364937
344.61447 765.6474 1989.9158 2562316
356.74191 766.27533 1991.5477 2430730
368.95639 767.04382 1993.545 2759695
375.75055 756.84674 1967.0427 2430216
388.30576 758.51898 1971.389 2758924
399.66687 757.82916 1969.5962 2693388
410.0592 755.39398 1963.2671 2430216
420.55096 753.27167 1957.7512 2430216
431.59985 752.23474 1955.0563 2496009
442.31259 750.6817 1951.0199 2364423
454.41943 751.51367 1953.1821 2693388
467.96323 754.62134 1961.2589 2759181
478.10745 752.22913 1955.0415 2956560
491.08066 754.29578 1960.4128 2824720
502.01398 753.20599 1957.5804 2758927
512.62738 751.69653 1953.6573 2692877
524.14215 751.54639 1953.2672 2824720
534.86316 750.28925 1949.9999 2692877
545.97876 749.62738 1948.2797 2627340
561.0545 754.3172 1960.4685 2693389
572.47559 754.0025 1959.6506 2627596
586.4762 757.03015 1967.5194 2627339
590.83856 747.74139 1943.3781 2758926
600.17188 744.97955 1936.2 2495755
612.3111 745.73901 1938.1738 2758927
622.78558 744.48035 1934.9026 2627084
627.62897 736.65808 1914.5725 2890254
628.32892 724.33801 1882.5526 2429446
657.28589 744.4538 1934.8335 2232837
650.56311 724.16113 1882.0929 2890510
662.86011 725.36823 1885.2302 2628108
0 0 0 0
0 0 0 0
614.82983 640.31525 1664.1777 327680
614.75244 630.09113 1637.6053 131072
619.02917 624.57916 1623.2797 1776409
623.51038 619.43958 1609.922 263173
632.18427 618.5578 1607.6302 0
640.6156 617.46857 1604.7992 65536
646.07721 613.59076 1594.7209 65536
651.66864 609.94678 1585.2502 0
653.66736 603.0921 1567.4348 65536
663.92719 603.94476 1569.651 131330
672.6084 603.35779 1568.1254 789262
680.62555 602.19934 1565.1145 65538
690.02454 602.2782 1565.3195 65537
697.64496 600.82324 1561.5381 65538
706.37781 600.35199 1560.3134 65537
715.82709 600.49402 1560.6824 131072
730.466 604.93005 1572.2117 196608
723.52094 591.60529 1537.5807 196608
744.32092 601.01648 1562.0403 262144
763.69879 609.06152 1582.9493 196608
804.6698 633.92163 1647.5608 262144
807.76959 628.70752 1634.0093 327680
817.13477 628.43597 1633.3035 393216
828.08972 629.37891 1635.7543 327680
838.91125 630.19989 1637.8879 393218
846.44922 628.56366 1633.6354 262148
853.18353 626.37451 1627.9457 196613
861.61755 625.46838 1625.5907 196614
866.95563 622.35986 1617.5117 196614
877.64746 623.12067 1619.489 262147
888.8197 624.20233 1622.3003 262146
899.60529 624.99213 1624.353 262146
908.77557 624.65497 1623.4767 196610
888.48297 604.28613 1570.5381 196611
904.32623 608.6626 1581.9126 4
909.27759 605.69354 1574.196 65540
917.10168 604.67914 1571.5596 65540
924.24609 603.24158 1567.8234 65540
927.80438 599.51556 1558.1394 65540
924.44763 591.43915 1537.1488 65540
938.05707 594.2691 1544.5039 65539
939.22241 589.23712 1531.4259 196610
941.95093 585.27325 1521.1237 196610
947.60156 583.18298 1515.6912 196610
953.06189 581.01617 1510.0596 262146
943.83661 570.02057 1481.4821 65538
950.73474 568.87592 1478.5071 65538
967.22961 573.44177 1490.3738 65538
961.22406 564.70612 1467.6698 196610
966.26575 562.55933 1462.0903 196610
978.6109 564.66498 1467.5629 196609
977.59357 559.09137 1453.077 196610
993.64624 563.2923 1463.9952 196612
996.77191 560.15564 1455.8431 196611
1006.1578 560.56079 1456.8961 196611
1012.1494 559.08411 1453.0581 196612
1019.8026 558.54236 1451.6503 196611
1014.6039 551.03009 1432.1257 196611
1022.7891 550.85095 1431.6603 196610
1026.1982 548.12384 1424.5725 131073
1019.2403 539.94934 1403.327 131074
1027.577 539.94427 1403.3138 65538
1028.9874 536.32922 1393.9182 196610
1020.101 527.44781 1370.8356 196609
1014.7737 520.53296 1352.8639 131072
0 0 0 0
1224.8672 618.49323 1607.4624 7301726
1225.4319 613.98608 1595.7483 8025191
1235.5055 614.27582 1596.5013 7104089
1236.8813 610.26978 1586.0896 6774870
1240.1377 607.24512 1578.2285 6840149
1243.9695 604.54565 1571.2125 6840409
1251.8553 603.8418 1569.3834 6643287
1248.293 597.66718 1553.3356 6446420
1246.1096 592.23871 1539.2269 6774102
1248.937 589.25354 1531.4685 2563607
1263.684 591.89447 1538.3323 5064511
1266.5652 588.97968 1530.7567 5656646
1257.8091 580.73358 1509.3251 6445648
1248.5663 572.3811 1487.6171 7893348
1251.5667 569.71936 1480.6992 9406843
1261.9645 570.43872 1482.5687 9341053
1259.1501 565.21722 1468.9982 9208953
1265.1329 563.98944 1465.8071 8748145
1268.9829 561.83423 1460.2057 8156264
1272.2736 559.46228 1454.041 9011318
1279.9633 559.04376 1452.9532 9077624
1285.6265 557.75165 1449.5951 8353645
1282.1461 552.53638 1436.0406 7630179
1280.5536 548.1983 1424.766 6577748
1284.3289 546.20007 1419.5726 6775642
1282.9789 542.0625 1408.8191 6183504
1285.5662 539.63135 1402.5005 6380883
1285.5341 536.1391 1393.4242 6512214
1288.6913 534.01318 1387.8989 6644056
1290.3539 531.29895 1380.8447 6380884
1292.5236 528.82654 1374.4189 6512470
1294.5884 526.34253 1367.9629 6446420
1298.2042 524.51624 1363.2164 6249555
1298.7819 521.49274 1355.3583 6511956
1302.0901 519.59607 1350.429 6577493
1304.946 517.54333 1345.0939 6577236
0 0 0 0
0 0 0 0
0 0 0 0
0 0 0 0
0 0 0 0
0 0 0 0
0 0 0 0
0 0 0 0
0 0 0 0
0 0 0 0
0 0 0 0
0 0 0 0
0 0 0 0
0 0 0 0
-1367.0941 632.97803 1620.0659 3092522
-1360.7927 634.53271 1624.045 3421487
-1291.6791 606.61108 1552.5813 1381907
-1339.3712 633.53784 1621.4987 131841
-1330.5134 633.91229 1622.4572 65792
0 0 0 0
-1335.2614 645.53809 1652.2125 2237474
-1330.1483 647.8338 1658.0883 4409155
-1332.4221 653.78833 1673.3285 5462099
-1339.7355 662.32391 1695.1747 5791068
-1332.3071 663.64587 1698.5581 2830640
-1343.3744 674.2713 1725.7533 3291190
-1320.1943 667.73846 1709.033 2237218
-1323.71 674.71143 1726.8799 197634
-1328.3834 682.38831 1746.5282 131840
-1320.908 683.89594 1750.387 591875
-1323.5154 690.68951 1767.7747 723971
-1324.7052 696.84613 1783.5321 789505
-1323.0427 701.58966 1795.6729 987140
-1307.9584 699.23499 1789.6462 1315334
-1309.2012 705.64191 1806.0442 1643786
0 0 0 0
0 0 0 0
0 0 0 0
0 0 0 0
-992.73199 557.95844 1428.0582 2956289
-985.32013 558.57159 1429.6276 2561536
-976.26031 558.25311 1428.8123 1903616
-971.88043 560.6286 1434.8922 1574912
-987.42957 574.64404 1470.7638 786432
-1062.7853 624.02618 1597.1542 524288
-1045.799 619.59033 1585.8009 393216
-1065.9004 637.24664 1630.9911 327680
-1059.4174 639.18774 1635.9592 262144
-1017.7103 619.71594 1586.1224 196608
-1049.5901 645.10828 1651.1125 196608
-1041.4685 646.16211 1653.8097 196864
-1033.5315 647.35162 1656.8541 196608
-1029.3473 650.93726 1666.0312 393984
-1018.5853 650.39246 1664.637 327936
-1006.7242 649.1283 1661.4014 524800
-995.29413 648.11969 1658.8199 1182720
-992.33142 652.65997 1670.4406 1576960
-980.76013 651.57288 1667.6582 1576704
-970.06232 651.0498 1666.3195 1115904
-964.62347 654.08197 1674.08 590592
-972.57654 666.35272 1705.4862 393216
-963.70923 667.23627 1707.7476 196608
-960.23834 671.91473 1719.7218 196608
-944.6701 668.13782 1710.0551 196608
-958.48315 685.2854 1753.9432 196608
-952.76581 688.69305 1762.6649 196608
-951.75269 695.61475 1780.3805 196608
-940.2298 694.9245 1778.6138 196608
-923.7074 690.48126 1767.2417 196608
-907.12958 685.89392 1755.5006 196608
-906.14874 693.13007 1774.021 196608
-852.06421 659.43817 1687.7889 196608
-841.21686 658.80457 1686.1672 327680
-828.96344 657.04108 1681.6537 262144
-823.98303 661.06964 1691.9645 262144
-808.10046 656.34302 1679.8671 196608
-794.16626 653.10028 1671.5675 393216
-770.07159 641.31378 1641.4008 393216
-780.23669 658.12244 1684.4213 393216
-769.96307 657.90411 1683.8625 393216
-755.87347 654.37646 1674.8339 590336
0 0 0 0
-743.39764 660.99762 1691.7802 459264
-724.59253 653.11694 1671.61 393472
-718.95642 657.05206 1681.6818 459264
0 0 0 0
-647.94995 609.10687 1558.9691 524800
-636.13184 606.67859 1552.7543 393472
-616.12665 596.25592 1526.078 524800
-611.0249 600.15985 1536.0699 655872
-614.77014 613.00397 1568.9436 393216
-583.1156 590.40192 1511.0951 524544
-573.97546 590.24481 1510.6929 524544
-563.92035 589.12665 1507.8312 590080
-554.13007 588.25366 1505.5968 852992
-540.41016 583.11188 1492.4366 852224
-529.43188 580.80591 1486.5348 1048576
-499.61407 557.40308 1426.6368 2166016
-490.50064 556.68982 1424.8112 4862989
-488.93732 564.67108 1445.2388 4730889
-483.19452 568.02478 1453.8223 4270857
-475.86584 569.60242 1457.8601 3547397
-468.35626 571.01807 1461.4834 1772288
-486.93369 604.8938 1548.1862 1180672
-486.79047 616.37152 1577.5625 1377792
-501.56406 647.55908 1657.3851 1246464
-500.50345 659.1441 1687.0363 2889729
-492.96576 662.4986 1695.6218 3087108
-483.87775 663.86615 1699.1219 2956038
-479.9993 672.59192 1721.455 1180928
-466.19971 667.4931 1708.4049 1115392
-458.63504 671.29303 1718.1306 787456
-450.95151 675.0882 1727.8441 918784
-442.60822 678.04968 1735.4238 984576
-436.51004 684.67413 1752.3787 787200
-429.18323 689.64825 1765.1096 919040
-428.99445 706.62952 1808.572 919040
-411.21991 694.7724 1778.2245 787456
-433.60724 751.93555 1924.5298 918784
-407.0332 724.99054 1855.5659 852992
-390.86417 715.59314 1831.5139 919040
-402.73215 758.45856 1941.2251 1248000
-388.03848 752.35474 1925.6028 1182208
-381.2356 761.64417 1949.3784 1182208
-374.54626 771.75024 1975.2443 1050624
-356.19452 757.70239 1939.2897 1050880
-345.30725 759.12415 1942.9287 1181953
-335.9996 764.23737 1956.0156 1247488
-324.59406 764.77441 1957.3901 1181696
-315.16946 770.19244 1971.2572 1444867
-300.83423 763.56506 1954.2949 1773831
-293.01941 773.62 1980.0298 1510657
-279.05692 767.60651 1964.6387 1642243
-270.37561 776.22931 1986.7081 1642242
-258.76352 776.84167 1988.2754 1839622
-244.85785 770.29724 1971.5254 1642245
-235.47461 778.03717 1991.3352 1642243
-222.17578 772.97418 1978.3768 1708036
-212.03046 778.92981 1993.6199 1970694
-199.9006 777.86871 1990.9041 1904901
-187.90091 777.21228 1989.224 1641731
-176.16217 777.61957 1990.2665 2233866
-164.13242 776.7085 1987.9346 2233609
-151.9041 774.64331 1982.6488 1904900
-139.0988 769.04047 1968.3087 1904643
-127.94494 772.37738 1976.8494 2036228
-115.30412 766.50476 1961.8188 2299401
-102.88241 760.93036 1947.5515 2102791
-92.616768 771.91119 1975.6562 1774082
-80.973976 772.93762 1978.2833 2036998
-69.064354 771.33295 1974.1763 2299657
-57.179653 769.40625 1969.2449 2036484
-45.466755 769.39423 1969.2142 2168070
-33.501308 763.61731 1954.4286 1970435
-21.898832 764.37085 1956.3572 2430729
-10.22327 761.38983 1948.7274 2167814
1.3662547 761.03741 1947.8256 2233864
13.002041 764.03394 1955.4949 2233607
24.448687 758.33405 1940.9065 2167558
35.921387 756.83942 1937.0811 2299144
47.41127 756.34479 1935.8151 2233350
58.977268 757.02045 1937.5443 2496523
70.608749 758.17841 1940.5081 2561801
82.348816 760.01312 1945.2039 2627337
94.051048 761.0896 1947.9591 2627849
105.02784 756.70337 1936.7328 2496007
116.97509 759.48505 1943.8523 2430730
129.38458 764.49762 1956.6816 2430216
140.01195 759.02173 1942.6664 2627594
151.01675 756.27087 1935.6259 2561802
163.01559 758.53516 1941.4211 2364937
175.02666 760.55298 1946.5856 2035716
186.5338 760.26654 1945.8524 2562316
198.22179 760.70764 1946.9813 2364937
209.9413 761.21423 1948.2781 2562059
222.29628 763.8515 1955.028 2496523
233.04045 760.96667 1947.6445 2627852
245.08961 762.41461 1951.3503 2496266
257.41931 764.56476 1956.8535 2627852
270.38727 768.34265 1966.5227 2496522
281.55627 766.90717 1962.8488 2628108
292.81674 765.82532 1960.0797 2825488
305.80371 769.16882 1968.6372 2628109
315.71121 764.80573 1957.4702 2693902
325.87967 761.36267 1948.658 2628109
339.0329 764.89008 1957.6862 2825488
350.85684 765.28375 1958.6937 2364937
360.31735 760.66272 1946.8665 2693902
371.41391 759.67578 1944.3406 2496523
381.51685 756.77747 1936.9225 2759695
392.80112 756.32373 1935.7611 3022353
404.80026 757.23309 1938.0885 2759438
415.66211 756.02344 1934.9926 2233351
422.39758 747.57605 1913.3719 2496779
438.44217 755.61517 1933.9476 2562316
448.4166 753.0495 1927.3809 2891024
460.77231 754.51093 1931.1213 2956560
472.00235 754.10291 1930.077 2956560
483.27844 753.78601 1929.266 2824974
493.04599 751.18555 1922.6102 3088146
505.99377 753.43835 1928.3762 2824718
517.6142 753.65863 1928.9399 2824974
530.20068 755.24548 1933.0015 2956306
540.29016 753.28369 1927.9803 2890513
549.31 749.94293 1919.4299 2890513
563.21387 753.27051 1927.9467 2627341
573.70178 751.98779 1924.6636 2495755
580.21008 745.64093 1908.4192 2561548
589.67773 743.2677 1902.3451 2627341
605.18414 748.45227 1915.6146 2232584
613.22095 744.37799 1905.1868 2429962
625.3952 745.38275 1907.7584 2496009
633.33789 741.39813 1897.5601 2693388
649.57959 747.09808 1912.1487 2561547
660.74249 746.86108 1911.542 2561547
625.45148 695.01166 1778.8369 2627853
0 0 0 0
0 0 0 0
614.63855 650.01074 1663.66 262144
612.08966 637.05951 1630.5121 196608
619.92621 635.15277 1625.6321 131072
629.03284 634.58594 1624.1812 196608
637.42224 633.32361 1620.9503 196608
640.66748 627.06396 1604.9292 65538
646.57587 623.5564 1595.9519 65538
652.24915 619.92688 1586.6624 65537
659.72449 618.08929 1581.9592 65537
663.77026 613.13538 1569.2799 1
671.05298 611.26746 1564.499 131330
681.59137 612.37567 1567.3354 65536
679.88861 602.60425 1542.3262 65536
687.79865 601.49969 1539.4991 131073
701.6413 605.54425 1549.851 196608
711.97723 606.4967 1552.2887 196608
722.7207 607.76746 1555.5411 196611
727.31409 603.89966 1545.6417 196611
750.89746 615.69922 1575.8419 196608
771.38544 624.70111 1598.8817 393987
782.3244 625.84473 1601.8087 196608
793.90503 627.4679 1605.9631 131072
802.91064 627.04156 1604.8719 394245
815.84631 629.65845 1611.5696 65538
817.63904 623.71436 1596.3561 131074
822.83673 620.4743 1588.0635 196612
834.7821 622.33832 1592.8342 196612
844.66711 622.64172 1593.6107 196613
851.20477 620.49823 1588.1246 196615
860.63879 620.48999 1588.1035 196615
873.87036 623.19006 1595.0143 196613
873.46637 616.21265 1577.1559 196613
881.46594 615.24896 1574.6895 131077
894.74121 617.94916 1581.6005 5
898.53455 614.11267 1571.7812 65541
904.72882 611.97931 1566.321 65541
905.49915 606.25787 1551.6774 65541
907.87897 601.71863 1540.0594 65540
920.98114 604.30554 1546.6805 65540
924.15839 600.39343 1536.6677 65540
933.42291 600.47394 1536.8738 65540
930.85736 593.01636 1517.7865 65538
947.62415 597.89972 1530.2852 65538
935.8642 584.86249 1496.9172 65539
936.25922 579.59558 1483.4369 65536
943.06989 578.36151 1480.2786 65538
948.85333 576.52631 1475.5813 65538
949.08728 571.38354 1462.4188 196610
949.37628 566.36719 1449.5797 196610
951.78381 562.69348 1440.1771 196610
961.97272 563.64471 1442.6117 196610
967.81714 562.05597 1438.5455 196610
977.84161 562.90143 1440.7094 196609
983.01898 560.96613 1435.7561 131075
988.53113 559.2536 1431.373 65540
997.35394 559.42725 1431.8175 4
1004.8989 558.88733 1430.4355 3
1009.1296 556.52863 1424.3987 2
1013.5173 554.29517 1418.6821 65537
1019.307 552.85889 1415.0062 65537
1021.64 549.58667 1406.6311 2
1026.7897 547.87048 1402.2386 2
1025.735 542.89813 1389.5123 2
1029.2053 540.38116 1383.0702 65537
1034.7886 539.00464 1379.5471 196608
1017.4973 525.82855 1345.8239 196608
0 0 0 0
0 0 0 0
1225.6368 618.7887 1583.7493 6380111
1229.7137 616.112 1576.8983 7827557
1240.5955 616.85931 1578.8112 7169628
1241.1285 612.48846 1567.6243 6840664
1244.0117 609.33392 1559.5503 6906458
1248.8329 607.16827 1554.0074 6709079
1250.6106 603.56561 1544.7867 6972252
1248.0616 597.94263 1530.395 4998206
1256.4346 597.59583 1529.5074 5656649
1259.1086 594.56293 1521.745 4998462
1257.3982 589.5177 1508.832 4998974
1270.5326 591.45447 1513.7891 5590597
1257.795 581.40491 1488.0679 5722183
1253.3077 575.28278 1472.3987 6906713
1255.2836 572.19171 1464.4872 8946039
1259.0203 569.94031 1458.725 9209210
1264.912 568.6886 1455.5212 9406332
1266.6025 565.57794 1447.5597 9143160
1274.1786 565.11963 1446.3867 8748402
1280.7787 564.23755 1444.129 8748146
1281.2957 560.70514 1435.088 8353389
1287.0632 559.50195 1432.0087 8551281
1280.2588 552.88531 1415.0739 7499362
1283.4155 550.62885 1409.2985 6775896
1281.0018 546.02722 1397.521 6709847
1285.8445 544.55804 1393.7607 6446677
1287.8241 541.90289 1386.9651 6709849
1288.3561 538.67633 1378.7068 6644056
1289.87 535.8985 1371.5972 6380884
1291.4749 533.19312 1364.673 6578006
1295.0299 531.32166 1359.8831 6512470
1296.9669 528.81378 1353.4642 6643286
1299.0162 526.38226 1347.241 6774872
1305.2026 525.64673 1345.3584 6774872
0 0 0 0
0 0 0 0
0 0 0 0
0 0 0 0
0 0 0 0
0 0 0 0
0 0 0 0
0 0 0 0
0 0 0 0
0 0 0 0
0 0 0 0
0 0 0 0
0 0 0 0
0 0 0 0
-1352.6173 635.80853 1602.9103 1908505
-1336.1272 632.51526 1594.6077 65792
-1313.0399 626.02948 1578.2567 131328
-1326.8066 637.14807 1606.2874 526340
-1324.8091 640.80286 1615.5012 2171420
-1336.5471 651.20337 1641.7216 4606017
-1329.715 652.64246 1645.3496 4935238
-1334.9663 660.07764 1664.0941 5725013
-1335.9972 665.52148 1677.8182 3093809
-1326.6938 665.86053 1678.6731 3093040
-1337.0958 676.16968 1704.6631 2303268
-1334.2566 679.88916 1714.0402 131586
-1324.3055 680.0141 1714.3551 592135
-1325.6378 685.9798 1729.3949 526595
-1328.7676 692.97607 1747.0331 395267
-1327.7935 697.92566 1759.5112 789252
-1326.6288 702.85297 1771.9332 789509
-1328.1014 709.26758 1788.1047 789507
-1328.6039 715.26337 1803.2206 986626
-1317.4344 715.02203 1802.6122 1381127
-1314.4568 719.25916 1813.2942 1380615
0 0 0 0
0 0 0 0
0 0 0 0
0 0 0 0
0 0 0 0
-983.90906 566.26233 1427.5802 2824704
-978.09021 567.81335 1431.4905 1575680
-971.0047 568.6499 1433.5994 1378560
-958.75543 566.45032 1428.0542 787712
-1030.8391 614.48224 1549.1455 589824
-1044.7131 628.3689 1584.1544 656640
-1021.1659 619.79547 1562.5404 393216
-1047.6808 641.72882 1617.8356 327936
-1042.8466 644.68866 1625.2976 327680
-1037.4523 647.35455 1632.0184 327680
-1036.9836 653.17334 1646.688 393472
-1035.4702 658.4386 1659.962 327680
-1013.1204 650.42822 1639.7673 459008
-1036.1086 671.65234 1693.2747 459264
-1033.1744 676.32404 1705.0521 1248512
-1012.8353 669.58203 1688.0553 1708291
-995.13739 664.46857 1675.1638 1575936
-984.03339 663.6991 1673.224 1838848
-970.51343 661.2677 1667.0944 919040
-964.6366 664.04767 1674.1028 393216
-977.487 679.91174 1714.097 458752
-962.9903 676.88782 1706.4736 393216
-954.93781 678.37744 1710.2289 459008
-946.41327 679.56006 1713.2104 393472
-942.55359 684.1546 1724.7935 196608
-914.61713 671.18158 1692.0878 196608
-910.64404 675.70093 1703.4813 131328
-942.64343 707.31396 1783.1797 131072
-934.08411 708.86682 1787.0945 196608
-873.16321 670.26135 1689.7679 459776
-862.48944 669.77692 1688.5466 196608
-850.0896 667.92499 1683.8777 262144
-816.29077 649.01495 1636.2045 393216
-820.73438 660.42114 1664.9601 393216
-817.27008 665.66498 1678.1802 393216
-812.44604 669.91736 1688.9006 393216
-800.48096 668.31409 1684.8588 327680
-774.89484 655.15405 1651.6814 524544
-780.23541 668.1394 1684.4183 393216
-740.3349 642.21747 1619.0675 524288
-727.18115 639.11993 1611.2585 393216
-731.8822 651.84198 1643.3314 393216
-699.47992 631.41534 1591.8348 524288
-689.20752 630.67883 1589.978 458752
-679.95056 630.86395 1590.4447 458752
-655.13751 616.4176 1554.0245 393216
-632.42517 603.56262 1521.6165 458752
-633.85034 613.70471 1547.1853 458752
-619.43536 608.58307 1534.2733 655872
-600.97949 599.27875 1510.8165 590336
-656.08453 664.15814 1674.3813 655872
-588.9054 605.34058 1526.0988 524544
-566.53271 591.45941 1491.1036 524544
-560.83923 594.82678 1499.5929 721664
-546.35437 588.82812 1484.4698 787200
-534.17584 585.15881 1475.2195 786688
-526.50964 586.39252 1478.3297 983296
0 0 0 0
-496.80066 572.42297 1443.1116 4402185
-490.86176 575.52307 1450.9271 4665099
-484.50879 578.24005 1457.7767 4599310
-471.14264 572.53351 1443.3903 3876362
-467.73434 578.94055 1459.5427 1640192
-485.314 612.05902 1543.0364 1311488
-508.11819 653.17029 1646.6803 1311232
-481.21228 630.74072 1590.134 1771776
-496.75824 664.17047 1674.4124 3284485
-492.17355 671.50256 1692.897 3087106
-483.59445 673.57721 1698.1272 3022597
-477.24799 678.91638 1711.5876 1115136
-469.12793 681.91034 1719.1355 1049856
-459.38303 682.62317 1720.9327 721664
-451.35858 685.98334 1729.4039 787200
-443.87711 690.34473 1740.3992 721408
-439.83237 700.38696 1765.7162 721664
-430.1059 701.65155 1768.9043 787200
-431.78064 722.04535 1820.3182 984320
-439.19464 753.3324 1899.1947 1050112
-406.34351 715.383 1803.5221 1116160
-410.54486 742.37659 1871.5746 1050624
-397.70712 739.2049 1863.5785 1116416
-394.26358 753.81256 1900.4053 919040
-384.37271 756.59174 1907.4117 984832
-379.04727 768.79968 1938.1887 1182467
-367.55881 768.88129 1938.3945 787456
-356.01581 768.85046 1938.3167 1116672
-343.99606 767.75348 1935.5511 1050368
-333.43094 769.93945 1941.0621 1313025
-318.96417 762.94971 1923.4406 1444866
-307.34995 762.51691 1922.3494 1576450
-295.68417 761.91772 1920.8389 1510657
-287.11807 769.57867 1940.1526 1313024
-274.94971 767.82166 1935.7229 1247488
-263.38376 767.66675 1935.3325 1379072
-253.66547 773.12903 1949.1033 1576193
-241.78882 772.22113 1946.8143 1444867
-230.92709 774.62646 1952.8783 1510916
-219.17818 774.15289 1951.6844 1444096
-207.70168 774.64246 1952.9186 1641729
-194.70583 769.18768 1939.1667 1839108
-183.17256 769.18781 1939.1671 1641731
-172.61887 773.57782 1950.2346 1904901
-160.92169 773.10675 1949.047 2036488
-150.01981 776.67993 1958.0552 2036485
-137.28389 770.56024 1942.6272 2430986
-125.69688 770.35712 1942.1151 2299144
-113.64474 766.97388 1933.5857 2562316
-102.59739 770.37341 1942.1561 2233864
-91.04631 770.37341 1942.1561 1970692
-79.47094 770.13788 1941.5624 1773570
-67.930901 770.22302 1941.777 1970691
-56.105946 766.45074 1932.2668 2036485
-44.709873 768.10315 1936.4327 2102278
-33.156715 767.26727 1934.3254 2233864
-21.643867 766.97144 1933.5796 2430730
-10.131863 766.06866 1931.3037 2167302
1.3501272 763.50208 1924.8331 2430730
12.789082 762.95978 1923.4659 2167558
24.288448 764.83203 1928.1859 2233351
35.563164 760.69788 1917.7637 2496523
46.970837 760.72504 1917.832 2496522
58.191582 758.30573 1911.7328 2430729
69.561714 758.30573 1911.7328 2364937
80.867615 757.70386 1910.2155 2101765
92.096748 756.61969 1907.4822 2365191
103.42522 756.49988 1907.1802 2496776
114.97606 757.86951 1910.6331 2562315
126.30907 757.6861 1910.1708 2496266
137.67245 757.70007 1910.2059 2365193
148.97108 757.38281 1909.406 2167813
160.43774 757.90417 1910.7205 2430986
172.77948 762.21692 1921.5931 2101766
183.0553 757.44629 1909.566 2035972
194.65822 758.40344 1911.9791 2430730
206.24323 759.18896 1913.9596 2562315
217.76524 759.67267 1915.1788 2299143
228.76436 758.37476 1911.9067 2364423
238.30748 752.60156 1897.3523 2891024
254.36221 766.98511 1933.614 2562316
265.74564 766.64807 1932.7643 2430730
275.7442 762.5094 1922.3304 2430730
289.72888 769.28406 1939.4099 2496523
298.01733 760.99469 1918.5118 2562315
311.81479 766.86511 1933.3115 2562059
323.64081 767.64209 1935.2703 2628109
335.33524 768.06415 1936.3345 2496523
345.7731 765.67584 1930.3132 2496265
354.06476 758.84106 1913.0824 2496523
367.64514 763.414 1924.6111 2364937
376.98825 759.17767 1913.9312 2562316
386.65433 755.82117 1905.4691 2364936
397.39914 754.70441 1902.6537 2496780
407.54272 752.53931 1897.1953 2628622
418.82642 752.53931 1897.1953 2430986
429.6142 751.67163 1895.0079 2628109
441.9491 753.48608 1899.5822 2627852
451.66107 750.84967 1892.9357 2693902
464.87241 754.0174 1900.9218 2825489
474.92102 752.02667 1895.903 2824720
482.73587 746.67316 1882.4064 2824720
499.39194 754.92755 1903.2162 2890513
509.16037 752.63483 1897.4362 2890514
518.28687 749.51318 1889.5664 2824976
532.89734 754.28632 1901.5996 2495753
544.43176 754.5976 1902.3843 3022353
553.78937 751.94043 1895.6855 2693133
567.39166 755.03778 1903.4941 2824720
574.55682 749.61554 1889.8245 2824719
585.84326 749.67523 1889.9749 2890513
597.45319 750.13879 1891.1434 2758927
607.58893 748.76843 1887.6888 2758926
620.09534 750.31635 1891.5912 2561291
633.44727 752.81403 1897.8878 2495499
649.80243 758.7309 1912.8047 2627339
0 0 0 0
670.0083 755.85736 1905.5603 2693903
0 0 0 0
0 0 0 0
613.45844 658.63843 1660.4657 262144
613.36591 648.10559 1633.9119 196608
619.42365 644.29858 1624.3142 196608
625.74805 640.88159 1615.6997 196608
632.98889 638.49243 1609.6765 196608
639.13544 635.08698 1601.0912 65536
647.96222 634.40582 1599.3739 65536
656.04474 633.02612 1595.8956 65536
659.17767 626.97797 1580.6479 65536
665.74554 624.32111 1573.9498 65537
670.65942 620.20844 1563.5814 65537
677.06445 617.56836 1556.9257 65538
682.02698 613.70154 1547.1771 65538
695.99976 617.93719 1557.8556 65538
702.00641 615.08197 1550.6573 65537
712.388 616.08429 1553.1843 65536
713.73859 609.35077 1536.2086 65536
726.9361 612.77386 1544.8385 0
738.3819 614.65332 1549.5767 196608
0 0 0 0
780.81885 634.1488 1598.7261 196865
798.43134 640.65137 1615.1193 196608
798.06885 632.74792 1595.1942 459269
815.25275 638.7782 1610.397 65537
815.24994 631.35858 1591.6917 131074
799.81586 612.29596 1543.6337 196612
810.82788 613.68182 1547.1276 196613
819.63098 613.38361 1546.3757 196612
823.77557 609.64441 1536.949 196613
832.94952 609.66846 1537.0096 196615
864.737 626.06409 1578.3439 196613
872.56067 624.94415 1575.5205 196613
856.79871 607.13507 1530.6228 65540
855.31525 599.71198 1511.9088 65540
864.80664 600.05835 1512.782 65540
880.88898 604.92377 1525.048 65540
880.08643 598.21301 1508.1298 65541
883.88574 594.73401 1499.359 65540
898.79803 598.72742 1509.4265 65540
900.24658 593.76178 1496.908 65537
916.29767 598.43018 1508.6772 65538
915.98309 592.42334 1493.5337 65537
922.76312 591.07635 1490.1378 65538
918.39453 582.6817 1468.9745 0
905.25317 568.93176 1434.3101 0
913.9519 569.03644 1434.5739 65536
932.88397 575.4516 1450.7469 65536
932.08978 569.69257 1436.228 65536
943.30908 571.31403 1440.3159 0
944.82019 567.07947 1429.6403 65536
950.39551 565.33807 1425.2501 65537
953.21985 562.00543 1416.8484 131074
963.51666 563.09833 1419.6036 65538
965.07324 559.10864 1409.5454 65537
987.88324 567.39459 1430.4348 65539
983.99994 560.33868 1412.6464 65539
996.18256 562.47345 1418.0282 4
1000.3536 560.08673 1412.0112 4
1005.2346 558.13403 1407.0884 2
1009.8559 556.07056 1401.8861 2
1017.9507 555.93781 1401.5515 2
1024.4689 554.95319 1399.0692 65538
1025.7347 551.16223 1389.512 65537
1031.2023 549.67145 1385.7538 196608
1033.4806 546.51788 1377.8033 196608
1039.156 545.19629 1374.4714 196608
0 0 0 0
0 0 0 0
0 0 0 0
1216.2294 618.6319 1559.6069 5327682
1229.0996 620.44629 1564.1813 5985609
1236.943 619.71503 1562.3376 7827558
1234.1221 613.69159 1547.1522 7433570
1243.0935 613.57794 1546.8656 6973021
1247.4143 611.18726 1540.8386 6841435
1253.8815 609.87543 1537.5314 5262404
1258.8284 607.84857 1532.4215 6314835
1254.9132 601.60236 1516.6744 6709849
1253.4253 596.60059 1504.0647 6907227
1267.9709 599.24719 1510.7371 5393219
1264.1078 593.21771 1495.5364 4406323
1262.1532 588.16193 1482.7904 4998972
1258.1655 582.23547 1467.8495 4932666
1258.887 578.55487 1458.5704 5919560
1263.3766 576.64459 1453.7545 8683122
1267.2529 574.48224 1448.3031 9669761
1261.4263 567.9801 1431.9109 9669505
1266.7622 566.55768 1428.3248 9406589
1272.364 565.27234 1425.0844 8813940
1280.7811 565.2464 1425.019 8682097
1270.5311 557.03668 1404.3219 8748147
1282.6655 558.68408 1408.475 8617074
1282.7899 555.11285 1399.4717 8090730
1281.3811 550.92847 1388.9226 7498593
1283.3506 548.24091 1382.1472 6906456
1287.0532 546.32324 1377.3126 7169627
1287.2999 542.97211 1368.8643 7038299
1290.7114 540.98956 1363.8662 6840921
1293.1101 538.61005 1357.8672 6512470
1295.0271 536.06061 1351.4399 6774872
1296.5835 533.39429 1344.718 6840665
1301.7212 532.22491 1341.7699 6774871
0 0 0 0
0 0 0 0
0 0 0 0
0 0 0 0
0 0 0 0
0 0 0 0
0 0 0 0
0 0 0 0
0 0 0 0
0 0 0 0
0 0 0 0
0 0 0 0
0 0 0 0
0 0 0 0
-1337.7468 638.24713 1585.2881 256
-1331.3779 639.71729 1588.9397 197633
-1327.9943 642.65308 1596.2317 1447697
-1324.6484 645.6496 1603.6746 4145979
-1322.9653 649.50598 1613.2529 4934985
-1319.7374 652.6546 1621.0736 5593428
-1339.2217 667.16425 1657.1129 4014396
-1333.87 669.42474 1662.7275 2566694
-1332.1855 673.57312 1673.0314 3092782
-1327.1003 676.05157 1679.1874 460550
-1316.3423 675.65588 1678.2045 328964
-1313.3002 679.24475 1687.1187 460806
-1314.999 685.35986 1702.3075 592388
-1325.3207 696.09888 1728.9812 460804
-1320.1844 698.82336 1735.7483 658182
-1334.3667 711.89734 1768.2217 658179
-1333.3481 717.00494 1780.908 724229
-1326.533 719.05219 1785.993 789507
-1323.5342 723.21796 1796.34 986886
-1323.0547 728.83929 1810.3022 1117701
0 0 0 0
0 0 0 0
0 0 0 0
0 0 0 0
0 0 0 0
0 0 0 0
-983.8653 574.72736 1427.5167 2628097
-976.05652 575.12891 1428.514 2102016
-967.74982 575.24152 1428.7938 1313024
-966.1239 579.36243 1439.0294 656384
-1034.4761 625.89636 1554.6111 524288
-1013.6217 618.80963 1537.0089 458752
-1035.5399 637.94385 1584.5349 524800
-1028.015 639.12469 1587.4678 393216
-1031.6752 647.34552 1607.8868 393472
-1042.7108 660.39154 1640.2906 393472
-1031.3433 659.36102 1637.7312 393216
-1035.9373 668.61273 1660.7107 458752
-1014.3853 661.00513 1641.8148 327680
-981.20233 645.59674 1603.5432 590592
-1025.9943 681.69427 1693.2029 721920
-1005.0898 674.4245 1675.146 1444608
-992.90015 672.91553 1671.3979 1707520
-985.08539 674.37079 1675.0127 1839360
-981.6004 678.85028 1686.1389 1378560
-963.01691 672.8728 1671.2919 721408
-972.29266 686.43921 1704.9883 524544
-956.60846 682.48413 1695.1646 458752
-945.84564 681.99323 1693.9454 524800
-950.94574 693.0528 1721.4153 459264
-939.73987 692.33984 1719.6444 262144
-926.83795 690.34796 1714.697 262400
-908.29095 684.0603 1699.0796 262400
-942.64343 717.91956 1783.1797 262144
-935.23596 720.38281 1789.2981 262144
-859.61481 669.75531 1663.5487 262144
-841.7663 663.48553 1647.9757 393216
-828.49365 660.71735 1641.1 393216
-851.8949 687.47888 1707.5707 393216
-818.81549 668.75641 1661.0675 458752
-806.3407 666.6106 1655.7378 393216
-801.86554 671.10699 1666.906 458752
-792.71515 671.75409 1668.5132 458752
-776.43744 666.30127 1654.9695 458752
-769.12439 668.50024 1660.4313 524288
-757.5368 666.9928 1656.687 458752
-731.74597 652.77521 1621.3732 393216
-707.01788 639.13861 1587.5023 524544
-692.70966 634.67981 1576.4275 458752
-686.11804 637.26581 1582.8507 458752
-681.94763 642.20392 1595.116 590080
-653.71082 624.29773 1550.6404 393216
-647.745 627.45245 1558.4761 393216
-632.76251 621.83765 1544.53 524288
-622.00861 620.27435 1540.647 590336
-612.61407 620.04004 1540.0651 393216
-600.54218 617.04773 1532.6327 459008
-579.22675 604.31915 1501.0173 590336
-565.07709 598.7854 1487.2723 589824
-567.01141 610.39008 1516.0963 589824
-550.16681 601.82758 1494.8286 853248
-533.26312 592.91797 1472.6989 655360
-520.77515 588.70258 1462.2285 1049088
0 0 0 0
-499.26666 583.88995 1450.2749 4665875
-489.9093 583.0191 1448.1119 4796945
-482.41977 584.37964 1451.4912 4665618
-477.56122 589.03491 1463.0541 3547654
-467.79163 587.69318 1459.7214 1771520
-483.95303 619.49426 1538.7094 983296
-477.08694 622.4762 1546.116 1377280
-495.97958 659.84436 1638.9316 1442816
-496.93954 674.37518 1675.0236 3087106
-485.64487 672.53003 1670.4406 3152386
-482.73978 682.46857 1695.126 2955777
-474.9303 685.74963 1703.2756 1443840
-470.05777 693.50684 1722.543 786688
-459.25357 692.66333 1720.4479 656128
-452.64404 698.25201 1734.3291 524544
-441.58997 697.08533 1731.4313 852992
-441.50882 713.59821 1772.4463 787200
-432.40503 715.97913 1778.36 590080
-433.64023 736.02814 1828.158 1181952
-431.70612 751.59058 1866.8123 1182208
-419.35495 749.36017 1861.2723 655872
-410.54486 753.50793 1871.5746 590336
-397.98419 750.81134 1864.8768 853248
-391.21759 759.20422 1885.7233 1116416
-381.06293 761.32355 1890.9872 1182208
-370.37173 762.46722 1893.8279 1313792
-360.23593 764.86194 1899.7759 1182208
-350.15073 767.52252 1906.3844 1050624
-340.86542 772.17334 1917.936 1116416
-326.16901 764.46375 1898.7869 1181952
-311.7811 756.95013 1880.1245 1247489
-305.17352 768.46954 1908.7366 1379072
-291.72675 762.99164 1895.1304 1313280
-282.01834 767.24371 1905.6919 1379072
-271.25449 768.86047 1909.7075 1510657
-262.45215 776.4212 1928.4869 1444865
-244.93022 757.69867 1881.9836 1247488
-236.49199 766.62939 1904.1659 1379072
-225.52365 767.84412 1907.1831 1247488
-214.45406 768.82452 1909.6183 1642500
-203.63356 770.8576 1914.668 1839108
-192.67871 772.59271 1918.9778 2102280
-180.12868 767.74738 1906.9429 1970693
-169.43344 770.68762 1914.2458 1773314
-157.92668 770.09424 1912.772 1970693
-146.55037 770.09424 1912.772 2233864
-135.11609 769.76404 1911.9519 2102278
-123.94238 770.99396 1915.0067 1970692
-112.37099 769.74872 1911.9138 2167813
-100.13901 763.18848 1895.6194 2167814
-89.538918 768.97864 1910.0011 1838593
-77.53685 762.6615 1894.3105 2233351
-67.157692 772.87347 1919.675 2101765
-55.127235 764.37256 1898.5604 2035972
-43.983624 766.95642 1904.9781 2101765
-32.56921 764.97266 1900.0509 2299398
-21.344284 767.69629 1906.8159 1970179
-9.9957466 767.10925 1905.3578 2233351
1.3280882 762.30005 1893.4127 2430729
12.696025 768.76495 1909.4703 2430730
23.983128 766.54132 1903.9473 2430986
35.151398 763.16418 1895.559 2167557
46.425335 763.16418 1895.559 2167813
57.880268 765.55817 1901.5052 2562315
68.520271 758.15259 1883.1111 2233351
79.970001 760.52856 1889.0126 2299144
91.361069 761.82996 1892.245 2299144
102.44901 760.5954 1889.1786 2562315
113.31552 758.12347 1883.0388 2365450
124.29384 756.77704 1879.6945 2365193
135.46979 756.75671 1879.644 2431242
146.04555 753.64227 1871.9084 2102534
157.91644 757.17908 1880.6931 2430730
169.30077 758.06927 1882.9042 2430730
180.87776 759.65814 1886.8507 2562316
191.22455 756.19653 1878.2527 2627852
202.62001 757.03522 1880.3358 2562315
213.84264 757.17413 1880.6808 2365194
226.26694 761.34265 1891.0347 2628109
237.12447 760.09412 1887.9335 2759438
248.21107 759.65961 1886.8542 2693904
259.66751 760.34558 1888.5581 2496524
271.67725 762.52759 1893.9779 2364939
281.27142 758.02606 1882.7969 2693904
294.22379 762.57294 1894.0905 2298887
304.75159 760.73212 1889.5183 2496523
316.90942 762.94666 1895.0188 3154453
327.5499 761.48145 1891.3794 2562316
337.41159 758.36322 1883.6343 2628109
348.4043 757.9057 1882.4979 2693902
360.45325 759.70288 1886.9618 2759695
370.12317 756.52881 1879.078 2298887
381.64471 757.21454 1880.7812 2496523
390.58408 752.88391 1870.0247 2430730
401.29776 752.11853 1868.1237 2430730
412.39282 752.08984 1868.0524 2627852
423.13098 751.42896 1866.4109 2364680
435.21048 753.12292 1870.6184 2562059
446.07242 752.67798 1869.5133 2693902
457.90317 753.84973 1872.4236 2825488
471.78497 758.26239 1883.3838 2825234
482.9556 758.21387 1883.2633 2364682
492.91068 756.30243 1878.5156 2693647
505.62299 758.61261 1884.2537 2430219
514.22906 754.79535 1874.7725 2758927
520.5647 747.8783 1857.5917 2693134
531.03125 747.06012 1855.5594 2956049
546.42255 753.06244 1870.4681 2824463
556.75983 751.99884 1867.8264 2364425
568.6405 753.02075 1870.3645 2561548
577.04071 749.48285 1861.5771 2890256
587.8526 749.15155 1860.7542 2890513
597.50659 747.38422 1856.3645 2627339
607.25745 745.79993 1852.4294 2890766
614.94958 741.78876 1842.4664 2824974
639.34827 757.71771 1882.031 1969666
627.32672 730.67798 1814.8694 2890767
638.50909 731.12268 1815.9739 2694158
0 0 0 0
0 0 0 0
615.59851 670.84625 1666.2583 327680
612.64783 657.05328 1631.999 196608
618.51422 652.99915 1621.9293 196608
626.25104 651.01392 1616.9984 196608
631.87469 646.92529 1606.843 196608
638.41937 643.88733 1599.2974 131073
647.45074 643.40985 1598.1113 65538
655.71021 642.19012 1595.0818 65538
658.40411 635.63214 1578.793 65538
665.61279 633.55591 1573.636 65538
673.86426 632.51605 1571.0532 65536
675.32184 625.2149 1552.9185 65536
686.16815 626.68555 1556.5713 65536
694.16852 625.55243 1553.7568 65536
702.22119 624.49561 1551.1318 65536
709.41522 622.71246 1546.7029 0
713.55237 618.32599 1535.8077 65536
720.92151 616.8158 1532.0566 65536
722.97296 610.85022 1517.2393 196608
763.07489 636.78485 1581.656 196608
777.03699 640.53979 1590.9827 262402
768.98993 626.27972 1555.5634 196608
753.51819 606.38373 1506.1454 196608
