# .PCD v0.7 - Point Cloud Data file format
VERSION 0.7
FIELDS x y z rgb
SIZE 4 4 4 4
TYPE F F F U
COUNT 1 1 1 1
WIDTH 1375
HEIGHT 1
VIEWPOINT 0 0 0 1 0 0 0
POINTS 1375
DATA ascii
850.61584 -606.47351 2972.27 8554368
885.21368 -618.29163 3030.1897 8554368
911.11548 -623.68542 3056.624 8422781
940.39685 -631.13635 3093.1404 8357245
962.23303 -633.40045 3104.2366 8422782
993.32654 -641.55841 3144.2178 8422266
1023.1641 -648.61859 3178.8193 7764335
1039.1239 -646.78467 3169.8313 8488059
1057.9323 -646.75757 3169.6985 8422779
1069.1644 -642.18079 3147.2683 8488829
1101.4421 -650.18488 3186.4954 8291707
1124.0128 -652.28497 3196.7876 6514525
1118.5618 -638.3241 3128.3669 6711648
1137.1678 -638.3241 3128.3669 6580061
1158.4358 -639.79419 3135.5715 6711649
1163.845 -632.59784 3100.303 6645856
1164.7733 -623.22839 3054.3843 6711650
1177.3932 -620.30634 3040.0635 6843235
1185.7897 -615.28131 3015.4363 6645857
1188.9683 -607.73883 2978.4714 6711650
1186.9302 -597.79053 2929.7158 6711650
1203.075 -597.15527 2926.6023 6974822
1186.5453 -580.55121 2845.2273 6974822
1222.6178 -589.78937 2890.5027 6909030
1216.4301 -578.66766 2835.9961 6843234
1218.1266 -571.5495 2801.1108 6974820
1214.3097 -562.07135 2754.6594 6974821
1191.8458 -544.32935 2667.7075 6974821
1193.8396 -538.07684 2637.0645 7040615
1193.8837 -531.11914 2602.9653 7238250
1190.3813 -522.7821 2562.1062 7369580
1188.5049 -515.36078 2525.7351 7369580
1192.7819 -510.75967 2503.1855 7369325
1195.3525 -505.55045 2477.6555 7369839
1191.7787 -497.90091 2440.166 7764856
1182.8975 -488.24487 2392.8425 10198942
1180.665 -481.53009 2359.9341 9804442
1172.8571 -472.72586 2316.7854 8818834
1198.9243 -477.62106 2340.7764 10727601
1206.6841 -475.19443 2328.8835 9476253
1236.2235 -481.30243 2358.8181 2303786
0 0 0 0
0 0 0 0
1625.7346 -612.11237 2999.9055 5
1405.7645 -523.54468 2565.8435 5
1358.4441 -500.4881 2452.8455 5
1334.2434 -486.349 2383.551 5
1368.7676 -493.68811 2419.5193 5
1359.9127 -485.3912 2378.8572 5
1394.4576 -492.59641 2414.1689 7
0 0 0 0
0 0 0 0
0 0 0 0
1206.5742 -409.36548 2006.262 11252418
1221.1249 -410.24506 2010.5729 11121597
1229.2959 -408.98517 2004.3982 6581621
1249.572 -411.73813 2017.8901 9673629
1248.9958 -407.63321 1997.7722 9673368
1255.0311 -405.74301 1988.5087 9475473
1260.9387 -403.84726 1979.2178 9672082
1265.2919 -401.49335 1967.6813 9474701
1255.1608 -394.62857 1934.0378 9409164
1241.7545 -386.86823 1896.005 9671822
1246.3821 -384.81534 1885.9441 9606029
1231.1351 -376.71765 1846.2581 9606028
1212.5337 -367.74576 1802.2877 9540236
1202.8723 -361.61877 1772.2598 9540236
1189.2255 -354.41049 1736.9327 9737615
1216.8933 -359.53284 1762.0369 9671822
1215.0845 -355.93311 1744.395 9671822
1193.3052 -346.59396 1698.6248 9869200
1180.7161 -340.0585 1666.595 9803407
1179.7346 -336.94714 1651.3466 10395031
1188.8566 -336.74899 1650.3755 9210756
1219.0752 -342.48093 1678.4672 9211012
1244.2072 -346.7023 1699.1556 9934735
1245.8519 -344.36359 1687.6938 9868688
1251.9069 -343.27155 1682.3418 10000274
1259.4744 -342.60825 1679.0911 10197653
1264.88 -341.37195 1673.0321 9934224
1271.7952 -340.55914 1669.0487 9933967
1281.3545 -340.46155 1668.5702 10328725
1282.4399 -338.1312 1657.1494 10328726
1295.4554 -338.95789 1661.2009 10525589
1301.2013 -337.88434 1655.9396 10459796
1311.296 -337.94772 1656.2502 10525587
1306.4658 -334.19238 1637.8456 10591636
1327.5439 -337.07089 1651.953 10591636
1336.8865 -336.94928 1651.3569 10591636
1343.9403 -336.25677 1647.9631 10657429
1353.5642 -336.21274 1647.7472 10591379
1351.1971 -333.21222 1633.042 10657429
1371.983 -335.92349 1646.3297 10591636
1384.6815 -336.63016 1649.793 10788761
1386.5237 -334.70618 1640.3638 10459796
1403.2502 -336.37711 1648.5527 10459796
1414.5315 -336.72855 1650.2751 10657175
1426.1833 -337.16278 1652.4033 10722711
1444.7349 -339.211 1662.4415 10591379
1459.0171 -340.2359 1667.4644 10657171
1461.4027 -338.49136 1658.9146 10788245
1471.2626 -338.48984 1658.9072 10788245
1480.2882 -338.2977 1657.9655 10722452
1487.9991 -337.8096 1655.5734 10787988
1494.0667 -336.95731 1651.3964 10854038
1519.583 -340.47379 1668.6304 10788245
1512.9153 -336.78036 1650.5292 10854038
1486.7271 -328.81723 1611.5026 10788245
1544.7103 -339.45294 1663.6272 10854038
1517.9806 -331.4559 1624.4346 10722453
1522.5449 -330.35001 1619.0146 10854039
1538.601 -331.73569 1625.8057 10919832
1550.8207 -332.2821 1628.4835 10854039
1542.2188 -328.38812 1609.3995 10919576
1579.001 -334.14633 1637.62 10656918
1598.2007 -336.13593 1647.3707 10525589
0 0 0 0
0 0 0 0
0 0 0 0
0 0 0 0
0 0 0 0
0 0 0 0
0 0 0 0
0 0 0 0
0 0 0 0
0 0 0 0
0 0 0 0
0 0 0 0
0 0 0 0
0 0 0 0
-1548.267 -363.45996 1834.7637 7566443
-1514.9276 -358.15778 1807.998 7632489
-1519.8455 -361.88916 1826.8344 7632488
-1535.1132 -368.15643 1858.4719 7566695
-1523.9873 -368.13895 1858.3835 7500903
-1526.3831 -371.41135 1874.9028 7500903
-1533.0588 -375.78107 1896.9613 7566695
-1529.3483 -377.65076 1906.3997 7435110
-1528.0731 -380.1543 1919.0377 7435110
-1533.3123 -384.32837 1940.1085 7435110
-1527.1044 -385.67471 1946.905 7303780
-1520.2251 -386.87082 1952.9429 7237730
-1516.2324 -388.82553 1962.8104 7171937
-1507.427 -389.56686 1966.5527 7106144
-1501.7723 -391.14035 1974.4958 7040351
-1491.7084 -391.58127 1976.7214 6974558
-1465.1893 -387.67526 1957.0038 6842972
-1453.5499 -387.67526 1957.0038 6382164
-1430.2274 -384.53409 1941.147 6119502
-1402.7755 -380.22256 1919.3822 5461320
-1391.8981 -380.36963 1920.1246 5132098
-1391.6317 -383.44284 1935.6383 3817010
-1386.6586 -385.25964 1944.8097 2829861
-1384.5057 -387.89716 1958.124 2304034
-1383.3212 -390.85303 1973.0453 1711899
-1400.8456 -399.19083 2015.135 1251349
-1414.5006 -406.56042 2052.3369 1843236
-1388.5126 -402.56479 2032.1669 3620676
-1374.4498 -401.98676 2029.2489 4213585
-1337.287 -394.58255 1991.8722 5200227
-1330.033 -395.9498 1998.774 5989999
-1321.3607 -396.91571 2003.6501 5858927
-1309.251 -396.85721 2003.3549 5793390
-1297.0464 -396.76871 2002.9078 5793390
-1282.7157 -396.02206 1999.1388 5924465
-1267.0247 -394.83752 1993.1593 5661293
-1250.9719 -393.51688 1986.4926 5398121
-1225.1542 -389.06998 1964.0444 5134950
-1217.5562 -390.37918 1970.6532 5135205
-1198.9796 -388.15961 1959.4487 5463912
-1183.017 -386.75101 1952.3381 5661548
-1172.7423 -387.19241 1954.5663 5529706
-1163.09 -387.85019 1957.8868 5332840
-1149.4244 -387.16943 1954.4504 5727598
-1142.6125 -388.80698 1962.7168 5990255
-1141.932 -392.58618 1981.7944 3687244
-1137.2407 -395.05106 1994.2372 6187378
-1133.202 -397.79688 2008.0983 6056046
-1116.8746 -396.24152 2000.2467 4477014
-1112.5112 -398.9429 2013.8833 2701111
-1116.6174 -404.77325 2043.3154 4411730
-1120.1166 -410.50949 2072.2722 2634548
0 0 0 0
0 0 0 0
-959.32678 -363.5838 1835.3889 259
-924.46399 -354.40353 1789.0465 4
-898.44824 -348.44058 1758.9453 4
-941.3642 -369.38556 1864.6765 6
-848.7912 -337.03104 1701.3494 6
0 0 0 0
0 0 0 0
0 0 0 0
0 0 0 0
-676.33209 -285.57483 1441.5958 9481912
0 0 0 0
-658.57678 -285.31171 1440.2675 525
-651.0603 -285.7724 1442.5931 782
-637.96332 -283.76318 1432.4506 1975337
-628.05164 -283.13562 1429.2825 11845577
-621.99786 -284.25391 1434.9276 11451588
-602.21411 -279.04135 1408.6145 922647
-595.73352 -279.93283 1413.1147 2322
-592.05621 -282.18594 1424.4885 4
-593.41205 -286.9382 1448.4783 12307410
-582.23523 -285.68118 1442.1327 11913167
-575.28662 -286.49219 1446.2267 6320505
-563.40875 -284.83582 1437.8651 134425
-555.55865 -285.19601 1439.6836 198672
-549.97522 -286.7493 1447.5245 13491942
-541.24237 -286.68384 1447.1941 12438997
-533.9801 -287.40778 1450.8485 10466491
-523.94885 -286.64059 1446.9758 200472
-513.23865 -285.47018 1441.0676 331545
-503.1308 -284.60077 1436.6787 330776
-496.3671 -285.62561 1441.8522 790550
-486.41458 -284.81931 1437.7819 9940665
-478.06229 -284.9379 1438.3806 7637388
0 0 0 0
0 0 0 0
0 0 0 0
0 0 0 0
0 0 0 0
0 0 0 0
0 0 0 0
0 0 0 0
0 0 0 0
-881.41711 -639.84784 3229.9834 7107179
-831.86572 -617.33173 3116.321 7304558
-830.11292 -630.06934 3180.6208 7435889
-804.08875 -624.54889 3152.7537 7435633
-786.35431 -625.35754 3156.8357 7435631
-764.45721 -622.81427 3143.9971 7501681
-758.14008 -633.15497 3196.1975 7567474
-750.77338 -643.12848 3246.5442 7567218
-735.01575 -646.25098 3262.3066 7567731
-720.76184 -650.9007 3285.7788 7633267
-704.67395 -654.1073 3301.9658 7567730
-696.28156 -664.84576 3356.1741 7502194
-684.47186 -672.85876 3396.6243 7567987
-670.67786 -679.34918 3429.3882 7436401
-651.97742 -681.12109 3438.3328 7567987
-639.43799 -689.65247 3481.3994 7502450
-621.89313 -693.17578 3499.1853 7764853
-607.86481 -700.99829 3538.6738 7633267
-594.42303 -710.08264 3584.5322 7699059
-580.77301 -719.58478 3632.4995 7764852
-557.76221 -717.77509 3623.364 7896438
-538.23273 -720.47986 3637.0178 2698789
-514.32111 -717.29974 3620.9644 7436141
-492.29437 -716.58521 3617.3574 7304555
-473.69257 -721.01855 3639.7373 5791316
-455.89688 -727.16235 3670.7515 7699314
-428.26727 -717.44989 3621.7224 7765106
-405.40625 -715.12036 3609.9629 7765106
-382.68564 -712.79175 3598.208 7633520
-360.62195 -711.4834 3591.6033 7698541
-337.78836 -708.39569 3576.0164 7764334
-309.73062 -693.20093 3499.3125 7895920
-306.15045 -734.54608 3708.0247 7764334
-269.09991 -695.77087 3512.2856 7830382
-244.88145 -686.43939 3465.1797 7698794
-228.14079 -698.28033 3524.9536 7764588
-202.17734 -681.43268 3439.9058 7633002
-181.63574 -681.12299 3438.3425 7764587
-161.29276 -681.57404 3440.6194 7830380
-141.32431 -683.96881 3452.7083 7764587
-121.05115 -685.45233 3460.1973 7633001
-101.9136 -695.29132 3509.8647 7633259
-81.038567 -695.29187 3509.8677 7961710
-61.206249 -707.34326 3570.7036 7764589
-40.611725 -718.71222 3628.0947 6580314
-18.704979 -706.30933 3565.4841 7961710
2.5002551 -706.12097 3564.5334 6251093
0 0 0 0
36.940495 -580.93591 2932.593 8948351
57.35733 -612.71716 3093.0264 9869453
76.451897 -618.36792 3121.5518 9606538
93.836601 -610.6828 3082.7568 8883071
112.11298 -610.36444 3081.1497 8883584
130.38382 -610.10962 3079.8633 9015171
148.58305 -609.62378 3077.4109 9015171
166.58899 -608.53845 3071.9319 9015171
184.45192 -607.19678 3065.1594 8817792
201.51555 -603.70203 3047.5176 8883585
219.73506 -603.96106 3048.8252 8817792
236.30821 -600.00043 3028.8315 8751999
254.24911 -599.82764 3027.9595 8817536
266.73129 -587.65125 2966.4924 9540748
288.10172 -595.35315 3005.3721 256
304.6525 -592.77728 2992.3689 65536
319.71808 -587.75543 2967.0186 65536
337.18298 -587.43915 2965.4216 65536
354.96008 -587.67108 2966.5925 65536
371.87677 -586.52399 2960.802 65536
390.10257 -587.45203 2965.4868 0
406.76239 -586.04364 2958.3772 0
424.07278 -585.65045 2956.3923 0
440.87524 -584.61499 2951.1653 0
459.28357 -585.70679 2956.6765 0
475.81274 -584.40997 2950.1304 0
492.95361 -583.93005 2947.7078 0
509.93311 -583.29846 2944.5193 0
527.5553 -583.41956 2945.1306 65536
544.32947 -582.62518 2941.1206 65536
560.8894 -581.65808 2936.2388 65536
577.45227 -580.75244 2931.667 65537
594.34772 -580.22449 2929.0017 65536
611.12555 -579.61505 2925.9253 65536
627.81573 -578.95856 2922.6113 0
644.20605 -578.06836 2918.1174 2
659.40582 -576.18457 2908.6079 2
674.23499 -574.08154 2897.9917 2
689.02313 -572.04926 2887.7327 2
705.1828 -571.22687 2883.5813 513
714.32965 -564.89764 2851.6313 0
706.6286 -545.84766 2755.4658 7633524
747.19519 -564.10132 2847.6111 7699060
771.0213 -569.1875 2873.2866 8093817
799.92346 -577.71918 2916.355 8159610
822.79688 -581.62701 2936.0818 8356989
858.53986 -594.28082 2999.9587 8422782
879.91956 -596.67944 3012.0671 8620161
909.33484 -604.32263 3050.6504 8488575
937.81903 -611.06012 3084.6616 8356989
960.98438 -614.13989 3100.2085 8356989
994.83417 -623.80334 3148.99 8488060
1012.4081 -623.09259 3145.4021 8093303
1040.5154 -628.77277 3174.0759 8553854
1058.3923 -628.17871 3171.0769 8422525
1072.1233 -625.18774 3155.9785 8554111
1088.5693 -623.85559 3149.2539 8619647
1117.0189 -629.33142 3176.8962 6646369
1126.3958 -624.05823 3150.2769 6580064
1144.4381 -623.67999 3148.3674 6580062
1154.9272 -619.26398 3126.075 6580062
1154.5114 -609.23334 3075.4397 6645854
1168.0979 -606.78931 3063.1023 6711647
1193.3502 -610.38727 3081.2651 6777442
1186.5719 -597.74084 3017.4253 6777443
1197.3168 -594.16718 2999.3853 6843236
1189.0673 -581.41089 2934.9907 6777443
1192.255 -574.5351 2900.2815 6777442
1196.0354 -568.13708 2867.9839 6448478
1203.6328 -563.70654 2845.6184 6843236
1214.7802 -561.03839 2832.1494 6974822
1201.6281 -547.37421 2763.1721 6974822
1201.3301 -539.8551 2725.2153 6974822
1196.7977 -530.65869 2678.7913 6974821
1200.109 -525.13617 2650.9131 7040614
1199.5214 -518.07281 2615.2571 7304043
1195.9955 -509.9375 2574.1897 7369578
1196.0355 -503.50909 2541.7388 7237992
1194.3937 -496.54196 2506.5681 7435372
1197.0709 -491.51999 2481.217 7501423
1200.4305 -486.89709 2457.8806 7698545
0 0 0 0
1171.3505 -463.80606 2341.3159 9673109
1183.434 -463.08548 2337.6782 8621195
1198.2972 -463.4567 2339.5522 10662065
1208.6537 -462.09628 2332.6848 9147287
0 0 0 0
0 0 0 0
0 0 0 0
0 0 0 0
1384.1318 -500.4624 2526.3589 5
0 0 0 0
0 0 0 0
1370.5372 -479.91751 2422.6472 5
1407.4991 -487.73273 2462.0989 4
0 0 0 0
0 0 0 0
0 0 0 0
0 0 0 0
0 0 0 0
1224.3579 -399.34158 2015.896 11121596
1231.4464 -397.75854 2007.9047 6646644
1240.6497 -396.88242 2003.4818 9607836
1247.4847 -395.27252 1995.3551 9409940
1257.0454 -394.54849 1991.7002 9607059
1261.345 -392.20206 1979.8553 9671825
1264.2249 -389.46173 1966.022 9408908
1264.8282 -386.07672 1948.9343 9540236
1239.8435 -375.01361 1893.0872 9474443
1251.1521 -375.02841 1893.1619 9606028
1213.8912 -360.61423 1820.3984 9606029
1214.1241 -357.4949 1804.6519 9671822
1196.3917 -349.18671 1762.7117 9671822
1200.6178 -347.37613 1753.5718 9671822
1200.9991 -344.49393 1739.0223 9737613
1197.9253 -340.67834 1719.761 9737615
1187.3922 -334.82397 1690.2079 9737614
1186.0277 -331.63159 1674.0927 9803407
1181.6022 -327.64355 1653.9608 10526873
1189.8243 -327.19946 1651.719 9210759
1229.8923 -335.44849 1693.3605 9407881
1240.5803 -335.6153 1694.2025 9802895
1247.9983 -334.90195 1690.6014 10000274
1255.0192 -334.09424 1686.5242 10000274
1261.8888 -333.25943 1682.3099 10000274
1266.4607 -331.83566 1675.1228 9671309
1279.8607 -332.72922 1679.6335 9671052
1276.3284 -329.24112 1662.0254 10329239
1287.5737 -329.58932 1663.7832 10460311
1294.6355 -328.86954 1660.1495 10394516
1300.0231 -327.73853 1654.4402 10394773
1308.3352 -327.35629 1652.5106 10460309
1303.1268 -323.62198 1633.6598 10526102
1337.3176 -329.65509 1664.1151 10459796
1322.9021 -323.70587 1634.0831 10327954
1332.9125 -323.7767 1634.4407 10525589
1340.1543 -323.17886 1631.4227 10394003
1365.7118 -326.97467 1650.5842 10394003
1376.8625 -327.29175 1652.1848 10591382
1388.485 -327.71564 1654.3246 10525589
1383.8347 -324.31982 1637.1825 10525589
1393.3237 -324.26208 1636.891 10591382
1399.9673 -323.54752 1633.2838 10459797
1427.1757 -327.56274 1653.553 10591381
1437.225 -327.61172 1653.8002 10525589
1452.6005 -328.86581 1660.1309 10591382
1460.3811 -328.39517 1657.7549 10656919
1470.5785 -328.47061 1658.1359 10788504
1478.8226 -328.11169 1656.324 10722965
1488.3086 -328.03122 1655.9177 10525843
1493.3929 -326.98804 1650.6517 10591379
1515.4127 -329.6424 1664.051 10657173
1524.0708 -329.37463 1662.6993 10788245
1510.5758 -324.35358 1637.3529 10722452
1512.0923 -322.59949 1628.4982 10788245
1515.9202 -321.35773 1622.2296 10788245
1536.9424 -323.75366 1634.3243 10722452
1543.2365 -323.03644 1630.7039 10525073
1546.9977 -321.80136 1624.4691 10656402
1555.6411 -321.59088 1623.4066 10656659
1564.902 -321.50986 1622.9976 10656659
1582.6487 -323.16254 1631.3405 10590866
0 0 0 0
0 0 0 0
0 0 0 0
0 0 0 0
0 0 0 0
0 0 0 0
0 0 0 0
0 0 0 0
0 0 0 0
0 0 0 0
0 0 0 0
0 0 0 0
0 0 0 0
-1525.8873 -345.0199 1795.5873 7499626
-1526.149 -347.51123 1808.553 7566185
-1517.9993 -348.10898 1811.6639 7698282
-1536.4172 -354.85141 1846.7534 7566696
-1520.0371 -353.59604 1840.2202 7566697
-1522.6333 -356.76889 1856.7325 7632489
-1523.0681 -359.47787 1870.8309 7435110
-1523.2031 -362.15552 1884.7661 7500903
-1523.3282 -364.87042 1898.8954 7369317
-1527.1007 -368.5061 1917.8165 7500903
-1528.7728 -371.68582 1934.3647 7369317
-1522.23 -372.90134 1940.6907 7106145
-1516.6675 -374.37741 1948.3726 7172196
-1514.5063 -376.72229 1960.576 7171938
-1507.0994 -377.78854 1966.1252 7106145
-1502.1654 -379.49628 1975.0127 6908766
-1493.9423 -380.3934 1979.6816 6908766
-1475.7515 -378.74658 1971.1112 6645594
-1452.5128 -375.76758 1955.6074 6645592
-1433.1898 -373.7616 1945.1677 5725001
-1401.9142 -368.58044 1918.2035 5790283
-1386.1083 -367.41489 1912.1376 5066818
-1441.0518 -385.13864 2004.3773 3619376
-1392.0012 -375.1326 1952.3029 2764070
-1387.5126 -377.06827 1962.3767 2369829
-1384.6006 -379.4689 1974.8702 1711645
-1419.3386 -392.31738 2041.7375 987925
-1419.3025 -395.69281 2059.3042 1711906
-1399.9237 -393.68741 2048.8677 3883847
-1378.9418 -391.19205 2035.881 3752520
-1349.5643 -386.2496 2010.1591 4739416
-1331.9629 -384.61929 2001.6744 5726825
-1320.9015 -384.86508 2002.9537 5727598
-1303.6996 -383.30997 1994.8604 5858670
-1294.2074 -384.01389 1998.5237 5924722
-1280.5546 -383.48483 1995.7705 5858673
-1264.9613 -382.35941 1989.9133 5858930
-1250.7889 -381.64627 1986.2019 5727343
-1229.0801 -378.59799 1970.3379 5661553
-1209.2651 -376.08011 1957.2339 5398378
-1204.8798 -378.35843 1969.0911 5200743
-1175.6968 -372.81808 1940.2574 5463658
-1176.8726 -376.8902 1961.45 5134692
-1149.8873 -371.93509 1935.6621 4871262
-1138.8625 -372.09442 1936.4913 4673883
-1143.0697 -377.28452 1963.5021 5002848
-1135.6274 -378.69705 1970.8533 4673627
-1134.7623 -382.35516 1989.8912 5529962
-1129.2184 -384.49722 2001.0392 3556427
-1121.3096 -385.87112 2008.1895 4674654
-1115.7939 -388.10706 2019.8258 5266789
-1111.3414 -390.76547 2033.661 1582379
-1103.1637 -392.15808 2040.9086 2699832
0 0 0 0
0 0 0 0
0 0 0 0
0 0 0 0
-887.18793 -333.74329 1736.9004 5
-877.89667 -334.13876 1738.9585 5
0 0 0 0
0 0 0 0
0 0 0 0
0 0 0 0
0 0 0 0
0 0 0 0
0 0 0 0
-659.53894 -277.14996 1442.3717 269
-652.12555 -277.64603 1444.9534 267
-633.81091 -273.45212 1423.1271 1317149
-628.27606 -274.73303 1429.7933 11977160
-623.46722 -276.37091 1438.3174 11517636
-603.13708 -271.0784 1410.7734 922904
-598.53442 -272.80487 1419.7587 131332
-591.9046 -273.64368 1424.1239 65539
-589.17578 -276.33643 1438.1378 10796485
-582.34351 -277.15555 1442.4009 10533316
-572.98383 -276.77832 1440.4376 5467769
-563.64612 -276.40042 1438.4709 197130
-554.66309 -276.1875 1437.3628 132621
-548.27173 -277.27856 1443.041 13226714
-540.35461 -277.62048 1444.8204 12308178
-533.13562 -278.33786 1448.554 10137783
-519.08032 -275.45114 1433.5306 200728
-510.64124 -275.49802 1433.7745 134679
-503.2002 -276.09412 1436.8768 331291
-495.39249 -276.50613 1439.0211 461586
-489.36237 -277.94229 1446.4952 10139071
-478.42648 -276.59363 1439.4764 7505037
0 0 0 0
0 0 0 0
0 0 0 0
0 0 0 0
0 0 0 0
0 0 0 0
0 0 0 0
0 0 0 0
-836.87311 -576.70312 3001.3364 7172716
-838.90021 -590.69971 3074.1787 7172717
-838.62689 -603.66412 3141.6497 7172974
-819.65637 -603.45398 3140.5559 7304302
-805.10419 -606.56281 3156.7354 7370352
-792.20782 -611.09741 3180.3347 7435888
-774.56396 -612.10211 3185.5632 7501681
-763.85199 -618.77246 3220.2778 7501937
-753.19391 -625.83069 3257.0112 7436144
-736.28381 -627.92969 3267.9348 7370865
-721.88495 -632.34216 3290.8987 7567987
-706.53632 -636.14551 3310.6924 7436401
-700.15186 -648.46936 3374.8296 7633780
-685.04596 -653.20459 3399.4731 7436401
-668.99988 -657.30408 3420.8081 7633780
-651.6842 -660.37427 3436.7864 7567987
-656.41949 -686.71179 3573.8547 7633780
-625.46979 -676.23108 3519.3101 7567987
-611.91223 -684.47925 3562.2358 7633267
-595.57501 -690.09821 3591.4788 7830645
-578.02869 -694.68219 3615.3352 7764852
-555.20355 -693.03101 3606.7419 7633266
0 0 0 0
-509.82358 -689.67969 3589.3005 7304556
-495.55206 -699.67029 3641.2947 7304554
-473.27777 -698.75861 3636.55 6186074
-460.02643 -711.7193 3704.0012 7699314
-429.70444 -698.24487 3633.8762 7764849
-407.06244 -696.48364 3624.7104 7633006
-384.69379 -695.01935 3617.0898 7698542
-361.98889 -692.7381 3605.2175 7895920
-335.09723 -681.65289 3547.5266 7698541
-310.53925 -674.14404 3508.4482 7632748
-287.4227 -668.90796 3481.1982 7764334
-269.60464 -676.14722 3518.8735 7633259
-247.64792 -673.35199 3504.3264 7633259
-227.2392 -674.63879 3511.0232 7764588
-199.96014 -653.72504 3402.1819 7764588
-179.97464 -654.63129 3406.8979 7435623
-164.12665 -672.72644 3501.0706 7764588
-139.48854 -654.8158 3407.8582 7764587
-121.03127 -664.76349 3459.6292 7764587
-101.44069 -671.28668 3493.5779 7763817
-80.620079 -670.93402 3491.7424 7698538
-62.432186 -699.84875 3642.2234 7895660
-40.713432 -698.87988 3637.1812 6514008
-18.849909 -690.41168 3593.1101 7566953
2.5106652 -687.77252 3579.375 6119252
0 0 0 0
38.668873 -589.85901 3069.8037 8487544
58.267269 -603.74976 3142.0955 9409159
76.471992 -599.96002 3122.3723 9211780
93.441605 -589.85449 3069.78 8751229
112.05814 -591.74951 3079.6423 8883585
130.32515 -591.52563 3078.4773 8751999
148.36684 -590.46027 3072.9326 9015171
166.18987 -588.85376 3064.572 8949378
184.2574 -588.34552 3061.927 8817792
201.92816 -586.77576 3053.7573 8817792
219.6004 -585.46899 3046.9568 8883585
236.7951 -583.18536 3035.072 8751999
254.15759 -581.60919 3026.8694 8686206
268.08792 -572.90704 2981.5806 9277318
287.21033 -575.69177 2996.0732 0
303.5181 -572.83911 2981.2268 131072
319.9108 -570.45258 2968.8069 196608
337.32855 -570.04803 2966.7017 65536
355.16904 -570.36267 2968.3389 65536
372.37234 -569.67261 2964.7476 65536
390.2952 -570.09607 2966.9514 0
407.08286 -568.89642 2960.708 0
424.26111 -568.31946 2957.7053 0
441.37445 -567.7049 2954.5071 0
459.371 -568.22992 2957.2395 0
476.01187 -567.1012 2951.3652 0
493.24469 -566.73285 2949.4482 0
510.155 -566.03204 2945.8008 0
527.75323 -566.1156 2946.2356 0
544.48584 -565.2951 2941.9658 0
561.2467 -564.55408 2938.1094 0
577.85321 -563.70734 2933.7024 65536
594.85858 -563.2879 2931.5195 65536
611.64197 -562.68799 2928.3977 65536
628.24164 -561.95715 2924.594 65536
644.26526 -560.76422 2918.3855 1
660.38165 -559.71252 2912.9124 1
675.3244 -557.7453 2902.6743 2
689.69666 -555.41669 2890.5554 0
705.27051 -554.14545 2883.9397 0
718.92407 -551.46167 2869.9724 256
728.84027 -546.10199 2842.0791 2829864
748.46967 -548.09827 2852.468 7370348
776.16614 -555.78247 2892.4592 7830898
798.85266 -559.62384 2912.4509 8028278
821.92505 -563.56677 2932.9709 8160120
845.815 -567.89465 2955.4946 8291450
875.93738 -576.14575 2998.4358 8422782
908.49933 -585.64008 3047.8472 8422782
935.85638 -591.47345 3078.2058 8291196
965.2688 -598.35712 3114.0303 8291196
990.37091 -602.35992 3134.8621 8356475
1015.3296 -606.12921 3154.4788 7698802
1039.0461 -609.03369 3169.5945 8291196
1053.8959 -606.72986 3157.6047 8356989
1074.4609 -607.73962 3162.8596 8619904
1094.514 -608.42993 3166.4524 8488061
1119.1261 -611.58826 3182.8894 6580064
1120.666 -602.24274 3134.2522 6514270
1139.9493 -602.58209 3136.0186 6711649
1157.6807 -602.10352 3133.5278 6645855
1166.7468 -597.20471 3108.033 6711648
1167.9646 -588.50415 3062.7527 6645855
1171.342 -581.14233 3024.4395 6645855
1183.705 -578.39374 3010.135 6645856
1196.4967 -575.93347 2997.3311 6711649
1199.0559 -568.69232 2959.6458 6777444
1194.5171 -558.3429 2905.7844 6777443
1224.2478 -564.07855 2935.6345 6909030
1223.9302 -556.00262 2893.605 7040615
1214.5549 -544.0932 2831.6245 6843237
1224.9064 -541.22565 2816.7009 6974822
1208.4926 -526.7688 2741.4631 7040615
1211.5692 -521.07953 2711.8545 7040615
1208.8866 -513.09521 2670.3018 7303787
1212.3765 -507.90381 2643.2842 7237994
1204.9562 -498.33322 2593.4761 7237994
1201.9645 -490.81296 2554.3384 7106408
1210.9521 -488.3111 2541.3179 7369325
1202.7395 -479.02051 2492.9668 7632497
1180.7743 -464.5455 2417.6345 8158842
0 0 0 0
1169.7086 -449.2504 2338.0342 9607058
1173.6669 -445.47482 2318.385 8422790
1196.2909 -448.78937 2335.635 10661295
1202.382 -445.8967 2320.5806 8686479
0 0 0 0
0 0 0 0
0 0 0 0
1465.8115 -519.72504 2704.8054 5
0 0 0 0
1359.1876 -471.56924 2454.1882 5
1360.795 -467.11063 2430.9841 5
0 0 0 0
1385.5072 -465.69733 2423.6289 5
1360.796 -452.68173 2355.8918 7
0 0 0 0
0 0 0 0
0 0 0 0
0 0 0 0
1211.2139 -383.19354 1994.2545 11319227
1235.3645 -387.04395 2014.2931 5923429
1238.1562 -384.19284 1999.4551 8884368
1247.6246 -383.44803 1995.5789 9541526
1255.2961 -382.17017 1988.9285 9738131
1261.627 -380.51184 1980.298 9474701
1264.8586 -377.95807 1967.0076 9540237
1248.6398 -369.69232 1923.99 9540236
1238.4758 -363.35309 1890.9988 9606028
1226.3379 -356.55408 1855.6146 9540234
1220.6069 -351.72247 1830.4696 9671820
1216.4689 -347.4313 1808.137 9540234
1213.3701 -343.50955 1787.7269 9606027
1206.345 -338.55399 1761.9368 9540234
1199.4437 -333.71823 1736.77 9540233
1200.0908 -331.04736 1722.87 9606026
1186.7786 -324.60352 1689.3344 9737613
1186.0277 -321.67484 1674.0927 9869200
1187.7893 -319.47064 1662.6213 10526873
1194.6191 -318.65475 1658.3751 9144964
1230.9467 -325.65607 1694.8121 9276550
1241.1284 -325.68277 1694.951 9802893
1250.1862 -325.41647 1693.5652 9934736
1257.5876 -324.72675 1689.9757 10000528
1264.6171 -323.9527 1685.9471 10000528
1272.204 -323.33246 1682.7194 9605515
1273.9346 -321.24515 1671.8563 9803150
1279.967 -320.26657 1666.7635 10131860
1286.6075 -319.45398 1662.5347 10328723
1283.6071 -316.27829 1646.0073 10328723
1301.1406 -318.17194 1655.8623 10526102
1323.7588 -321.27112 1671.9915 10526100
1301.0376 -313.40244 1631.0406 10460307
1307.9196 -312.72849 1627.5331 10460050
1361.6234 -323.17743 1681.9126 10394257
1349.6251 -317.99353 1654.934 10394257
1356.1879 -317.22629 1650.941 10328463
1365.576 -317.12625 1650.4203 10460049
1377.3916 -317.58725 1652.8196 10394257
1383.6824 -316.77698 1648.6025 10460050
1396.0393 -317.35703 1651.6215 10525843
1405.5144 -317.27847 1651.2126 10591380
1418.6637 -318.02466 1655.0961 10657172
1450.1058 -322.83307 1680.1204 10657429
1438.6122 -318.0824 1655.3964 10591379
1452.1758 -318.89883 1659.6455 10525586
1460.171 -318.48975 1657.5164 10525843
1470.2423 -318.53592 1657.7567 10525843
1504.3348 -323.75116 1684.8984 10591636
1496.8851 -320.01611 1665.4601 10460050
1505.6205 -319.76764 1664.1669 10525843
1479.0814 -312.07962 1624.1561 10591636
1513.5731 -317.28506 1651.2468 10460050
1529.3226 -318.51987 1657.6731 10525843
1518.8737 -314.31729 1635.8016 10526100
1525.6945 -313.71927 1632.6895 10525843
1517.3459 -310.02939 1613.4862 10525843
1529.4067 -310.52982 1616.0905 10590866
1525.9961 -307.90222 1602.4158 10590866
1554.4473 -311.6962 1622.1608 10656659
1556.2831 -310.13937 1614.0586 10656659
1580.4004 -313.01474 1629.0228 10656659
0 0 0 0
0 0 0 0
0 0 0 0
0 0 0 0
0 0 0 0
0 0 0 0
0 0 0 0
0 0 0 0
0 0 0 0
0 0 0 0
0 0 0 0
0 0 0 0
0 0 0 0
0 0 0 0
-1530.2812 -337.66656 1813.4498 7697257
-1521.6176 -338.13812 1815.9822 7698024
-1568.8922 -351.13599 1885.7878 7632231
-1515.1326 -341.54565 1834.2826 7698281
-1531.1029 -347.64893 1867.0604 7566438
-1512.6602 -345.97052 1858.0465 7501159
-1541.4849 -355.15784 1907.3873 7369316
-1521.1289 -353.06619 1896.1539 7303524
-1564.6676 -365.88446 1964.995 7369317
-1512.373 -356.31726 1913.614 7172195
-1564.5726 -371.41058 1994.6732 7303525
-1510.5835 -361.33408 1940.5569 7303524
-1518.4106 -366.00275 1965.6302 7171937
-1513.6544 -367.68723 1974.6768 7040352
-1502.7653 -367.89664 1975.8014 7040352
-1506.6755 -371.76096 1996.5549 6974559
-1478.7463 -367.76816 1975.1115 6777433
-1447.384 -362.85071 1948.7021 6185296
-1437.3665 -363.24811 1950.8364 5922124
-1410.0082 -359.23401 1929.2784 5198146
-1399.5149 -359.48602 1930.632 5000512
-1404.2217 -363.67889 1953.1499 3750961
-1392.5908 -363.67514 1953.1296 2961449
-1390.9204 -366.29437 1967.1964 2435364
-1394.4677 -370.34372 1988.9436 2040351
-1414.8138 -378.96204 2035.2285 1251097
-1421.0712 -383.92279 2061.8704 725265
-1402.5133 -382.20737 2052.6577 3620417
-1374.1985 -377.77951 2028.8778 4212813
-1349.7383 -374.34232 2010.4182 4476245
-1331.0354 -372.45468 2000.2805 5200483
-1322.7747 -373.48129 2005.7941 5595755
-1311.2089 -373.58496 2006.3507 5727342
-1292.9985 -371.77994 1996.6569 5859187
-1284.5735 -372.78119 2002.0342 5793394
-1269.4576 -371.84134 1996.9866 5924979
-1255.317 -371.17209 1993.3923 5793393
-1238.99 -369.83743 1986.2245 5727603
-1221.364 -368.08563 1976.8164 5727600
-1189.7502 -362.04321 1944.3654 4937828
-1191.4896 -366.13126 1966.3204 5069157
-1160.2139 -360.05463 1933.6857 5002594
-1159.3137 -363.37723 1951.5299 4739676
-1141.1227 -361.29263 1940.3345 4410712
-1146.8396 -366.81229 1969.9778 4279896
-1127.7529 -364.43063 1957.1871 4740447
-1132.3119 -369.72003 1985.594 5661805
-1124.9774 -371.19656 1993.5238 6451321
-1117.2295 -372.56671 2000.8822 5727341
-1123.3552 -378.64264 2033.5133 4805980
-1112.6294 -379.10898 2036.0177 5989742
-1106.0504 -381.01407 2046.249 5002075
0 0 0 0
0 0 0 0
0 0 0 0
0 0 0 0
-886.40973 -323.12927 1735.3768 5
-887.76434 -327.43573 1758.5048 5
0 0 0 0
0 0 0 0
0 0 0 0
0 0 0 0
0 0 0 0
0 0 0 0
0 0 0 0
-659.81848 -268.68521 1442.983 268
-652.25525 -269.10562 1445.2408 10
-631.61353 -264.06931 1418.1932 1382943
-631.93866 -267.78128 1438.1284 11911369
-624.36261 -268.20108 1440.3831 11649481
-614.79626 -267.76572 1438.0449 11188673
-603.78052 -266.67792 1432.2028 10926529
-596.79858 -267.36609 1435.8988 9479085
-588.42139 -267.44016 1436.2964 260
-580.35461 -267.65952 1437.4746 773
-571.69928 -267.60995 1437.2084 3553856
-564.23492 -268.12485 1439.9736 11977933
-556.13824 -268.35049 1441.1854 12175309
-547.41217 -268.27475 1440.7787 12044239
-539.87683 -268.78946 1443.5428 12111059
-534.28204 -270.30252 1451.6688 9874098
-519.65131 -267.21875 1435.1074 1809
-510.62393 -266.96155 1433.7261 2579
-502.5094 -267.18094 1434.9043 2836
-492.89011 -266.59402 1431.7522 132875
-490.7803 -270.1196 1450.6864 10466497
-480.11444 -268.97791 1444.5551 7504776
-463.42352 -264.3577 1419.7419 6055527
0 0 0 0
0 0 0 0
0 0 0 0
0 0 0 0
0 0 0 0
0 0 0 0
0 0 0 0
-826.02106 -551.60565 2962.417 7041130
-833.33722 -568.62 3053.793 7041130
-874.28571 -609.8526 3275.2341 7172715
-818.51917 -583.96405 3136.1987 7304302
-808.9093 -590.56604 3171.655 7238767
-792.52429 -592.4187 3181.605 7304303
-774.80267 -593.33856 3186.5449 7435888
-762.34601 -598.4375 3213.929 7501680
-760.55212 -612.38416 3288.8301 7501681
-735.02576 -607.45374 3262.3511 7502194
-720.94885 -611.97479 3286.6313 7567987
-719.83966 -628.06213 3373.0293 7633780
-699.33716 -627.6662 3370.9026 7567987
-685.48993 -633.3963 3401.6765 7567987
-668.80261 -636.77087 3419.7996 7633780
-650.93719 -639.20026 3432.8467 7502194
-635.75287 -644.50507 3461.3362 7567987
-625.12701 -654.94073 3517.3813 7567986
-609.03125 -660.16974 3545.4641 7567986
-594.65491 -667.70459 3585.9302 7699572
-583.8717 -679.98468 3651.8806 7634035
-559.98938 -677.36871 3637.8318 7633266
-528.32843 -664.75537 3570.0913 2567206
-512.12439 -671.34833 3605.499 7370350
-496.90762 -679.86829 3651.2556 7370347
-481.54602 -688.95966 3700.0813 6383453
-458.31461 -687.12311 3690.218 7633520
-430.40894 -677.74152 3639.8337 7765106
-407.84708 -676.2265 3631.6975 7699313
-383.19675 -670.88562 3603.0139 7699056
-361.7547 -670.86157 3602.885 7830126
-338.91949 -668.08832 3587.991 7764333
-311.05603 -654.3645 3514.2869 7632748
-288.05579 -649.63116 3488.8662 7698541
-266.65598 -648.05237 3480.3875 7698797
-242.51945 -638.99725 3431.7563 7633003
-219.95486 -632.80011 3398.4746 7764588
-204.23882 -647.04565 3474.9805 7830380
-178.02226 -627.48694 3369.9399 7764587
-158.01256 -627.61871 3370.6477 7764587
-138.05872 -628.04303 3372.9263 7764587
-119.32567 -635.10913 3410.8752 7830381
-100.25005 -642.87329 3452.5728 7698794
-81.223907 -655.03638 3517.895 7698794
-61.178711 -664.57025 3569.0969 7764588
-40.623806 -675.75665 3629.1741 6579801
-18.898216 -670.7561 3602.3184 7698283
2.5252483 -670.35522 3600.1655 6711385
0 0 0 0
0 0 0 0
57.32267 -575.57727 3091.1575 9540743
76.829071 -584.10425 3136.9519 8883326
94.365601 -577.24902 3100.1355 8686204
112.34312 -574.89154 3087.4746 8751997
130.18867 -572.61597 3075.2537 8817790
148.53091 -572.81653 3076.3308 8752000
166.13191 -570.42804 3063.5032 8883585
183.87033 -568.93683 3055.4946 8751999
201.65042 -567.83124 3049.5571 8751999
219.43355 -566.91595 3044.6416 8949378
235.67854 -562.46936 3020.7607 8883585
254.82416 -565.0849 3034.8079 8555133
267.20877 -553.35333 2971.803 8620667
285.8764 -555.28143 2982.158 1381905
304.90622 -557.64679 2994.8611 65536
324.7905 -561.22748 3014.0913 65536
337.52618 -552.72711 2968.4399 65536
355.32706 -552.95422 2969.6594 65536
372.54462 -552.29504 2966.1194 65536
390.5463 -552.80536 2968.8601 0
407.05057 -551.24365 2960.4729 0
424.3779 -550.87988 2958.5193 0
441.53439 -550.33215 2955.5776 0
460.21466 -551.65295 2962.6709 0
476.36212 -549.95215 2953.5369 0
493.58447 -549.56915 2951.48 0
510.16653 -548.52405 2945.8672 0
528.11609 -548.96985 2948.2612 0
544.58197 -547.89429 2942.4849 0
561.48303 -547.30988 2939.3464 65536
578.28644 -546.66852 2935.9019 65536
595.32886 -546.284 2933.8369 65536
612.15363 -545.72736 2930.8474 0
628.77954 -545.02924 2927.0979 0
645.13281 -544.13873 2922.3154 1
661.00391 -542.89886 2915.657 0
676.15002 -541.14227 2906.2229 0
693.0531 -540.8443 2904.6226 0
705.72839 -537.3418 2885.8123 0
721.74481 -536.48907 2881.2329 256
720.01019 -522.78723 2807.6467 256
737.3537 -523.24487 2810.1045 7239021
769.74359 -534.12292 2868.5251 7436142
795.52917 -540.04572 2900.334 7830899
826.00696 -548.83496 2947.5369 8159864
847.58051 -551.46539 2961.6638 8423036
877.03375 -559.01123 3002.1887 8422782
908.84351 -567.72784 3049.002 8357245
939.74609 -575.54797 3091 8291449
963.06091 -578.50995 3106.9075 8225657
990.23248 -583.63361 3134.4243 8225400
1023.4393 -592.05927 3179.6743 7698289
1042.8125 -592.32166 3181.0835 8224889
1056.806 -589.57349 3166.3242 8356476
1077.4375 -590.55981 3171.6216 8422269
1085.5719 -584.78021 3140.5823 8553854
1112.7324 -589.27197 3164.7053 6711650
1123.8118 -585.23969 3143.0498 6580064
1141.9895 -584.97559 3141.6313 6580062
1149.5671 -579.3775 3111.5667 6645855
1177.4226 -584.01489 3136.4717 6711648
1167.9646 -570.28827 3062.7527 6448476
1176.1493 -565.46558 3036.8521 6448476
1185.9833 -561.56958 3015.9285 6711648
1183.8071 -552.18756 2965.5422 6645856
1201.0714 -552.01599 2964.6206 6645855
1200.5748 -543.8045 2920.5205 6777440
1214.4191 -542.23029 2912.0662 6711648
1232.7931 -542.69446 2914.5588 6711647
1219.1788 -529.25922 2842.4048 6777440
1228.5079 -526.0152 2824.9827 6974819
1208.1538 -510.32071 2740.6948 6909027
1216.1941 -506.87814 2722.2063 7040613
1219.7133 -501.66641 2694.2166 7237993
1222.0515 -496.1105 2664.3784 7106407
1201.6071 -481.56625 2586.2678 7106409
1203.6545 -476.28973 2557.9302 7106664
1199.6212 -468.7688 2517.5388 7303531
1199.1542 -462.80966 2485.5352 7500911
1183.0597 -451.03778 2422.3137 7829877
0 0 0 0
1170.0253 -435.46265 2338.667 9673108
1177.2511 -433.00443 2325.4651 8226437
1197.02 -435.16318 2337.0586 10792881
1217.8989 -437.67117 2350.5281 9015957
0 0 0 0
0 0 0 0
1298.7255 -451.18063 2423.0808 4
1376.748 -473.03674 2540.46 4
1419.5193 -482.4379 2590.949 4
1375.0499 -462.30588 2482.8296 4
1439.4857 -478.82773 2571.5605 5
1428.1925 -470.07663 2524.5625 5
1436.3274 -467.83566 2512.5273 5
1455.8595 -469.31485 2520.4714 7
0 0 0 0
0 0 0 0
0 0 0 0
0 0 0 0
0 0 0 0
1233.5917 -374.52563 2011.4026 6251877
1238.3738 -372.36639 1999.8065 9277839
1250.604 -372.46655 2000.3444 9474190
1256.9241 -370.82117 1991.5078 9474700
1261.6125 -368.72968 1980.2753 9474701
1264.4091 -366.129 1966.3083 9474443
1249.2928 -358.43665 1924.9963 9408650
1247.3588 -354.63177 1904.5619 9408650
1239.7263 -349.28983 1875.8729 9408650
1225.7716 -342.27783 1838.2147 9540235
1206.8127 -334.00479 1793.7841 9606028
1208.4333 -331.52258 1780.4534 9671822
1199.668 -326.25888 1752.1844 9671820
1198.038 -323.00974 1734.7347 9737613
1198.3749 -320.34177 1720.4065 9671820
1186.7302 -314.54333 1689.2656 9803408
1191.3713 -313.12253 1681.6351 9803409
1188.8478 -309.85797 1664.1028 10460825
1198.2485 -309.72964 1663.4136 9342344
1233.3309 -316.18732 1698.0947 9276551
1245.0332 -316.59488 1700.2836 9868430
1252.1019 -315.82715 1696.1604 9868942
1258.7275 -314.96075 1691.5074 10066321
1265.9282 -314.25089 1687.6951 10000527
1273.6562 -313.6821 1684.6404 9408393
1277.3116 -312.12692 1676.2883 9671565
1272.4271 -308.52521 1656.9451 10131603
1272.736 -306.22836 1644.61 10394518
1279.4578 -305.49786 1640.6866 10394516
1302.0968 -308.55014 1657.0791 10394516
1310.7811 -308.27472 1655.5999 10394513
1319.293 -307.9631 1653.9264 10394514
1327.3087 -307.54117 1651.6603 10525843
1336.0259 -307.28671 1650.2938 10394257
1347.6234 -307.6937 1652.4794 10328464
1356.9989 -307.59103 1651.9282 10460050
1368.1802 -307.89633 1653.5676 10591636
1381.1954 -308.60693 1657.384 10394257
1368.1694 -303.53024 1630.1196 10525588
1399.9103 -308.38669 1656.2012 10854553
1406.3499 -307.64056 1652.1941 10591381
1418.0066 -308.03815 1654.3293 10657175
1431.4246 -308.81021 1658.4758 10657429
1441.4027 -308.83472 1658.6073 10525843
1448.6267 -308.27277 1655.5894 10591636
1454.1506 -307.35907 1650.6824 10525843
1473.8019 -309.42368 1661.7704 10591636
1481.1799 -308.90118 1658.9642 10591636
1493.4095 -309.39066 1661.5931 10525843
1505.009 -309.74408 1663.4911 10591636
1503.8365 -307.48141 1651.3395 10723222
1512.4349 -307.23297 1650.0051 10657429
1511.5002 -305.06369 1638.3549 10657429
1535.6124 -307.94498 1653.829 10591636
1497.6638 -298.4234 1602.693 10591636
1520.3303 -301.02399 1616.6595 10722708
1515.2792 -298.13834 1601.1621 10722452
1545.5991 -302.20468 1623.0006 10525586
1558.0991 -302.75787 1625.9716 10591635
1567.8743 -302.77814 1626.0802 10788501
1574.3887 -302.17224 1622.8263 10853782
0 0 0 0
0 0 0 0
0 0 0 0
0 0 0 0
0 0 0 0
0 0 0 0
0 0 0 0
0 0 0 0
0 0 0 0
0 0 0 0
0 0 0 0
0 0 0 0
-1633.3561 -344.04883 1908.6925 3947318
0 0 0 0
-1535.9769 -328.09766 1820.1995 7697513
-1560.2218 -335.64215 1862.0546 7566183
-1541.2657 -333.93457 1852.5813 7566695
-1534.2588 -334.80994 1857.4376 7369316
-1505.4337 -330.90225 1835.7588 7303523
-1507.9059 -333.86703 1852.2067 7369316
-1503.6489 -335.3746 1860.5702 7237730
-1508.8162 -339.02209 1880.8055 7303780
-1568.049 -354.96298 1969.2415 7369317
-1535.2792 -350.16028 1942.5972 7171940
-1524.9819 -350.44907 1944.1992 7171940
-1508.9679 -349.4184 1938.4814 7106147
-1507.953 -351.87183 1952.0925 7106147
-1515.9478 -356.48203 1977.6686 7040353
-1518.0737 -359.77344 1995.9286 6974560
-1491.1985 -356.18951 1976.0458 6908765
-1482.1488 -356.84024 1979.6559 6908763
-1463.8903 -355.26657 1970.9255 6514261
-1432.1604 -350.37177 1943.7706 5856329
-1413.1481 -348.53391 1933.5746 5395780
-1404.2216 -349.17383 1937.1248 4934976
-1421.0399 -356.27908 1976.5427 3882548
-1397.1185 -353.20346 1959.48 3027499
-1413.6117 -360.37915 1999.2889 2303266
-1407.4481 -361.85165 2007.4579 1974047
-1410.0212 -365.61472 2028.3345 1119512
-1436.1315 -375.59854 2083.7219 198155
-1396.764 -368.48236 2044.2433 4145736
-1370.8767 -364.82867 2023.9736 3686472
-1344.6178 -361.01047 2002.7911 4475987
-1337.4729 -362.3017 2009.9547 4871261
-1316.2891 -359.77905 1995.9596 5463654
-1311.1718 -361.64185 2006.2939 5529962
-1297.0249 -361.02548 2002.8745 5530219
-1281.364 -359.97235 1997.0321 5793391
-1268.0005 -359.55096 1994.6943 5793650
-1255.0999 -359.25412 1993.0475 5859186
-1243.6792 -359.37927 1993.7418 5793395
-1226.5532 -357.84229 1985.2151 5662064
-1219.7915 -359.32864 1993.4608 5464428
-1181.1959 -351.37439 1949.3328 5332584
-1156.9048 -347.55978 1928.1704 5529962
-1160.7035 -352.19214 1953.8694 5464426
-1134.4875 -347.71875 1929.0522 5596012
-1126.1152 -348.67883 1934.3787 5530219
-1128.6799 -353.08017 1958.796 4345944
-1127.4269 -356.36649 1977.0277 2108982
-1127.3171 -360.08737 1997.67 4411479
-1118.0137 -360.91953 2002.2867 6646900
-1111.9735 -362.83438 2012.9099 2831420
-1110.8235 -366.40402 2032.7131 2107184
-1100.7196 -367.06622 2036.3868 3422273
0 0 0 0
0 0 0 0
-916.12555 -315.93707 1752.736 5
-910.84058 -317.72995 1762.6823 4
-894.43909 -315.64157 1751.0964 5
-865.24872 -308.93768 1713.9052 5
-849.75867 -307.02405 1703.2887 8
0 0 0 0
0 0 0 0
0 0 0 0
0 0 0 0
0 0 0 0
-661.12061 -257.26996 1427.2662 7
-659.74347 -260.07343 1442.819 521
-651.74982 -260.30807 1444.1208 10
-633.12177 -256.24496 1421.5797 1711393
-636.6731 -261.17004 1448.9028 12042441
-625.13519 -259.9556 1442.1653 11780298
-615.8125 -259.64136 1440.422 11649225
-606.81311 -259.45645 1439.3962 11518665
-599.15887 -259.84964 1441.5776 10004912
-586.11932 -257.88483 1430.6772 264
-579.73187 -258.83203 1435.9321 1293
-577.45239 -261.66907 1451.6713 4671567
-566.77179 -260.72754 1446.4479 12044495
-557.49908 -260.41461 1444.7119 11847886
-548.66516 -260.30011 1444.0765 11913422
-540.23602 -260.37701 1444.5032 11979727
-534.28284 -261.66901 1451.671 10268598
-518.83466 -258.27686 1432.8522 1807
-510.81107 -258.52908 1434.2515 1809
-503.61975 -259.21829 1438.075 2836
-493.47064 -258.38257 1433.4386 261
-490.79959 -261.5018 1450.7434 10204602
-480.86505 -260.79343 1446.8135 7637644
0 0 0 0
0 0 0 0
0 0 0 0
0 0 0 0
0 0 0 0
0 0 0 0
0 0 0 0
0 0 0 0
-835.74261 -540.27112 2997.282 6975337
-831.08228 -548.96796 3045.5298 7106923
-820.22845 -553.87006 3072.7256 7172716
-803.0141 -554.60272 3076.7903 7172716
-843.28656 -595.99878 3306.4446 7435887
-763.17462 -552.25763 3063.7803 7370094
-746.18707 -553.17279 3068.8572 7370095
-772.96967 -587.39563 3258.7166 7436401
-739.11115 -576.11115 3196.1135 7370608
-737.60681 -590.11572 3273.8069 7370608
-727.81799 -598.07196 3317.946 7305071
-710.10706 -599.78046 3327.4243 7436914
-697.35632 -605.89648 3361.3547 7436914
-682.21082 -610.23151 3385.4041 7370607
-666.31006 -614.13403 3407.0544 7567986
-650.35309 -618.22797 3429.7664 7436144
-634.45184 -622.64172 3454.2529 7370351
-626.04816 -634.95514 3522.5642 7436143
-610.24243 -640.35388 3552.5151 7633010
-595.14948 -646.91467 3588.9126 7699059
-580.65308 -654.63623 3631.7498 7567729
-559.98938 -655.73254 3637.8318 7699058
-522.55487 -636.48962 3531.0774 3488308
-516.26794 -655.16272 3634.6707 7435887
-498.15317 -659.80194 3660.4077 7435887
-478.89017 -663.27484 3679.6743 6515040
-462.07361 -670.63104 3720.4846 7699313
-430.19421 -655.76611 3638.0181 7501934
-407.00885 -653.28137 3624.2334 7633519
-384.51385 -651.68878 3615.3979 7567470
-361.4104 -648.81512 3599.4558 7698541
-336.47546 -642.08472 3562.1172 7698541
-311.48318 -634.33301 3519.1128 7830129
-285.8905 -624.15369 3462.6406 7369577
-264.15475 -621.46808 3447.7417 7698541
-245.54019 -626.29156 3474.501 7632748
-225.7682 -628.77802 3488.2954 7764333
-204.71112 -627.82648 3483.0164 7764332
-183.81108 -627.19653 3479.5215 7698795
-156.10117 -600.22217 3329.875 7764587
-138.25819 -608.86078 3377.7996 7698795
-116.55933 -600.56934 3331.8008 7698794
-98.873657 -613.79443 3405.1704 7698794
-79.482185 -620.51593 3442.4592 7633001
-60.696728 -638.27435 3540.9785 7830381
-40.403522 -650.62469 3609.4949 6711387
-18.752665 -644.33002 3574.5735 7500903
2.4862731 -638.92712 3544.5999 6645592
0 0 0 0
39.250084 -561.6604 3115.9443 7698795
57.786674 -561.7027 3116.179 9540744
76.379524 -562.13849 3118.5969 9145988
93.608322 -554.32635 3075.2571 8817024
112.45101 -557.06311 3090.4397 8949636
130.47466 -555.5434 3082.009 9015170
148.33527 -553.78955 3072.2788 8949378
166.46564 -553.31702 3069.6572 8883585
184.10558 -551.46881 3059.4041 8752255
201.80884 -550.12573 3051.9529 8818048
219.55144 -549.10266 3046.2771 8751998
238.17046 -550.26044 3052.7004 8620669
255.28894 -548.03296 3040.343 8423803
274.82123 -550.93921 3056.4658 8160120
300.65134 -565.32684 3136.2849 5001033
301.95187 -534.60406 2965.8428 0
322.02316 -538.67188 2988.4102 65536
337.61493 -535.21289 2969.2205 65536
355.38977 -535.38647 2970.1836 65536
372.57205 -534.6933 2966.3379 65536
390.76349 -535.4455 2970.511 0
407.20767 -533.84204 2961.6155 0
424.59293 -533.55414 2960.0183 0
441.6972 -532.95013 2956.6675 0
460.6666 -534.5567 2965.5801 0
476.9772 -533.07324 2957.3503 0
493.65009 -532.08582 2951.8723 0
510.46576 -531.31488 2947.5952 0
528.73206 -532.05475 2951.7 65536
544.88409 -530.68793 2944.1172 65536
561.45844 -529.80475 2939.2175 2
578.48157 -529.38562 2936.8923 2
595.47913 -528.96838 2934.5776 0
612.44836 -528.55042 2932.2588 0
629.21777 -527.98785 2929.1379 0
645.3642 -526.94702 2923.3635 1
661.53265 -525.97827 2917.9893 256
676.40332 -524.05359 2907.3118 256
693.24329 -523.71252 2905.4197 256
705.1286 -519.73615 2883.3596 256
722.04944 -519.57196 2882.449 256
738.98877 -519.42853 2881.6528 256
742.02661 -509.7417 2827.9131 1316369
760.96008 -511.16196 2835.7922 7369322
794.94 -522.40875 2898.1863 7633520
823.18726 -529.49066 2937.4749 7962485
849.37476 -534.9809 2967.9333 8225657
879.48016 -542.66504 3010.563 8225659
911.96588 -551.48193 3059.4771 8357243
935.90015 -554.88385 3078.3499 8357243
969.36414 -563.69684 3127.2422 8225657
993.21326 -566.6922 3143.8594 8422266
1033.4476 -578.75287 3210.7688 7764337
1038.1204 -570.8219 3166.77 7830130
1048.4574 -566.23273 3141.3105 8159096
1071.3676 -568.47571 3153.7539 8422268
1093.4172 -570.19269 3163.2791 8553853
1106.9957 -567.50873 3148.3894 6514525
1121.3344 -565.29736 3136.1213 6711648
1138.317 -564.46942 3131.5281 6645855
1157.4409 -564.71289 3132.8787 6645855
1157.5662 -555.82605 3083.5771 6514269
1165.0828 -550.71027 3055.1958 6645855
1175.4231 -547.06567 3034.9768 6645855
1186.0819 -543.67743 3016.1794 6711649
1184.1539 -534.70648 2966.4111 6645855
1205.6782 -536.43341 2975.9917 6843234
1208.8269 -530.05298 2940.5945 6645852
1221.5508 -527.99316 2929.1672 6777438
1232.2662 -525.13538 2913.3132 6843232
1229.4827 -516.68396 2866.427 6777439
1227.5168 -508.80273 2822.7039 6843232
1222.484 -499.88 2773.2029 6843231
1216.8345 -490.94598 2723.6394 6974820
1210.3541 -481.91605 2673.5435 7040613
1218.1615 -478.73517 2655.897 6974820
1220.2092 -473.40128 2626.3059 7040614
1210.8356 -463.82712 2573.1909 7303787
1215.2687 -459.71475 2550.3767 7303532
1194.4447 -446.2673 2475.7737 7500911
1177.3745 -434.53278 2410.6736 7895670
0 0 0 0
1170.7325 -421.80817 2340.0808 9541524
1174.3715 -418.14825 2319.7766 8488583
1197.6763 -421.49435 2338.3398 10792881
1213.6559 -422.21521 2342.3391 8356486
0 0 0 0
0 0 0 0
0 0 0 0
1285.3097 -427.51346 2371.7324 4
1389.2141 -457.0575 2535.635 4
1326.1051 -431.60901 2394.4534 4
1362.6249 -438.78305 2434.2529 5
1387.0558 -441.95428 2451.8464 5
1360.9031 -429.10999 2380.5896 4
1405.0967 -438.48288 2432.5879 5
0 0 0 0
0 0 0 0
0 0 0 0
0 0 0 0
1208.3751 -358.62918 1989.5806 12042176
1239.4097 -364.27264 2020.8889 6383462
1246.4667 -362.82819 2012.8755 8751749
1251.6722 -360.87738 2002.053 9212296
1258.4388 -359.40921 1993.908 9343366
1257.4393 -355.77115 1973.725 9408904
1258.5203 -352.78357 1957.1506 9606028
1249.3621 -347.00687 1925.1029 9408649
1243.6708 -342.28925 1898.9308 9342855
1235.6899 -337.03207 1869.7654 9474441
1214.8119 -328.38235 1821.7791 9540234
1200.5566 -321.66003 1784.4852 9540234
1215.4431 -322.79483 1790.781 9540233
1203.2502 -316.78082 1757.4167 9737871
1202.2985 -313.80429 1740.9037 9737614
1193.6161 -308.87814 1713.5747 9803408
1201.793 -308.36118 1710.7068 9737615
1192.8163 -303.48849 1683.6746 9671821
1194.1958 -301.31003 1671.5889 10000528
1195.6632 -299.18945 1659.8245 9737356
1239.9946 -307.74161 1707.2697 9276036
1253.0813 -308.46353 1711.2745 9736842
1256.6082 -306.83945 1702.2646 9868428
1263.1112 -305.96228 1697.3984 9934991
1269.3805 -305.04288 1692.2976 10000784
1267.0144 -302.07904 1675.8552 9671563
1268.7369 -300.12872 1665.0353 9671563
1271.5872 -298.47327 1655.8512 10263187
1284.4583 -299.17734 1659.7573 10394517
1292.6177 -298.78162 1657.5619 10328723
1301.7018 -298.60397 1656.5765 10394516
1309.4393 -298.12244 1653.905 10460307
1297.8427 -293.27908 1627.0353 10526100
1335.0386 -299.45166 1661.2791 10460050
1338.8187 -298.09335 1653.7437 10460050
1348.7645 -298.11774 1653.8788 10394257
1389.2098 -304.83417 1691.1399 10394257
1368.5496 -298.14209 1654.014 10460050
1381.3877 -298.79117 1657.6149 10460050
1389.9305 -298.50854 1656.047 10591636
1398.9819 -298.33835 1655.1028 10525843
