# .PCD v0.7 - Point Cloud Data file format
VERSION 0.7
FIELDS x y z rgb
SIZE 4 4 4 4
TYPE F F F U
COUNT 1 1 1 1
WIDTH 1274
HEIGHT 1
VIEWPOINT 0 0 0 1 0 0 0
POINTS 1274
DATA ascii
4139.98 2233.5364 4684.8926 13750735
4186.2236 2243.4448 4705.6758 13750735
4255.54 2265.5056 4751.9487 13750735
4327.6611 2288.7598 4800.7246 13750735
4402.9302 2313.364 4852.333 13750734
4506.1714 2352.251 4933.8994 13750737
4566.1724 2368.2102 4967.374 13750737
4588.2559 2364.4255 4959.4355 13750737
4617.6274 2364.4209 4959.4258 13750737
4650.4639 2366.1792 4963.1138 13750737
3077.1599 1555.8375 3263.4041 13750737
3099.3052 1557.2505 3266.3677 13750737
3123.6704 1559.7545 3271.6199 13750737
0 0 0 0
0 0 0 0
0 0 0 0
0 0 0 0
0 0 0 0
0 0 0 0
0 0 0 0
0 0 0 0
0 0 0 0
0 0 0 0
-2060.2947 1135.474 2352.4502 5328724
-2047.0151 1135.8386 2353.2056 5328724
-2040.8186 1140.1652 2362.1692 5197138
-2028.9861 1141.3811 2364.6885 5394774
-2015.5317 1141.6953 2365.3394 5723739
-2001.5143 1141.6926 2365.3337 5723739
-1983.6107 1139.4576 2360.7034 5657946
-1968.8368 1139.0015 2359.7583 5657945
-1958.4661 1141.1042 2364.1147 5723739
-1948.2451 1143.3252 2368.7161 5986911
-1933.7097 1143.0281 2368.1006 6052704
-1919.1614 1142.719 2367.4602 5657946
-1914.1484 1148.1248 2378.6597 5526360
-1884.1115 1138.4896 2358.698 5394517
-1878.6158 1143.6508 2369.3906 5197138
-1866.3622 1144.7444 2371.6565 5262161
-1841.5089 1138.0681 2357.8245 5262161
-1822.0328 1134.6382 2350.7185 5130318
-1804.234 1132.208 2345.6838 4933453
-1794.5964 1134.9014 2351.2637 4868430
-1777.2638 1132.7323 2346.77 4736843
-1766.0159 1134.4377 2350.3032 4933966
-1748.3585 1132.0203 2345.2949 5065295
-1751.6117 1143.2117 2368.4807 4801866
-1730.8864 1138.8075 2359.3564 4998989
-1702.8481 1129.481 2340.0339 4735817
-1685.4377 1127.1088 2335.1191 4670794
-1682.3684 1134.3669 2350.1565 5855068
-1661.5251 1129.6617 2340.4084 5855067
-1638.6166 1123.4613 2327.5625 5789529
-1637.5076 1132.2288 2345.7268 5986908
-1615.3458 1126.465 2333.7854 5855322
-1602.7333 1127.3185 2335.5537 5526358
-1594.6497 1131.4 2344.0098 6052702
-1581.2844 1131.7732 2344.7827 5986652
-1567.793 1132.0616 2345.3804 5591894
-1549.4064 1128.7891 2338.6003 5394259
-1543.2277 1134.4314 2350.29 5328722
-1531.4518 1136.0247 2353.5908 4868171
-1514.6375 1133.8752 2349.1379 4999757
-1497.465 1131.4154 2344.0415 4998987
-1481.6987 1129.9821 2341.072 5459538
-1468.4316 1130.4454 2342.032 5722710
-1461.6443 1135.9535 2353.4436 5854296
-1444.5172 1133.4546 2348.2664 5920089
-1430.709 1133.5365 2348.436 5788503
-1418.6824 1135.0454 2351.5623 5393745
-1402.7848 1133.4565 2348.2705 5327952
-1393.3943 1137.1465 2355.915 5393745
-1379.5349 1137.2268 2356.0815 5262159
-1365.5066 1137.1683 2355.9602 5262159
-1350.3982 1136.1997 2353.9536 5327952
-1328.141 1129.1333 2339.3135 5526358
-1306.4828 1122.4324 2325.4309 5855066
-1291.4403 1121.3331 2323.1533 5526101
-1284.3894 1127.2238 2335.3574 5328722
-1278.5221 1134.2928 2350.0029 5196623
-1265.7321 1135.3081 2352.1064 5130573
-1253.5619 1136.9082 2355.4214 5525588
-1242.2601 1139.3406 2360.4609 6051675
-1221.1608 1132.7405 2346.7869 5525331
-1210.0054 1135.3184 2352.1277 5525331
-1199.5715 1138.6412 2359.012 5788503
-1187.3596 1140.3348 2362.5208 5525331
-1170.845 1137.8872 2357.4497 5327952
-1148.5787 1129.7233 2340.5359 4867144
-1137.5676 1132.5654 2346.4243 4998730
-1122.9291 1131.8219 2344.8838 5327952
-1110.0602 1132.8656 2347.0461 5327695
-1098.7249 1135.5208 2352.5469 5064780
-1086.5321 1137.3466 2356.3296 4998987
-1073.8134 1138.6622 2359.0554 5327952
-1059.7963 1138.6176 2358.9629 5327695
-1047.9917 1140.9805 2363.8584 4933194
-1033.6915 1140.6538 2363.1814 4538179
-1022.7852 1144.1145 2370.3513 4867144
-1009.0006 1144.407 2370.9573 4998731
-997.99329 1147.9022 2378.1987 4998730
-974.47266 1136.8986 2355.4014 5261901
-964.49866 1141.6094 2365.1611 5064521
-946.33136 1136.6182 2354.8206 4932935
-931.54712 1135.6018 2352.7148 5393743
-917.46075 1135.4181 2352.3345 5328206
-905.65454 1138.0942 2357.8787 5525585
-887.94385 1133.3181 2347.9836 5328205
-872.11713 1130.8328 2342.8345 5657174
-859.59467 1132.6208 2346.5391 5656917
-849.10858 1137.1951 2356.0156 5920089
-833.83972 1135.4094 2352.3164 5722710
-821.65564 1137.835 2357.3416 5854296
-807.7851 1137.9686 2357.6184 5130573
-792.08405 1135.4828 2352.4685 4867401
-782.38306 1141.6633 2365.2732 5327952
-765.10278 1136.808 2355.2139 5656917
-751.38556 1137.1646 2355.9526 5722710
-737.68158 1137.5551 2356.7617 5525331
-723.8761 1137.801 2357.2712 5327695
-710.17285 1138.2207 2358.1406 5393230
-697.0827 1139.6593 2361.1211 4340798
-679.4884 1133.6423 2348.6553 5261901
-665.82611 1134.071 2349.5435 5722453
-652.17615 1134.5394 2350.5139 5590868
-635.98602 1130.5129 2342.1719 5788504
-621.62714 1129.6346 2340.3523 5854550
-608.96619 1131.8721 2344.9878 5722964
-594.95312 1131.6423 2344.5117 6117465
-579.10406 1127.8259 2336.605 5130314
-567.9715 1133.2329 2347.8071 5788244
-554.21442 1133.5436 2348.4507 5327693
-541.28577 1135.6083 2352.7283 5327436
-528.41138 1137.8988 2357.4739 5261900
-511.64154 1131.6974 2344.626 4999241
-499.50723 1135.6896 2352.8967 5065034
-485.21008 1134.8521 2351.1616 5130827
-470.45865 1132.8712 2347.0576 5130827
-455.40341 1130.0157 2341.1418 5525585
-441.47824 1129.8732 2340.8464 5788757
-423.96799 1120.2485 2320.9062 5459792
-409.58636 1118.5225 2317.3303 5459792
-396.81653 1121.231 2322.9417 4275262
-380.76865 1114.5388 2309.0771 5854293
-372.57083 1131.1821 2343.5583 4801862
-358.73917 1131.3464 2343.8987 5722964
-344.47632 1130.1095 2341.3359 6315101
-330.95709 1131.3105 2343.8242 5722964
-317.13956 1131.5524 2344.3254 5524815
-303.33673 1131.8713 2344.9863 4735556
-290.75891 1137.0115 2355.6355 4932934
-274.56662 1127.8228 2336.5984 5393486
-262.9588 1137.4895 2356.6257 4998728
-248.13791 1133.5621 2348.4893 5656658
-234.62383 1135.4927 2352.4888 4604226
-219.75253 1130.6837 2342.5259 4669764
-205.78831 1130.2084 2341.541 5130316
-192.45279 1133.3667 2348.0842 5591124
-177.96849 1129.7247 2340.5391 4538436
-165.36612 1138.4231 2358.5601 4801608
-151.0578 1135.899 2353.3308 4932937
-136.68512 1132.3284 2345.9331 4603972
-121.94862 1124.5944 2329.9099 4538436
-108.04751 1123.5731 2327.7942 5130316
-94.914474 1131.4091 2344.0283 6380640
-81.401756 1136.6289 2354.8428 5986396
-67.129395 1131.2072 2343.6101 5986654
-53.751148 1141.9536 2365.8745 5394517
-39.651691 1139.5546 2360.9041 6710634
-25.713852 1141.7164 2365.3831 6841963
-11.774403 1148.8994 2380.2644 6184033
2.3268228 1148.8994 2380.2644 6315618
16.486494 1152.9868 2388.7327 6118238
30.564041 1150.2076 2382.9751 6578789
44.134987 1136.1436 2353.8374 5722710
58.421524 1142.8313 2367.6929 5920089
72.121956 1137.6838 2357.0286 5327952
85.96833 1136.135 2353.8196 5788503
99.758553 1134.38 2350.1836 5130316
113.65572 1134.1219 2349.6489 5064522
128.06004 1138.429 2358.572 5985623
141.73705 1136.0586 2353.6614 5525072
156.71432 1143.6016 2369.2888 5984853
169.19974 1133.2152 2347.7705 5787474
183.51994 1135.7618 2353.0464 5984853
198.65898 1142.6586 2367.335 5524302
211.68098 1137.272 2356.175 5459022
225.82755 1138.2197 2358.1387 5985623
239.13701 1135.0837 2351.6416 6248538
252.44533 1132.2878 2345.8491 6709346
266.44577 1132.7261 2346.7571 6248795
281.46811 1137.2499 2356.1294 6117209
295.44308 1137.3143 2356.2629 5854037
310.17093 1140.1403 2362.1177 6248795
322.74988 1135.1643 2351.8086 5919060
336.85367 1135.7413 2353.0042 5919060
351.55197 1138.1974 2358.0925 5853267
365.10971 1136.9141 2355.4336 5721681
378.22809 1134.4075 2350.2405 5853266
391.95499 1133.8391 2349.063 6642781
407.74023 1139.0601 2359.8796 6576988
419.33237 1132.6093 2346.5149 6248022
433.07361 1132.1907 2345.6479 6248023
453.79163 1149.4708 2381.4482 5919058
465.19992 1142.8379 2367.7065 6905953
474.69269 1132.0253 2345.3052 6116439
491.53967 1138.8669 2359.4795 6248025
506.93826 1142.0671 2366.1096 6313818
519.76447 1139.4558 2360.6995 6050646
535.56757 1143.3365 2368.7395 6379611
549.22632 1142.558 2367.1265 5655888
561.74274 1139.501 2360.7932 6905954
574.09375 1136.2653 2354.0896 6379611
587.43292 1135.0923 2351.6594 6445404
602.20557 1136.6796 2354.9478 6313562
618.66534 1141.3073 2364.5354 6116183
629.26898 1135.1659 2351.8118 5129031
644.00909 1136.5911 2354.7644 5721168
651.71106 1125.7976 2332.4028 6576990
672.30054 1137.2526 2356.135 6116437
678.89325 1125.0466 2330.8469 6116437
704.30835 1143.8975 2369.9016 6313815
718.20514 1143.6697 2369.4297 6642524
724.77344 1132.0045 2345.262 6971746
738.85693 1132.295 2345.864 6971746
757.8432 1139.9496 2361.7227 6774367
767.8103 1134.0061 2349.4089 6576988
782.50763 1135.136 2351.7498 6576476
793.0058 1130.2413 2341.6094 6839903
808.06927 1131.91 2345.0664 6971489
829.23059 1141.9196 2365.804 6774109
837.04938 1133.5281 2348.4185 6774108
853.31409 1136.6613 2354.9097 7300195
866.61053 1135.8033 2353.1323 6641492
913.18756 1177.9004 2440.3481 13087905
1082.6322 1374.6996 2848.0725 13553872
1098.6644 1373.6488 2845.8955 13684939
1118.7251 1377.5905 2854.0618 13750478
1137.2982 1379.6104 2858.2463 13750735
1156.4926 1382.3134 2863.8464 13750735
1177.397 1386.9526 2873.458 13750736
1196.1447 1388.9553 2877.6072 13750735
1221.4495 1398.4088 2897.1926 13750735
1242.682 1403.0026 2906.71 13750735
1263.738 1407.2743 2915.5601 13750735
1284.6578 1411.2811 2923.8613 13750735
1305.3882 1414.9761 2931.5164 13750735
1325.8141 1418.2483 2938.2957 13750735
1345.9845 1421.1659 2944.3403 13750735
1365.2834 1423.1005 2948.3484 13750735
1384.2146 1424.6078 2951.4712 13750735
1402.198 1425.114 2952.52 13750735
1417.7743 1423.1917 2948.5374 13750735
1436.0908 1424.0332 2950.2808 13750735
1453.5005 1423.9662 2950.1418 13750735
1472.4321 1425.3741 2953.0588 13750735
1491.168 1426.5616 2955.519 13750735
1510.2264 1428.0265 2958.554 13750735
1529.1857 1429.365 2961.3271 13750735
1548.4178 1430.9255 2964.5601 13750735
1719.7411 1571.4253 3255.6443 13750735
1757.7877 1588.3767 3290.7642 13750735
1700.5399 1519.7906 3148.6689 13750735
1726.8795 1526.5856 3162.7463 13750735
1742.8267 1524.1456 3157.6917 13750735
1762.2218 1524.7412 3158.9255 13750735
1786.5077 1529.5114 3168.8081 13750735
1975.9277 1674.0912 3468.3455 13750735
1996.2469 1673.8999 3467.9492 13750735
1852.1088 1537.2161 3184.7705 13750735
2049.0281 1683.5057 3487.8501 13750735
2127.1035 1730.2058 3584.6023 13750735
2181.8608 1757.2028 3640.5339 13750735
2203.0923 1756.9348 3639.979 13750735
2234.4734 1764.6877 3656.0415 13750735
2293.501 1793.9163 3716.5964 13750735
1903.2965 1474.5527 3054.946 13750735
1924.5769 1476.9949 3060.0056 13750735
1960.0745 1490.2006 3087.3647 13750735
1983.6207 1494.1597 3095.5671 13750735
2005.4187 1496.7413 3100.9158 13750735
2026.9904 1499.1086 3105.8206 13750735
2047.8549 1500.9153 3109.5635 13750735
2070.7012 1504.1293 3116.2222 13750735
2093.0706 1506.943 3122.0515 13750735
2115.1711 1509.5157 3127.3816 13750735
2136.7087 1511.6453 3131.7935 13750735
2158.1858 1513.6959 3136.042 13750735
2180.179 1516.0703 3140.9612 13750735
2201.5671 1517.9875 3144.9333 13750735
2222.8955 1519.8314 3148.7534 13750735
2244.3481 1521.729 3152.6848 13750735
2265.4458 1523.3567 3156.0569 13750735
2286.9714 1525.243 3159.9651 13750735
2308.9954 1527.4282 3164.4924 13750735
3099.0757 2033.5651 4213.0957 13750735
3110.5891 2024.8126 4194.9624 13750735
3084.3403 1991.8126 4126.5938 13750735
3108.9028 1991.8868 4126.7476 13750735
3141.5376 1997.0913 4137.5298 13750735
3178.5605 2004.9833 4153.8804 13750735
3222.24 2016.9204 4178.6113 13750735
3266.7876 2029.2151 4204.083 13750735
3305.4409 2037.6897 4221.6406 13685455
3343.9675 2045.9597 4238.7744 13685455
3376.9814 2050.7588 4248.7168 13685455
3401.3364 2050.2668 4247.6982 13685455
3413.5828 2042.5375 4231.6846 13685454
3433.6233 2039.5505 4225.4961 13685455
3463.7695 2042.5658 4231.7432 13685455
3501.2292 2049.8196 4246.771 13685455
3648.5654 2120.8389 4393.9072 13685455
3675.5051 2121.3635 4394.9946 13685455
3717.0977 2130.2786 4413.4644 13684943
3783.624 2153.2588 4461.0742 13750735
3862.5344 2182.9192 4522.5239 13750735
3930.3643 2205.9517 4570.2422 13750735
3980.5471 2218.8323 4596.9282 13750735
4034.9043 2233.8489 4628.0391 13750735
4082.5549 2244.9751 4651.0903 13750735
4138.2686 2260.3562 4682.9561 13750735
4194.6733 2275.907 4715.1743 13750735
4253.9858 2292.8196 4750.2134 13750735
4324.9941 2315.7725 4797.7666 13750735
4401.231 2341.2065 4850.4604 13750734
4502.2881 2379.4282 4929.6475 13750737
4563.7168 2396.3489 4964.7031 13750737
4594.1196 2396.866 4965.7739 13750737
4652.686 2411.9763 4997.0796 13750737
4659.6216 2400.2991 4972.8872 13750737
3044.6592 1558.5338 3228.9363 13750737
3066.3752 1559.8499 3231.6626 13750737
3090.8101 1562.5239 3237.2029 13750737
0 0 0 0
0 0 0 0
0 0 0 0
0 0 0 0
0 0 0 0
0 0 0 0
0 0 0 0
0 0 0 0
0 0 0 0
0 0 0 0
-2038.0754 1137.0148 2327.0803 5592153
-2026.6615 1138.3472 2329.8074 5328981
-2007.4166 1135.2692 2323.5078 5460567
-1996.3033 1136.7792 2326.5984 5328981
-1984.0042 1137.6301 2328.3398 5328981
-1969.6353 1137.2981 2327.6602 5657946
-1953.8503 1136.1377 2325.2854 5592153
-1944.3232 1138.6257 2330.3774 5394774
-1931.6743 1139.308 2331.7737 5263188
-1924.7242 1143.3855 2340.1191 5197138
-1888.5698 1130.0474 2312.8206 5131602
-1887.3479 1137.5693 2328.2156 5460310
-1871.1763 1136.1251 2325.2595 5197138
-1868.5153 1142.9233 2339.1733 5328980
-1851.9596 1141.2609 2335.7708 5130574
-1841.0277 1143.0651 2339.4631 4933451
-1816.7778 1136.5647 2326.1594 5065294
-1799.5447 1134.3885 2321.7053 5065551
-1790.1647 1137.1671 2327.3923 5196368
-1772.6025 1134.7511 2322.4475 4670024
-1761.3378 1136.3602 2325.7407 4340803
-1745.7915 1135.2104 2323.3877 4143680
-1730.5105 1134.2163 2321.353 4077374
-1711.5873 1130.8 2314.3608 4208959
-1690.0642 1125.5969 2303.7119 4143680
-1686.3716 1132.2811 2317.3921 4867401
-1662.6128 1125.4913 2303.4958 5723480
-1644.9296 1122.7361 2297.8567 5789273
-1622.5808 1116.7238 2285.5518 5460308
-1622.254 1125.8943 2304.3206 4802122
-1595.6522 1116.8298 2285.7688 5131086
-1587.6765 1120.7588 2293.8101 5196880
-1574.5145 1121.0629 2294.4324 5393746
-1564.4537 1123.5996 2299.624 4999758
-1549.6974 1122.7788 2297.9443 5197136
-1538.7805 1124.7498 2301.9783 5328722
-1541.9508 1137.1451 2327.3472 5723480
-1513.4529 1126.199 2304.9441 5526101
-1501.8478 1127.7382 2308.0942 4999757
-1492.949 1131.3566 2315.5 5460052
-1481.6149 1133.1796 2319.231 5262159
-1457.8855 1125.4675 2303.4473 5525074
-1443.2985 1124.7344 2301.9465 5393745
-1426.1586 1121.9788 2296.3069 5656917
-1419.4955 1127.4918 2307.5901 5854297
-1408.4507 1129.5978 2311.9004 5722710
-1399.0967 1133.1144 2319.0977 5656917
-1385.1 1132.9036 2318.6663 5393745
-1371.5023 1133.0181 2318.9006 5788503
-1357.843 1133.0835 2319.0344 5985625
-1337.5673 1127.5725 2307.7554 6184031
-1322.15 1126.0858 2304.7126 5657687
-1310.3434 1127.6754 2307.9658 5657687
-1301.2177 1131.63 2316.0596 5657687
-1282.7828 1127.4866 2307.5796 5328722
-1270.2738 1128.5187 2309.6917 5131087
-1258.0491 1129.8284 2312.3723 5197136
-1247.0397 1132.2704 2317.3704 5262672
-1236.5981 1135.2882 2323.5469 5722967
-1223.8551 1136.2373 2325.489 5262159
-1207.3331 1133.6595 2320.2134 5130573
-1194.9092 1134.9147 2322.7822 5656917
-1181.9711 1135.7051 2324.3999 5459538
-1163.7655 1131.3931 2315.5747 4735815
-1148.1156 1129.4926 2311.6851 5130316
-1134.9071 1129.9769 2312.6763 4867144
-1123.1827 1131.9689 2316.7532 5327695
-1107.2906 1129.7577 2312.2278 4932937
-1095.9546 1132.198 2317.2222 4735558
-1083.1991 1133.2151 2319.3037 4538179
-1072.0336 1135.9431 2324.887 5327695
-1058.0121 1135.6766 2324.3416 5064780
-1045.4337 1136.9724 2326.9937 4933451
-1034.6984 1140.3341 2333.874 4933194
-1020.8719 1140.3341 2333.874 5196366
-998.63379 1130.809 2314.3794 5064780
-998.41541 1146.3 2346.0842 5327952
-979.71576 1140.7102 2334.6438 5656401
-960.51038 1134.3629 2321.6531 5525072
-951.79498 1140.4001 2334.009 5459279
-938.30304 1140.8076 2334.843 5525072
-917.80353 1132.5801 2318.0042 5327949
-900.14471 1127.6611 2307.9368 5196107
-890.25928 1132.479 2317.7971 5393743
-874.40729 1129.7388 2312.189 5328463
-860.0899 1128.9258 2310.5249 6249564
-850.13885 1133.9102 2320.7263 6051676
-837.6701 1135.6451 2324.2773 5854296
-825.32111 1137.6031 2328.2847 5656917
-811.47144 1137.5242 2328.123 5656917
-796.24823 1135.4836 2323.9468 5065037
-778.25085 1129.3457 2311.3845 4933194
-771.03925 1138.9197 2330.9792 5393745
-756.91699 1138.449 2330.0156 5525331
-742.28766 1137.1837 2327.4263 5525075
-731.61755 1142.0511 2337.3882 5327952
-711.51691 1132.1013 2317.0242 5327952
-702.21667 1139.2826 2331.7219 4603972
-682.58331 1129.6511 2312.0095 5064523
-671.71344 1134.4255 2321.7812 5327952
-655.61169 1130.379 2313.4993 5064523
-640.82733 1128.4795 2309.6116 6051418
-626.43439 1127.2014 2306.9958 5985882
-615.1745 1131.6296 2316.0588 5722709
-602.48358 1133.5675 2320.0249 5920086
-584.36688 1125.1488 2302.7949 3880504
-571.51074 1126.6987 2305.967 4669763
-565.59692 1142.3461 2337.9917 5196107
-549.47803 1137.6501 2328.3806 5656914
-535.44415 1137.1404 2327.3374 5657171
-521.72937 1137.2991 2327.6624 5525842
-506.76913 1134.6782 2322.2981 5591378
-493.31592 1135.3792 2323.7329 5722709
-481.18274 1139.2457 2331.6465 5656660
-461.89557 1125.9026 2304.3376 5722454
-449.75198 1129.6898 2312.0889 5394000
-436.95493 1132.0223 2316.8625 5525585
-417.71021 1117.2603 2286.6497 5196620
-405.33374 1120.495 2293.27 5393999
-392.73044 1123.3052 2299.0217 4933191
-378.8241 1122.4567 2297.2849 5525328
-366.76001 1127.2068 2307.0068 5788757
-351.04434 1120.6675 2293.623 6117722
-337.18076 1119.7521 2291.7495 6315101
-324.92899 1124.337 2301.1335 6381408
-310.39905 1121.0955 2294.499 5459792
-297.53842 1123.8624 2300.1619 4800579
-285.7178 1131.0116 2314.7939 4273979
-270.54449 1124.941 2302.3696 4142649
-257.96255 1129.573 2311.8496 4405821
-244.99596 1132.9457 2318.7524 3945013
-231.2876 1133.0852 2319.0378 4340541
-217.75143 1134.1389 2321.1946 4406591
-204.01027 1134.1952 2321.3098 5327693
-191.07535 1139.0659 2331.2783 4867398
-175.53983 1127.9845 2308.5986 5327952
-161.78801 1127.4609 2307.5269 5788503
-148.77428 1132.4587 2317.7556 5327696
-134.02852 1123.9484 2300.3379 5130573
-121.56913 1134.8547 2322.6594 5262159
-106.58898 1122.0104 2296.3716 5656917
-92.706329 1118.6506 2289.4954 5656917
-79.466873 1123.2308 2298.8694 5854296
-66.638367 1136.7153 2326.4675 5788503
-53.023682 1140.3248 2333.855 5722710
-39.569054 1151.137 2355.9836 4604229
-25.452848 1143.9984 2341.3735 5196879
-11.630645 1148.801 2351.2029 5855067
2.2869136 1143.0532 2339.439 6052445
16.143089 1142.8273 2338.9766 6052445
30.19828 1150.3915 2354.458 5855066
43.553665 1134.9399 2322.834 6183260
56.866405 1126.0637 2304.6672 5591124
71.334846 1139.0787 2331.3047 6051675
85.260735 1140.6134 2334.4456 5459538
98.741196 1136.5924 2326.2161 5919830
112.71926 1138.5826 2330.2893 5393486
126.76846 1140.7787 2334.7839 5854037
139.82466 1134.486 2321.9048 5722451
153.94647 1137.1919 2327.4429 5788244
167.92424 1138.4766 2330.072 5787730
180.54164 1131.0436 2314.8594 5458509
196.31941 1143.0612 2339.4553 5590095
209.71733 1140.5511 2334.3181 5129544
220.19113 1123.4324 2299.282 5919317
234.66615 1127.5337 2307.6758 5787988
250.18623 1135.9282 2324.8564 6117209
263.75772 1135.0612 2323.082 5393486
278.2113 1137.8878 2328.8672 6511968
292.44611 1139.5948 2332.3608 7104104
306.9559 1142.171 2337.6335 5722451
320.33102 1140.4852 2334.1831 6050646
334.6774 1142.2535 2337.8025 6116439
348.30478 1141.525 2336.3113 5787474
362.87671 1143.8295 2341.0278 6313818
374.69659 1137.6089 2328.2964 5590095
388.01053 1136.2051 2325.4231 6445404
402.07071 1137.0077 2327.0659 6445918
415.01953 1134.7185 2322.3809 6643553
427.52252 1131.3965 2315.5818 6380381
443.11996 1136.2155 2325.4446 6248538
458.16299 1139.3652 2331.8911 6708576
474.34186 1145.0726 2343.572 6248025
485.94489 1139.7231 2332.6235 6379611
499.9343 1140.1118 2333.4189 6445404
514.68726 1142.1738 2337.6394 6116439
531.50549 1148.5911 2350.7732 6313819
542.70935 1142.8577 2339.0388 5392717
554.91913 1139.4753 2332.1162 6642527
572.83179 1147.683 2348.9148 6313562
584.29913 1142.8944 2339.114 5984083
599.065 1144.6301 2342.6665 6115926
610.65991 1140.3658 2333.9387 5984340
622.72638 1137.1514 2327.3599 5326153
637.45074 1138.8246 2330.7844 5260617
644.28503 1126.6296 2305.8257 6642269
654.86273 1121.3513 2295.0227 6708318
671.80853 1126.9703 2306.5227 6774368
684.91064 1126.046 2304.6311 6182232
700.82068 1129.684 2312.0767 6379610
713.32489 1127.7976 2308.2161 6313817
731.57245 1134.892 2322.7358 6774111
745.87927 1135.7241 2324.4387 6971746
757.20312 1132.066 2316.9521 7169125
766.38611 1125.3947 2303.2981 6971492
779.70276 1124.9207 2302.3279 6840159
802.46716 1137.8593 2328.8088 7103075
815.39893 1136.6539 2326.342 7168868
820.23737 1124.3944 2301.2507 7497833
843.5274 1137.4158 2327.9011 6840159
859.05493 1139.7196 2332.6162 7761260
879.23499 1148.0254 2349.6152 11641485
1077.916 1385.5103 2835.6658 13553614
1097.7194 1389.3126 2843.4478 13619403
1114.5647 1389.3126 2843.4478 13684942
1128.8938 1386.223 2837.1245 13750735
1155.8075 1398.4504 2862.1499 13750735
1174.9807 1401.0944 2867.561 13750736
1193.5198 1402.9174 2871.2922 13750735
1211.2661 1403.7706 2873.0383 13750735
1230.15 1405.9003 2877.397 13750735
1250.0807 1409.1515 2884.0513 13750735
1271.097 1413.5226 2892.9973 13750735
1292.4949 1418.1958 2902.5618 13750735
1313.5148 1422.3372 2911.0376 13750735
1334.1681 1425.9794 2918.4922 13750735
1347.6663 1421.9786 2910.304 13750735
1366.2382 1423.3647 2913.1409 13750735
1385.54 1425.4674 2917.4443 13750735
1403.7092 1426.3673 2919.2861 13750735
1422.3315 1427.7002 2922.0142 13750735
1441.7566 1429.7971 2926.3057 13750735
1461.1456 1431.8087 2930.4229 13750735
1481.5569 1434.7631 2936.4695 13750735
1502.4012 1438.0636 2943.2244 13750735
1520.9332 1439.1002 2945.3459 13750736
1539.2574 1439.9191 2947.022 13750735
1558.8835 1441.9237 2951.1248 13750735
1759.8901 1609.7952 3294.7002 13750735
1694.7435 1533.2003 3137.9368 13750735
1717.7032 1537.1107 3145.9399 13750735
1735.5529 1536.4133 3144.5127 13750735
1755.1974 1537.3031 3146.3337 13750735
1776.8065 1539.8766 3151.6008 13750735
1812.6522 1554.6064 3181.7478 13750735
2008.7501 1705.0579 3489.6702 13750735
2029.1145 1704.7981 3489.1387 13750735
2049.4727 1704.5383 3488.6072 13750735
2161.0095 1779.3597 3641.741 13750735
2182.3347 1779.1564 3641.3247 13750735
2203.5708 1778.8851 3640.7695 13750735
2234.2512 1786.1696 3655.6782 13750735
2300.5151 1821.4879 3727.9631 13750735
1890.8959 1482.9258 3035.042 13750735
1914.0417 1486.9388 3043.2554 13750735
1945.7877 1497.4956 3064.8613 13750735
1968.3461 1500.8514 3071.7297 13750735
1989.4335 1503.0349 3076.1985 13750735
2010.4563 1505.1301 3080.4866 13750735
2030.8098 1506.691 3083.6814 13750735
2052.3057 1509.0642 3088.5383 13750735
2073.7395 1511.3502 3093.217 13750735
2095.563 1513.8777 3098.3899 13750735
2117.5762 1516.4972 3103.751 13750735
2139.5669 1519.0554 3108.9871 13750735
2161.5879 1521.5914 3114.1772 13750735
2182.9436 1523.6201 3118.3293 13750735
2204.0818 1525.4642 3122.1038 13750735
2225.2285 1527.2834 3125.8269 13750735
2246.2791 1529.0073 3129.3552 13750735
2268.0034 1531.1577 3133.7563 13750735
2289.8618 1533.3632 3138.27 13750735
3111.2288 2066.5972 4229.6177 13750735
3113.1023 2051.3208 4198.3521 13750735
3085.7366 2017.1724 4128.4619 13750735
3111.2515 2017.8578 4129.8647 13750735
3141.0554 2021.2927 4136.895 13750735
3179.4055 2030.1315 4154.9849 13750735
3222.8635 2042.0704 4179.4199 13750735
3267.2119 2054.3877 4204.6289 13750735
3304.6704 2062.219 4220.6567 13619919
3342.647 2070.2532 4237.1001 13685455
3374.0627 2074.1348 4245.0444 13685455
3399.177 2074.1135 4245.0015 13685455
3416.939 2069.6399 4235.8452 13685454
3440.8813 2068.9473 4234.4277 13685456
3472.0657 2072.5879 4241.8784 13685455
3510.5173 2080.4829 4258.0371 13685455
3648.729 2146.9656 4394.1045 13685455
3676.4893 2147.9756 4396.1714 13685455
3718.668 2157.3359 4415.3286 13685199
3784.1536 2179.9924 4461.6987 13750735
3858.2878 2207.282 4517.5518 13750735
3926.5024 2230.8325 4565.7515 13750735
3980.8306 2246.2253 4597.2554 13750735
4031.4485 2259.3298 4624.0757 13750735
4079.1609 2270.6399 4647.2231 13750735
4134.1519 2285.823 4678.2979 13750735
4197.8359 2305.5779 4718.7295 13750735
4251.7676 2319.7507 4747.7363 13750735
4318.249 2340.5396 4790.2842 13750735
4401.4971 2370.085 4850.7534 13750735
4491.5693 2402.8979 4917.9106 13750737
4554.6523 2420.9426 4954.8418 13750737
4592.8032 2425.5889 4964.3511 13750737
4648.9556 2439.6226 4993.0728 13750737
4672.4385 2436.4429 4986.5654 13750737
3022.5815 1566.2227 3205.5222 13750737
3043.5349 1567.2336 3207.5913 13750737
3065.9504 1568.9802 3211.166 13750737
0 0 0 0
0 0 0 0
0 0 0 0
0 0 0 0
0 0 0 0
0 0 0 0
0 0 0 0
0 0 0 0
0 0 0 0
0 0 0 0
-2009.113 1134.4473 2294.011 5394774
-1992.4226 1132.6847 2290.447 5460567
-1978.7345 1132.6167 2290.3093 5460567
-1967.2837 1133.8372 2292.7773 5394774
-1949.9822 1131.6791 2288.4133 5526360
-1938.4441 1132.8589 2290.7991 5328981
-1920.2479 1130.1371 2285.2952 5394517
-1893.2068 1122.1338 2269.1116 4736587
-1896.751 1132.2743 2289.6169 4670794
-1879.244 1129.9037 2284.8232 4868173
-1874.7218 1135.3624 2295.8616 4933710
-1857.3633 1133.0703 2291.2266 4538695
-1845.5997 1134.1827 2293.4761 5064782
-1831.6356 1133.9493 2293.0042 5130575
-1825.6473 1138.687 2302.5845 4933452
-1803.0172 1133.0382 2291.1616 4472645
-1784.0967 1129.6523 2284.3152 4341059
-1775.3601 1132.7125 2290.5032 4801610
-1770.8125 1138.5131 2302.2327 4735817
-1757.2169 1138.5411 2302.2893 4670024
-1739.391 1135.8073 2296.7612 4406852
-1733.3641 1140.7958 2306.8486 4933196
-1717.8329 1139.5586 2304.3469 5328725
-1697.9545 1135.3948 2295.927 5328981
-1661.3086 1119.861 2264.5154 5723482
-1660.4325 1128.3823 2281.7471 5723480
-1649.0977 1129.8779 2284.771 5591894
-1626.061 1123.3143 2271.4988 5328722
-1612.6042 1123.3143 2271.4988 5131343
-1592.7317 1118.8077 2262.3857 5262931
-1576.9513 1117.1235 2258.98 4341830
-1569.5758 1121.4155 2267.6589 4671050
-1554.0706 1119.923 2264.6409 4999759
-1543.459 1121.9617 2268.7634 5328721
-1527.8909 1120.4017 2265.6089 5262929
-1523.0396 1126.7421 2278.4302 5526101
-1510.415 1127.3942 2279.7485 5262929
-1496.5399 1127.1158 2279.186 5262929
-1478.9529 1124.0116 2272.9087 5131600
-1465.0295 1123.6603 2272.1982 5130830
-1457.7479 1128.4437 2281.8711 5130573
-1429.736 1117.1191 2258.9712 4933194
-1428.7008 1126.858 2278.6646 5196366
-1415.7627 1127.3049 2279.5681 5130573
-1403.2008 1128.0629 2281.1008 5459539
-1392.0098 1129.9482 2284.9133 5656917
-1377.5326 1129.177 2283.354 5788503
-1363.0935 1128.422 2281.8271 5788503
-1352.2906 1130.6923 2286.418 5854296
-1335.4385 1127.8993 2280.77 6051675
-1319.9684 1126.2284 2277.3914 5197136
-1309.1794 1128.5585 2282.103 5065550
-1297.5596 1130.2133 2285.4492 5197136
-1277.9369 1124.8586 2274.6216 4933964
-1267.5835 1127.6359 2280.2375 5065293
-1255.422 1128.8473 2282.687 5065293
-1241.8988 1128.8473 2282.687 4802634
-1224.7549 1125.5199 2275.9587 5328722
-1218.33 1132.0785 2289.2212 5657174
-1206.2925 1133.511 2292.1177 5525331
-1192.8083 1133.6012 2292.3 5393489
-1182.8101 1137.0443 2299.2627 5130573
-1175.3669 1143.0529 2311.4126 5393488
-1148.5034 1130.0935 2285.2073 4867144
-1131.6117 1126.7544 2278.4551 4209214
-1115.4633 1124.0836 2273.0542 4077112
-1105.5758 1127.734 2280.4358 4208955
-1091.9808 1127.6461 2280.2581 4537921
-1081.097 1130.3907 2285.8081 4209470
-1069.906 1132.8796 2290.8411 4867143
-1057.8821 1134.5392 2294.197 4867655
-1046.6257 1137.076 2299.3269 5262159
-1034.5853 1138.8167 2302.8467 5393745
-1016.6024 1133.9753 2293.0566 5394258
-1007.222 1138.7285 2302.6682 6314847
-992.00592 1136.9238 2299.019 5393745
-984.47644 1144.0011 2313.3303 5327695
-964.87836 1137.056 2299.2864 5327693
-955.68231 1142.3458 2309.9832 5327693
-938.32123 1137.8879 2300.9685 5327693
-925.22504 1138.5465 2302.3003 5459279
-907.66736 1133.6526 2292.4041 4998728
-896.85742 1137.1658 2299.5083 5788244
-878.89685 1131.5809 2288.2148 5261387
-862.67084 1128.0894 2281.1543 4406077
-850.78589 1130.2535 2285.5308 4076858
-836.9162 1129.8086 2284.6309 5985882
-826.75708 1134.4403 2293.9968 6051675
-813.67029 1135.1426 2295.417 5854296
-801.31458 1136.9059 2298.9827 5722710
-784.4801 1132.266 2289.6001 5196366
-772.79895 1135.0315 2295.1924 4998987
-760.6084 1137.1345 2299.4451 5327952
-744.02722 1132.6304 2290.3372 5196366
-732.7746 1136.2213 2297.5984 5656917
-717.49298 1133.5826 2292.2627 5525331
-707.06189 1138.6534 2302.5166 5788503
-694.85571 1141.0088 2307.2795 5788503
-676.10596 1132.4983 2290.0698 5985626
-664.95355 1136.6254 2298.4155 5985882
-647.25732 1129.5057 2284.0186 5854296
-630.77893 1124.2527 2273.396 5920345
-620.2561 1129.6166 2284.2427 5920345
-604.30804 1125.119 2275.1479 5525585
-593.38055 1129.9768 2284.9712 4603970
-577.58514 1125.5752 2276.0706 4472384
-565.18213 1127.7321 2280.4319 5196107
-550.00195 1124.3174 2273.5271 5722194
-540.13177 1131.8586 2288.7764 5657170
-526.20483 1131.0682 2287.1782 5657171
-508.4371 1121.7621 2268.3599 5854550
-499.70242 1132.4213 2289.9143 6249308
-486.38379 1132.9974 2291.0793 5920343
-470.08148 1126.457 2277.8535 5788757
-457.07516 1127.6614 2280.2891 5722964
-443.08691 1126.4429 2277.8252 5393999
-428.52942 1123.6553 2272.188 5525585
-416.27475 1126.9209 2278.7915 6117722
-403.58124 1129.1776 2283.355 4736069
-386.77795 1119.6932 2264.1763 5328206
-374.99026 1124.569 2274.0356 4932935
-361.88776 1125.7179 2276.3591 5590865
-347.93527 1124.2096 2273.3091 4998728
-332.70447 1118.2832 2261.325 5657171
-322.59927 1129.8103 2284.6345 6183515
-307.79684 1125.176 2275.2632 5919829
-296.04892 1131.7947 2288.647 4603970
-282.41708 1131.5006 2288.0525 4933191
-266.86771 1123.1071 2271.0796 4538433
-254.81525 1129.3204 2283.6438 4406591
-240.71164 1126.6301 2278.2036 5854293
-227.02946 1125.71 2276.343 4867400
-213.35931 1124.7369 2274.3755 5196623
-202.70378 1140.5957 2306.4441 5130573
-187.51105 1131.3711 2287.7908 5854552
-173.28098 1126.9703 2278.8916 5525333
-160.01707 1128.6403 2282.2686 5591125
-145.53035 1121.1976 2267.2185 5327952
-132.65315 1125.9025 2276.7322 5393745
-119.23134 1126.5266 2277.9944 6841191
-105.91177 1128.3994 2281.7815 6051675
-92.024086 1123.882 2272.6465 4604229
-78.504807 1123.0864 2271.0378 5525330
-65.733101 1134.8685 2294.863 6512739
-51.957172 1130.9366 2286.9121 6118238
-38.580273 1135.9801 2297.1106 5131343
-24.949694 1134.9803 2295.0891 6184031
-11.389369 1138.6095 2302.4277 5920860
2.250386 1138.4337 2302.0723 5855068
15.879951 1137.8296 2300.8506 5986655
29.287012 1129.2045 2283.4094 5591896
42.977543 1133.5061 2292.1079 5920090
56.32962 1128.9587 2282.9126 6841191
70.176994 1134.1772 2293.4648 5788503
83.694229 1133.2324 2291.5544 5788503
97.62896 1137.4153 2300.0129 5591124
110.64604 1131.1923 2287.429 6117212
125.0567 1139.0198 2303.2573 5064523
137.98409 1133.1267 2291.3406 4998728
150.70999 1126.7827 2278.5122 5919060
165.15973 1133.3105 2291.7124 6511197
178.30913 1130.6017 2286.2346 5524302
192.66547 1135.3878 2295.9128 5392716
205.39075 1130.5646 2286.1597 5984853
218.80342 1129.8878 2284.7913 6314074
232.69461 1131.6169 2288.2878 5590608
246.90031 1134.6012 2294.3223 6050903
260.91757 1136.453 2298.0669 5854037
274.81689 1137.6331 2300.4531 6051416
289.03714 1139.9673 2305.1733 5919830
303.36203 1142.485 2310.2644 5985622
316.65167 1141.0548 2307.3723 5590095
330.63507 1142.1394 2309.5657 5392715
342.04868 1134.6136 2294.3474 5919060
355.95377 1135.6118 2296.366 6182232
371.50177 1141.5848 2308.4443 5590095
384.73169 1140.2635 2305.7725 6116183
398.42508 1140.3593 2305.9661 6774369
409.66525 1133.66 2292.4192 6182232
423.52686 1134.4122 2293.9402 6576734
438.97095 1139.2245 2303.6711 6248538
447.96097 1127.5018 2279.9663 6774883
462.25195 1129.4172 2283.8396 6248025
480.01474 1139.4651 2304.1577 6182233
494.52539 1141.4508 2308.1731 5919061
508.52817 1142.189 2309.6658 5853268
524.42499 1147.0311 2319.4573 5919061
536.02087 1142.4592 2310.2122 6182234
545.28247 1133.2633 2291.6169 6050646
560.37457 1136.3376 2297.8335 6050646
578.33655 1144.9476 2315.2441 6576733
588.94873 1138.9452 2303.1064 5721938
600.08167 1134.1989 2293.5088 6905953
613.26581 1133.4539 2292.0022 5787217
627.30579 1134.2885 2293.6899 5919058
638.45001 1129.9629 2284.9429 6050646
651.34247 1128.8467 2282.6858 6905954
666.22565 1131.1556 2287.355 6642526
680.76117 1132.7943 2290.6685 5984853
691.57507 1128.297 2281.5745 6313818
702.85907 1124.7245 2274.3501 6905955
724.16504 1137.022 2299.2173 6116439
736.21997 1134.6083 2294.3367 7037541
749.30548 1133.8417 2292.7864 6708575
761.92389 1132.4081 2289.8875 6971492
777.68561 1135.6146 2296.3716 6971748
791.84589 1136.4126 2297.9851 6971491
798.57404 1126.6976 2278.3403 6839903
817.07977 1133.6464 2292.3916 7168868
831.98804 1135.4584 2296.0557 7102816
849.91571 1141.2664 2307.8003 7366245
860.77136 1137.5446 2300.2742 9996916
1045.7291 1360.436 2750.9919 13487812
1088.8032 1394.7365 2820.3521 13619660
1109.7871 1400.1304 2831.2593 13750733
1124.829 1397.9789 2826.9087 13750735
1151.2185 1409.7869 2850.7861 13750735
1169.9564 1412.0187 2855.2993 13750737
1188.0304 1413.397 2858.0864 13750735
1205.546 1414.0817 2859.4707 13750735
1223.4128 1415.1536 2861.6384 13750735
1238.4476 1412.965 2857.2129 13750735
1257.0198 1414.817 2860.9578 13750735
1276.1392 1417.2273 2865.8318 13750735
1294.6556 1418.9136 2869.2417 13750735
1313.239 1420.6287 2872.7097 13750735
1332.2086 1422.7122 2876.9229 13750735
1351.1858 1424.7511 2881.0459 13750735
1370.4946 1427.0845 2885.7644 13750735
1389.6483 1429.2008 2890.0439 13750735
1409.6582 1432.1355 2895.9783 13750735
1427.6539 1432.9779 2897.6816 13750735
1446.5189 1434.6624 2901.0879 13750735
1467.6819 1438.5598 2908.969 13750735
1489.2629 1442.7716 2917.4861 13750735
1508.0624 1444.2231 2920.4211 13750736
1526.6362 1445.4281 2922.8577 13750735
1547.3666 1448.6249 2929.322 13750735
1567.7775 1451.455 2935.0449 13750735
1690.7242 1548.1099 3130.4946 13750735
1702.8793 1542.3217 3118.79 13750735
1730.6957 1550.6902 3135.7124 13750735
1750.0538 1551.3831 3137.1135 13750735
1772.4412 1554.7183 3143.8577 13750735
1967.8501 1708.174 3454.1667 13750735
2009.0768 1726.0121 3490.2375 13750735
2029.4448 1725.7491 3489.7063 13750735
2049.8843 1725.5521 3489.3076 13750735
2161.4438 1801.2961 3642.4727 13750735
2182.6899 1801.0215 3641.9172 13750735
2204.0137 1800.8158 3641.5012 13750735
2243.5847 1815.3788 3670.9497 13750735
2319.3994 1858.7065 3758.5647 13750735
1880.0066 1492.2626 3017.5637 13750735
1906.5396 1499.0688 3031.3269 13750735
1939.2207 1510.5371 3054.5173 13750735
1958.9155 1511.7714 3057.0132 13750735
1977.9342 1512.4657 3058.4172 13750735
1997.9757 1513.9226 3061.3633 13750735
2018.7065 1515.871 3065.3032 13750735
2039.6967 1517.9775 3069.563 13750735
2060.9749 1520.2595 3074.1772 13750735
2082.6824 1522.8152 3079.3452 13750735
2104.7739 1525.605 3084.9866 13750735
2126.7703 1528.2781 3090.3921 13750735
2148.47 1530.6945 3095.2783 13750735
2169.5483 1532.631 3099.1943 13750735
2190.5657 1534.4922 3102.9578 13750735
2211.0708 1535.9667 3105.9395 13750735
2231.9446 1537.6707 3109.3853 13750735
2253.1428 1539.5686 3113.2231 13750735
2273.8054 1541.0728 3116.2646 13750735
3123.4644 2099.8799 4246.251 13750735
3118.448 2079.7578 4205.561 13750735
3090.8435 2045.009 4135.2944 13750735
3114.1687 2044.239 4133.7373 13750735
3148.1265 2050.406 4146.2075 13750735
3183.488 2057.3848 4160.3198 13750735
3224.5774 2067.9294 4181.6426 13750735
3268.6973 2080.2419 4206.5405 13750735
3304.7622 2087.281 4220.7739 13619663
3345.6597 2097.2434 4240.9194 13685455
3376.7139 2100.9329 4248.3799 13685455
3405.5803 2103.2168 4252.9985 13685455
3425.9685 2100.2695 4247.0386 13685455
3449.6189 2099.3506 4245.1802 13685456
3480.2778 2102.6794 4251.9116 13685455
3523.6401 2113.5798 4273.9541 13685455
3650.7114 2174.178 4396.4917 13685455
3684.7537 2178.9062 4406.0532 13685455
3722.6772 2185.8474 4420.0889 13619663
3784.4221 2206.5808 4462.0151 13750735
3856.3862 2232.9441 4515.3252 13750735
3923.3777 2256.0845 4562.1182 13750735
3981.4043 2273.7883 4597.918 13750735
4031.803 2286.9248 4624.4819 13750735
4076.0579 2296.4231 4643.6885 13750735
4129.6011 2310.9915 4673.1479 13750735
4192.5308 2330.5835 4712.7661 13750735
4258.3081 2351.4888 4755.0396 13750735
4310.8936 2364.8831 4782.1245 13750735
4396.4521 2396.0725 4845.1938 13750735
4477.7026 2424.5247 4902.728 13750737
4543.2866 2444.1819 4942.4775 13750737
4590.6167 2453.8298 4961.9873 13750737
4645.2793 2467.2498 4989.124 13750737
4685.1079 2472.6711 5000.0869 13750737
2999.0278 1572.8599 3180.5427 13750737
3019.6753 1573.8009 3182.4456 13750737
3041.9885 1575.5928 3186.0691 13750737
0 0 0 0
0 0 0 0
0 0 0 0
0 0 0 0
0 0 0 0
0 0 0 0
0 0 0 0
0 0 0 0
0 0 0 0
0 0 0 0
-1979.635 1131.1932 2260.3528 5197395
-1961.8766 1128.6807 2255.332 5131602
-1947.6509 1128.1797 2254.3313 5131602
-1932.9977 1127.4226 2252.8184 4934480
-1910.7737 1122.2087 2242.3999 4868173
-1908.8024 1128.8995 2255.7695 5065552
-1892.9097 1127.3933 2252.7598 4999759
-1874.9861 1124.6475 2247.2732 4736587
-1866.936 1127.827 2253.6265 5261905
-1855.9238 1129.2501 2256.47 4012094
-1827.1729 1119.8221 2237.6311 4340803
-1814.441 1120.146 2238.2783 4209473
-1805.3826 1122.7589 2243.4993 4209473
-1810.3806 1134.2172 2266.3953 4406596
-1789.4155 1129.459 2256.8875 5130319
-1781.6359 1133.0144 2263.9917 5394003
-1760.1976 1127.8717 2253.7156 5526100
-1755.0985 1133.1998 2264.3625 5657943
-1734.4093 1128.4668 2254.9048 5591894
-1724.7102 1130.8662 2259.6992 5460311
-1715.2748 1133.4774 2264.917 5591894
-1705.5701 1135.9506 2269.8589 5197137
-1686.0699 1131.8871 2261.7393 5789275
-1663.1066 1125.415 2248.8066 5657689
-1656.0969 1129.7212 2257.4114 5789277
-1637.3297 1126.0118 2249.9993 5526614
-1611.1106 1117.0747 2232.1411 5329234
-1604.4927 1121.6929 2241.3691 4670792
-1587.761 1119.2585 2236.5049 4933964
-1566.1964 1113.3477 2224.6938 5327697
-1547.3171 1109.2616 2216.5291 4077630
-1543.7509 1116.1775 2230.3481 4406852
-1525.1532 1112.2505 2222.5015 4670025
-1521.7255 1119.4147 2236.8169 4735817
-1508.8439 1119.6891 2237.3652 4867146
-1495.0909 1119.316 2236.6199 4867658
-1475.6434 1114.6349 2227.2659 5591894
-1467.4335 1118.4343 2234.8579 5262672
-1461.197 1123.8207 2245.6208 5196366
-1444.8916 1121.4906 2240.9651 4801608
-1429.4666 1119.8071 2237.6011 5262159
-1412.3876 1116.7843 2231.5608 5525331
-1402.5826 1119.5104 2237.0081 5591124
-1389.9393 1120.0012 2237.989 5656917
-1382.5436 1124.7709 2247.5195 5722713
-1373.7688 1128.5002 2254.9717 5854296
-1360.3569 1128.4564 2254.884 5788503
-1345.0692 1126.8401 2251.6543 6051675
-1333.8285 1128.6158 2255.2026 5919832
-1323.1061 1130.8705 2259.7078 5722711
-1306.2827 1127.9034 2253.7791 5723480
-1294.4592 1129.2368 2256.4434 5328722
-1281.4531 1129.5555 2257.0803 5460308
-1265.8181 1127.5392 2253.0513 5657687
-1251.4248 1126.5977 2251.1699 5723480
-1240.1469 1128.4708 2254.9128 5920859
-1229.1354 1130.6299 2259.2271 5591894
-1218.2893 1132.9902 2263.9436 5394515
-1203.8575 1132.0315 2262.0278 5525331
-1192.6141 1134.083 2266.127 5656917
-1167.4149 1122.7592 2243.4998 5590868
-1154.3093 1122.9396 2243.8604 5788503
-1137.8752 1119.8484 2237.6836 5196366
-1140.0659 1135.23 2268.4192 5196365
-1120.5829 1129.1395 2256.249 4867398
-1102.8862 1124.7238 2247.4253 4801606
-1085.4772 1120.4968 2238.979 4472896
-1075.0488 1123.4603 2244.9009 4406591
-1067.4633 1129.5062 2256.9817 4670020
-1058.2272 1133.9368 2265.835 5262413
-1040.2629 1129.0084 2255.9871 5394512
-1032.8433 1135.5448 2269.0481 5986650
-1023.2539 1139.8369 2277.6245 5526101
-1009.9247 1140.022 2277.9944 5460308
-999.15436 1143.1396 2284.2241 5590867
-980.69586 1137.4261 2272.8074 5591124
-967.67096 1137.9434 2273.8408 5261902
-948.74768 1131.4408 2260.8474 4669763
-942.75348 1140.3916 2278.7329 4801349
-927.39423 1138.1095 2274.1729 4867142
-910.71204 1134.1128 2266.1865 4668994
-893.16687 1128.9056 2255.7817 4931908
-881.7984 1131.4658 2260.8975 4800579
-858.02502 1117.9424 2233.875 4734530
-849.94586 1124.7639 2247.5059 5064007
-835.3147 1122.9941 2243.9695 5459281
-825.50146 1127.7491 2253.4707 5393488
-813.30194 1129.3467 2256.6631 6117468
-806.1264 1138.0907 2274.1353 6183261
-786.49146 1129.2426 2256.4551 5591124
-773.19037 1129.34 2256.6497 5656917
-764.53864 1136.3512 2270.6594 5459538
-750.26276 1135.1046 2268.1685 5327952
-735.28528 1132.7316 2263.4268 5591124
-720.16522 1130.0468 2258.062 5459538
-704.67981 1126.6761 2251.3269 5788246
-695.3385 1133.1886 2264.3398 5788503
-684.62476 1137.6765 2273.3076 5986652
-668.22717 1132.7098 2263.3833 5986396
-657.15094 1136.7448 2271.4458 6117982
-641.61603 1133.0745 2264.1118 5985882
-624.46698 1126.3359 2250.647 5854296
-612.1275 1128.1678 2254.3074 5854296
-594.77142 1120.6292 2239.2437 5525584
-582.40955 1122.3711 2242.7244 5722965
-570.11243 1124.3221 2246.623 5722965
-552.57617 1115.7872 2229.5686 5591379
-541.37164 1119.9327 2237.8521 5130572
-531.43695 1126.9794 2251.9326 5459537
-517.02844 1124.6572 2247.2925 5591122
-504.09848 1125.5134 2249.0034 5327693
-493.41879 1131.5769 2261.1194 5196107
-479.85431 1131.1782 2260.3228 5590608
-464.8139 1127.1775 2252.3286 4275262
-453.36316 1131.9027 2261.7705 5459792
-437.49359 1125.5472 2249.071 5065034
-422.49744 1121.1102 2240.2048 5591378
-410.858 1125.5812 2249.1389 5591378
-397.27441 1124.8473 2247.6724 5065034
-381.62366 1118.0067 2234.0034 5261900
-369.78827 1122.2535 2242.4895 5196364
-359.01944 1130.1743 2258.3169 6051673
-343.83694 1124.2765 2246.5317 5920088
-330.76294 1125.0758 2248.1289 6117469
-317.79129 1126.3048 2250.5847 5722711
-303.89066 1124.2048 2246.3884 5656917
-291.60971 1128.1787 2254.3291 5591124
-275.59546 1117.3975 2232.7861 6314590
-263.64264 1122.8262 2243.6338 4998730
-250.69463 1124.3682 2246.7148 5130573
-238.65594 1130.39 2258.7478 4406593
-222.8681 1118.3145 2234.6184 4934221
-210.23108 1121.5226 2241.0288 6973804
-196.50185 1118.9438 2235.876 6512996
-184.06609 1123.89 2245.7595 5723480
-171.5621 1129.158 2256.2859 4407107
-156.61501 1117.8779 2233.7461 5196366
-143.31102 1117.326 2232.6433 5262160
-130.90587 1124.3824 2246.7434 5525333
-117.34665 1122.0016 2241.9861 6249056
-104.09119 1122.2881 2242.5586 5525331
-91.109978 1126.048 2250.0715 5920090
-77.376015 1120.1987 2238.3835 6446433
-64.099091 1119.9152 2237.8169 5789017
-51.487202 1134.1324 2266.2261 5394002
-38.22752 1139.0775 2276.1072 5459794
-24.809757 1142.1348 2282.2163 5327952
-11.274378 1140.6162 2279.1816 5855068
2.218565 1135.7812 2269.5205 6052447
15.793433 1145.1869 2288.3149 6118240
29.246693 1141.1589 2280.2661 5920861
42.50074 1134.3591 2266.6787 5985884
55.628269 1128.2584 2254.4885 5920091
68.929451 1127.3604 2252.6938 5920091
82.49942 1130.4364 2258.8406 5854297
96.177948 1133.9338 2265.8291 5591124
110.03187 1138.3893 2274.7319 6314847
123.25706 1136.0773 2270.1121 5590865
135.5311 1126.3158 2250.6067 6380381
147.75522 1117.925 2233.8403 5919060
162.18933 1126.2603 2250.4958 6116439
174.86105 1122.0206 2242.0242 5392716
190.30116 1134.8894 2267.7385 5721681
203.19173 1131.8589 2261.6829 6050647
214.29301 1119.853 2237.6926 6314589
228.27821 1123.4387 2244.8577 6117210
243.28091 1131.3616 2260.689 6051418
257.58673 1135.3857 2268.7302 5525331
272.05273 1139.6818 2277.3147 5722453
284.92398 1137.207 2272.3694 6314590
299.34192 1140.8501 2279.6492 6446175
313.70248 1143.9695 2285.8823 6446175
326.43671 1141.1454 2280.2393 6577761
339.19302 1138.6198 2275.1926 5656401
352.53238 1138.1698 2274.2935 5918804
365.27686 1135.903 2269.7639 6182232
381.12396 1143.1029 2284.1506 6182745
395.5238 1145.6169 2289.1743 6248282
408.54959 1144.1166 2286.1763 6379612
420.20471 1138.9971 2275.9465 6182234
431.49066 1133.2263 2264.4153 5787733
445.41379 1134.5208 2267.002 6116442
458.11536 1132.7192 2263.4021 6708578
474.32401 1139.4449 2276.8413 5984855
490.97281 1146.8267 2291.5916 6905957
505.65753 1149.347 2296.6277 6445406
520.47028 1152.0188 2301.9663 6642785
534.2135 1152.2469 2302.4224 5853269
541.91003 1139.7465 2277.4438 5787474
556.16437 1141.3107 2280.5696 5984853
569.08722 1140.1332 2278.2166 6379611
577.43701 1130.0605 2258.0896 6642783
591.22064 1130.8376 2259.6421 6313815
603.68213 1129.1072 2256.1843 6116180
619.03418 1132.7411 2263.4456 6445145
634.80316 1136.9677 2271.8911 6182231
644.95813 1131.1725 2260.3113 6576733
659.20581 1132.6451 2263.2539 6905955
673.03485 1133.354 2264.6704 6971748
690.96027 1140.7986 2279.5461 6840162
703.16077 1138.6868 2275.3264 5787474
715.89233 1137.4984 2272.9517 6511197
729.52429 1137.7581 2273.4705 7695471
737.59534 1129.4926 2256.9546 6576990
752.90698 1132.4119 2262.7878 6379354
766.47913 1132.6586 2263.2808 6313818
768.88873 1116.6848 2231.3621 7103077
788.54553 1125.8766 2249.729 7169125
803.26428 1127.8293 2253.6311 7497833
819.27264 1131.4994 2260.9646 6774621
836.39789 1136.5692 2271.095 7103587
848.3183 1134.5176 2266.9954 8877684
882.70483 1162.1072 2322.125 13157812
1090.3282 1413.4215 2824.302 13750732
1097.3181 1400.9839 2799.449 13685196
1112.5028 1399.2233 2795.9309 13750479
1140.7968 1413.7601 2824.9785 13750735
1160.6833 1417.6084 2832.6682 13750736
1179.7881 1420.4056 2838.2576 13750735
1197.6621 1421.6633 2840.7708 13750735
1215.7816 1423.1735 2843.7883 13750735
1233.7001 1424.4103 2846.2595 13750735
1251.7808 1425.7986 2849.0337 13750735
1270.2069 1427.5381 2852.5098 13750735
1288.5463 1429.1356 2855.7019 13750735
1306.8428 1430.6449 2858.7178 13750735
1324.3685 1431.2827 2859.9922 13750735
1342.665 1432.7267 2862.8777 13750735
1361.2853 1434.4758 2866.3728 13750735
1379.3943 1435.6498 2868.7185 13750735
1397.6753 1436.972 2871.3606 13750735
1415.4803 1437.7789 2872.9731 13750735
1433.4503 1438.7324 2874.8782 13750735
1452.1118 1440.3491 2878.1089 13750735
1472.8325 1443.9474 2885.2988 13750735
1491.3474 1445.3252 2888.052 13750737
1509.8243 1446.6355 2890.6702 13750735
1531.3806 1450.8337 2899.0591 13750735
1552.8483 1454.8557 2907.0959 13750735
1573.5598 1458.0889 2913.5564 13750735
1594.8195 1461.7543 2920.8806 13750735
1614.3988 1463.8175 2925.0034 13750735
1634.3318 1466.1542 2929.6724 13750735
1654.0637 1468.2632 2933.8867 13750735
1673.8903 1470.4114 2938.1792 13750735
1693.577 1472.3939 2942.1406 13750735
1713.5082 1474.5463 2946.4417 13750735
1733.1287 1476.3907 2950.1272 13750735
1753.483 1478.8171 2954.9756 13750735
1774.2001 1481.4984 2960.3335 13750735
1793.5601 1483.0051 2963.3442 13750735
1813.1927 1484.7061 2966.7429 13750735
1833.025 1486.5363 2970.3999 13750735
1854.7781 1489.8743 2977.0701 13750735
1887.4875 1501.8676 3001.0349 13750735
1920.7263 1514.0542 3025.3865 13750735
1943.4078 1517.7705 3032.8123 13750735
1964.2261 1519.9768 3037.2209 13750735
1984.0575 1521.3862 3040.0374 13750735
2003.0165 1522.1077 3041.4788 13750735
2023.1423 1523.6948 3044.6501 13750735
2044.3005 1526.0245 3049.3057 13750735
2065.7046 1528.4955 3054.2429 13750735
2087.7168 1531.3694 3059.9856 13750735
2109.7449 1534.2056 3065.6528 13750735
2131.406 1536.7286 3070.6946 13750735
2152.459 1538.7744 3074.7822 13750735
2173.2319 1540.5872 3078.4045 13750735
2194.1941 1542.5027 3082.2322 13750735
2214.8481 1544.1721 3085.5681 13750735
2235.9727 1546.139 3089.4985 13750735
2255.8516 1547.2202 3091.6589 13750735
2274.9912 1547.7808 3092.7788 13750735
2293.0269 1547.5873 3092.3923 13750735
2312.2693 1548.2048 3093.6262 13750735
2321.3103 1542.0359 3081.2996 13750735
2339.6978 1542.1238 3081.4751 13750735
2353.3228 1539.0955 3075.4238 13750735
2371.0229 1538.7583 3074.7502 13750735
2391.2644 1540.0632 3077.3577 13750735
2408.5491 1539.4584 3076.1492 13619663
2425.1807 1538.4484 3074.1309 13685455
2444.939 1539.422 3076.0764 13685455
2458.4197 1536.4579 3070.1536 13685455
2483.8152 1540.9292 3079.0881 13685455
2502.7656 1541.366 3079.9609 13685457
2522.2036 1542.0946 3081.4167 13685455
2542.4578 1543.3081 3083.8416 13685455
2563.8049 1545.163 3087.5481 13685455
2583.3984 1545.9423 3089.1052 13685455
2601.9883 1546.1141 3089.4487 13619919
