# .PCD v0.7 - Point Cloud Data file format
VERSION 0.7
FIELDS x y z rgb
SIZE 4 4 4 4
TYPE F F F U
COUNT 1 1 1 1
WIDTH 1294
HEIGHT 1
VIEWPOINT 0 0 0 1 0 0 0
POINTS 1294
DATA ascii
1634.9928 1365.8551 3318.5132 13619149
1657.7555 1368.4166 3324.7368 13684942
1750.6067 1428.0941 3469.7305 13619149
1769.5997 1426.8344 3466.6697 13750735
1853.1941 1477.0942 3588.7822 13750735
1876.5516 1478.7463 3592.7964 13750735
1897.6404 1478.5939 3592.4258 13750735
1913.998 1474.7993 3583.2065 13750735
1877.5031 1430.8098 3476.3286 13750735
1868.3677 1408.399 3421.8789 13750735
1887.6492 1407.6604 3420.0842 13750735
1897.8038 1400.2037 3401.9673 13750735
1917.2247 1399.6686 3400.667 13750735
1934.2534 1397.4161 3395.1946 13750735
1967.2216 1406.6072 3417.5254 13750735
1984.0573 1404.1935 3411.6609 13750735
2000.0587 1401.244 3404.4949 13750735
2020.3342 1401.3177 3404.6741 13750733
2137.7092 1468.0734 3566.865 13750989
2164.6719 1472.0392 3576.5002 13750989
2099.2751 1413.7296 3434.8303 13750989
2190.4199 1460.9489 3549.5549 13750989
2229.887 1473.1299 3579.1504 13750989
2124.7297 1390.4384 3378.2412 13750989
2295.5422 1488.2017 3615.769 13750989
2154.5505 1383.8829 3362.314 13750989
2338.4866 1488.267 3615.928 13750987
2361.1682 1489.0618 3617.8589 13750988
2225.3586 1390.7896 3379.0942 13750988
2377.9619 1472.9125 3578.6221 13750987
2253.0186 1383.1907 3360.6321 13750987
2452.4917 1492.4645 3626.1262 13750986
2473.6072 1492.2434 3625.5889 13750728
2335.5667 1396.8391 3393.7925 13684934
2470.2478 1464.7787 3558.8604 13684930
2335.5869 1373.2089 3336.3801 13619393
2325.2849 1355.679 3293.7891 13619139
2342.0598 1354.0959 3289.9429 13553860
2352.8997 1349.1356 3277.8911 13619656
2377.6672 1352.1775 3285.2817 13619402
2383.519 1344.4998 3266.6279 13685195
2402.0569 1344.0441 3265.5208 13684940
2413.1084 1339.4403 3254.335 13619149
2433.3657 1339.9788 3255.6433 13619149
2445.1375 1335.8728 3245.6672 13750735
2477.6331 1343.0648 3263.1414 13750735
2490.2051 1339.4291 3254.3079 13619149
2508.4741 1338.8896 3252.9973 13684942
2529.3152 1339.7212 3255.0176 13553356
2539.9773 1335.1892 3244.0066 13684942
2566.1587 1338.8219 3252.8328 13684942
2581.5483 1336.8124 3247.9502 13684942
2599.7717 1336.2891 3246.6787 13750735
2618.6875 1336.1267 3246.2842 13750735
2636.2432 1335.2777 3244.2217 13750478
2682.6057 1348.9263 3277.3826 13750733
2709.9631 1352.8909 3287.0151 13750989
2726.1855 1351.2797 3283.1003 13750987
2745.647 1351.2854 3283.1143 13750985
2754.6287 1346.1697 3270.6851 13619911
2771.4204 1344.9154 3267.6377 13685445
2783.1223 1341.2257 3258.6731 13620162
2807.8892 1343.8396 3265.0239 13487803
2826.7271 1343.5997 3264.4409 13488057
2841.2905 1341.3452 3258.9631 13553851
2860.5466 1341.3214 3258.9055 13553851
2884.875 1343.6603 3264.5881 13488058
2907.5928 1345.2229 3268.3848 13488315
2926.3479 1344.9437 3267.7065 13422522
2939.3662 1342.049 3260.6731 13422525
2956.3435 1340.9877 3258.0947 13356987
2982.6753 1344.1558 3265.792 13290684
3007.6121 1346.6586 3271.8728 13422272
3034.2415 1349.8822 3279.7051 13553861
3054.26 1350.1425 3280.3374 13685195
3039.4001 1335.0789 3243.7385 13619403
3048.4639 1330.6472 3232.9712 13685197
3077.6296 1334.9904 3243.5237 13750735
3114.5193 1342.6095 3262.0352 13750479
0 0 0 0
0 0 0 0
0 0 0 0
0 0 0 0
0 0 0 0
0 0 0 0
0 0 0 0
0 0 0 0
0 0 0 0
-2369.1021 1121.7981 2686.8728 723732
-2351.6343 1121.0591 2685.1028 921110
-2334.2495 1120.3499 2683.4041 986903
-2322.4658 1122.3376 2688.165 921110
-2308.4451 1123.2645 2690.385 855317
-2290.647 1122.3534 2688.2026 789524
-2277.9917 1123.9669 2692.0674 789524
-2264.0154 1124.9468 2694.4143 789524
-2250.2473 1126.0448 2697.0442 526352
-2225.2053 1121.4766 2686.1025 526352
-2216.8459 1125.311 2695.2866 657938
-2204.9673 1127.4015 2700.2937 789524
-2189.8701 1127.8651 2701.4041 789524
-2175.6296 1128.7799 2703.5952 460560
-2156.3003 1127.0485 2699.448 592145
-2140.5183 1127.1591 2699.7131 723731
-2124.7268 1127.2664 2699.9702 657938
-2111.6082 1128.8042 2703.6533 789524
-2099.7566 1131.048 2709.0276 789524
-2085.3787 1131.955 2711.2 921110
-2070.4622 1132.5813 2712.7002 789524
-2055.8059 1133.3612 2714.5681 657939
-2039.4568 1133.2125 2714.2122 789526
-2026.3442 1134.8743 2718.1921 789526
-2010.097 1134.7931 2717.9976 789527
-1996.5653 1136.2557 2721.501 789527
-1981.6558 1136.9519 2723.1682 986905
-1968.8829 1138.8954 2727.8232 1052698
-1953.3453 1139.2585 2728.6931 855319
-1933.5879 1137.1461 2723.6333 855319
-1917.6824 1137.2825 2723.96 921112
-1901.525 1137.2704 2723.9312 921112
-1886.8381 1138.1451 2726.0264 855319
-1870.1503 1137.8177 2725.2422 921113
-1854.623 1138.1969 2726.1501 921113
-1841.1105 1139.83 2730.0615 855319
-1829.9851 1142.9829 2737.6135 657940
-1819.3241 1146.4849 2746.0012 986905
-1798.9979 1143.9045 2739.8208 986905
-1787.8976 1147.1967 2747.7061 921112
-1769.0106 1145.5073 2743.6597 789526
-1756.9437 1148.2438 2750.2141 657684
-1740.4229 1148.0935 2749.854 657427
-1718.7961 1144.5403 2741.3435 657427
-1700.0916 1142.8837 2737.3757 789526
-1687.4288 1145.2959 2743.1533 789526
-1677.2985 1149.4905 2753.2002 1052698
-1652.384 1143.5363 2738.939 1184283
-1635.8638 1143.3306 2738.4463 1118492
-1617.3323 1141.7012 2734.5435 1118491
-1600.1597 1141.0077 2732.8823 921113
-1583.4031 1140.5999 2731.9055 1052184
-1566.757 1140.2635 2731.1003 986393
-1552.2144 1141.4675 2733.9839 1117978
-1535.7106 1141.2394 2733.4375 1117978
-1517.0165 1139.3612 2728.9392 1117722
-1499.1299 1138.0558 2725.8123 1117978
-1485.8916 1140.2888 2731.1609 1052185
-1470.5665 1140.9523 2732.7498 1052185
-1455.6886 1141.9811 2735.2139 1183771
-1438.8164 1141.451 2733.9443 1052185
-1430.0026 1147.3746 2748.1323 920599
-1407.2891 1142.1536 2735.6272 1052185
-1393.9604 1144.5165 2741.2866 525841
-1371.2612 1139.1506 2728.4346 1052185
-1369.217 1151.0201 2756.8638 1183771
-1355.3955 1153.1562 2761.9802 986392
-1335.7684 1150.3451 2755.2468 920599
-1323.2466 1153.6587 2763.1836 1052185
-1308.5043 1155.0953 2766.6245 986392
-1290.6162 1153.7562 2763.4172 920599
-1273.6814 1153.2458 2762.1946 986392
-1259.0105 1154.7986 2765.9138 854806
-1242.8104 1154.9714 2766.3276 854806
-1228.566 1156.9905 2771.1636 920599
-1216.5547 1161.1957 2781.2356 1117978
-1192.9756 1154.3232 2764.7754 920599
-1176.2224 1153.9563 2763.8962 920599
-1160.7878 1154.891 2766.135 854806
-1144.7697 1155.2633 2767.0269 854806
-1129.1979 1156.1036 2769.0396 723220
-1114.6198 1158.001 2773.584 789014
-1093.3069 1152.8535 2761.2551 657427
-1078.6746 1154.7012 2765.6807 1052186
-1066.5953 1159.381 2776.8894 986392
-1050.5229 1159.799 2777.8904 986392
-1033.6798 1159.3657 2776.8528 1052185
-1016.9709 1159.0714 2776.1479 1051929
-1003.355 1162.3506 2784.002 1052185
-985.91809 1161.2388 2781.3391 854806
-968.53583 1160.1549 2778.7429 986392
-955.3324 1164.1255 2788.2532 591635
-938.32086 1163.5139 2786.7881 526095
-920.55499 1161.9281 2782.99 591888
-904.84686 1162.9292 2785.3879 789012
-890.4483 1165.682 2791.981 1052185
-875.68896 1168.0574 2797.6707 1117722
-855.854 1163.6238 2787.0515 854807
-839.86151 1164.343 2788.7739 986392
-822.27795 1162.8407 2785.1758 657427
-805.29736 1162.1472 2783.5149 920599
-789.11395 1162.5992 2784.5974 986392
-773.53156 1163.9747 2787.8921 1117978
-759.78204 1168.2285 2798.0806 1117978
-746.26813 1173.0426 2809.6108 1249308
-729.11414 1172.2239 2807.6499 986392
-708.99957 1166.4961 2793.9309 986392
-691.56537 1165.0095 2790.3706 1052185
-675.14557 1165.2012 2790.8296 986392
-659.10706 1166.0769 2792.927 789013
-643.13818 1167.1241 2795.4353 854806
-627.28925 1168.4501 2798.6111 789267
-609.84747 1166.8007 2794.6604 592144
-594.19427 1168.5763 2798.9136 657426
-578.77734 1170.9323 2804.5564 723220
-563.79492 1174.3324 2812.7002 1052185
-546.10986 1172.139 2807.4465 1183771
-529.28174 1171.7045 2806.406 1052185
-514.40503 1175.7021 2815.981 854806
-496.362 1172.4885 2808.2837 854806
-480.63589 1174.7146 2813.6155 789270
-464.47189 1175.9918 2816.6748 789526
-448.64291 1178.2443 2822.0696 1052698
-431.57016 1177.2781 2819.7554 921112
-415.53235 1179.1711 2824.2896 986905
-399.26514 1180.5444 2827.5789 657941
-383.08405 1182.3041 2831.7935 855319
-366.32843 1182.3704 2831.9524 986905
-348.85919 1180.0293 2826.3452 789270
-333.17206 1183.7841 2835.3384 657940
-316.15921 1182.9772 2833.4058 789526
-299.71307 1184.3192 2836.6201 855319
-282.57803 1182.9365 2833.3083 921112
-266.53824 1186.254 2841.2542 921112
-250.00871 1187.6919 2844.6982 986905
-232.88142 1186.2928 2841.3472 986906
-216.80785 1190.4615 2851.3318 1052699
-200.31007 1192.8087 2856.9536 1118493
-183.64345 1194.4908 2860.9827 986908
-166.68719 1194.4397 2860.8601 986907
-149.37836 1191.5645 2853.9734 1381663
-132.70036 1193.6296 2858.9197 1118491
-115.82978 1194.3131 2860.5569 1315870
-99.002151 1195.75 2863.9985 1052698
-82.223846 1198.5 2870.5852 1052698
-65.263336 1199.3358 2872.5872 920856
-48.228333 1198.9097 2871.5664 854550
-31.358952 1204.3798 2884.668 986393
-14.28006 1205.2688 2886.7976 789268
2.829232 1208.3649 2894.2131 723474
19.952024 1206.9626 2890.8545 723474
37.159485 1209.6118 2897.1997 526095
54.47551 1213.0045 2905.3254 131337
71.50563 1209.9302 2897.9622 131337
88.698212 1210.2632 2898.7595 197130
106.05782 1212.3972 2903.8711 789267
122.61445 1206.0378 2888.6392 1052439
139.84364 1207.041 2891.0422 1052439
157.02579 1207.4637 2892.0547 1052439
174.20221 1207.7634 2892.7725 986646
191.28163 1207.3973 2891.8955 986646
207.72523 1203.4078 2882.3401 920853
225.52602 1207.2897 2891.6377 855060
242.87622 1208.3816 2894.2532 526095
259.55212 1206.196 2889.0183 526096
276.76834 1206.6365 2890.0732 591886
293.79675 1206.2545 2889.1582 328714
312.89905 1213.9607 2907.6157 460300
330.14548 1214.038 2907.801 262664
348.05154 1216.4131 2913.4897 459789
366.6171 1220.7598 2923.9006 657424
382.75497 1216.9954 2914.8843 591630
400.60376 1218.7609 2919.113 526352
418.51154 1220.5524 2923.4041 723476
436.38239 1222.0983 2927.1064 1117978
454.21436 1223.4211 2930.2749 1315101
472.54779 1225.9474 2936.3259 1315357
489.62296 1225.146 2934.4062 1183771
507.95334 1227.4327 2939.8833 986392
526.61755 1230.3477 2946.865 1052185
544.08905 1230.3784 2946.9387 854806
563.02814 1233.6228 2954.7095 1183771
581.21661 1235.0765 2958.1914 1249564
600.88879 1239.5057 2968.8 1249308
616.45898 1235.462 2959.1147 1446943
633.54645 1234.599 2957.0474 1446943
652.02582 1236.4215 2961.4126 1446943
670.66925 1238.4515 2966.2749 1446943
688.0119 1238.0372 2965.2827 1512479
706.17206 1239.0779 2967.7754 1446686
723.74554 1239.0637 2967.7415 1512479
738.09497 1233.6615 2954.8022 1644065
755.52808 1233.5443 2954.5215 1380893
775.81476 1237.9858 2965.1597 1380893
790.60681 1233.657 2954.7913 1446685
809.16333 1235.2625 2958.6367 1512477
829.26086 1239.1025 2967.8342 1643037
846.31555 1238.3307 2965.9856 1774877
866.03497 1241.4102 2973.3613 1774614
878.33734 1233.9468 2955.4854 3286307
0 0 0 0
0 0 0 0
1098.3702 1455.9916 3487.3154 13487813
1103.9667 1436.3926 3440.373 13684939
1120.212 1431.1083 3427.7166 13684940
1147.1624 1439.4449 3447.6838 13684942
1171.6687 1444.4767 3459.7358 13750735
1183.8796 1434.4379 3435.6914 13750735
1099.3556 1309.5112 3136.4736 13750735
1109.5132 1299.6442 3112.8403 13750735
1131.6642 1303.9187 3123.0786 13750735
1148.0232 1301.4894 3117.26 13750735
1168.6162 1303.861 3122.9404 13750735
1188.8436 1305.7572 3127.4822 13750735
1209.1664 1307.6984 3132.1313 13750735
1228.4264 1308.4487 3133.9287 13750735
1248.3989 1309.9247 3137.4636 13750735
1268.4482 1311.4363 3141.0845 13750735
1289.854 1314.2866 3147.9114 13750735
1371.9108 1377.9746 3300.4536 13684942
1338.0295 1325.059 3173.7124 13684942
1358.4381 1326.6281 3177.4707 13684942
1380.8167 1330.0518 3185.6711 13750735
1403.246 1333.4315 3193.7661 13750735
1457.3632 1366.432 3272.8074 13750735
1450.9788 1342.5842 3215.6882 13750735
1478.3396 1350.1741 3233.8669 13750735
1501.6823 1353.9469 3242.9036 13750735
1529.4447 1361.5591 3261.1357 13750735
1566.881 1377.486 3299.283 13750735
1592.3837 1382.6582 3311.6714 13750735
1607.6116 1378.8918 3302.6501 13619149
1621.36 1373.9623 3290.8433 13619149
1645.2847 1377.6709 3299.7258 13619149
1717.7668 1421.4742 3404.6414 13619149
1744.0183 1426.4485 3416.5554 13619149
1759.6813 1422.7473 3407.6909 13684942
1770.962 1415.6274 3390.6377 13750735
1787.131 1412.5308 3383.2205 13750735
1805.7219 1411.3958 3380.5022 13750735
1823.7172 1409.8252 3376.7405 13684942
1843.6531 1409.7727 3376.6145 13750735
1856.0519 1404.02 3362.8359 13750735
1880.5776 1407.4652 3371.0879 13750735
1899.8752 1406.9667 3369.8936 13684942
1925.649 1411.2242 3380.0911 13684942
1945.7377 1411.2709 3380.2029 13619149
1972.1292 1415.8414 3391.1501 13619149
1992.6727 1416.1639 3391.9224 13619149
2021.9325 1422.6124 3407.3677 13750478
2113.2173 1472.1422 3525.999 13750733
2070.6736 1428.3856 3421.1951 13750733
2062.2659 1408.7964 3374.2761 13750988
2113.6902 1430.064 3425.2151 13750988
2208.1943 1479.7965 3544.3318 13750989
2271.6665 1507.9924 3611.8655 13750989
2286.438 1503.6348 3601.4282 13750989
2282.1118 1486.9148 3561.3813 13750989
2331.0776 1504.9055 3604.4719 13750989
2360.2324 1509.8961 3616.425 13750988
2382.6814 1510.5455 3617.9805 13750987
2405.2871 1511.282 3619.7444 13750987
2427.6399 1511.8479 3621.0999 13750987
2450.8225 1512.9159 3623.658 13750987
2476.1228 1515.2615 3629.2759 13750988
2275.1521 1380.2924 3306.0046 13750988
2451.542 1474.6106 3531.9111 13750988
2323.7786 1385.9318 3319.512 13750988
2347.4514 1388.3016 3325.1882 13750988
2195.1326 1287.4154 3083.5508 13750987
2396.6973 1394.0295 3338.9072 13750988
2377.9988 1371.8314 3285.7395 13750989
2392.4983 1368.99 3278.9341 13685196
2408.7913 1367.2122 3274.6758 13685197
2421.467 1363.426 3265.6074 13684942
2441.8379 1363.9985 3266.9785 13684686
2454.5332 1360.3081 3258.1394 13619149
2483.6846 1365.7241 3271.1116 13684942
2491.9866 1359.6803 3256.6357 13684942
2510.5234 1359.2708 3255.655 13684942
2524.7769 1356.5662 3249.177 13684942
2546.7185 1358.002 3252.616 13684942
2561.4028 1355.5754 3246.8042 13684942
2587.9993 1359.4425 3256.0664 13619149
2605.9041 1358.7205 3254.3369 13750735
2626.4067 1359.3535 3255.8533 13750735
2644.3887 1358.6824 3254.2456 13750735
2662.3916 1358.0314 3252.6865 13750478
2691.4529 1362.9901 3264.5635 13750989
2685.4629 1350.2542 3234.0588 13750989
2702.9104 1349.3995 3232.012 13750988
2721.2744 1349.0114 3231.082 13750988
2740.5759 1349.09 3231.2705 13685449
2758.6313 1348.5585 3229.9973 13488067
2777.5042 1348.4312 3229.6924 13488065
2774.9919 1337.9944 3204.6948 13619392
2802.918 1342.2759 3214.9497 13554109
2821.4993 1342.0548 3214.4202 13553852
2835.1465 1339.5055 3208.3142 13553851
2854.6306 1339.7295 3208.8508 13554107
2875.7456 1340.7109 3211.2017 13554109
2896.3315 1341.4344 3212.9343 13290937
2920.2783 1343.6948 3218.3484 13356733
2940.261 1344.1138 3219.3518 13422272
2959.3091 1344.1029 3219.3257 13553859
2976.459 1343.2355 3217.248 13553861
2996.1848 1343.5342 3217.9634 13619402
2967.4226 1322.2239 3166.9221 13619403
3000.5959 1328.605 3182.2061 13685196
3027.3867 1332.0981 3190.5725 13684941
3060.5098 1338.317 3205.4675 13750735
0 0 0 0
0 0 0 0
0 0 0 0
0 0 0 0
0 0 0 0
0 0 0 0
0 0 0 0
0 0 0 0
0 0 0 0
-2329.6692 1118.7788 2642.1506 723730
-2316.394 1119.9285 2644.8655 723731
-2303.3213 1121.192 2647.8496 789524
-2287.9094 1121.3267 2648.1675 789524
-2273.2673 1121.8429 2649.387 723732
-2256.8882 1121.5033 2648.5847 789524
-2241.9236 1121.8667 2649.4429 921110
-2227.8726 1122.6956 2651.4006 921110
-2212.3574 1122.7931 2651.6309 723732
-2197.3879 1123.1711 2652.5234 789525
-2182.2563 1123.4709 2653.2317 789525
-2167.1836 1123.8058 2654.0225 855318
-2150.7727 1123.4465 2653.1738 723731
-2139.0991 1125.5746 2658.1997 723731
-2119.7388 1123.6597 2653.6772 592146
-2106.8562 1125.1755 2657.2573 723731
-2092.6492 1126.0016 2659.208 855318
-2076.8916 1125.9994 2659.2029 921112
-2062.9529 1126.9908 2661.5444 921112
-2050.9111 1129.042 2666.3884 921113
-2036.5477 1129.837 2668.2661 855320
-2023.1244 1131.17 2671.4141 855319
-2007.8835 1131.4998 2672.1929 855319
-1993.7782 1132.4799 2674.5073 986906
-1972.9188 1129.6084 2667.7261 1052698
-1964.5436 1133.8962 2677.8525 1052698
-1947.5331 1133.2294 2676.2773 1052698
-1933.7626 1134.452 2679.165 921112
-1920.8295 1136.1904 2683.2705 986905
-1905.6796 1136.6356 2684.3218 986905
-1886.3165 1134.5543 2679.4065 1052698
-1874.4711 1136.9974 2685.1765 1052698
-1854.9502 1134.787 2679.9561 1052698
-1840.2253 1135.4978 2681.6348 855319
-1824.4249 1135.5514 2681.7612 855063
-1808.0485 1135.2443 2681.0361 855319
-1799.2286 1139.7184 2691.6023 920856
-1783.0485 1139.5686 2691.2485 789526
-1766.4437 1139.1422 2690.2417 723733
-1753.7378 1141.2451 2695.208 789526
-1740.2013 1142.8414 2698.9778 855320
-1726.6589 1144.4633 2702.8081 855319
-1707.0865 1142.0814 2697.1829 986905
-1688.7201 1140.4689 2693.3745 921112
-1669.3229 1138.1227 2687.834 1052698
-1658.4127 1141.5736 2695.9836 1118492
-1641.2682 1140.7583 2694.0583 1052700
-1625.3517 1140.7891 2694.1309 1250078
-1610.4004 1141.5044 2695.8203 1184284
-1587.1572 1136.2979 2683.5242 986905
-1571.903 1136.7632 2684.6233 920599
-1555.5818 1136.4587 2683.9043 986392
-1540.4645 1137.0365 2685.2686 1249564
-1524.7837 1137.2062 2685.6692 1249564
-1508.5557 1136.9668 2685.104 1315357
-1492.665 1136.9795 2685.1338 1183771
-1478.4362 1138.2717 2688.1855 1117978
-1459.3368 1135.8014 2682.3516 1052185
-1446.6064 1138.2882 2688.2249 986392
-1431.1675 1138.6754 2689.1392 920599
-1416.3539 1139.5746 2691.2627 460049
-1404.2699 1142.7153 2698.6799 1052185
-1387.228 1141.8475 2696.6306 1117978
-1370.4927 1141.2148 2695.1362 986392
-1358.7512 1144.7745 2703.543 920599
-1348.5615 1149.7422 2715.2749 920599
-1333.1477 1150.3221 2716.6445 854806
-1319.7833 1152.7062 2722.2747 920599
-1304.6522 1153.587 2724.355 920599
-1288.3776 1153.4663 2724.0698 723220
-1264.0669 1146.0565 2706.5708 854806
-1252.3026 1149.9778 2715.8311 854806
-1238.5267 1152.1298 2720.9133 657428
-1222.4148 1152.1367 2720.9297 657427
-1207.0659 1152.8726 2722.6677 854806
-1190.2697 1152.2274 2721.144 197130
-1173.5903 1151.6791 2719.8491 394510
-1155.6569 1149.8677 2715.5713 854804
-1141.1482 1151.4611 2719.3342 1052185
-1125.4911 1151.9246 2720.4287 854806
-1109.2554 1151.8007 2720.1362 854806
-1093.6409 1152.3278 2721.3809 986392
-1079.1954 1154.1206 2725.6152 854806
-1063.1926 1154.2776 2725.9856 723220
-1048.0925 1155.4342 2728.7173 854806
-1032.0339 1155.554 2729 789014
-1016.176 1155.9058 2729.8311 789014
-1000.2759 1156.2201 2730.5735 723220
-984.59021 1156.7969 2731.9353 657427
-968.22211 1156.5776 2731.4177 920599
-954.39618 1159.4393 2738.176 986392
-937.2821 1158.3363 2735.571 723474
-918.20575 1154.7268 2727.0466 855060
-904.32196 1157.635 2733.9148 855060
-887.90063 1157.3418 2733.2222 855059
-873.29138 1159.4434 2738.1855 789013
-858.9472 1161.9833 2744.1838 986391
-842.04529 1161.0942 2742.0842 920599
-824.66064 1159.4915 2738.2991 789012
-809.05927 1160.3821 2740.4023 789012
-791.18542 1157.9829 2734.7366 789012
-776.18866 1159.7826 2738.9868 854806
-759.79443 1159.5265 2738.3818 789269
-743.51459 1159.4376 2738.1719 986392
-728.70947 1161.6957 2743.5046 986392
-714.84521 1165.5908 2752.7036 920599
-696.57758 1162.3204 2744.98 986392
-680.70667 1162.9884 2746.5576 920599
-663.68372 1161.6726 2743.45 986647
-647.54614 1161.8793 2743.9382 986646
-633.17749 1165.3524 2752.1406 1184025
-617.12592 1165.8298 2753.2681 855061
-599.40295 1163.09 2746.7976 789267
-583.7124 1164.2511 2749.5396 723474
-567.91376 1165.2568 2751.915 657681
-551.47498 1164.97 2751.2375 789267
-536.43195 1167.7041 2757.6943 986392
-520.03802 1167.5765 2757.3933 854806
-503.86804 1167.9602 2758.2991 789014
-487.88596 1168.8193 2760.3284 789014
-471.52875 1168.8086 2760.3027 986649
-456.76654 1172.8925 2769.9475 1184284
-439.9411 1171.7855 2767.333 1052698
-424.07819 1173.2557 2770.8052 1052698
-408.33392 1175.1857 2775.363 1118491
-392.00659 1175.5292 2776.1743 921113
-376.09409 1177.2012 2780.123 921112
-359.21991 1175.8784 2776.999 855319
-344.03079 1180.2092 2787.2271 657684
-326.74219 1177.4114 2780.6194 855319
-312.11591 1184.4194 2797.1699 986905
-293.70831 1177.0594 2779.7883 921112
-278.90125 1184.1115 2796.4426 855319
-261.97733 1182.4994 2792.6355 855319
-245.28462 1181.7839 2790.9458 855320
-229.86986 1187.5671 2804.6038 1118491
-213.28894 1187.7574 2805.0532 1118491
-197.18988 1190.8901 2812.4514 986905
-180.61389 1191.455 2813.7852 986905
-164.70776 1197.0027 2826.887 986906
-147.49144 1193.2068 2817.9226 986907
-130.91147 1194.2471 2820.3794 855320
-114.15239 1193.7189 2819.1318 789526
-97.507584 1194.4093 2820.7625 986905
-80.999046 1197.4 2827.8252 920599
-64.177498 1196.1163 2824.7939 854806
-47.420349 1195.5508 2823.4583 789267
-30.734221 1197.1351 2827.2 855060
-14.021408 1200.2303 2834.5098 723474
2.7753422 1202.168 2839.0854 723474
19.622011 1203.8418 2843.0386 723474
36.506752 1205.2263 2846.3083 328716
53.503689 1208.2697 2853.4956 131337
70.327408 1206.879 2850.2114 262924
87.295906 1208.0304 2852.9307 657680
104.00736 1205.8282 2847.7297 789267
120.68015 1203.855 2843.0696 1052439
137.39064 1202.6951 2840.3303 1184025
154.12657 1201.9867 2838.6575 723475
170.94969 1202.0309 2838.7617 855060
187.76086 1201.9905 2838.6665 1052439
204.83723 1203.5151 2842.2668 723474
221.37706 1201.8949 2838.4407 723474
238.46851 1203.287 2841.7283 591888
254.7549 1200.701 2835.6213 262921
272.18314 1203.484 2842.1936 394507
288.6442 1201.9153 2838.4888 131335
305.91544 1203.7072 2842.7205 65541
322.09897 1201.2555 2836.9304 131078
339.87408 1204.6882 2845.0376 65540
357.37823 1206.8816 2850.2175 65541
374.8385 1208.7356 2854.5959 196614
392.2988 1210.4296 2858.5964 196615
410.15427 1213.1523 2865.0266 591372
427.07285 1212.9976 2864.6611 657168
444.14798 1213.2822 2865.3335 657168
461.20792 1213.5061 2865.8621 1117978
479.25903 1216.2292 2872.2932 986393
497.74118 1219.8221 2880.7783 1183771
515.48438 1221.4259 2884.5657 1183771
533.94781 1224.5785 2892.011 1052185
552.12213 1226.8925 2897.4758 986392
569.11322 1226.5171 2896.5894 1052185
586.96735 1227.9691 2900.0186 1117978
607.21832 1234.2103 2914.7581 1315357
624.17493 1233.5955 2913.3059 1512736
640.27466 1231.3658 2908.0405 1644322
657.76978 1231.8663 2909.2222 1512736
674.42395 1230.8065 2906.7195 1644065
694.63379 1236.127 2919.2844 1578272
707.35468 1228.1857 2900.53 1512479
723.53613 1226.4873 2896.519 1512479
739.25726 1224.1053 2890.8938 1578272
759.70624 1229.4827 2903.593 1578272
774.80139 1226.1492 2895.7205 1578273
791.67889 1225.7197 2894.7063 1249306
811.935 1230.4286 2905.8269 1511708
830.04175 1231.7522 2908.9529 1643293
848.00439 1232.8125 2911.4568 1774873
870.62274 1240.464 2929.5269 1971990
0 0 0 0
0 0 0 0
907.85498 1220.5221 2882.4312 13488053
1094.7747 1444.6443 3411.7268 13684683
1135.7184 1471.5057 3475.1641 13554122
1142.9095 1454.4575 3434.9021 13684942
1175.7639 1470.0931 3471.8279 13750735
1213.1111 1490.7122 3520.5227 13750735
1284.9233 1552.2701 3665.9001 13750735
1303.4474 1548.4763 3656.9404 13750735
1323.5933 1546.7017 3652.7493 13750735
1342.4635 1543.5173 3645.2292 13750735
1364.0582 1543.5168 3645.228 13750735
1386.0298 1543.9362 3646.2183 13750735
1407.8368 1544.162 3646.7517 13750735
1429.3901 1544.1073 3646.6223 13750735
1451.0101 1544.125 3646.6641 13750735
1414.7522 1483.4534 3503.3799 13750735
1497.3929 1547.4064 3654.4138 13750735
1447.9624 1474.999 3483.4138 13750735
1464.3781 1470.7599 3473.4023 13750735
1496.6135 1482.3065 3500.6716 13750735
1502.2727 1467.5753 3465.8816 13750735
1547.3405 1491.2205 3521.7229 13750735
1537.3313 1461.8634 3452.3921 13750735
1555.7179 1459.9246 3447.8132 13750735
1569.9235 1454.1631 3434.2068 13750735
1595.3397 1458.8003 3445.1582 13750735
1632.474 1473.9001 3480.8186 13750735
1637.6477 1460.1271 3448.2917 13750735
1586.7587 1397.3237 3299.9729 13750735
1589.0647 1382.3236 3264.5479 13750735
1656.1223 1423.3339 3361.3994 13750735
1709.454 1451.7134 3428.4216 13750735
1746.2203 1465.5239 3461.0369 13750735
1735.7372 1439.8196 3400.3328 13750735
1705.7477 1398.7098 3303.2463 13750735
1732.057 1404.1741 3316.1509 13750735
1725.1091 1382.8567 3265.8069 13750735
1737.1831 1377.0909 3252.1902 13750735
1756.8521 1377.4062 3252.9351 13684942
1816.6704 1408.8512 3327.1965 13619149
1843.7491 1414.5037 3340.5454 13619149
1847.9244 1402.6512 3312.5544 13619149
1869.8247 1404.3606 3316.5913 13684942
1844.0393 1370.5919 3236.8418 13750735
1902.0667 1399.1714 3304.3362 13750735
1929.5704 1404.9438 3317.9688 13750735
1952.5824 1407.3624 3323.6807 13619149
2097.0957 1496.433 3534.033 13750735
1989.8569 1405.8744 3320.1665 13750735
2006.5902 1403.8204 3315.3157 13750735
2151.0552 1490.3015 3519.5527 13750735
2174.3113 1491.9521 3523.4509 13750735
2218.5154 1507.8085 3560.8979 13750735
2260.7058 1522.0106 3594.4382 13750735
2278.2764 1519.527 3588.5728 13750479
2314.2332 1529.239 3611.509 13750479
2334.1865 1528.2949 3609.2793 13750478
2289.1028 1485.1716 3507.4377 13750989
2152.4414 1383.9432 3268.3728 13750989
2175.3691 1386.2151 3273.7383 13750989
2194.0532 1385.7664 3272.6785 13750989
2225.3865 1393.245 3290.3403 13750987
2240.1748 1390.3252 3283.4448 13750988
2255.0308 1387.4974 3276.7666 13750988
2267.9893 1383.5604 3267.4688 13750988
2271.8132 1374.1646 3245.2793 13750988
2289.1309 1373.02 3242.5764 13750988
2323.655 1382.1292 3264.0889 13750988
2342.8218 1382.0288 3263.8516 13750988
2362.9307 1382.4811 3264.9197 13750989
2379.634 1380.9496 3261.3032 13750988
2363.3301 1360.4425 3212.8728 13619402
2373.8618 1355.5874 3201.4067 13422024
2387.2373 1352.4204 3193.9275 13487817
2400.1909 1349.066 3186.0056 13422024
2403.2759 1340.2605 3165.21 13422024
2404.6492 1330.644 3142.4995 13487563
2427.7092 1333.0839 3148.2615 13684942
2449.5957 1334.8469 3152.4253 13684942
2466.2324 1333.7441 3149.821 13619149
2489.5347 1336.2357 3155.7051 13684942
2508.5676 1336.4159 3156.1304 13684942
2532.0449 1338.9432 3162.0994 13684942
2555.3562 1341.3463 3167.7747 13750735
2574.0994 1341.3342 3167.7458 13750735
2586.2314 1337.9022 3159.6406 13750479
2611.4155 1341.2229 3167.4829 13750989
2629.9351 1341.0978 3167.1875 13750989
2650.1501 1341.8329 3168.9236 13750989
2672.2058 1343.4833 3172.821 13750989
2689.9968 1342.9813 3171.6355 13750989
2708.5498 1342.8639 3171.3584 13750988
2733.1177 1345.7098 3178.0796 13750987
2749.3538 1344.4426 3175.0867 13685194
2766.9954 1343.8751 3173.7466 13619654
2786.3079 1344.1215 3174.3281 13619909
2793.1362 1338.3824 3160.7747 13619906
2815.116 1339.9314 3164.4329 13488319
2831.1313 1338.64 3161.3831 13554111
2850.8733 1339.1158 3162.5071 13488319
2881.2302 1344.5392 3175.3147 13554112
2905.2036 1346.9324 3180.9666 13554111
2921.9465 1345.9642 3178.6802 13488065
2936.0398 1343.7958 3173.5591 13290689
2954.312 1343.5553 3172.9912 13356482
2923.9375 1321.3344 3120.5134 13290437
2960.5706 1329.4832 3139.7581 13487817
2968.5801 1324.7568 3128.5959 13619146
2998.6809 1329.8865 3140.7102 13619404
0 0 0 0
0 0 0 0
0 0 0 0
0 0 0 0
0 0 0 0
0 0 0 0
0 0 0 0
0 0 0 0
0 0 0 0
-2294.6353 1117.3717 2602.4175 657939
-2280.668 1118.0825 2604.073 723731
-2265.675 1118.2969 2604.5723 592146
-2250.2065 1118.2778 2604.5278 657938
-2234.9976 1118.3884 2604.7854 657938
-2219.1331 1118.1702 2604.2769 855317
-2204.9248 1118.7892 2605.7188 855318
-2188.855 1118.4657 2604.9653 789526
-2175.52 1119.5452 2607.4795 723733
-2158.6099 1118.787 2605.7136 789525
-2141.936 1118.1411 2604.2095 592147
-2129.9758 1119.9645 2608.4561 723733
-2114.384 1119.8911 2608.2852 723734
-2103.0393 1122.0826 2613.3894 657941
-2088.6938 1122.6936 2614.8125 789525
-2074.5635 1123.4304 2616.5283 986905
-2059.0039 1123.3982 2616.4536 986905
-2041.6659 1122.3881 2614.1008 986905
-2028.0326 1123.4147 2616.4919 723734
-2017.6027 1126.2452 2623.0842 1052698
-2001.1583 1125.7363 2621.8992 855319
-1990.318 1128.3967 2628.0952 921112
-1973.9474 1127.9388 2627.0288 921112
-1958.8602 1128.213 2627.6675 921112
-1942.928 1128.0009 2627.1733 921112
-1929.2972 1129.1323 2629.8086 986905
-1914.9426 1129.8551 2631.4919 855320
-1901.1494 1130.9236 2633.9805 855319
-1885.1951 1130.7137 2633.4917 921112
-1872.2438 1132.3165 2637.2246 855319
-1852.5227 1129.8175 2631.4043 855319
-1838.4923 1130.7761 2633.637 723734
-1821.6331 1129.9965 2631.821 723220
-1808.2601 1131.3845 2635.054 789013
-1792.7888 1131.4723 2635.2585 723477
-1778.063 1132.0365 2636.5725 657940
-1763.6018 1132.7806 2638.3057 855319
-1750.696 1134.546 2642.4172 789526
-1735.968 1135.1519 2643.8281 789526
-1721.9297 1136.2235 2646.3242 723734
-1707.4374 1137.0128 2648.1624 723733
-1697.0449 1140.572 2656.4521 657940
-1675.244 1136.4586 2646.8718 723733
-1663.3492 1139.0513 2652.9102 921112
-1641.9556 1135.1265 2643.769 855319
-1627.7374 1136.1344 2646.1167 921112
-1614.8308 1138.0863 2650.6626 986905
-1597.1707 1136.6934 2647.4187 921113
-1580.4877 1135.9753 2645.7463 920599
-1562.8572 1134.5551 2642.4382 854807
-1556.5331 1141.397 2658.3735 788757
-1539.8341 1140.6931 2656.7341 920599
-1512.6359 1132.1166 2636.759 1183771
-1497.085 1132.1694 2636.8821 1117978
-1481.5013 1132.1984 2636.9495 1117978
-1467.8583 1133.7267 2640.509 920600
-1451.7434 1133.3584 2639.6511 657427
-1435.8376 1133.147 2639.1587 854806
-1420.441 1133.3372 2639.6018 986392
-1405.4608 1133.8674 2640.8369 1052185
-1398.6703 1141.0912 2657.6614 1052185
-1382.3646 1140.6282 2656.583 986392
-1366.9371 1140.8877 2657.1873 1052185
-1351.8511 1141.4413 2658.4768 1117978
-1337.0226 1142.228 2660.3091 986392
-1325.4902 1145.8831 2668.8218 986392
-1310.5463 1146.6414 2670.5879 986392
-1295.2397 1147.097 2671.6494 789013
-1284.9211 1152.0364 2683.1531 591634
-1262.0077 1145.6655 2668.3149 460049
-1250.084 1149.236 2676.6311 394255
-1234.7338 1149.7079 2677.73 460048
-1219.1392 1149.9615 2678.3208 525841
-1203.7533 1150.4214 2679.3918 460049
-1189.7094 1152.193 2683.5181 789013
-1175.973 1154.3147 2688.4595 1183772
-1154.6238 1148.9193 2675.8933 789013
-1135.4686 1145.5874 2668.1331 986392
-1123.318 1149.3279 2676.845 1052185
-1105.0636 1146.8412 2671.0532 920599
-1089.276 1146.8794 2671.1423 854806
-1073.1874 1146.5973 2670.4851 789014
-1058.3749 1147.6903 2673.031 854806
-1043.8485 1149.1315 2676.3877 789013
-1028.0394 1149.1836 2676.5088 789013
-1012.771 1149.851 2678.0632 854806
-997.68683 1150.752 2680.1619 789013
-982.88245 1152.0104 2683.0925 723731
-968.06042 1153.2888 2686.0703 855060
-951.92664 1153.0212 2685.447 855059
-937.31134 1154.6152 2689.1594 657681
-921.98981 1155.3792 2690.9387 723474
-906.1925 1155.5634 2691.3677 657682
-887.97192 1152.6086 2684.4861 723474
-877.4826 1159.7645 2701.1523 591888
-856.16595 1152.6101 2684.4893 591888
-841.18652 1153.8777 2687.4417 657681
-824.71051 1153.1017 2685.6343 723474
-808.72955 1153.0009 2685.3997 723475
-795.01459 1156.1915 2692.8308 920853
-777.07642 1153.2454 2685.969 723474
-761.97144 1154.4684 2688.8176 789267
-745.81049 1154.1097 2687.9822 789267
-729.73047 1153.8634 2687.4084 920598
-715.00146 1155.7899 2691.8955 789013
-700.02332 1157.3925 2695.6279 789013
-683.71381 1156.8173 2694.2881 789013
-668.78802 1158.6116 2698.4673 920599
-652.82159 1158.647 2698.5496 920853
-636.70874 1158.4176 2698.0154 789267
-621.71136 1160.2583 2702.3025 855060
-606.43408 1161.6599 2705.5671 855060
-588.97595 1158.8469 2699.0151 657681
-573.97235 1160.8411 2703.6597 460302
-557.37115 1159.6259 2700.8293 657681
-541.56604 1160.0438 2701.803 920852
-526.79254 1162.7646 2708.1399 854806
-510.38208 1161.9296 2706.1948 789013
-495.14304 1163.7935 2710.5361 920599
-479.66971 1165.2133 2713.843 854806
-464.04733 1166.3571 2716.5068 789269
-448.82767 1168.6316 2721.8042 855320
-432.95389 1169.3088 2723.3818 855319
-417.33426 1170.7517 2726.7422 921113
-402.1777 1173.6621 2733.5208 1118491
-385.62122 1172.5598 2730.9534 1118491
-369.80075 1173.697 2733.6021 723734
-353.61307 1173.7196 2733.6545 855319
-338.12653 1176.1833 2739.3926 723733
-321.84302 1175.9833 2738.9268 724248
-306.37625 1178.9048 2745.7312 395284
-288.08365 1170.6708 2726.5537 3882313
-274.11111 1180.0566 2748.4138 263698
-258.18732 1181.697 2752.2344 855832
-242.52017 1184.8125 2759.4905 921112
-225.62245 1181.932 2752.7817 1381663
-209.7524 1184.4055 2758.5425 1184284
-193.847 1187.0806 2764.7732 1184284
-177.87981 1189.8361 2771.1907 1184284
-161.80498 1192.3589 2777.0664 1250077
-145.53905 1193.8849 2780.6206 1052699
-128.71297 1190.619 2773.0144 855319
-112.49651 1192.8619 2778.238 855320
-95.962875 1191.9337 2776.0762 986905
-79.652931 1193.9747 2780.8298 920855
-63.299252 1196.2537 2786.1375 855061
-46.790878 1196.1854 2785.9788 1052184
-30.26342 1195.2893 2783.8916 921111
-13.786276 1196.6139 2786.9766 986646
2.7252443 1196.9833 2787.8369 855060
19.244541 1197.2023 2788.3469 657682
35.887897 1201.3719 2798.0583 789268
52.502102 1202.2393 2800.0784 723474
69.353668 1206.8202 2810.7478 789267
85.675514 1202.1946 2799.9741 920854
102.16333 1201.0206 2797.24 1118232
118.46724 1198.314 2790.9363 1249818
135.37997 1201.6746 2798.7632 1249818
151.57114 1198.5957 2791.5925 1249818
167.90916 1197.1698 2788.2712 1052439
184.44839 1197.3053 2788.5869 1118233
201.84883 1202.5493 2800.8005 789268
217.70055 1198.4708 2791.3015 723475
234.01447 1197.333 2788.6514 789268
250.25459 1195.9926 2785.5295 394507
266.77066 1196.0552 2785.6753 262921
283.50436 1197.0293 2787.9441 131335
300.53104 1199.0653 2792.686 65540
317.92801 1202.2889 2800.1941 65540
334.08252 1200.7274 2796.5571 131076
351.12811 1202.3649 2800.3708 131333
368.14481 1203.7598 2803.6199 65540
385.08826 1204.8053 2806.0549 328201
403.40497 1209.8829 2817.8809 393994
419.40823 1207.8944 2813.2495 591372
436.5239 1209.139 2816.1482 722961
454.39514 1212.3079 2823.5286 525582
471.67947 1213.7415 2826.8677 591632
488.48822 1213.8949 2827.2249 525841
506.83173 1217.7256 2836.1467 1249564
525.58746 1222.269 2846.7288 1512736
541.9978 1221.2455 2844.3447 1446943
559.37354 1222.3932 2847.0178 1052185
576.90875 1223.8119 2850.3223 920599
594.53027 1225.3279 2853.853 1052185
611.76587 1225.9867 2855.3875 1183771
630.26312 1229.0703 2862.5693 1183771
645.8042 1226.3787 2856.3003 1315357
663.47748 1227.77 2859.541 1578015
679.72418 1226.5181 2856.625 1249307
694.03961 1221.9266 2845.9314 1315100
711.19281 1222.4307 2847.1052 1446686
730.07281 1225.8107 2854.9775 1578272
746.19208 1224.5073 2851.9419 1775651
762.8924 1224.1941 2851.2124 1644065
773.67505 1214.6042 2828.877 1380893
797.43262 1225.3585 2853.9243 1511710
814.53546 1225.6527 2854.6096 1840926
832.92596 1227.8331 2859.6877 1905691
850.27515 1228.4222 2861.0598 2234649
0 0 0 0
0 0 0 0
0 0 0 0
1118.9325 1497.1804 3487.012 13619404
1179.3252 1549.3837 3608.5959 13685195
1194.521 1541.4059 3590.0154 13619149
1220.3789 1547.2251 3603.5684 13750735
1240.752 1546.0099 3600.7383 13750735
1234.9922 1512.8237 3523.446 13750735
1277.9207 1539.3912 3585.323 13750735
1292.8059 1531.861 3567.7847 13750735
1315.085 1533.1932 3570.8877 13750735
1322.5288 1517.4614 3534.2473 13750735
1344.6517 1518.8 3537.3652 13750735
1367.1035 1520.4636 3541.2395 13750735
1389.1205 1521.6003 3543.8872 13750735
1408.7417 1520.1183 3540.4353 13750735
1434.9933 1525.7292 3553.5034 13750735
1457.8041 1527.5724 3557.7964 13750735
1405.9194 1452.2084 3382.2695 13750735
1360.2505 1385.2925 3226.4189 13750735
1381.5842 1387.5219 3231.6111 13750735
1403.8687 1390.6317 3238.8545 13750735
1552.7218 1517.3427 3533.9707 13750735
1577.6716 1521.2128 3542.9846 13750735
1600.0498 1522.5343 3546.0623 13750735
1621.313 1522.7743 3546.6213 13750735
1642.1902 1522.6501 3546.3323 13750735
1663.1001 1522.5593 3546.1206 13750735
1681.0413 1519.7865 3539.6626 13750735
1702.0519 1519.8231 3539.7478 13750735
1713.4392 1511.3702 3520.0605 13750735
1662.6694 1448.9532 3374.6882 13750735
1658.0629 1427.7709 3325.3533 13750735
1700.7112 1447.2997 3370.8369 13750735
1709.0748 1437.5376 3348.1006 13684942
1700.541 1413.9498 3293.1636 13684942
1725.0757 1418.0807 3302.7844 13684942
1744.5321 1417.9915 3302.5764 13684942
1758.7767 1413.7147 3292.6157 13619149
1781.1949 1416.0298 3298.0076 13619149
1808.6206 1422.2322 3312.4534 13619149
1833.7572 1426.5209 3322.4419 13619149
1853.451 1426.5291 3322.4612 13684942
1864.0961 1419.6461 3306.4304 13684942
1979.959 1492.204 3475.4214 13750735
2010.6154 1499.7131 3492.9106 13750735
2037.5916 1504.3521 3503.7151 13750735
2061.895 1506.9441 3509.752 13750735
2054.4111 1486.4845 3462.1006 13750735
2085.4819 1494.0502 3479.7212 13750735
2116.0422 1501.1056 3496.1538 13750735
2143.6594 1505.9565 3507.4519 13750735
2191.6152 1524.8656 3551.4919 13750735
2195.5942 1513.1079 3524.1079 13750735
2248.728 1535.1281 3575.3938 13750735
2270.1365 1535.2816 3575.7515 13750735
2295.2417 1537.9092 3581.8713 13750735
2321.012 1540.9303 3588.9077 13750735
2144.6226 1410.9 3286.0603 13750732
2152.4023 1403.2803 3268.3135 13750989
2166.3704 1399.7948 3260.1956 13750989
2180.8792 1396.7173 3253.0278 13750989
2187.9502 1388.972 3234.9888 13750989
2255.4512 1419.3906 3305.8354 13750989
2265.4839 1413.4314 3291.9561 13750989
2283.96 1412.7965 3290.4773 13750989
2299.8411 1410.5809 3285.3171 13750989
2321.197 1411.7323 3287.9985 13750989
2338.2554 1410.2725 3284.5986 13750988
2356.6619 1409.6429 3283.1326 13685196
2370.4697 1406.2958 3275.3367 13685196
2391.02 1406.9703 3276.9077 13685196
2407.4365 1405.2212 3272.834 13685196
2348.979 1360.1453 3167.8496 13619147
2394.4016 1375.4574 3203.5125 13553611
2373.415 1352.6803 3150.4634 13553610
2389.6787 1351.3228 3147.3018 13553610
2393.6702 1343.1006 3128.1519 13487817
2403.9739 1338.5192 3117.4814 13487562
2417.019 1335.5223 3110.5017 13553356
2436.5281 1336.1156 3111.8833 13553356
2457.103 1337.2799 3114.5952 13619149
2476.0015 1337.5214 3115.1575 13619149
2497.4041 1339.1019 3118.8386 13684942
2513.6792 1337.9301 3116.1094 13750735
2533.7764 1338.7949 3118.1235 13750735
2543.8684 1334.3987 3107.8848 13750735
2573.678 1340.3346 3121.7097 13750735
2591.9619 1340.2261 3121.457 13750479
2611.6565 1340.8435 3122.8948 13750479
2632.1304 1341.8494 3125.2375 13750989
2650.5852 1341.819 3125.167 13750989
2669.2554 1341.8975 3125.3496 13750988
2692.959 1344.4878 3131.3826 13750988
2713.207 1345.3293 3133.3425 13750985
2724.416 1341.7079 3124.908 13685193
2746.1665 1343.2916 3128.5967 13685193
2756.1523 1339.1381 3118.9229 13619656
2773.9685 1338.819 3118.1797 13553862
2791.4275 1338.3329 3117.0476 13619652
2812.1611 1339.413 3119.563 13685442
2832.5112 1340.2974 3121.623 13554368
2855.1772 1342.259 3126.1917 13422526
2875.1418 1342.9337 3127.7632 13356731
2897.6841 1344.796 3132.1006 13225397
2915.8318 1344.608 3131.6626 13291446
2860.4548 1310.7317 3052.7627 13225136
2902.6362 1321.7037 3078.3174 13356722
2934.3745 1327.8132 3092.5466 13291190
2905.8718 1306.7568 3043.5054 13290685
0 0 0 0
0 0 0 0
0 0 0 0
0 0 0 0
0 0 0 0
0 0 0 0
0 0 0 0
0 0 0 0
0 0 0 0
-2258.3848 1114.8934 2561.3047 657938
-2242.7227 1114.6506 2560.7471 657938
-2227.4207 1114.5848 2560.5959 657938
-2213.3616 1115.1443 2561.8811 526352
-2199.6531 1115.8893 2563.5928 855317
-2183.1008 1115.1921 2561.9912 855317
-2168.5098 1115.4939 2562.6846 789524
-2154.5325 1116.1179 2564.1179 723732
-2140.1196 1116.5237 2565.05 789523
-2124.3816 1116.2388 2564.3958 789524
-2109.7981 1116.5609 2565.1355 789524
-2096.281 1117.4561 2567.1921 723731
-2084.3062 1119.1925 2571.1814 657938
-2066.5989 1117.8538 2568.1057 723732
-2050.3496 1117.2896 2566.8096 789525
-2038.0203 1118.869 2570.4382 657940
-2023.653 1119.345 2571.5317 986905
-2007.9117 1119.0625 2570.8828 855319
-1992.2441 1118.817 2570.3188 789526
-1979.7433 1120.3599 2573.8633 723733
-1962.4861 1119.2141 2571.231 526354
-1952.3782 1122.1597 2577.998 789526
-1940.2947 1124.0071 2582.2422 855319
-1924.5941 1123.772 2581.7019 855319
-1911.2698 1124.9315 2584.366 789526
-1892.4602 1122.8553 2579.5962 986905
-1882.3435 1125.9451 2586.6946 855319
-1866.5878 1125.6849 2586.0967 789526
-1852.4718 1126.4174 2587.7795 789526
-1838.9513 1127.5271 2590.3291 723733
-1822.201 1126.6587 2588.334 723733
-1807.3521 1126.9611 2589.0286 657940
-1792.7157 1127.4023 2590.0422 657940
-1774.009 1125.2694 2585.1421 657940
-1759.8127 1125.9851 2586.7864 592147
-1746.0004 1126.9613 2589.0291 789526
-1734.2308 1129.2849 2594.3672 920856
-1718.9833 1129.3651 2594.5515 921112
-1708.7542 1132.7736 2602.3821 921112
-1689.2543 1130.0424 2596.1074 723734
-1673.932 1130.0813 2596.1968 592147
-1658.2192 1129.8549 2595.6768 526354
-1641.637 1129.0262 2593.7729 394512
-1622.6149 1126.4882 2587.9419 789013
-1615.3739 1132.1586 2600.969 657940
-1594.8964 1128.5718 2592.7288 460818
-1578.3948 1127.756 2590.8547 592148
-1560.6637 1126.0372 2586.906 921112
-1545.3248 1126.0273 2586.8835 855319
-1533.6758 1128.7329 2593.0991 855319
-1520.8563 1130.6233 2597.4419 591890
-1506.7196 1131.5629 2599.6003 789013
-1488.047 1129.0802 2593.897 657427
-1472.7253 1129.1147 2593.9763 657427
-1460.1268 1131.26 2598.9045 657427
-1446.3123 1132.4987 2601.7502 525841
-1430.429 1132.1267 2600.8958 591634
-1410.9937 1128.9048 2593.4939 986392
-1396.2968 1129.4447 2594.7344 986392
-1384.7122 1132.5422 2601.8506 920599
-1373.0383 1135.6357 2608.9573 986392
-1357.8018 1135.8192 2609.3789 986392
-1345.6304 1138.6007 2615.769 986393
-1330.3193 1138.7594 2616.1335 986392
-1315.9576 1139.744 2618.3955 986392
-1302.8835 1141.8806 2623.304 920599
-1287.7051 1142.2023 2624.043 1052185
-1274.3737 1144.1901 2628.6096 920600
-1257.9967 1143.4587 2626.9297 1052185
-1241.7473 1142.8268 2625.4775 920599
-1231.046 1147.3494 2635.8677 986392
-1214.8798 1146.8295 2634.6733 789014
-1199.3163 1146.8724 2634.772 986392
-1183.6228 1146.7906 2634.584 854806
-1159.8909 1138.8142 2616.2593 1315357
-1150.1984 1144.5927 2629.5344 1183771
-1133.9011 1143.8671 2627.8674 1052185
-1119.2422 1144.7969 2630.0037 789013
-1100.6984 1141.7235 2622.9429 920599
-1085.7285 1142.3221 2624.3184 854806
-1070.6801 1142.8544 2625.541 723220
-1054.6481 1142.3369 2624.3523 657427
-1042.9354 1146.5525 2634.0371 1117978
-1026.5712 1145.7047 2632.0894 1183771
-1011.3189 1146.0909 2632.9768 1117978
-995.93945 1146.343 2633.5557 1118233
-982.08618 1148.3877 2638.2529 920853
-967.26501 1149.3483 2640.4597 591888
-951.23431 1148.8795 2639.3831 460303
-936.57971 1150.0851 2642.1526 855060
-922.2041 1151.6801 2645.8167 986646
-907.34369 1152.714 2648.1921 1184025
-892.1123 1153.3049 2649.5498 1052439
-874.81982 1151.205 2644.7251 723474
-862.77338 1156.0574 2655.873 789267
-842.56366 1149.9487 2641.8394 657682
-828.64764 1152.3615 2647.3821 657681
-813.74146 1153.4634 2649.9138 723474
-796.59601 1151.3723 2645.1099 789267
-780.35211 1150.5266 2643.167 657681
-769.21161 1157.3246 2658.7842 526095
-754.12598 1158.347 2661.1331 723474
-734.42969 1152.1797 2646.9646 855060
-719.03436 1152.6381 2648.0176 854805
-704.13513 1153.9298 2650.9851 723220
-688.81354 1154.5725 2652.4617 591634
-673.15179 1154.6617 2652.6667 591634
-658.07776 1155.7875 2655.2529 1117977
-642.71991 1156.4575 2656.7925 855060
-627.0293 1156.5476 2656.9993 526096
-611.32086 1156.6088 2657.1396 657681
-595.42499 1156.3088 2656.4507 723474
-580.27301 1157.4766 2659.1335 526095
-565.46515 1159.4152 2663.5869 591888
-548.33789 1156.5729 2657.0574 328716
-534.0863 1159.8073 2664.4878 789267
-518.19055 1159.5594 2663.9185 591889
-502.52963 1159.838 2664.5586 986392
-487.24905 1161.0411 2667.3225 920599
-471.79349 1161.8939 2669.2815 986392
-456.20898 1162.4772 2670.6216 855319
-441.21393 1164.6583 2675.6326 855319
-426.00027 1166.4037 2679.6421 855320
-410.27448 1166.8274 2680.6155 789526
-394.11517 1166.0028 2678.7212 854806
-378.61551 1167.1425 2681.3394 1117978
-363.86697 1170.7986 2689.739 723220
-347.57404 1169.593 2686.969 723221
-332.79214 1173.6002 2696.1753 723221
-316.44138 1172.2 2692.9583 854807
-300.74033 1173.1855 2695.2224 921112
-286.2829 1179.4049 2709.5107 723730
-269.74924 1177.3018 2704.679 855320
-253.69266 1177.1465 2704.322 1052698
-238.72215 1182.3495 2716.2754 986905
-222.56691 1182.0127 2715.5017 1052698
-206.7175 1183.3741 2718.6294 921112
-191.05481 1186.125 2724.949 1052698
-175.69533 1191.4397 2737.1587 1118491
-159.40863 1190.9082 2735.9377 921112
-143.18414 1190.7737 2735.6287 986906
-126.86716 1189.7375 2733.2483 1052698
-110.9616 1192.8207 2740.3315 921112
-94.60154 1191.2377 2736.6946 1052441
-78.522469 1193.27 2741.3635 920854
-62.304699 1193.7045 2742.3618 723474
-46.11306 1195.1232 2745.6208 1052439
-29.758471 1191.563 2737.4419 1052439
-13.555709 1192.8357 2740.366 1052439
2.6807554 1193.689 2742.3262 986646
18.932701 1194.054 2743.1646 1118232
35.190487 1194.2799 2743.6836 986646
51.51812 1195.9845 2747.5999 986646
67.916687 1198.1219 2752.5103 920853
84.081932 1196.1127 2747.8943 986646
100.76607 1200.9395 2758.9829 657681
116.7623 1197.3644 2750.77 1184025
132.84264 1195.4221 2746.3079 1184025
149.11543 1195.4465 2746.364 1184025
165.44705 1195.8914 2747.3857 855060
181.69121 1195.6809 2746.9023 1052438
198.19016 1197.0439 2750.0337 986645
214.13449 1195.1046 2745.5784 526093
230.34526 1194.821 2744.927 591886
246.83691 1195.9359 2747.488 526093
263.13092 1196.0143 2747.6682 855059
280.15701 1199.2174 2755.0269 394507
295.78033 1196.3937 2748.5398 262921
311.75247 1195.2021 2745.8022 328456
328.33957 1196.3694 2748.4839 262663
344.78091 1196.9202 2749.7495 262918
361.85892 1199.532 2755.7495 196870
378.27802 1199.8282 2756.4302 196615
395.15155 1201.4817 2760.2288 262664
412.63385 1204.7812 2767.8091 393994
428.97409 1204.6215 2767.4421 591373
446.60538 1207.9656 2775.1245 657423
462.94208 1207.6949 2774.5027 986646
481.99863 1214.2948 2789.665 855060
496.67136 1209.7792 2779.291 920853
514.59143 1213.2094 2787.1714 1183771
530.49097 1211.8108 2783.9583 920599
547.33167 1212.5814 2785.7288 986136
567.29987 1220.0331 2802.8479 1183771
583.64044 1219.4812 2801.5801 986392
599.43762 1217.8557 2797.8457 1052185
617.96832 1221.7222 2806.7283 1315357
633.98816 1220.5518 2804.0396 1183771
650.56757 1220.4911 2803.9001 1183514
666.4267 1219.1158 2800.7405 1315100
685.44305 1223.4427 2810.6809 1380893
697.76941 1215.9065 2793.3677 1249307
714.37994 1216.0121 2793.6101 1249307
730.80658 1215.8069 2793.1387 1380893
747.75598 1216.4611 2794.6418 1380893
765.90167 1218.9911 2800.4541 1512479
783.80872 1221.042 2805.1658 1314331
801.64343 1222.8975 2809.4285 1248534
816.26001 1219.8679 2802.4685 1511705
834.05859 1221.6199 2806.4934 1970966
837.97211 1203.3638 2764.5525 3285279
0 0 0 0
0 0 0 0
1064.5894 1444.1216 3317.6584 13290688
1158.3445 1542.8173 3544.3975 13618893
1185.0012 1550.2203 3561.4048 13750735
1182.2336 1519.5446 3490.9319 13750735
1230.0524 1553.8254 3569.6873 13750735
1223.3105 1519.1904 3490.1182 13750735
1230.3545 1502.5425 3451.8718 13750735
1247.2472 1498.2695 3442.0554 13750735
1267.2722 1497.8364 3441.0603 13750735
1176.0808 1368.047 3142.8884 13750735
1196.5123 1370.1224 3147.6562 13619149
1216.491 1371.6234 3151.1045 13619149
1237.6519 1374.3918 3157.4646 13619149
1258.6862 1376.9395 3163.3174 13684942
1279.7935 1379.4908 3169.179 13750735
1311.0906 1392.7933 3199.7395 13750735
1341.1505 1404.4211 3226.4526 13750735
1355.2275 1399.2205 3214.5049 13750735
1368.6411 1393.4884 3201.3362 13750735
1392.9646 1398.8693 3213.6978 13750735
1416.2078 1403.0345 3223.2671 13750735
1437.3591 1405.0443 3227.884 13750735
1456.656 1405.2123 3228.27 13750735
1475.8164 1405.2461 3228.3477 13750735
1630.6965 1532.8555 3521.5117 13750735
1675.4863 1555.0632 3572.531 13750735
1715.1534 1572.022 3611.4907 13750735
1735.7501 1571.299 3609.8301 13750735
1728.4082 1545.6097 3550.8127 13750735
1623.4019 1434.2533 3294.9875 13750735
1635.9594 1428.1749 3281.0232 13750735
1655.894 1428.6038 3282.0085 13750735
1696.2468 1446.4338 3322.9705 13750735
1694.2313 1428.1406 3280.9446 13750735
1715.4823 1429.6522 3284.4172 13750735
1738.6873 1432.7402 3291.5115 13750735
1756.6915 1431.5217 3288.7122 13750735
1759.4609 1418.0513 3257.7656 13750735
1779.2333 1418.4279 3258.6309 13684942
1798.8165 1418.6476 3259.1355 13684942
1836.1331 1432.6992 3291.4172 13684942
1860.7592 1436.6577 3300.5115 13750735
1970.8501 1505.8335 3459.4326 13750735
