# .PCD v0.7 - Point Cloud Data file format
VERSION 0.7
FIELDS x y z rgb
SIZE 4 4 4 4
TYPE F F F U
COUNT 1 1 1 1
WIDTH 1461
HEIGHT 1
VIEWPOINT 0 0 0 1 0 0 0
POINTS 1461
DATA ascii
-3092.2659 2194.8059 4284.2339 14
-3069.1313 2196.4131 4287.3716 14
-1917.6056 1383.7797 2701.1208 14
-1948.8868 1418.1871 2768.2839 14
-2969.522 2179.2327 4253.835 14
-2965.9321 2195.2275 4285.0571 14
-2940.041 2194.8503 4284.3208 14
-2913.1365 2193.7031 4282.0815 14
-2886.5889 2192.8071 4280.3325 14
-2860.0312 2191.8877 4278.5376 14
-2833.0425 2190.6182 4276.0596 14
-2805.8157 2189.1401 4273.1743 14
-2778.46 2187.5334 4270.0386 14
-2749.4043 2184.5469 4264.2085 14
-2721.0713 2182.0842 4259.4014 14
-2691.6277 2178.6765 4252.75 14
-2662.0903 2175.1277 4245.8228 14
-2632.8691 2171.7725 4239.2729 14
-2603.7292 2168.4199 4232.729 14
-2574.2471 2164.7146 4225.4961 14
-2544.6338 2160.8247 4217.9033 14
-2515.5647 2157.3247 4211.0713 14
-2482.6448 2150.4189 4197.5913 14
-2452.5876 2145.8782 4188.728 12
-2419.8818 2138.9038 4175.1138 12
-2389.4102 2133.7803 4165.1128 12
-2359.1011 2128.6965 4155.1895 12
-2327.6812 2122.4924 4143.0791 12
-2296.5859 2116.4558 4131.2954 12
-2265.4324 2110.2344 4119.1514 12
-2234.741 2104.313 4107.5928 12
-2204.6465 2098.8289 4096.8882 12
-2175.3892 2094.0293 4087.5193 12
-2145.9783 2088.9717 4077.6467 12
-2117.6543 2084.8691 4069.6389 12
-2088.9805 2080.3237 4060.7661 12
-2050.188 2065.478 4031.7876 11
0 0 0 0
0 0 0 0
0 0 0 0
0 0 0 0
0 0 0 0
0 0 0 0
0 0 0 0
0 0 0 0
0 0 0 0
-1789.2852 2040.3337 3982.7063 14
-1763.1401 2037.3862 3976.9529 14
-1736.9342 2034.288 3970.9053 14
-1710.4155 2030.7332 3963.9661 14
-1683.8835 2027.0635 3956.8027 14
-1654.5857 2019.9132 3942.8457 14
-987.11115 1222.3181 2385.95 14
-1602.3153 2012.9362 3929.2266 14
-1575.7006 2008.682 3920.9226 14
-1549.0352 2004.2351 3912.2424 14
-1523.6497 2001.3341 3906.5796 14
-1498.1378 1998.1753 3900.4136 14
-1473.4944 1996.094 3896.3508 14
-1448.0585 1992.8557 3890.0298 14
-853.7995 1194.0236 2330.7192 14
-837.17896 1190.0253 2322.9146 14
-820.83643 1186.2949 2315.6331 14
-813.69287 1195.9585 2334.4961 14
-799.67871 1195.6832 2333.959 14
-783.0025 1191.348 2325.4966 14
-769.30597 1191.4723 2325.7393 14
-760.66132 1199.5679 2341.5417 14
-740.34674 1189.219 2321.3408 14
-726.97321 1189.8386 2322.5503 14
-712.86597 1189.2582 2321.4172 14
-702.3512 1194.766 2332.1685 14
-695.37408 1206.6337 2355.334 14
-668.92316 1184.5035 2312.1365 14
-656.32574 1186.4927 2316.019 14
-646.49237 1193.6699 2330.0291 14
-629.24036 1187.1639 2317.3293 14
-614.24945 1184.7289 2312.5762 14
-602.02557 1187.6414 2318.2612 14
-591.20709 1193.527 2329.75 14
-574.02063 1186.531 2316.094 14
-558.56848 1182.8651 2308.9382 14
-546.24884 1185.8153 2314.697 14
-534.68402 1190.5983 2324.0332 14
-523.95502 1197.5444 2337.592 14
-504.48157 1184.3389 2311.8149 14
-494.05719 1192.2333 2327.2246 14
-480.16968 1191.9838 2326.7375 14
-469.05951 1198.8177 2340.0774 14
-453.63638 1194.7092 2332.0579 14
-439.27942 1193.239 2329.1877 14
-429.20926 1203.6953 2349.5984 14
-411.50681 1192.7307 2328.1956 14
-400.46765 1200.9885 2344.3149 14
-384.78342 1195.4091 2333.4238 14
-371.4263 1196.9127 2336.3589 14
-356.69025 1193.9172 2330.5117 14
-342.8121 1193.6677 2330.0247 14
-329.84204 1196.6918 2335.9275 14
-316.31058 1197.8547 2338.1978 14
-302.91946 1199.6801 2341.7607 14
-289.41962 1201.2294 2344.7849 14
-276.20273 1204.1685 2350.522 14
-261.51376 1200.661 2343.6755 14
-247.50903 1200.0779 2342.5374 14
-233.7518 1200.6968 2343.7454 14
-220.29039 1203.0094 2348.2595 14
-206.82277 1205.5975 2353.3115 14
-194.14188 1213.4772 2368.6924 14
-254.81125 1716.7786 3351.1306 14
-166.94174 1219.7991 2381.0327 14
-153.15706 1222.3617 2386.0349 14
-139.31821 1224.9692 2391.125 14
-125.24858 1225.9082 2392.9578 14
-112.41903 1240.7737 2421.9751 14
-96.641457 1222.6913 2386.6782 14
-82.491402 1222.5306 2386.3647 14
-72.518143 1297.0067 2531.7412 14
-56.940666 1283.954 2506.2622 14
-41.083111 1253.1494 2446.1323 14
-26.873402 1266.4261 2472.0483 14
-11.878518 1230.1881 2401.312 14
2.3474333 1230.2068 2401.3484 14
16.679487 1238.0691 2416.6956 14
31.901064 1274.1979 2487.2185 14
45.281921 1237.2039 2415.0066 14
61.65242 1280.0459 2498.6338 14
77.210648 1292.6991 2523.3328 14
91.440186 1282.6102 2503.6394 14
107.35159 1295.6361 2529.0657 14
117.78889 1247.4955 2435.0957 14
137.14195 1293.9835 2525.8398 14
152.12534 1294.1515 2526.1677 14
169.31154 1311.3505 2559.74 13
184.74197 1313.2411 2563.4304 12
198.09341 1301.1885 2539.9038 12
212.52037 1297.4033 2532.5154 12
227.65306 1298.1418 2533.9568 12
245.56723 1313.6685 2564.2646 12
257.80896 1298.8091 2535.2593 12
273.29584 1301.0342 2539.6025 12
289.06702 1304.3101 2545.9971 12
304.42972 1305.5093 2548.3379 12
322.51047 1317.7003 2572.1348 12
338.58215 1320.9534 2578.4846 12
351.57294 1312.4242 2561.8359 12
365.21204 1306.9213 2551.0942 12
371.10266 1275.2294 2489.2319 12
396.69434 1311.0715 2559.1956 12
408.84436 1301.4858 2540.4844 12
416.16144 1277.7422 2494.137 12
429.65579 1273.9425 2486.7202 12
447.25671 1282.1674 2502.7749 12
471.48511 1308.2538 2553.6953 12
476.21158 1280.2877 2499.1057 12
490.60092 1279.2031 2496.9888 12
504.93607 1278.045 2494.728 12
521.28644 1281.9084 2502.2695 12
537.7226 1285.7633 2509.7942 12
578.90411 1346.9879 2629.3037 12
593.63434 1345.0702 2625.5605 12
610.53693 1348.0469 2631.3708 12
621.74438 1338.6138 2612.9578 12
635.21692 1334.3972 2604.7271 12
653.89832 1341.0634 2617.7393 12
648.73309 1299.6473 2536.8955 12
683.69562 1338.6769 2613.0808 12
699.24335 1338.8057 2613.3323 12
710.04889 1330.0459 2596.2332 12
703.05847 1289.0293 2516.1694 12
712.146 1278.5823 2495.7769 12
729.6189 1283.3091 2505.0034 12
746.89203 1287.5029 2513.1899 11
763.67712 1290.7081 2519.4463 11
778.02075 1289.743 2517.5625 11
795.73346 1294.2943 2526.4465 131081
0 0 0 0
0 0 0 0
0 0 0 0
0 0 0 0
826.64368 1228.9885 2398.9705 12952201
854.99591 1249.6558 2439.3127 12688773
874.32556 1256.6678 2453 12556928
884.51624 1250.5298 2441.0188 13148294
894.48627 1244.2825 2428.824 13411466
911.98169 1248.5354 2437.1257 13082244
929.90277 1253.2294 2446.2883 12687742
943.50311 1252.0457 2443.9778 12950915
958.62054 1252.8805 2445.6072 12885122
970.93567 1250.0825 2440.1458 13608844
985.6358 1250.3923 2440.7502 13213830
1006.3294 1258.1865 2455.9646 13148294
1021.8248 1259.3522 2458.2397 13082244
1040.7458 1264.6475 2468.5762 12819329
1054.2794 1263.3403 2466.0247 12951428
1071.2668 1266.151 2471.5112 12885892
1082.1232 1261.7373 2462.8955 12556927
1090.9526 1255.1091 2449.9575 12425084
1100.6949 1249.6914 2439.3821 12491134
1123.8329 1259.426 2458.384 11767412
1144.2554 1265.9072 2471.0352 12819843
1159.3036 1266.3542 2471.908 12951686
1177.5812 1270.2737 2479.5586 12754053
1196.9359 1275.2441 2489.2607 12425341
1214.5353 1278.2462 2495.1208 12556928
1230.1257 1279.0872 2496.7625 12556928
1246.3864 1280.5968 2499.7092 12424573
1264.2825 1283.7316 2505.8281 12425089
1272.0682 1276.6467 2491.9988 12885383
1285.6863 1275.5107 2489.7812 12688258
1307.4484 1282.3884 2503.2063 12885893
1322.3187 1282.4279 2503.2834 12688514
1332.832 1278.288 2495.2024 12491135
1344.7568 1275.5775 2489.9116 12293499
1368.1176 1283.656 2505.6807 12425342
1400.022 1299.4911 2536.5906 12688514
1408.1449 1293.1505 2524.2139 12754050
1414.4901 1285.3278 2508.9441 12754050
1424.9659 1281.3823 2501.2424 12491391
1447.0049 1287.8087 2513.7869 12819330
1473.7858 1298.2817 2534.23 12424572
1476.4852 1287.5437 2513.2693 12161400
1505.5649 1299.7946 2537.1831 12556157
1517.8271 1297.4281 2532.5635 11174250
1523.3499 1289.4032 2516.8992 12030584
1543.0531 1293.4205 2524.741 12227962
1581.8834 1313.2394 2563.427 11767411
1602.7207 1317.8861 2572.4976 11898997
1615.7283 1316.0676 2568.9478 12425343
1632.6757 1317.4623 2571.6702 12359549
1654.6718 1322.8676 2582.2212 12425342
1676.0598 1327.6921 2591.6387 13149064
1679.3785 1318.2452 2573.1985 12490878
1706.6995 1327.6398 2591.5364 12359548
1717.3556 1324.0188 2584.4683 12096377
1733.2025 1324.4283 2585.2678 11898998
1747.9883 1324.0269 2584.4841 12030327
1797.9489 1350.0444 2635.27 12096376
1787.2839 1330.4835 2597.0874 12162170
1805.6108 1332.6544 2601.325 12359549
1824.6763 1335.3289 2606.5454 12490878
1844.8582 1338.7686 2613.2598 12556671
1850.5884 1331.7511 2599.5618 12754050
1876.7777 1339.4513 2614.5923 12425085
1901.8845 1346.2589 2627.8809 12227963
1904.0537 1336.8514 2609.5176 12490878
1945.2299 1354.7621 2644.4788 12556927
1976.1014 1365.267 2664.9844 12162168
1972.6011 1352.0465 2639.1782 12359548
1977.0439 1344.4354 2624.3215 12425341
2016.8658 1360.8141 2656.2925 12425342
2032.6068 1360.8171 2656.2983 12096377
2037.1676 1353.3926 2641.8057 11964791
2054.3342 1354.3921 2643.7566 11767410
2060.0332 1347.873 2631.0317 12095606
2087.7749 1355.7664 2646.4392 11833204
2098.2703 1352.4258 2639.9185 11635825
2109.6006 1349.6691 2634.5374 12227961
2136.7129 1356.9753 2648.7991 11701618
2148.1101 1354.2677 2643.5139 11701618
2148.3684 1344.6274 2624.6963 11898998
2181.4089 1355.4963 2645.9121 11306861
2206.1492 1361.089 2656.8291 11570033
2220.4045 1360.1799 2655.0544 11175532
2231.8088 1357.5492 2649.9194 10714981
2254.3391 1361.6757 2657.9741 10648932
2280.3647 1367.8416 2670.0098 11241324
2301.0657 1370.7504 2675.6877 11241325
2323.3364 1374.5481 2683.1011 11241325
2367.3118 1391.0483 2715.3091 11307118
2382.3186 1390.4183 2714.0793 12293756
2379.8945 1379.6917 2693.1411 13281164
2405.0286 1384.9778 2703.4595 13610385
2431.1389 1390.7522 2714.7312 13216400
2440.8911 1387.1547 2707.709 12622722
2439.8379 1377.5035 2688.8699 11043689
2479.7002 1390.9281 2715.0745 11043433
2496.677 1391.4253 2716.0449 11043691
2519.7236 1395.2771 2723.5637 11570292
2565.6921 1411.692 2755.6055 11241325
2553.043 1395.8508 2724.6836 11306863
2608.2559 1417.0785 2766.1196 11109739
2615.167 1411.9623 2756.1328 11175533
2618.3936 1404.9325 2742.4109 11438962
0 0 0 0
0 0 0 0
0 0 0 0
0 0 0 0
0 0 0 0
0 0 0 0
0 0 0 0
0 0 0 0
0 0 0 0
0 0 0 0
0 0 0 0
0 0 0 0
0 0 0 0
0 0 0 0
0 0 0 0
0 0 0 0
0 0 0 0
0 0 0 0
0 0 0 0
0 0 0 0
0 0 0 0
0 0 0 0
-3367.3132 2168.4854 4184.4678 14
0 0 0 0
-3322.5442 2171.6296 4190.5347 14
-3299.0706 2172.52 4192.2529 14
-3275.1396 2173.1204 4193.4116 14
-3253.1641 2175.0374 4197.1108 14
-3228.8784 2175.4272 4197.8633 14
-3205.1975 2176.2341 4199.4199 14
-3182.834 2177.9548 4202.7407 14
-3161.0056 2180.072 4206.8262 14
-3137.7476 2181.2288 4209.0581 14
-3114.6196 2182.4956 4211.5024 14
-3091.3506 2183.6829 4213.7935 14
-3067.6709 2184.5969 4215.5576 14
-3043.9692 2185.5105 4217.3203 14
-3020.6511 2186.7168 4219.6479 14
-1906.4702 1391.6532 2685.4355 14
-1939.1707 1427.4351 2754.4829 14
-2001.241 1485.627 2866.7742 14
-2923.6716 2188.9724 4224.001 14
-2898.752 2189.0513 4224.1528 14
-2873.4075 2188.8079 4223.6831 14
-2848.1597 2188.6345 4223.3486 14
-2822.7551 2188.3364 4222.7734 14
-2797.2168 2187.9282 4221.9858 14
-2771.3032 2187.2168 4220.6128 14
-2745.2097 2186.3491 4218.9385 14
-2718.502 2184.9714 4216.2803 14
-2691.2305 2183.1111 4212.6904 14
-2663.4141 2180.7698 4208.1724 14
-2635.2412 2178.0896 4203.0005 14
-2606.4055 2174.8054 4196.6631 14
-2578.207 2171.9944 4191.2388 14
-2549.4565 2168.6592 4184.8032 14
-2520.5166 2165.0959 4177.9272 14
-2491.5305 2161.4224 4170.8379 14
-2460.894 2156.2285 4160.8159 14
-2430.7866 2151.3982 4151.4946 11
-2397.8616 2143.9497 4137.1216 12
-2366.4097 2137.6777 4125.019 12
-2335.3152 2131.6016 4113.2939 12
-2304.3206 2125.4895 4101.4995 12
-2273.5891 2119.4922 4089.927 12
-2242.9797 2113.4807 4078.3264 12
-2212.5918 2107.5493 4066.8811 12
-2182.522 2101.7939 4055.7747 12
-2153.0039 2096.4475 4045.4578 12
-2124.3408 2091.8225 4036.533 12
-2096.5781 2087.9888 4029.1353 12
-2068.3506 2083.5986 4020.6638 12
-2040.572 2079.5635 4012.8774 11
-2013.0339 2075.6816 4005.3867 14
-1985.0865 2071.28 3996.8928 14
-1955.1307 2064.6509 3984.1011 14
-1927.757 2060.6199 3976.3223 14
-1902.8126 2059.1184 3973.4248 14
-1261.6738 1382.4152 2667.6091 14
-1247.5653 1384.2959 2671.2383 14
-1234.1014 1386.9493 2676.3586 14
-1796.3367 2045.0944 3946.3633 14
-1771.2042 2043.0718 3942.4604 14
-1744.6755 2039.3634 3935.3042 14
-1718.5182 2035.9944 3928.8032 14
-1691.6543 2031.6841 3920.4858 14
-1664.8129 2027.2815 3911.9902 14
-1638.1349 2022.9563 3903.6438 14
-1610.6176 2017.4558 3893.0298 14
-1582.3864 2010.8883 3880.3567 14
-1557.6738 2008.6647 3876.0657 14
-1531.3035 2004.2045 3867.459 14
-1505.5239 2000.3938 3860.106 14
-1479.4868 1996.1184 3851.8557 14
-1454.2302 1992.7784 3845.4106 14
-1429.5507 1990.1355 3840.3105 14
-1403.0638 1984.8503 3830.1121 14
-1378.0248 1981.4735 3823.5957 14
-1352.5895 1977.4042 3815.7434 14
-1327.674 1973.9692 3809.115 14
-1302.9683 1970.7332 3802.8704 14
-1276.6506 1964.9022 3791.6184 14
-769.78998 1206.0087 2327.2024 14
-754.86951 1204.2004 2323.7129 14
-1202.7589 1954.3331 3771.2236 14
-725.59967 1201.3239 2318.1621 14
-716.09546 1208.4607 2331.9338 14
-710.64917 1222.8612 2359.7222 14
-693.79962 1217.8235 2350.001 14
-672.00018 1203.7129 2322.7722 14
-655.19159 1198.1392 2312.0166 14
-643.38635 1201.6725 2318.8347 14
-627.19232 1196.9838 2309.7871 14
-611.27478 1192.6254 2301.377 14
-595.68988 1188.7321 2293.864 14
-583.29089 1191.163 2298.5549 14
-569.44708 1190.6891 2297.6404 14
-552.74786 1184.0751 2284.8777 14
-541.76764 1189.6877 2295.7083 14
-532.3075 1199.0134 2313.7036 14
-511.99451 1183.74 2284.231 14
-501.11807 1190.0471 2296.4016 14
-492.1272 1201.309 2318.1333 14
-475.58975 1194.267 2304.5447 14
-466.08664 1204.995 2325.2463 14
-447.45676 1192.062 2300.2898 14
-435.54343 1196.772 2309.3784 14
-428.56381 1215.7838 2346.0649 14
-405.97986 1190.3187 2296.9258 14
-393.16721 1192.73 2301.5786 14
-379.72623 1193.3398 2302.7556 14
-365.96591 1192.9543 2302.0117 14
-354.81671 1201.38 2318.2705 14
-341.32901 1202.2474 2319.9443 14
-326.50266 1198.2748 2312.2783 14
-312.97665 1198.9353 2313.553 14
-298.91418 1197.5073 2310.7974 14
-285.95374 1200.5691 2316.7056 14
-273.04987 1204.1888 2323.6907 14
-258.31058 1199.6689 2314.9688 14
-244.54245 1199.4054 2314.4602 14
-231.37688 1202.2415 2319.9329 14
-218.38142 1206.3756 2327.9102 14
-204.68271 1206.92 2328.9609 14
-191.68141 1211.953 2338.6729 14
-177.75447 1211.4615 2337.7244 14
-163.54655 1208.8102 2332.6084 14
-150.70195 1216.6761 2347.7869 14
-137.29153 1221.109 2356.3411 14
-124.01639 1227.8848 2369.416 14
-113.56268 1267.8906 2446.6143 14
-95.797646 1226.0311 2365.8391 14
-81.944176 1228.4642 2370.5342 14
-70.853355 1281.8859 2473.6204 14
-53.629463 1223.2739 2360.5186 14
-39.963573 1233.0969 2379.4736 14
-27.006632 1287.4222 2484.304 14
-12.131325 1270.8986 2452.4185 14
2.4292767 1287.8201 2485.0715 14
16.344471 1227.2312 2368.1548 14
31.719141 1281.5823 2473.0344 14
46.619907 1288.4905 2486.365 14
61.009518 1281.3458 2472.5784 14
77.55201 1313.4292 2534.4888 14
92.562012 1313.36 2534.3552 14
105.67453 1290.1442 2489.5564 14
120.77485 1293.9114 2496.8257 14
136.80949 1305.7739 2519.7166 14
190.83955 1642.2727 3169.0493 14
168.19139 1317.7388 2542.8049 13
228.06831 1639.9749 3164.615 12
196.95847 1308.6942 2525.3518 12
219.30472 1354.3029 2613.3616 12
226.40132 1305.9332 2520.0239 12
247.18219 1337.5989 2581.1282 12
257.08066 1310.1169 2528.0972 12
271.13422 1305.6698 2519.5156 12
292.39059 1334.563 2575.27 12
307.11786 1332.2671 2570.8398 12
322.70078 1333.7247 2573.6526 12
337.37006 1331.4452 2569.2537 12
351.60812 1327.734 2562.0925 12
365.97949 1324.8127 2556.4551 12
381.82462 1327.2462 2561.1511 12
395.96451 1323.7928 2554.4873 12
413.30493 1330.9 2568.2017 12
411.05878 1276.6702 2463.5559 12
447.26599 1341.493 2588.6428 12
455.95349 1322.2141 2551.4407 12
468.94165 1316.2435 2539.9194 12
483.71039 1315.4866 2538.4587 12
486.51828 1283.2277 2476.2097 12
500.6908 1281.9548 2473.7537 12
517.8302 1288.1349 2485.679 12
530.20148 1282.4401 2474.6897 12
565.3028 1330.551 2567.5283 12
587.71552 1347.0585 2599.3823 12
574.70013 1283.594 2476.9167 12
590.22137 1285.4399 2480.4785 12
602.81116 1280.9664 2471.8462 12
616.63617 1279.2678 2468.5684 12
630.49738 1277.7212 2465.584 12
647.25415 1281.9797 2473.8018 12
661.37061 1280.936 2471.7876 12
675.94464 1280.8046 2471.5339 12
696.42609 1291.6349 2492.4329 12
708.39197 1286.5499 2482.6206 12
723.65277 1287.5343 2484.52 12
740.61444 1291.4451 2492.0667 12
756.66168 1293.6399 2496.3018 12
772.93683 1296.1324 2501.1116 12
787.68176 1296.0137 2500.8823 131081
0 0 0 0
0 0 0 0
0 0 0 0
0 0 0 0
821.9613 1236.1588 2385.3821 12821387
843.74304 1247.4694 2407.208 12688774
860.36615 1250.9041 2413.8357 12622721
872.11829 1247.26 2406.804 13148807
891.23682 1254.0989 2420.0007 13280138
901.48645 1248.439 2409.0789 13213831
919.53241 1253.584 2419.0071 13082500
931.396 1250.2722 2412.6165 12292728
947.07159 1252.1003 2416.144 12358778
956.05359 1245.1561 2402.7441 13411466
970.17267 1245.0082 2402.4585 12621950
998.19897 1262.4534 2436.1221 12622207
1009.0563 1257.9967 2427.5222 12754049
1019.7044 1253.408 2418.6675 12688256
1043.1606 1264.4718 2440.0171 13017220
1055.7129 1262.1967 2435.6267 12951686
1060.7526 1251.1222 2414.2566 12491135
1081.6644 1258.8137 2429.0989 12557185
1093.4465 1255.818 2423.3179 12557185
1111.1438 1259.6055 2430.6265 12294013
1117.0358 1250.0845 2412.2542 12754309
1146.1787 1266.4958 2443.9226 12819846
1160.7727 1266.6218 2444.166 12754053
1180.0803 1271.8251 2454.2065 12293502
1200.817 1278.4231 2466.9385 12556930
1213.6847 1276.5854 2463.3923 11964020
1217.2178 1265.0898 2441.2095 12227192
1240.6368 1274.2896 2458.9622 12885122
1251.8975 1270.9324 2452.4839 13016452
1273.037 1277.5664 2465.2854 12753280
1285.7642 1275.7035 2461.6904 13017478
1311.1265 1286.278 2482.0957 13083015
1317.7694 1278.4568 2467.0034 12425343
1340.8723 1286.6011 2482.7192 12556673
1349.3165 1280.6558 2471.2468 13148553
1359.1211 1276.1156 2462.4856 12819845
1390.4658 1291.6814 2492.5227 12622465
1404.0363 1290.5823 2490.4016 12754306
1419.3629 1291.1035 2491.4075 12622721
1434.259 1291.2264 2491.6445 12688514
1451.1158 1293.0939 2495.248 12951429
1467.0739 1294.1309 2497.2493 11897975
1473.4448 1286.7747 2483.0542 12029816
1477.2438 1277.34 2464.8484 11964537
1507.4004 1290.6577 2490.5474 11569779
1521.7683 1290.33 2489.9148 12556417
1539.6938 1292.996 2495.0593 12227452
1572.8143 1308.2504 2524.4951 12359038
1604.4307 1321.9779 2550.9849 11964280
1600.4734 1306.412 2520.9478 12885638
1625.0697 1314.2253 2536.0251 12622467
1650.0153 1322.1758 2551.3667 12359039
1656.9546 1315.684 2538.8398 12754050
1672.5139 1316.092 2539.6272 12425342
1685.9707 1314.8533 2537.2368 12622465
1708.6691 1320.7799 2548.6731 11833204
1730.399 1325.8607 2558.4775 11701362
1732.5748 1316.0007 2539.4509 11701618
1760.1948 1325.4706 2557.7246 12227963
1790.8273 1337.0278 2580.0264 12556928
1798.452 1331.3572 2569.084 11635826
1814.3763 1331.8745 2570.082 11898998
1837.1459 1337.3661 2580.679 12622464
1848.0449 1334.1971 2574.564 13017478
1877.3473 1344.2574 2593.9773 12754050
1884.6741 1338.5469 2582.9578 12359292
1913.5464 1348.1072 2601.406 12425341
1933.6388 1351.3788 2607.719 12227706
1955.0817 1355.5347 2615.7385 12227963
1952.8036 1343.308 2592.145 12425341
1958.8925 1336.9827 2579.9392 12030583
1981.4208 1341.8887 2589.4062 12490878
1997.5708 1342.4329 2590.4563 12292985
2027.6549 1352.2616 2609.4226 12029813
2053.5583 1359.1744 2622.7622 12226935
2045.3987 1343.6078 2592.7236 11833203
2059.4141 1342.7312 2591.032 11043688
2101.2317 1359.8605 2624.0859 11701618
2113.0571 1357.4705 2619.4739 11964790
2133.6304 1360.6941 2625.6946 11570031
2140.7849 1355.3755 2615.4314 11964791
2152.5803 1353.0504 2610.9448 11701618
2193.5774 1368.9829 2641.6892 11241068
2199.1077 1362.712 2629.5884 11043688
2214.9932 1362.9011 2629.9534 10714724
2235.2434 1365.7545 2635.4595 10846309
2248.1187 1364.0931 2632.2537 11241325
2276.8906 1372.0341 2647.5769 11767669
2301.6448 1377.4618 2658.0508 11504240
2317.0676 1377.2692 2657.679 11044459
2342.646 1383.0748 2668.8821 11307375
2356.6135 1381.9938 2666.7959 12228477
2370.791 1381.0494 2664.9736 13215371
2397.6519 1387.4569 2677.3381 13413005
2416.0811 1388.9332 2680.1868 13938837
2429.3765 1387.4583 2677.3406 13083272
2449.6296 1389.9503 2682.1494 12359805
2456.4658 1384.8464 2672.3005 12227962
2465.9016 1381.264 2665.3877 11767668
2530.2915 1408.3136 2717.5845 11570291
2533.7188 1401.3051 2704.0603 10649190
2557.3142 1405.4686 2712.0947 10057052
2529.2017 1381.3396 2665.5337 11372913
2577.8933 1399.1969 2699.9924 11175536
0 0 0 0
0 0 0 0
0 0 0 0
0 0 0 0
0 0 0 0
0 0 0 0
0 0 0 0
0 0 0 0
0 0 0 0
0 0 0 0
0 0 0 0
0 0 0 0
0 0 0 0
0 0 0 0
0 0 0 0
0 0 0 0
0 0 0 0
0 0 0 0
0 0 0 0
0 0 0 0
0 0 0 0
-3338.4106 2158.5586 4118.2334 14
-3316.6211 2160.2573 4121.4741 14
0 0 0 0
-3273.4941 2164.0295 4128.6709 14
-3252.3369 2166.2288 4132.8667 14
-3231.2903 2168.5356 4137.2681 14
-3212.2017 2172.2019 4144.2627 14
-3190.324 2174.0239 4147.7388 14
-3167.5576 2175.2639 4150.1045 14
-3143.7351 2175.7927 4151.1133 14
-3122.7129 2178.2827 4155.8643 14
-3099.4548 2179.2405 4157.6914 14
-3076.9839 2180.7715 4160.6123 14
-3054.2334 2182.1274 4163.1992 14
-3031.1287 2183.2505 4165.3418 14
-3007.991 2184.3677 4167.4736 14
-2985.2151 2185.7686 4170.146 14
-2961.886 2186.7842 4172.084 14
-2938.208 2187.5576 4173.5591 14
-2913.7197 2187.7354 4173.8984 14
-2889.6418 2188.2271 4174.8364 14
-2864.8369 2188.1716 4174.731 14
-2840.7656 2188.6807 4175.7021 14
-2814.5657 2187.5444 4173.5342 14
-2789.8401 2187.5439 4173.5332 14
-2764.811 2187.3035 4173.0742 14
-2739.5583 2186.8799 4172.2666 14
-2714.0532 2186.2454 4171.0557 14
-2687.9187 2185.0876 4168.8467 14
-2660.978 2183.2468 4165.335 14
-2633.396 2180.8406 4160.7441 14
-2605.8569 2178.4248 4156.1353 14
-2577.6069 2175.363 4150.2935 14
-2549.4221 2172.2974 4144.4448 13
-2519.4988 2167.6768 4135.6294 14
-2488.9688 2162.438 4125.6348 14
-2458.864 2157.4688 4116.1538 14
-1791.6863 1587.817 3029.3367 14
-1768.8326 1583.4244 3020.9561 11
-2366.2078 2139.8333 4082.5078 12
-2332.3979 2131.04 4065.7317 12
-1721.6897 1589.469 3032.4885 12
-1706.1365 1591.7191 3036.7812 12
-1689.1088 1592.627 3038.5134 12
-1671.5406 1593.0394 3039.3003 12
-1653.7318 1593.2289 3039.6616 12
-1638.7115 1596.1385 3045.2131 12
-1623.5179 1598.9425 3050.5625 12
-1608.7192 1602.2028 3056.7825 12
-1590.7123 1602.3054 3056.9788 12
-1575.0797 1604.8301 3061.7952 12
-1558.8303 1606.7777 3065.511 12
-1552.163 1618.764 3088.3794 14
-1538.8079 1623.9788 3098.3284 14
-1530.692 1634.9154 3119.1938 14
-1518.4607 1641.6698 3132.0803 14
-1506.2583 1648.6229 3145.3459 14
-1655.3192 1834.4663 3499.9097 14
-1476.1621 1656.6711 3160.7009 14
-1802.0613 2048.4058 3908.0764 14
-1777.0691 2046.2867 3904.0342 14
-1750.3892 2042.1436 3896.1292 14
-1724.2133 2038.4851 3889.1494 14
-1698.4623 2035.2371 3882.9524 14
-1672.1112 2031.1704 3875.1938 14
-1645.5618 2026.7465 3866.7537 14
-1618.728 2021.8423 3857.3975 14
-1591.5336 2016.3412 3846.9019 14
-1565.4866 2012.1545 3838.9146 14
-1539.8439 2008.3721 3831.698 14
-1514.3987 2004.738 3824.7644 14
-1489.2496 2001.3911 3818.3794 14
-1464.0316 1997.8472 3811.6179 14
-1439.2098 1994.7415 3805.6924 14
-1414.9813 1992.3719 3801.1719 14
-1390.2189 1989.1619 3795.0476 14
-1364.0571 1983.8114 3784.8394 14
-1339.0364 1979.9691 3777.509 14
-1314.3462 1976.4933 3770.8774 14
-1290.8152 1974.6707 3767.4001 14
-1264.5186 1968.4785 3755.5867 14
-1238.988 1963.2786 3745.6658 14
-1214.2335 1959.1411 3737.772 14
-1189.5181 1954.9139 3729.7073 14
-1164.8646 1950.6309 3721.5356 14
-1140.3593 1946.4351 3713.5305 14
-1115.896 1942.1476 3705.3506 14
-1092.6503 1939.8496 3700.9663 14
-1067.9032 1934.7375 3691.2134 14
-1042.8998 1928.9374 3680.1475 14
-1018.2717 1923.5986 3669.9619 14
-994.10144 1918.9109 3661.0183 14
-970.27484 1914.6921 3652.9695 14
-946.19781 1909.7754 3643.5889 14
-922.1272 1904.6425 3633.7959 14
-898.16443 1899.4919 3623.9695 14
-874.2984 1894.299 3614.062 14
-850.63019 1889.2844 3604.4951 14
-827.21649 1884.5916 3595.5417 14
-803.65063 1879.2949 3585.4365 14
-779.87646 1873.2102 3573.8274 14
-756.44586 1867.6342 3563.1895 14
-733.1424 1862.0609 3552.5564 14
-709.71228 1855.8271 3540.6631 14
-686.26605 1849.17 3527.9624 14
-663.0083 1842.6188 3515.4634 14
-640.15057 1836.7904 3504.3438 14
-617.66138 1831.6639 3494.5632 14
-595.4397 1827.0031 3485.6707 14
-573.34473 1822.4098 3476.9072 14
-551.2063 1817.3308 3467.2175 14
-528.50507 1809.9315 3453.1006 14
-506.77887 1805.4097 3444.4734 14
-485.18433 1800.9969 3436.0549 14
-463.55719 1796.0719 3426.6584 14
-441.82175 1790.2567 3415.564 14
-420.19241 1784.334 3404.2639 14
-398.50702 1777.5638 3391.3477 14
-376.68732 1769.4442 3375.8562 14
-355.1001 1761.567 3360.8276 14
-335.13065 1761.2562 3360.2346 14
-313.03381 1749.0199 3336.8894 14
-202.08994 1205.2542 2299.4595 14
-189.36061 1210.9663 2310.3572 14
-175.75612 1211.5355 2311.4431 14
-161.56482 1207.8142 2304.3435 14
-149.01225 1216.7872 2321.4629 14
-190.65186 1715.0956 3272.1665 14
-171.26678 1715.0956 3272.1665 14
-151.35074 1709.0991 3260.7263 14
-94.237244 1219.8484 2327.3032 14
-80.278389 1217.2498 2322.3452 14
-66.506058 1216.9894 2321.8484 14
-53.643269 1237.5767 2361.1262 14
-39.195587 1223.226 2333.7471 14
-25.389721 1224.1797 2335.5667 14
-11.552526 1224.098 2335.4106 14
2.2845445 1224.939 2337.0151 14
16.191959 1229.6785 2346.0574 14
30.11385 1230.6312 2347.8752 14
43.881119 1226.6597 2340.2981 14
57.759686 1226.9594 2340.8699 14
71.771744 1229.4298 2345.583 14
85.999756 1234.198 2354.6802 14
99.95845 1234.3096 2354.8931 14
114.15711 1236.9941 2360.0146 14
135.05075 1303.7231 2487.3247 14
150.99109 1314.2102 2507.3325 14
165.87057 1314.4121 2507.7178 13
225.89806 1642.9386 3134.5012 11
195.46964 1313.6494 2506.2625 12
211.12646 1318.7034 2515.9048 12
229.17677 1337.0547 2550.9167 12
239.54521 1311.0909 2501.3813 12
256.58554 1322.5419 2523.228 12
263.58273 1283.8154 2449.3435 12
281.16095 1297.9778 2476.3633 12
287.28754 1260.4907 2404.843 12
312.05103 1304.453 2488.717 12
333.16382 1329.8761 2537.2209 12
329.80817 1259.6509 2403.2407 12
345.17661 1263.7922 2411.1418 12
359.85443 1265.1763 2413.7825 12
374.76544 1267.243 2417.7256 12
388.21805 1264.4077 2412.3162 12
408.80548 1284.1865 2450.0513 12
437.00961 1325.715 2529.282 12
450.1799 1320.3951 2519.1326 12
451.41748 1281.5406 2445.0034 12
465.59152 1280.686 2443.3728 12
479.49518 1279.1615 2440.4644 12
498.21082 1290.1876 2461.5007 12
512.60413 1289.7118 2460.5928 12
527.98334 1291.674 2464.3364 12
542.70026 1291.9541 2464.8708 12
551.93927 1279.5203 2441.1489 12
567.79517 1282.6694 2447.157 12
578.14142 1273.525 2429.7107 12
593.39868 1275.3801 2433.25 12
607.76239 1275.2722 2433.0442 12
621.92224 1274.7513 2432.0505 12
639.38916 1280.8793 2443.7417 12
653.8064 1280.7617 2443.5173 12
669.87811 1283.8201 2449.3523 12
695.39355 1304.4637 2488.7375 12
704.74158 1294.5522 2469.8276 12
719.2843 1294.3917 2469.5215 12
737.03802 1299.901 2480.0325 12
750.75171 1298.2087 2476.804 12
761.85999 1292.1625 2465.2686 12
814.96637 1356.2355 2587.5107 131082
0 0 0 0
0 0 0 0
0 0 0 0
0 0 0 0
0 0 0 0
834.92395 1248.5422 2382.0471 12558217
847.72455 1246.6141 2378.3687 13083531
862.20728 1247.1823 2379.4524 13017478
877.77716 1249.2793 2383.4531 12754050
885.27667 1240.0059 2365.7607 13017479
904.30823 1246.9226 2378.957 12885891
917.46075 1245.645 2376.5195 12688513
929.07947 1242.3551 2370.2429 12820099
940.64874 1239.098 2364.0288 13016708
958.79559 1244.4739 2374.2852 12556157
977.50983 1250.4203 2385.6299 12424314
986.53717 1243.9821 2373.3469 12556927
1002.7984 1246.7185 2378.5676 12424828
1015.8578 1245.4536 2376.1543 12820099
1034.729 1251.2511 2387.2151 12885635
1051.5461 1254.442 2393.303 12754306
1073.8169 1263.9673 2411.4758 12294013
1079.4271 1253.8889 2392.2478 12622721
1097.2784 1258.1074 2400.2959 12820356
1107.8198 1253.9437 2392.3523 12556928
1121.5381 1253.4357 2391.3831 12359548
1147.2101 1266.1331 2415.6079 13149064
1165.772 1270.7673 2424.4495 12951430
1172.4215 1262.4615 2408.603 13083015
1194.6418 1270.9204 2424.7415 12359035
1205.1206 1266.8356 2416.948 11964020
1215.3331 1262.5699 2408.8098 12555902
1269.3109 1303.3419 2486.5972 12621951
1248.9932 1267.7662 2418.7236 12358778
1256.4562 1260.876 2405.5781 12030584
1275.5962 1265.7269 2414.833 12951686
1288.974 1264.8162 2413.0955 12425342
1314.139 1275.3647 2433.2207 12688260
1331.313 1278.0132 2438.2737 12819846
1345.8099 1278.0627 2438.3682 12951432
1364.8611 1282.3903 2446.6243 12359295
1383.4884 1286.2327 2453.9551 12293501
1393.4927 1282.0616 2445.9973 13016968
1412.4264 1286.1073 2453.7161 13083276
1423.4423 1282.9343 2447.6624 12754053
1436.9352 1282.0353 2445.9473 12556930
1448.3389 1279.3088 2440.7456 11766900
1460.2361 1277.068 2436.4702 11305581
1490.7574 1290.9996 2463.0498 11964280
1505.1746 1290.8499 2462.7642 11503729
1516.2705 1287.8821 2457.1021 11109227
1539.2294 1294.951 2470.5886 12161916
1561.5204 1301.3302 2482.7593 12490625
1578.6802 1303.3541 2486.6206 12556673
1603.91 1311.9415 2503.0042 12293245
1623.1733 1315.536 2509.8618 12293502
1642.4844 1319.1034 2516.668 12227709
1649.2175 1312.5962 2504.2532 11964537
1664.4325 1312.8953 2504.8237 13215116
1670.2769 1305.8629 2491.407 11701878
1698.1713 1316.0421 2510.8274 11833464
1712.0137 1315.2489 2509.3142 12031099
1717.3182 1307.9668 2495.4209 11833464
1747.3556 1319.4855 2517.397 12491650
1771.3733 1326.3021 2530.4023 12228221
1779.3743 1321.1125 2520.5012 12162427
1817.6638 1338.3104 2553.3123 11569776
1827.0358 1334.1084 2545.2954 11569776
1852.9297 1341.9409 2560.2388 11833204
1865.3073 1339.9368 2556.4153 12359292
1885.5016 1343.5349 2563.28 12491135
1899.4119 1342.6335 2561.5603 12622721
1909.714 1339.2162 2555.0403 12162170
1922.5431 1337.6107 2551.9773 11767158
1932.637 1334.1421 2545.3599 12161913
1947.7164 1334.1421 2545.3599 12359292
1973.2709 1341.2625 2558.9443 11898741
1995.0565 1345.7317 2567.4712 12030327
2012.6136 1347.3027 2570.4685 12293499
2031.5983 1349.7986 2575.2302 12162169
2053.7085 1354.3186 2583.8538 11569776
2068.0195 1353.6665 2582.6096 10846310
2084.8123 1354.6364 2584.46 11832948
2104.2651 1357.308 2589.5571 11372653
2120.6465 1357.9742 2590.8281 11307118
2118.9661 1347.1477 2570.1729 11636339
2153.615 1359.4077 2593.563 11175532
2161.9602 1355.0081 2585.1692 11570033
2187.9556 1361.655 2597.8506 11109738
2189.7959 1353.2811 2581.8745 11175534
2207.1499 1354.5444 2584.2847 11110252
2237.2219 1363.5416 2601.4502 11570289
2254.8101 1364.859 2603.9634 11373167
2284.8972 1373.6731 2620.7795 11833717
2313.8367 1381.6827 2636.0608 11505009
2327.2476 1380.3744 2633.5647 11504753
2340.9912 1379.2797 2631.4761 12689283
2358.6436 1380.4869 2633.7795 13215628
2370.2241 1378.1482 2629.3174 13413007
2378.1665 1373.7383 2620.9038 13610129
2401.7793 1378.3787 2629.7571 13741973
2400.6423 1368.8472 2611.5723 13149066
2438.4128 1381.4806 2635.675 12162426
2427.2031 1366.3801 2606.8655 12359806
2428.7842 1358.6256 2592.071 12754309
2466.3745 1370.985 2615.6509 11702134
2512.1001 1387.6841 2647.5105 11176047
2535.8423 1392.1074 2655.9497 10320484
0 0 0 0
0 0 0 0
0 0 0 0
0 0 0 0
0 0 0 0
0 0 0 0
0 0 0 0
0 0 0 0
0 0 0 0
0 0 0 0
0 0 0 0
0 0 0 0
0 0 0 0
0 0 0 0
0 0 0 0
0 0 0 0
0 0 0 0
0 0 0 0
0 0 0 0
0 0 0 0
0 0 0 0
0 0 0 0
0 0 0 0
-3242.0146 2151.3684 4058.6418 14
-3221.812 2153.9365 4063.4868 14
-3199.8728 2155.3738 4066.1985 14
-3179.821 2158.114 4071.3677 14
-3161.2556 2161.9126 4078.5339 14
-3141.3499 2164.8457 4084.0676 14
-3120.561 2167.2114 4088.5303 14
-3100.4502 2170.0884 4093.958 14
-3082.7117 2174.6843 4102.6284 14
-3059.4304 2175.4121 4104.0015 14
-3036.6111 2176.4829 4106.0215 14
-3013.6145 2177.4426 4107.832 14
-2990.397 2178.2571 4109.3687 14
-2966.9392 2178.9087 4110.5977 14
-2944.2842 2180.1653 4112.9683 14
-2919.3657 2179.7529 4112.1904 14
-2895.96 2180.4727 4113.5483 14
-2873.7224 2182.0913 4116.6021 14
-2850.1516 2182.717 4117.7822 14
-2827.2266 2183.8521 4119.9238 14
-2803.6182 2184.4746 4121.0981 14
-2779.749 2184.9031 4121.9067 14
-2755.6882 2185.1873 4122.4429 14
-2731.3533 2185.2573 4122.5747 14
-2706.6125 2185.0007 4122.0908 14
-2681.0879 2184.1011 4120.3936 14
-2655.438 2183.0818 4118.4707 14
-2628.03 2180.585 4113.7603 14
-2600.2905 2177.7639 4108.438 14
-2572.8513 2175.1431 4103.4937 14
-2545.4692 2172.5212 4098.5474 14
-2517.3135 2169.1819 4092.2478 12
-2489.5864 2166.1509 4086.5298 11
-2462.5081 2163.6301 4081.7742 11
-2434.5283 2160.2598 4075.416 12
-2402.7932 2153.4561 4062.5806 12
-1881.2593 1703.1008 3212.9673 12
-1863.186 1703.9796 3214.6255 12
-1978.0302 1827.6919 3448.0134 12
-1967.0868 1836.546 3464.717 12
-1810.7488 1708.4097 3222.9827 12
-1792.5592 1709.2719 3224.6091 12
-1929.3108 1859.4857 3507.9939 12
-1759.8347 1714.6129 3234.6853 12
-1743.6395 1717.5363 3240.2004 12
-1723.637 1716.7328 3238.6846 12
-1706.7128 1719.0115 3242.9834 12
-1687.8746 1719.3925 3243.7021 12
-1670.2123 1720.9938 3246.7234 12
-1651.2844 1721.3134 3247.3259 12
-1637.3234 1726.8788 3257.8254 14
-1568.6827 1674.2188 3158.4802 14
-1512.9415 1634.2208 3083.0225 14
-1497.8267 1637.6644 3089.519 14
-1485.3867 1644.1542 3101.7622 14
-1556.5764 1744.5345 3291.1338 14
-1466.0341 1663.901 3139.0151 14
-1527.2197 1755.6141 3312.0356 14
-1436.5498 1672.8771 3155.9492 14
-1423.88 1679.988 3169.364 14
-1403.9551 1678.6141 3166.7725 14
-1394.1636 1689.4833 3187.2773 14
-1384.6039 1700.9355 3208.8826 14
-1429.7384 1780.832 3359.6104 14
-1419.0577 1792.4813 3381.5872 14
-1576.1693 2019.4458 3809.7646 14
-1550.1245 2014.929 3801.2434 14
-1524.207 2010.4469 3792.7878 14
-1498.823 2006.5447 3785.4263 14
-1474.0525 2003.358 3779.4146 14
-1449.0383 1999.7367 3772.5828 14
-1424.2537 1996.3237 3766.144 14
-1399.8983 1993.4133 3760.6533 14
-1374.9031 1989.4828 3753.2383 14
-1349.6233 1985.0048 3744.7903 14
-1325.1589 1981.5959 3738.3596 14
-1300.2439 1977.3864 3730.418 14
-1275.608 1973.4629 3723.0161 14
-1251.1277 1969.6464 3715.8162 14
-1226.24 1965.0402 3707.1262 14
-1200.9227 1959.5652 3696.7976 14
-1176.2029 1954.8795 3687.958 14
-1150.8687 1948.9761 3676.8208 14
-1126.4246 1944.3815 3668.1528 14
-1102.4202 1940.3801 3660.6042 14
-1078.7333 1936.7881 3653.8276 14
-1055.0994 1933.1461 3646.957 14
-1031.5455 1929.5015 3640.0811 14
-1008.2106 1926.1196 3633.7012 14
-984.60852 1922.0684 3626.0583 14
-961.15027 1918.1235 3618.6165 14
-937.06366 1912.7162 3608.4153 14
-912.95721 1907.0153 3597.6602 14
-889.36707 1902.1455 3588.4734 14
-865.85101 1897.2001 3579.1433 14
-842.29083 1891.9069 3569.1575 14
-818.58026 1885.9946 3558.0039 14
-793.11737 1875.6257 3538.4426 14
-770.34882 1871.239 3530.1667 14
-746.73138 1864.4877 3517.4302 14
-724.01031 1859.6509 3508.3054 14
-701.28094 1854.5066 3498.6003 14
-678.77893 1849.6682 3489.4727 14
-656.70892 1845.7402 3482.0625 14
-634.66272 1841.6266 3474.3018 14
-612.57739 1837.1198 3465.7993 14
-590.39972 1832.0137 3456.1667 14
-568.33087 1826.8906 3446.502 14
-546.40039 1821.8473 3436.9873 14
-524.74054 1817.3506 3428.5042 14
-503.0759 1812.4745 3419.3052 14
-481.45502 1807.3535 3409.6443 14
-459.81299 1801.7014 3398.9812 14
-438.1088 1795.2766 3386.8606 14
-416.38821 1788.1646 3373.4436 14
-395.08798 1782.2321 3362.2515 14
-373.9151 1776.274 3351.0117 14
-352.87076 1770.293 3339.7283 14
-332.44614 1766.8953 3333.3181 14
-311.39978 1759.5552 3319.4707 14
-291.01917 1755.2408 3311.3315 14
-270.71542 1750.7997 3302.9534 14
-250.29147 1744.829 3291.6892 14
-229.96674 1738.5991 3279.9365 14
-209.28616 1728.281 3260.4707 14
-189.07846 1720.1665 3245.1624 14
-168.97569 1711.2777 3228.3936 14
-149.22618 1704.1542 3214.9546 14
-92.913849 1216.3116 2294.6204 14
-79.34082 1216.631 2295.2227 14
-65.818336 1218.0178 2297.8389 14
-52.121777 1216.0662 2294.1572 14
-40.964157 1292.8694 2439.0496 14
-26.199417 1277.4973 2410.0493 14
-11.436028 1225.45 2311.8601 14
2.2976391 1245.8845 2350.4106 14
16.396206 1259.2637 2375.6509 14
30.53562 1261.9714 2380.7593 14
46.102276 1303.3164 2458.7583 14
57.095287 1226.5542 2313.9434 14
70.877693 1227.8376 2316.3645 14
84.695938 1229.2249 2318.9814 14
98.561272 1230.8127 2321.9771 14
112.86304 1236.7943 2333.2617 14
133.4537 1302.8672 2457.9109 14
149.27264 1313.938 2478.7964 14
205.14795 1644.033 3101.5334 131343
223.32301 1642.5684 3098.7705 12
194.7321 1323.4843 2496.8057 12
209.54182 1323.5985 2497.0212 12
219.24467 1293.5665 2440.3647 12
240.07733 1328.855 2506.9377 12
255.92828 1334.0641 2516.7649 12
265.56207 1308.0756 2467.7366 12
280.2308 1308.3058 2468.1709 12
295.19156 1309.809 2471.0066 12
311.54022 1317.0374 2484.6433 12
312.49304 1261.4639 2379.8018 12
329.34229 1272.0887 2399.8459 12
342.79135 1269.2445 2394.4802 12
355.19138 1262.8965 2382.5044 12
370.51892 1267.0447 2390.3301 12
388.14255 1278.4502 2411.8472 12
399.90027 1270.4109 2396.6807 12
429.44504 1317.4917 2485.5005 12
429.52881 1274.064 2403.5723 12
441.44873 1267.405 2391.01 12
476.33301 1325.0414 2499.7432 12
469.56888 1266.8395 2389.9431 12
484.86655 1269.8228 2395.571 12
499.82599 1271.7756 2399.2554 12
536.59088 1327.569 2504.5117 12
524.66461 1263.1355 2382.9553 12
545.18585 1278.1493 2411.2795 12
569.50818 1301.0806 2454.54 12
570.00647 1269.7971 2395.5227 12
586.27484 1274.3112 2404.0386 12
598.39752 1269.8136 2395.554 12
611.82587 1268.2311 2392.5684 12
628.66882 1273.6381 2402.7688 12
640.68787 1269.2489 2394.4885 12
664.11017 1287.1514 2428.2622 12
704.27814 1336.0621 2520.5344 12
714.42218 1327.1672 2503.7539 12
730.65808 1329.7209 2508.5713 12
732.08026 1305.7506 2463.3503 12
743.59332 1300.3636 2453.1877 12
774.67999 1328.7566 2506.7522 12
790.68268 1330.6957 2510.4104 11
785.53473 1297.6243 2448.0198 196615
0 0 0 0
0 0 0 0
0 0 0 0
0 0 0 0
820.73322 1241.1935 2341.5608 10979185
829.31152 1233.3209 2326.709 13346703
840.4223 1229.4105 2319.3318 13544080
859.64587 1237.3027 2334.2209 12754563
874.65149 1238.9703 2337.3667 12820100
888.45361 1238.9075 2337.2483 12885893
905.20264 1242.8931 2344.7671 12490622
915.08545 1237.4728 2334.5417 13148293
933.58484 1243.6929 2346.2759 12884865
943.56903 1238.5529 2336.5793 13148037
964.39722 1247.59 2353.6282 12885635
973.99994 1242.0547 2343.1855 12754305
986.69971 1240.5688 2340.3826 12885892
997.29639 1236.5166 2332.7378 12885891
1014.3622 1240.4865 2340.2271 13149064
1028.1749 1240.4246 2340.1104 12491134
1044.433 1243.2754 2345.4883 13017478
1064.3019 1250.2927 2358.7271 12425341
1077.953 1249.9188 2358.0215 12688513
1090.995 1248.8573 2356.0188 13017222
1110.8313 1255.5015 2368.5535 12227706
1114.2173 1243.6193 2346.1372 12688260
1142.1726 1259.1146 2375.3699 12556674
1150.4467 1252.8007 2363.4583 12161916
1162.9087 1251.1442 2360.3333 13411985
1180.5613 1255.0452 2367.6926 12688516
1194.1075 1254.5404 2366.7405 12754053
1208.9957 1255.4408 2368.439 12885638
1228.7081 1261.2726 2379.4409 12688513
1243.616 1262.0962 2380.9946 12688513
1255.6707 1260.0381 2377.1121 12688258
1273.5757 1263.8314 2384.2681 12622211
1287.2798 1263.4183 2383.489 12293245
1312.7194 1274.4071 2404.2197 13674898
1318.8898 1266.6542 2389.5935 13214347
1343.1733 1276.2769 2407.7471 13148554
1360.8806 1279.5143 2413.8545 12556674
1373.6642 1278.1031 2411.1924 13016968
1394.2144 1283.8729 2422.0774 12819846
1403.574 1279.3253 2413.498 13411728
1416.448 1278.0404 2411.074 12622468
1431.0804 1278.3518 2411.6616 12359294
1446.7197 1279.5479 2413.9177 11701365
1466.0667 1283.9672 2422.2551 11635829
1477.0963 1281.0875 2416.8225 12688773
1489.2644 1279.241 2413.3389 11833464
1512.6321 1286.9581 2427.8977 10583397
1514.2688 1276.2155 2407.6311 11373172
1557.4628 1300.3705 2453.2004 12359808
1581.1022 1307.903 2467.4109 11570292
1577.3086 1292.8127 2438.9426 11899256
1617.2584 1313.5244 2478.0161 12425088
1620.063 1303.9659 2459.9834 12096123
1637.6335 1306.3566 2464.4937 11701108
1661.3661 1313.5771 2478.1155 12095866
1666.8583 1306.3756 2464.5295 11898744
1687.6523 1311.1875 2473.6074 11635315
1695.3917 1305.8617 2463.5598 12293501
1716.8134 1311.0751 2473.3953 12227452
1739.3263 1317.0267 2484.6233 12227709
1753.5243 1316.6351 2483.8845 12227708
1765.8635 1314.8661 2480.5471 11964537
1790.1219 1321.9281 2493.8699 12030330
1806.6082 1323.1819 2496.2351 12162172
1826.3242 1326.7617 2502.9888 11570035
1841.8158 1327.2397 2503.8906 11635573
1845.6968 1319.41 2489.1196 12622467
1882.1379 1334.7961 2518.146 12293245
1903.3298 1339.2104 2526.4739 12556931
1908.3192 1332.2445 2513.3323 12030584
1948.271 1349.6057 2546.0847 12293755
1961.42 1348.2759 2543.5759 12359805
1979.2039 1350.1279 2547.0701 12359549
1995.1163 1350.6852 2548.1213 12622721
2005.196 1347.3149 2541.7632 12425085
2019.7024 1346.947 2541.0691 12293756
2040.7908 1350.9417 2548.6052 12556928
2029.1428 1333.3665 2515.4487 11372653
2076.4675 1354.5162 2555.3489 11043689
2089.1079 1352.8984 2552.2966 10977386
2099.4048 1349.7972 2546.4463 11701875
2125.9441 1357.1086 2560.2395 11701620
2130.7178 1350.5206 2547.811 11767414
2149.3486 1352.7469 2552.0107 11767415
2168.2656 1355.1206 2556.489 11504242
2190.8613 1359.745 2565.2129 11241840
2209.2776 1361.7292 2568.9563 11504757
2222.28 1360.3722 2566.3962 11505012
2240.844 1362.4152 2570.2502 11241840
2256.5662 1362.7144 2570.8147 10715496
2274.6599 1364.4321 2574.0554 10781032
2307.843 1375.1179 2594.2146 11439218
2319.1184 1372.6949 2589.6436 12425857
2322.583 1365.7112 2576.4683 13018249
2346.0415 1370.4984 2585.4998 13676178
2348.1743 1362.8464 2571.064 13281423
2362.6833 1362.4298 2570.2778 13215116
2385.3601 1366.6982 2578.3306 12688516
2384.1047 1357.2875 2560.5769 11438449
2401.4065 1358.4939 2562.8528 12228222
2423.6907 1362.4858 2570.3838 12096635
2456.4929 1372.3038 2588.9058 12228478
2456.4077 1363.7416 2572.7527 11438707
0 0 0 0
0 0 0 0
0 0 0 0
0 0 0 0
0 0 0 0
0 0 0 0
0 0 0 0
0 0 0 0
0 0 0 0
0 0 0 0
0 0 0 0
0 0 0 0
0 0 0 0
0 0 0 0
0 0 0 0
0 0 0 0
0 0 0 0
0 0 0 0
0 0 0 0
0 0 0 0
0 0 0 0
0 0 0 0
-2164.3792 1441.6206 2689.6145 14
-3194.3892 2143.4556 3999.02 14
-3172.1777 2144.4558 4000.8862 14
0 0 0 0
0 0 0 0
-2218.4751 1534.1223 2862.1938 14
-3086.3762 2150.7324 4012.5962 14
-3065.8 2152.9763 4016.783 14
-3046.9226 2156.4575 4023.2778 14
-3027.6267 2159.6956 4029.3186 14
-3007.2349 2162.1968 4033.9851 14
-2986.4563 2164.4578 4038.2034 14
-2965.6633 2166.7446 4042.4702 14
-2944.2036 2168.5779 4045.8904 14
-2923.0054 2170.6353 4049.7288 14
-2899.8909 2171.2917 4050.9539 14
-2876.0952 2171.4453 4051.24 14
-2851.9275 2171.3179 4051.0024 14
-1948.8199 1496.3278 2791.6812 14
-1971.9518 1527.0479 2848.9954 14
-1983.4667 1549.2247 2890.3704 14
-1975.201 1556.2034 2903.3904 14
-1956.8306 1555.2734 2901.6553 14
-1939.6731 1555.2996 2901.7041 14
-1922.396 1555.2291 2901.573 14
-1905.3772 1555.3688 2901.8333 14
-1887.5211 1554.8208 2900.811 14
-1874.2976 1558.1141 2906.9553 14
-1860.5087 1560.994 2912.3284 14
-1829.7886 1549.5895 2891.051 14
-2539.666 2171.084 4050.5659 14
-2514.1604 2169.7815 4048.1357 14
-2486.4214 2166.5078 4042.0283 11
-2459.4797 2163.8723 4037.1111 12
-2432.762 2161.3838 4032.4683 12
-2406.1929 2158.979 4027.9822 12
-2375.4963 2152.7859 4016.4275 12
-1858.1665 1700.9957 3173.5276 12
-1839.3269 1700.9596 3173.4604 12
-1821.6871 1702.0439 3175.4834 12
-1804.5371 1703.6133 3178.4111 12
-1787.3839 1705.2124 3181.395 12
-1769.6582 1706.2939 3183.4126 12
-1874.2184 1826.5762 3407.8215 12
-1852.9045 1825.4678 3405.7537 12
-1835.3977 1828.1266 3410.7144 12
-1815.073 1828.0068 3410.491 12
-1796.2902 1829.455 3413.1926 12
-1777.8365 1831.275 3416.5881 12
-1753.6127 1827.1246 3408.8452 12
-1735.0454 1828.8401 3412.0457 13
-1717.1552 1831.3181 3416.6687 14
-1701.3452 1836.1002 3425.5908 14
-1682.0015 1837.1381 3427.5271 14
-1662.8037 1838.3628 3429.8118 14
-1643.433 1839.4241 3431.792 14
-1624.2065 1840.6757 3434.127 14
-1605.1062 1842.1035 3436.791 14
-1586.1022 1843.6802 3439.7324 14
-1565.5012 1843.4172 3439.2419 14
-1555.9156 1856.2894 3463.2576 14
-1537.4857 1858.8129 3467.9653 14
-1515.2869 1856.7861 3464.1843 14
-1499.5491 1862.7299 3475.2732 14
-1480.618 1864.8173 3479.1675 14
-1461.0553 1866.1566 3481.6665 14
-1442.1237 1868.3519 3485.7625 14
-1423.2219 1870.6505 3490.0508 14
-1404.5317 1873.2988 3494.9917 14
-1385.7227 1875.8655 3499.7803 14
-1367.0354 1878.6776 3505.0269 14
-1347.8837 1880.9283 3509.2258 14
-1290.3436 1828.8407 3412.0466 14
-1274.2114 1834.7175 3423.011 14
-1304.5719 1908.8113 3561.2468 14
-1269.7325 1888.3744 3523.1179 14
-1250.0162 1890.1212 3526.3772 14
-1233.1616 1896.3285 3537.958 14
-1210.0898 1893.0245 3531.7935 14
-1148.876 1828.886 3412.1311 14
-1131.377 1833.2859 3420.3398 14
-1116.9412 1842.9001 3438.2773 14
-1100.3726 1849.2872 3450.1936 14
-1082.4807 1853.6504 3458.3337 14
-1065.563 1859.882 3469.96 14
-1045.9878 1861.629 3473.2195 14
-1025.0056 1860.8918 3471.8442 14
-1006.0378 1863.8563 3477.375 14
-986.685 1866.2168 3481.7788 14
-967.53809 1869.0756 3487.1125 14
-947.81641 1870.9249 3490.5625 14
-927.39069 1871.4357 3491.5156 14
-907.58508 1873.25 3494.9004 14
-886.76013 1872.9956 3494.426 14
-865.43964 1871.6575 3491.9294 14
-843.95581 1869.8921 3488.6355 14
-822.12207 1867.2432 3483.6936 14
-799.89978 1863.5526 3476.8081 14
-778.03046 1860.511 3471.1338 14
-754.91718 1854.2488 3459.4502 14
-732.04999 1848.2584 3448.2742 14
-709.65906 1843.1611 3438.7644 14
-687.79626 1839.1747 3431.3269 14
-672.9245 1854.2094 3459.3765 14
-651.67389 1852.0592 3455.3652 14
-629.58704 1847.3162 3446.5159 14
-607.39893 1841.948 3436.501 14
-581.30975 1823.9674 3402.9546 14
-558.94092 1816.7872 3389.5588 14
-537.63202 1812.6459 3381.8323 14
-515.66339 1805.8732 3369.1965 14
-494.19687 1800.3845 3358.9563 14
-472.30682 1792.8275 3344.8572 14
-450.8999 1786.5226 3333.0945 14
-429.85617 1781.1455 3323.0623 14
-409.1398 1776.6736 3314.7192 14
-391.68692 1786.6371 3333.3079 14
-370.9335 1781.804 3324.2908 14
-350.29214 1776.9972 3315.323 14
-331.29745 1780.4692 3321.8005 14
-309.85278 1770.3815 3302.98 14
-289.20209 1763.776 3290.6562 14
-268.74139 1757.458 3278.8687 14
-248.32549 1750.4713 3265.8337 14
-227.41231 1738.5023 3243.5034 14
-207.08922 1729.2517 3226.2446 14
-187.21286 1722.2294 3213.1431 14
-167.63301 1716.6538 3202.7407 14
-148.2513 1711.9429 3193.9517 14
-129.04451 1708.1692 3186.9111 14
-109.94617 1704.7833 3180.5942 14
-90.971161 1702.3048 3175.97 14
-71.994049 1698.484 3168.8418 14
-53.114922 1695.0952 3162.5193 14
-34.341705 1693.2346 3159.0479 14
-15.586211 1688.8373 3150.844 14
3.0709491 1683.8193 3141.4819 14
21.632811 1680.0146 3134.3838 14
40.045418 1673.4874 3122.2061 14
58.291054 1666.3119 3108.8186 14
76.509857 1661.9989 3100.772 14
94.687088 1658.6281 3094.4829 14
112.87233 1656.4681 3090.4531 14
131.02608 1654.5134 3086.8064 14
149.16205 1652.8406 3083.6853 14
167.34349 1651.9818 3082.083 14
185.41266 1650.2925 3078.9314 14
203.47865 1648.8801 3076.2964 14
221.658 1648.543 3075.6672 12
239.57877 1646.48 3071.8184 12
257.51425 1644.8025 3068.6887 12
275.44583 1643.3226 3065.9277 12
293.4545 1642.4575 3064.3137 12
311.53387 1642.0656 3063.5825 12
329.64868 1641.8936 3063.2617 12
347.79367 1641.882 3063.24 12
365.72986 1640.9348 3061.4727 12
384.09912 1641.928 3063.3259 12
323.23642 1319.4158 2461.6184 12
337.66492 1318.8115 2460.4912 12
439.32941 1644.874 3068.822 12
374.22516 1345.4426 2510.1765 12
476.41055 1647.3647 3073.469 12
395.87814 1318.5024 2459.9146 12
412.53342 1325.191 2472.3936 12
426.84064 1324.1371 2470.427 12
438.39908 1314.9083 2453.209 12
438.37646 1272.6508 2374.3696 12
468.28064 1317.2002 2457.4851 12
486.8035 1328.0145 2477.6611 12
485.54315 1285.8064 2398.9138 12
499.08365 1284.0796 2395.6921 12
538.67798 1347.6277 2514.2532 12
679.96179 1655.3108 3088.2939 12
539.81946 1279.7126 2387.5449 12
552.35742 1276.0017 2380.6213 12
564.03381 1270.5348 2370.4219 12
578.18878 1270.781 2370.8813 12
591.69519 1269.624 2368.7227 12
607.44604 1273.225 2375.4409 12
623.01355 1276.2874 2381.1543 12
641.98859 1286.04 2399.3499 12
686.05322 1344.5414 2508.4951 12
698.48749 1339.8865 2499.8103 12
695.57898 1306.6042 2437.7163 12
711.22992 1308.8297 2441.8684 12
738.45294 1331.8374 2484.7935 12
742.57434 1313.095 2449.8259 12
769.74957 1335.0559 2490.7981 12
781.03442 1329.1487 2479.7771 11
0 0 0 0
0 0 0 0
0 0 0 0
0 0 0 0
0 0 0 0
