# .PCD v0.7 - Point Cloud Data file format
VERSION 0.7
FIELDS x y z rgb
SIZE 4 4 4 4
TYPE F F F U
COUNT 1 1 1 1
WIDTH 1382
HEIGHT 1
VIEWPOINT 0 0 0 1 0 0 0
POINTS 1382
DATA ascii
1666.6128 1284.5465 3645.7146 9597278
1686.6455 1283.3555 3642.3345 9597277
1715.8688 1289.0991 3658.6357 9663070
1726.6738 1281.0349 3635.7485 9399899
1760.2844 1289.8805 3660.8535 9136728
1757.8038 1272.3865 3611.2029 8874072
1794.1486 1283.0786 3641.5488 8611669
1808.5961 1278.0431 3627.2573 8546387
1886.2472 1317.2642 3738.572 8744281
1861.9084 1285.1768 3647.5037 7692628
1855.5808 1266.1151 3593.4041 2957591
1812.0177 1222.3672 3469.2417 524288
1854.9637 1237.3041 3511.6345 720896
1861.1272 1227.6471 3484.2266 720896
1851.7262 1208.0477 3428.6011 786432
1839.38 1186.9731 3368.7886 917504
1876.8083 1198.1262 3400.4426 983040
1886.944 1191.8043 3382.5002 851968
1895.2703 1184.4844 3361.7253 1114112
1900.9822 1175.6998 3336.7935 2166535
1924.8912 1178.2347 3343.9878 1572864
1955.5443 1184.8038 3362.6318 4140314
1953.4823 1171.6193 3325.2124 6902062
1974.9391 1172.6628 3328.1741 8282960
2006.8911 1179.8558 3348.5889 10256241
2042.8324 1189.2306 3375.1956 9532263
2044.3794 1178.595 3345.0103 9861229
2064.5654 1178.8059 3345.6089 10387057
2083.7397 1178.4407 3344.5723 10584178
2142.0662 1200.0159 3405.8057 9860451
2182.9316 1211.4978 3438.3928 12162943
2354.7095 1294.7504 3674.6748 12228735
2409.0989 1312.5222 3725.1138 11636595
2474.6082 1335.9749 3791.6753 10518373
2501.1274 1338.145 3797.8347 9991772
2531.9746 1342.5715 3810.3977 10386019
2543.8823 1336.9659 3794.4883 10451812
2576.9243 1342.4686 3810.1057 10057310
2561.0459 1322.6115 3753.7483 10188127
2588.0376 1325.0454 3760.6562 9398609
2631.0664 1335.5784 3790.5503 9398348
2667.0989 1342.4117 3809.9441 9464395
2686.9688 1341.0636 3806.1179 8609085
2726.24 1349.3405 3829.6089 10122320
2743.8926 1346.8691 3822.5947 11174496
2848.1592 1386.6055 3935.3721 12359026
2845.5964 1374.11 3899.908 9924694
2881.9871 1380.4742 3917.9705 10319710
2883.5806 1370.202 3888.8169 11307375
2926.4006 1379.5275 3915.2834 13017484
2928.9438 1369.8685 3887.8704 13348245
2960.656 1373.8964 3899.3018 13875103
2948.1125 1357.4839 3852.7209 13611677
2987.4258 1365.0179 3874.1038 12821648
2957.9434 1341.2427 3806.6262 10847090
3062.686 1378.2292 3911.5991 8873303
3066.9099 1369.7661 3887.5793 9333340
3098.9089 1373.7416 3898.8623 9135962
3130.6489 1377.5443 3909.655 8478545
3077.2852 1344.1191 3814.7898 8741718
3148.6548 1365.2657 3874.8071 9465441
3183.1804 1370.2465 3888.9429 9399649
3225.0928 1378.3124 3911.835 9136732
3252.0552 1379.9197 3916.3967 9860456
3254.9058 1371.3455 3892.0618 10583922
3271.8479 1368.787 3884.8008 10452591
3315.9912 1377.5647 3909.7129 11373692
3374.9666 1392.3395 3951.6455 13347481
3452.6191 1414.5627 4014.7185 13083539
3433.1394 1396.9586 3964.7554 12821137
3464.7483 1400.2405 3974.0698 12821137
3511.5476 1409.5757 4000.5645 12162694
3521.5808 1404.1263 3985.0984 10847347
3549.0754 1405.6655 3989.4668 10452331
3582.189 1409.395 4000.0515 9663074
3589.3279 1402.923 3981.6831 9136731
3606.9214 1400.5951 3975.0764 9202524
3638.0447 1403.5172 3983.3696 9334622
3671.3066 1407.2212 3993.8821 9334623
3700.1655 1409.2009 3999.5007 8874584
3724.3918 1409.4023 4000.0725 8940377
3784.0359 1422.9194 4038.4358 9202524
3790.4624 1416.3811 4019.8789 9203294
3882.9771 1441.8918 4092.282 9597539
3914.781 1444.6818 4100.2002 9465696
0 0 0 0
0 0 0 0
0 0 0 0
0 0 0 0
0 0 0 0
0 0 0 0
0 0 0 0
-3192.644 1280.0453 3572.8665 16
-3317.1616 1338.8451 3736.9885 16
-3212.7117 1305.4 3643.6367 16
-3215.9414 1315.5513 3671.9709 16
-3269.5684 1346.5974 3758.627 16
-3095.4316 1283.6196 3582.8435 16
-3221.4905 1345.1177 3754.4968 16
-3154.7168 1326.3944 3702.2366 16
-3085.5901 1306.4131 3646.4644 16
-3043.1404 1297.5243 3621.6541 15
-3077.5693 1321.5214 3688.6345 17
-3113.8784 1346.6748 3758.843 17
-3118.7642 1358.5027 3791.8572 18
-3089.5537 1355.5426 3783.5947 18
-2984.7776 1319.1425 3681.9946 18
-2880.8113 1282.5669 3579.905 18
-3030.6726 1359.2938 3794.0652 18
-2937.4358 1327.3199 3704.8196 18
-2917.3904 1328.1862 3707.2375 18
-2868.5762 1315.8689 3672.8574 18
-2848.8726 1316.8187 3675.5088 18
-2829.5466 1317.9592 3678.6921 18
-2841.0154 1333.5726 3722.2722 18
-2824.0605 1335.9836 3729.002 18
-2806.2085 1338.0052 3734.6443 18
-2809.5935 1350.2649 3768.8638 18
-2789.5962 1351.3938 3772.0146 18
-2770.1743 1352.8219 3776.0007 18
-2785.7102 1371.484 3828.0906 18
-2767.0242 1373.4658 3833.6221 18
-2608.3303 1305.4095 3643.6633 18
-2727.8386 1376.6132 3842.4072 18
-2707.0637 1377.6251 3845.2317 18
-2685.4207 1378.2086 3846.8604 18
-2681.8552 1388.1592 3874.6345 18
-2651.1929 1384.135 3863.4021 18
-2642.1633 1391.4331 3883.7725 18
-2623.5422 1393.7638 3890.2781 18
-2604.5693 1395.9473 3896.3726 18
-2586.9692 1398.9121 3904.6482 17
-2563.0291 1398.4713 3903.4175 16
-2547.051 1402.4061 3914.4006 16
-2528.1401 1404.7838 3921.0371 16
-2508.7202 1406.9202 3927 16
-2495.0981 1412.3783 3942.2349 16
-2490.6304 1423.1705 3972.3579 16
-2476.2866 1428.4714 3987.1541 16
-2455.2673 1429.9866 3991.3831 16
-2409.616 1417.0457 3955.2625 16
-2389.7407 1419.1577 3961.1575 16
-2368.7878 1420.6654 3965.3657 16
-2348.634 1422.6873 3971.0093 16
-2339.894 1431.734 3996.2607 16
-2278.9006 1408.6661 3931.8735 16
-2259.6516 1411.1919 3938.9233 16
-2237.1975 1411.7479 3940.4753 16
-2215.072 1412.5251 3942.6445 16
-2197.8823 1416.4999 3953.739 16
-2163.2007 1409.1655 3933.2673 17
-2093.0415 1378.309 3847.1404 16
-2072.3889 1379.7329 3851.1147 16
-2051.7212 1381.1782 3855.1489 16
-2030.1829 1382.0635 3857.6201 15
-1988.4286 1369.05 3821.2969 18
-1962.1719 1366.53 3814.2629 18
-1950.6978 1374.3665 3836.136 18
-1929.472 1375.4359 3839.1213 18
-1908.0728 1376.4059 3841.8286 16
-1874.6652 1368.6323 3820.1309 16
-1857.5623 1372.7177 3831.5339 16
-1842.998 1378.8036 3848.521 15
-1822.593 1380.6173 3853.5835 16
-1800.5309 1381.2059 3855.2266 18
-1794.8521 1394.5392 3892.4421 18
-1819.2476 1431.8899 3996.6958 18
-1881.2517 1500.2174 4187.4116 18
-1862.8846 1505.4215 4201.9375 18
-1844.739 1510.9482 4217.3638 15
-1806.0924 1499.6047 4185.7017 16
-1786.3173 1503.8324 4197.502 16
-1766.2119 1507.8977 4208.8491 16
-1766.4532 1529.699 4269.7007 16
-1724.8949 1515.4106 4229.8188 16
-1701.5205 1516.9119 4234.0093 16
-1663.1328 1504.8733 4200.4072 16
-1639.6014 1506.1161 4203.876 16
-1616.9696 1508.2358 4209.793 16
-1592.9509 1509.1086 4212.229 16
-1569.8958 1510.9363 4217.3301 16
-1546.4536 1512.4447 4221.5405 16
-1522.828 1513.8202 4225.3799 16
-1499.0126 1515.05 4228.8125 16
-1474.7523 1515.8641 4231.085 16
-1382.8813 1446.0095 4036.1064 16
-1359.229 1446.2845 4036.874 16
-1399.8716 1516.2076 4232.0435 16
-1374.9187 1516.3384 4232.4087 16
-1349.144 1515.551 4230.2109 16
-1228.4142 1406.0479 3924.5652 16
-1205.0975 1405.97 3924.3479 16
-1187.6151 1412.83 3943.4954 16
-1163.9666 1412.4823 3942.5254 16
-1178.9651 1459.9795 4075.0994 16
-1154.0509 1459.0029 4072.3735 16
-1090.4844 1408.0753 3930.2246 15
-1140.0209 1504.1548 4198.4019 15
-1115.0347 1504.0012 4197.9731 15
-1089.9512 1503.7064 4197.1499 16
-1038.9225 1466.7679 4094.0471 16
-1040.1057 1503.5389 4196.6826 16
-1014.8278 1502.9233 4194.9644 16
-989.76733 1502.6067 4194.0806 16
-944.95984 1471.5228 4107.3193 16
-896.88275 1433.5702 4001.3857 16
-888.10327 1458.0748 4069.7832 16
-890.23706 1502.3644 4193.4043 16
-865.46057 1502.4792 4193.7251 16
-840.35852 1502.019 4192.4404 16
-815.6297 1502.2183 4192.9966 18
-747.17981 1419.3755 3961.7654 18
-705.37085 1383.4089 3861.3755 18
-661.37506 1340.5988 3741.8835 18
-650.96442 1365.2567 3810.709 18
-658.00647 1429.6046 3990.3171 18
-601.92664 1356.4976 3786.2605 18
-589.23383 1379.2921 3849.8845 18
-564.1922 1373.8521 3834.7002 18
-567.5777 1440.0819 4019.5613 18
-543.83215 1440.2603 4020.0588 18
-465.34589 1288.8423 3597.4207 18
-442.48676 1284.3514 3584.8857 18
-424.59189 1294.5433 3613.3335 18
-400.19156 1284.9298 3586.5005 18
-382.25534 1296.1569 3617.8372 18
-357.93829 1285.7963 3588.9187 18
-341.45627 1304.0498 3639.8679 18
-320.36465 1305.973 3645.2361 18
-294.1579 1285.8151 3588.9712 18
-272.90616 1285.8628 3589.1045 18
-251.88681 1287.1062 3592.575 18
-232.96326 1300.2766 3629.3364 18
-212.16034 1304.5691 3641.3176 18
-190.11221 1301.3101 3632.2209 18
-168.73128 1302.3689 3635.176 18
-154.26062 1364.8785 3809.6533 18
-132.8199 1376.5748 3842.3003 18
-110.04726 1376.45 3841.9514 18
-87.252754 1375.915 3840.4585 18
-63.927013 1363.6709 3806.2825 18
-41.749958 1375.9381 3840.5229 18
-18.983919 1374.9305 3837.7104 18
3.7343709 1368.6359 3820.1409 18
26.371248 1368.9214 3820.9375 18
48.936146 1366.9324 3815.386 18
71.553482 1367.2023 3816.1394 18
94.107666 1366.4257 3813.9717 18
116.54683 1364.603 3808.8843 17
139.20537 1365.5236 3811.4539 16
161.60124 1363.9702 3807.1182 15
184.23065 1364.527 3808.6724 15
206.84274 1364.848 3809.5684 15
229.20464 1363.6174 3806.1333 15
251.49355 1362.2119 3802.2104 16
274.13715 1362.8009 3803.8542 16
296.58972 1362.4227 3802.7986 16
318.90289 1361.5028 3800.231 15
340.83096 1359.1685 3793.7153 15
363.00354 1358.0377 3790.5591 16
384.93076 1356.1742 3785.3579 16
407.15369 1355.5005 3783.4773 16
388.87228 1227.0856 3425.0454 16
434.72675 1303.7516 3639.0356 16
429.48853 1227.1851 3425.3228 16
450.13193 1228.1427 3427.9956 16
516.27856 1347.8096 3762.0103 16
491.6124 1230.3049 3434.0312 16
510.77609 1227.4686 3426.1143 16
535.48309 1237.6613 3454.564 16
607.49658 1352.4178 3774.873 16
630.06421 1352.8568 3776.0981 16
651.65674 1351.2438 3771.5959 16
674.76923 1352.7848 3775.8975 16
699.29181 1356.9631 3787.5601 13
722.27448 1357.9867 3790.4167 65550
740.98798 1351.1637 3771.3723 196619
721.65051 1277.3864 3565.4451 458756
749.57349 1289.0815 3598.0886 2627605
0 0 0 0
0 0 0 0
763.45007 1209.7405 3376.6313 9663329
780.94983 1205.8737 3365.8384 10255721
807.59277 1215.9662 3394.0085 10189928
829.43604 1218.5171 3401.1287 10189927
850.71808 1220.142 3405.6643 10255464
872.33771 1222.1647 3411.3098 10058087
892.57892 1222.2083 3411.4316 10058344
914.51514 1224.5194 3417.8826 10189930
934.20874 1223.7928 3415.8545 9926501
958.48615 1228.9744 3430.3171 10123880
979.62378 1229.9985 3433.1758 9992806
1000.969 1231.2363 3436.6309 9992806
1023.5485 1233.9126 3444.1011 9993319
1050.1771 1241.2704 3464.6379 9992550
1069.6794 1240.0845 3461.3279 9992550
1092.0723 1242.2311 3467.3193 10124136
1114.8901 1244.7731 3474.4146 10189673
1133.2998 1242.3901 3467.7634 9663588
1145.6218 1233.5376 3443.054 10058088
1176.0154 1244.1124 3472.5706 9794916
1200.6389 1248.3246 3484.3276 10321517
1220.8372 1247.8711 3483.0618 10255469
1240.0109 1246.4028 3478.9634 10321262
1267.0574 1252.7666 3496.7261 9926503
1286.3357 1251.3685 3492.8237 9728868
1308.2921 1252.5789 3496.2021 10255212
1320.5328 1244.5944 3473.916 9794658
1348.5968 1251.5396 3493.3013 9926245
1374.3945 1256.2034 3506.3188 10123880
1385.6859 1247.667 3482.4919 10321259
1407.3199 1248.5566 3484.9753 10123880
1444.2532 1262.7977 3524.7251 10321003
1473.3391 1269.8694 3544.4634 9925988
1492.6825 1268.4631 3540.5383 10057831
1511.5444 1266.6924 3535.5959 9728865
1537.4041 1270.7542 3546.9329 9794660
1557.8175 1270.2653 3545.5686 9860454
1582.4634 1273.1949 3553.7456 9992040
1605.4532 1274.7325 3558.0376 9728609
1601.6144 1255.2045 3503.5305 10057574
1640.9546 1269.583 3543.6641 9991780
1672.7993 1277.8723 3566.8015 9597278
1687.7217 1273.189 3553.7292 9531485
1707.4485 1272.2008 3550.9712 9597535
1755.7394 1292.2605 3606.9614 9466207
1758.7599 1278.9183 3569.7209 9466464
1781.5559 1280.1027 3573.0266 9268571
1791.6196 1272.218 3551.019 8940377
1810.5596 1270.7462 3546.9106 8809049
1831.3405 1270.5853 3546.4617 8875356
1817.3237 1246.5593 3479.4004 9007712
1846.1949 1252.1605 3495.0344 8415829
1827.8671 1225.9802 3421.96 6573882
1833.9901 1216.5941 3395.7615 6113334
1823.2729 1196.3618 3339.2888 3613977
1859.6014 1207.1019 3369.2668 1379338
1880.1027 1207.4495 3370.2366 851968
1890.0703 1201.0956 3352.502 917504
1908.1646 1199.9845 3349.4006 1245953
1927.4388 1199.6309 3348.4133 1245440
1962.7933 1209.1907 3375.0969 1705472
1947.9608 1187.9514 3315.8137 6704178
1946.5125 1175.217 3280.2695 5127211
1971.4044 1178.4803 3289.3779 10783611
1981.199 1172.7429 3273.3638 9861740
2037.1975 1194.2015 3333.2593 10255473
2060.5723 1196.3077 3339.1379 10386544
2091.4319 1202.6781 3356.9189 10321005
2122.9465 1209.3014 3375.406 9991265
2166.1831 1222.4161 3412.012 11899516
2224.4475 1243.6906 3471.3928 12689285
2368.2573 1311.9652 3661.9617 12623748
2396.7363 1315.6898 3672.3577 12228990
2441.3215 1328.1091 3707.0225 11900026
2471.2356 1332.3971 3718.991 10781034
2503.7129 1337.979 3734.5713 10057056
2540.6533 1345.8273 3756.4773 10057312
2561.824 1345.2582 3754.8892 10320227
2565.675 1335.6825 3728.1611 9859932
2594.9883 1339.4126 3738.5728 10122592
2604.9111 1333.1559 3721.1089 9793628
2651.1421 1345.4302 3755.3691 9662043
2656.6702 1337.0157 3731.8828 9530458
2676.9304 1336.0931 3729.3076 9530202
2690.3799 1331.8143 3717.3645 9595994
2752.4519 1351.4789 3772.2524 8938576
2774.3352 1351.2528 3771.6211 9530969
2812.0376 1358.6733 3792.3335 8807245
2855.6091 1368.7897 3820.5703 10057055
2893.0593 1375.8358 3840.2373 11505271
2881.7903 1359.7836 3795.4324 12756108
2916.387 1365.4543 3811.2605 13545368
2919.3132 1356.3236 3785.7749 13611421
2904.0303 1338.9368 3737.2446 13545628
2875.0305 1315.5364 3671.9294 11506565
2870.0933 1303.4152 3638.0967 9071712
2843.4524 1281.6918 3577.4622 9271402
2882.5845 1289.7178 3599.8643 13743783
2761.3906 1226.42 3423.1877 13085852
2938.198 1295.432 3615.814 8347216
3065.5032 1341.7778 3745.1746 9136732
3029.1438 1316.3361 3674.1614 8939096
3178.5999 1371.4285 3827.9355 9465439
3190.1233 1366.65 3814.5979 9202524
3204.1956 1363.0231 3804.4741 9268317
3228.9521 1363.9601 3807.0896 9465954
3321.2744 1393.2268 3888.7793 11637375
3392.5615 1413.3271 3944.8831 11768703
3398.9956 1406.3198 3925.3242 12229510
3412.8215 1402.4453 3914.5098 12755342
3425.853 1398.2987 3902.936 12886674
3464.333 1404.5255 3920.3159 12163208
3443.2698 1386.6895 3870.5322 10979702
3506.3896 1402.7678 3915.4102 9597282
3525.2432 1401.0421 3910.5933 9334110
3551.2727 1402.1722 3913.7478 9465953
3576.4307 1402.9457 3915.9067 9531746
3601.8203 1403.7998 3918.2903 9597539
3634.1726 1407.3389 3928.1689 9335136
3651.2573 1404.9585 3921.5247 9137758
3684.9131 1408.9441 3932.6494 9269343
3706.2822 1408.2112 3930.6035 9071964
3747.2737 1414.8965 3949.2637 8808795
3777.9688 1417.6353 3956.9082 8940381
0 0 0 0
0 0 0 0
0 0 0 0
0 0 0 0
0 0 0 0
0 0 0 0
0 0 0 0
-3105.4087 1265.6575 3475.2417 16
-3194.7297 1310.7517 3599.0613 16
-3177.2317 1312.3309 3603.3977 16
-3088.9915 1284.5144 3527.019 16
-3072.5286 1286.37 3532.114 16
-3055.6384 1288.0709 3536.7844 16
-3036.4077 1288.8018 3538.7913 17
-3019.5679 1290.5647 3543.6318 18
-3002.9883 1292.4644 3548.8479 18
-2985.0337 1293.7948 3552.5012 18
-2966.3816 1294.8396 3555.3699 18
-2928.4189 1287.41 3534.9697 18
-2930.8181 1297.7454 3563.3484 16
-2913.5205 1299.4457 3568.0173 16
-2954.0298 1327.1416 3644.0647 18
-2946.8657 1333.6696 3661.989 18
-2916.4133 1329.6765 3651.0251 18
-2846.0908 1307.3102 3589.6116 18
-2787.5574 1290.0629 3542.2539 18
-2838.3384 1323.5276 3634.1414 18
-2916.7827 1370.5022 3763.124 18
-2829.1462 1339.5632 3678.1719 18
-2810.9858 1341.2952 3682.9275 18
-2697.2236 1297.08 3561.5215 18
-2821.0122 1367.3051 3754.3455 18
-2813.8796 1374.6864 3774.6133 18
-2794.9272 1376.3654 3779.2231 18
-2777.1658 1378.6626 3785.531 18
-2757.4651 1380.0267 3789.2766 18
-2733.9868 1379.5071 3787.8499 18
-2715.4016 1381.4683 3793.2349 18
-2696.5098 1383.3049 3798.2778 18
-2684.8223 1388.8993 3813.6389 18
-2667.3123 1391.551 3820.9202 18
-2649.0991 1393.8782 3827.3098 18
-2625.5564 1393.417 3826.0437 17
-2606.6375 1395.4231 3831.552 15
-2587.2593 1397.2166 3836.4763 16
-2562.2783 1395.9893 3833.1064 16
-2548.0903 1400.6727 3845.9663 18
-2530.5576 1403.5854 3853.9641 18
-2510.5129 1405.1455 3858.2478 16
-2495.7075 1409.6935 3870.7356 16
-2460.5586 1402.7283 3851.6106 16
-2438.7666 1403.3186 3853.2314 16
-2395.2375 1391.2938 3820.2136 16
-2374.9487 1392.6676 3823.9861 16
-2354.636 1394.0541 3827.7927 16
-2368.8096 1416.0834 3888.2808 16
-2311.4102 1395.3384 3831.3193 16
-2291.6265 1397.1149 3836.197 16
-2302.3403 1417.7063 3892.7373 16
-2260.4255 1405.9796 3860.5381 16
-2238.5295 1406.5922 3862.22 16
-2216.7388 1407.2841 3864.1196 16
-2194.6047 1407.7701 3865.4546 16
-2199.5735 1425.8356 3915.0583 16
-2176.9114 1426.1838 3916.0146 16
-2153.9053 1426.3118 3916.366 16
-2135.3279 1429.4071 3924.8652 16
-2127.3704 1439.7579 3953.2866 16
-2103.9482 1439.7566 3953.2827 16
-2080.7361 1439.9006 3953.6782 16
-2031.9943 1422.1797 3905.02 19
-2007.0535 1420.9006 3901.5083 16
-1986.9325 1423.0439 3907.3933 16
-1964.4028 1423.4922 3908.6243 16
-1941.8514 1423.9352 3909.8403 16
-1918.4058 1423.7252 3909.2639 16
-1895.8922 1424.2103 3910.5959 16
-1873.2393 1424.6016 3911.6702 16
-1857.001 1429.9419 3926.3335 16
-1756.313 1369.5643 3760.5488 18
-1790.8201 1414.4143 3883.698 18
-1753.5656 1403.0157 3852.3997 18
-1848.1533 1498.1935 4113.7388 18
-1828.1687 1501.7964 4123.6318 18
-1808.2845 1505.5808 4134.0229 16
-1775.1431 1498.2795 4113.9751 16
-1755.1874 1502.0588 4124.3525 16
-1734.7325 1505.512 4133.834 16
-1713.7007 1508.556 4142.1924 16
-1573.0959 1404.9001 3857.5742 15
-1513.0973 1371.2373 3765.1426 15
-1525.746 1403.3884 3853.4231 16
-1552.8311 1449.9966 3981.3999 16
-1492.396 1415.0579 3885.4648 16
-1502.1846 1446.6519 3972.2161 16
-1478.8488 1446.8441 3972.7439 16
-1456.121 1447.6471 3974.9485 16
-1460.8606 1476.2329 4053.4395 15
-1301.2745 1336.9441 3670.9805 15
-1279.5743 1336.9938 3671.1167 15
-1257.7805 1336.9457 3670.9846 16
-1301.7717 1408.0516 3866.2273 16
-1277.4935 1406.5392 3862.0745 16
-1254.3752 1406.2717 3861.3401 16
-1231.3019 1406.0457 3860.7195 16
-1209.1877 1406.9274 3863.1404 16
-1184.6797 1405.0037 3857.8582 16
-1166.0936 1410.1659 3872.0327 16
-1175.9287 1450.595 3983.0427 16
-1173.2889 1476.9758 4055.4795 16
-1138.1074 1462.6389 4016.113 16
-1121.1899 1471.6627 4040.8906 16
-1092.5844 1465.4039 4023.7053 16
-1065.3264 1460.7137 4010.8271 16
-1036.8853 1454.1504 3992.8054 16
-1017.172 1459.8064 4008.3354 16
-986.94293 1450.2802 3982.1785 16
-956.29785 1439.6611 3953.0208 16
-930.49927 1435.9882 3942.9353 16
-904.96704 1432.5477 3933.4888 16
-823.67889 1338.3319 3674.791 16
-801.33118 1337.3683 3672.1453 16
-781.55762 1340.7668 3681.4768 16
-804.57001 1419.8671 3898.6702 16
-734.37323 1334.2903 3663.6936 16
-755.41125 1414.3148 3883.425 18
-731.66986 1412.8953 3879.5271 18
-708.21368 1411.9523 3876.938 18
-697.64478 1437.5005 3947.0879 18
-648.9917 1383.6265 3799.1606 18
-600.52698 1326.2975 3641.7471 18
-611.33893 1400.4904 3845.4656 18
-588.64111 1400.6893 3846.012 18
-575.44666 1424.4283 3911.1946 18
-552.19751 1424.2263 3910.6396 18
-529.1806 1424.6317 3911.7529 18
-451.90677 1272.3171 3493.5276 18
-459.06314 1354.4989 3719.1824 18
-437.05786 1354.5856 3719.4204 18
-415.06616 1354.726 3719.8057 18
-395.33884 1362.6871 3741.6655 18
-379.58353 1386.0983 3805.9478 18
-351.05746 1362.8872 3742.2151 18
-334.42551 1385.8353 3805.2261 18
-305.94772 1359.4645 3732.8169 18
-283.92157 1359.8856 3733.9731 18
-261.61063 1358.8984 3731.2627 18
-219.40887 1244.8734 3418.1726 18
-199.02762 1244.0532 3415.9204 18
-178.88188 1244.6859 3417.658 18
-158.55504 1244.0592 3415.937 18
-138.98885 1250.0907 3432.4983 18
-118.91596 1252.8512 3440.0781 18
-98.297318 1249.8143 3431.7397 18
-78.143799 1252.6498 3439.5251 18
-57.942825 1256.4564 3449.9775 18
-40.216724 1347.3245 3699.4827 18
-18.308382 1347.9305 3701.147 18
3.6148975 1346.7566 3697.9236 17
25.513161 1346.2778 3696.6089 16
47.152107 1338.8781 3676.2908 16
69.173965 1343.5918 3689.2334 17
91.479797 1350.2334 3707.47 17
109.36555 1301.6943 3574.1917 17
130.51031 1301.3998 3573.3828 17
156.45961 1342.4097 3685.9878 16
176.964 1332.3793 3658.446 16
199.93509 1341.0831 3682.3452 16
221.71033 1340.8423 3681.6841 16
243.56563 1341.0856 3682.3521 16
263.3457 1330.8018 3654.1145 16
286.05197 1335.7445 3667.6863 16
307.73532 1335.5497 3667.1516 15
329.20288 1334.506 3664.2859 15
350.20789 1331.8323 3656.9443 16
371.53418 1330.6208 3653.6179 16
360.68066 1220.6378 3351.6265 16
410.01569 1315.1976 3611.2688 16
403.25357 1229.3608 3375.5781 16
422.07526 1225.9451 3366.1992 16
442.98102 1228.6177 3373.5378 16
458.78586 1217.5229 3343.0737 16
481.45645 1224.8125 3363.0894 16
540.79797 1321.1057 3627.4912 16
558.15302 1311.3903 3600.8147 16
580.99933 1314.8171 3610.2241 16
594.00574 1296.5232 3559.9927 16
622.68884 1312.5278 3603.9382 16
643.06409 1310.5402 3598.4805 16
669.79401 1321.2151 3627.7917 13
690.69342 1320.0829 3624.6829 65550
717.24817 1329.5016 3650.5449 131084
724.35522 1303.3757 3578.8083 327684
829.62799 1450.348 3982.3647 1312519
0 0 0 0
0 0 0 0
750.9859 1209.6672 3321.5039 9598306
770.42206 1209.2888 3320.4646 9795170
788.78705 1207.2894 3314.9749 10058342
806.95496 1205.0933 3308.9443 9926756
830.37982 1210.6654 3324.2444 10387050
851.30261 1212.416 3329.0513 10124137
871.80432 1213.5013 3332.0312 10123880
893.54187 1216.2207 3339.498 10189930
914.20892 1217.3966 3342.7268 9926245
934.60168 1218.1653 3344.8374 9860451
955.79089 1219.9185 3349.6514 9597536
980.34808 1225.8116 3365.833 9992551
1003.2089 1229.391 3375.6611 9992550
1019.2413 1224.6261 3362.5776 9729122
1044.8555 1231.3356 3381.0007 9860964
1066.3851 1233.0701 3385.7632 10189673
1087.9122 1234.7374 3390.3413 10387052
1109.7678 1236.7103 3395.7585 10321006
1130.7543 1237.6616 3398.3708 10058090
1152.4258 1239.3165 3402.9146 9860454
1173.115 1239.8762 3404.4514 10189419
1193.7211 1240.3307 3405.6995 10189419
1215.8483 1242.3243 3411.1733 10255469
1229.493 1235.7272 3393.0588 9860454
1264.6194 1250.5854 3433.8569 9992040
1283.4432 1249.1071 3429.7976 9926503
1289.8441 1235.7725 3393.1833 9925990
1325.468 1250.4155 3433.3901 9860196
1339.853 1244.8824 3418.1975 9925989
1358.8325 1243.7194 3415.0039 10452333
1386.6069 1250.5222 3433.6833 9992039
1406.7825 1250.3744 3433.2773 9860454
1422.3401 1246.1847 3421.7732 10189418
1449.5889 1252.2122 3438.3235 9597025
1480.976 1261.5977 3464.0942 9860454
1493.5027 1254.8799 3445.6484 9728869
1511.5881 1252.9506 3440.3511 9728865
1538.9232 1258.6378 3455.967 10123880
1556.6887 1256.4518 3449.9648 10584174
1578.053 1257.1895 3451.9902 10452845
1607.2999 1264.1077 3470.9863 10255466
1638.3787 1272.2738 3493.4087 10255210
1668.9767 1279.8674 3514.2593 9531487
1675.7679 1269.2424 3485.0852 9992036
1698.3596 1270.6978 3489.0813 9729377
1711.5754 1265.1876 3473.9517 9729376
1749.3494 1277.746 3508.4343 9268569
1760.1831 1270.5631 3488.7114 9334362
1774.5977 1266.1016 3476.4609 9268570
1795.1646 1266.0814 3476.4058 9202775
1816.6993 1266.7367 3478.2048 8874320
1824.4412 1257.8677 3453.8525 8874577
1846.7098 1259.0997 3457.2356 8480331
1838.7063 1239.8917 3404.4939 8020039
1841.8242 1228.5183 3373.2651 6836278
1853.2189 1222.8507 3357.7029 7165242
1862.4862 1215.9146 3338.6575 6968126
1859.8386 1201.4274 3298.8787 4073755
1895.7472 1211.8893 3327.6047 918530
1915.1813 1211.7124 3327.1191 983040
1930.5082 1208.9672 3319.5813 917504
1956.5657 1212.9294 3330.4609 6441790
1967.614 1207.6008 3315.8298 1838597
1998.0902 1214.1835 3333.9043 10783354
2005.6522 1206.8491 3313.7656 10124911
2018.8689 1203.0267 3303.27 9926507
2052.4253 1211.2814 3325.9358 10123373
2082.2349 1217.189 3342.1567 10517615
2119.1721 1227.1124 3369.4045 9202264
2156.342 1236.9844 3396.511 11702138
2219.3892 1261.3807 3463.4988 12030843
2260.2051 1272.8112 3494.884 12622721
2355.9775 1314.701 3609.9055 12754566
2376.8628 1314.4242 3609.1453 12294271
2407.0911 1319.2731 3622.4592 12360321
2440.0962 1325.5446 3639.6797 11373171
2471.0759 1330.6156 3653.6035 10320230
2489.5867 1328.9426 3649.01 9267541
2516.2041 1331.5886 3656.2754 9662555
2556.168 1341.1921 3682.6448 10188643
2571.6946 1337.9197 3673.6592 9991520
2595.7698 1339.1123 3676.9338 10122850
2616.8086 1338.7314 3675.8882 9135955
2643.8508 1341.4031 3683.2239 9465177
2677.563 1347.3873 3699.6553 9333591
2702.8264 1349.0573 3704.2405 8873298
2696.8293 1335.223 3666.2546 9136213
2724.1626 1337.98 3673.8247 8872786
2796.8811 1362.8079 3741.9971 9005142
2805.2947 1356.1584 3723.739 9531486
2806.4446 1346.1287 3696.1992 10979444
2797.9597 1331.6685 3656.4946 11439997
2835.4207 1339.1301 3676.9829 9927527
2815.4382 1319.5552 3623.2339 8348499
2765.6487 1286.412 3532.2292 9138787
2751.7693 1270.3442 3488.1106 10850177
2761.5459 1265.3555 3474.4124 11443853
2715.5061 1235.0543 3391.2114 13745837
2725.6179 1230.5492 3378.8413 13614248
2774.696 1243.5741 3414.605 13876137
2801.5117 1246.5048 3422.6521 13479838
2933.822 1295.9948 3558.5417 11439743
3055.3938 1340.069 3679.5605 8215630
3089.7292 1345.5284 3694.5515 8873560
3100.0679 1340.5345 3680.8391 9071195
3178.5308 1364.863 3747.6401 8215627
3192.8228 1361.4902 3738.3792 8018505
3245.8962 1374.5869 3774.3401 9334109
3305.6001 1390.2932 3817.4666 9004886
3337.0151 1393.9691 3827.5598 11241847
3300.168 1369.2727 3759.7483 12886929
3395.5139 1399.3879 3842.4387 13281431
3374.7815 1381.5813 3793.5452 13084050
3421.8223 1391.5721 3820.978 12492171
3448.1274 1393.0543 3825.0479 10255210
3515.0674 1410.8267 3873.8472 9399902
3469.4719 1383.4935 3798.7959 9926505
3524.3054 1396.3018 3833.9648 9663331
3565.373 1403.5271 3853.8037 9334624
3584.2559 1401.9828 3849.5635 9334880
3607.3184 1402.0826 3849.8376 9137503
3628.2402 1401.3544 3847.8381 8874587
3653.3401 1402.2389 3850.2668 9070940
3687.1436 1406.4324 3861.781 8807768
0 0 0 0
0 0 0 0
0 0 0 0
0 0 0 0
0 0 0 0
0 0 0 0
0 0 0 0
0 0 0 0
-3203.4949 1335.7281 3608.936 15
-3041.6165 1276.7523 3449.5923 17
-3022.2861 1277.2196 3450.8547 18
-2993.375 1273.6169 3441.1208 19
-2976.6028 1275.165 3445.3037 18
-2959.6045 1276.6371 3449.2808 17
-2942.657 1278.1516 3453.3728 18
-2921.9604 1278.0475 3453.0916 18
-2902.3494 1278.42 3454.0981 18
-2879.1877 1277.2228 3450.8635 18
-2866.2568 1280.5792 3459.9321 18
-2846.0889 1280.7275 3460.3328 17
-2826.9829 1281.3594 3462.0398 15
-2808.9587 1282.4943 3465.1062 18
-2793.5779 1284.8617 3471.5024 18
-2910.8152 1348.7122 3644.0171 18
-2890.3572 1349.2396 3645.4421 18
-2734.2336 1285.9686 3474.4934 18
-2718.0391 1288.0486 3480.113 18
-2741.0083 1308.8616 3536.3467 18
-2711.3679 1304.6799 3525.0483 18
-2693.6843 1306.2314 3529.2402 18
-2677.7737 1308.6738 3535.8391 18
-2797.9746 1378.1991 3723.686 18
-2780.6343 1380.5424 3730.0171 18
-2744.197 1373.3657 3710.627 18
-2724.5786 1374.5585 3713.8499 18
-2703.4941 1375.0249 3715.1101 18
-2728.2959 1399.0289 3779.9653 18
-2697.4712 1394.6697 3768.187 18
-2679.1392 1396.7506 3773.8096 18
-2654.7563 1395.6855 3770.9319 18
-2640.7029 1400.079 3782.8022 18
-2626.6182 1404.5309 3794.8306 18
-2601.5967 1403.1609 3791.1292 18
-2582.3577 1404.913 3795.8628 17
-2511.3386 1378.2778 3723.8987 18
-2474.6228 1370.1637 3701.9758 18
-2500.563 1396.9065 3774.2307 18
-2488.4829 1402.7007 3789.8857 18
-2432.0557 1383.3754 3737.6716 18
-2402.1484 1378.9183 3725.6294 17
-2381.6494 1379.8295 3728.0911 16
-2362.0725 1381.2968 3732.0554 16
-2342.4995 1382.7941 3736.1011 16
-2326.6846 1386.5596 3746.2749 16
-2289.3472 1377.448 3721.6567 16
-2269.1565 1378.5762 3724.7048 16
-2248.5896 1379.4958 3727.1899 16
-2241.3301 1388.6788 3752.0007 16
-2233.707 1397.818 3776.6936 16
-2235.4888 1413.0874 3817.9492 16
-2192.3645 1399.9929 3782.5696 16
-2170.79 1400.5311 3784.0239 16
-2148.1729 1400.4009 3783.6721 16
-2127.3877 1401.4749 3786.5737 16
-2105.5681 1401.8829 3787.676 16
-2012.1066 1354.0869 3658.5388 16
-1991.7908 1355.011 3661.0352 16
-1971.0901 1355.6906 3662.8713 16
-1949.9795 1356.1001 3663.978 16
-1922.1705 1351.8082 3652.3821 16
-1899.4497 1351.0377 3650.3003 18
-1881.1283 1353.4148 3656.7227 16
-1873.0835 1363.327 3683.5039 16
-1839.4008 1354.5923 3659.9041 16
-1818.3489 1355.062 3661.1731 16
-1813.2394 1367.5669 3694.9595 16
-1790.9921 1367.2941 3694.2222 16
-1768.4821 1366.8112 3692.9177 16
-1750.9323 1370.198 3702.0684 16
-1729.3647 1370.4867 3702.8484 18
-1716.9692 1378.145 3723.5398 17
-1694.5836 1377.8795 3722.8225 16
-1788.6633 1473.5546 3981.3223 16
-1772.4097 1479.676 3997.8616 16
-1739.179 1471.5984 3976.0369 16
-1750.7144 1501.6976 4057.3606 16
-1720.5841 1496.3979 4043.0417 16
-1569.8887 1384.6124 3741.0142 16
-1679.5125 1502.51 4059.5554 16
-1659.2377 1505.9362 4068.8125 16
-1488.2687 1370.676 3703.3599 16
-1455.6213 1360.6667 3676.3164 16
-1585.4152 1504.5045 4064.9443 16
-1556.4309 1499.7802 4052.1799 16
-1533.3044 1500.6411 4054.5061 16
-1510.7565 1502.1046 4058.46 16
-1368.3357 1382.5016 3735.3108 16
-1346.2041 1382.4987 3735.3027 15
-1319.2926 1377.5049 3721.8105 16
-1297.3948 1377.6653 3722.2439 16
-1394.7694 1506.673 4070.8032 16
-1370.7365 1506.7646 4071.0508 16
-1344.7731 1504.6996 4065.4714 16
-1323.076 1507.4202 4072.8218 16
-1297.988 1506.3064 4069.8125 16
-1275.2872 1507.9731 4074.3159 16
-1252.2084 1509.2488 4077.7625 16
-1212.9229 1490.6569 4027.53 16
-1192.1736 1494.5566 4038.0667 16
-1167.8142 1493.9976 4036.5562 16
-1143.3488 1493.2766 4034.6084 16
-1120.0247 1494.0476 4036.6912 16
-1096.0139 1493.9161 4036.3359 16
-1071.8029 1493.4995 4035.2104 16
-1047.843 1493.422 4035.001 16
-1023.7294 1493.1166 4034.1758 16
-999.31421 1492.3464 4032.095 16
-975.12415 1491.8828 4030.8423 16
-943.1571 1479.1989 3996.5723 16
-926.90631 1491.145 4028.8489 16
-895.32056 1478.4008 3994.4158 16
-871.6886 1478.4547 3994.5618 16
-847.90387 1478.2456 3993.9966 16
-824.18347 1478.1396 3993.7102 16
-800.36053 1477.8381 3992.8958 16
-776.81433 1478.0448 3993.4541 18
-753.24219 1478.2135 3993.9099 16
-729.68933 1478.4323 3994.501 16
-648.33777 1357.6338 3668.1218 16
-624.25861 1352.5458 3654.3745 17
-601.7605 1350.6407 3649.2275 17
-629.97516 1466.6593 3962.6921 17
-557.27222 1347.6165 3641.0564 18
-583.44031 1467.708 3965.5256 18
-560.3324 1468.7166 3968.2507 18
-527.13263 1442.2028 3896.6143 18
-489.58051 1400.8071 3784.7698 18
-460.65399 1381.3024 3732.0708 18
-420.83737 1325.5299 3581.3818 18
-401.18436 1330.7174 3595.3977 18
-379.95816 1330.9757 3596.0957 18
-353.85818 1313.1781 3548.009 18
-339.68024 1340.1694 3620.9355 18
-318.095 1339.6052 3619.4111 18
-298.38968 1347.4485 3640.6025 18
-271.62891 1322.1711 3572.3069 18
-248.51459 1311.8711 3544.478 18
-237.34964 1368.5707 3697.6716 18
-213.30023 1354.9542 3660.8818 18
-185.33766 1310.5839 3540.9998 17
-165.96576 1323.3882 3575.5952 15
-146.41795 1338.3312 3615.969 15
-128.18697 1372.4954 3708.2754 15
-102.35071 1322.5205 3573.2507 16
-80.830322 1316.792 3557.7734 16
-64.531952 1422.1006 3842.3013 15
-42.182217 1436.1593 3880.2859 15
-19.034653 1424.1973 3847.9663 15
3.6168721 1369.4115 3699.9434 16
25.4153 1362.9296 3682.4299 16
47.505356 1370.8508 3703.8323 16
69.455879 1371.0125 3704.2688 16
95.353165 1430.2979 3864.449 16
112.80794 1364.5074 3686.6931 15
134.16988 1359.6545 3673.5815 15
156.93953 1368.4309 3697.2939 16
178.04097 1362.2931 3680.7104 16
199.09898 1357.1987 3666.946 16
221.27605 1359.9844 3674.4727 16
243.27127 1361.2535 3677.9016 16
264.7601 1359.7135 3673.7407 16
286.3479 1358.877 3671.4805 16
307.8027 1357.5719 3667.9546 15
346.70901 1428.3339 3859.1426 15
372.76361 1440.671 3892.4758 16
396.58255 1443.4338 3899.9404 16
419.66632 1443.3636 3899.751 16
438.78049 1430.3606 3864.6187 16
452.9527 1403.3361 3791.6025 16
475.30969 1403.0253 3790.7627 16
488.4743 1376.8324 3719.9934 16
507.84396 1369.6357 3700.5493 16
508.27682 1314.0763 3550.436 16
529.2467 1313.9183 3550.009 16
550.13367 1313.5742 3549.0796 16
593.32965 1364.5626 3686.8423 16
614.13013 1362.2529 3680.6021 16
635.28406 1360.859 3676.8357 16
652.37164 1351.1354 3650.5642 16
672.55078 1348.2335 3642.7234 14
685.39624 1331.2675 3596.8838 65550
712.61432 1342.3992 3626.9602 14
721.07294 1318.5753 3562.5916 196617
824.60693 1465.0199 3958.2627 458753
0 0 0 0
0 0 0 0
736.67432 1205.917 3258.2058 9599078
750.89044 1197.8036 3236.2847 9795170
771.8548 1200.5907 3243.8152 9729120
792.79041 1203.199 3250.8621 9597277
809.63538 1199.6224 3241.1987 9597021
832.59161 1205.0566 3255.8813 9728608
853.34656 1207.131 3261.4858 9728865
875.49799 1211.0452 3272.0613 9926502
896.68756 1213.4879 3278.6614 10255723
919.36835 1217.8026 3290.3188 9992551
936.18945 1214.3374 3280.9565 9926501
958.58362 1218.0948 3291.1086 9992294
981.33765 1222.1509 3302.0674 9794659
999.86407 1220.8862 3298.6504 9597280
1022.2091 1224.2433 3307.7207 9597280
1041.1206 1223.4392 3305.5483 9795172
1063.8256 1227.0404 3315.2781 9926758
1084.9753 1228.7496 3319.8962 10255213
1104.4702 1228.5574 3319.377 9860710
1126.066 1230.6678 3325.0789 9860711
1146.3049 1231.2483 3326.647 9794918
1168.2003 1233.5582 3332.8882 10321005
1189.3055 1234.9708 3336.7051 10321262
1205.1249 1230.9384 3325.8096 9860454
1231.661 1237.8057 3344.364 9860710
1268.2902 1254.4382 3389.303 9597539
1263.719 1230.4375 3324.4563 9728867
1295.9211 1242.4285 3356.8542 10189162
1315.6975 1242.3241 3356.5725 9926247
1341.6534 1247.9711 3371.8296 9597025
1350.0088 1237.321 3343.0547 9399646
1380.207 1246.7089 3368.4194 10386541
1398.3473 1245.0928 3364.053 10123626
1414.301 1241.6025 3354.6228 9663075
1435.6458 1242.8763 3358.0642 9597282
1453.2148 1240.891 3352.7004 9925990
1487.7551 1253.2556 3386.1077 9597282
1506.5265 1252.1844 3383.2136 10386798
1517.6119 1244.837 3363.3618 9728610
1548.335 1253.5792 3386.9819 10189160
1573.9747 1258.0348 3399.0203 10189160
1599.139 1262.0024 3409.7402 9925988
1618.0719 1261.015 3407.0723 9794659
1642.2936 1264.1228 3415.469 9926244
1664.9869 1265.9927 3420.5212 9926499
1686.0674 1266.6061 3422.1785 9663584
1703.3464 1264.3832 3416.1726 9860706
1722.8862 1263.8708 3414.7883 9597792
1739.7623 1261.439 3408.218 9006424
1761.3721 1262.4558 3410.9653 9268825
1783.0409 1263.4915 3413.7634 9531997
1801.5592 1262.2965 3410.5347 9400409
1820.3152 1261.2925 3407.822 9137237
1838.8715 1260.174 3404.7998 9005396
1862.26 1262.3551 3410.6929 8874325
1862.2981 1248.8309 3374.1528 8545617
1876.0729 1244.7078 3363.0127 8348750
1914.8138 1257.0614 3396.3904 7362113
1877.3621 1219.6584 3295.3333 8086605
1876.4039 1206.4899 3259.7537 7494723
1922.7786 1223.7136 3306.2898 1707783
1948.1709 1227.371 3316.1714 5915443
1968.868 1228.0267 3317.9431 2890001
1981.5676 1223.7306 3306.3354 7362122
1994.1488 1219.4463 3294.7598 10386287
2027.8702 1228.0471 3317.998 10189164
2053.3354 1231.5309 3327.4109 10319725
2083.9761 1238.0229 3344.9514 10517617
2109.0098 1241.0934 3353.2471 9859171
2140.1069 1247.6412 3370.9385 10977649
2178.4871 1258.2748 3399.6685 11570038
2229.2383 1275.7932 3447.001 12228222
2280.5569 1293.3156 3494.3438 12425346
2332.3054 1310.7642 3541.4873 12623492
2366.5728 1318.1649 3561.4827 12360321
2390.8547 1319.9221 3566.2305 11702134
2415.5938 1321.8986 3571.5708 11044207
2437.2585 1322.1731 3572.3123 10715243
2458.2983 1322.1068 3572.1331 9662554
2500.3843 1333.2639 3602.2778 9925727
2526.197 1335.6282 3608.666 10057314
2559.9507 1342.1162 3626.1956 10057314
2577.4546 1340.0477 3620.6069 9728349
2607.7571 1344.6125 3632.9404 9925471
2635.1411 1347.6104 3641.0398 9662556
2632.1235 1335.1382 3607.3418 9070165
2697.4189 1357.2393 3667.0559 7689025
2672.5498 1333.9824 3604.2195 8347213
2716.4719 1345.1588 3634.4163 8544596
2713.5601 1333.1501 3601.9707 8874074
2671.0125 1302.0081 3517.8296 9401191
2685.697 1299.0306 3509.7849 8414553
2684.7922 1288.6165 3481.6475 7955545
2675.6306 1274.4283 3443.3132 11969433
2674.9348 1264.4568 3416.3713 13218453
2676.6631 1255.7721 3392.907 11969416
2694.2041 1254.5804 3389.687 10784117
2716.2625 1255.4943 3392.156 12428943
2709.8933 1243.3516 3359.3484 13350560
2733.5032 1245.0405 3363.9119 13482660
2742.2446 1239.9821 3350.2444 13944749
2773.5664 1245.1331 3364.1616 13879729
2800.6069 1248.3025 3372.7251 12492174
3042.1965 1346.3794 3637.7141 9202781
3048.8489 1339.8323 3620.0247 9531746
3079.1074 1343.6781 3630.4155 8677466
3139.0728 1360.3441 3675.4446 8610389
3161.0637 1360.4375 3675.6968 8873817
3192.4807 1364.5583 3686.8308 9136730
3249.4485 1379.4702 3727.1206 9531489
3258.5229 1373.9862 3712.3035 10254954
3306.647 1384.931 3741.8748 9926245
3335.4792 1387.7039 3749.3665 12228742
3345.2603 1382.566 3735.4849 12623756
3371.1431 1384.1069 3739.6482 12426634
3399.3533 1386.577 3746.322 12557708
3442.8225 1395.1989 3769.6169 11702399
3461.8745 1393.8782 3766.0486 10781297
3483.6565 1393.6665 3765.4768 10189418
3522.0996 1400.0807 3782.8066 10123627
3524.1863 1392.053 3761.1169 10124139
3530.7085 1385.8669 3744.4033 8939609
3563.2285 1389.899 3755.2979 9268320
3612.564 1400.3998 3783.6689 9399905
0 0 0 0
0 0 0 0
0 0 0 0
0 0 0 0
0 0 0 0
0 0 0 0
0 0 0 0
0 0 0 0
-3049.4946 1291.8685 3435.4448 16
-3031.7229 1292.969 3438.3716 16
-3002.4585 1289.15 3428.2158 16
-2983.6074 1289.7805 3429.8923 17
-2966.8149 1291.3157 3433.9746 17
-2929.1533 1283.7258 3413.7913 18
-2911.228 1284.7402 3416.489 17
-2893.4644 1285.8408 3419.4155 18
-2877.0547 1287.5629 3423.9949 18
-2859.3684 1288.734 3427.1091 18
-2805.6946 1273.5859 3386.8262 18
-2790.7505 1275.9268 3393.0513 18
-2766.5454 1274.0369 3388.0256 18
-2781.6663 1290.3621 3431.4387 18
-2764.3574 1291.7731 3435.1912 18
-2949.5078 1388.5151 3692.4558 18
-2929.3389 1389.3242 3694.6074 18
-2852.4187 1363.027 3624.6755 18
-2776.1184 1336.6294 3554.4768 18
-2756.8186 1337.4821 3556.7441 18
-2656.6436 1298.8088 3453.9011 18
-2625.7651 1293.6766 3440.2532 18
-2623.1648 1302.5052 3463.7312 18
-2612.5164 1307.4457 3476.8689 18
-2593.0959 1308.0396 3478.4482 18
-2560.522 1301.9547 3462.2668 18
-2688.4265 1378.0294 3664.571 18
-2669.0371 1379.2285 3667.7598 18
-2654.2605 1382.8503 3677.3916 18
-2491.106 1308.5887 3479.9087 18
-2653.2241 1405.3807 3737.3059 18
-2619.9006 1399.4073 3721.4214 18
-2600.6372 1400.9066 3725.4082 18
-2602.0959 1413.6896 3759.4016 18
-2603.2451 1426.5237 3793.5312 18
-2585.2097 1428.9769 3800.0552 18
-2459.3479 1371.3486 3646.8052 18
-2470.9526 1390.0304 3696.4854 18
-2475.6978 1405.153 3736.7004 18
-2398.6582 1373.7103 3653.0854 18
-2377.5691 1374.0295 3653.9346 17
-2369.3259 1381.8469 3674.7231 16
-2338.3352 1376.4193 3660.2896 15
-2332.5405 1385.8602 3685.3953 15
-2300.1628 1379.5359 3668.5774 16
-2291.4619 1387.4268 3689.5613 16
-2273.1401 1389.5884 3695.3096 16
-2248.0872 1387.6372 3690.1208 16
-2222.7581 1385.4755 3684.3723 16
-2207.8123 1389.8073 3695.8918 16
-2176.9028 1384.076 3680.6509 16
-2162.4468 1388.7958 3693.2019 16
-2152.0637 1396.2545 3713.0369 16
-2146.4956 1407.0236 3741.6748 16
-2124.9448 1407.4315 3742.7595 16
-2082.1731 1393.6442 3706.0952 16
-2124.4338 1437.0839 3821.6135 16
-2102.0464 1437.2565 3822.0728 16
-2079.4661 1437.2998 3822.1877 16
-2056.7766 1437.2676 3822.1023 16
-2034.1448 1437.2755 3822.1233 16
-2011.9139 1437.5701 3822.9067 16
-1996.6058 1442.8743 3837.012 16
-1974.1614 1443.0839 3837.5693 16
-1946.3647 1439.3405 3827.6147 16
-1924.2926 1439.7921 3828.8157 16
-1901.627 1439.8051 3828.8501 16
-1879.2244 1440.02 3829.4216 16
-1856.4326 1439.9381 3829.2039 16
-1824.1339 1432.389 3809.1289 16
-1750.7086 1391.952 3701.5955 16
-1729.2922 1392.3649 3702.6931 16
-1707.3816 1392.3853 3702.7473 16
-1727.25 1426.9207 3794.5869 16
-1705.0557 1427.1597 3795.2227 16
-1703.1417 1444.6072 3841.6204 16
-1687.5869 1450.8003 3858.0894 16
-1666.7681 1452.5758 3862.811 16
-1583.0345 1398.8079 3719.8269 16
-1613.7765 1446.1029 3845.5979 16
-1595.0652 1449.8032 3855.438 16
-1577.8644 1455.0037 3869.2676 16
-1504.1869 1407.5107 3742.9702 16
-1474.457 1400.335 3723.8877 16
-1469.3995 1416.7291 3767.4846 16
-1445.4008 1415.085 3763.1123 16
-1455.2073 1447.004 3847.9941 16
-1433.7467 1448.3534 3851.5828 16
-1369.6558 1405.9855 3738.9141 16
-1347.8834 1406.3798 3739.9626 16
-1326.1316 1406.8088 3741.1038 16
-1304.1787 1407.0356 3741.707 16
-1282.6499 1407.7356 3743.5686 16
-1260.5546 1407.8278 3743.8135 16
-1244.2267 1414.4797 3761.5029 16
-1224.8754 1417.8746 3770.5308 16
-1246.3414 1469.5219 3907.8757 16
-1221.385 1467.353 3902.1079 16
-1197.422 1466.3171 3899.3533 16
-1171.9545 1463.3617 3891.4937 16
-1148.4932 1462.843 3890.1145 16
-1079.1001 1402.6016 3729.9155 16
-1074.5541 1425.8909 3791.8484 16
-1035.519 1403.4319 3732.1235 16
-1009.7894 1398.4191 3718.793 16
-986.08508 1396.0499 3712.4929 16
-968.68097 1402.6959 3730.1663 16
-945.54742 1401.1619 3726.0869 16
-924.04498 1402.0294 3728.394 16
-896.62006 1393.7333 3706.3323 16
-886.534 1412.6493 3756.6353 16
-863.80511 1411.875 3754.5762 16
-830.92188 1394.0239 3707.1052 16
-830.3623 1430.9049 3805.1821 16
-807.14093 1429.7026 3801.9851 16
-772.83038 1408.2255 3744.8708 16
-750.10168 1407.2063 3742.1606 16
-727.48279 1406.3373 3739.8499 16
-696.13361 1388.0067 3691.1035 16
-673.50165 1386.4318 3686.9155 16
-651.28998 1385.6458 3684.825 16
-642.69952 1414.7894 3762.3267 16
-606.7334 1383.5999 3679.3848 18
-584.71832 1383.0851 3678.0159 18
-555.73157 1365.4017 3630.9905 18
-537.53491 1373.8721 3653.5159 18
-514.64575 1370.557 3644.7 18
-492.31839 1368.5128 3639.2639 18
-473.55283 1376.636 3660.8655 18
-457.61765 1394.1616 3707.4712 18
-425.91751 1363.0042 3624.6147 18
-408.82382 1377.7628 3663.8621 18
-389.03745 1384.5933 3682.0261 18
-367.01855 1383.8174 3679.9631 17
-340.87244 1366.3997 3633.6443 18
-320.06024 1369.4561 3641.7722 18
-296.7272 1361.3888 3620.3188 15
-258.0882 1276.369 3394.2273 16
-238.41978 1278.7275 3400.4995 16
-222.71027 1304.7141 3469.605 16
-197.53914 1274.9199 3390.3735 16
-177.27676 1273.6478 3386.991 16
-156.87988 1270.9615 3379.8474 16
-137.18187 1273.9795 3387.8728 16
-114.69292 1247.6709 3317.9109 16
-94.692749 1243.1533 3305.8975 16
-75.136086 1243.6205 3307.1396 16
-55.558064 1243.939 3307.9866 16
-36.003895 1245.4294 3311.9502 16
-16.38674 1245.7023 3312.6755 16
3.2561238 1252.559 3330.9097 16
23.296621 1269.3094 3375.4539 16
45.977863 1348.0093 3584.739 15
66.484573 1333.3669 3545.801 15
87.824249 1338.4502 3559.3188 16
109.05921 1340.2782 3564.1802 16
130.62221 1344.8909 3576.4463 15
151.577 1342.8278 3570.9597 16
172.33043 1339.7045 3562.6543 16
193.57529 1340.6665 3565.2124 16
213.09755 1330.6823 3538.6619 16
233.40813 1326.9685 3528.7856 16
253.7677 1324.1208 3521.2129 16
274.49854 1323.4958 3519.551 16
295.62585 1324.7358 3522.8484 15
322.9613 1351.7971 3594.812 15
336.09012 1319.7252 3509.5237 16
334.5914 1237.2983 3290.3274 16
346.87503 1212.1074 3223.3376 16
365.90283 1211.8824 3222.739 16
384.0195 1208.8114 3214.5725 16
402.97736 1208.5536 3213.8867 16
423.32397 1212.296 3223.8389 16
442.62363 1212.8464 3225.3027 16
464.12827 1219.1433 3242.0479 16
481.09943 1213.5048 3227.0532 16
502.57175 1219.2166 3242.2429 16
515.21124 1203.8689 3201.429 16
541.06372 1219.3889 3242.7012 16
555.78876 1209.6266 3216.7402 16
573.22607 1206.2189 3207.6785 16
649.06982 1321.9891 3515.5442 16
664.16656 1310.6812 3485.4729 14
681.1994 1303.7605 3467.0691 65551
703.07312 1306.239 3473.6602 196618
698.53876 1260.9082 3353.1125 327683
827.90051 1453.0925 3864.1853 2298901
0 0 0 0
719.09955 1195.9894 3180.4751 9138273
733.36499 1188.5724 3160.7512 10123881
756.90759 1196.1859 3180.9976 9729377
775.3371 1195.5453 3179.2942 9860450
795.91357 1198.1671 3186.2664 9860193
815.01569 1198.4994 3187.1499 9268056
833.98584 1198.627 3187.489 9465692
854.17987 1200.4689 3192.3872 9465691
875.13458 1203.277 3199.855 9728607
894.04694 1203.2174 3199.6963 9597021
914.87494 1205.6847 3206.2578 9597278
935.40765 1207.6705 3211.5386 9728607
957.13995 1211.0951 3220.6455 9860450
977.33948 1212.4843 3224.3396 9663584
999.07214 1215.6855 3232.8528 9860965
1019.4052 1217.0953 3236.6018 9926758
1040.1191 1218.8998 3241.4001 10189930
1057.1691 1216.4225 3234.8125 9992297
1081.5449 1222.313 3250.4771 10058090
1101.8625 1223.4912 3253.6101 10057833
1120.9167 1223.2501 3252.969 9728867
1145.4783 1228.9255 3268.0618 9597281
1167.2949 1231.5167 3274.9524 9860710
1183.7892 1228.4996 3266.929 9860710
1208.9951 1234.4749 3282.8188 9663075
1225.937 1231.9563 3276.1213 9926248
1239.2828 1225.9587 3260.1721 10123623
1263.5413 1230.775 3272.98 9926246
1284.9008 1232.6646 3278.0049 10057832
1309.0552 1237.1392 3289.9041 9663074
1337.0688 1245.0763 3311.0112 9202267
1350.2831 1239.2019 3295.3894 9202524
1364.6259 1234.516 3282.9282 9926247
1386.8145 1236.9596 3289.4268 10057833
1409.4802 1239.7554 3296.8613 9992040
1429.6575 1240.3157 3298.3513 9794404
1450.6329 1241.5442 3301.6182 9728868
1477.1053 1247.3818 3317.1423 10123369
1502.269 1251.9758 3329.3589 9926247
1520.2893 1250.5743 3325.6321 9860454
1539.7654 1250.3911 3325.1445 9597282
1561.1094 1251.7101 3328.6523 9860453
1585.574 1255.4672 3338.6436 9663074
1605.2489 1255.3859 3338.4272 9663073
1619.8906 1251.4182 3327.876 9531487
1642.6415 1253.7354 3334.0378 9334364
1661.3795 1252.9708 3332.0049 9597537
1684.4219 1255.4325 3338.5513 9597536
1707.5059 1257.8677 3345.0271 9663329
1725.4113 1256.476 3341.3259 9465435
1741.5498 1253.8434 3334.3254 9334106
1781.4398 1268.1786 3372.4465 9860704
1782.5883 1254.9219 3337.1934 9136982
1813.4829 1262.6674 3357.7908 9465946
1818.236 1252.2408 3330.0637 9400154
1846.3727 1257.9698 3345.2986 9268312
1859.8792 1253.7151 3333.9841 9465693
1886.23 1258.1171 3345.6899 9136983
1888.2261 1246.3516 3314.4026 8150857
1896.0612 1238.6429 3293.9031 8282701
1909.3109 1234.5925 3283.1318 9533536
1943.7365 1244.1783 3308.623 8086088
1976.4971 1252.5176 3330.7996 8217933
1986.0187 1246.111 3313.7625 2363655
1982.9083 1231.9813 3276.188 12031369
2020.5005 1243.1692 3305.9395 9728614
2045.5813 1246.5181 3314.8452 9399135
2072.364 1250.8304 3326.3132 10517616
2083.106 1245.4709 3312.0608 10517358
2119.3176 1255.2976 3338.1926 10582891
2145.3589 1258.9744 3347.97 10780524
2175.2825 1264.8409 3363.5708 9727834
2196.0315 1265.3147 3364.8308 12096895
2230.3682 1273.5387 3386.7007 10846827
2272.4026 1285.9722 3419.7649 11833721
2311.4739 1296.5239 3447.825 12228734
2348.1023 1305.5325 3471.7812 12294785
2370.5017 1306.5422 3474.4663 12097405
2414.8171 1319.5098 3508.9509 11965307
2429.0366 1315.9513 3499.4878 10781033
2467.3704 1325.4067 3524.6323 9859935
2504.1897 1333.8966 3547.2095 9728349
2540.5718 1342.0143 3568.7966 8872532
2544.5164 1333.0049 3544.8381 8675408
2554.9133 1327.4955 3530.187 8806993
2576.676 1327.9331 3531.3508 9004888
2590.075 1324.0878 3521.125 9201757
2642.1265 1339.9061 3563.1904 6833983
2641.9155 1329.1798 3534.666 2495761
2608.1431 1301.8695 3462.0405 7494998
2595.5981 1285.4988 3418.5059 10848894
2633.355 1294.1011 3441.3821 8152149
2640.1118 1287.4541 3423.7058 11638405
2648.5437 1281.719 3408.4546 10520180
2641.217 1268.5024 3373.3079 11835780
2654.0156 1265.0773 3364.1992 12428428
2674.3867 1265.2856 3364.7537 12033928
2704.1357 1269.8951 3377.0117 12823188
2702.0164 1259.5812 3349.5835 13613733
2718.834 1258.1808 3345.8596 13350561
2728.5171 1253.5231 3333.4734 14076080
2771.0854 1263.9315 3361.1526 13814705
2801.8005 1268.8236 3374.1621 13086621
2845.0659 1279.2899 3401.9949 9400161
2954.9175 1319.3387 3508.4961 9531235
2997.3164 1328.9218 3533.9797 9137760
3047.8325 1341.9456 3568.614 9268319
3099.574 1355.3259 3604.196 9136990
3131.9824 1360.1273 3616.9646 9136989
3165.6155 1365.3918 3630.9644 9071197
3193.7227 1368.2178 3638.4792 8413267
3237.4316 1377.6449 3663.5488 8742230
3292.6567 1391.8147 3701.23 9597539
3290.019 1381.4998 3673.7998 11176312
3309.4268 1380.5168 3671.1858 12690064
3334.209 1381.7738 3674.5283 12755855
3363.6924 1384.9502 3682.9753 12887440
3441.4141 1407.8191 3743.7903 12821134
3409.877 1385.9854 3685.7283 12294535
3429.2712 1384.9996 3683.1072 11505276
3410.9448 1368.8882 3640.262 10189419
3510.2502 1399.8909 3722.707 9992041
3525.187 1397.0702 3715.2061 10255214
3529.9873 1390.2922 3697.1814 10189677
0 0 0 0
0 0 0 0
0 0 0 0
0 0 0 0
0 0 0 0
0 0 0 0
0 0 0 0
0 0 0 0
-3070.6917 1321.3422 3459.3247 16
-3052.8271 1322.4811 3462.3066 16
-3036.1885 1324.1702 3466.7288 16
-3026.1589 1328.7843 3478.8086 16
-2915.2139 1288.8458 3374.2483 16
-2893.4897 1288.074 3372.2273 16
-2878.8386 1290.4617 3378.4783 18
-2948.814 1331.0829 3484.8262 18
-2946.7966 1339.5505 3506.9949 18
