# .PCD v0.7 - Point Cloud Data file format
VERSION 0.7
FIELDS x y z rgb
SIZE 4 4 4 4
TYPE F F F U
COUNT 1 1 1 1
WIDTH 1383
HEIGHT 1
VIEWPOINT 0 0 0 1 0 0 0
POINTS 1383
DATA ascii
-566.76923 1376.9045 4189.6113 18
-539.86542 1371.6108 4173.5039 18
-516.20416 1374.4426 4182.1206 18
-491.34912 1374.2211 4181.4463 18
-466.77631 1374.8073 4183.23 18
-442.18405 1375.3987 4185.0298 18
-417.55725 1375.9464 4186.6963 18
-392.80615 1376.1281 4187.249 18
-366.70609 1371.2898 4172.5273 18
-341.37003 1368.8156 4164.9985 18
-316.24445 1366.8655 4159.0649 18
-291.75858 1367.5842 4161.252 19
-268.1348 1372.8499 4177.2739 19
-243.25343 1372.0925 4174.9697 19
-217.97217 1368.653 4164.5039 19
-193.27887 1368.4984 4164.0337 18
-168.67513 1369.0255 4165.6372 18
-144.87454 1377.369 4191.0249 18
-119.4017 1369.9768 4168.5322 18
-94.710388 1370.035 4168.709 18
-70.029922 1370.3463 4169.6562 18
-45.442181 1373.8002 4180.1655 18
-20.679565 1373.9084 4180.4951 18
4.0862298 1373.7726 4180.0815 18
28.855822 1374.0508 4180.9282 18
53.679195 1375.45 4185.1855 18
78.557167 1376.9221 4189.665 18
103.40419 1377.2749 4190.7388 18
128.17633 1376.687 4188.9497 18
152.93513 1376.1698 4187.376 18
177.77002 1376.386 4188.0337 18
202.62032 1376.6539 4188.8491 18
227.15543 1374.9557 4183.6816 18
252.48421 1377.9229 4192.71 18
277.39645 1378.2891 4193.8242 18
302.55389 1379.713 4198.1572 18
326.53738 1375.9739 4186.7798 18
353.73523 1385.3512 4215.313 18
378.8085 1385.72 4216.4351 18
403.77176 1385.6656 4216.2695 18
428.82492 1385.9081 4217.0073 18
453.72839 1385.6667 4216.2729 18
478.66534 1385.5475 4215.9102 18
501.7518 1380.3491 4200.0928 18
525.7782 1378.106 4193.2671 18
552.75 1383.4366 4209.4873 18
596.37659 1428.1919 4345.6675 18
606.03296 1391.2581 4233.2861 18
626.55402 1381.2106 4202.7139 18
679.64825 1440.9926 4384.6172 18
679.95111 1388.5652 4225.0923 16
705.62891 1389.8403 4228.9722 16
727.68469 1384.1385 4211.623 16
758.26331 1394.4888 4243.1162 16
783.26221 1394.2427 4242.3677 16
806.46887 1390.9208 4232.2598 16
826.00647 1381.6619 4204.0869 16
850.22589 1380.547 4200.6948 16
873.58624 1378.1404 4193.3721 16
899.20898 1379.3374 4197.0142 14
921.013 1374.7697 4183.1157 14
944.30267 1372.601 4176.5166 14
955.13672 1352.9001 4116.5718 196617
974.18854 1345.5306 4094.1477 524288
0 0 0 0
0 0 0 0
924.95905 1188.7461 3617.0876 9664098
946.94257 1189.4434 3619.2092 9992551
968.69189 1189.822 3620.3613 10189671
993.32428 1193.6488 3632.0054 10058342
1005.483 1182.6418 3598.5139 10058341
1035.5344 1192.7004 3629.1196 10058342
1048.8767 1183.496 3601.1125 9992549
1083.0431 1197.6869 3644.2922 9926499
1101.5391 1194.3326 3634.0862 9927012
1124.6333 1195.9969 3639.1504 9861219
1151.5499 1201.5872 3656.1604 9993319
1178.0554 1206.5502 3671.2612 9795683
1203.8391 1210.6072 3683.6057 9927526
1219.4895 1204.5107 3665.0559 10256234
1258.9017 1221.6871 3717.3196 10124905
1282.4585 1223.1506 3721.7729 10058855
1307.847 1226.2822 3731.3018 10123878
1330.822 1227.0844 3733.7424 9993319
1349.3147 1223.7949 3723.7334 9927525
1377.8683 1229.5896 3741.365 9927269
1406.7526 1235.491 3759.322 10124905
1431.4525 1237.5909 3765.7117 10255980
1454.8198 1238.4919 3768.4531 10124650
1477.7518 1239.0009 3770.0015 9927271
1504.1367 1242.3463 3780.1809 9992807
1521.4315 1238.1958 3767.552 10058343
1554.2124 1246.5864 3793.0828 10058343
1575.2736 1245.4717 3789.6907 10124135
1600.5956 1247.7097 3796.5007 10255720
1622.8453 1247.5239 3795.9355 10321514
1647.6486 1249.2794 3801.2771 10255721
1672.5488 1251.0602 3806.6953 9926756
1699.9193 1254.6166 3817.5168 9860193
1719.8782 1252.6814 3811.6284 9663074
1753.0104 1260.2668 3834.7092 10057573
1775.6267 1260.1949 3834.4905 9992036
1797.6591 1259.7156 3833.0317 10057573
1825.8387 1263.5022 3844.5537 10189160
1882.6528 1286.7667 3915.3425 9925218
1905.6434 1286.6285 3914.9221 9925218
1916.1378 1278.158 3889.1482 10057061
1944.6178 1281.7434 3900.0579 9991268
1973.1218 1285.2605 3910.7593 10188390
2000.5431 1287.9987 3919.0911 9925475
2042.3668 1299.8403 3955.1223 10255210
2052.5457 1291.5017 3929.75 10123111
2076.8501 1292.1387 3931.688 10189416
2100.2627 1292.2128 3931.9136 10123624
2123.7378 1292.3232 3932.2495 10189417
2142.7102 1289.7211 3924.332 10057574
2171.2783 1292.8885 3933.97 10057830
2183.198 1286.1808 3913.5596 10123624
2046.6252 1193.0522 3630.1902 9861996
2040.5631 1177.1488 3581.7998 2165767
2002.7618 1143.4518 3479.2671 1310720
2010.9955 1136.4565 3457.9822 10387816
2027.6379 1134.3063 3451.4397 5386273
2020.6976 1119.1383 3405.2866 4466462
2022.6588 1109.1511 3374.8979 11900555
2064.7712 1121.1616 3411.4434 8282456
2082.4878 1119.8208 3407.3633 10256247
2100.9995 1118.929 3404.6499 10322811
2084.3777 1099.5211 3345.5962 8414557
2107.3325 1101.1593 3350.5806 9993329
2105.6138 1089.9941 3316.6077 10190708
2150.4927 1102.9341 3355.9812 9862000
2171.2812 1103.3951 3357.3838 10651515
2163.9028 1089.6638 3315.6025 10980480
2170.4668 1083.1373 3295.7437 10651258
2416.0923 1194.9634 3636.0054 10519412
2720.6292 1333.6923 4058.1265 9070938
2731.5581 1327.3207 4038.739 9860708
2749.0056 1324.1998 4029.2429 11834240
2776.458 1325.9105 4034.4482 12689035
2828.2437 1339.1134 4074.6216 11176310
2907.1606 1364.83 4152.8716 9662300
2933.0786 1365.4424 4154.7349 9531230
2956.7981 1365.0297 4153.479 9597793
2961.3059 1355.8276 4125.4795 9597535
2980.8767 1353.6163 4118.751 9466466
2991.6479 1347.4777 4100.0723 9334881
3017.9663 1348.384 4102.8301 9664869
3012.3677 1335.1298 4062.5005 9269853
3037.0225 1335.3881 4063.2864 11703934
3007.408 1311.9678 3992.0234 11900543
3110.5017 1346.3544 4096.6543 12492678
3160.9114 1357.5813 4130.8154 12756110
3187.8862 1358.6482 4134.0615 13282712
3216.3328 1360.3212 4139.1519 13677726
3206.7178 1345.9927 4095.5535 13874849
3266.7502 1360.8938 4140.8945 13084820
3298.8279 1364.014 4150.3887 10715760
3354.1877 1376.6436 4188.8174 9334108
3428.3328 1396.741 4249.9692 9136729
3419.9128 1383.1528 4208.6235 8874071
3511.9812 1410.1086 4290.644 9268317
3549.3643 1414.8778 4305.1558 9531745
3570.2732 1413.0588 4299.6211 9597538
3630.4458 1426.6957 4341.1147 9531486
3661.4299 1428.7506 4347.3677 9268057
3650.7629 1414.6376 4304.4248 9399642
3620.6328 1393.2307 4239.2886 11110514
3690.5249 1410.3427 4291.356 11900542
3728.3169 1415.0372 4305.6406 11505526
3703.2893 1395.9875 4247.6768 11373940
3762.1379 1408.5995 4286.0522 11308147
3837.3652 1427.1337 4342.4473 12097408
3822.4299 1412.1123 4296.7407 11571323
3902.207 1432.0477 4357.3999 11176564
3933.0583 1433.884 4362.9873 10254693
3945.7402 1429.1155 4348.478 9991522
3944.1558 1419.2754 4318.5366 9728606
4002.7173 1431.0657 4354.4116 9794402
4021.1353 1428.4445 4346.436 9531233
4007.6616 1414.5999 4304.3101 9202522
4062.5378 1424.9036 4335.6616 9268059
4101.6216 1429.5734 4349.8711 9005145
4145.6113 1435.8842 4369.0732 8873557
4205.6255 1447.6323 4404.8203 8807763
0 0 0 0
0 0 0 0
0 0 0 0
0 0 0 0
0 0 0 0
0 0 0 0
0 0 0 0
-3948.1111 1478.2388 4418.3042 16
-4166.7783 1570.5237 4694.1343 16
-4132.9805 1568.2512 4687.3423 16
-4101.604 1566.873 4683.2231 16
-4069.6716 1565.2625 4678.4087 16
-4037.8723 1563.6812 4673.6826 16
-3486.7151 1359.5662 4063.6038 16
-3461.2998 1359.0393 4062.0293 16
-3433.8352 1357.6949 4058.011 16
-3408.4446 1357.1573 4056.4041 16
-3383.4756 1356.7811 4055.2798 16
-3358.6023 1356.4385 4054.2554 16
-3301.9819 1343.1766 4014.6172 16
-3274.2437 1341.5563 4009.7739 16
-3250.5366 1341.5759 4009.833 16
-3225.812 1341.1727 4008.6277 16
-3232.884 1354.0815 4047.2112 16
-3174.9573 1339.7556 4004.3921 16
-3150.6301 1339.4985 4003.624 16
-3125.8608 1339.0485 4002.2786 16
-3101.9485 1338.9612 4002.0178 15
-3077.7566 1338.7511 4001.3899 15
-3056.3557 1339.7612 4004.4089 16
-3059.6716 1351.7065 4040.1123 17
-3033.7168 1350.807 4037.4236 17
-3008.5037 1350.226 4035.687 16
-2983.7651 1349.8505 4034.5647 16
-2957.8398 1348.9275 4031.8062 15
-2931.8943 1347.9803 4028.9751 16
-2907.4875 1347.7308 4028.2292 16
-2882.3792 1347.1493 4026.4912 18
-2859.717 1347.7108 4028.1697 18
-2899.5906 1378.0015 4118.7051 18
-2872.7107 1376.813 4115.1528 18
-2844.5754 1374.9973 4109.7261 18
-2821.7346 1375.7317 4111.9209 18
-2814.9783 1384.389 4137.7969 18
-2780.7979 1379.593 4123.4619 18
-2752.1792 1377.4956 4117.1934 18
-2729.4971 1378.3588 4119.7729 18
-2719.9497 1385.9301 4142.4028 18
-2660.5513 1368.0068 4088.8323 16
-2637.9312 1368.8386 4091.3184 16
-2618.6353 1371.4268 4099.0542 17
-2598.2561 1373.491 4105.2236 18
-2588.1018 1381.0499 4127.8169 17
-2561.3523 1379.8135 4124.1211 15
-2538.6814 1380.7715 4126.9844 16
-2509.5166 1378.1818 4119.2441 16
-2488.4619 1380.0388 4124.7944 16
-2437.4441 1365.1511 4080.2969 16
-2415.6111 1366.4746 4084.2524 16
-2419.0266 1382.2521 4131.4097 16
-2397.9006 1384.1857 4137.189 16
-2373.4202 1384.2026 4137.2397 16
-2348.9109 1384.203 4137.2407 16
-2331.647 1388.5181 4150.1382 16
-2305.2861 1387.45 4146.9458 16
-2299.9573 1399.1536 4181.9268 16
-2259.5222 1389.5231 4153.1421 16
-2251.8977 1400.0798 4184.6953 16
-2218.54 1394.6943 4168.5986 16
-2184.0559 1388.4717 4149.9995 16
-2164.116 1391.4586 4158.9272 16
-2139.8953 1391.7303 4159.7393 16
-2126.1604 1398.9075 4181.1909 16
-2100.6995 1398.4478 4179.8169 16
-2076.6079 1398.8995 4181.1675 16
-2051.2368 1398.4899 4179.9429 16
-2059.7991 1421.4879 4248.6816 16
-1854.5859 1295.7012 3872.7183 16
-1827.3212 1292.6439 3863.5803 16
-1814.8214 1300.0863 3885.8247 17
-1792.8455 1300.8442 3888.0903 18
-1770.1195 1301.0707 3888.7668 18
-1745.0897 1299.5873 3884.333 18
-1722.0656 1299.5778 3884.3049 15
-1702.9076 1302.5254 3893.1147 15
-1681.0649 1303.4723 3895.9448 16
-1659.4417 1304.6178 3899.3687 16
-1633.4841 1302.3401 3892.561 16
-1710.5115 1383.2804 4134.4834 18
-1686.2961 1383.5088 4135.166 18
-1662.2312 1383.869 4136.2427 18
-1690.1091 1428.1315 4268.5386 18
-1609.5518 1380.7197 4126.8296 18
-1649.0297 1436.4032 4293.2617 16
-1562.0979 1381.9961 4130.6445 16
-1514.6831 1361.3743 4069.0083 16
-1565.0358 1429.3788 4272.2666 16
-1543.8181 1433.1776 4283.6211 16
-1461.02 1378.981 4121.6328 16
-1495.9651 1435.9625 4291.9448 16
-1455.7936 1421.5642 4248.9097 16
-1432.0381 1422.9713 4253.1152 16
-1407.9301 1424.072 4256.4053 16
-1398.7015 1440.5376 4305.6191 16
-1352.8048 1419.1484 4241.6895 16
-1284.7732 1373.2897 4104.6221 18
-1245.3019 1356.7786 4055.272 18
-1200.6519 1333.8644 3986.7839 18
-1268.0017 1436.9536 4294.9072 18
-1227.7505 1419.8298 4243.7261 18
-1133.7517 1338.5345 4000.7427 18
-1123.1826 1354.3698 4048.0723 18
-1098.7905 1353.8643 4046.5615 18
-1089.9894 1372.9747 4103.6807 18
-1095.7505 1411.7185 4219.4819 18
-1041.9424 1373.733 4105.9473 18
-1026.6267 1385.8948 4142.2974 18
-991.38177 1371.0895 4098.0459 18
-971.32324 1377.0712 4115.9248 18
-966.94397 1406.1624 4202.875 18
-929.633 1387.6349 4147.4985 18
-900.54016 1380.7018 4126.7759 18
-871.68677 1373.7588 4106.0244 18
-875.08875 1418.7103 4240.3799 18
-824.47095 1376.1527 4113.1792 18
-822.88263 1415.332 4230.2822 16
-774.96417 1374.7832 4109.0859 16
-750.2948 1374.1858 4107.3003 15
-725.05011 1372.4594 4102.1401 15
-706.66364 1384.0452 4136.769 16
-672.12152 1363.6849 4075.9146 16
-644.33197 1356.0183 4052.9998 16
-623.90948 1363.8625 4076.4453 16
-598.6167 1361.2635 4068.677 18
-577.61469 1368.6127 4090.6431 18
-554.52142 1371.4337 4099.0747 18
-526.52032 1361.8192 4070.3379 18
-501.35962 1358.9811 4061.855 18
-475.54233 1353.9871 4046.9285 18
-457.01569 1370.3234 4095.7559 18
-447.9726 1418.5214 4239.8149 18
-407.99268 1368.6638 4090.7959 18
-383.62094 1368.1755 4089.3364 18
-359.2804 1367.74 4088.0347 18
-334.68628 1366.2064 4083.4512 18
-299.24942 1316.725 3935.5562 18
-276.53009 1319.568 3944.0535 18
-263.12448 1371.4817 4099.2183 18
-238.7751 1371.1105 4098.1084 18
-214.21078 1369.281 4092.6404 18
-189.97755 1369.371 4092.9094 18
-165.66655 1368.8448 4091.3369 18
-141.45901 1369.1396 4092.2183 18
-117.20959 1369.0673 4092.0015 18
-93.035385 1370.0648 4094.9832 18
-68.818359 1370.9131 4097.5186 18
-44.529922 1370.488 4096.248 18
-20.272337 1371.1316 4098.1719 18
4.0055327 1370.9171 4097.5308 18
28.283649 1371.0828 4098.0259 18
52.579563 1371.5597 4099.4512 18
77.273155 1378.8312 4121.1851 18
101.78508 1380.1477 4125.1201 18
126.37811 1381.8412 4130.1816 18
150.61441 1379.7174 4123.834 18
175.14578 1380.5123 4126.21 18
199.80687 1382.0098 4130.6855 18
224.38414 1382.6638 4132.6406 18
248.86943 1382.6783 4132.6836 18
273.64743 1384.1708 4137.1445 18
299.39319 1389.9104 4154.2998 18
323.34647 1387.089 4145.8667 18
348.06168 1387.7035 4147.7036 18
372.57684 1387.4921 4147.0718 18
397.27194 1387.9355 4148.397 18
421.78714 1387.7354 4147.7988 18
445.80872 1386.0226 4142.6792 18
470.34006 1385.9907 4142.584 18
494.55704 1385.0815 4139.8667 18
519.21088 1385.424 4140.8901 18
543.24445 1384.1549 4137.0972 18
590.50378 1439.619 4302.8735 18
590.92133 1381.0203 4127.728 18
614.39502 1378.8212 4121.1553 18
638.66425 1378.5072 4120.2168 18
662.78314 1377.9039 4118.4136 16
683.36957 1370.2604 4095.5679 16
714.33923 1383.2469 4134.3833 16
732.388 1371.182 4098.3223 16
761.75751 1380.406 4125.8921 16
787.1062 1381.9967 4130.6465 16
810.59912 1380.3314 4125.6689 16
834.5274 1379.4832 4123.1338 16
859.06891 1379.6681 4123.6865 16
882.92944 1378.7794 4121.0303 15
905.3609 1375.7667 4112.0259 14
925.04358 1368.8447 4091.3364 13
942.62958 1359.2526 4062.6665 196619
934.12115 1313.4474 3925.7598 327683
0 0 0 0
909.28827 1217.8864 3640.1375 7691344
904.17511 1182.9819 3535.8115 9993064
928.32275 1187.0745 3548.0442 9993065
947.33386 1184.5634 3540.5386 10190697
964.45032 1179.8431 3526.4304 10058856
992.62463 1188.5638 3552.4954 10058342
1013.062 1187.8502 3550.3625 10189671
1034.0099 1187.7524 3550.0703 10058342
1057.5133 1190.5353 3558.3879 9926756
1081.5408 1193.7878 3568.1096 9860963
1105.7175 1197.0775 3577.9421 9860963
1128.7864 1199.0664 3583.8865 9860706
1148.5543 1197.5402 3579.3247 9993062
1177.7889 1205.7606 3603.895 9861733
1195.6191 1202.2211 3593.3157 9927269
1226.1649 1211.3677 3620.6538 9992549
1252.2002 1215.8201 3633.9617 9860706
1274.9653 1217.0006 3637.49 9992294
1296.9723 1217.4302 3638.7739 10059370
1310.1135 1209.6598 3615.5491 9532771
1344.8599 1221.7668 3651.7361 9795429
1369.9578 1224.8643 3660.9937 9927272
1394.0841 1227.0099 3667.4067 9993065
1418.3898 1229.2451 3674.0876 9927272
1439.8042 1228.9449 3673.1904 10255723
1465.3451 1232.1233 3682.6902 9663329
1488.808 1233.4869 3686.7661 9926757
1514.5332 1236.6582 3696.2446 10584688
1536.6921 1236.8688 3696.874 9992551
1562.2043 1239.7344 3705.4392 10123880
1583.7842 1239.4432 3704.5688 9926758
1609.4393 1242.3058 3713.1248 10058088
1634.3912 1244.5557 3719.8494 10189673
1655.6914 1244.002 3718.1943 9926244
1684.5128 1249.0396 3733.251 9399901
1712.3186 1253.2031 3745.6958 9794659
1731.4967 1251.0269 3739.1912 9794660
1758.8883 1254.7648 3750.3635 9860197
1790.6829 1261.5114 3770.5283 9860453
1810.767 1259.9435 3765.842 10122597
1841.6442 1265.8324 3783.4431 9991268
1864.8633 1266.379 3785.0771 10057060
1891.0017 1268.8717 3792.5273 10057061
1915.9366 1270.5076 3797.417 9991267
1947.9125 1276.7206 3815.9868 10057061
1981.6921 1283.9597 3837.6238 9662303
2007.188 1285.7281 3842.9097 9793889
2023.6624 1281.7429 3830.9983 10056804
2051.1482 1284.7434 3839.9661 10057061
2069.552 1282.0515 3831.9207 9794145
2101.9961 1288.0217 3849.7651 10386283
2120.573 1285.4576 3842.1011 10781554
2123.0906 1273.3163 3805.8118 10649461
2105.7754 1249.6606 3735.1077 8741212
2017.119 1184.6002 3540.6487 1310720
2002.8159 1164.0952 3479.3611 1376256
2003.5148 1152.6387 3445.1189 1048576
2027.1049 1154.45 3450.5327 2098689
1995.5258 1125.1195 3362.8669 2426368
2018.6693 1126.9178 3368.2417 3741962
2055.6335 1136.3206 3396.3457 3676685
2028.7329 1110.5798 3319.4094 6571062
2054.9883 1114.1531 3330.0894 5650218
2069.6174 1111.4148 3321.9048 7492682
2066.4753 1099.2747 3285.6191 9927538
2072.9421 1092.4247 3265.1455 9993842
2118.2202 1105.9657 3305.6182 10388087
2139.146 1106.6602 3307.6938 10519929
2181.5872 1118.3719 3342.699 10585723
2181.5015 1108.2679 3312.4993 10519930
2242.7024 1129.2019 3375.0688 10717564
2304.7192 1150.1731 3437.7495 11243395
2645.0579 1308.4572 3910.8442 11506565
2679.2842 1313.8796 3927.0515 9729638
2740.4172 1332.2898 3982.0776 10979446
2755.0547 1327.9741 3969.1785 12097668
2792.7803 1334.7662 3989.4795 12096383
2787.6147 1321.1172 3948.6838 10912881
2857.0513 1342.7568 4013.3623 10782067
2862.6143 1334.2677 3987.9893 10519153
2881.4795 1332.067 3981.4116 10190700
2903.5334 1331.364 3979.3108 10321517
2902.9434 1320.3732 3946.4602 10190956
2893.8491 1305.7207 3902.6653 11375229
2909.75 1302.4891 3893.0063 13414556
2916.8792 1295.4127 3871.8557 13546397
2971.3047 1309.2877 3913.3267 12952978
2998.8347 1311.188 3919.0066 12426632
3060.5254 1327.8807 3968.8997 11900546
3105.7935 1337.2479 3996.897 13084820
3162.8052 1351.4915 4039.4692 13676957
3212.8853 1362.5814 4072.616 13611164
3247.1213 1366.8367 4085.3347 13742236
3216.0889 1343.7581 4016.3552 12886930
3236.6677 1342.4247 4012.3696 8741970
3345.178 1377.3148 4116.6528 9004889
3401.5825 1390.4016 4155.7681 9005145
3438.5212 1395.401 4170.7104 9070682
3467.9607 1397.3071 4176.4077 7952202
3474.2222 1389.9138 4154.3101 7228736
3534.1672 1403.9502 4196.2632 8347216
3487.8782 1375.8839 4112.376 9334108
3546.1655 1389.1735 4152.0972 9531488
3586.427 1395.2672 4170.3105 9662047
3571.9138 1380.1138 4125.0186 10517869
3585.2966 1375.8715 4112.3389 11504759
3621.2996 1380.3085 4125.6006 11636342
3609.5725 1366.615 4084.6719 12228736
3589.3125 1349.8945 4034.6965 13084048
3652.8335 1364.696 4078.9365 12821135
3769.8196 1399.1462 4181.9048 11242103
3891.6052 1434.9164 4288.8179 11636604
3894.4854 1426.6637 4264.1514 11439737
3921.4387 1427.2794 4265.9917 11176567
3887.6953 1405.9368 4202.2012 9728611
3941.6702 1416.3865 4233.4341 9333339
4012.7827 1432.8231 4282.5615 9268316
4027.5603 1429.0645 4271.3271 8873045
4084.1101 1440.0818 4304.2568 8412754
4135.5625 1449.1761 4331.439 6307381
0 0 0 0
0 0 0 0
0 0 0 0
0 0 0 0
0 0 0 0
0 0 0 0
0 0 0 0
-3858.2629 1470.1776 4317.7559 16
-4358.3809 1671.8295 4909.9863 16
-4321.6895 1668.8932 4901.3628 16
-4285.7998 1666.2291 4893.5386 16
-4249.1504 1663.231 4884.7334 16
-4214.5874 1661.0144 4878.2236 16
-3677.4224 1459.3185 4285.8638 16
-3649.2974 1458.2258 4282.6548 16
-3618.7258 1456.1333 4276.5093 16
-3589.7527 1454.6591 4272.1797 16
-3541.6958 1445.3757 4244.9155 16
-3437.0066 1412.6825 4148.8989 16
-3406.0132 1410.027 4141.1001 16
-3767.9165 1571.1652 4614.3457 16
-3899.5068 1637.9196 4810.3965 16
-3867.8699 1636.5914 4806.4956 16
-3829.1013 1632.2036 4793.6094 16
-3792.5413 1628.6985 4783.3149 16
-3634.0789 1572.3959 4617.9604 16
-3728.3167 1625.4072 4773.6489 16
-3147.0012 1382.4615 4060.1431 16
-3627.7317 1605.9185 4716.4126 16
-3592.2625 1602.5598 4706.5488 16
-3557.2317 1599.3462 4697.1104 16
-3519.0088 1594.6353 4683.2749 16
-3019.3127 1379.0714 4050.1868 16
-3082.2458 1419.0935 4167.7275 16
-3083.5039 1431.137 4203.0977 16
-3382.5647 1582.72 4648.2812 16
-3027.6052 1428.26 4194.6484 16
-3000.1543 1427.0229 4191.0151 18
-3315.9871 1590.4105 4670.8677 17
-2905.9722 1405.4882 4127.77 16
-2876.4995 1403.0402 4120.5806 16
-2828.8066 1391.5873 4086.9443 16
-2789.6868 1384.1901 4065.22 18
-2766.6191 1384.6984 4066.7126 18
-2740.6428 1383.7471 4063.9187 18
-2717.8542 1384.4027 4065.8442 18
-2707.2092 1391.3108 4086.1328 18
-2684.3433 1392.0063 4088.1755 18
-2661.6396 1392.7996 4090.5049 15
-2666.4568 1408.1409 4135.5605 15
-2605.6587 1388.7942 4078.7415 16
-2578.3833 1387.1199 4073.8245 17
-2555.3696 1387.7285 4075.6118 17
-2550.0916 1398.072 4105.9897 17
-2527.0208 1398.7662 4108.0283 15
-2499.4514 1396.9597 4102.7227 16
-2443.7344 1379.231 4050.6555 16
-2387.738 1360.9917 3997.0889 16
-2425.9858 1396.6434 4101.7939 16
-2372.1387 1379.4609 4051.3308 16
-2345.845 1378.114 4047.375 15
-2351.8828 1395.9293 4099.6968 15
-2327.3435 1395.7782 4099.2529 15
-2256.8176 1367.7537 4016.948 16
-2291.4314 1403.5312 4122.0229 16
-2266.2644 1403.0687 4120.6646 16
-2261.7219 1415.504 4157.1855 16
-2202.6521 1393.7113 4093.1824 16
-2261.7068 1447.0077 4249.7085 16
-2233.0466 1444.7535 4243.0884 16
-2198.8723 1438.84 4225.7207 16
-2168.2576 1435.1462 4214.8726 16
-2145.1082 1436.3652 4218.4526 16
-2116.2698 1433.7588 4210.7979 16
-2089.9597 1432.8232 4208.0503 16
-2065.9951 1433.493 4210.0171 16
-2038.8176 1431.9221 4205.4038 16
-1973.34 1403.0804 4120.6987 16
-1993.2676 1435.0016 4214.4478 16
-1967.448 1434.3802 4212.623 18
-1898.8405 1402.1473 4117.9585 18
-1874.0991 1401.8888 4117.1992 17
-1857.9568 1408.1406 4135.5601 17
-1828.0204 1403.9652 4123.2974 16
-1807.9932 1407.3905 4133.3569 17
-1783.4606 1407.3544 4133.251 17
-1761.6207 1409.4718 4139.4697 17
-1670.7473 1355.6357 3981.3586 18
-1647.8191 1356.1774 3982.9495 18
-1731.5323 1445.7772 4246.0947 18
-1707.4733 1446.7058 4248.8218 16
-1591.2107 1368.371 4018.7607 16
-1567.426 1368.3912 4018.8206 16
-1544.5316 1369.2017 4021.2002 16
-1531.8049 1379.1919 4050.5408 16
-1570.1141 1436.1829 4217.917 16
-1547.9098 1438.7701 4225.5156 16
-1508.3 1424.9983 4185.0693 16
-1435.7653 1379.1396 4050.3872 16
-1413.165 1380.5027 4054.3904 16
-1406.049 1397.3005 4103.7236 16
-1373.2469 1388.7142 4078.5068 16
-1348.6581 1388.2749 4077.2166 16
-1307.212 1370.1508 4023.9875 16
-1294.1508 1381.6571 4057.7808 16
-1277.8049 1390.0262 4082.3599 18
-1268.9554 1407.0302 4132.2988 18
-1239.1975 1401.0636 4114.7754 18
-1214.0807 1400.2101 4112.269 18
-1188.2839 1398.5216 4107.3101 18
-1160.7294 1394.6504 4095.9404 18
-1134.7239 1392.5149 4089.6687 18
-1108.5721 1390.1025 4082.5842 18
-1083.535 1389.0117 4079.3806 18
-1058.6569 1388.0795 4076.6426 18
-1038.8727 1393.9387 4093.8506 18
-1010.6181 1388.441 4077.7046 18
-976.96405 1375.0743 4038.448 16
-955.00128 1377.905 4046.7612 16
-918.43585 1359.2699 3992.0317 16
-906.11218 1376.4751 4042.5618 16
-875.9472 1366.7762 4014.0771 17
-856.05505 1373.0123 4032.3921 18
-829.55811 1368.7092 4019.7542 18
-804.08698 1365.894 4011.4863 18
-777.29773 1360.6003 3995.939 18
-754.19836 1361.6356 3998.9797 19
-742.6272 1384.2262 4065.3259 18
-722.70569 1392.2449 4088.876 18
-689.87274 1375.084 4038.4763 18
-692.60785 1430.1328 4200.1489 18
-667.65894 1429.9908 4199.7319 18
-608.07159 1352.7778 3972.9653 18
-584.48657 1352.666 3972.637 18
-534.48444 1288.8434 3785.1965 18
-523.93323 1318.7277 3872.9636 18
-523.24786 1377.319 4045.0398 18
-494.60208 1364.403 4007.1072 18
-476.55707 1380.9023 4055.564 18
-447.63699 1365.9681 4011.7041 18
-419.54019 1352.0126 3970.7178 18
-403.75558 1378.4331 4048.3123 18
-380.40067 1380.7133 4055.0088 18
-356.37973 1380.7206 4055.03 18
-332.41208 1380.95 4055.7041 18
-308.43353 1381.1666 4056.3401 19
-284.45074 1381.3992 4057.0234 19
-260.53082 1382.0082 4058.8118 19
-235.96614 1378.973 4049.8979 19
-211.96187 1378.8965 4049.6731 18
-188.80322 1385.0038 4067.6094 18
-163.95735 1378.7101 4049.1257 18
-140.37779 1382.7328 4060.9397 18
-114.53204 1361.4802 3998.5234 18
-90.871468 1361.8937 3999.7378 18
-68.273621 1384.1438 4065.084 18
-45.496525 1425.0308 4185.1646 18
-20.716146 1425.9589 4187.8901 18
3.8862154 1353.6316 3975.4729 18
27.110888 1337.5028 3928.104 18
50.467373 1339.7728 3934.771 18
74.463974 1352.2325 3971.3638 18
98.192451 1355.0092 3979.5188 18
123.10713 1369.9106 4023.2827 18
145.08052 1352.5566 3972.3159 18
169.83395 1362.3474 4001.0703 18
193.51212 1362.1709 4000.5518 18
217.32121 1362.854 4002.5579 18
241.00893 1362.7163 4002.1536 18
264.95996 1363.9587 4005.8025 18
288.67422 1363.8783 4005.5664 18
313.6666 1369.3901 4021.7537 18
337.53992 1369.5831 4022.3206 18
364.41788 1381.1381 4056.2561 18
385.30988 1369.9801 4023.4866 18
412.29272 1380.5168 4054.4321 18
436.39471 1380.7783 4055.1997 18
459.68719 1378.5847 4048.7573 18
483.72174 1378.7238 4049.1655 18
500.98206 1360.4537 3995.5088 18
531.6424 1378.5793 4048.7417 18
592.04663 1468.9381 4314.1157 18
570.05365 1355.8412 3981.9622 18
602.09229 1375.1371 4038.6323 18
626.95416 1377.1935 4044.6716 18
644.41101 1363.4309 4004.2524 15
675.4577 1378.3781 4048.1504 15
700.23737 1379.9496 4052.7661 16
716.76965 1365.703 4010.925 16
748.60107 1380.5853 4054.6331 16
763.64435 1364.5439 4007.5212 16
788.17444 1365.9108 4011.5352 16
821.61658 1382.1899 4059.3457 16
845.50305 1381.9252 4058.5681 16
868.44604 1380.1757 4053.4297 16
891.8595 1379.2477 4050.7043 13
909.0462 1368.9913 4020.5825 14
920.58942 1350.9764 3967.675 65547
895.14557 1280.9315 3761.9602 262150
0 0 0 0
0 0 0 0
879.03088 1170.4486 3437.4839 9270118
901.65039 1173.3833 3446.1028 9861737
928.90961 1182.0923 3471.6802 9992808
947.67975 1179.8553 3465.1101 10124134
967.7793 1179.333 3463.5764 10124135
990.98706 1182.5415 3472.9995 10255464
1012.7906 1183.978 3477.218 10124134
1035.7882 1186.7252 3485.2861 9992548
1056.366 1186.6466 3485.0554 9992292
1079.9662 1189.9012 3494.6143 9926756
1102.9241 1192.3391 3501.7739 9992549
1125.2467 1194.0129 3506.6895 9927012
1150.4186 1198.5945 3520.145 10255721
1172.601 1199.9537 3524.137 10058342
1199.5081 1206.0157 3541.9407 10124134
1212.1088 1197.7327 3517.614 9597791
1242.7175 1207.2231 3545.4866 10189928
1265.922 1209.325 3551.6594 9860707
1289.9807 1212.1609 3559.988 9992294
1315.1472 1215.9297 3571.0566 10124137
1330.7842 1210.9078 3556.3083 10189930
1358.8497 1217.1755 3574.7158 10058344
1381.8136 1218.7512 3579.3433 9992808
1410.949 1225.6403 3599.5757 10124651
1421.9406 1216.7979 3573.6064 10190444
1454.7284 1226.593 3602.3738 10321259
1477.6345 1227.8933 3606.1929 10387309
1494.2733 1224.0229 3594.8257 10189929
1505.1097 1215.575 3570.0149 10650224
1547.2355 1232.2811 3619.0793 11111031
1561.8427 1226.9133 3603.3147 9860964
1603.693 1242.803 3649.9807 10255466
1626.8364 1243.9651 3653.394 10584687
1643.1343 1239.9313 3641.5471 10057831
1674.1392 1246.9562 3662.1785 9992037
1698.2114 1248.7039 3667.311 10123624
1722.9135 1250.8645 3673.6565 10057574
1741.5385 1248.6143 3667.0481 10123367
1769.116 1252.7589 3679.2205 9596509
1797.2075 1257.1625 3692.1531 9991268
1818.3973 1256.6902 3690.7661 9991268
1842.7528 1258.3909 3695.761 9925475
1874.1664 1264.8149 3714.6277 9793889
1899.3333 1266.9232 3720.8196 9793888
1924.8524 1269.2155 3727.5513 9991268
1952.9906 1273.1628 3739.1448 9925474
1967.8402 1268.4562 3725.3215 9793888
1988.0343 1267.2605 3721.8101 9137242
2010.4344 1267.4821 3722.4607 9136729
2050.0679 1278.4457 3754.6594 8872533
2050.262 1264.8429 3714.7097 1376256
2069.4485 1263.1215 3709.6543 851968
2055.4441 1241.3906 3645.8328 983040
1998.3846 1194.3787 3507.7639 1048576
1997.411 1181.5105 3469.9714 983040
2001.0018 1171.577 3440.7979 917504
1996.4874 1157.1461 3398.4155 851968
1981.8171 1137.1759 3339.7651 2362889
2012.3505 1143.282 3357.6982 2099974
2015.3175 1133.7605 3329.7349 1114112
2024.3257 1127.7894 3312.1982 4138270
2038.9213 1125.016 3304.0527 1048832
2057.2075 1124.3121 3301.9858 1770496
2068.0493 1119.5914 3288.1213 2231561
2031.5542 1089.5708 3199.9543 10061422
2070.552 1100.2197 3231.229 6704188
2089.1609 1099.9387 3230.4038 10849666
2097.7285 1094.4242 3214.208 11243393
2157.625 1115.5471 3276.2439 10913917
2184.468 1119.3562 3287.4309 10848124
2226.5574 1130.8416 3321.1621 10913401
2251.4189 1133.4526 3328.8303 11111037
2336.7241 1166.1837 3424.9583 11900037
2424.6172 1199.6317 3523.1912 10189674
2689.8765 1319.5154 3875.2771 10518638
2724.0103 1324.9513 3891.2417 11242102
2713.8857 1308.9493 3844.2458 12163717
2737.6902 1309.4423 3845.6934 12559502
2773.2268 1315.4921 3863.4609 12230280
2801.1462 1317.8593 3870.4133 12165256
2821.2673 1316.5487 3866.5645 11375222
2818.5435 1304.6848 3831.7212 12099446
2826.6274 1297.973 3812.0095 12558444
2861.7188 1303.6713 3828.7446 12820849
2872.5874 1298.3319 3813.0632 12754547
2869.6685 1286.8926 3779.4673 12688759
2904.4998 1292.4286 3795.7258 12820606
2974.0771 1313.2217 3856.793 12689025
2993.7886 1311.847 3852.7559 12360320
3048.929 1325.9004 3894.0291 12887181
3098.3315 1337.2661 3927.4092 13676956
3129.2212 1340.5316 3936.9995 13874849
3149.6816 1339.3141 3933.4238 14071971
3190.8474 1346.8542 3955.5684 13414041
3215.4893 1347.3604 3957.0549 10978932
3239.3159 1347.5203 3957.5244 9334108
3339.833 1379.3508 4051.0076 9136731
3387.0222 1388.8601 4078.9353 9202524
3403.0906 1385.5637 4069.2542 9663075
3447.5698 1393.7998 4093.4426 9399902
3437.7507 1380.1222 4053.2729 9070681
3464.3032 1381.1349 4056.2468 9399903
3495.8237 1384.1006 4064.957 10189675
3490.0547 1372.3627 4030.4839 10517611
3522.8999 1375.865 4040.7698 10517612
3521.7471 1366.1317 4012.1843 10846574
3557.0771 1370.5863 4025.2671 11307380
3539.1936 1354.6143 3978.3586 11044209
3558.7327 1353.082 3973.8589 11505530
3604.6765 1361.5436 3998.7095 12557705
3649.5386 1369.4888 4022.0435 13480860
3713.0002 1384.265 4065.4399 13878185
3777.3782 1399.1902 4109.2734 14009005
3775.8674 1389.6743 4081.3267 14206129
3729.2759 1363.7939 4005.3184 14073260
3791.74 1377.8699 4046.658 11768709
3887.9827 1403.9666 4123.3013 9663074
3989.342 1431.5736 4204.3804 8412490
4134.481 1474.4508 4330.3062 6833975
0 0 0 0
0 0 0 0
0 0 0 0
0 0 0 0
0 0 0 0
0 0 0 0
0 0 0 0
-3460.7942 1341.6677 3872.9512 16
-3421.8979 1335.4421 3854.9802 16
-3396.0039 1334.2415 3851.5142 16
-3406.978 1347.6074 3890.0974 16
-3385.9819 1348.4237 3892.4536 16
-3362.6875 1348.3296 3892.1819 16
-3340.6458 1348.7397 3893.3662 16
-3316.0764 1348.1284 3891.6013 16
-3290.1897 1346.969 3888.2544 16
-3266.3162 1346.6233 3887.2563 16
-3242.8992 1346.4622 3886.7915 15
-3221.6838 1347.2194 3888.9773 17
-3198.5889 1347.196 3888.9097 18
-3174.8267 1346.889 3888.0234 17
-3150.1182 1346.1732 3885.9573 16
-3127.5864 1346.384 3886.5659 16
-3103.7332 1346.0248 3885.5288 16
-3078.0891 1344.8778 3882.2175 16
-3054.166 1344.4711 3881.0435 16
-3030.134 1344.0098 3879.7122 16
-3006.3994 1343.6744 3878.7439 16
-2983.4092 1343.6692 3878.729 16
-2960.0647 1343.5031 3878.2493 16
-2937.2583 1343.5806 3878.4729 16
-2912.9917 1342.9858 3876.7566 16
-2889.3997 1342.6954 3875.918 16
-2865.0291 1342.0354 3874.0127 16
-2840.7388 1341.4027 3872.1865 16
-2816.6523 1340.8569 3870.6108 16
-2793.8125 1340.9004 3870.7363 16
-2769.5527 1340.2574 3868.8801 18
-2746.606 1340.2444 3868.8425 18
-2725.1553 1340.9674 3870.9297 18
-2701.7861 1340.7505 3870.3037 18
-2678.3118 1340.4774 3869.5154 18
-2654.958 1340.2603 3868.8887 18
-2714.3008 1382.1495 3989.8088 18
-2690.8364 1382.238 3990.0645 18
-2666.7761 1382.0192 3989.4326 18
-2759.3015 1442.7555 4164.7583 18
-2613.9102 1379.066 3980.9077 18
-2639.7183 1405.3617 4056.8149 16
-2493.2649 1339.5876 3866.947 16
-2544.3936 1379.7356 3982.8408 16
-2447.6292 1339.6871 3867.2339 17
-2488.998 1375.2021 3969.7542 18
-2462.8782 1373.7509 3965.5647 18
-2436.6575 1372.2146 3961.1301 18
-2388.4395 1358.1403 3920.5022 18
-2387.041 1370.6738 3956.6826 17
-2358.53 1367.7333 3948.1941 16
-2336.9668 1368.8033 3951.2827 16
-2314.8357 1369.559 3953.4641 15
-2268.9407 1356.1267 3914.6895 17
-2246.8577 1356.796 3916.6216 15
-2246.6602 1370.833 3957.1418 16
-2201.7817 1357.616 3918.9885 16
-2178.4456 1357.5417 3918.7744 16
-2159.5208 1360.2445 3926.5764 16
-2132.9653 1358.1473 3920.5227 16
-2121.4568 1365.6907 3942.2976 16
-2084.3816 1356.7598 3916.5173 16
-2068.0564 1361.2867 3929.585 16
-2058.1777 1370.2084 3955.3386 16
-2023.7032 1362.7726 3933.874 16
-2085.6033 1420.8186 4101.4336 16
-2058.155 1418.6471 4095.1653 16
-2033.9226 1418.6667 4095.2222 16
-2010.4196 1419.2018 4096.7666 16
-1985.1022 1418.4536 4094.6067 16
-1960.7485 1418.384 4094.4058 16
-1937.0006 1418.7562 4095.4802 16
-1912.4581 1418.5487 4094.8811 16
-1887.8232 1418.2661 4094.0657 15
-1863.0961 1417.9061 4093.0266 15
-1680.0153 1295.4327 3739.4861 15
-1657.5372 1295.1793 3738.7546 16
-1635.2964 1295.1068 3738.5452 16
-1620.2268 1300.7894 3754.9495 16
-1590.6685 1294.8364 3737.7649 16
-1579.7236 1304.0809 3764.4507 16
-1507.3516 1262.1552 3643.425 17
-1534.9956 1303.9747 3764.144 16
-1512.4828 1303.791 3763.6138 16
-1514.2021 1324.8029 3824.2681 16
-1603.7532 1424.4659 4111.9624 13
-1585.2246 1429.7255 4127.145 14
-1564.1696 1432.8354 4136.1226 14
-1540.9257 1434.0076 4139.5059 14
-1394.5818 1318.8062 3806.9575 14
-1352.2274 1299.7732 3752.0156 14
-1346.8639 1316.2543 3799.5908 15
-1430.3909 1421.6423 4103.8115 16
-1400.0116 1415.5077 4086.103 16
-1377.5353 1417.2885 4091.2434 16
-1258.4286 1317.9332 3804.4377 16
-1200.1467 1279.817 3694.4089 16
-1178.4938 1280.0707 3695.1411 15
-1156.4686 1279.922 3694.7119 18
-1134.2504 1279.5499 3693.6377 18
-1153.8108 1327.2207 3831.2476 18
-1133.3423 1329.8358 3838.7966 18
-1179.0924 1411.8484 4075.5396 18
-1161.7166 1420.1224 4099.4243 18
-1137.3711 1420.0481 4099.2095 18
-1071.3787 1366.8383 3945.6104 18
-1036.5704 1351.9261 3902.5642 18
-1034.7957 1380.4 3984.7585 18
-1023.4185 1397.0948 4032.9509 18
-1011.9927 1414.5197 4083.2507 17
-981.81403 1405.9441 4058.4961 17
-955.06842 1401.9775 4047.0457 16
-928.05566 1397.4044 4033.8447 16
-900.67236 1392.0168 4018.2925 16
-876.87201 1392.0248 4018.3154 16
-853.87207 1393.339 4022.1091 16
-828.02338 1389.9468 4012.3171 17
-789.01819 1363.6165 3936.3101 17
-747.41638 1331.0581 3842.325 17
-729.33521 1339.6573 3867.1479 16
-707.02142 1340.7877 3870.4111 17
-689.9743 1352.3164 3903.6904 18
-671.12305 1360.986 3928.7166 18
-641.79742 1348.274 3892.0215 18
-618.6106 1347.9916 3891.2063 18
-598.84094 1355.4218 3912.6548 18
-575.00537 1353.8771 3908.1956 18
-552.1319 1354.5629 3910.1753 18
-539.75751 1382.1943 3989.9385 18
-504.22336 1350.3341 3897.9683 18
-482.4957 1354.1646 3909.0254 18
-459.0304 1353.2583 3906.4097 18
-438.76862 1362.2018 3932.2263 18
-414.77975 1359.9282 3925.6631 18
-391.87274 1361.1421 3929.1675 18
-365.86807 1351.0704 3900.0938 18
-350.62683 1382.0671 3989.571 18
-322.91495 1364.8363 3939.8313 18
-296.90457 1352.6724 3904.718 19
-272.39661 1345.8759 3885.0989 18
-245.91632 1327.1807 3831.1321 18
-215.68513 1282.3823 3701.814 19
-193.92117 1283.4838 3704.9937 19
-172.0426 1284.0111 3706.5156 18
-150.21413 1285.1212 3709.7202 18
-128.41121 1286.8682 3714.7629 18
-112.70576 1363.0809 3934.7644 18
-83.691849 1276.1157 3683.7244 18
-62.55756 1290.3257 3724.7439 18
-40.540161 1291.8817 3729.2356 18
-19.291571 1351.0048 3899.9041 18
3.8148825 1351.9044 3902.5015 17
27.063583 1358.3994 3921.2502 15
50.191891 1355.6427 3913.2925 15
73.335213 1354.9054 3911.1643 15
97.59642 1370.2169 3955.3633 15
119.59043 1353.9315 3908.3528 15
143.16438 1357.915 3919.8521 15
167.479 1366.8314 3945.5906 16
189.64125 1358.1492 3920.5278 18
214.14433 1366.2966 3944.0469 18
236.59178 1361.0159 3928.803 18
260.97684 1366.8291 3945.5837 18
282.35281 1357.2223 3917.8523 18
307.40338 1365.3965 3941.4485 18
330.82901 1365.7086 3942.3496 18
352.66559 1359.8522 3925.4438 18
375.57687 1358.608 3921.8525 18
398.57556 1357.8066 3919.5391 18
421.78784 1357.781 3919.4651 18
448.82971 1369.4426 3953.1284 18
468.70297 1359.16 3923.446 18
491.65741 1358.3618 3921.1416 18
513.95569 1355.9045 3914.0481 18
536.88123 1355.2427 3912.1377 18
555.43549 1344.0577 3879.8506 18
581.15265 1350.4062 3898.1765 18
604.10846 1350.0983 3897.2874 18
624.87183 1345.0933 3882.8398 15
647.59637 1344.5155 3881.1719 16
675.22113 1353.8021 3907.9795 16
696.24976 1349.6865 3896.0989 16
725.80829 1361.8396 3931.1809 16
742.10883 1349.1345 3894.5054 16
777.30762 1370.5161 3956.2268 16
792.74274 1356.8195 3916.6892 17
814.203 1353.9208 3908.3218 15
840.56403 1359.1067 3923.2917 16
863.05139 1357.9186 3919.8621 14
885.78003 1357.1624 3917.6792 14
909.36871 1357.7289 3919.3147 65550
911.46423 1326.976 3830.541 262153
925.9848 1315.3669 3797.0298 393216
925.25531 1283.1595 3704.0576 4140328
0 0 0 0
885.10742 1171.8958 3382.8757 9795940
905.51263 1172.3673 3384.2371 9795171
927.78412 1175.1824 3392.3633 9926756
945.09003 1171.7219 3382.374 10058342
969.81677 1177.4143 3398.8062 10189671
990.05688 1177.5391 3399.1663 10124135
1012.4033 1180.114 3406.5991 9597791
1022.2485 1168.3008 3372.4985 10189928
1057.9392 1185.9127 3423.3381 10058855
1077.3479 1184.9536 3420.5696 9795427
1099.5753 1187.0732 3426.688 9795427
1125.7393 1193.2883 3444.6292 10189927
1149.3711 1196.6461 3454.3218 9794913
1172.9504 1199.8326 3463.5203 10189671
1191.1038 1197.4547 3456.656 9926756
1215.5201 1201.3472 3467.8923 10453099
1236.8506 1202.111 3470.0972 10189928
1260.4972 1205.064 3478.6216 10189929
1285.6284 1209.3187 3490.9036 10255466
1300.1127 1203.5822 3474.3438 10387308
1322.4697 1205.1991 3479.0115 9992550
1346.5284 1208.2933 3487.9436 10189673
1374.0675 1214.3699 3505.4846 10189930
1396.0984 1215.4701 3508.6604 10058344
1421.2167 1219.1864 3519.3882 10255723
1435.3411 1213.5005 3502.9751 10255212
1462.3433 1218.7091 3518.0103 10452848
1495.2705 1228.6398 3546.6768 10387055
1531.7026 1241.1353 3582.7473 10189416
1548.1727 1237.335 3571.7771 9531487
1566.4774 1235.0836 3565.2783 9465437
1580.7999 1229.7944 3550.01 10123623
1607.0081 1233.7689 3561.4832 10386797
1635.7074 1239.5284 3578.1091 9992039
1660.8334 1242.4673 3586.5923 9663074
1679.6021 1240.6361 3581.3064 9991781
1709.6869 1247.105 3599.98 9926245
1734.6577 1249.7301 3607.5579 10122853
1751.8066 1246.7246 3598.8821 9991011
1773.859 1247.2393 3600.3677 9727839
1794.967 1247.0853 3599.9233 9662303
1817.3253 1247.7936 3601.9678 9727839
1841.6331 1249.8086 3607.7842 9859682
1868.8292 1253.7147 3619.0601 9728095
1894.0457 1256.2194 3626.2903 9399131
1909.1306 1252.0234 3614.178 9530715
1943.2399 1260.2587 3637.9502 9464921
1965.6492 1260.8086 3639.5376 8215368
2004.7472 1271.9348 3671.6555 9071193
2012.6874 1263.266 3646.6313 1838345
1983.0972 1231.4753 3554.8625 458754
1992.4423 1224.2772 3534.0835 720899
1992.3807 1211.5088 3497.2256 786435
1993.8887 1199.9478 3463.8525 917505
2000.7223 1191.7946 3440.3171 917504
1999.329 1178.9546 3403.2524 917504
2002.6772 1169.1392 3374.9185 852224
2005.5251 1159.2286 3346.3098 1969416
2005.0065 1147.585 3312.6987 2691851
2021.0681 1145.5652 3306.8682 1771266
2047.083 1149.1716 3317.2788 3810328
2051.3081 1140.5936 3292.5168 1114368
2048.5305 1128.3202 3257.0874 983040
2044.6273 1115.6615 3220.5459 8023118
2090.5486 1130.1726 3262.4348 6507821
2084.6064 1116.6367 3223.3611 7889751
2103.0034 1116.2656 3222.29 10387830
2130.2129 1120.537 3234.6201 9729899
2124.2473 1107.4368 3196.8042 10650745
2198.3057 1135.9186 3279.0217 10847354
2245.418 1150.0996 3319.9578 10912631
2269.4338 1152.3071 3326.3301 10781555
2253.2163 1134.2241 3274.1301 9268571
2479.2568 1237.3566 3571.8396 11044724
2627.9141 1300.4497 3753.9685 10518123
2686.7329 1318.3995 3805.7837 10189929
2707.7104 1317.6361 3803.5801 11243389
2731.3203 1318.1558 3805.0798 12165002
2736.6963 1309.939 3781.3611 13941412
2767.9048 1314.1202 3793.4309 13810321
2790.1763 1314.0253 3793.1567 13150835
2802.905 1309.4735 3780.0176 12820838
2823.594 1308.6835 3777.7368 12886115
2842.1094 1306.9064 3772.6067 12755300
2859.1829 1304.499 3765.6575 13018481
2860.8862 1295.1707 3738.7297 13676419
2924.5762 1313.8324 3792.6001 13413504
2952.2395 1316.1484 3799.2856 12755579
2952.6448 1306.3695 3771.0569 13084036
3002.6809 1318.531 3806.1633 12294524
3050.1306 1329.384 3837.4924 12097918
3088.7043 1336.2366 3857.2734 12887440
3105.2053 1333.5094 3849.4009 13941155
3111.1238 1326.3107 3828.6206 13875621
3180.2339 1345.9604 3885.343 13216922
3257.4888 1368.7501 3951.1294 10913399
3270.8394 1364.5546 3939.0181 9070938
3293.3972 1364.2325 3938.0884 9136477
3329.5037 1369.4875 3953.2581 9465698
3381.322 1381.0867 3986.741 9004634
3369.4348 1366.6852 3945.1685 8807512
3375.5112 1359.7183 3925.0571 9597029
3409.0076 1363.8162 3936.8865 10057066
3410.3335 1355.0757 3911.6558 9925480
3436.606 1356.2987 3915.1863 10188908
3449.917 1352.4244 3904.0022 10452337
3408.7861 1327.4015 3831.7693 10584434
3436.918 1329.5027 3837.8347 10913139
3513.4104 1350.1605 3897.4673 11570811
3567.0129 1361.8097 3931.0945 12624012
3570.1843 1354.1791 3909.0674 12888468
3565.5093 1343.6899 3878.7888 13878701
3560.25 1333.1165 3848.2666 13747628
3598.7534 1338.9598 3865.1345 14208694
3593.376 1328.5061 3834.958 11636609
3822.3899 1404.2961 4053.7388 10254957
3828.8218 1397.8766 4035.2078 10123883
3949.8586 1433.1184 4136.9395 10058090
0 0 0 0
0 0 0 0
0 0 0 0
0 0 0 0
0 0 0 0
0 0 0 0
0 0 0 0
-3407.8516 1343.7363 3813.7036 16
-3142.1965 1247.256 3539.8794 16
-3118.8862 1246.3212 3537.2263 16
-3103.0229 1248.3698 3543.0405 16
-3086.6069 1250.2223 3548.2983 16
-3067.0437 1250.8169 3549.9856 16
-3272.8918 1343.9827 3814.4026 16
-3247.332 1342.7577 3810.9258 16
-3222.2041 1341.6953 3807.9109 16
-3198.7329 1341.3129 3806.8254 16
-3378.8899 1426.9178 4049.7837 16
-3327.0676 1415.0809 4016.189 15
-3099.1772 1327.6481 3768.043 16
-3235.3789 1396.0505 3962.1782 16
-3087.1465 1341.824 3808.2761 16
-3064.0403 1341.5853 3807.5989 16
-3166.8706 1396.8932 3964.5698 16
-3143.6174 1396.9972 3964.8647 16
-3201.3608 1433.3678 4068.0894 16
-3173.4785 1431.6616 4063.2471 16
-3146.2092 1430.208 4059.1216 16
-3119.2058 1428.8539 4055.2783 16
-3008.6533 1388.9091 3941.9097 16
-2878.28 1339.1178 3800.5955 16
-2964.4585 1390.0864 3945.2512 16
-2975.1321 1406.1781 3990.9214 16
-3157.5801 1504.3661 4269.5923 16
-2907.0874 1396.2084 3962.626 16
-3100.22 1501.0872 4260.2861 16
-2905.6375 1418.4202 4025.6663 15
-3040.2754 1496.4275 4247.0615 18
-3011.8892 1494.8267 4242.5181 18
-3105.988 1554.5009 4411.8813 18
-3105.8984 1567.6477 4449.1938 18
-2927.1956 1490.0962 4229.0923 18
-2899.6387 1488.8112 4225.4453 18
-2871.9316 1487.4259 4221.5137 18
-2700.1113 1410.7218 4003.8171 18
-2675.5444 1410.2751 4002.5496 18
-2602.9253 1384.2657 3928.7314 18
-2571.2654 1379.7662 3915.9609 17
-2549.1887 1380.3739 3917.6858 17
-2547.0125 1391.8678 3950.3071 17
-2506.3125 1382.3276 3923.231 16
-2531.2114 1409.1278 3999.2935 16
-2467.0127 1386.365 3934.6892 15
-2433.0601 1380.3273 3917.5535 15
-2408.2542 1379.4124 3914.9565 15
-2384.2698 1378.9547 3913.6577 16
-2367.8474 1382.9044 3924.8679 16
-2345.1462 1383.2291 3925.7896 16
-2351.3706 1400.7925 3975.6365 16
-2328.0642 1400.9407 3976.0571 16
-2303.4973 1400.3254 3974.311 16
-2280.8296 1400.864 3975.8396 16
-2256.4082 1400.3257 3974.3115 16
-2226.0488 1396.052 3962.1824 16
-2208.4497 1399.7749 3972.7485 16
-2178.4592 1395.6394 3961.0115 16
-2144.4641 1388.8204 3941.6582 16
-2133.01 1396.6104 3963.7668 16
-2116.9453 1401.521 3977.7043 16
-2090.0422 1399.286 3971.3611 16
-2073.3552 1403.9177 3984.5061 16
-2048.2725 1402.9055 3981.6338 16
-2009.2911 1392.2396 3951.3623 16
-1994.1814 1398.0577 3967.875 16
-2015.2318 1429.668 4057.5889 16
-1989.78 1428.653 4054.708 16
-1964.4963 1427.7352 4052.1038 16
-1937.6801 1425.6672 4046.2344 16
-1914.9957 1426.6256 4048.9543 16
-1891.494 1426.9916 4049.9932 16
-1867.1554 1426.7277 4049.2439 16
-1838.8075 1423.3533 4039.667 16
-1808.2338 1418.1444 4024.8835 16
-1785.9294 1419.3683 4028.3569 16
-1747.1135 1407.325 3994.1765 16
-1782.0812 1455.2007 4130.0542 16
-1751.0145 1449.7369 4114.5474 16
-1725.927 1449.139 4112.8506 16
-1667.6123 1420.2262 4030.7917 16
-1648.3663 1424.2295 4042.1541 16
-1624.4583 1424.2633 4042.2498 16
-1598.4786 1422.4546 4037.1165 16
-1575.5979 1423.3907 4039.7734 16
-1576.9414 1446.5771 4105.5796 15
-1499.5979 1397.1772 3965.3762 16
-1493.7753 1413.9017 4012.8423 16
-1469.0332 1412.9695 4010.1965 16
-1478.1361 1445.0952 4101.3735 16
-1373.2134 1364.9548 3873.9246 16
-1377.0836 1392.0669 3950.8721 16
-1375.4698 1414.4769 4014.4749 16
-1350.7135 1413.4581 4011.5833 16
-1318.3439 1404.2931 3985.5718 16
-1301.0704 1411.1674 4005.0818 16
-1260.9729 1393.0817 3953.7522 15
-1236.2572 1391.6266 3949.6223 18
-1211.9634 1390.5991 3946.7065 18
-1200.9653 1405.087 3987.825 18
-1166.2841 1391.8917 3950.375 18
-1140.7794 1389.332 3943.1104 18
-1151.4829 1431.6844 4063.312 18
-1104.4131 1402.4797 3980.4253 18
-1097.6913 1424.356 4042.5129 18
-1054.8882 1399.3451 3971.5286 16
-1024.172 1389.5924 3943.8494 16
-987.82928 1371.5723 3892.7058 16
-943.92352 1341.9386 3808.6013 16
-946.36401 1378.3556 3911.9575 16
-928.81879 1386.7614 3935.8145 16
-907.08289 1389.1824 3942.6853 16
-882.74719 1387.6445 3938.3206 16
-858.72638 1386.5315 3935.1621 16
-840.80737 1395.4836 3960.5691 16
-791.25958 1350.9485 3834.1724 16
-768.23407 1350.4017 3832.6208 16
-740.49829 1341.2899 3806.7603 16
-722.47772 1349.7559 3830.7876 16
-695.039 1340.605 3804.8164 15
-672.3316 1340.2725 3803.8726 17
-649.66675 1340.0048 3803.1125 18
-627.01215 1339.7394 3802.3599 18
-604.44373 1339.6455 3802.0933 18
-581.88257 1339.5612 3801.8538 18
-559.36835 1339.5823 3801.9136 18
-516.27191 1288.2466 3656.2163 18
-494.06964 1286.8348 3652.2095 18
-483.16513 1316.0673 3735.1748 18
-469.4248 1340.0105 3803.1292 18
-426.54846 1279.0038 3629.9839 18
-404.98709 1278.8254 3629.4775 18
-394.95901 1317.0875 3738.0706 18
-389.80496 1377.1141 3908.4343 18
-364.74405 1369.9536 3888.1116 18
-340.05978 1363.3379 3869.3352 18
-315.78488 1357.5254 3852.8386 18
-292.83426 1356.9436 3851.1877 18
-270.07217 1357.2111 3851.9465 19
-247.38268 1357.9264 3853.9768 19
-226.06595 1367.0886 3879.9805 19
-202.35051 1362.1774 3866.0417 18
-178.77731 1357.0922 3851.6094 18
-156.10538 1358.3616 3855.2119 18
-132.87422 1354.366 3843.8718 18
-110.11413 1354.512 3844.2861 18
-88.643204 1374.7273 3901.6599 18
-65.21946 1368.2357 3883.2361 18
-42.225208 1368.5897 3884.2407 18
-19.249969 1371.1454 3891.4941 18
3.8048959 1371.4243 3892.2856 16
26.868177 1371.6539 3892.9375 16
49.93866 1371.8693 3893.5486 16
71.952705 1352.0967 3837.4314 16
95.181168 1359.1602 3857.4783 16
117.86734 1357.244 3852.0403 16
140.29607 1353.4659 3841.3174 16
163.12186 1354.0383 3842.9419 16
185.56033 1351.6493 3836.1614 18
208.68614 1354.2419 3843.5198 18
231.68484 1355.5808 3847.3196 18
254.27638 1354.5107 3844.2827 18
276.85733 1353.5649 3841.5984 18
300.20786 1356.2395 3849.1892 18
323.19534 1357.0122 3851.3823 18
345.79886 1356.177 3849.012 18
368.41547 1355.4934 3847.0718 18
390.98694 1354.733 3844.9138 18
413.61914 1354.2554 3843.5579 18
436.91876 1355.8984 3848.2212 18
459.60013 1355.5553 3847.2473 18
482.2821 1355.2462 3846.3699 18
504.69901 1354.2537 3843.5532 18
527.78931 1355.0759 3845.8867 18
570.45905 1404.019 3984.7939 18
581.42725 1374.1489 3900.0186 18
595.15137 1352.8263 3839.5022 18
619.9339 1357.2849 3852.1562 15
649.78766 1372.1357 3894.3047 15
666.97839 1360.1449 3860.2732 17
690.26453 1360.967 3862.6064 18
746.69269 1424.9846 4044.2969 19
770.50623 1424.7148 4043.5315 17
792.89935 1421.9143 4035.5833 15
758.7951 1320.9259 3748.9646 16
793.86426 1342.6753 3810.6924 15
805.62146 1324.8843 3760.1987 16
827.17981 1323.7354 3756.9382 16
848.75208 1322.6683 3753.9099 16
865.29443 1314.0176 3729.3577 14
875.02277 1295.7074 3677.3911 131084
885.39294 1279.2144 3630.5815 393219
938.64178 1323.9855 3757.6477 2495248
0 0 0 0
878.2854 1182.7498 3356.802 9138269
889.75049 1171.6602 3325.3281 9729377
908.8725 1170.9154 3323.2148 10123877
929.10577 1171.6036 3325.168 10255721
948.31952 1171.0044 3323.4673 10058598
969.77618 1173.1428 3329.5364 10255721
989.93579 1173.6582 3330.999 10189928
1012.2793 1176.692 3339.6094 10189928
1033.7288 1178.5903 3344.9968 10124134
1053.2217 1178.228 3343.969 9926756
1078.9115 1184.684 3362.2915 10189927
1101.5188 1187.5823 3370.5176 10387050
1124.4891 1190.762 3379.5417 10124135
1147.0582 1193.4128 3387.0652 10124135
1167.7 1194.0017 3388.7366 10124135
1189.6279 1195.8639 3394.0215 10189927
1214.9282 1200.9976 3408.5918 10124135
1235.2921 1201.1635 3409.0625 10255464
1253.7216 1199.4734 3404.2659 9926500
1279.564 1204.8164 3419.4304 9729379
1297.2972 1202.4768 3412.7903 9860965
1318.7097 1203.5669 3415.884 9992551
1339.8727 1204.3998 3418.2476 10321773
1364.6472 1208.4059 3429.6177 10716530
1384.2596 1207.7904 3427.8708 10847860
1409.8992 1212.3755 3440.8838 9926758
1434.3352 1215.8096 3450.6301 9860708
1453.5486 1214.7826 3447.7156 9926758
1484.6324 1223.567 3472.647 9531744
1497.262 1217.1101 3454.3213 9532001
1531.4657 1228.1282 3485.5923 10189675
1540.7235 1219.1145 3460.01 10321261
1563.4509 1220.8555 3464.9512 10057832
1588.129 1224.0547 3474.0312 10057832
1614.6786 1228.5964 3486.9209 9663074
1639.1494 1231.4613 3495.052 9992037
