# .PCD v0.7 - Point Cloud Data file format
VERSION 0.7
FIELDS x y z rgb
SIZE 4 4 4 4
TYPE F F F U
COUNT 1 1 1 1
WIDTH 1392
HEIGHT 1
VIEWPOINT 0 0 0 1 0 0 0
POINTS 1392
DATA ascii
1119.3484 1033.5216 3089.0903 9861478
1134.4329 1030.6001 3080.3579 9927272
1149.704 1027.9377 3072.4006 9663843
1168.2546 1028.245 3073.3188 9861479
1184.413 1026.4695 3068.012 9861479
1205.5002 1028.9547 3075.4402 9729636
1223.1947 1028.5132 3074.1204 9664099
1239.3248 1026.7885 3068.9656 9993065
1257.2399 1026.5712 3068.3159 9861479
1280.858 1030.9503 3081.4048 9729636
1291.2274 1024.6925 3062.7009 9466721
1313.7333 1028.106 3072.9033 9861481
1332.7308 1028.718 3074.7327 10124396
1364.6243 1039.1337 3105.8638 9663588
1376.5831 1034.2942 3091.3992 9598308
1395.7631 1034.9362 3093.3181 9927273
1408.3534 1030.7386 3080.7722 9927274
1426.6046 1030.7386 3080.7722 9861480
1439.5573 1026.9587 3069.4746 9729895
1451.1427 1022.3101 3055.5798 9664102
1483.3512 1032.1255 3084.9172 9664103
1498.7146 1030.1237 3078.9341 9664104
1525.1376 1035.6803 3095.5422 10124398
1539.7878 1033.2054 3088.145 9861226
1563.2277 1036.6172 3098.3423 10058862
1584.5552 1038.5653 3104.165 10058605
1593.8781 1032.6908 3086.6067 9664361
1630.1833 1044.2334 3121.1064 9269089
1655.6802 1048.6711 3134.3706 9202526
1646.095 1031.0369 3081.6636 9334111
1664.1327 1030.9015 3081.2588 9597282
1692.637 1037.1824 3100.0317 9926505
1709.5092 1036.2772 3097.3264 9465955
1742.6069 1045.1226 3123.7642 9860713
1738.8185 1031.8922 3084.22 9597539
1783.5197 1047.4135 3130.6116 9400160
1785.1357 1037.5731 3101.1997 10255469
1811.5519 1042.2008 3115.0315 9597539
1824.3679 1038.9897 3105.4341 9597539
1839.9365 1037.395 3100.6672 9400159
1873.1271 1045.6691 3125.3977 9399903
1878.1127 1038.1899 3103.0432 9136988
1933.4819 1058.437 3163.5598 9334367
1929.994 1046.3849 3127.5371 9465953
1935.9614 1039.6395 3107.376 9465953
1977.1602 1051.7628 3143.6111 9663332
1984.4977 1045.8152 3125.8345 9071195
1993.3414 1040.764 3110.7368 9203035
1981.408 1025.0565 3063.7888 8611155
2016.8656 1033.9287 3090.3071 8808791
2045.5687 1039.21 3106.092 8808791
2071.6042 1043.0538 3117.5813 8874584
2114.0271 1055.0079 3153.3105 8480082
2077.9426 1027.9166 3072.3372 8546646
2100.0835 1029.8486 3078.1118 8810587
2098.3748 1020.1524 3049.1311 7955793
2127.0078 1025.2468 3064.3579 7364170
2119.3674 1012.919 3027.5112 4929318
2094.6028 992.68231 2967.0256 4205596
2121.783 997.19537 2980.5149 3744795
2132.6653 994.0376 2971.0764 1050372
2102.6555 972.02771 2905.2913 720896
2113.3125 969.02216 2896.3079 1114112
2119.9534 964.23846 2882.0098 917504
2125.7358 959.1438 2866.7825 983040
2141.8904 958.77277 2865.6736 917504
2153.2048 956.25793 2858.157 3416863
2152.821 948.62775 2835.3511 1114880
2174.6587 950.83154 2841.938 1048832
2151.8269 933.62067 2790.4963 4535070
2171.0164 934.76495 2793.9167 7297341
2174.5896 929.21912 2777.3408 4995624
2177.7605 923.58594 2760.5037 10916996
2209.0554 929.87537 2779.302 11441544
2215.1765 925.55322 2766.3838 8875103
2242.4465 930.06628 2779.8728 10189680
2280.8569 939.10046 2806.875 10518645
2314.6379 946.11163 2827.8306 10189935
2325.446 943.69904 2820.6199 9926246
2386.0571 961.3877 2873.4893 11768191
2457.3789 983.11066 2938.417 12031874
2517.1072 999.92255 2988.666 12097410
2625.0911 1035.5352 3095.1084 11637372
2687.1843 1052.6765 3146.3423 12228997
2705.3591 1052.4956 3145.8015 11176310
2698.7046 1042.7238 3116.5945 9860450
2719.7698 1043.7222 3119.5789 8544335
2721.2747 1037.2515 3100.2383 9004886
2737.7109 1036.5208 3098.0542 9070679
2772.1057 1042.5536 3116.0857 9860196
2775.3652 1036.8745 3099.1118 9597282
2786.7856 1034.299 3091.4138 9400160
2795.6301 1030.8074 3080.9775 9334369
2826.927 1035.5859 3095.2603 8545623
2842.1382 1034.4482 3091.8596 8479830
2869.5642 1037.7424 3101.7058 8808796
2859.6724 1027.585 3071.3462 7558472
2874.6904 1026.4506 3067.9553 7756107
2899.8416 1028.9258 3075.3535 7492934
2942.6221 1037.5862 3101.2388 8282194
2945.8406 1032.276 3085.3672 8348243
0 0 0 0
0 0 0 0
0 0 0 0
0 0 0 0
0 0 0 0
0 0 0 0
0 0 0 0
-3208.0896 1222.4313 3590.1511 16
-3072.2498 1178.4832 3461.0801 16
-3097.1633 1196.0219 3512.5896 16
-3091.7585 1202.0109 3530.1787 16
-3069.886 1201.6355 3529.0764 16
-3047.95 1201.23 3527.8853 16
-3028.1465 1201.665 3529.1631 16
-3005.6892 1201.0458 3527.3445 15
-2984.658 1200.9917 3527.1855 18
-2963.9087 1201.0511 3527.3601 18
-2943.2476 1201.1475 3527.6428 18
-2928.6072 1203.7196 3535.197 18
-2901.9785 1201.366 3528.2847 18
-2858.6301 1192.0062 3500.7961 18
-2848.3301 1196.3912 3513.6743 18
-2800.4602 1184.944 3480.0552 18
-2807.9265 1196.9147 3515.2117 18
-2833.6238 1216.8936 3573.8877 18
-2831.7034 1225.2235 3598.3518 18
-2850.7576 1242.8241 3650.0427 18
-2829.9038 1243.1624 3651.0361 18
-2808.7134 1243.3567 3651.6072 18
-2784.9602 1242.4108 3648.8291 18
-2757.9697 1239.9946 3641.7329 18
-2692.5559 1220.1288 3583.3894 18
-2682.2454 1225.1157 3598.0354 18
-2722.6929 1253.5521 3681.5498 18
-2717.3506 1261.1954 3703.9973 18
-2668.0781 1248.408 3666.4421 18
-2643.7234 1247.1653 3662.7927 18
-2652.9604 1261.8802 3706.0088 18
-2632.8826 1262.7806 3708.6531 18
-2605.7395 1260.2791 3701.3062 18
-2595.002 1265.7371 3717.3357 18
-2581.386 1269.8724 3729.481 18
-2563.2151 1271.8192 3735.1982 19
-2544.9199 1273.7377 3740.8325 19
-2533.8901 1279.3579 3757.3386 19
-2563.3274 1305.6908 3834.6755 19
-2493.491 1281.475 3763.5564 18
-2471.9592 1281.8715 3764.7209 18
-2455.3608 1284.8567 3773.488 18
-2477.603 1308.4081 3842.6562 18
-2472.6394 1317.8961 3870.5212 18
-2391.6182 1286.644 3778.7373 18
-2427.1599 1318.1025 3871.1274 18
-2414.7456 1323.8695 3888.0647 18
-2391.0469 1323.5015 3886.9839 18
-2403.313 1343.2272 3944.9163 18
-2347.092 1324.6866 3890.4644 18
-2332.2412 1329.359 3904.1865 18
-2223.1377 1279.8635 3758.8237 18
-2283.7939 1328.0861 3900.4482 18
-2270.5283 1333.8677 3917.4282 18
-2248.9426 1334.8304 3920.2559 18
-2227.5632 1335.937 3923.5056 18
-2204.6255 1336.1224 3924.0503 18
-2179.9158 1335.2264 3921.4189 18
-2165.2393 1340.5231 3936.9744 18
-2143.8462 1341.7312 3940.5225 18
-2122.0994 1342.7421 3943.4915 18
-2099.6125 1343.3021 3945.1362 18
-2076.8013 1343.6648 3946.2012 18
-2053.7424 1343.8737 3946.8149 18
-2030.3057 1343.8374 3946.7083 18
-2004.7035 1342.3503 3942.3408 18
-1991.7288 1349.3831 3962.9951 18
-1904.0455 1305.3654 3833.72 18
-1880.637 1304.882 3832.3 18
-1804.8353 1267.5895 3722.7761 18
-1746.6085 1241.8702 3647.2417 18
-1873.2622 1348.6068 3960.7153 18
-1792.2562 1306.6556 3837.5093 19
-1769.5612 1306.6846 3837.5942 19
-1746.344 1306.3237 3836.5347 19
-1718.3665 1302.3455 3824.8508 19
-1691.5043 1299.1176 3815.3708 19
-1669.2325 1299.3755 3816.1284 19
-1646.2578 1299.0859 3815.2778 19
-1614.4973 1291.7585 3793.7583 19
-1575.0833 1278.0144 3753.3931 19
-1569.3619 1291.6062 3793.3108 19
-1473.4546 1230.2902 3613.2319 19
-1522.5154 1289.9948 3788.5784 19
-1503.1479 1292.6409 3796.3496 19
-1485.8889 1297.2081 3809.7629 19
-1463.2087 1297.1102 3809.4756 18
-1493.2395 1344.4688 3948.5627 18
-1421.6716 1300.4026 3819.1448 18
-1398.4901 1299.8856 3817.6267 18
-1367.0126 1291.514 3793.04 18
-1343.866 1290.8649 3791.1335 18
-1325.9315 1295.2854 3804.1162 18
-1292.8645 1284.8203 3773.3813 18
-1270.9606 1285.2758 3774.719 18
-1259.0184 1296.0021 3806.2209 18
-1227.0936 1286.1748 3777.3594 18
-1204.2933 1285.7238 3776.0347 18
-1182.7289 1286.6003 3778.6089 18
-1159.1736 1285.3031 3774.7991 18
-1135.3657 1283.6691 3770.0005 18
-1112.1168 1282.6143 3766.9023 18
-1088.8713 1281.5205 3763.6899 18
-1065.6832 1280.4496 3760.5449 18
-1042.7882 1279.6929 3758.3225 18
-1020.1105 1279.1755 3756.803 18
-995.31873 1275.9249 3747.2566 18
-970.85498 1272.9563 3738.5381 18
-947.39465 1271.1954 3733.3665 18
-924.01544 1269.4617 3728.2747 18
-900.8797 1267.9857 3723.9399 18
-878.16998 1267.0504 3721.1931 18
-898.02576 1329.0632 3903.3181 18
-851.83374 1294.0208 3800.4021 18
-829.02148 1293.5562 3799.0374 18
-801.08386 1284.845 3773.4539 18
-776.55945 1281.2654 3762.9407 18
-754.41333 1281.514 3763.6709 18
-730.69696 1279.0292 3756.3733 18
-703.66156 1270.3961 3731.0188 18
-680.6759 1268.7516 3726.1892 18
-657.60724 1266.8369 3720.5659 18
-630.69757 1257.1335 3692.0681 18
-606.11835 1251.5447 3675.6545 18
-584.9436 1252.8314 3679.4331 18
-561.31671 1248.7621 3667.4822 18
-539.14331 1247.729 3664.448 19
-517.04504 1246.7904 3661.6914 19
-494.79828 1245.3959 3657.5957 19
-472.85706 1244.6777 3655.4868 19
-450.5686 1242.9327 3650.3621 19
-429.35822 1244.1359 3653.8953 19
-412.14514 1257.6646 3693.6277 19
-387.01254 1247.1888 3662.8616 19
-364.95258 1245.9585 3659.2485 19
-345.26581 1253.1868 3680.4768 19
-320.76227 1242.7279 3649.7603 19
-300.6622 1249.0504 3668.3291 19
-280.47504 1255.9684 3688.6462 19
-258.59637 1255.8407 3688.2712 19
-236.66446 1255.407 3686.9976 19
-214.73663 1254.9089 3685.5347 19
-192.83324 1254.4573 3684.208 19
-170.89075 1253.6031 3681.6997 19
-148.87617 1251.8932 3676.678 19
-127.05044 1251.4573 3675.3975 19
-104.65321 1244.0472 3653.6353 19
-83.457542 1250.781 3673.4114 19
-61.688377 1250.6382 3672.9919 19
-39.867104 1248.7074 3667.3215 19
-18.123051 1247.4678 3663.6807 19
3.5803552 1247.0956 3662.5879 19
25.261381 1246.2583 3660.1287 19
46.893913 1244.907 3656.1602 19
68.505455 1244.0284 3653.5801 19
90.413879 1247.6687 3664.271 19
111.96213 1245.8914 3659.051 19
133.54222 1244.9874 3656.3965 19
155.12192 1244.3328 3654.4736 19
177.38698 1248.6627 3667.1904 19
199.0827 1248.4774 3666.646 19
220.52934 1246.9204 3662.0732 19
238.12071 1225.7959 3600.033 19
259.3844 1225.4949 3599.1489 19
280.65604 1225.2742 3598.5007 19
303.99405 1233.4692 3622.5686 19
323.97327 1227.8536 3606.0762 19
345.58902 1228.7516 3608.7131 19
373.84546 1251.7803 3676.3464 19
395.49918 1251.3823 3675.1775 19
417.24826 1251.3119 3674.9705 18
438.38983 1249.5168 3669.699 18
459.73431 1248.4424 3666.5432 18
481.26456 1247.9468 3665.0876 18
502.66269 1247.166 3662.7944 18
523.96307 1246.2174 3660.0085 18
545.22046 1245.2458 3657.1555 18
566.43152 1244.2469 3654.2217 18
587.66595 1243.371 3651.6489 18
608.80365 1242.36 3648.6797 18
629.75183 1241.0446 3644.8167 18
650.71527 1239.8456 3641.2954 18
671.20612 1237.8519 3635.4404 18
691.33759 1235.3401 3628.0632 18
713.03558 1235.6947 3629.1045 18
734.1178 1234.9924 3627.042 18
754.98401 1233.9771 3624.0601 18
775.78528 1232.9147 3620.9399 18
796.91516 1232.4176 3619.4802 18
817.78632 1231.557 3616.9526 18
835.71484 1226.422 3601.8718 18
855.21704 1223.7947 3594.1553 18
874.72559 1221.3037 3586.8398 18
893.74664 1218.2665 3577.9197 18
908.11224 1209.171 3551.2075 18
924.18835 1202.7137 3532.2429 18
938.69122 1194.54 3508.2378 18
952.22681 1185.5164 3481.7361 18
971.67102 1184.0754 3477.5044 18
990.26117 1181.6753 3470.4553 16
1015.438 1187.0729 3486.3074 15
1029.9613 1180.0491 3465.6792 65550
1032.6879 1160.0483 3406.9392 196618
1034.1886 1139.4637 3346.4844 327683
0 0 0 0
0 0 0 0
1002.2015 1044.1705 3066.6184 9533287
1007.3077 1030.8047 3027.3645 9796201
1027.7833 1033.3593 3034.8667 9796198
1052.8704 1040.3828 3055.4941 9927785
1065.9224 1035.4777 3041.0881 10190187
1076.192 1028.0775 3019.355 9993065
1093.4082 1027.4469 3017.5027 9927272
1114.075 1030.0267 3025.0793 9993065
1128.9786 1027.2809 3017.0154 9927015
1145.0968 1025.7085 3012.3975 9729892
1158.6227 1021.8982 3001.2068 9664100
1185.5054 1029.8055 3024.4299 9005913
1199.9823 1026.8615 3015.7832 9400928
1221.5276 1029.9636 3024.894 10190187
1233.5631 1025.0735 3010.5325 9795686
1255.4174 1028.3658 3020.2017 9861479
1278.2588 1032.3629 3031.9404 9927272
1292.5959 1029.476 3023.4619 9664102
1309.7002 1028.8416 3021.5989 10322032
1327.9601 1029.1201 3022.4167 10058860
1344.6127 1028.162 3019.603 10124653
1371.7323 1035.1277 3040.0605 9598052
1381.8285 1029.2333 3022.749 10453361
1406.1796 1033.9712 3036.6641 9598052
1426.4233 1035.6075 3041.47 9729895
1430.3894 1025.5327 3011.8811 9992810
1442.1306 1021.2117 2999.1909 10124396
1479.7753 1035.1157 3040.0254 10058862
1495.6416 1033.6345 3035.675 10190191
1511.0658 1031.8864 3030.541 9400931
1531.0753 1033.2738 3034.616 9664104
1559.5607 1040.2827 3055.2004 9269602
1572.5701 1036.9264 3045.343 8742747
1569.1002 1022.903 3004.158 9137504
1610.7784 1038.2965 3049.3669 9532518
1623.1753 1034.6833 3038.7554 9860970
1646.3834 1037.9653 3048.3945 10584436
1647.6786 1027.511 3017.6912 9729127
1681.808 1037.5372 3047.137 9597541
1699.7054 1037.4429 3046.8601 9794920
1699.5953 1026.4749 3014.6479 9860713
1740.235 1040.09 3054.634 9663334
1732.738 1024.951 3010.1726 9268319
1793.9205 1050.3319 3084.7136 9531489
1789.1154 1036.9551 3045.4275 9663332
1812.6829 1040.1259 3054.7395 9597539
1851.1798 1051.7157 3088.7776 9794918
1847.5649 1039.3878 3052.572 9465953
1878.4399 1046.5138 3073.5002 10189675
1878.2686 1036.3724 3043.7163 9729125
1902.6124 1039.8223 3053.8481 9531746
1918.7815 1038.7815 3050.7913 9400159
1937.5916 1039.1764 3051.9512 9268317
1944.6819 1033.3367 3034.8005 9400160
1970.9285 1037.6896 3047.5845 9532259
1972.9835 1029.3424 3023.0696 9400929
1991.6119 1029.7142 3024.1616 8940634
2019.8566 1035.0068 3039.7056 8348754
2026.2731 1029.1196 3022.4155 9006685
2033.0336 1023.5089 3005.9373 8611927
2041.359 1018.7764 2992.0386 8940893
2054.1245 1016.3225 2984.8315 8480339
2065.2722 1013.1166 2975.4163 8611668
2094.2102 1018.6182 2991.574 8546385
2114.1409 1019.6831 2994.7014 7493438
2136.0732 1021.6878 3000.5889 7428159
2114.938 1003.2299 2946.3801 5652264
2074.2092 975.85614 2865.9863 6705982
2103.7932 981.73834 2883.2617 5850424
2133.0588 987.37854 2899.8264 2430738
2130.2356 978.19354 2872.8508 524288
2132.3962 971.42456 2852.9712 786432
2142.7537 968.46661 2844.2839 917504
2153.5383 965.74664 2836.2957 917504
2166.2434 963.92316 2830.9404 917504
2180.4668 962.79828 2827.6367 2692362
2158.21 945.70514 2777.436 5060644
2172.439 944.73749 2774.594 3613201
2156.7087 930.8537 2733.8188 10983048
2189.1392 937.80853 2754.2444 10453622
2211.636 940.43646 2761.9624 9532521
2243.1399 946.82764 2780.7324 9598057
2268.2825 950.46008 2791.4006 10320495
2300.8474 957.12762 2810.9824 10321007
2330.8511 962.64142 2827.176 9202270
2374.6753 973.74371 2859.7822 11307643
2427.9792 988.54852 2903.2625 11834242
2473.8704 1000.1481 2937.3291 12097412
2529.3687 1015.4424 2982.2468 12294534
2589.4255 1032.342 3031.8794 11965826
2626.0374 1039.7262 3053.5659 11110517
2639.0796 1037.7413 3047.7366 11176053
2649.1797 1034.6344 3038.6118 10452330
2685.7446 1041.8354 3059.7605 10254953
2695.0906 1038.4521 3049.824 8741970
2714.4141 1038.9326 3051.2354 9268317
2743.0352 1042.942 3063.0105 9465953
2750.0234 1038.7277 3050.6331 9400160
2757.5361 1034.765 3038.9951 9531746
2767.2327 1031.668 3029.8997 9269344
2793.7075 1034.8257 3039.1736 9137757
2813.8562 1035.6147 3041.491 9071966
2832.9827 1036.0199 3042.6809 8940638
2837.3035 1031.0398 3028.0549 8480087
2827.2961 1020.9483 2998.4172 7624776
2853.8306 1024.0958 3007.6611 7690314
2889.4019 1030.427 3026.2551 7361344
0 0 0 0
0 0 0 0
0 0 0 0
0 0 0 0
0 0 0 0
0 0 0 0
0 0 0 0
-3136.4153 1215.9137 3509.9412 16
-3041.1875 1186.8647 3426.0864 16
-3045.5627 1196.5581 3454.0679 16
-3023.7422 1196.021 3452.5176 16
-3000.7139 1194.9957 3449.5576 17
-2979.7507 1194.7843 3448.9473 18
-2959.4016 1194.8179 3449.0442 18
-2936.6069 1193.8578 3446.2727 18
-2914.1897 1193.0387 3443.9082 18
-2891.6848 1192.1719 3441.4062 18
-2870.0898 1191.6707 3439.9592 18
-2851.6333 1192.4745 3442.28 18
-2832.1592 1192.8615 3443.3967 18
-2806.7832 1190.7502 3437.3025 18
-2792.1531 1193.2003 3444.375 18
-2762.0044 1189.0059 3432.2671 18
-2769.4302 1201.0446 3467.0188 18
-2820.8174 1232.4707 3557.7356 18
-2763.0896 1216.3365 3511.1619 18
-2731.1858 1211.412 3496.946 18
-2710.7932 1211.5568 3497.364 18
-2769.6584 1247.4 3600.8318 18
-2737.9299 1242.6814 3587.2107 18
-2731.0105 1249.2372 3606.135 18
-2709.1511 1249.0085 3605.4751 18
-2673.9849 1242.5928 3586.9546 18
-2674.7097 1252.8861 3616.6682 18
-2638.6362 1245.9696 3596.7024 18
-2629.0171 1251.5339 3612.7649 18
-2609.8503 1252.6071 3615.8625 18
-2589.7642 1253.2532 3617.7278 18
-2574.0298 1256.0336 3625.7537 18
-2568.5972 1263.9298 3648.5476 18
-2533.9617 1257.4683 3629.8955 18
-2540.8608 1271.6841 3670.9319 18
-2562.1604 1293.4148 3733.6611 18
-2538.8511 1292.8087 3731.9116 18
-2482.2166 1275.0735 3680.7156 18
-2517.1157 1304.4597 3765.5442 18
-2493.7278 1303.895 3763.9141 18
-2390.4585 1261.1759 3640.5979 18
-2429.5168 1293.4525 3733.77 18
-2362.6455 1269.4082 3664.3621 18
-2353.7368 1276.3492 3684.3984 18
-2371.8535 1298.212 3747.509 18
-2319.502 1281.5535 3699.4216 18
-2366.5249 1320.0066 3810.4229 18
-2350.4485 1323.6656 3820.9851 18
-2329.5654 1324.6627 3823.8635 18
-2298.8098 1320.0101 3810.4331 18
-2284.6458 1324.8873 3824.5117 18
-2258.0686 1322.5913 3817.884 18
-2222.0784 1314.6797 3795.0457 18
-2216.1287 1324.5613 3823.5706 18
-2180.1333 1316.5034 3800.3103 18
-2117.2075 1291.8457 3729.1316 18
-2096.5327 1292.7196 3731.6543 18
-2074.2092 1292.5848 3731.2654 18
-2054.342 1293.9943 3735.3337 18
-2031.6868 1293.6592 3734.3665 18
-2006.3733 1291.6053 3728.4377 18
-2054.1074 1337.054 3859.6328 18
-1962.7158 1291.9468 3729.4236 18
-1939.6659 1291.3105 3727.5867 18
-1917.4691 1291.2339 3727.3655 18
-1896.5372 1292.0172 3729.6267 18
-1875.4193 1292.6908 3731.571 18
-1945.481 1356.9784 3917.1482 18
-1799.8051 1270.5242 3667.5835 18
-1805.2113 1289.9126 3723.5515 18
-1794.9595 1298.4539 3748.2073 18
-1739.5994 1274.1697 3678.1067 18
-1753.1003 1300.3463 3753.6702 19
-1726.8103 1297.3019 3744.8818 19
-1704.4386 1297.1602 3744.4727 19
-1731.0758 1334.8047 3853.1399 19
-1720.0558 1344.0305 3879.772 19
-1700.2812 1346.5729 3887.1108 19
-1676.994 1346.3647 3886.51 19
-1605.807 1307.1595 3773.3379 19
-1576.6543 1301.5474 3757.137 19
-1508.9631 1263.5046 3647.3203 19
-1499.4744 1273.7994 3677.0381 19
-1506.7642 1298.8613 3749.3835 19
-1465.4377 1282.1381 3701.1089 19
-1513.802 1344.5706 3881.3308 19
-1429.0952 1288.9113 3720.6606 18
-1407.0524 1288.9104 3720.6584 18
-1384.1155 1288.0776 3718.2546 18
-1361.427 1287.4529 3716.4509 18
-1339.2528 1287.3019 3716.0151 18
-1315.7648 1285.8619 3711.8584 18
-1293.0746 1285.1658 3709.8491 18
-1270.4264 1284.4882 3707.8928 18
-1248.0626 1284.0792 3706.7126 18
-1228.1864 1286.2611 3713.0107 18
-1206.3778 1286.4618 3713.5898 18
-1183.7828 1285.8154 3711.7244 18
-1160.1437 1283.9893 3706.4529 18
-1135.856 1281.3611 3698.866 18
-1112.8168 1280.0656 3695.1262 18
-1090.3582 1279.3993 3693.2029 18
-1067.9797 1278.8015 3691.4775 18
-1045.5282 1278.0897 3689.4226 18
-1022.8964 1277.1224 3686.6304 18
-999.2301 1274.793 3679.906 18
-976.52576 1273.6143 3676.5034 18
-953.51337 1271.9709 3671.7595 18
-930.60114 1270.3875 3667.1887 18
-907.35358 1268.2596 3661.0464 18
-890.97754 1275.8674 3683.0078 18
-907.94934 1332.8098 3847.3816 18
-881.92224 1327.9397 3833.3232 18
-850.95459 1315.1765 3796.48 18
-808.98602 1284.2565 3707.2239 18
-786.39575 1283.2319 3704.2666 18
-759.89807 1275.5894 3682.2051 18
-744.216 1286.1874 3712.7979 18
-721.30713 1284.5607 3708.1021 18
-691.8183 1270.7456 3668.2227 18
-669.34583 1269.3402 3664.1655 18
-646.74762 1267.5942 3659.1255 18
-618.11884 1253.4974 3618.4329 18
-595.01074 1249.9857 3608.2957 18
-574.19171 1251.2 3611.801 18
-552.64624 1250.8644 3610.832 18
-530.14862 1248.2595 3603.3127 18
-508.31143 1247.0566 3599.8403 18
-484.1691 1239.8453 3579.0237 18
-464.49945 1243.9517 3590.8772 18
-443.36404 1244.3381 3591.9932 19
-421.99384 1244.0715 3591.2236 19
-400.07437 1242.0717 3585.4502 19
-379.32047 1243.6687 3590.0603 19
-357.77094 1242.6919 3587.2407 19
-335.42108 1238.6364 3575.5337 19
-317.06494 1249.7761 3607.6904 19
-296.952 1255.1011 3623.0618 19
-273.63315 1246.6498 3598.6658 19
-252.21458 1246.1592 3597.2498 19
-230.4073 1243.4805 3589.5171 19
-209.57413 1246.0486 3596.9304 19
-189.28856 1252.8224 3616.4844 19
-167.80496 1252.3843 3615.2195 19
-146.31018 1251.7219 3613.3074 19
-124.78896 1250.5679 3609.9761 19
-103.36681 1250.1345 3608.7251 19
-81.912445 1248.9836 3605.4031 19
-60.559414 1249.1115 3605.772 19
-39.161343 1247.9432 3602.3997 19
-17.811541 1247.3569 3600.7073 19
3.5152698 1245.7289 3596.0076 19
24.816847 1245.6292 3595.7197 19
46.098946 1245.0956 3594.1794 19
67.3386 1244.1149 3591.3484 18
88.687149 1245.1339 3594.2903 18
110.00138 1245.37 3594.9717 18
131.45232 1246.8259 3599.1746 18
152.85599 1247.49 3601.0913 19
174.10638 1246.8934 3599.3694 19
195.3555 1246.4189 3597.9998 19
222.43001 1279.549 3693.635 19
243.0762 1273.077 3674.9529 19
264.54803 1271.6378 3670.7981 19
280.83453 1247.3855 3600.7896 19
302.43497 1248.4939 3603.9895 19
323.02026 1245.542 3595.4683 19
344.09589 1244.7291 3593.1216 19
365.51123 1245.1681 3594.3889 19
388.05795 1249.2008 3606.03 19
409.26917 1248.7378 3604.6936 18
430.03903 1247.0411 3599.7957 18
450.87128 1245.677 3595.8577 18
471.80988 1244.7164 3593.085 18
492.84698 1244.0875 3591.2695 18
513.79572 1243.2968 3588.9871 18
534.70172 1242.4696 3586.5994 18
555.48523 1241.4321 3583.604 18
576.00116 1239.8948 3579.1663 18
596.87109 1239.2017 3577.1655 18
617.37451 1237.821 3573.1804 18
638.94977 1238.6099 3575.4573 18
659.42334 1237.281 3571.6216 18
679.23163 1234.8253 3564.5325 18
700.01996 1234.2457 3562.8594 18
720.51141 1233.1918 3559.8171 18
740.52356 1231.4008 3554.6472 18
761.86804 1231.8632 3555.9819 18
782.91211 1231.828 3555.8804 18
800.45673 1226.433 3540.3066 18
820.08923 1224.4307 3534.5266 18
839.96484 1222.8821 3530.0562 18
858.41583 1219.385 3519.9614 18
870.177 1206.7761 3483.564 18
889.80176 1205.4043 3479.6038 18
913.05682 1208.9012 3489.6982 18
921.69861 1193.3232 3444.73 18
935.39062 1184.8173 3420.176 18
953.40192 1182.027 3412.1213 18
972.33643 1180.4734 3407.6365 16
996.36121 1185.0372 3420.8108 16
1015.4399 1183.6537 3416.8169 65552
1039.6831 1188.2264 3430.0171 131084
1020.3145 1143.7367 3301.5898 327687
1032.79 1135.9454 3279.0989 1444107
0 0 0 0
986.79883 1046.011 3019.488 8480089
978.09985 1018.3303 2939.583 9466978
1005.4272 1028.47 2968.853 9598306
1023.9341 1029.3938 2971.5195 9729636
1033.2489 1021.2012 2947.8704 9795686
1055.2671 1025.6277 2960.6482 9927272
1072.6366 1025.4651 2960.1787 9927272
1087.6788 1023.1185 2953.405 10058858
1100.2434 1018.5527 2940.2251 9466978
1121.9667 1022.4757 2951.5496 9664099
1144.566 1027.0645 2964.7957 9795687
1162.4221 1027.3225 2965.5405 10124651
1174.2734 1022.345 2951.1721 9992808
1197.8444 1027.5671 2966.2468 9664099
1216.5464 1028.522 2969.0029 9532514
1229.5719 1024.7188 2958.0242 9861480
1261.6719 1036.6956 2992.5974 9729895
1274.0652 1032.3722 2980.1172 9861481
1286.5153 1028.2123 2968.1091 9861481
1311.3925 1033.9628 2984.709 9861480
1329.9425 1034.6381 2986.6582 9927274
1340.7794 1029.3738 2971.4622 9729896
1353.2766 1025.5042 2960.2917 8611158
1369.4387 1024.4753 2957.3218 9861483
1382.392 1021.1022 2947.5847 9664103
1410.2948 1028.7181 2969.5691 9400933
1410.2861 1016.0374 2932.9641 10256241
1442.3636 1026.5005 2963.1677 10058861
1466.2373 1030.9436 2975.9937 10256240
1482.2122 1029.7933 2972.6731 9598053
1500.3024 1030.1226 2973.6233 9664103
1512.5765 1026.4971 2963.1577 9400932
1528.4227 1025.3511 2959.8499 9664104
1563.6007 1037.0529 2993.6289 9532261
1577.5667 1034.5812 2986.4939 9466725
1598.3007 1036.5536 2992.1875 9860713
1620.5347 1039.4448 3000.5337 9794920
1618.8976 1027.1281 2964.9792 9860456
1651.5404 1036.5916 2992.2974 9794662
1659.1625 1030.3165 2974.1833 10518642
1662.718 1021.6747 2949.2371 9794920
1693.4629 1029.7455 2972.5349 9794663
1723.9554 1037.4984 2994.915 9860712
1742.6102 1038.0419 2996.4836 9136989
1764.4354 1040.4437 3003.4172 9005145
1787.4968 1043.5194 3012.2957 9531746
1802.0658 1041.6255 3006.8286 10058090
1828.8883 1046.7822 3021.7141 10123882
1842.1611 1044.1586 3014.1409 10321005
1845.7688 1036.1599 2991.051 10123626
1859.3362 1033.851 2984.3862 10321005
1892.3259 1042.2834 3008.728 9334110
1882.0337 1026.9415 2964.4407 9465952
1903.6205 1029.1172 2970.7214 9597539
1923.6886 1030.4397 2974.5391 9335136
1938.9768 1029.2012 2970.9636 9400928
1955.5223 1028.646 2969.3611 9137242
1968.6659 1026.3274 2962.668 8939863
1993.3063 1029.9905 2973.2419 9071192
1994.0894 1021.3694 2948.3562 9005656
2018.4803 1024.8853 2958.5051 8874071
2033.4833 1023.6149 2954.8376 8610899
2052.8306 1024.5343 2957.4919 9005914
2066.4856 1022.6212 2951.9695 8216397
2088.2593 1024.7241 2958.04 8808789
2107.6436 1025.6293 2960.6528 8545874
2122.5588 1024.3629 2956.9971 8085834
2113.7476 1011.7602 2920.6172 7098939
2120.9741 1006.9764 2906.8083 6968635
2117.4087 997.18732 2878.5503 7297599
2104.1121 983.00836 2837.6204 7166271
2120.1279 982.64001 2836.5569 7100224
2089.6172 960.88275 2773.751 3876379
2146.3147 979.25366 2826.7817 918018
2154.3772 975.32233 2815.4331 786432
2170.9546 975.27649 2815.301 1639939
2162.7993 964.20532 2783.342 6310977
2200.2915 973.49792 2810.1667 655872
2209.4253 970.1983 2800.6418 4534564
2191.3604 955.09338 2757.0391 10519414
2209.0054 955.66083 2758.677 10190447
2234.7043 959.67865 2770.2751 9993069
2251.5239 959.85266 2770.7773 10255473
2279.7627 964.85681 2785.2227 10452080
2327.5847 978.01776 2823.2141 9859943
2355.6895 982.7652 2836.9182 10254185
2420.0959 1002.4825 2893.8359 11439228
2437.949 1002.7742 2894.678 11834242
2481.4897 1013.554 2925.7954 12031620
2523.5542 1023.5854 2954.7527 11965826
2547.6575 1026.2434 2962.4255 12097412
2579.1453 1031.8193 2978.5215 11308151
2597.4746 1032.0911 2979.3059 11044723
2618.4092 1033.3875 2983.0479 11505019
2637.2666 1033.8519 2984.3889 11373689
2624.866 1022.1384 2950.5757 10254954
2684.8225 1038.5696 2998.0071 9465696
2704.9509 1039.4795 3000.6335 9465953
2714.3823 1036.2935 2991.4368 9268574
2727.8958 1034.6971 2986.8286 9137760
2748.3684 1035.744 2989.8508 8874588
2759.7397 1033.3696 2982.9966 8611415
2786.0513 1036.5841 2992.2756 8282452
2775.6375 1026.1802 2962.2429 8545623
2779.5444 1021.1683 2947.7754 9138017
2796.981 1021.1586 2947.7473 8151124
2812.6614 1020.5118 2945.8801 7624522
0 0 0 0
0 0 0 0
0 0 0 0
0 0 0 0
0 0 0 0
0 0 0 0
0 0 0 0
-3068.1509 1209.7903 3433.5469 16
-3004.9578 1192.7808 3385.2712 16
-2991.3792 1195.3688 3392.6167 15
-2971.4082 1195.4202 3392.7625 18
-2949.9648 1194.8759 3391.2173 18
-2929.9617 1194.9114 3391.3184 18
-2909.103 1194.5961 3390.4236 18
-2885.0825 1192.969 3385.8057 18
-2863.4128 1192.298 3383.9014 18
-2841.5271 1191.5271 3381.7134 18
-2820.2134 1190.9867 3380.1797 18
-2802.8252 1192.1082 3383.3625 18
-2774.6975 1188.6451 3373.5337 18
-2747.3821 1185.4823 3364.5574 18
-2726.2061 1184.9417 3363.0232 18
-2679.8132 1173.3522 3330.1304 18
-2658.4668 1172.6384 3328.1047 18
-2832.3574 1258.6758 3572.2903 18
-2632.0559 1178.4689 3344.6523 18
-2671.3044 1205.1143 3420.2754 19
-2717.9009 1235.507 3506.5339 17
-2698.7178 1236.2355 3508.6018 18
-2686.8577 1240.356 3520.2961 18
-2666.7063 1240.6833 3521.2251 18
-2605.7202 1221.8677 3467.824 18
-2534.5972 1197.9619 3399.9763 18
-2682.2783 1277.9181 3626.9026 18
-2601.0527 1249.2268 3545.4727 18
-2643.0076 1279.7107 3631.9902 18
-2586.5769 1262.667 3583.6179 18
-2560.3965 1260.2306 3576.7029 18
-2637.4819 1309.0051 3715.1316 18
-2601.1313 1301.8274 3694.7605 18
-2582.2915 1303.3663 3699.1279 18
-2563.6677 1305.0415 3703.8823 18
-2544.5063 1306.4695 3707.9351 18
-2536.1069 1313.4963 3727.8782 18
-2504.9973 1308.7809 3714.4954 18
-2488.7839 1311.834 3723.1604 18
-2421.2263 1287.6361 3654.4836 18
-2411.5352 1294.0535 3672.6968 18
-2418.1724 1309.4291 3716.3352 18
-2392.041 1307.1807 3709.9534 18
-2366.6096 1305.2762 3704.5486 18
-2324.6873 1294.1558 3672.9871 18
-2232.7283 1254.7063 3561.0244 18
-2299.5667 1304.5936 3702.6111 18
-2218.9814 1270.9998 3607.2673 18
-2271.7837 1313.8977 3729.0176 18
-2241.8755 1309.3325 3716.0608 18
-2182.1946 1287.1161 3653.0078 18
-2159.9541 1286.759 3651.9944 17
-2178.3101 1310.8243 3720.2947 17
-2168.9827 1318.5524 3742.228 17
-2128.2681 1307.1622 3709.9014 18
-2147.4875 1332.7296 3782.4651 18
-2031.5443 1274.0697 3615.9805 18
-2026.5967 1284.5115 3645.6155 18
-2010.2684 1287.8872 3655.1963 18
-1967.1481 1273.9851 3615.7402 18
-1963.5649 1285.6644 3648.8875 18
-1942.5009 1286.0303 3649.926 18
-1907.0292 1276.7585 3623.6116 18
-1899.7992 1286.3988 3650.9719 18
-1878.3751 1286.5394 3651.3708 18
-1817.9572 1259.6641 3575.0952 18
-1829.4608 1282.5775 3640.1265 18
-1732.8187 1229.3154 3488.9617 18
-1774.5284 1274.1034 3616.0757 18
-1771.1874 1287.2443 3653.3716 18
-1834.8022 1349.9739 3831.4065 18
-1693.1017 1261.3198 3579.7947 18
-1777.4415 1340.9476 3805.7886 19
-1756.4775 1342.1567 3809.2202 19
-1672.0815 1294.2969 3673.3877 19
-1701.069 1334.0981 3786.3491 19
-1679.3026 1334.6266 3787.8489 19
-1663.8689 1340.2701 3803.8662 19
-1642.6364 1341.3337 3806.8848 19
-1618.7019 1340.1897 3803.6379 19
-1596.5406 1340.5026 3804.5256 19
-1500.6091 1277.9974 3627.1277 19
-1551.2129 1340.2865 3803.9124 19
-1460.8093 1280.7821 3635.031 19
-1454.8997 1294.6866 3674.4939 19
-1432.6486 1294.2507 3673.2566 19
-1407.052 1290.7324 3663.2712 18
-1385.2477 1290.6371 3663.0005 18
-1363.4968 1290.5892 3662.865 18
-1342.0801 1290.8615 3663.6377 18
-1312.9048 1283.5573 3642.9075 18
-1290.7383 1282.9757 3641.2568 18
-1267.8074 1281.6018 3637.3572 18
-1248.7159 1284.1285 3644.5286 18
-1225.579 1282.5109 3639.9373 18
-1202.7885 1281.2041 3636.2285 18
-1180.6783 1280.5876 3634.4792 18
-1158.3325 1279.688 3631.9255 18
-1137.7799 1280.7728 3635.0046 18
-1115.4644 1279.8768 3632.4614 18
-1091.725 1277.2795 3625.0903 18
-1071.568 1278.8536 3629.5579 18
-1049.4266 1278.0753 3627.3489 18
-1026.3639 1276.119 3621.7964 18
-1003.1413 1273.876 3615.4304 18
-979.82544 1271.4142 3608.4436 18
-957.52203 1270.1857 3604.9568 18
-935.36682 1269.1021 3601.8813 18
-910.99023 1264.8834 3589.9084 18
-931.66815 1324.5155 3759.1523 18
-911.98151 1328.2782 3769.8313 18
-879.61633 1313.3004 3727.3223 18
-863.5119 1322.454 3753.3015 18
-841.24866 1322.4103 3753.1775 18
-818.13666 1320.9938 3749.157 18
-792.64594 1315.5502 3733.7073 18
-770.93823 1316.2531 3735.7021 18
-748.33191 1315.4177 3733.3315 18
-724.85968 1312.9631 3726.365 18
-669.72882 1251.2087 3551.0977 18
-649.72852 1253.2091 3556.7754 18
-627.93768 1251.7745 3552.7036 18
-606.08716 1250.1173 3548 18
-592.23627 1265.4337 3591.4702 18
-570.41901 1264.2355 3588.0696 18
-542.67743 1249.3063 3545.6985 18
-521.70648 1249.389 3545.9333 18
-500.42755 1248.7102 3544.0068 18
-479.75565 1249.5531 3546.3989 18
-458.92041 1250.0284 3547.7478 18
-440.87527 1258.5137 3571.8301 19
-415.88901 1247.0416 3539.2708 19
-397.38455 1254.8188 3561.3438 19
-373.65839 1246.0553 3536.4717 19
-344.28262 1216.2916 3451.9983 19
-330.69861 1242.0813 3525.1929 19
-310.47324 1244.722 3532.6877 19
-291.55881 1253.38 3557.2603 19
-270.38342 1252.9103 3555.927 19
-247.49716 1243.7634 3529.967 19
-227.84558 1250.6838 3549.6082 19
-206.7334 1250.1788 3548.1748 19
-185.57823 1249.2703 3545.5962 19
-164.52455 1248.9001 3544.5457 19
-143.50105 1248.6842 3543.9326 19
-122.32133 1246.802 3538.5908 19
-101.3761 1247.0256 3539.2256 19
-80.351364 1246.1328 3536.6917 19
-59.373688 1245.5977 3535.1729 19
-38.404739 1244.7618 3532.8008 19
-17.4709 1244.425 3531.845 19
3.4483802 1242.923 3527.5815 19
24.308947 1241.0021 3522.1301 19
45.141785 1240.094 3519.5527 19
65.950325 1239.3032 3517.3083 19
87.135605 1244.2719 3531.4099 19
108.19829 1245.9047 3536.0442 19
129.6824 1251.0736 3550.7141 19
149.91386 1244.4017 3531.7786 19
170.80653 1244.1803 3531.1504 19
191.63255 1243.5748 3529.4316 19
215.32185 1259.8414 3575.5984 19
234.06981 1246.8719 3538.7893 19
253.60512 1239.884 3518.9568 19
272.51404 1231.1281 3494.1062 19
291.47208 1223.8146 3473.3494 19
311.98932 1223.5806 3472.6853 19
345.59952 1271.5477 3608.8225 19
361.99768 1254.288 3559.8372 19
380.65323 1246.3196 3537.2217 19
401.29218 1245.3378 3534.4353 18
422.06204 1244.8395 3533.0212 18
442.5769 1243.6719 3529.7073 18
462.90646 1242.1122 3525.2805 18
483.64795 1241.745 3524.2383 18
504.21924 1240.989 3522.093 18
524.81622 1240.354 3520.2908 18
545.32428 1239.5654 3518.0525 18
566.81195 1240.9797 3522.0664 18
587.35156 1240.2915 3520.113 18
607.59448 1239.0453 3516.5764 18
627.88928 1237.9841 3513.5647 18
647.57739 1235.8335 3507.4607 18
667.45636 1234.1692 3502.7373 18
687.41821 1232.754 3498.7207 18
708.03442 1232.5607 3498.1724 18
728.24817 1231.6979 3495.7234 18
744.97791 1225.153 3477.1479 18
767.29834 1227.9071 3484.9646 18
787.62793 1227.4144 3483.5664 18
779.50934 1183.7462 3359.6301 18
825.87897 1222.9368 3470.8584 18
848.82629 1226.3829 3480.6389 18
856.55469 1208.1989 3429.03 18
876.74799 1208.032 3428.5566 18
889.30701 1197.5919 3398.9263 18
896.32739 1180.3208 3349.9084 18
922.81152 1188.8734 3374.1816 18
936.22119 1180.5763 3350.6335 18
955.0213 1179.28 3346.9543 18
980.9491 1186.6588 3367.8965 16
998.02283 1183.2461 3358.2107 16
992.8194 1154.0715 3275.4092 14
1016.3234 1158.7458 3288.6755 196617
1010.5387 1130.4791 3208.4512 458753
0 0 0 0
0 0 0 0
958.36951 1014.8519 2880.2854 9204323
985.42828 1025.2511 2909.7998 9532773
1006.4632 1029.1333 2920.8179 9466466
1021.0429 1026.395 2913.0464 10189929
1035.0546 1023.1865 2903.9399 9993065
1054.0492 1024.9279 2908.8826 9927272
1068.4189 1022.1888 2901.1084 10058601
1084.5105 1021.1574 2898.1814 9927015
1103.394 1022.7461 2902.6904 9861479
1127.6082 1029.1514 2920.8691 9729636
1141.4685 1026.056 2912.0842 9795686
1158.2981 1025.682 2911.0229 9664100
1167.2982 1018.4878 2890.6047 9729894
1193.0653 1025.9194 2911.6968 9532515
1210.3131 1025.9181 2911.6926 9729894
1222.2731 1021.4973 2899.146 9795431
1243.8097 1025.0919 2909.3479 9993066
1265.5253 1028.7335 2919.6833 9729894
1278.036 1024.8954 2908.7903 9729895
1293.0225 1023.1183 2903.7466 9927017
1306.327 1020.0745 2895.1079 9729896
1320.2365 1017.5758 2888.0164 9795690
1336.8792 1017.2209 2887.009 9927276
1364.8895 1025.4152 2910.2654 9532518
1384.8716 1027.4486 2916.0369 9532518
1407.3042 1031.2278 2926.7627 10124398
1424.1512 1030.8719 2925.7524 9992812
1426.5149 1020.1667 2895.3699 10058606
1449.2822 1024.1343 2906.6301 9532519
1460.1848 1019.7227 2894.1096 9993069
1506.9812 1040.1893 2952.1965 9203553
1521.4514 1038.1292 2946.3496 9795433
1527.4077 1030.3724 2924.3347 9729640
1545.2766 1030.7356 2925.3655 9400932
1564.9962 1032.3115 2929.8381 9334370
1550.8586 1011.7647 2871.5237 10321265
1586.1813 1023.5809 2905.0598 9795435
1605.2273 1024.7531 2908.3862 9860969
1619.6613 1022.9871 2903.374 9860715
1655.0348 1034.3448 2935.6089 10321264
1665.8628 1030.2856 2924.0886 9597284
1676.2224 1026.0234 2911.9917 9466214
1696.6366 1027.9396 2917.4302 9071456
1729.0758 1037.0294 2943.2283 9334628
1744.4347 1035.7959 2939.7273 9203298
1766.2881 1038.4049 2947.1318 9597798
1782.5837 1037.7274 2945.2092 10189678
1799.3856 1037.3547 2944.1516 9860713
1803.0044 1029.4623 2921.7515 10123628
1816.2452 1027.1615 2915.2217 9992298
1834.5721 1027.7534 2916.9016 9860454
1833.9314 1017.8073 2888.6733 9597539
1867.3011 1026.7461 2914.0427 9531746
1889.2267 1029.2861 2921.2517 9795689
1903.1061 1027.436 2916.001 9532259
1916.3713 1025.2908 2909.9124 9334880
1927.6979 1022.1557 2901.0146 9532517
1949.8818 1024.7823 2908.4695 9466464
1966.4131 1024.4181 2907.4355 8874070
1983.801 1024.5027 2907.6755 8676691
2001.9971 1024.9994 2909.0854 9268571
2019.2375 1025.0026 2909.0945 9466207
2039.4414 1026.4973 2913.3369 9137499
2062.7766 1029.5298 2921.9434 9006170
2057.7419 1018.4704 2890.5552 8545618
2083.5437 1022.7297 2902.6438 8743253
2115.2537 1029.7958 2922.6982 8414544
2093.5193 1010.9394 2869.1814 8283214
2103.2393 1007.4534 2859.2876 8020040
2126.9709 1010.6812 2868.4482 7888967
2120.6587 999.69458 2837.2671 7297088
2118.0454 990.61096 2811.4866 7626309
2134.293 990.42151 2810.9487 7692358
2130.7393 981.11731 2784.5422 7166529
2156.9868 985.57281 2797.1875 1181955
2164.1946 981.32715 2785.1377 5455651
2183.5132 982.59558 2788.7378 5586726
2189.1943 977.75421 2774.9973 852225
2196.3032 973.61786 2763.2578 10652796
2207.7942 971.47089 2757.1646 9861483
2233.625 975.61896 2768.9373 9993069
2255.8569 978.14606 2776.1094 9860714
2279.928 981.42822 2785.4246 10320494
2307.4407 986.13422 2798.7808 9925993
2347.3186 996.01971 2826.8372 10319980
2382.0259 1003.5868 2848.3135 11833219
2404.0388 1005.7366 2854.415 10780784
2431.3293 1010.0488 2866.6538 10912370
2442.1853 1007.5213 2859.4802 12031105
2455.8977 1006.1989 2855.7271 10321000
2502.7632 1018.3847 2890.312 12097412
2527.542 1021.4786 2899.093 11768960
2546.7878 1022.3101 2901.4526 11900289
2550.2097 1016.8209 2885.8735 11900032
2567.9253 1017.066 2886.5693 11702652
2598.4614 1022.3521 2901.572 10781809
2642.8113 1032.9679 2931.7012 10189417
2688.0107 1043.7751 2962.3735 9268315
2685.877 1036.1814 2940.8215 8939353
2687.2227 1030.0193 2923.3325 7887692
2679.1489 1020.3488 2895.8862 7755850
2692.698 1018.9838 2892.0125 7624266
2682.6602 1008.7667 2863.0149 8414037
2709.9043 1012.6092 2873.9204 7229762
2724.3042 1011.6341 2871.1531 8216659
2728.2734 1006.822 2857.4954 8545370
0 0 0 0
0 0 0 0
0 0 0 0
0 0 0 0
0 0 0 0
0 0 0 0
0 0 0 0
-3033.4255 1216.2087 3394.6858 16
-2951.0659 1191.0845 3324.5588 16
-2932.4512 1191.5236 3325.7844 15
-2909.9775 1190.39 3322.6206 18
-2889.3257 1189.9915 3321.5081 18
-2868.2329 1189.4045 3319.8699 18
-2846.5737 1188.5729 3317.5486 18
-2822.3013 1186.631 3312.1284 18
-2799.481 1185.2769 3308.3486 18
-2776.749 1183.9413 3304.6206 18
-2755.5632 1183.2505 3302.6926 18
-2734.4932 1182.6 3300.877 18
-2708.2722 1179.6965 3292.7727 18
-2688.429 1179.5491 3292.3611 18
-2670.8464 1180.3984 3294.7319 18
-2645.074 1177.6144 3286.9609 18
-2619.6018 1174.9235 3279.4502 19
-2748.6516 1242.0153 3466.717 18
-2672.4099 1216.6552 3395.9316 18
-2670.5122 1225.0132 3419.2607 19
-2675.6992 1236.7739 3452.0872 17
-2668.0781 1242.7498 3468.7671 18
-2632.8394 1235.8549 3449.522 18
-2631.1631 1244.7294 3474.2925 18
-2682.7166 1279.1239 3570.2949 18
-2551.0374 1226.0052 3422.0295 18
-2580.0405 1249.8765 3488.6592 18
-2546.2476 1243.4667 3470.7681 18
-2527.1106 1244.1681 3472.7261 18
-2508.9807 1245.3809 3476.1111 18
-2480.613 1241.49 3465.251 18
-2335.238 1178.486 3289.3938 18
-2451.9729 1247.8093 3482.8894 18
-2440.9553 1252.7445 3496.6643 18
-2466.8589 1276.8748 3564.0168 18
-2454.8438 1281.625 3577.2759 18
-2441.8716 1285.9541 3589.3594 18
-2425.7461 1288.6842 3596.9792 18
-2401.0278 1286.8571 3591.8794 18
-2393.6963 1294.3992 3612.9312 18
-2374.6836 1295.7039 3616.5728 18
-2352.1685 1295.1039 3614.8982 18
-2330.042 1294.7089 3613.7954 18
-2307.6436 1294.1539 3612.2468 18
-2272.6912 1286.4823 3590.8335 18
-2202.8484 1258.729 3513.3684 18
-2245.9004 1295.5708 3616.2014 18
-2168.2876 1262.845 3524.8569 18
-2148.603 1263.5492 3526.8228 17
-2187.4338 1299.017 3625.8203 17
-2168.3496 1300.4539 3629.8311 17
-2087.9048 1264.7504 3530.1753 16
-2135.1414 1306.4501 3646.5676 16
-2099.2847 1297.6395 3621.9756 16
-2029.9717 1267.7528 3538.5557 18
-2016.0402 1272.1899 3550.9407 18
-1991.3608 1269.8671 3544.457 18
-1968.8248 1268.876 3541.6907 18
-1947.9795 1268.9648 3541.9387 18
-1926.282 1268.4945 3540.626 18
-1908.5272 1270.6387 3546.6108 18
-1833.8535 1234.5139 3445.7793 18
-1837.5099 1250.8998 3491.5154 18
-1843.7977 1269.4705 3543.3501 18
-1821.3989 1268.4905 3540.6147 18
-1784.2866 1257.1212 3508.8809 18
-1762.2555 1256.2346 3506.4062 18
-1816.8003 1310.5656 3658.0549 18
-1707.689 1246.7283 3479.8721 18
-1787.1576 1320.6896 3686.3127 18
-1660.5934 1242.3409 3467.6262 18
-1651.8689 1251.2935 3492.6143 18
-1631.605 1251.6213 3493.5293 19
-1610.9225 1251.632 3493.5591 19
-1618.212 1273.6593 3555.042 19
-1597.5363 1273.9664 3555.8992 19
-1577.6251 1274.8997 3558.5039 19
-1552.7656 1271.8052 3549.8667 19
-1531.8625 1271.9108 3550.1614 19
-1509.903 1271.1299 3547.9817 19
-1490.4855 1272.4972 3551.7981 19
-1484.6442 1285.6602 3588.5388 19
-1454.2456 1277.6309 3566.1274 19
-1432.6377 1277.2018 3564.9297 19
-1411.3849 1277.0811 3564.5928 19
-1386.6178 1273.7286 3555.2354 18
-1368.7639 1276.7211 3563.5879 18
-1355.0793 1283.7571 3583.2268 18
-1323.1615 1273.4684 3554.5093 18
-1301.8525 1273.2228 3553.8235 18
-1280.6428 1273.0676 3553.3904 18
-1259.5808 1273.0565 3553.3594 18
-1238.4153 1272.9388 3553.031 18
-1216.0494 1271.5618 3549.1873 18
-1193.5293 1269.972 3544.75 18
-1110.5411 1202.8324 3357.3496 18
-1151.0507 1269.4441 3543.2764 18
-1132.116 1271.7542 3549.7241 18
-1110.2112 1270.7523 3546.9277 18
-1087.1173 1268.3242 3540.1509 18
-1069.9661 1272.8704 3552.8398 18
-1045.0911 1268.2261 3539.8767 18
-1024.863 1269.1461 3542.4448 18
-999.39325 1263.4778 3526.6233 18
-980.9483 1266.6382 3535.4446 18
-957.05511 1262.748 3524.5864 18
-937.13446 1264.0426 3528.2 18
-915.80237 1263.4491 3526.5432 18
-894.07013 1262.2628 3523.2322 18
-872.77161 1261.647 3521.5132 18
-851.87292 1261.5929 3521.3621 18
-832.25104 1263.4746 3526.6145 18
-810.15442 1261.5995 3521.3804 18
-788.43036 1260.2207 3517.532 18
-805.87793 1323.0785 3692.981 18
-781.97498 1319.6613 3683.4426 18
-757.92334 1315.7897 3672.6365 18
-736.29272 1316.0165 3673.2695 18
-713.38843 1313.9114 3667.3936 18
-691.12183 1312.8853 3664.5295 18
-663.84814 1301.9725 3634.0701 18
-620.54022 1257.827 3510.8508 18
-598.84991 1255.9578 3505.6335 18
-573.34589 1245.6686 3476.9141 18
-552.20837 1244.4529 3473.5208 18
-531.00049 1242.9781 3469.4045 18
-509.7818 1241.3585 3464.8838 18
-493.27847 1251.5669 3493.3774 18
-475.69925 1259.8201 3516.4141 18
-454.22797 1258.0496 3511.4722 18
-426.68179 1238.4762 3456.8389 19
-406.73099 1240.087 3461.3347 19
-387.57724 1244.4279 3473.4512 19
-366.63953 1243.2065 3470.0422 19
-345.87469 1242.4612 3467.9614 19
-323.49847 1235.4675 3448.4409 19
-304.4292 1241.0118 3463.9163 19
-286.43787 1252.0696 3494.7805 19
-265.55841 1251.2423 3492.4714 19
-244.89867 1251.3978 3492.9055 19
-222.99593 1244.6443 3474.0552 19
-202.36972 1244.3669 3473.281 18
-181.75223 1244.0863 3472.4978 18
-161.88237 1249.5049 3487.6221 19
-141.12872 1248.6892 3485.3452 19
-120.37299 1247.5723 3482.2278 19
-98.971291 1237.9138 3455.269 19
-78.55864 1238.8151 3457.7844 19
-57.551701 1227.6747 3426.6895 19
-37.400173 1232.5839 3440.3921 19
-17.167786 1243.3951 3470.5684 19
3.3896673 1242.303 3467.5203 19
23.925032 1241.9391 3466.5046 19
44.202911 1234.7191 3446.3518 19
64.958504 1241.1893 3464.4116 19
85.670288 1243.9165 3472.0237 19
106.22195 1243.7129 3471.4556 19
126.79276 1243.7632 3471.5957 19
147.30478 1243.3031 3470.3115 19
167.78215 1242.6992 3468.626 19
188.31079 1242.5653 3468.2524 19
209.82358 1248.3129 3484.2949 19
227.47191 1232.099 3439.0388 19
250.57367 1245.6611 3476.8933 19
271.07849 1245.2335 3475.6997 19
296.38446 1265.364 3531.8882 19
317.40527 1265.7513 3532.9692 19
338.27939 1265.5419 3532.3843 19
358.9458 1264.625 3529.8252 19
380.04263 1265.2419 3531.5476 19
394.3334 1244.3181 3473.1448 18
416.77252 1249.9066 3488.7434 18
435.14813 1243.3562 3470.4597 18
455.42374 1242.5809 3468.2959 18
476.24106 1243.2866 3470.2656 18
499.03864 1248.8899 3485.9053 18
516.98962 1242.4006 3467.7927 18
537.27606 1241.8054 3466.1311 18
557.59393 1241.3239 3464.7871 18
577.71936 1240.4635 3462.3855 18
596.94299 1237.792 3454.929 18
616.63245 1236.2316 3450.5735 18
636.04608 1234.2361 3445.0037 18
657.14014 1235.5242 3448.5989 18
676.12469 1232.8879 3441.2407 18
698.66986 1236.7086 3451.905 18
714.95221 1229.5415 3431.9001 18
734.07013 1227.5123 3426.2366 18
753.3064 1225.785 3421.4153 18
770.53418 1220.9656 3407.9631 18
791.77875 1222.5947 3412.5103 18
802.33563 1208.0505 3371.9146 18
822.62842 1208.516 3373.2139 18
838.74603 1202.9711 3357.7368 18
837.96301 1174.0049 3276.8862 18
879.4541 1204.2365 3361.2686 18
870.53912 1165.6364 3253.5281 18
907.36163 1188.6237 3317.6904 18
908.97327 1165.4888 3253.116 18
931.28613 1169.3066 3263.7725 18
953.68219 1173.0715 3274.281 16
975.68091 1176.2072 3283.0332 16
986.83075 1166.3973 3255.6521 15
998.18243 1157.1976 3229.9736 65549
996.03571 1132.9896 3162.4043 262150
0 0 0 0
0 0 0 0
958.15149 1031.6805 2879.6301 7822926
965.49792 1021.405 2850.949 9401184
980.3183 1019.2535 2844.9436 9598051
995.72552 1017.7746 2840.8157 9729893
1006.3998 1011.5875 2823.5464 10387566
1033.0126 1021.3615 2850.8274 9861479
1047.9132 1019.4271 2845.4285 9927272
1066.6077 1021.1866 2850.3391 9927272
1085.0189 1022.6239 2854.3511 9993065
1101.3579 1022.0942 2852.8726 9993065
1116.8942 1020.8469 2849.3909 10190444
1137.2946 1024.0161 2858.2371 9203549
1149.4153 1019.7468 2846.3206 9729379
1170.6333 1023.5554 2856.9512 9400414
1184.0995 1020.574 2848.6296 9927015
1202.4427 1021.8209 2852.1099 9861479
1219.9631 1022.3438 2853.5691 9664102
1236.1682 1021.765 2851.9539 9400929
1251.3789 1020.3911 2848.1189 9532515
1269.7363 1021.5855 2851.4529 9795688
1287.5398 1022.3087 2853.4714 9993068
1302.125 1020.491 2848.3977 9927276
1316.3527 1018.4432 2842.6819 9993326
1334.3102 1019.2964 2845.0632 9795947
1350.4441 1018.7524 2843.5452 9861483
1361.6451 1014.5467 2831.8059 9664104
1392.5422 1024.9398 2860.8154 9861482
1391.3646 1011.7593 2824.0259 9795688
1416.6083 1017.8766 2841.1003 10322033
1440.8488 1023.1378 2855.7854 9664103
1453.3461 1020.0349 2847.1245 9729897
1479.4657 1026.4543 2865.0427 9532261
1497.3033 1027.0472 2866.6978 9137760
1507.7847 1022.6376 2854.3894 9203552
1535.5306 1029.9055 2874.6755 9794664
1542.9584 1023.5356 2856.8958 9729127
1560.6053 1024.0094 2858.2183 9728870
1587.8173 1030.6818 2876.8423 9400161
1602.8903 1029.4166 2873.311 10058093
1620.0187 1029.4841 2873.4995 9729383
1638.2759 1030.26 2875.6653 9664105
1648.3552 1025.9302 2863.5796 9203042
1669.5439 1028.5326 2870.8435 9334884
1699.4141 1036.3768 2892.7383 9137245
1706.2867 1030.1794 2875.4402 9532005
1735.252 1037.3114 2895.3469 9071454
1722.135 1019.3936 2845.3347 10124657
1755.3597 1028.9888 2872.1167 9466728
1779.1786 1032.939 2883.1423 9137760
1769.5769 1017.5953 2840.3152 9795690
1802.2435 1026.6183 2865.5 9729639
1817.1178 1025.4321 2862.1897 9531746
1834.3191 1025.5693 2862.5723 9597282
1854.1837 1027.1792 2867.0659 9794915
1879.5122 1031.7593 2879.8499 9268571
1881.2214 1023.4078 2856.5391 9334364
1901.7742 1025.365 2862.002 9400413
1918.1243 1025.0415 2861.0994 9597536
1938.1354 1026.6632 2865.6257 9071449
1955.6743 1026.9585 2866.45 9597792
1954.134 1017.3161 2839.5359 8808277
1996.771 1030.6406 2876.7273 8676434
2013.5861 1030.5243 2876.4026 9334621
2034.0685 1032.271 2881.2781 9598562
2033.4689 1023.3787 2856.458 8545873
2044.3218 1020.3495 2848.0027 9006170
2063.0151 1021.251 2850.519 8940630
2075.3806 1019.0308 2844.322 8743252
2085.0791 1015.5474 2834.5994 8677459
2109.0876 1019.0338 2844.3306 9467231
2124.1272 1018.1658 2841.9077 8546129
2107.1758 1002.0977 2797.0583 7494211
2124.9548 1002.6679 2798.6499 7823689
2148.762 1006.0518 2808.095 8613206
2172.0356 1009.1357 2816.7029 8350290
2177.1272 1003.7897 2801.781 8020810
2174.0105 994.76855 2776.6013 7692102
2184.3691 992.00269 2768.8811 5980716
2198.9631 991.18701 2766.6045 2428933
2196.2554 982.64233 2742.7544 12164493
2221.9844 986.85291 2754.5068 9598571
2242.3232 988.62543 2759.4546 9070942
2278.0415 997.104 2783.1199 9990504
2307.5657 1002.7692 2798.9324 10188652
2331.3496 1005.8766 2807.606 10451567
2366.7004 1013.8954 2829.988 10188650
2380.5757 1012.666 2826.5564 9464667
2390.5745 1009.8161 2818.6021 9135702
2401.2998 1007.3106 2811.6086 10452073
2431.9153 1013.1258 2827.8401 12228229
2465.7224 1020.182 2847.5354 8017733
2492.8022 1024.3778 2859.2466 10387306
2505.533 1022.6603 2854.4526 11637117
2512.1553 1018.4892 2842.8103 12426632
2516.5835 1013.4902 2828.8569 12163717
2544.5803 1017.986 2841.4058 11571582
2559.3022 1017.1469 2839.0637 10716532
2603.1975 1027.8376 2868.9036 10716275
2643.6599 1037.0427 2894.5972 10913655
2654.4536 1034.5662 2887.6843 9861226
2655.7327 1028.4366 2870.5757 7756362
2655.0898 1021.6456 2851.6204 8019025
2651.0837 1013.6545 2829.3157 8610905
2671.0693 1014.8795 2832.7349 8479319
2670.7275 1008.414 2814.6885 8347989
2687.4624 1008.4365 2814.7512 8413527
0 0 0 0
0 0 0 0
0 0 0 0
0 0 0 0
0 0 0 0
0 0 0 0
0 0 0 0
-2984.8545 1216.5238 3340.3303 17
-2904.3621 1191.618 3271.9441 18
-2886.1396 1192.0977 3273.261 18
-2865.4688 1191.5657 3271.8005 18
