# .PCD v0.7 - Point Cloud Data file format
VERSION 0.7
FIELDS x y z rgb
SIZE 4 4 4 4
TYPE F F F U
COUNT 1 1 1 1
WIDTH 1405
HEIGHT 1
VIEWPOINT 0 0 0 1 0 0 0
POINTS 1405
DATA ascii
-2337.5271 1279.9298 4117.1899 18
-2314.6843 1280.7867 4119.9463 18
-2295.6877 1283.8126 4129.6797 18
-2291.2095 1295.1102 4166.021 18
-2253.3889 1287.6019 4141.8687 18
-2230.2039 1288.3832 4144.3818 18
-2221.3452 1297.5502 4173.8696 18
-2183.8445 1290.0046 4149.5977 19
-2163.8528 1292.7477 4158.4214 19
-2138.5796 1292.3623 4157.1816 19
-2131.9275 1303.3519 4192.5322 19
-2088.176 1291.6527 4154.8989 19
-2063.0012 1291.302 4153.771 19
-2037.3322 1290.6298 4151.6084 18
-2014.1058 1291.5073 4154.4316 18
-1987.5924 1290.2728 4150.4604 18
-1967.3302 1293.1165 4159.6074 18
-1943.1589 1293.4301 4160.6162 18
-1918.736 1293.5822 4161.1055 18
-1894.161 1293.6342 4161.2729 18
-1872.2397 1295.5239 4167.3521 18
-1848.778 1296.384 4170.1187 18
-1818.1544 1292.1775 4156.5874 19
-1794.5568 1292.9174 4158.9673 19
-1771.9237 1294.3823 4163.6797 19
-1750.8995 1297.0808 4172.3599 19
-1730.3677 1300.2263 4182.478 19
-1705.3043 1300.0085 4181.7778 19
-1682.7672 1301.7389 4187.3438 19
-1659.2822 1302.7767 4190.6821 19
-1639.5438 1306.8324 4203.728 19
-1615.552 1307.5706 4206.1025 19
-1591.3203 1308.1346 4207.917 19
-1566.4291 1308.1659 4208.0176 19
-1542.0297 1308.6155 4209.4639 19
-1517.1251 1308.6442 4209.5562 19
-1492.985 1309.3442 4211.8081 19
-1470.127 1311.2115 4217.8149 19
-1445.004 1311.0886 4217.4189 19
-1418.8561 1310.0146 4213.9648 19
-1395.6871 1311.7021 4219.3931 19
-1370.533 1311.5515 4218.9082 19
-1336.2561 1302.5029 4189.8013 19
-1304.0876 1295.2058 4166.3286 19
-1287.8099 1303.714 4193.6973 19
-1262.8839 1303.63 4193.4268 19
-1237.0259 1302.5608 4189.9878 19
-1211.0236 1301.2931 4185.9097 19
-1185.1703 1300.1357 4182.187 19
-1159.7407 1299.4037 4179.832 19
-1136.5115 1301.1587 4185.4775 19
-1110.3934 1299.6112 4180.4995 19
-1083.8173 1297.4446 4173.5298 19
-1059.3577 1297.7695 4174.5752 19
-1033.2837 1296.085 4169.1567 19
-1005.1395 1291.658 4154.916 19
-983.10162 1295.0524 4165.835 19
-957.6546 1294.015 4162.498 19
-930.26996 1290.2355 4150.3403 19
-904.49207 1288.5398 4144.8857 19
-879.09259 1287.3036 4140.9092 19
-854.2749 1286.8727 4139.5229 19
-833.05865 1292.002 4156.0225 18
-805.10828 1286.6814 4138.9077 18
-780.30676 1286.217 4137.4141 18
-755.79907 1286.2227 4137.4321 18
-731.39856 1286.4171 4138.0576 18
-705.15356 1283.2684 4127.9292 18
-682.27637 1286.2426 4137.4961 18
-656.73901 1284.2365 4131.043 18
-633.29333 1286.3236 4137.7568 18
-608.52441 1285.7828 4136.0176 18
-584.05255 1285.8507 4136.2358 18
-559.96613 1286.8104 4139.3228 18
-535.91858 1287.9513 4142.9927 18
-510.70712 1286.2703 4137.5854 18
-486.33228 1286.6331 4138.7524 17
-462.02948 1287.2351 4140.689 18
-437.86923 1288.3242 4144.1924 17
-413.66348 1289.4008 4147.6553 19
-389.59286 1291.061 4152.9961 19
-365.12286 1291.5326 4154.5127 19
-340.80777 1292.6598 4158.1387 19
-316.48416 1293.9277 4162.2173 19
-292.20609 1295.6119 4167.6348 19
-267.88538 1297.4006 4173.3887 19
-243.4203 1298.7826 4177.834 19
-218.98634 1300.6622 4183.8804 19
-194.34311 1301.6201 4186.9614 19
-169.67796 1302.6901 4190.4033 19
-144.77975 1302.0306 4188.2822 19
-120.0686 1303.1289 4191.8149 19
-95.892448 1312.1204 4220.7378 19
-70.923943 1312.7885 4222.8872 18
-45.897118 1312.5172 4222.0146 18
-20.892563 1312.9957 4223.5537 19
4.1327357 1314.2708 4227.6553 19
29.204216 1315.4371 4231.4072 19
54.240719 1314.6782 4228.9658 19
79.3694 1315.9271 4232.9834 19
104.46252 1316.1282 4233.6304 19
129.58122 1316.5116 4234.8633 19
155.03922 1319.6583 4244.9858 19
180.07677 1318.8477 4242.3779 19
205.22658 1318.9569 4242.7295 19
230.33676 1318.8154 4242.2744 19
256.38947 1323.5674 4257.5601 19
281.55035 1323.2766 4256.625 19
305.28677 1316.8892 4236.0781 19
331.25967 1320.3864 4247.3276 19
357.50674 1324.4058 4260.2568 19
382.65021 1324.076 4259.1963 19
407.71167 1323.5211 4257.4111 19
431.33353 1318.6296 4241.6768 18
458.04617 1323.2054 4256.396 19
483.41879 1323.6348 4257.7769 18
508.61453 1323.5612 4257.54 18
533.60095 1322.9756 4255.6562 18
556.82812 1318.2776 4240.5444 18
581.45209 1317.1495 4236.9155 18
605.95288 1315.8474 4232.7271 18
629.96289 1313.6254 4225.5791 18
653.56317 1310.7513 4216.3345 18
678.02313 1309.7496 4213.1123 18
701.44977 1306.8938 4203.9258 18
724.38025 1303.3413 4192.498 18
747.49939 1300.3523 4182.8833 18
771.12238 1298.4034 4176.6147 18
794.86694 1296.7743 4171.374 18
818.8158 1295.5667 4167.4893 18
840.70483 1291.2657 4153.6543 18
861.81226 1286.0432 4136.855 16
884.0705 1282.7794 4126.356 16
906.82159 1280.387 4118.6602 16
928.27155 1276.3309 4105.6133 16
950.28442 1273.2363 4095.6584 16
972.46136 1270.5101 4086.8892 16
984.06598 1254.4392 4035.1936 16
1012.8434 1260.5026 4054.6975 16
1032.7388 1255.4873 4038.5647 16
1046.9561 1243.9524 4001.46 16
1069.1019 1242.1403 3995.6309 16
1092.4526 1241.7761 3994.4597 16
1112.5417 1237.7987 3981.6655 13
1134.906 1236.4652 3977.376 65550
1157.9631 1235.9254 3975.6394 65550
1170.158 1224.0447 3937.4221 131083
1177.301 1207.4471 3884.0325 327684
0 0 0 0
1112.092 1097.6616 3530.8821 6706758
1150.774 1114.8716 3586.2419 7889485
1161.7844 1105.1354 3554.9231 8743766
1150.1514 1074.5901 3456.667 8875095
1205.1553 1106.2833 3558.6157 9204060
1227.1584 1107.1143 3561.2888 9401438
1249.1781 1107.9319 3563.9187 9664354
1269.4517 1107.1993 3561.5623 9664354
1290.5244 1107.1764 3561.4885 9664611
1310.6199 1106.3292 3558.7634 9598561
1333.0326 1107.434 3562.3169 9401439
1351.1412 1104.9844 3554.4373 9466975
1372.8025 1105.4707 3556.0017 9401438
1400.0408 1110.3655 3571.7471 9072474
1417.5873 1107.5424 3562.6658 9598818
1433.0616 1103.207 3548.72 9533024
1451.954 1101.5902 3543.519 9730147
1472.8542 1101.5211 3543.2969 9796196
1493.186 1101.0348 3541.7327 9730404
1513.9717 1100.892 3541.2732 9730146
1534.3601 1100.4683 3539.9102 9927526
1554.9856 1100.2235 3539.123 9795940
1577.3608 1101.2069 3542.2864 9532768
1590.2294 1095.6149 3524.2981 9203292
1614.7423 1098.0863 3532.248 9532513
1621.5016 1088.5757 3501.6553 8545619
1663.438 1102.6228 3546.8408 9664100
1680.494 1100.033 3538.5103 9664100
1701.3102 1099.9382 3538.2053 9598307
1721.7823 1099.6259 3537.2007 9729636
1748.152 1103.0424 3548.1904 9927271
1775.068 1106.7183 3560.0146 9861479
1798.5237 1108.1755 3564.7026 9664100
1823.1721 1110.3256 3571.6187 9664100
1843.5592 1109.8608 3570.1238 9795686
1866.2103 1110.7542 3572.9973 9795686
1884.7435 1109.204 3568.0107 9400927
1919.1298 1116.9146 3592.8135 9927271
1921.6781 1106.1299 3558.1221 9927014
1936.8164 1102.7473 3547.2415 9466975
1971.8208 1110.6271 3572.5884 9400671
1994.2839 1111.3506 3574.9158 9269342
2015.2091 1111.2108 3574.4661 9532514
2024.6228 1104.7925 3553.8201 9861222
2047.3624 1105.703 3556.7488 9664355
2076.9216 1110.2405 3571.3447 10190186
2087.7495 1104.7743 3553.7617 9795169
2111.5376 1106.207 3558.3704 10189414
2126.1113 1102.8319 3547.5134 9597533
2147.1277 1102.8319 3547.5134 9729119
2175.7056 1106.6781 3559.8857 10254434
2188.311 1102.4042 3546.1375 10057312
2213.114 1104.2976 3552.2283 9925725
2228.7842 1101.6415 3543.6841 9991518
2253.0161 1103.2271 3548.7847 9859933
2277.1284 1104.7256 3553.6047 9925212
2295.2158 1103.3003 3549.0203 9859678
2319.1477 1104.6847 3553.4734 9991521
2334.5151 1102.0016 3544.8425 9860448
2356.4761 1102.4509 3546.2878 9729119
2378.0369 1102.7068 3547.1108 9334618
2398.4309 1102.4219 3546.1946 9334361
2417.3447 1101.4674 3543.1243 9202776
2439.2371 1101.8749 3544.4351 9136983
2464.2449 1103.6709 3550.2122 9466207
2480.4897 1101.5449 3543.3735 9466207
2500.4094 1101.0728 3541.8547 9203035
2521.6743 1101.1959 3542.251 9071449
2554.9187 1106.5054 3559.3298 9531743
2561.0344 1100.0747 3538.6445 9203035
2551.2705 1086.9833 3496.5325 9334367
2617.6069 1106.2642 3558.5542 8413521
2630.0298 1102.634 3546.877 8545364
2662.324 1107.3263 3561.9707 8940124
2693.8772 1111.6392 3575.844 9927019
2671.2285 1093.6924 3518.1143 9335140
2680.0493 1088.8086 3502.4041 9993328
2684.3601 1082.1816 3481.0872 9137763
2700.2759 1080.2985 3475.0295 9795947
2692.595 1069.0751 3438.9268 11440513
2732.3867 1076.7272 3463.5415 12822419
2787.5891 1090.2927 3507.1785 13282200
2793.709 1084.6023 3488.8738 12821648
2832.4946 1091.5841 3511.3323 10716528
2824.3809 1080.522 3475.7483 8874591
2916.4341 1107.6632 3563.0544 8546398
2849.5166 1074.4712 3456.2847 3154202
2879.0256 1077.853 3467.1633 7890014
2916.3174 1084.0801 3487.1938 11969433
2927.5093 1080.5856 3475.9531 13745326
2924.5271 1071.9448 3448.1577 12955039
2943.5906 1071.4481 3446.5603 12230031
2995.9751 1083.0035 3483.731 9663333
3030.7649 1088.0841 3500.0737 9860713
3058.2651 1090.4963 3507.8333 9203296
3059.5283 1083.5837 3485.5972 9006174
3089.4517 1086.8462 3496.0916 8808538
3093.2195 1080.9252 3477.0454 8874331
3113.7671 1080.9073 3476.988 9071197
3130.8396 1079.6914 3473.0769 8939610
3147.791 1078.4498 3469.083 8215888
3107.6204 1057.781 3402.5967 6374453
3109.0627 1051.4518 3382.2373 5913648
3114.064 1046.3993 3365.9851 6702908
3143.9617 1049.7238 3376.6787 8545110
3174.8291 1053.3279 3388.2725 9071450
3171.1394 1045.4935 3363.0715 9203036
3171.1577 1038.9719 3342.093 11768960
3221.6997 1048.9818 3374.2922 12755599
0 0 0 0
0 0 0 0
0 0 0 0
0 0 0 0
0 0 0 0
0 0 0 0
-3325.854 1171.3408 3697.4275 14
0 0 0 0
0 0 0 0
-3224.6155 1158.5769 3657.1375 14
-3308.0972 1196.611 3777.1948 14
-3287.2251 1197.1589 3778.9246 14
-3166.7229 1161.182 3665.3606 13
-3158.0862 1166.0104 3680.6018 11
-3144.7371 1169.1541 3690.5249 12
-3122.4604 1168.9994 3690.0369 12
-3100.8501 1169.0938 3690.3347 12
-3177.875 1206.6414 3808.8564 12
-3158.7156 1207.9435 3812.967 12
-3142.541 1210.4141 3820.7656 12
-3052.9731 1184.4465 3738.7969 12
-3138.3037 1226.4497 3871.3831 12
-3110.0696 1224.3635 3864.7981 12
-3104.4131 1231.2007 3886.3799 268
-3062.804 1223.7748 3862.9392 268
-3062.1875 1232.7394 3891.2368 268
-3043.1921 1234.385 3896.4314 12
-3034.9607 1240.4553 3915.5928 12
-3013.2913 1241.0844 3917.5786 12
-2993.8689 1242.656 3922.5393 12
-2971.0227 1242.8198 3923.0566 12
-2950.8601 1244.1177 3927.1536 12
-2929.7366 1245.028 3930.0269 12
-2908.3752 1245.8508 3932.6243 14
-2890.0408 1247.9941 3939.3899 14
-2865.4819 1247.4625 3937.7119 14
-2814.8845 1235.4935 3899.9309 14
-2778.2898 1229.5233 3881.0852 15
-2766.1902 1234.3842 3896.429 16
-2747.7964 1236.4944 3903.0901 16
-2736.394 1241.8134 3919.8796 16
-2713.675 1242.0436 3920.6064 16
-2697.626 1245.3573 3931.0662 16
-2679.1792 1247.6118 3938.1831 16
-2651.7375 1245.6805 3932.0869 16
-2653.696 1257.6487 3969.865 17
-2612.1401 1249.0239 3942.6401 18
-2603.9895 1256.3605 3965.7988 18
-2576.624 1254.4758 3959.8499 18
-2556.5884 1256.1578 3965.1592 18
-2537.2861 1258.2347 3971.7151 18
-2513.5676 1258.14 3971.4163 17
-2505.5535 1265.9785 3996.1589 18
-2467.9949 1258.8964 3973.8032 18
-2451.6233 1262.5889 3985.4592 18
-2448.2092 1273.0913 4018.6111 18
-2426.5859 1274.2382 4022.2312 18
-2404.4417 1275.1313 4025.0505 18
-2382.3486 1276.0699 4028.0134 18
-2361.2029 1277.54 4032.6538 18
-2337.7168 1277.761 4033.3511 18
-2315.114 1278.4744 4035.603 18
-2292.6484 1279.2791 4038.1431 18
-2270.4431 1280.2476 4041.2004 18
-2252.3179 1283.5619 4051.6621 18
-2233.3262 1286.4485 4060.7739 18
-2202.3965 1282.4465 4048.1414 17
-2188.3848 1288.3162 4066.6694 19
-2162.936 1287.5084 4064.1199 19
-2141.1694 1288.899 4068.5093 19
-2120.2471 1290.8354 4074.6216 19
-2105.1426 1296.399 4092.1836 19
-2062.3618 1284.8501 4055.7283 19
-2047.8114 1290.8236 4074.5842 18
-2025.4956 1291.9863 4078.2546 18
-1995.0461 1287.9264 4065.4392 18
-1974.9952 1290.5623 4073.7593 18
-1954.165 1292.7478 4080.6582 18
-1926.0848 1290.1317 4072.4004 18
-1904.9464 1292.1582 4078.7971 18
-1881.4987 1292.6503 4080.3501 18
-1863.587 1297.0077 4094.105 18
-1839.5709 1297.1758 4094.6355 18
-1816.6593 1298.1376 4097.6714 18
-1796.042 1300.7871 4106.0347 19
-1771.0791 1300.3188 4104.5566 19
-1741.9534 1296.7386 4093.2554 19
-1714.6172 1294.4082 4085.8994 19
-1701.2405 1302.7006 4112.0747 19
-1673.2418 1299.8744 4103.1538 19
-1653.2273 1303.2592 4113.8379 19
-1637.4741 1310.1544 4135.6035 19
-1619.9333 1315.8075 4153.4478 19
-1584.8623 1307.1759 4126.2017 19
-1560.847 1307.5354 4127.3364 19
-1536.9053 1307.9692 4128.7056 19
-1512.9883 1308.4382 4130.186 19
-1497.9307 1316.7102 4156.2974 18
-1465.6185 1309.8383 4134.6055 18
-1441.7411 1310.3989 4136.3755 18
-1417.5547 1310.6934 4137.3047 18
-1394.4266 1311.9939 4141.4102 18
-1368.6158 1310.7719 4137.5522 18
-1336.5361 1303.3915 4114.2559 18
-1295.1461 1286.489 4060.9019 18
-1283.3929 1298.9426 4100.2124 19
-1266.8969 1306.9836 4125.5947 19
-1239.0612 1303.4127 4114.3228 19
-1215.0154 1303.7651 4115.4351 19
-1189.9381 1303.0024 4113.0278 19
-1164.9398 1302.2961 4110.7983 19
-1133.6788 1294.4091 4085.9021 19
-1106.67 1291.1388 4075.5791 19
-1086.5176 1295.9004 4090.6096 18
-1060.58 1293.8219 4084.0483 18
-1034.2416 1291.1458 4075.6011 18
-1012.6932 1294.4646 4086.0774 18
-989.1076 1295.2781 4088.6453 19
-966.0069 1296.7834 4093.3972 19
-940.75055 1295.3981 4089.0239 18
-915.99408 1294.6458 4086.6494 19
-888.7652 1290.2635 4072.8164 19
-868.68298 1296.3013 4091.8752 19
-843.88501 1295.4465 4089.177 19
-820.56152 1296.8718 4093.6758 19
-795.1814 1295.0343 4087.8757 19
-770.66608 1294.5339 4086.2964 18
-746.2851 1294.2344 4085.3503 18
-721.67749 1293.5083 4083.0586 18
-697.24933 1293.0647 4081.6584 18
-672.77924 1292.5087 4079.9033 18
-648.28326 1291.8595 4077.8542 18
-624.08246 1291.7712 4077.5754 18
-599.94812 1291.8188 4077.7258 18
-575.59833 1291.3872 4076.3633 18
-551.87152 1292.3766 4079.4866 18
-527.26483 1291.3019 4076.0938 18
-503.37103 1291.9534 4078.1506 18
-479.45898 1292.6216 4080.2595 18
-455.50946 1293.2543 4082.2571 18
-431.64252 1294.2057 4085.2598 18
-407.94403 1295.8049 4090.3083 19
-384.11072 1297.1511 4094.5574 19
-360.23657 1298.5314 4098.9146 19
-336.16882 1299.363 4101.5396 19
-312.30399 1301.1696 4107.2422 19
-288.46939 1303.4181 4114.3398 19
-264.32178 1304.5369 4117.8711 19
-240.32716 1306.7148 4124.7461 19
-216.16081 1308.3464 4129.8965 19
-191.84509 1309.3752 4133.144 19
-167.51602 1310.6006 4137.0117 19
-143.10896 1311.531 4139.9487 19
-118.78034 1313.7139 4146.8394 18
-94.461647 1317.1738 4157.7607 18
-69.885239 1318.2131 4161.0415 18
-45.240929 1318.4069 4161.6528 18
-20.616053 1320.3085 4167.6558 19
4.0788918 1321.8668 4172.5747 19
28.830441 1323.3481 4177.2505 19
53.565205 1323.0465 4176.2983 19
78.350113 1323.7827 4178.6221 19
103.36251 1327.0862 4189.0498 19
128.60289 1331.4708 4202.8901 19
153.75043 1333.6278 4209.6987 19
178.11687 1329.3529 4196.2051 19
203.64972 1333.7645 4210.1304 19
228.4991 1333.2253 4208.4287 19
253.08466 1331.4045 4202.6812 19
277.3414 1328.335 4192.9917 19
302.06726 1327.8322 4191.4048 19
326.70105 1327.0319 4188.8784 19
351.43744 1326.7318 4187.9312 19
376.17618 1326.4796 4187.1353 19
400.82224 1325.952 4185.4697 18
425.55045 1325.7419 4184.8066 18
450.117 1325.0791 4182.7144 18
474.61111 1324.2831 4180.2017 18
499.5553 1324.7596 4181.7061 18
524.07898 1324.1288 4179.7148 18
548.33588 1322.9113 4175.8716 18
572.44788 1321.4644 4171.3042 18
596.40942 1319.8041 4166.0635 18
620.12177 1317.7465 4159.5684 18
644.11255 1316.415 4155.3657 18
667.32648 1313.6523 4146.645 18
690.48621 1310.9832 4138.2192 18
713.28918 1307.8427 4128.3062 18
736.1698 1305.0481 4119.4849 18
759.04987 1302.4319 4111.2266 18
782.05573 1300.1875 4104.1421 18
805.97736 1299.5552 4102.146 18
829.25928 1297.9585 4097.106 18
851.07214 1294.2185 4085.3005 16
873.60004 1291.7427 4077.4854 16
894.26624 1286.7214 4061.6355 16
914.88782 1281.9009 4046.4189 16
937.58099 1280.1549 4040.9077 16
959.10754 1276.9426 4030.7678 16
976.65149 1268.7129 4004.7903 16
992.08136 1258.1924 3971.5813 16
1021.0523 1264.9348 3992.8643 16
1032.019 1249.5724 3944.3713 16
1053.5223 1247.3652 3937.4045 16
1076.9139 1247.441 3937.644 16
1095.9678 1242.5957 3922.3491 14
1117.0831 1240.2402 3914.9138 14
1135.4633 1235.0055 3898.3901 11
1159.4415 1235.9471 3901.3625 12
1166.8605 1219.545 3849.5879 196615
1110.9644 1138.8665 3594.9199 327682
0 0 0 0
1111.2512 1097.0978 3463.074 6837576
1148.2701 1113.0953 3513.571 8086608
1149.5255 1094.4722 3454.7859 9402207
1180.248 1104.0658 3485.0691 9270110
1202.4463 1105.4927 3489.5728 9664611
1221.6875 1104.1985 3485.4878 9532768
1241.5277 1103.4799 3483.219 9203802
1263.1493 1104.3419 3485.9407 9532510
1286.0914 1106.3125 3492.1606 9203802
1305.4462 1105.1835 3488.5969 9533024
1327.5483 1106.3794 3492.3716 9335645
1343.9399 1102.8524 3481.2385 9335389
1366.6747 1104.5585 3486.624 9204060
1388.3936 1105.405 3489.2964 9467231
1404.545 1101.8594 3478.104 9598818
1424.9656 1101.7166 3477.6533 9598818
1445.1259 1101.3796 3476.5898 9796197
1463.9955 1100.0824 3472.4949 9927526
1485.637 1100.875 3474.9968 10059112
1504.9591 1099.9507 3472.0793 9269595
1525.0046 1099.573 3470.8872 9795939
1547.2523 1100.7721 3474.6719 9664613
1566.1799 1099.6086 3470.9993 9598820
1586.1459 1099.1948 3469.6934 9861992
1600.3684 1094.8624 3456.0178 9861991
1629.4714 1100.6909 3474.416 9861992
1648.3872 1099.5787 3470.9053 9729892
1672.983 1102.2362 3479.2935 9861479
1693.6841 1102.2941 3479.4763 9598306
1712.0708 1100.8625 3474.9573 9663843
1741.0122 1106.1709 3491.7136 9664099
1759.767 1104.9585 3487.8865 9532514
1776.7856 1102.6967 3480.7468 9664100
1807.7488 1109.0417 3500.7756 9729893
1831.8342 1111.0712 3507.1819 9861479
1837.0374 1101.7308 3477.6985 9532514
1875.6708 1112.4244 3511.4536 9729893
1893.5586 1110.7147 3506.0566 9861222
1916.1051 1111.7451 3509.3091 9400928
1941.3162 1114.2828 3517.3196 9334878
1959.319 1112.6731 3512.2383 9071963
1978.6986 1111.8707 3509.7058 9335135
1995.5608 1109.6853 3502.8074 9664100
2006.0052 1104.0128 3484.9016 9729122
2042.13 1112.4453 3511.5193 9005399
2057.6108 1109.5751 3502.4595 9597793
2090.1772 1115.884 3522.374 9729377
2105.1492 1112.7677 3512.5371 10057829
2108.4963 1103.6278 3483.6863 9794657
2134.8298 1106.5801 3493.0051 10189414
2170.3171 1114.1748 3516.9785 9663327
2193.8115 1115.5269 3521.2463 9926242
2199.0247 1107.6451 3496.3674 9663069
2220.5239 1108.0374 3497.6055 9399899
2245.9089 1110.3435 3504.8848 9991265
2258.3472 1106.265 3492.011 9728349
2278.3984 1105.9562 3491.0361 9794142
2293.4414 1103.2439 3482.4744 9860961
2317.4275 1104.8434 3487.5234 9729119
2339.3108 1105.421 3489.3467 9531483
2361.4602 1106.1132 3491.5315 9268826
2397.936 1113.4456 3514.6768 8874068
2398.0496 1103.913 3484.5862 9071447
2407.5081 1098.8079 3468.4719 10452845
2424.28 1097.0991 3463.0779 9531743
2458.3342 1103.1742 3482.2546 9400413
2485.3589 1106.0201 3491.2378 9203034
2505.8167 1105.9208 3490.9243 9663586
2526.999 1106.1404 3491.6172 9795172
2537.2666 1101.6173 3477.3398 9202524
2562.3389 1103.5431 3483.4189 9860711
2581.4497 1102.8912 3481.3613 8873559
2614.0261 1107.9573 3497.3523 8939609
2623.3989 1103.1859 3482.2913 9268317
2642.7739 1102.6622 3480.6384 9005145
2631.4246 1089.4268 3438.8594 8939609
2656.7505 1091.4617 3445.283 9202781
2667.6099 1087.5677 3432.9912 9005145
2680.5764 1084.5852 3423.5769 9729125
2707.2019 1087.1326 3431.6177 10979447
2749.9866 1096.0825 3459.8691 11243389
2781.614 1100.4861 3473.769 11966599
0 0 0 0
0 0 0 0
0 0 0 0
2709.4053 1041.1083 3286.3384 10127230
2853.4197 1088.6243 3436.3264 9008490
2796.3398 1059.2899 3343.7305 9139303
2900.5649 1091.0428 3443.9609 9533803
2918.9114 1090.2749 3441.5366 10387825
2915.1841 1081.3296 3413.3003 12361098
2950.0698 1086.7317 3430.3523 12624013
2993.0256 1095.0122 3456.4905 11768705
2999.4739 1089.9147 3440.3997 9729125
3036.8525 1096.0491 3459.7634 7887692
3043.0144 1090.9103 3443.5422 7624778
3076.6233 1095.6138 3458.3896 8216658
3084.5198 1091.1595 3444.3291 9137759
3079.6865 1082.29 3416.332 9006174
3104.4492 1083.8694 3421.3174 9006174
3074.5901 1066.4816 3366.4314 8743002
3079.2905 1061.2283 3349.8491 7887436
3083.9858 1056.0405 3333.4734 7492934
3110.1492 1058.2234 3340.3635 7098177
3134.0449 1059.6117 3344.7461 8151120
3141.613 1055.4972 3331.7583 8019792
3127.1599 1044.0815 3295.7239 8479572
3102.8989 1029.5532 3249.8643 8347984
0 0 0 0
0 0 0 0
0 0 0 0
0 0 0 0
0 0 0 0
0 0 0 0
-3259.2891 1169.363 3623.4255 14
0 0 0 0
0 0 0 0
-3182.8342 1164.9502 3609.752 14
-3236.7317 1192.6908 3695.7097 14
-3205.2815 1189.1455 3684.7241 12
-3135.0046 1171.0485 3628.6479 12
-3151.0857 1185.1821 3672.4431 12
-3132.3228 1186.3159 3675.9563 12
-3111.5891 1186.7139 3677.1895 12
-3091.6782 1187.4335 3679.4192 12
-3100.5559 1199.2988 3716.1853 12
-3075.8291 1198.2426 3712.9124 12
-3056.104 1199.1337 3715.6738 12
-3069.5449 1213.1455 3759.0913 12
-3057.6245 1217.2656 3771.8579 12
-3054.0264 1224.7839 3795.1548 268
-2978.353 1203.2946 3728.5669 268
-2987.4126 1215.973 3767.8528 268
-2944.1719 1207.394 3741.2698 268
-2941.6675 1215.5177 3766.4417 268
-2930.9973 1220.3655 3781.4631 12
-2898.6321 1216.1852 3768.5103 12
-2913.3064 1231.8298 3816.9871 12
-2900.2119 1235.8859 3829.5554 12
-2888.3855 1240.5504 3844.0093 14
-2859.6738 1237.9795 3836.0427 14
-2839.9421 1239.286 3840.0911 13
-2799.7576 1231.6163 3816.3257 13
-2775.8855 1231.056 3814.5894 13
-2724.6707 1218.2611 3774.9426 14
-2720.4768 1226.4523 3800.3242 16
-2699.4141 1227.1121 3802.3687 16
-2689.5588 1232.9205 3820.3669 17
-2666.125 1232.5503 3819.2195 18
-2632.0125 1227.1943 3802.6238 18
-2634.2097 1238.8221 3838.6538 18
-2637.5142 1251.1776 3876.9387 18
-2596.4829 1242.5336 3850.1538 18
-2594.5918 1252.6324 3881.4468 18
-2571.6641 1252.6649 3881.5474 18
-2535.6792 1246.2805 3861.7644 18
-2533.2974 1256.446 3893.2639 18
-2517.1301 1259.8983 3903.9612 18
-2496.4631 1261.1415 3907.8132 18
-2457.2163 1252.9342 3882.3818 18
-2443.4207 1257.6719 3897.062 18
-2413.0078 1253.8651 3885.2666 18
-2410.6882 1264.7238 3918.9136 18
-2375.177 1258.2109 3898.7324 18
-2364.9573 1265.0994 3920.0771 18
-2347.522 1268.2263 3929.7664 18
-2324.458 1268.3447 3930.1333 18
-2301.8594 1268.7219 3931.3022 18
-2280.0491 1269.5459 3933.8552 18
-2259.0244 1270.8286 3937.8301 18
-2237.0718 1271.6107 3940.2534 18
-2216.9712 1273.4733 3946.0247 18
-2197.575 1275.7844 3953.1863 18
-2173.666 1275.4972 3952.2961 18
-2150.6072 1275.7081 3952.9497 19
-2131.3547 1278.2062 3960.6904 19
-2108.8218 1278.7709 3962.4402 19
-2085.9136 1279.1182 3963.5161 19
-2069.5068 1283.5052 3977.1104 19
-2043.5669 1282.0131 3972.4866 17
-2018.1443 1280.8145 3968.7725 18
-1988.7559 1277.0409 3957.0798 18
-1972.8387 1281.9312 3972.2324 18
-1952.762 1284.2035 3979.2739 18
-1929.7961 1284.6084 3980.5286 18
-1907.5992 1285.5415 3983.4199 18
-1883.7916 1285.399 3982.9783 18
-1860.2278 1285.4213 3983.0474 18
-1832.004 1282.1827 3973.0122 18
-1816.4246 1287.8245 3990.4941 18
-1781.4456 1279.6798 3965.2566 18
-1758.7244 1280.2401 3966.9927 18
-1745.775 1288.0254 3991.1165 19
-1715.7532 1283.2554 3976.3359 19
-1695.1368 1285.4852 3983.2456 19
-1660.7582 1277.1942 3957.5547 19
-1668.2908 1301.3589 4032.4319 19
-1645.9875 1302.6138 4036.3206 19
-1622.0052 1302.5574 4036.1458 19
-1594.1349 1299.3303 4026.1462 19
-1571.1814 1300.0737 4028.4497 19
-1548.3427 1300.9362 4031.1223 18
-1524.5474 1301.0095 4031.3496 18
-1485.6263 1287.972 3990.9512 18
-1462.201 1288.1641 3991.5461 18
-1438.885 1288.4602 3992.4639 17
-1427.1486 1299.3086 4026.0791 18
-1408.5647 1304.1859 4041.1919 18
-1392.9874 1312.0636 4065.6021 18
-1358.9503 1302.5253 4036.0464 18
-1330.6012 1298.1947 4022.6274 18
-1309.8285 1301.2329 4032.0417 18
-1287.6663 1302.9778 4037.4487 18
-1264.9987 1304.2679 4041.446 19
-1240.9742 1304.1816 4041.179 19
-1216.8795 1304.0168 4040.668 19
-1192.3966 1303.421 4038.822 19
-1167.9875 1302.8832 4037.1553 19
-1143.6947 1302.4552 4035.8293 19
-1114.6725 1296.5082 4017.4014 19
-1093.7233 1299.8961 4027.8997 19
-1069.8578 1299.8922 4027.8875 18
-1047.2714 1301.4775 4032.7998 18
-1020.6527 1298.009 4022.052 18
-997.55353 1298.9574 4024.9907 18
-971.94891 1296.61 4017.7168 19
-946.2547 1294.0222 4009.6982 19
-921.64935 1292.8285 4005.9993 19
-897.22528 1291.8326 4002.9136 19
-872.01233 1289.616 3996.0452 19
-847.7536 1288.7264 3993.2888 19
-823.19061 1287.3098 3988.8992 18
-799.60437 1287.3821 3989.1233 19
-776.65961 1288.5231 3992.6587 19
-750.35748 1283.9907 3978.6145 18
-728.79675 1287.5406 3989.6147 18
-704.49017 1286.3152 3985.8174 18
-681.05896 1286.6583 3986.8806 18
-658.14069 1288.0302 3991.1313 18
-634.58875 1288.2178 3991.7124 18
-610.65649 1287.618 3989.8542 18
-587.77991 1289.2855 3995.021 20
-564.98138 1291.2714 4001.1746 18
-540.65186 1289.7788 3996.5496 18
-517.83533 1291.9242 4003.1973 18
-494.3634 1292.5619 4005.1736 18
-470.30789 1291.6613 4002.3828 18
-447.31378 1293.7347 4008.8076 18
-423.22058 1292.6836 4005.5505 18
-399.9165 1294.0613 4009.8193 19
-376.58746 1295.5269 4014.3606 19
-353.24097 1297.126 4019.3159 19
-329.8382 1298.7346 4024.3005 19
-306.42117 1300.5336 4029.8748 19
-282.9899 1302.5709 4036.1877 19
-259.65863 1305.4871 4045.2239 19
-235.94377 1306.8716 4049.5137 19
-212.33498 1309.2235 4056.8018 19
-188.42603 1310.0889 4059.4832 18
-164.54236 1311.4089 4063.5735 18
-141.17169 1317.9708 4083.9065 18
-117.22965 1320.8093 4092.7019 18
-92.966698 1320.5698 4091.9597 18
-68.776817 1321.5656 4095.0452 18
-44.547447 1322.4741 4097.8604 19
-20.269215 1322.3708 4097.5405 19
4.0077553 1323.1014 4099.8042 19
28.31922 1324.1907 4103.1797 19
52.616322 1323.9125 4102.3174 19
76.949883 1324.4375 4103.9443 19
101.40801 1326.3396 4109.8384 19
125.87915 1327.6426 4113.8755 19
150.28734 1327.9664 4114.8789 19
174.57054 1327.2496 4112.6582 19
198.99196 1327.6306 4113.8384 19
223.40222 1327.8622 4114.5562 19
247.59486 1326.882 4111.5186 19
271.92209 1326.7338 4111.0596 19
296.22272 1326.4911 4110.3076 19
320.51334 1326.2438 4109.541 19
344.57425 1325.1478 4106.1455 18
368.7977 1324.7805 4105.0068 18
393.02325 1324.4656 4104.0312 18
417.15204 1323.8804 4102.2178 18
441.19089 1323.0897 4099.7681 18
465.12485 1322.0836 4096.6504 17
489.07196 1321.2126 4093.9517 18
513.38782 1321.3732 4094.4492 18
537.14069 1320.1356 4090.6143 18
560.63611 1318.3993 4085.2341 18
583.99963 1316.5095 4079.3784 18
607.4743 1315.0105 4074.7334 18
630.87524 1313.4725 4069.9678 18
653.85608 1311.2053 4062.9424 18
676.37018 1308.1964 4053.6191 18
698.72498 1305.0962 4044.0127 18
721.44568 1302.8623 4037.0908 18
744.20862 1300.8458 4030.8423 18
767.10028 1299.1726 4025.6577 18
791.10571 1299.4297 4026.4541 18
814.05017 1297.98 4021.9622 18
836.00385 1295.078 4012.97 16
857.70386 1291.9543 4003.2908 16
879.05383 1288.4857 3992.543 16
901.06146 1286.1376 3985.2668 16
922.41907 1283.0052 3975.5608 16
943.28632 1279.3638 3964.2773 16
965.28497 1277.3965 3958.1814 16
982.54291 1269.3977 3933.3962 16
998.31689 1259.8969 3903.9565 16
1018.611 1256.4014 3893.1255 16
1039.5292 1253.8136 3885.1067 16
1059.1621 1249.8213 3872.7361 16
1078.0421 1245.1285 3858.1948 13
1097.5111 1241.2969 3846.322 13
1119.4725 1240.3827 3843.4895 11
1137.3047 1235.021 3826.8752 11
1152.0337 1226.5648 3800.6726 11
1145.6652 1196.4011 3707.2065 262150
0 0 0 0
1012.5456 1018.3432 3155.4707 4074791
1132.8608 1118.6938 3466.4204 7560272
1139.6208 1105.3325 3425.0186 9270369
1149.6595 1095.5631 3394.7466 9664611
1168.6772 1094.5387 3391.5728 9533025
1192.1432 1097.6449 3401.1975 9401439
1219.5775 1104.2407 3421.6357 9401439
1232.9913 1098.134 3402.7131 9401439
1255.02 1099.7729 3407.7915 9467232
1272.9357 1097.8127 3401.7175 9861990
1294.6031 1099.099 3405.7031 9532768
1312.8989 1097.5271 3400.8323 9335646
1334.2397 1098.5096 3403.877 9861990
1356.3741 1100.1066 3408.8254 9598818
1369.0503 1094.0981 3390.2073 9730404
1389.4064 1094.3121 3390.8706 9730147
1408.7576 1093.7399 3389.0974 9598818
1420.158 1087.0977 3368.5154 9664613
1446.7264 1092.0892 3383.9824 9466978
1474.5631 1097.8887 3401.9529 9598820
1481.1296 1087.9086 3371.0281 9467234
1500.251 1087.293 3369.1206 9730406
1532.4596 1096.0538 3396.2676 9335648
1545.2319 1090.8667 3380.1941 9730406
1562.3511 1088.8413 3373.9185 9598563
1585.8326 1091.2455 3381.3682 9598820
1600.4189 1087.545 3369.9016 9598563
1635.6815 1097.8129 3401.7178 9993065
1652.6259 1095.6858 3395.127 9729893
1666.9323 1091.882 3383.3403 9861478
1701.0088 1100.9647 3411.4841 9861479
1719.6785 1099.979 3408.4302 9729893
1724.1875 1090.064 3377.7068 9598052
1759.9615 1099.9156 3408.2336 9927272
1785.1423 1102.9987 3417.7866 9861479
1816.6846 1109.8989 3439.1682 9992808
1832.7115 1107.2725 3431.0295 9664100
1856.7319 1109.4797 3437.8694 9598307
1881.5159 1112.0907 3445.9597 9795686
1899.0481 1110.4053 3440.7373 9466464
1918.3805 1109.7971 3438.8525 9664099
1944.0593 1112.8345 3448.2644 9335135
1943.7058 1101.0621 3411.7864 9795172
1973.3876 1106.3712 3428.2371 9071449
1991.5034 1105.1538 3424.4648 9466464
2025.2489 1112.5469 3447.3733 9466206
2036.6957 1107.6652 3432.2466 9531999
2053.7786 1105.9148 3426.823 9531228
2092.0295 1115.4858 3456.4797 9531485
2107.7051 1112.9504 3448.6235 8741969
2105.0674 1100.8865 3411.2419 9860450
2140.1704 1108.6016 3435.1482 9399899
2151.7556 1104.1039 3421.2114 9334617
2165.8435 1100.9623 3411.4768 9268311
2180.9001 1098.3667 3403.4341 9859679
2202.6648 1099.1663 3405.9114 9860193
2222.8503 1099.1702 3405.9238 9860449
2241.8596 1098.5977 3404.1499 9597791
2261.2642 1098.2274 3403.0024 9597790
2286.9585 1100.8915 3411.2573 9597534
2301.5466 1098.2095 3402.9468 9531997
2333.0007 1103.5519 3419.501 9663328
2359.6997 1106.5723 3428.8601 9268828
2371.0144 1102.3883 3415.8958 9729379
2376.8928 1095.7693 3395.3855 9795172
2400.5588 1097.3925 3400.4153 9531743
2435.2214 1103.9739 3420.8086 9860710
2440.4324 1097.2054 3399.8357 9992296
2467.1279 1100.1279 3408.8916 9531746
2483.3428 1098.3677 3403.437 9663332
2500.0735 1096.8618 3398.771 9663075
2523.5095 1098.2985 3403.2227 9531746
2543.0889 1098.0472 3402.4441 9794917
2539.2368 1087.7623 3370.5747 9531745
2582.876 1097.8234 3401.7505 8610644
2578.8572 1087.629 3370.1619 8741973
2604.1296 1089.85 3377.0439 8808023
2632.344 1093.2589 3387.6069 8873815
2649.6904 1092.1367 3384.1296 9268317
2635.7207 1078.2207 3341.0088 9466209
2605.9165 1058.0828 3278.6089 9926247
0 0 0 0
0 0 0 0
2240.834 889.94818 2757.6218 1179648
2247.3955 886.09399 2745.6792 3942184
2236.3701 875.41095 2712.5764 5849920
2261.3623 878.87866 2723.3215 7560275
2240.6257 864.65063 2679.2339 10454652
2315.1423 887.12195 2748.8645 9927793
2310.8303 879.28479 2724.5798 9006177
0 0 0 0
2889.6304 1084.373 3360.073 9663588
2931.5618 1092.5819 3385.509 10979447
2962.0557 1096.4456 3397.481 12097927
2967.2939 1090.9713 3380.5183 11768961
2972.1587 1085.434 3363.3604 10189932
2982.5249 1081.9663 3352.615 9005659
3039.7009 1095.4132 3394.2822 8874587
3020.8123 1081.4523 3351.0222 9006173
3027.9712 1076.9376 3337.0332 8808795
3014.8513 1065.316 3301.0222 9006174
3029.8716 1063.7238 3296.0881 9006174
3037.2925 1059.5007 3283.0027 8874588
3046.8828 1056.0835 3272.4141 8808795
3036.4663 1045.8187 3240.6074 8546134
3064.7678 1048.9344 3250.2617 8611670
3057.2729 1039.8362 3222.0696 8611926
3044.2822 1028.9933 3188.4714 8546134
0 0 0 0
0 0 0 0
0 0 0 0
0 0 0 0
0 0 0 0
0 0 0 0
-3192.8865 1166.568 3549.6047 11
0 0 0 0
0 0 0 0
-3126.6145 1165.3805 3545.9912 13
-3179.7166 1193.1899 3630.6094 12
-3133.6362 1183.9066 3602.3623 12
-3085.7764 1173.8191 3571.668 12
-3065.9197 1174.3179 3573.186 12
-3046.1399 1174.8535 3574.8157 12
-3026.9482 1175.625 3577.1631 12
-3043.051 1190.2119 3621.5476 12
-3059.3557 1205.0854 3666.8047 12
-3048.678 1209.4673 3680.1375 12
-3015.304 1204.8434 3666.0681 12
-3018.0427 1214.6869 3696.0195 12
-2975.8015 1206.4386 3670.9219 12
-2962.7839 1210.0039 3681.7703 268
-2927.6047 1204.5039 3665.0354 268
-2933.749 1216.0508 3700.1697 12
-2910.7522 1215.6013 3698.8022 12
-2890.1536 1216.1543 3700.4846 12
-2872.1931 1217.8341 3705.5959 12
-2864.0598 1223.7388 3723.5627 14
-2839.9023 1222.8353 3720.8137 14
-2812.1536 1220.3594 3713.2795 14
-2795.5923 1222.7374 3720.5156 14
-2780.322 1225.7223 3729.5981 16
-2734.7251 1215.2783 3697.8193 16
-2739.7231 1227.3311 3734.4929 16
-2707.5613 1222.7977 3720.6992 16
-2697.9595 1228.4623 3737.9351 16
-2695.0562 1237.2957 3764.8132 18
-2671.8259 1236.8668 3763.5081 18
-2651.2339 1237.6624 3765.9287 18
-2611.0898 1229.2664 3740.3816 18
-2584.8782 1227.342 3734.5264 18
-2554.1423 1223.2177 3721.9771 18
-2558.5249 1235.9868 3760.8306 18
-2531.6455 1233.7454 3754.0105 18
-2499.4724 1228.8616 3739.1501 18
-2496.5293 1238.3899 3768.1426 18
-2475.1794 1238.8772 3769.6252 18
-2458.3596 1241.6611 3778.0964 18
-2440.0286 1243.7261 3784.3796 18
-2427.0183 1248.5668 3799.1086 18
-2405.0049 1248.8229 3799.8879 18
-2413.7192 1265.1906 3849.6909 18
-2355.1582 1246.2704 3792.1211 18
-2353.7141 1257.5012 3826.2942 18
-2315.2886 1249.0005 3800.4285 18
-2304.5159 1255.3971 3819.8916 18
-2284.0774 1256.6028 3823.5603 18
-2264.074 1258.0742 3828.0376 18
-2243.8364 1259.4441 3832.2058 18
-2223.1099 1260.5647 3835.6157 18
-2200.6606 1260.7217 3836.093 18
-2181.5452 1262.8115 3842.4521 18
-2169.4446 1269.049 3861.4314 18
-2146.4487 1268.9781 3861.2158 18
-2123.553 1268.9656 3861.1775 18
-2102.6401 1270.1505 3864.783 19
-2081.1655 1271.0184 3867.4241 19
-2058.3306 1271.0658 3867.5681 19
-2037.4282 1272.321 3871.3872 19
-2020.126 1275.8785 3882.2119 19
-1997.9747 1276.4202 3883.8604 18
-1975.4883 1276.7578 3884.8875 18
-1952.7268 1276.9236 3885.3918 18
-1929.783 1276.9725 3885.541 18
-1906.2737 1276.6442 3884.5417 18
-1884.5442 1277.5142 3887.189 18
-1862.2822 1278.0403 3888.7898 19
-1840.6366 1279.0078 3891.7336 18
-1818.1556 1279.4122 3892.9641 18
-1795.7944 1279.9121 3894.4856 18
-1773.2891 1280.321 3895.7297 18
-1750.9 1280.8259 3897.2661 18
-1729.808 1282.3058 3901.7688 18
-1708.7905 1283.8817 3906.564 19
-1675.1522 1275.8883 3882.2417 19
-1665.0754 1285.8678 3912.6072 19
-1643.0784 1286.7936 3915.4241 19
-1620.9581 1287.6478 3918.0237 19
-1598.974 1288.6368 3921.033 18
-1578.4385 1290.8396 3927.7354 18
-1566.0394 1299.8619 3955.188 19
-1530.2886 1289.4811 3923.6016 18
-1511.1509 1292.995 3934.2935 17
-1488.2458 1293.3448 3935.3582 16
-1475.766 1302.9098 3964.4622 16
-1432.8889 1285.5135 3911.5293 16
-1415.8756 1291.1304 3928.6199 16
-1400.9247 1298.847 3952.1001 15
-1381.2118 1302.3359 3962.7161 15
-1341.0756 1286.3555 3914.0911 15
-1334.2616 1302.3378 3962.7217 17
-1310.8097 1302.3617 3962.7944 17
-1287.4813 1302.5115 3963.2502 18
-1263.6266 1302.1246 3962.0732 18
-1239.6646 1301.6102 3960.5081 19
-1216.2218 1301.6318 3960.5737 19
-1192.691 1301.5583 3960.3501 19
-1169.0116 1301.3163 3959.6135 19
-1145.175 1300.8859 3958.3037 18
-1121.2457 1300.3298 3956.6118 18
-1098.4006 1301.0343 3958.7556 18
-1072.4298 1297.9865 3949.4817 18
-1048.4098 1297.2163 3947.1382 18
-1023.2673 1294.9906 3940.366 18
-999.77521 1294.7982 3939.7805 18
-975.61981 1293.7173 3936.4912 18
-951.88989 1293.1613 3934.7993 19
-926.70203 1290.547 3926.845 19
-902.63226 1289.3953 3923.3403 19
-882.0647 1293.3179 3935.2759 19
-857.24274 1291.0459 3928.363 19
-834.31073 1291.573 3929.967 19
-810.04919 1290.0132 3925.2205 19
-786.2326 1289.0905 3922.4128 18
-763.09039 1289.2511 3922.9019 19
-739.57867 1288.7778 3921.4619 18
-716.02417 1288.197 3919.6943 18
-692.32056 1287.2999 3916.9648 18
-669.10773 1287.2849 3916.9192 18
-646.67578 1288.8248 3921.605 18
-622.39697 1286.662 3915.0237 18
-599.44739 1287.1857 3916.6169 18
-574.07037 1282.3292 3901.8401 20
-550.95538 1282.3302 3901.843 18
-530.36023 1288.4529 3920.4731 18
-507.51721 1289.4253 3923.4319 18
-484.10577 1288.9777 3922.0698 18
-460.81104 1288.8112 3921.5632 18
-438.37302 1291.1504 3928.6809 18
-415.52948 1292.4905 3932.7585 18
-391.98813 1291.6906 3930.3245 19
-368.93723 1292.5076 3932.8105 19
-346.00708 1293.8862 3937.0056 19
-323.16846 1295.8314 3942.9243 19
-300.12012 1297.1732 3947.0071 19
-277.10074 1298.8773 3952.1924 19
-254.05031 1300.7373 3957.8516 19
-230.94141 1302.6455 3963.6582 19
-207.68326 1304.0486 3967.9275 19
-184.60489 1307.0829 3977.1599 18
-161.68181 1312.2651 3992.9285 18
-138.2981 1314.8446 4000.7771 18
-114.74956 1316.5996 4006.1172 18
-91.124969 1318.17 4010.8958 18
-67.435112 1319.5709 4015.1582 18
-43.653034 1319.7111 4015.5845 18
-19.865524 1319.8252 4015.9321 19
3.9292173 1320.9855 4019.4624 19
27.752544 1321.515 4021.0737 19
51.557175 1321.0764 4019.7393 19
75.560318 1324.3944 4029.835 19
99.501976 1325.3002 4032.5911 19
123.42909 1325.699 4033.8047 19
147.34317 1325.8511 4034.2673 19
171.23048 1325.7535 4033.9705 19
195.14246 1325.8475 4034.2563 19
219.9994 1331.6406 4051.8838 19
243.9106 1331.1327 4050.3381 19
267.86026 1330.9069 4049.6509 18
291.82233 1330.7745 4049.2485 18
315.75528 1330.5398 4048.5342 18
339.63962 1330.1479 4047.3416 18
362.02554 1324.3262 4029.6274 18
385.13589 1321.7109 4021.6699 18
408.61481 1320.5916 4018.2639 18
432.00458 1319.3231 4014.4043 17
455.45615 1318.366 4011.4917 17
479.31479 1318.6237 4012.2759 17
502.82727 1317.9497 4010.2251 18
526.16455 1316.8979 4007.0249 18
549.37842 1315.6415 4003.2019 18
572.95758 1315.3278 4002.2471 18
595.87939 1313.5897 3996.9587 18
618.87244 1312.1356 3992.5342 18
641.65741 1310.3635 3987.1421 18
663.99847 1307.843 3979.4729 18
686.38757 1305.5868 3972.6077 18
708.5202 1303.0084 3964.7622 18
730.93304 1301.0944 3958.9382 18
753.29773 1299.2162 3953.2234 18
776.73706 1299.2488 3953.3228 18
799.04077 1297.4357 3947.8057 18
821.47156 1295.9261 3943.2124 16
842.26233 1291.9843 3931.2183 16
864.41449 1290.2867 3926.053 16
886.06238 1287.9451 3918.928 16
908.02478 1286.1686 3913.5225 16
928.51434 1282.4463 3902.1965 16
948.82233 1278.66 3890.6758 16
970.40576 1276.7316 3884.8079 16
982.69733 1262.9506 3842.8752 16
1002.8421 1259.6581 3832.8567 16
1017.5872 1249.879 3803.1013 16
1039.3508 1248.9576 3800.2976 16
1062.1555 1249.2997 3801.3386 16
1079.0657 1242.8384 3781.6785 16
1099.358 1240.4563 3774.4302 16
1119.1631 1237.6302 3765.8313 16
1140.5966 1236.6803 3762.9407 65550
1149.5536 1222.4987 3719.7891 65547
1093.4042 1140.9149 3471.5481 262150
1074.9889 1100.9906 3350.0674 1313291
1087.8999 1094.016 3328.8455 5982784
1097.5895 1084.1079 3298.6973 8350043
1131.6364 1098.1838 3341.5271 9534057
1144.9949 1092.0439 3322.845 9796199
1165.3243 1092.6481 3324.6831 9796197
1186.3165 1093.8433 3328.3193 9730404
1212.1724 1099.4103 3345.2585 9927782
1225.6487 1093.751 3328.0388 9598818
1241.075 1089.9834 3316.575 9598818
1263.7281 1092.5815 3324.4805 9598818
1283.2972 1092.4744 3324.1543 9533025
1301.0342 1090.8342 3319.1638 9796198
1321.8208 1091.762 3321.9868 9533026
1336.5824 1087.759 3309.8066 9598818
1356.5072 1088.0131 3310.5796 9730148
1375.5304 1087.547 3309.1616 9796197
1391.4185 1084.6501 3300.3472 9730404
1411.8473 1085.3242 3302.3979 9861735
1439.8334 1091.71 3321.8284 10059114
1456.2152 1089.2434 3314.3232 9795942
1477.2555 1090.2808 3317.4797 9927785
1495.642 1089.3579 3314.6716 9796199
1517.9907 1091.3075 3320.6038 9861992
1535.7858 1089.9753 3316.5505 9533026
1554.9839 1089.6602 3315.5913 9204062
1574.8302 1089.8013 3316.0208 9598819
1602.6031 1095.3568 3332.9248 9795942
1615.6317 1090.8219 3319.1265 9401441
1631.1061 1088.028 3310.6248 9729636
1645.9811 1084.9049 3301.1223 9532516
1683.7097 1096.7419 3337.1396 9861480
1698.8789 1093.7799 3328.1267 9795429
1720.8851 1095.2371 3332.5608 9795687
1743.2584 1096.8922 3337.5969 9927271
1770.4043 1101.4795 3351.5552 9927015
1791.5725 1102.2872 3354.0127 10058858
1825.9017 1111.0859 3380.7852 9729636
1831.7698 1102.5625 3354.8506 9598307
1850.792 1102.0548 3353.3057 9466464
1875.2821 1104.7793 3361.5952 9532514
1896.694 1105.6519 3364.2505 9203548
1916.6245 1105.6519 3364.2505 9466721
1945.5287 1110.7751 3379.8396 9664100
1953.5266 1103.9796 3359.1621 9466721
1964.7396 1099.1198 3344.3748 9729379
1999.4629 1107.3776 3369.5015 8545105
2036.1912 1116.5718 3397.4775 9860965
2032.0774 1103.4089 3357.4258 9729122
2068.6294 1112.3685 3384.688 9531743
2086.1721 1111.0323 3380.6223 9531486
2093.4875 1104.3267 3360.2183 9071191
2113.3943 1104.3267 3360.2183 9136984
2129.8584 1102.5446 3354.7957 9531485
2145.2224 1100.2312 3347.7566 9530970
2165.8601 1100.6403 3349.0012 9597278
2173.8062 1094.6508 3330.7766 9926242
2198.1392 1096.9465 3337.7625 9728607
2219.2878 1097.6267 3339.832 9597278
2242.8882 1099.4966 3345.5215 9004884
2264.6123 1100.4221 3348.3374 9729377
2275.45 1096.0874 3335.1479 9268826
2293.8774 1095.4519 3333.2144 9334364
2320.6155 1098.7622 3343.2869 9466207
2337.4248 1097.3551 3339.0054 9334622
2348.894 1093.4857 3327.2317 9531999
2376.2537 1097.0166 3337.9753 9202781
2397.397 1097.6432 3339.8818 9465953
2415.5249 1096.8901 3337.5906 9465953
2430.7336 1094.8344 3331.3354 9400160
2452.47 1095.7283 3334.0554 9465953
2466.759 1093.3071 3326.6885 9663332
2476.7014 1089.0133 3313.623 9663331
2489.7227 1086.13 3304.8499 9268573
2502.1985 1083.0554 3295.4949 9268574
2494.6155 1071.4137 3260.0715 9136988
2518.083 1073.1841 3265.4585 9202525
2580.1323 1091.2454 3320.4148 8741975
0 0 0 0
2255.3425 939.552 2858.8459 10584179
2214.5325 915.67468 2786.1926 10058093
2247.425 922.40015 2806.6567 7295046
2245.2126 914.72467 2783.302 4795431
2258.2014 913.30908 2778.9946 5520182
2242.4658 900.38074 2739.6567 8481887
2208.8159 880.49713 2679.155 8283484
2210.3687 874.82977 2661.9106 8744289
2224.6155 874.23132 2660.0896 6967108
2305.9072 899.80322 2737.8994 8612189
2246.0488 870.32355 2648.1992 10650748
2266.2952 872.07739 2653.5359 9269609
2442.3809 933.36157 2840.0098 10058868
2449.8835 929.82343 2829.2439 9532779
2865.9956 1080.3623 3287.3 9401190
2896.4304 1084.4659 3299.7864 10453619
2941.5806 1093.9872 3328.7573 11572096
2927.2175 1081.3959 3290.4448 11900548
2968.0813 1089.2385 3314.3083 11374717
2984.4773 1088.0576 3310.7153 9992810
2970.0486 1075.7279 3273.1987 8940379
2983.0784 1073.4388 3266.2334 8611414
2967.2686 1060.8683 3227.9844 8545880
2988.5027 1061.6182 3230.2661 8546138
2977.4844 1050.9742 3197.8787 8743772
3002.3174 1053.0393 3204.1626 8349528
2997.2244 1044.6482 3178.6304 8679006
2998.9038 1038.7078 3160.5544 8415577
3020.4165 1039.6676 3163.4753 8678493
0 0 0 0
0 0 0 0
0 0 0 0
0 0 0 0
0 0 0 0
0 0 0 0
-3128.1865 1163.5315 3477.6763 14
0 0 0 0
0 0 0 0
-3028.478 1149.1499 3434.6914 13
-3096.1833 1182.7876 3535.231 12
-3074.1311 1182.3612 3533.9563 11
-2983.7791 1155.4795 3453.6099 12
-2963.8259 1155.6772 3454.2007 12
-2942.9194 1155.5032 3453.6807 12
-2921.1763 1154.9961 3452.1648 12
-2900.5051 1154.9086 3451.9033 12
-2947.5408 1181.9705 3532.7883 12
-2966.7104 1198.1652 3581.1926 12
-2944.8167 1197.8893 3580.3682 12
-2932.1333 1201.3833 3590.8115 12
-2919.4993 1204.9486 3601.468 12
-2902.2856 1206.6626 3606.5908 12
-2886.8413 1209.1429 3614.0044 12
-2866.8479 1209.7407 3615.791 13
-2846.2134 1210.0751 3616.7903 14
-2826.5654 1210.8369 3619.0676 14
-2801.979 1209.4789 3615.0083 14
-2782.5422 1210.34 3617.582 14
-2762.2971 1210.8599 3619.1362 14
-2751.4373 1215.5343 3633.1074 14
-2730.6006 1215.8401 3634.0212 14
-2707.0156 1214.9172 3631.2629 16
-2687.9849 1216.0399 3634.6187 16
-2677.8459 1221.236 3650.1489 16
-2661.1523 1223.5029 3656.9248 16
-2640.7249 1224.0762 3658.6382 16
-2601.436 1215.8438 3634.0325 17
-2577.3333 1214.6307 3630.4067 17
-2563.271 1218.1689 3640.9822 16
-2542.2544 1218.4341 3641.7747 17
-2530.1182 1222.9966 3655.4111 18
-2505.5898 1221.5959 3651.2249 18
-2485.7283 1222.4658 3653.8252 18
-2488.0413 1234.3524 3689.3528 18
-2470.3098 1236.417 3695.5237 18
-2449.0081 1236.7157 3696.4163 18
-2430.7996 1238.5957 3702.0359 18
-2390.4954 1229.1489 3673.8 18
-2376.4753 1233.1675 3685.8113 18
-2377.1245 1244.9432 3721.0078 18
-2349.7402 1242.1204 3712.5706 18
-2541.7788 1356.3313 4053.9353 18
-2298.4517 1238.1876 3700.8159 18
-2472.8167 1344.9481 4019.9121 18
-2465.6125 1354.0704 4047.178 18
-2250.5356 1248.0908 3730.4155 18
-2237.2478 1253.0262 3745.167 18
-2207.2964 1248.634 3732.0393 18
-2188.209 1250.3608 3737.2004 18
-2166.3828 1250.5421 3737.7422 18
-2145.9978 1251.5676 3740.8071 18
-2131.7522 1256.2324 3754.7498 18
-2111.7798 1257.585 3758.7925 18
-2090.9839 1258.4709 3761.4407 18
-2071.2683 1260.0332 3766.1101 18
-2049.8521 1260.5837 3767.7554 19
-2029.0428 1261.5237 3770.5647 19
-2011.604 1264.6033 3779.7695 19
-1990.5616 1265.4614 3782.3345 19
-1971.0139 1267.3002 3787.8301 19
-1950.1309 1268.3127 3790.8567 18
-1928.9214 1269.134 3793.3115 18
-1907.2625 1269.6755 3794.9302 18
-1886.0685 1270.5433 3797.5239 18
-1863.7537 1270.6677 3797.8958 18
-1842.551 1271.5629 3800.571 18
-1820.8367 1272.1224 3802.2437 18
-1799.5283 1272.9835 3804.8171 18
-1770.476 1268.3185 3790.874 18
-1755.3738 1273.6558 3806.8267 18
-1735.8363 1275.8718 3813.45 18
-1713.8942 1276.3557 3814.8962 18
-1692.5438 1277.299 3817.7158 18
-1672.2642 1279.0867 3823.0591 19
-1650.9745 1280.1405 3826.2087 19
-1630.3108 1281.7157 3830.9167 19
-1608.5975 1282.4987 3833.2568 19
-1586.7938 1283.2308 3835.4453 18
-1565.2267 1284.1783 3838.2773 18
-1638.3253 1363.9667 4076.7563 17
-1598.1134 1350.3956 4036.1941 18
-1503.2196 1289.505 3854.198 16
-1481.2253 1290.2356 3856.3818 16
-1459.2489 1291.005 3858.6816 16
-1437.2495 1291.7782 3860.9927 16
-1415.3135 1292.6343 3863.5515 16
-1393.895 1293.999 3867.6304 16
-1372.1198 1295.0726 3870.8394 16
-1349.5433 1295.4136 3871.8586 16
-1326.9329 1295.7334 3872.8142 17
-1304.2697 1296.0118 3873.6462 17
-1281.2426 1295.9321 3873.4082 17
-1258.2769 1295.9128 3873.3506 17
-1235.4052 1295.9913 3873.5852 18
-1212.2903 1295.813 3873.0525 19
-1188.9003 1295.328 3871.6025 19
-1165.1567 1294.4312 3868.9219 19
-1141.9463 1294.1023 3867.9392 19
-1118.5199 1293.5105 3866.1702 18
-1096.7349 1294.8317 3870.1191 18
-1077.9412 1299.816 3885.0171 18
-1054.1182 1298.8215 3882.0444 18
-1030.6901 1298.2799 3880.4255 18
-1005.1262 1294.962 3870.5085 18
-980.75964 1293.0676 3864.8467 18
-957.80688 1292.9912 3864.6184 18
-931.77118 1288.6476 3851.6355 19
-908.23267 1287.6261 3848.5823 19
-884.87994 1286.822 3846.179 19
-861.11877 1285.3658 3841.8267 18
-837.72913 1284.4001 3838.9404 18
-813.86658 1282.6355 3833.666 18
-790.74316 1281.9675 3831.6697 18
-767.66779 1281.3406 3829.7957 19
-745.02234 1281.4148 3830.0173 17
-721.45825 1279.8639 3825.3821 18
-699.06158 1280.3507 3826.8372 18
-676.45819 1280.4788 3827.2197 18
-653.62097 1280.1578 3826.2605 18
-630.58411 1279.4086 3824.0212 18
-605.30408 1273.8828 3807.5051 18
-586.10486 1281.2218 3829.4407 18
-560.86212 1275.4089 3812.0664 18
-540.4751 1280.6134 3827.6223 18
-517.95892 1281.0078 3828.801 18
-495.58847 1281.8154 3831.2151 18
-473.16592 1282.5593 3833.4385 18
-450.56375 1282.8667 3834.3572 18
-428.29974 1284.2209 3838.4048 18
-404.75824 1281.6814 3830.8145 18
-383.53229 1286.6084 3845.5405 19
-361.2261 1288.3048 3850.6111 19
-338.9346 1290.2859 3856.5325 19
-316.66617 1292.6475 3863.5908 19
-294.32898 1295.0746 3870.8452 19
-271.81058 1297.0471 3876.741 19
-249.26877 1299.2617 3883.3601 19
-226.53561 1300.8279 3888.0413 19
-204.1391 1304.9004 3900.2136 19
-181.49068 1308.197 3910.0667 18
-158.57405 1310.2418 3916.1787 18
-135.56708 1312.1134 3921.7722 18
-112.45024 1313.4756 3925.8438 18
-89.288506 1314.8873 3930.0632 19
-66.065224 1316.0685 3933.594 19
-42.800316 1317.2563 3937.144 19
-19.4853 1317.8998 3939.0674 19
3.8529763 1318.7037 3941.4702 19
27.213278 1319.1953 3942.9395 19
50.623028 1320.5227 3946.907 19
74.021317 1320.8068 3947.7559 19
97.491447 1321.9285 3951.1089 19
120.92446 1322.2101 3951.9504 19
144.31508 1322.0118 3951.3579 19
167.7066 1321.8762 3950.9526 19
191.11212 1321.8706 3950.9358 19
215.50606 1327.9569 3969.127 18
238.94344 1327.5311 3967.8542 18
262.41324 1327.3456 3967.2998 18
285.89658 1327.2534 3967.0244 18
309.35004 1327.0472 3966.4082 18
332.76529 1326.7177 3965.4231 18
356.19907 1326.5006 3964.7744 15
377.71698 1319.6171 3944.2 15
400.72073 1318.4242 3940.6345 15
423.84854 1317.7482 3938.614 16
446.91312 1316.9565 3936.248 16
470.41806 1317.4766 3937.8025 16
493.53281 1316.9065 3936.0984 15
516.52905 1316.0857 3933.6453 16
539.55505 1315.4086 3931.6213 18
562.47656 1314.5431 3929.0344 18
585.12793 1313.1401 3924.8413 18
608.21667 1312.7887 3923.7905 18
630.64752 1311.095 3918.7285 18
653.08423 1309.5337 3914.0618 18
