# .PCD v0.7 - Point Cloud Data file format
VERSION 0.7
FIELDS x y z rgb
SIZE 4 4 4 4
TYPE F F F U
COUNT 1 1 1 1
WIDTH 1365
HEIGHT 1
VIEWPOINT 0 0 0 1 0 0 0
POINTS 1365
DATA ascii
2099.4116 1194.9658 4161.0674 9465938
2123.7432 1194.7861 4160.4414 13347470
2134.1233 1186.8516 4132.8125 11832951
2152.792 1183.6544 4121.6792 11043437
2190.1743 1190.7028 4146.2227 11042928
2213.0447 1189.7925 4143.0532 11569530
2219.0112 1179.9143 4108.6553 11701629
2238.7739 1177.5065 4100.271 11373433
2195.7693 1142.4915 3978.343 12228999
2296.7131 1182.3234 4117.0444 12031875
2279.5459 1161.1548 4043.3318 12886413
2231.7656 1124.995 3917.4175 12228996
2269.8887 1132.4362 3943.3291 12228993
2254.9807 1113.5385 3877.5237 12294526
2200.072 1075.4681 3744.9568 12557701
2246.7161 1087.3047 3786.1736 9662555
2553.8274 1223.7151 4261.1772 9925729
2575.3081 1221.9294 4254.959 10518380
2640.1924 1240.5728 4319.8784 11636862
2642.2368 1229.6145 4281.7197 12426889
2652.0649 1222.4524 4256.7803 13348763
2667.6914 1218.073 4241.5303 13611935
2681.9373 1213.1505 4224.3896 13546143
2719.647 1218.8348 4244.1831 13150358
2736.7175 1215.25 4231.7002 11307897
2806.8174 1235.0645 4300.6973 9860195
2818.2219 1228.9272 4279.3267 9531231
2848.6973 1231.1417 4287.0376 9531489
2841.9309 1217.364 4239.0615 9202784
2873.1748 1219.9672 4248.126 9136733
2872.3389 1209.0221 4210.0137 9136990
2898.3599 1209.4728 4211.583 8874331
2909.4294 1203.7299 4191.585 8413524
2957.7266 1213.356 4225.105 8347472
2917.9568 1186.996 4133.3149 9070682
2929.2358 1181.668 4114.7617 9597279
3011.5129 1204.8324 4195.4243 10451817
3022.2573 1199.2334 4175.9277 10320744
3005.5913 1182.9371 4119.1816 10452585
3057.8589 1193.8158 4157.063 11899773
3109.8462 1204.412 4193.9604 12557446
3115.6965 1197.1135 4168.5459 13083788
3168.8596 1207.9653 4206.334 12952201
3188.6008 1206.0068 4199.5142 12229505
3091.5542 1160.2487 4040.1765 12230020
3103.8962 1155.9313 4025.1428 12164997
3134.5339 1158.4414 4033.8835 14206634
3149.3916 1155.1257 4022.3376 8939861
3296.6748 1200.0659 4178.8267 8153701
3358.3347 1213.3994 4225.2563 8023915
3353.7156 1202.7657 4188.228 7629673
3405.8811 1212.5037 4222.1367 7367015
3405.3059 1203.4607 4190.6479 8352370
3413.7402 1197.7096 4170.6216 8416877
3443.4346 1199.4465 4176.6699 8217956
3457.6843 1195.8173 4164.0322 8677729
3481.323 1195.4636 4162.8008 9334628
3532.7993 1204.6069 4194.6392 9334367
3578.9758 1211.828 4219.7842 9926505
3578.1533 1203.1456 4189.5508 9926249
3601.0256 1202.4952 4187.2861 9794663
3611.8081 1197.8442 4171.0908 10584434
3608.0359 1188.4623 4138.4209 10518897
3596.8325 1176.7756 4097.7261 9729379
3533.1885 1148.2037 3998.2341 9334620
3536.8071 1141.7257 3975.6763 10519149
3498.7292 1121.962 3906.856 10255721
3523.2256 1122.3926 3908.3552 11506555
3541.3926 1120.8142 3902.8591 12033154
3610.5581 1135.2921 3953.2739 10585707
3576.7827 1117.4237 3891.0527 10782570
3597.7944 1116.7905 3888.8481 11045739
3562.7656 1098.8806 3826.4827 11769462
3596.7776 1102.3572 3838.5886 11769465
3740.3618 1139.161 3966.7458 8940881
3778.3064 1143.5328 3981.9692 7558984
3815.7981 1147.7141 3996.5293 8282964
0 0 0 0
0 0 0 0
0 0 0 0
0 0 0 0
0 0 0 0
-4151.9883 1344.0653 4585.6582 270
-3952.158 1287.8032 4393.7041 14
-4296.7183 1409.3596 4808.4282 15
-4423.2139 1460.5343 4983.0249 16
-4347.1777 1445.0717 4930.27 16
-4147.6182 1388.0612 4735.7622 14
-4097.0698 1380.4824 4709.9053 14
-4189.4219 1421.2794 4849.0957 14
-4079.5562 1393.5626 4754.5322 14
-4043.2141 1390.7505 4744.938 14
-4043.2551 1400.5016 4778.2065 14
-3994.8987 1393.5079 4754.3457 14
-4191.1841 1472.3574 5023.3628 14
-3964.637 1402.7318 4785.8154 14
-3883.4536 1383.9049 4721.582 14
-3862.4363 1386.4011 4730.0986 14
-3837.7759 1387.6167 4734.2461 14
-3865.1184 1407.7911 4803.0767 14
-3768.5947 1382.8143 4717.8613 14
-3759.4771 1389.7761 4741.6133 14
-3737.0237 1391.8756 4748.7764 14
-3750.6172 1407.5348 4802.2021 270
-3790.6462 1433.4297 4890.5498 270
-3731.7075 1422.0109 4851.5913 14
-3646.7805 1400.4346 4777.978 14
-3664.5505 1418.2671 4838.8184 14
-3555.8447 1387.0457 4732.2979 15
-3565.9084 1402.0253 4783.4048 15
-3462.8594 1372.4155 4682.3828 15
-3514.8809 1404.282 4791.104 14
-3567.8616 1437.0536 4902.9136 14
-3420.3584 1388.9501 4738.7949 14
-3394.8765 1390.0112 4742.4155 14
-3374.3481 1393.1353 4753.0742 14
-3341.0071 1390.9775 4745.7124 13
-3311.7666 1390.5049 4744.0996 13
-3286.3564 1391.646 4747.9932 14
-3281.7581 1401.696 4782.2817 14
-3266.6799 1407.4059 4801.7627 13
-3262.9282 1418.1392 4838.3818 15
-3229.0647 1415.859 4830.6025 16
-3417.5488 1511.9036 5158.2856 16
-3206.0728 1431.1447 4882.7539 16
-3152.5686 1420.0736 4844.9819 17
-3131.6948 1423.6327 4857.1245 18
-3088.8044 1417.1564 4835.0288 18
-3062.1191 1418.0632 4838.123 18
-3038.9312 1420.6223 4846.854 18
-3010.6899 1420.8455 4847.6152 19
-2978.2231 1419.0593 4841.5215 19
-2947.8921 1418.2662 4838.8154 19
-2908.709 1413.1567 4821.3828 19
-2882.2305 1414.1793 4824.8721 19
-2858.637 1416.6522 4833.3091 19
-2838.2241 1420.7675 4847.3491 19
-2826.4822 1429.3517 4876.6367 19
-2790.4626 1425.7094 4864.2095 19
-2762.6321 1426.2183 4865.9463 19
-2738.8738 1428.8627 4874.9683 19
-2717.7876 1432.9722 4888.9893 19
-2691.6719 1434.4899 4894.167 19
-2664.8872 1435.6802 4898.228 19
-2640.2141 1438.0469 4906.3027 19
-2611.7458 1438.376 4907.4258 19
-2579.2969 1436.4956 4901.0103 19
-2551.9829 1437.465 4904.3174 19
-2529.6277 1441.2819 4917.3398 19
-2501.0769 1441.6165 4918.4814 19
-2474.2156 1442.9445 4923.0122 19
-2450.8003 1446.3375 4934.5889 19
-2427.1499 1449.6724 4945.9663 19
-2398.8137 1450.2557 4947.9565 19
-2368.6494 1449.7345 4946.1782 19
-2324.6997 1440.6571 4915.2085 19
-2288.6169 1436.2867 4900.2974 19
-2293.4143 1457.7891 4973.6587 19
-2324.3193 1496.6622 5106.2856 19
-2213.9988 1444.4243 4928.061 19
-2041.0996 1349.4181 4603.9209 19
-2039.4724 1366.604 4662.5552 19
-2130.8835 1447.4603 4938.4194 19
-2096.8884 1444.1967 4927.2847 19
-2068.3274 1444.6362 4928.7842 19
-2042.549 1447.0597 4937.0527 19
-2017.4017 1450.0074 4947.1094 19
-1989.031 1450.6908 4949.4409 19
-1959.1187 1450.2534 4947.9487 19
-1930.7236 1450.9431 4950.3022 19
-1901.4202 1450.9609 4950.3628 19
-1873.6625 1452.1771 4954.5122 19
-1844.5751 1452.3853 4955.2222 19
-1813.6636 1451.1406 4950.9756 19
-1785.1243 1451.7843 4953.1719 19
-1761.8739 1456.8226 4970.3613 19
-1738.0428 1461.5438 4986.4692 19
-1705.3392 1458.8384 4977.2388 19
-1675.5669 1458.5894 4976.3892 19
-1644.4919 1457.1772 4971.5713 19
-1614.5394 1456.7262 4970.0322 19
-1581.5919 1453.5061 4959.0464 19
-1550.0677 1451.4969 4952.1914 19
-1520.926 1451.6842 4952.8301 19
-1491.9331 1452.0236 4953.9883 19
-1462.7822 1452.2198 4954.6577 19
-1434.5874 1453.3927 4958.6592 19
-1406.519 1454.7454 4963.2744 19
-1312.4578 1386.4427 4730.2407 19
-1346.9974 1453.9741 4960.6431 19
-1238.6371 1366.8285 4663.3213 19
-1292.847 1459.1948 4978.4551 19
-1261.5378 1457.0977 4971.2998 19
-1233.5203 1458.793 4977.084 19
-1205.4127 1460.4623 4982.7793 19
-1179.0077 1464.33 4995.9751 19
-1150.5427 1465.7726 5000.897 19
-1122.3081 1467.5927 5007.1064 19
-1095.1123 1470.9067 5018.4136 19
-1069.0123 1475.9188 5035.5137 19
-1041.9822 1479.8975 5049.0879 19
-1013.5065 1481.9977 5056.2534 19
-985.51569 1484.9564 5066.3477 19
-957.58759 1488.1984 5077.4087 19
-928.73547 1490.168 5084.1289 19
-901.27997 1494.5857 5099.2012 19
-870.65289 1493.8682 5096.7529 19
-840.31885 1493.6198 5095.9053 18
-810.71271 1494.6949 5099.5737 18
-781.27032 1496.167 5104.5957 18
-751.7832 1497.6683 5109.7183 18
-722.35083 1499.4093 5115.6582 18
-692.3374 1500.0439 5117.8232 18
-662.66003 1501.498 5122.7847 18
-633.77527 1504.974 5134.6436 19
-604.60229 1508.0815 5145.2461 19
-573.76532 1507.1481 5142.061 19
-543.88593 1508.7664 5147.582 19
-513.46729 1508.9919 5148.3521 19
-480.99338 1502.8247 5127.3105 19
-450.12708 1501.1873 5121.7241 19
-420.11758 1502.3773 5125.7842 19
-389.85529 1502.7783 5127.1523 19
-359.92789 1504.647 5133.5278 19
-329.79547 1505.9244 5137.8862 19
-298.51245 1501.6736 5123.3833 19
-268.65799 1504.4602 5132.8906 19
-237.91554 1502.3508 5125.6938 19
-208.30243 1507.799 5144.2817 19
-177.21005 1502.5717 5126.4473 19
-146.80467 1502.2119 5125.2202 19
-116.53149 1503.3704 5129.1724 19
-86.276222 1505.6582 5136.978 19
-55.707275 1501.9827 5124.438 19
-25.396496 1504.8002 5134.0503 19
5.0187531 1504.792 5134.0225 19
35.396065 1503.1866 5128.5454 19
65.708229 1501.5756 5123.0488 19
96.325943 1505.759 5137.3218 19
126.7306 1505.4026 5136.1055 19
157.00626 1503.9484 5131.1445 19
187.19601 1502.2769 5125.4414 19
218.10092 1506.01 5138.1782 18
247.88004 1502.0071 5124.521 18
276.64792 1493.4188 5095.2197 18
305.4509 1486.6909 5072.2656 18
333.4801 1477.7395 5041.7256 18
362.25854 1473.3071 5026.603 18
390.82278 1468.7429 5011.0312 18
419.02478 1463.5579 4993.3408 18
447.76477 1460.8121 4983.9727 18
475.6889 1455.9086 4967.2432 18
501.80255 1446.3584 4934.6597 18
509.9791 1389.0051 4738.9829 18
536.17731 1384.1605 4722.4541 18
562.39813 1379.8521 4707.7549 18
584.63348 1366.6342 4662.6582 18
609.80396 1361.1606 4643.9839 18
640.79382 1368.5885 4669.3262 16
666.80341 1365.2052 4657.7827 16
690.62823 1357.7954 4632.502 16
711.36884 1345.1199 4589.2563 16
744.34845 1355.6685 4625.2456 14
772.16077 1356.391 4627.7109 65550
788.15686 1337.0192 4561.6182 65550
809.50397 1327.708 4529.8506 131082
819.92188 1301.6443 4440.9268 327683
829.04388 1275.2076 4350.731 2758676
831.21338 1239.9937 4230.5884 5784627
853.56317 1236.0647 4217.1836 6967867
890.71039 1253.1782 4275.5713 6836025
909.27423 1243.9226 4243.9932 8151885
945.54779 1258.7407 4294.5493 8677973
975.16345 1264.1516 4313.0098 8941402
999.6991 1262.8685 4308.6323 9730919
1024.8307 1262.3834 4306.9775 9533540
1052.6333 1265.1323 4316.356 9730662
1078.311 1265.2573 4316.7827 9599333
1102.3379 1263.4846 4310.7344 9730919
1130.0771 1265.9508 4319.1484 9665126
1152.1152 1262.0626 4305.8828 9796456
1175.6399 1259.9359 4298.627 9730149
1200.7346 1259.5463 4297.2979 9664613
1224.7084 1258.0216 4292.0957 9796199
1243.8809 1251.7274 4270.6211 9796199
1271.2804 1253.798 4277.6855 9730406
1296.2507 1253.4385 4276.459 9796197
1316.9318 1249.0247 4261.4004 9861733
1341.7151 1248.5946 4259.9331 9861733
1361.2495 1243.3861 4242.1626 9730147
1387.6326 1244.5084 4245.9917 9730403
1425.1913 1255.4354 4283.2725 9466975
1441.4337 1247.5314 4256.3052 9401182
1467.3641 1248.1396 4258.3804 9466975
1486.4402 1242.9955 4240.8301 9466974
1509.2565 1241.0981 4234.3564 9335389
1537.3414 1243.5245 4242.6348 9401182
1572.2668 1251.3169 4269.2207 9795683
1577.7129 1235.7723 4216.186 9795940
1599.8961 1233.6178 4208.835 9664354
1623.3306 1232.4791 4204.9502 9795426
1653.8558 1236.6772 4219.2734 9861220
1673.0305 1232.3892 4204.6436 9598561
1688.6688 1225.6602 4181.6855 9401182
1733.2379 1239.8206 4229.9976 9664097
1750.1123 1234.0491 4210.3066 9861732
1776.9216 1235.3467 4214.7339 9795426
1815.5123 1244.6853 4246.5952 9598560
1837.6559 1242.6472 4239.6416 9927525
1824.5734 1217.1647 4152.7007 9664354
1879.7224 1237.2716 4221.3013 9467232
1887.8374 1226.2985 4183.8633 9335645
1924.8298 1234.1244 4210.564 9335645
1914.3685 1211.7144 4134.1055 9598560
1913.8958 1196.1125 4080.8757 9598814
1915.3673 1182.1002 4033.0686 7953737
1928.5808 1175.5905 4010.8586 4073244
1957.1996 1178.5154 4020.8379 11045758
1956.853 1164.1384 3971.7869 9598569
1983.285 1165.8445 3977.6074 10914685
2002.665 1163.4137 3969.3142 10979963
2016.3474 1157.7679 3950.052 11176572
2002.6887 1136.7327 3878.2842 9662308
2052.5037 1151.7938 3929.6697 11109498
2057.2131 1141.4895 3894.5134 10977913
2072.7585 1137.3595 3880.4231 10846580
2051.384 1113.2837 3798.2817 11965056
2100.3154 1127.4713 3846.6865 11965567
2094.3235 1112.1875 3794.5415 13018756
2108.1594 1107.6459 3779.0466 13413250
2131.9995 1108.4009 3781.6223 12690025
2136.3606 1099.1185 3749.9531 13150324
2165.1157 1102.4484 3761.3137 13479294
2184.4182 1100.9463 3756.189 13018240
2210.1902 1102.7023 3762.1799 12623489
2237.386 1105.1262 3770.4502 10254689
2456.8369 1201.5258 4099.3442 9465946
2506.55 1213.8395 4141.356 9663072
2522.9607 1209.9436 4128.064 9860965
2574.801 1222.9506 4172.4409 10518636
2607.3318 1226.6257 4184.98 11900032
2624.6677 1223.1508 4173.124 12426375
2633.4958 1215.8127 4148.0884 13018769
2662.3826 1217.7853 4154.8184 13479319
2656.281 1203.8646 4107.3237 13939870
2688.6711 1207.4832 4119.6694 13611163
2704.1582 1203.5138 4106.127 12228998
2719.8389 1199.7006 4093.1169 11242359
2771.6816 1211.7645 4134.2769 9531745
2777.4033 1203.63 4106.5234 9071197
2736.407 1175.5665 4010.7769 8874332
2798.7178 1191.9851 4066.7937 9532518
2778.6394 1173.3331 4003.157 10979963
2701.5508 1131.1268 3859.1584 14401202
2780.45 1154.3922 3938.5349 10255980
2733.5378 1125.4706 3839.8604 8742483
2853.5464 1165.1847 3975.3564 9531485
2864.5361 1160.0977 3958.0005 9070421
2889.092 1160.5427 3959.5188 9860705
2989.4524 1191.1857 4064.0662 10781549
2975.9526 1176.3326 4013.3909 10387557
2987.0273 1171.3517 3996.397 10321251
3049.8821 1186.5948 4048.4033 10913643
3105.1433 1198.6689 4089.5974 11308657
3089.0361 1183.2191 4036.886 12624768
3068.9641 1166.4996 3979.8428 11045481
3104.9233 1171.17 3995.7773 13945247
3146.0659 1177.7101 4018.0903 14143667
3082.3162 1145.1809 3907.1079 11046522
3156.47 1163.9905 3971.2822 8219492
3332.999 1219.9948 4162.3564 5523271
3337.1436 1212.541 4136.9258 5788250
3333.8713 1202.5208 4102.7388 7302519
3373.2305 1207.9111 4121.1299 7368826
3384.2549 1203.1509 4104.8887 8026500
3392.1365 1197.3491 4085.0942 7895428
3410.1602 1195.1841 4077.7078 7368823
3435.5818 1195.6241 4079.209 7695986
3464.793 1197.3674 4085.1572 8548719
3506.2363 1203.2847 4105.3452 9270377
3537.9468 1205.8032 4113.938 9597289
3563.571 1206.2269 4115.3838 9136482
3558.0825 1196.1854 4081.1243 4728609
3491.9299 1166.0226 3978.2151 983040
3516.2952 1166.287 3979.1172 12165522
3485.3193 1148.3146 3917.7993 11902591
3486.3169 1141.0447 3892.9958 11442296
3510.1245 1141.2869 3893.822 11836028
3488.03 1126.6985 3844.05 12098942
3593.8423 1153.3478 3934.9714 11309427
3561.2554 1135.5242 3874.1611 10914664
3563.9075 1129.0931 3852.2197 10848101
3585.5769 1128.7305 3850.9824 11769455
3583.2937 1120.8799 3824.198 12296056
3607.3887 1121.3274 3825.7246 12625020
3699.0024 1142.6259 3898.3906 11638394
3703.5359 1136.9277 3878.95 8808791
0 0 0 0
0 0 0 0
0 0 0 0
0 0 0 0
0 0 0 0
-4198.7959 1386.6904 4637.3545 270
-4523.9971 1503.9314 5029.4307 13
-4448.6172 1488.677 4978.417 13
-4484.7271 1510.7769 5052.3232 14
-4388.9077 1488.432 4977.5977 14
-4332.2769 1479.1646 4946.606 14
-4091.2961 1406.4001 4703.2681 14
-4017.5645 1390.5245 4650.1768 14
-4202.6133 1464.6151 4897.9497 14
-4180.3286 1466.9774 4905.8496 14
-3988.4216 1409.4316 4713.4058 14
-4207.001 1497.155 5006.769 14
-4142.3262 1484.6062 4964.8037 14
-4149.2432 1497.7198 5008.6582 14
-4030.0967 1465.1906 4899.874 14
-4029.4292 1475.576 4934.605 14
-3945.0969 1455.2516 4866.6362 14
-3719.8706 1382.2727 4622.5811 14
-3656.1052 1368.6539 4577.0371 14
-3693.8149 1393.1023 4658.7974 14
-3568.3054 1355.8982 4534.3799 14
-3780.9761 1447.6073 4841.0723 14
-3609.5459 1392.5354 4656.9014 14
-3576.5815 1390.4454 4649.9121 14
-3540.8496 1387.2388 4639.1885 14
-3511.8306 1386.6326 4637.1611 14
-3487.6511 1387.9426 4641.5425 14
-3462.8027 1389.0052 4645.0962 14
-3443.1514 1392.1863 4655.7339 14
-3414.0828 1391.5802 4653.707 14
-3379.4209 1388.6659 4643.9609 14
-3362.0283 1392.8582 4657.981 14
-3325.0391 1388.934 4644.8574 14
-3294.7026 1387.7463 4640.8862 15
-3277.8667 1392.2733 4656.0249 16
-3245.6448 1390.2864 4649.3804 16
-3242.4702 1400.8145 4684.5879 16
-3245.8584 1414.3842 4729.9678 16
-3195.6343 1404.6251 4697.3315 16
-3169.0945 1405.1963 4699.2417 16
-3144.5818 1406.6843 4704.2183 16
-3338.4019 1506.7405 5038.8247 16
-3085.2104 1405.0295 4698.6841 16
-3066.6787 1409.3054 4712.9834 18
-3040.3689 1410.0525 4715.4819 18
-3016.3745 1411.8973 4721.6514 18
-2996.3914 1415.6718 4734.2739 18
-2967.0649 1415.0616 4732.2334 18
-2942.3474 1416.6587 4737.5742 18
-2907.5933 1413.4078 4726.7026 19
-2873.092 1410.2178 4716.0347 19
-2854.6943 1414.9468 4731.8496 19
-2816.1289 1409.6744 4714.2178 19
-2793.6533 1412.4312 4723.4365 19
-2768.1199 1413.682 4727.6196 19
-2746.0576 1416.7494 4737.8774 19
-2727.6799 1421.8005 4754.7695 19
-2703.1506 1423.717 4761.1787 19
-2679.7083 1426.2527 4769.6582 19
-2656.7458 1429.1006 4779.1821 19
-2632.4709 1431.296 4786.5244 19
-2608.1267 1433.5012 4793.8989 19
-2581.5593 1434.5197 4797.3047 19
-2561.7458 1439.3556 4813.4771 19
-2530.8496 1438.0031 4808.9541 19
-2500.929 1437.1807 4806.2036 19
-2473.0117 1437.5035 4807.2837 19
-2450.678 1441.1177 4819.3696 19
-2424.5786 1442.5764 4824.248 19
-2397.8325 1443.6805 4827.9404 19
-2371.4822 1445.0525 4832.5283 19
-2343.04 1445.1676 4832.9136 19
-2316.394 1446.4075 4837.0596 19
-2288.8999 1447.1418 4839.5156 19
-2255.4685 1444.0935 4829.3213 19
-2226.458 1443.8337 4828.4526 19
-2202.8115 1447.0911 4839.3457 19
-2170.8992 1444.9326 4832.1274 19
-2140.3235 1443.6179 4827.731 19
-2113.553 1444.869 4831.915 19
-2083.9185 1444.1697 4829.5762 19
-2055.6028 1444.3776 4830.2715 19
-2025.6255 1443.4072 4827.0264 19
-1997.9314 1444.0594 4829.2075 19
-1970.9167 1445.2286 4833.1177 19
-1942.751 1445.576 4834.2793 19
-1913.6537 1445.2301 4833.1226 19
-1884.3414 1444.709 4831.3799 19
-1857.9153 1446.4186 4837.0972 19
-1833.1333 1449.4819 4847.3413 19
-1805.7068 1450.5183 4850.8071 19
-1776.2441 1449.9263 4848.8271 19
-1748.1888 1450.4824 4850.687 19
-1725.05 1455.2046 4866.479 19
-1708.3433 1465.6052 4901.2607 19
-1673.1498 1460.2316 4883.29 19
-1636.9833 1453.8044 4861.7969 19
-1607.0656 1452.7964 4858.4253 19
-1577.6552 1452.218 4856.4917 19
-1549.561 1452.8528 4858.6143 19
-1519.0453 1451.1979 4853.0801 19
-1488.6564 1449.6027 4847.7451 19
-1464.64 1454.2722 4863.3608 19
-1435.9974 1454.4435 4863.9336 19
-1406.9447 1454.1978 4863.1118 19
-1379.1011 1455.2177 4866.5229 19
-1344.4723 1448.9685 4845.6245 19
-1313.407 1446.3711 4836.938 19
-1289.7606 1452.0099 4855.7954 19
-1261.9824 1453.1483 4859.6025 19
-1232.7421 1452.6168 4857.8252 19
-1205.1672 1454.0695 4862.6831 19
-1181.4373 1460.3461 4883.6729 19
-1153.2546 1461.2955 4886.8481 19
-1131.8267 1471.0731 4919.5464 19
-1105.4174 1474.7222 4931.7495 19
-1075.6515 1473.9698 4929.2334 19
-1044.3265 1470.9794 4919.2329 19
-1016.1828 1472.4268 4924.0732 19
-989.1413 1475.604 4934.6987 19
-964.09241 1482.038 4956.2148 19
-937.19037 1485.9379 4969.2568 19
-909.62396 1489.0032 4979.5078 19
-881.88257 1491.9779 4989.4561 19
-853.40063 1493.8628 4995.7593 19
-824.95062 1495.9409 5002.709 18
-796.24194 1497.6874 5008.5493 18
-767.63623 1499.7701 5015.5146 18
-736.14941 1496.165 5003.4585 18
-706.99811 1497.2034 5006.9312 18
-678.17841 1499.0657 5013.1587 18
-651.48755 1506.0198 5036.4146 18
-623.93347 1511.5499 5054.9087 19
-593.89923 1511.3265 5054.1616 19
-563.06775 1508.9429 5046.1899 19
-533.75647 1510.5941 5051.7119 19
-503.15295 1508.5673 5044.9341 19
-471.72217 1503.6473 5028.481 19
-442.07303 1504.1261 5030.082 19
-412.13089 1503.6052 5028.3398 19
-381.7052 1501.1014 5019.9668 19
-352.55197 1503.6016 5028.3276 19
-321.77985 1499.0214 5013.0107 19
-292.14154 1499.3287 5014.0386 19
-262.74112 1501.0649 5019.8447 19
-232.42885 1497.3698 5007.4873 19
-203.18814 1500.5067 5017.978 19
-173.42876 1500.2321 5017.0596 19
-143.60818 1499.2051 5013.625 19
-113.89885 1499.1066 5013.2954 19
-83.902458 1493.8275 4995.6416 19
-54.384594 1495.958 5002.7661 19
-24.801111 1499.2245 5013.6899 19
4.8937645 1496.9738 5006.1631 19
34.520771 1495.6465 5001.7241 19
64.348137 1500.2166 5017.0073 19
93.9804 1498.7872 5012.2275 19
123.54425 1497.2152 5006.9702 19
153.11835 1496.3519 5004.0835 19
183.12009 1499.27 5013.8423 19
212.36223 1496.0223 5002.9814 18
241.58875 1493.4739 4994.4585 18
271.70969 1496.4072 5004.2686 18
299.77304 1488.5465 4977.9805 18
327.55179 1480.8071 4952.0986 18
354.92352 1472.6512 4924.8242 18
382.90909 1468.088 4909.5635 18
410.18381 1461.636 4887.9868 18
437.9975 1457.8287 4875.2549 18
465.0972 1452.2633 4856.6426 18
492.62964 1448.6188 4844.4546 18
499.3447 1387.53 4640.1626 18
525.8476 1384.932 4631.4741 18
549.03473 1374.2919 4595.8916 18
568.92023 1356.7833 4537.3398 18
594.66248 1354.1919 4528.6733 18
624.06635 1359.8026 4547.437 16
655.15393 1368.4658 4576.4082 17
680.85626 1365.6392 4566.9551 17
701.367 1353.0131 4524.7314 17
728.47522 1353.5756 4526.6123 16
754.96338 1352.9868 4524.6436 16
775.24341 1341.6942 4486.8789 14
788.98846 1320.2153 4415.0493 14
816.3092 1322.1022 4421.3594 131083
824.19086 1293.3667 4325.2627 327683
819.38733 1247.0581 4170.3979 2693397
822.67316 1215.4116 4064.5659 7626573
848.86713 1218.4467 4074.7158 8481107
877.44806 1224.6455 4095.446 8414800
910.03351 1235.9495 4133.2485 8151885
932.16486 1232.835 4122.833 7954506
970.17676 1250.3459 4181.3931 9336159
993.67426 1248.745 4176.0391 9533539
1019.0222 1249.4906 4178.5327 9467747
1050.0122 1256.955 4203.4946 9730919
1071.2048 1252.6168 4188.9873 9796712
1096.7549 1253.4552 4191.791 9928298
1120.2554 1251.9659 4186.8105 9927784
1132.8613 1238.6294 4142.2109 10256750
1167.3329 1249.2587 4177.7568 9927785
1194.748 1252.0516 4187.0972 9861992
1207.6738 1239.8555 4146.311 9467234
1234.4718 1242.1036 4153.8291 9598820
1261.4529 1244.4446 4161.6577 9993578
1287.7268 1246.0114 4166.8975 9993577
1303.9333 1237.9613 4139.9766 9993576
1331.3397 1240.6453 4148.9521 9664867
1348.5084 1233.8647 4126.2769 9467231
1379.3723 1239.6333 4145.5679 9664354
1405.5344 1241.0486 4150.3008 9598561
1426.9086 1238.2603 4140.9761 9729891
1452.6543 1239.2955 4144.4385 9663844
1473.1472 1235.8898 4133.0488 9927272
1501.3258 1238.9377 4143.2417 9993578
1516.1948 1231.0808 4116.9668 9927271
1536.0184 1227.4319 4104.7642 9861733
1559.067 1226.4336 4101.4258 9927525
1580.1107 1223.9132 4092.9971 9861733
1607.9972 1226.689 4102.2798 9598561
1631.9786 1226.4475 4101.4722 9927269
1659.1821 1228.599 4108.667 9795683
1683.7589 1228.7712 4109.2432 9795940
1686.5254 1213.2488 4057.333 9861476
1726.1533 1224.3073 4094.3147 9598561
1753.4154 1226.4102 4101.3472 9401181
1781.425 1228.9711 4109.9116 9993319
1798.7688 1224.2041 4093.9697 9598561
1830.1542 1228.9933 4109.9858 9598817
1857.6672 1231.0905 4116.999 9664613
1874.8717 1226.3903 4101.2808 9664870
1897.6174 1225.3887 4097.9312 9598821
1893.6539 1207.3826 4037.7156 9928557
1906.0427 1200.1218 4013.4343 9731182
1889.9602 1175.3342 3930.5396 3351839
1945.2047 1194.9672 3996.1958 1114112
1922.0253 1166.5303 3901.0977 5978665
1907.9994 1144.2587 3826.6172 5388068
1914.3398 1134.5808 3794.2524 10124395
1919.9766 1124.7152 3761.26 9926504
1916.1772 1109.6118 3710.7515 9005144
1945.8892 1114.0365 3725.5483 9991268
1972.2693 1116.4758 3733.7061 11109492
2013.1437 1126.9751 3768.8176 13083527
2005.286 1110.2626 3712.9277 13149570
2018.3893 1105.3923 3696.6406 12557681
2050.2661 1110.7976 3714.717 13018479
2068.0173 1108.5166 3707.0889 13150577
2111.2646 1119.8064 3744.8442 13546101
2126.6692 1116.2474 3732.9421 13743738
2139.3855 1111.365 3716.6145 13612157
2144.9329 1102.896 3688.2925 12558453
2202.8977 1121.2783 3749.7664 11044719
2221.2231 1119.3186 3743.2129 10847338
2419.7627 1207.3135 4037.4841 8873810
2462.2869 1216.5054 4068.2239 8741969
2463.4629 1205.2889 4030.7139 9268315
2516.5684 1219.4513 4078.0754 9597279
2528.4541 1213.5603 4058.375 10189158
2563.7825 1218.9259 4076.3186 11702908
2584.1382 1217.1393 4070.3438 12295045
2598.4282 1212.5552 4055.0134 12491652
2618.248 1210.6118 4048.5146 12557444
2631.9324 1205.8926 4032.7327 13149324
2640.6418 1198.9994 4009.6804 13150093
2637.5413 1186.9144 3969.2664 12886926
2628.4998 1172.3933 3920.7048 12559244
2615.9763 1156.5872 3867.8459 8743001
2597.9426 1138.6404 3807.8284 7428435
2644.3962 1149.0232 3842.5505 7823964
2594.9626 1117.92 3738.5359 9337461
2612.3223 1115.8746 3731.6958 9204843
2602.6631 1102.4192 3686.698 13349801
2596.0422 1090.4639 3646.7173 13481642
2697.3682 1123.6747 3757.7803 10256755
2743.689 1133.615 3791.0229 9137758
2822.665 1156.7767 3868.48 10189673
2856.7632 1161.3218 3883.6794 10518381
2894.8379 1167.3978 3903.999 11439481
2955.6909 1182.4905 3954.4714 9268311
2991.1328 1187.2595 3970.4199 10451812
3010.8735 1185.7704 3965.4402 11175532
3011.5537 1176.856 3935.6287 10715238
3033.5591 1176.3479 3933.9294 9071439
3085.3962 1187.3275 3970.6475 13945259
3099.238 1183.6301 3958.2827 14012082
3109.3508 1178.5748 3941.377 13880754
3156.7188 1187.611 3971.5955 13285283
3282.8818 1225.9381 4099.7686 12427923
3247.874 1203.9578 4026.2622 11045757
3128.7593 1151.3474 3850.3235 9204589
3248.2356 1186.662 3968.4216 8745325
3278.645 1189.1644 3976.7905 8614258
3271.1489 1177.981 3939.3906 8482927
3327.8235 1189.9009 3979.2534 8548462
3347.822 1188.6315 3975.0081 8417387
3361.5286 1185.1613 3963.4033 8547687
3438.1609 1203.7711 4025.6379 9073258
3447.7317 1198.8064 4009.0352 9203813
3444.146 1189.3665 3977.4661 9072224
3457.6816 1185.9271 3965.9644 9006173
3534.3071 1204.0269 4026.4934 7296581
3498.0837 1183.6978 3958.5088 5192232
3451.385 1160.118 3879.6541 8677972
3523.1218 1176.3971 3934.0942 11507066
3502.7988 1161.9247 3885.6956 11309940
3480.6914 1147.0531 3835.9624 11967100
3502.7576 1146.8374 3835.241 12164736
3515.2666 1143.5154 3824.1316 11967610
3540.7268 1144.422 3827.1636 11901817
3561.4504 1143.796 3825.0701 12032890
3552.5464 1133.7228 3791.3833 12230522
3576.355 1134.1501 3792.8125 12164988
3570.6926 1125.2847 3763.1643 12954504
3619.0183 1133.4375 3790.4292 11704185
0 0 0 0
0 0 0 0
0 0 0 0
0 0 0 0
0 0 0 0
-4088.3386 1376.9609 4515.3604 269
-4310.3555 1461.2981 4791.9204 269
-4160.6206 1419.8862 4656.1221 269
-4220.5063 1449.936 4754.6621 270
-3946.6714 1364.9713 4476.0435 14
-4179.9746 1455.439 4772.707 14
-4258.3682 1492.833 4895.3306 14
-4234.9048 1494.7875 4901.7397 14
-4170.4834 1482.2124 4860.5034 14
-4082.4773 1461.0221 4791.0156 14
-4038.1277 1455.2682 4772.147 14
-4009.2949 1455.0643 4771.4785 14
-3983.5486 1455.9857 4774.5 14
-3953.311 1455.2671 4772.1436 14
-3712.6082 1376.5048 4513.8647 14
-3700.0388 1381.7974 4531.2202 14
-3700.4084 1392.0347 4564.7905 14
-3632.7502 1376.6434 4514.3193 14
-3626.7996 1384.5814 4540.3496 14
-3586.033 1379.2474 4522.8584 14
-3560.7759 1379.8431 4524.8115 14
-3436.0881 1341.6251 4399.4863 14
-3508.8511 1380.5068 4526.9883 14
-3484.1943 1381.3643 4529.7998 14
-3473.1621 1387.6782 4550.5049 14
-3436.9443 1383.9498 4538.2783 14
-3404.3308 1381.6251 4530.6553 14
-3385.7622 1385.009 4541.752 14
-3300.6816 1361.0212 4463.0903 14
-3318.1121 1379.2572 4522.8901 13
-3298.3552 1382.2063 4532.561 15
-3276.0942 1384.146 4538.9219 15
-3246.0706 1382.8109 4534.5439 15
-3231.5459 1388.1111 4551.9243 15
-3227.5225 1398.0494 4584.5142 16
-3194.0254 1395.2809 4575.4355 16
-3171.8494 1397.4529 4582.5581 16
-3191.4299 1418.2184 4650.6528 16
-3115.4724 1396.5201 4579.4995 16
-3103.9724 1403.588 4602.6763 16
-3073.7832 1402.255 4598.3052 15
-3060.5217 1408.6897 4619.4058 15
-3006.6794 1396.3934 4579.084 17
-2996.1018 1404.1498 4604.5186 18
-2960.4185 1400.1744 4591.4824 18
-2888.158 1378.6652 4520.9487 19
-2895.9875 1395.3423 4575.6367 19
-2891.7327 1406.4569 4612.0845 19
-2865.3369 1406.9122 4613.5771 19
-2832.51 1404.1881 4604.6445 19
-2803.009 1403.0759 4600.9971 19
-2785.5896 1408.0487 4617.3042 18
-2759.6377 1408.7643 4619.6509 19
-2739.4438 1412.4634 4631.7808 19
-2718.2869 1415.7355 4642.5107 19
-2692.792 1416.7922 4645.9761 19
-2669.9546 1419.2833 4654.145 19
-2645.2227 1420.8091 4659.1479 19
-2620.0662 1422.1364 4663.5005 19
-2595.9038 1424.0372 4669.7339 19
-2578.0652 1429.4855 4687.6001 19
-2556.6384 1433.0413 4699.2603 19
-2531.885 1434.7902 4704.9951 19
-2507.6404 1436.8694 4711.8135 19
-2481.7349 1438.0331 4715.6294 19
-2475.3298 1450.6514 4757.0078 19
-2435.4241 1443.7014 4734.2173 19
-2390.9917 1433.875 4701.9941 19
-2365.2754 1435.1731 4706.251 19
-2338.3132 1435.7372 4708.1006 19
-2312.5 1437.0288 4712.3364 19
-2287.0457 1438.5779 4717.416 19
-2267.0286 1443.6274 4733.9746 19
-2243.0908 1446.276 4742.6597 19
-2215.6379 1446.6963 4744.0381 19
-2178.1111 1440.4651 4723.6045 19
-2149.4094 1439.984 4722.0269 19
-2125.3503 1442.6416 4730.7422 19
-2093.8086 1440.2233 4722.8115 19
-2066.2522 1440.5179 4723.7778 19
-2039.0542 1441.074 4725.6011 19
-2007.8746 1438.7924 4718.1191 19
-1979.95 1438.8115 4718.1821 19
-1955.0354 1441.0503 4725.5234 19
-1927.5155 1441.4055 4726.6885 19
-1898.4298 1440.5831 4723.9917 19
-1869.2811 1439.6877 4721.0552 19
-1843.8121 1441.6421 4727.4644 19
-1814.0618 1440.2576 4722.9243 19
-1806.4769 1456.7035 4776.854 19
-1763.0543 1444.3143 4736.2271 19
-1738.3937 1447.1428 4745.5024 19
-1711.6991 1448.3433 4749.439 19
-1684.2383 1448.9249 4751.3462 19
-1731.6471 1515.03 4968.1196 19
-1632.8236 1453.2694 4765.5928 19
-1596.2576 1445.7219 4740.8428 19
-1567.9683 1445.5343 4740.2275 19
-1539.6039 1445.2693 4739.3589 19
-1515.8357 1449.3894 4752.8691 19
-1487.8164 1449.5234 4753.3091 19
-1459.6837 1449.5503 4753.397 19
-1432.2601 1450.2961 4755.8428 19
-1404.9512 1451.1904 4758.7754 19
-1387.7823 1462.8097 4796.8774 19
-1350.5569 1453.3317 4765.7969 19
-1318.5265 1449.1588 4752.1133 19
-1288.7152 1447.2959 4746.0044 19
-1260.7169 1447.4316 4746.4492 19
-1233.6375 1448.6525 4750.4526 19
-1206.8175 1450.2421 4755.6655 19
-1180.9612 1453.0933 4765.0151 19
-1153.8065 1454.4475 4769.4561 19
-1125.7223 1454.6688 4770.1816 19
-1100.448 1458.6257 4783.1572 19
-1074.5802 1461.9845 4794.1714 19
-1048.4244 1465.123 4804.4634 19
-1021.527 1467.3716 4811.8369 19
-994.26965 1469.2174 4817.8896 19
-966.64612 1470.6149 4822.4727 19
-942.67706 1477.827 4846.1226 19
-916.75983 1482.342 4860.9282 19
-889.8501 1485.4929 4871.2607 19
-862.06573 1487.3462 4877.3379 19
-834.29083 1489.3446 4883.8916 19
-806.55591 1491.5608 4891.1587 18
-778.68335 1493.678 4898.1016 18
-750.85468 1496.0466 4905.8687 18
-725.23828 1503.1913 4929.2979 18
-698.67133 1508.8828 4947.9614 18
-669.24927 1508.6365 4947.1538 18
-639.45123 1507.4813 4943.3657 18
-611.22766 1510.1052 4951.9702 19
-580.99945 1507.7914 4944.3823 19
-551.2179 1506.4526 4939.9922 19
-521.38831 1504.8247 4934.6543 19
-491.83392 1503.8453 4931.4424 19
-462.73911 1504.2358 4932.7231 19
-432.0397 1499.1115 4915.9189 19
-403.14542 1499.9624 4918.7095 19
-373.83493 1499.2769 4916.4614 19
-343.80704 1495.3552 4903.6016 19
-314.8772 1495.9263 4905.4741 19
-285.7403 1495.5298 4904.1738 19
-256.8638 1496.5607 4907.5547 19
-227.66225 1495.7191 4904.7949 19
-198.04422 1491.4948 4890.9424 19
-169.03142 1491.1617 4889.8501 19
-140.02782 1490.7888 4888.6274 19
-111.007 1489.9907 4886.0103 19
-82.433189 1496.7454 4908.1602 19
-53.330551 1496.0276 4905.8062 19
-24.260668 1495.6097 4904.436 19
4.7767081 1490.1151 4886.418 19
33.739731 1490.7681 4888.5591 19
62.663094 1489.8748 4885.6299 19
91.630363 1490.2601 4886.8936 19
120.32894 1487.1396 4876.6606 19
149.83012 1493.2264 4896.6206 19
178.65543 1491.6953 4891.5996 19
207.28819 1489.2081 4883.4438 18
236.65173 1491.9375 4892.394 18
264.8707 1487.6426 4878.3101 18
294.29218 1490.2823 4886.9663 18
321.34677 1481.5369 4858.2881 18
347.54651 1470.6119 4822.4629 18
375.37817 1467.7274 4813.0039 18
402.24924 1461.7595 4793.4336 18
428.89236 1455.8051 4773.9077 18
455.70282 1451.12 4758.5444 18
481.80219 1444.8484 4737.9785 18
507.60327 1438.4221 4716.9053 18
511.66504 1374.2771 4506.5596 18
532.28552 1358.7634 4455.6865 18
555.14697 1350.1658 4427.4932 18
580.54657 1348.2384 4421.1729 18
609.55127 1354.4885 4441.6685 17
636.55341 1355.9556 4446.479 17
662.95612 1356.0798 4446.8867 17
688.8219 1355.1383 4443.7993 16
709.41449 1344.2738 4408.1724 16
735.67743 1344.5443 4409.0591 16
760.47302 1342.2063 4401.3921 14
772.90375 1318.9232 4325.042 14
801.64685 1324.0775 4341.9438 65549
814.26306 1303.1027 4273.1626 196617
811.14783 1258.9761 4128.4619 327682
808.89008 1218.7245 3996.468 3877670
828.54889 1212.8441 3977.1848 8547933
858.18396 1221.4885 4005.532 9402724
881.11676 1220.3848 4001.9124 9468260
910.96484 1228.666 4029.0684 9599331
931.12341 1223.7892 4013.0762 9599331
963.59363 1234.9337 4049.6216 9204317
986.97266 1234.1686 4047.1125 9664869
1010.2599 1233.3276 4044.355 9533540
1034.4838 1233.6428 4045.3884 9796711
1060.6709 1236.2317 4053.8782 9598563
1085.406 1237.0511 4056.5654 9533026
1117.4126 1245.9432 4085.7241 9401441
1127.0776 1230.0747 4033.6877 9795943
1156.1246 1235.5792 4051.7383 9861992
1178.1537 1233.5121 4044.9597 9599076
1201.1713 1232.5417 4041.7778 9598820
1231.9319 1239.3992 4064.2649 9795686
1240.3315 1223.9286 4013.5334 9795686
1267.2936 1227.0122 4023.6453 10058601
1291.781 1227.6305 4025.6726 9861735
1317.9941 1229.8364 4032.9065 9795942
1343.6969 1231.4961 4038.3489 9730406
1362.4958 1226.8811 4023.2153 9532514
1384.0835 1224.8927 4016.6948 9729636
1416.8037 1232.6572 4042.1565 9664099
1432.0935 1225.2506 4017.8687 9532514
1450.4567 1220.6729 4002.8569 9729892
1474.6256 1221.0497 4004.0928 9861478
1497.0452 1219.989 4000.6147 9927272
1516.0253 1216.202 3988.1963 9861478
1537.8003 1214.7393 3983.3994 9795685
1566.2395 1218.5051 3995.7488 9795685
1592.1055 1220.1866 4001.2629 9598307
1616.326 1220.5767 4002.5417 9861222
1641.0735 1221.3473 4005.0686 9729892
1668.0537 1223.7339 4012.895 9532769
1695.0193 1226.043 4020.4668 9664099
1709.6158 1219.4653 3998.8972 9532769
1738.4146 1223.0593 4010.6826 9729891
1765.6392 1225.4637 4018.5674 9729891
1781.9773 1220.3489 4001.7947 9795683
1815.8157 1227.1957 4024.2471 9664354
1840.0551 1227.4618 4025.1196 9598817
1849.0923 1217.7097 3993.1401 9532766
1852.6798 1204.6605 3950.3489 7690824
1859.1292 1193.7744 3914.6514 786432
1896.7599 1202.932 3944.6809 1179648
1876.8732 1175.8329 3855.8169 1048576
1850.7074 1145.4989 3756.3452 983040
1865.4093 1140.8804 3741.2 3678744
1878.8328 1135.5977 3723.877 7952957
1869.7664 1117.0021 3662.8975 9465173
1916.968 1132.062 3712.2827 8741193
1935.1823 1129.8562 3705.0491 11175535
1963.2954 1133.4144 3716.7175 12097142
1961.3789 1119.75 3671.9084 13149568
1990.1157 1123.6931 3684.8391 13149308
2012.4071 1123.9509 3685.6843 12755057
2017.3275 1114.6055 3655.0386 12886639
2076.0046 1134.8445 3721.4067 13875837
2093.9224 1132.6112 3714.0835 13612664
2113.8066 1131.4771 3710.3643 12755048
2146.8191 1137.3212 3729.5283 12755051
2148.7715 1126.7592 3694.8933 11043669
2198.9951 1141.467 3743.1238 10912601
2212.7512 1137.1405 3728.936 9991259
2359.4854 1200.5619 3936.9087 9794141
2368.3806 1193.2925 3913.0708 9531229
2411.0171 1202.9995 3944.9021 9070681
2450.3135 1210.8695 3970.71 9202523
2467.5002 1207.7679 3960.5391 8873299
2480.2783 1202.5872 3943.55 8939349
2499.7141 1200.701 3937.3652 9860193
2528.3433 1203.225 3945.6416 10847345
2574.5876 1214.0088 3981.0039 12624012
2585.5786 1208.1243 3961.7078 12361356
2601.8218 1204.7778 3950.7339 12163978
2579.8411 1183.9493 3882.4326 13151388
2568.0583 1168.1277 3830.5498 12691356
2570.0237 1158.7819 3799.9026 8416101
2581.2649 1153.7444 3783.3838 6903637
2571.3127 1139.4025 3736.3533 6969688
2569.2886 1128.7883 3701.5474 8745584
2587.5339 1127.1837 3696.2856 9798267
2615.094 1129.6298 3704.3066 7758167
2603.644 1115.3242 3657.3958 10125942
2633.8401 1118.9476 3669.2773 12034450
2624.936 1106.0365 3626.939 12626588
2649.7961 1107.4463 3631.5623 11638922
2733.9067 1133.397 3716.6602 10453877
2768.9399 1138.7494 3734.2119 9137246
2871.0774 1171.3955 3841.2656 8018508
2871.1196 1162.2009 3811.1147 8347471
2916.6636 1171.4248 3841.3621 8544592
2995.2515 1193.6747 3914.324 9005652
2988.7524 1181.9341 3875.8242 8874577
3050.366 1197.103 3925.5664 9466198
3092.2922 1204.3746 3949.4116 11835519
3102.2449 1199.1776 3932.3694 12954259
3091.7781 1186.2238 3889.8909 13283482
3102.751 1181.6265 3874.8152 13677727
3108.6196 1175.1672 3853.6338 13480605
3116.4944 1169.5547 3835.2295 13282973
3103.0105 1156.0663 3790.9978 12558737
3172.9177 1173.6169 3848.55 10914170
3201.5945 1175.775 3855.6274 9071970
3210.1379 1170.5613 3838.5303 8545886
3279.5295 1187.4529 3893.9216 8809829
3273.9824 1177.1641 3860.1824 8875110
3284.27 1172.672 3845.4517 9005664
3329.394 1180.5946 3871.4316 9071713
3295.1853 1160.4703 3805.4395 8808795
3327.8137 1163.9974 3817.0059 8677209
3380.5508 1174.463 3851.325 8545366
3392.1565 1170.5945 3838.6392 8150862
3426.7395 1174.6538 3851.9504 8282448
3481.6074 1185.567 3887.7373 9006425
3461.3147 1170.9109 3839.6768 9795683
3456.6016 1161.6821 3809.4136 12230277
3493.5532 1166.4849 3825.1626 12098945
3502.5344 1161.9467 3810.2808 11638393
3507.8828 1156.269 3791.6628 11571573
3558.9492 1165.6375 3822.3838 10782060
3555.7883 1157.239 3794.8435 10716267
3547.4863 1147.2833 3762.1965 11045233
3563.8835 1145.39 3755.988 11900543
3619.927 1156.1831 3791.3809 12755852
0 0 0 0
0 0 0 0
0 0 0 0
0 0 0 0
0 0 0 0
-4038.655 1386.6523 4460.4873 270
-3907.158 1350.3387 4343.6763 270
-3924.894 1365.4614 4392.3223 270
-4172.8237 1461.4044 4700.9448 270
-3884.2119 1369.4667 4405.2061 270
-3977.8118 1411.9542 4541.877 270
-4151.1978 1483.5339 4772.1294 14
-4107.3823 1477.9408 4754.1377 14
-3995.9287 1447.7644 4657.0684 14
-4054.7463 1479.2881 4758.4717 14
-4017.73 1476.0455 4748.0415 14
-3947.2891 1460.3911 4697.6851 14
-3809.145 1419.2881 4565.4678 14
-3681.6682 1381.6003 4444.2363 14
-3848.134 1454.4705 4678.6401 14
-3825.5029 1456.4067 4684.8687 14
-3577.5605 1371.9664 4413.2466 14
-3552.1809 1372.2621 4414.1978 14
-3474.7961 1352.3226 4350.0581 14
-3507.2378 1375.1472 4423.4785 14
-3529.3647 1394.2406 4484.8965 14
-3530.9226 1405.4363 4520.9102 14
-3478.3154 1395.0785 4487.5923 14
-3413.5229 1379.6365 4437.9194 14
-3392.0042 1381.5803 4444.1724 14
-3380.4524 1387.6461 4463.6841 14
-3346.8635 1384.6899 4454.1748 14
-3328.7261 1388.1305 4465.2422 15
-3287.9751 1382.1202 4445.9087 16
-3266.7527 1384.2883 4452.8828 13
-3240.6702 1384.4153 4453.2915 14
-3217.9609 1385.9972 4458.3799 15
-3210.5859 1394.2646 4484.9741 16
-3162.4976 1384.8418 4454.6636 16
-3142.1562 1387.5129 4463.2559 16
-3115.7046 1387.5084 4463.2412 16
-3097.2241 1391.084 4474.7427 16
-3074.5002 1392.799 4480.2593 16
-3051.0635 1394.2179 4484.8237 18
-3028.0591 1395.8611 4490.1094 18
-3001.0889 1395.6891 4489.5562 18
-2983.7354 1400.0265 4503.5083 18
-2958.8503 1400.8761 4506.2417 18
-2933.0725 1401.3149 4507.6528 19
-2900.4817 1398.4767 4498.5229 19
-2872.8716 1398.0095 4497.0205 19
-2859.0459 1404.3043 4517.269 19
-2833.5874 1404.9503 4519.3472 19
-2795.3799 1399.2271 4500.937 19
-2764.719 1397.2075 4494.4404 19
-2739.1599 1397.752 4496.1919 19
-2719.2183 1401.2018 4507.2891 19
-2691.854 1400.8573 4506.1807 19
-2677.032 1407.0983 4526.2563 19
-2659.8186 1412.1958 4542.6538 19
-2633.7761 1412.6621 4544.1538 19
-2614.9946 1417.0726 4558.3413 19
-2593.4822 1420.08 4568.0151 19
-2571.1829 1422.7152 4576.4922 19
-2544.1619 1422.7662 4576.6562 19
-2517.6062 1423.0814 4577.6699 19
-2495.6687 1426.0421 4587.1938 19
-2472.7488 1428.5009 4595.1025 19
-2444.7722 1428.0603 4593.6855 19
-2426.9709 1433.6204 4611.5708 19
-2399.0569 1433.2655 4610.4292 19
-2369.7327 1432.0502 4606.52 19
-2343.1606 1432.4893 4607.9321 19
-2302.1953 1424.0354 4580.7388 19
-2296.5691 1437.4999 4624.0503 19
-2272.313 1439.4877 4630.4443 19
-2246.5234 1440.5408 4633.832 19
-2218.9163 1440.4399 4633.5073 19
-2192.78 1441.3035 4636.2852 18
-2166.3064 1441.9644 4638.4111 18
-2142.7683 1444.6212 4646.9575 19
-2115.6055 1444.8717 4647.7632 19
-2092.45 1447.9016 4657.5098 19
-2047.0442 1435.4106 4617.3296 19
-2032.1433 1444.2611 4645.7993 19
-2006.4701 1445.5936 4650.0859 19
-1975.7034 1443.2426 4642.5229 19
-1948.1412 1443.199 4642.3828 19
-1911.2805 1436.1671 4619.7632 19
-1884.998 1436.995 4622.4263 19
-1862.9188 1441.099 4635.6274 19
-1833.2437 1439.3617 4630.0391 19
-1810.812 1443.3452 4642.853 19
-1789.1268 1448.0558 4658.0059 19
-1756.5696 1443.9767 4644.8843 19
-1728.3391 1443.3812 4642.9688 19
-1699.5961 1442.3314 4639.5918 19
-1676.2098 1445.8677 4650.9673 19
-1647.9886 1445.2821 4649.0835 19
-1620.0623 1444.9396 4647.9814 19
-1595.9891 1448.0812 4658.0874 19
-1566.4906 1446.3241 4652.4355 19
-1538.5166 1445.9371 4651.1904 19
-1507.9108 1443.0172 4641.7979 19
-1480.1177 1442.7305 4640.876 19
-1452.8905 1442.9951 4641.7271 19
-1425.8049 1443.4133 4643.0723 19
-1399.4391 1444.5909 4646.8604 19
-1372.7125 1445.4359 4649.5786 19
-1347.4082 1447.8438 4657.3237 19
-1319.863 1447.8942 4657.4858 19
-1294.0206 1449.8544 4663.7915 19
-1266.5029 1449.9822 4664.2026 19
-1236.6178 1447.345 4655.7192 19
-1211.8256 1450.684 4666.46 19
-1183.9478 1450.3989 4665.543 19
-1157.0518 1451.3319 4668.5439 19
-1130.08 1452.213 4671.3784 19
-1102.2559 1452.0159 4670.7441 19
-1076.5839 1454.7163 4679.4307 19
-1051.8104 1458.8057 4692.5854 19
-1026.1833 1461.9012 4702.543 19
-1000.8893 1465.6571 4714.6245 19
-974.25604 1467.6113 4720.9106 19
-947.05292 1468.7971 4724.7251 19
-920.07806 1470.42 4729.9453 19
-896.56104 1477.8445 4753.8281 19
-871.28143 1482.7511 4769.6113 19
-844.8988 1486.0466 4780.2119 19
-820.45227 1493.094 4802.8813 19
-793.31628 1495.5774 4810.8701 18
-767.73383 1501.2841 4829.2266 18
-739.35303 1501.7483 4830.7202 18
-711.77783 1503.9524 4837.8101 18
-683.81763 1505.4938 4842.7681 18
-655.47015 1506.28 4845.2974 18
-626.34442 1505.2679 4842.042 18
-597.66705 1505.2881 4842.1064 19
-568.62463 1504.3444 4839.0713 19
-539.30817 1502.5371 4833.2573 19
-510.78119 1502.8499 4834.2637 19
-481.06586 1499.4958 4823.4746 19
-452.23386 1498.6453 4820.7388 19
-422.37064 1494.0325 4805.9004 19
-394.23087 1495.2898 4809.9448 19
-366.12219 1496.8701 4815.0283 19
-337.14221 1494.8541 4808.5435 19
-307.74197 1490.4307 4794.3145 19
-279.87271 1493.2764 4803.4683 19
-251.25905 1492.345 4800.4722 19
-222.80353 1492.2347 4800.1177 19
-194.29076 1491.653 4798.2461 19
-166.11002 1493.8578 4805.3384 19
-136.99367 1486.8201 4782.7002 19
-108.6283 1486.3881 4781.3105 19
-80.429291 1488.7306 4788.8457 19
-52.060818 1488.78 4789.0049 19
-23.676331 1487.942 4786.3091 19
4.6740723 1486.4238 4781.4253 19
33.007057 1486.7273 4782.4019 19
61.29768 1485.7238 4779.1733 19
89.755379 1488.1244 4786.8955 19
118.09203 1487.8472 4786.0039 19
146.49596 1488.3608 4787.6562 19
174.87038 1488.4565 4787.9644 19
203.05331 1487.1234 4783.6758 18
230.98074 1484.4746 4775.1553 18
259.54868 1486.0712 4780.291 18
286.93842 1481.2714 4764.8511 18
315.02472 1480.605 4762.7075 18
341.37054 1472.5405 4736.7666 18
368.00177 1466.8387 4718.4258 18
394.23666 1460.474 4697.9517 18
420.23596 1454.1332 4677.5552 18
446.09137 1448.1099 4658.1797 18
472.75424 1445.2568 4649.0024 18
498.1402 1439.0292 4628.9697 18
501.83829 1374.0686 4420.0088 18
519.99536 1353.1772 4352.8071 18
542.09839 1344.0435 4323.4263 18
567.50055 1343.5444 4321.8208 18
600.67291 1360.6899 4376.9736 17
624.43402 1355.9799 4361.8223 18
646.33856 1347.7727 4335.4219 18
671.25226 1346.2277 4330.4521 16
694.94666 1342.4412 4318.272 16
716.9231 1335.7228 4296.6606 16
740.75818 1332.8092 4287.2886 15
765.72339 1332.0548 4284.8618 15
788.47803 1327.6267 4270.6177 13
809.72827 1321.0195 4249.3643 65547
813.28601 1286.8171 4139.3442 262151
812.17395 1247.4442 4012.6924 524289
820.39062 1224.2317 3938.0239 3680032
838.88202 1217.2112 3915.4407 8416093
868.99097 1226.9719 3946.8386 9468263
895.414 1231.1533 3960.2891 9468002
915.2724 1226.3256 3944.7593 9533538
936.53613 1223.5741 3935.9087 9467746
960.64081 1224.578 3939.1379 9336161
984.05627 1224.6764 3939.4546 9599076
1008.772 1226.3511 3944.8416 9730919
1030.9122 1224.8898 3940.1409 9796712
1054.6605 1225.3615 3941.6582 9994090
1081.2996 1229.0986 3953.6797 10059883
1098.5045 1222.181 3931.4275 9927528
1124.1973 1224.7981 3939.8459 9993321
1147.6565 1224.9248 3940.2534 9861992
1164.5948 1218.2253 3918.7029 9664356
1191.3947 1221.9016 3930.5286 9861735
1217.2036 1224.4403 3938.6948 9796198
1241.6963 1225.5841 3942.3743 9532514
1260.3236 1221.0034 3927.6394 9269341
1291.9061 1228.9124 3953.0803 9729890
1309.8748 1223.8201 3936.7 9861476
1340.4352 1230.4648 3958.0742 9664099
1353.4871 1221.0851 3927.9023 9795687
1377.0729 1221.3655 3928.804 9729637
1394.8007 1216.5272 3913.2405 9729892
1422.7053 1220.578 3926.271 10585202
1439.6687 1215.2628 3909.1733 9598307
1462.5554 1215.0366 3908.446 9664100
1481.0909 1211.2593 3896.2949 9664100
1489.9281 1199.788 3859.3948 9664100
1511.3881 1198.6744 3855.813 9466721
1549.1586 1210.3374 3893.3296 9466721
1570.8669 1209.2931 3889.9702 9400928
1596.274 1211.0851 3895.7346 9598050
1623.7512 1214.3743 3906.3152 9532768
1639.7194 1209.0845 3889.2996 9203804
1671.1661 1215.1967 3908.9607 9466721
1694.5609 1215.3668 3909.5078 9466462
1721.1187 1217.7703 3917.2393 9203033
1741.1194 1215.5322 3910.04 9597793
1761.2269 1213.4265 3903.2664 9663585
1775.6863 1207.5343 3884.3127 9466722
1806.657 1212.8776 3901.5007 9532517
1785.7129 1183.6737 3807.5598 9072224
1847.6449 1209.4482 3890.4695 9598826
1791.985 1158.5616 3726.7812 4140583
1850.7305 1181.9794 3802.1096 1969673
1856.2815 1171.2695 3767.6587 1838344
1848.2452 1152.3428 3706.7766 1245184
1850.9156 1140.4574 3668.5444 1245696
1852.0234 1127.8964 3628.1389 8479306
1871.4769 1126.668 3624.1875 12031347
1893.0555 1126.7324 3624.3948 11439204
1932.8077 1137.4906 3659.0012 12293486
1960.4951 1140.9888 3670.2539 13543806
1972.3148 1135.2766 3651.8794 13214837
2008.2083 1143.3951 3677.9944 12491109
2032.5233 1144.8177 3682.5706 12886123
2062.7974 1149.5309 3697.7317 13544566
2098.8816 1157.3488 3722.8796 13676409
2121.2026 1157.4939 3723.3462 12952688
2143.1838 1157.4525 3723.2131 13017973
2133.2837 1140.3693 3668.2612 11899495
2160.0798 1143.0493 3676.8823 12820858
2185.6829 1145.0508 3683.3203 9004877
2267.2717 1176.053 3783.0459 9334617
2324.8496 1194.1155 3841.1482 9531485
2347.1787 1193.8984 3840.4502 9728868
2375.7922 1196.8514 3849.949 9597281
2389.0422 1192.0822 3834.6074 9992038
2417.4983 1194.9188 3843.7324 9926244
2452.2209 1200.771 3862.5574 9531485
2446.0208 1186.6619 3817.1719 9859935
2520.7869 1211.7313 3897.8135 9202521
2513.1304 1197.0851 3850.7004 6176050
2526.7144 1192.7288 3836.6873 10060921
2578.1445 1206.1561 3879.8794 11377043
2559.2341 1186.7288 3817.3872 11904161
2557.1025 1175.3541 3780.7981 11772320
2546.2229 1160.191 3732.0225 9206907
2530.4993 1143.1008 3677.0479 9470337
2567.7144 1150.0121 3699.2793 11246999
2572.0503 1142.2054 3674.1675 9733507
2566.1648 1130.0286 3634.9978 8812146
2595.0813 1133.2523 3645.3677 5192757
2590.0408 1121.7162 3608.2593 9404534
2613.4026 1122.5691 3611.0029 11641229
2613.592 1113.5355 3581.9441 12233366
2651.7922 1120.7117 3605.0281 11969423
2704.5281 1133.8672 3647.3457 9863019
2726.6084 1134.0638 3647.978 10191214
2772.1616 1143.9434 3679.7581 10650996
2822.5413 1155.645 3717.3992 9070679
2886.562 1172.7074 3772.2839 8611413
2905.8425 1171.4707 3768.3062 8414035
2938.3083 1175.5281 3781.3574 8611416
2967.4438 1178.2017 3789.9578 8742999
3016.1052 1188.5297 3823.1799 9071449
3044.0999 1190.6202 3829.905 9268570
3045.0981 1182.1991 3802.8167 11636605
3041.1919 1172.0117 3770.0461 12294793
3063.2122 1171.8914 3769.6592 13018258
3053.1804 1159.5996 3730.1199 13084564
3068.4451 1157.0228 3721.8311 13807773
3086.5732 1155.5551 3717.1096 13610908
3070.8198 1141.5131 3671.9404 13150357
3044.0603 1123.6063 3614.3391 11703169
3135.6489 1149.3285 3697.0806 10255213
3178.1677 1156.8328 3721.22 9399907
3203.4246 1157.9937 3724.9541 9202786
3221.9583 1156.725 3720.873 8808541
3252.3083 1159.687 3730.4009 8611163
3258.5229 1154.0609 3712.3035 8610905
3270.4016 1150.5031 3700.8586 8216404
3324.2056 1161.6432 3736.6936 8610906
3330.5903 1156.1749 3719.1038 8743002
3328.3733 1147.8123 3692.2031 8873818
3370.9036 1154.8894 3714.9685 8676437
3429.3464 1167.2911 3754.8613 9860709
3474.0554 1174.8884 3779.2998 10782065
3473.3328 1167.1222 3754.3179 11571324
3490.7966 1165.5269 3749.1865 11571833
3539.0806 1174.1772 3777.0125 11703419
3557.3262 1172.8156 3772.6321 11439994
3562.7715 1167.2771 3754.8164 11374201
3594.1704 1170.2578 3764.4043 9860706
0 0 0 0
0 0 0 0
0 0 0 0
0 0 0 0
0 0 0 0
-3849.7888 1346.9954 4251.8945 270
-3843.6279 1353.697 4273.0488 270
-3852.812 1365.9276 4311.6558 270
