# .PCD v0.7 - Point Cloud Data file format
VERSION 0.7
FIELDS x y z rgb
SIZE 4 4 4 4
TYPE F F F U
COUNT 1 1 1 1
WIDTH 1349
HEIGHT 1
VIEWPOINT 0 0 0 1 0 0 0
POINTS 1349
DATA ascii
1100.7296 1114.8564 7688.8618 9335651
1158.2596 1126.5076 7769.2163 8941149
1185.8157 1109.2299 7650.0571 9467493
1235.9949 1113.6073 7680.2476 9599076
1290.075 1121.0637 7731.6719 9664870
1336.2446 1121.3704 7733.7871 9928042
1383.272 1122.3527 7740.562 9796199
1429.4227 1122.5835 7742.1533 9401698
1487.0958 1131.5676 7804.1147 9072990
1523.4857 1124.3033 7754.0151 9336162
1583.0963 1134.0992 7821.5742 5981494
1571.5543 1093.8151 7543.7451 11507072
1578.9808 1068.5959 7369.8159 10651761
1659.432 1092.8246 7536.9146 10849140
1687.1304 1081.9532 7461.938 11112057
1721.4729 1075.7893 7419.4268 8875611
1831.1501 1115.8386 7695.6353 7295807
1913.0996 1137.4561 7844.7256 9467489
1947.5101 1130.4537 7796.4321 9796968
1947.1687 1104.071 7614.478 9204833
1979.9447 1097.236 7567.3379 9468518
1989.3959 1078.0636 7435.1118 10981758
2007.288 1064.1969 7339.4771 9797486
2127.2424 1103.8811 7613.1685 10652795
2189.606 1112.6526 7673.6621 10323315
2239.9075 1115.0625 7690.2832 9993579
2291.5583 1118.0347 7710.7812 12362384
2372.6899 1134.9929 7827.7378 12823189
2398.6184 1125.4005 7761.5815 13613217
2405.447 1107.3761 7637.272 13020823
2449.96 1107.0453 7634.9907 9927782
2494.4314 1106.7081 7632.6655 9730403
2535.6453 1104.9635 7620.6328 9532768
2611.8506 1118.2614 7712.3442 9203549
2652.4985 1116.1398 7697.7129 9269087
2708.8623 1120.5913 7728.4136 9598821
2679.3838 1089.974 7517.2549 9532769
2828.2324 1131.7157 7805.1353 10257263
2856.5552 1124.6617 7756.4858 10256748
2870.1069 1112.1075 7669.9033 12033672
2912.8511 1111.0797 7662.8154 12296846
2894.2539 1087.0447 7497.0522 4796709
2846.03 1052.777 7260.7163 3809294
2820.9136 1027.95 7089.4912 2757126
2842.165 1020.5001 7038.1118 14272167
2875.5195 1017.5485 7017.7554 14077603
2911.5103 1015.6006 7004.3218 12818804
3058.2766 1051.8057 7254.0181 12095860
3092.7583 1048.9253 7234.1528 11897715
3166.8411 1059.371 7306.1938 11372145
3236.3115 1068.0129 7365.7949 9464922
3394.2532 1105.2328 7622.4902 9926756
3498.9253 1124.3575 7754.3887 11769218
3532.0222 1120.2843 7726.2964 12559503
3515.7683 1100.8627 7592.3506 12493453
3485.0298 1077.4534 7430.9033 11835779
3611.8088 1102.7198 7605.1592 11771785
3562.1377 1074.1554 7408.1577 14012084
3558.5872 1060.0247 7310.7021 14011054
3600.3308 1059.5635 7307.522 12821631
3728.5833 1084.2703 7477.917 11243106
3806.7283 1093.9965 7544.9966 11177053
3878.2515 1101.6161 7597.5469 10387280
3860.3198 1083.9427 7475.6587 12493426
3990.4592 1107.7756 7640.0283 12558966
3997.8481 1097.3801 7568.3325 12032634
4059.5002 1101.9446 7599.8125 11637624
4187.1484 1124.1271 7752.7993 11308921
4155.1948 1103.4447 7610.1582 11637889
4162.2114 1093.4441 7541.1865 12164492
4206.1245 1093.2458 7539.8193 11047039
4379.5874 1126.3702 7768.2695 10981245
4372.6309 1112.8867 7675.2773 11968137
4385.5728 1104.6932 7618.769 10980983
4386.209 1093.5984 7542.251 11112054
4373.8032 1079.5084 7445.0762 11639168
4420.1802 1080.0634 7448.9033 9730404
4425.6387 1070.7076 7384.3794 9467491
4607.4521 1103.7834 7612.4951 9269603
4619.6089 1095.9684 7558.5967 9204067
4619.2632 1085.3657 7485.4727 9006690
4733.6714 1101.6714 7597.9287 8414297
4845.4707 1117.0685 7704.1182 9006692
4825.1104 1101.9948 7600.1582 9006691
4874.4526 1102.9716 7606.895 9072737
4981.0596 1116.7695 7702.0557 9401188
5004.9067 1111.9303 7668.6812 9532259
5009.0659 1102.8435 7606.0117 9795173
5188.5703 1132.1802 7808.3394 8873554
5245.0493 1134.3907 7823.5845 10387292
5254.9033 1126.5668 7769.625 11768677
5095.9482 1083.0031 7469.1782 12558190
5167.1777 1088.6877 7508.3833 11571036
4975.7407 1039.4056 7168.4985 11440480
4831.5449 1000.7426 6901.8496 10716760
4802.6548 986.41089 6803.0078 9730382
4772.6187 972.08441 6704.2021 9007700
4807.021 971.01086 6696.7979 12232853
4970.6753 995.84973 6868.105 10457226
5036.5527 1000.8553 6902.627 6774109
5163.2207 1017.7631 7019.2358 5461595
5302.7183 1036.9095 7151.2832 5989486
5294.2002 1027.0385 7083.2051 8031125
5294.0654 1018.9361 7027.3252 9873327
5351.1328 1021.8838 7047.6548 12109772
5308.6631 1005.9247 6937.5898 12767440
5292.9321 995.23889 6863.8921 12963789
5287.7446 986.68311 6804.8857 13160139
5308.1914 983.00409 6779.5122 13685455
5568.3799 1023.4438 7058.4136 13356237
5744.9521 1048.0269 7227.9561 11447726
5725.6191 1036.7723 7150.3374 10197657
5613.3071 1008.9706 6958.5962 5395023
5563.022 992.64209 6845.9824 4671813
5777.667 1023.4807 7058.6685 6711649
5855.2261 1029.7667 7102.0215 5066305
5977.3306 1043.7413 7198.4009 4474678
5972.7759 1035.558 7141.9619 7435103
5981.2285 1029.7289 7101.7607 7895909
6002.5542 1026.1821 7077.2993 7896422
6009.3281 1020.2141 7036.1392 7962215
6043.9194 1019.0183 7027.8921 7830372
6059.1387 1014.595 6997.3862 7962214
6156.5532 1023.9018 7061.5728 8028007
6281.9673 1037.7083 7156.7915 8948854
6258.0171 1026.8217 7081.71 8685937
6282.4341 1023.9634 7061.9971 8225130
6248.5864 1011.7094 6977.4844 7435871
6274.7407 1009.2673 6960.6426 6712148
6304.1655 1007.3799 6947.6255 8093801
6430.1138 1020.841 7040.4629 8554352
6503.271 1025.8014 7074.6738 8093800
6486.6152 1016.6223 7011.3682 8620402
6622.5586 1031.3241 7112.7622 8356973
6626.4746 1025.4095 7071.9712 8356973
6700.3315 1030.3243 7105.8672 8291180
6706.1426 1024.7794 7067.6255 8093801
6711.4653 1019.2292 7029.3472 7172700
0 0 0 0
0 0 0 0
0 0 0 0
0 0 0 0
-6200.6982 1026.8385 6803.8359 270
-6171.0791 1028.62 6815.6406 270
-6147.7759 1031.4847 6834.6221 270
-6077.5239 1026.4581 6801.3159 270
-6030.2949 1025.2787 6793.5015 270
-6063.4526 1037.8428 6876.751 270
-6024.147 1038.0898 6878.3882 270
-5971.5 1036.0258 6864.7109 270
-5933.27 1036.4515 6867.5327 270
-5855.1377 1029.8649 6823.8896 14
-5771.4014 1022.194 6773.0625 14
-5791.895 1033.0056 6844.7002 14
-5794.5674 1040.7688 6896.1387 14
-5748.3037 1039.7903 6889.6553 14
-5709.9985 1040.2478 6892.686 11
-5548.7651 1018.1553 6746.3018 12
-5475.7725 1012.0514 6705.8569 12
-5396.0625 1004.6075 6656.5342 11
-5377.9517 1008.6068 6683.0332 15
-5364.1421 1013.4779 6715.3096 14
-5344.481 1017.3081 6740.688 14
-5331.2529 1022.4296 6774.6235 14
-5294.1021 1023.0061 6778.4434 14
-5256.2031 1023.4459 6781.3569 14
-5132.4565 1007.0479 6672.7041 14
-5059.8462 1000.507 6629.3638 14
-5053.3682 1007.0427 6672.6689 16
-5042.4209 1012.7836 6710.7085 18
-4973.2388 1006.8262 6671.2354 277
-4935.1377 1007.1162 6673.1567 278
-4813.8345 990.29456 6561.6963 281
-4793.3779 994.11407 6587.0039 537
-4785.7183 1000.672 6630.457 283
-4762.4487 1004.0475 6652.8232 539
-4717.3716 1002.8432 6644.8438 540
-4716.4839 1011.092 6699.5 542
-4722.3145 1020.933 6764.707 544
-4719.2749 1029.0085 6818.2153 544
-4619.6025 1015.9715 6731.8315 546
-4527.1157 1004.3012 6654.5044 546
-4439.7842 993.57977 6583.4639 292
-4423.7827 998.77264 6617.8716 800
-4375.438 996.69092 6604.0781 540
-4362.3022 1002.6642 6643.6572 536
-4354.3213 1009.9419 6691.8799 275
-4306.8457 1008.1087 6679.7329 273
-4273.6201 1009.6082 6689.6685 272
-4249.7886 1013.3757 6714.6313 272
-4267.7012 1027.2623 6806.6445 272
-4227.8896 1027.387 6807.4702 272
-4219.8857 1035.3176 6860.019 16
-4169.9331 1033.0106 6844.7329 16
-4164.2393 1041.7302 6902.5093 16
-4139.5664 1045.8279 6929.6602 16
-4108.5415 1048.3868 6946.6157 18
-4005.7292 1032.494 6841.3096 18
-3995.7852 1040.458 6894.0796 18
-3996.7129 1051.4467 6966.8906 18
-3968.2959 1054.8643 6989.5352 18
-3928.8823 1055.3999 6993.0845 17
-3896.8564 1057.9526 7009.999 16
-3865.3091 1060.6917 7028.1479 16
-3830.9648 1062.7146 7041.5513 16
-3800.8765 1065.9756 7063.1587 16
-3786.9043 1073.8793 7115.5283 16
-3735.6279 1071.2632 7098.1948 16
-3687.5234 1069.5076 7086.562 16
-3631.8542 1065.4923 7059.9565 16
-3579.3276 1062.316 7038.9106 16
-3534.907 1061.499 7033.4976 16
-3476.0127 1056.2644 6998.813 16
-3456.6646 1063.0656 7043.877 16
-3426.4299 1066.6439 7067.5874 18
-3393.9587 1069.606 7087.2139 18
-3359.1636 1071.9006 7102.4185 18
-3313.0383 1070.5923 7093.749 18
-3253.571 1064.8834 7055.9219 18
-3209.0398 1063.978 7049.9233 19
-3170.4341 1065.0396 7056.9565 19
-3143.168 1069.9894 7089.7549 19
-3099.2688 1069.3347 7085.4165 19
-3056.5315 1069.0682 7083.6509 19
-3010.4092 1067.594 7073.8828 19
-2971.6746 1068.735 7081.4429 19
-2941.1392 1072.8997 7109.0381 19
-2906.2725 1075.5824 7126.814 19
-2859.616 1073.9167 7115.7769 19
-2830.7986 1079.0007 7149.4634 22
-2791.8652 1080.3247 7158.2363 21
-2751.5908 1081.1627 7163.7886 21
-2712.1914 1082.3761 7171.8286 18
-2667.0388 1081.2957 7164.6694 18
-2627.4219 1082.4607 7172.3896 19
-2586.7314 1083.2147 7177.3857 19
-2553.7363 1087.2701 7204.2563 19
-2516.4617 1089.6106 7219.7642 19
-2455.5874 1081.6365 7166.9287 20
-2425.9141 1087.3673 7204.9004 19
-2379.1963 1085.5266 7192.7041 21
-2334.1021 1084.3729 7185.0601 21
-2292.5049 1084.8314 7188.0981 21
-2273.7195 1096.3062 7264.1299 21
-2224.1292 1093.0841 7242.7803 21
-2183.7092 1094.3309 7251.042 21
-2144.4175 1096.2045 7263.4561 21
-2104.9609 1098.0688 7275.8091 21
-2065.8225 1100.1804 7289.8008 21
-2028.1818 1103.197 7309.7881 21
-1987.7806 1104.8109 7320.4819 21
-1958.006 1112.5347 7371.6602 21
-1919.0668 1115.2849 7389.8828 21
-1877.9799 1116.886 7400.4922 21
-1827.1769 1112.6475 7372.4067 21
-1786.8412 1114.7312 7386.2139 21
-1747.1526 1117.3334 7403.4556 21
-1706.8514 1119.6676 7418.9229 21
-1673.9073 1127.0792 7468.0317 21
-1634.351 1130.3199 7489.5049 21
-1592.915 1132.4054 7503.3232 21
-1544.551 1129.5441 7484.3643 21
-1501.9685 1130.8667 7493.1274 21
-1460.174 1132.8811 7506.4751 21
-1419.9108 1136.2476 7528.7812 21
-1378.3309 1138.7446 7545.3267 21
-1343.4878 1147.1611 7601.0952 21
-1289.1158 1138.9082 7546.4111 21
-1246.8628 1141.1538 7561.2905 21
-1204.7229 1143.6743 7577.9907 21
-1160.9866 1144.8157 7585.5532 21
-1116.2952 1145.069 7587.2324 21
-1074.076 1147.9863 7606.562 23
-1040.6381 1160.9552 7692.4946 23
-989.2027 1154.1145 7647.168 23
-944.82068 1155.2413 7654.6343 22
-901.76349 1158.1832 7674.1274 20
-858.04114 1160.538 7689.7295 21
-812.31073 1160.2883 7688.0757 21
-769.34601 1164.1943 7713.9565 21
-725.86469 1167.7625 7737.5991 21
-681.61035 1170.4841 7755.6333 21
-637.23895 1173.3837 7774.8457 21
-594.59253 1180.1591 7819.7388 21
-550.82062 1185.6565 7856.165 21
-504.26764 1185.6299 7855.9893 21
-456.58115 1182.6619 7836.3232 21
-412.94662 1190.7057 7889.6211 21
-366.13107 1190.4597 7887.9912 21
-317.69171 1184.0896 7845.7827 21
-271.12326 1183.7042 7843.2295 21
-224.69623 1183.9047 7844.5576 21
-178.46008 1185.4775 7854.9795 21
-131.89005 1185.1598 7852.874 21
-85.608795 1188.5049 7875.0386 21
-38.97945 1189.2422 7879.9243 19
7.6638083 1183.191 7839.8286 19
53.825981 1177.0082 7798.8613 19
100.3475 1180.7653 7823.7559 19
146.93257 1182.6598 7836.3091 19
192.60539 1178.0648 7805.8628 18
238.18436 1174.7861 7784.1382 18
284.75455 1176.6672 7796.6021 19
331.36084 1178.1515 7806.4365 65551
375.24756 1170.7869 7757.6392 65551
419.82019 1166.9363 7732.1245 196621
461.56424 1156.7542 7664.6582 393222
0 0 0 0
0 0 0 0
601.82184 1164.5641 7716.4072 8941152
620.94757 1116.7469 7399.5698 9664361
667.4389 1121.2063 7429.1177 9664105
722.70685 1138.9453 7546.6567 9796461
741.94794 1101.1489 7296.2178 9730669
788.04871 1105.1827 7322.9458 9993841
826.86066 1099.1069 7282.687 9928046
869.42603 1098.3756 7277.8418 9730667
923.2616 1111.2786 7363.3369 9665644
965.0152 1109.1311 7349.1074 9797230
1007.9114 1108.4255 7344.4326 9731434
1045.6256 1102.3156 7303.9478 9928044
1089.0992 1102.5214 7305.3115 9796202
1132.589 1102.7272 7306.6753 9599333
1177.5042 1104.2545 7316.7959 9467747
1230.9146 1113.3575 7377.1118 9665126
1272.2903 1111.3241 7363.6387 9599333
1323.7644 1117.9539 7407.5674 9335648
1363.9062 1114.8948 7387.2979 9467747
1404.4976 1112.3821 7370.6484 9533283
1442.9836 1108.4036 7344.2871 9401954
1446.455 1078.5493 7146.4731 8546388
1491.1162 1080.2329 7157.6284 9665125
1602.1479 1128.5758 7477.9478 9072987
1606.4149 1101.1339 7296.1182 9204573
1665.4122 1111.6626 7365.8818 9138267
1684.4393 1095.6549 7259.8145 8612180
1679.9626 1065.5366 7060.2505 8810072
1754.0425 1085.4967 7192.5063 9204574
1816.6334 1097.5688 7272.4956 9336674
1861.3542 1098.5348 7278.897 9797228
1877.4236 1082.9305 7175.5024 9928814
1871.1372 1055.4076 6993.1353 9600105
1921.1556 1060.1475 7024.5415 10126449
1974.6388 1066.5579 7067.0171 10916734
2027.3955 1072.3177 7105.1821 11113599
2071.0291 1073.1162 7110.4727 10586998
2120.5354 1076.8651 7135.313 9796967
2181.134 1085.9902 7195.7764 10388847
2230.1963 1089.1318 7216.5923 12757651
2292.2568 1098.3835 7277.8945 13349787
2331.7859 1096.6967 7266.7168 13415065
2352.4805 1086.373 7198.3125 11967361
2421.9531 1098.5416 7278.9419 8875349
2469.2852 1100.4178 7291.3735 9401952
2560.8972 1121.6232 7431.8804 9664356
2586.4658 1113.6749 7379.2153 8941403
2637.7817 1116.8929 7400.5371 8875610
2706.8687 1127.4072 7470.2051 8744023
2743.9543 1124.469 7450.7373 8415058
2810.5225 1133.5146 7510.6733 8809816
2791.2722 1108.2062 7342.979 8480593
2798.0627 1093.8547 7247.8862 8151883
2826.0386 1088.0938 7209.7144 8217675
2838.342 1076.5602 7133.2925 7230005
2804.9814 1048.299 6946.0337 11967869
2814.5334 1036.6606 6868.918 13881253
2858.105 1037.7058 6875.8433 12753018
2948.3259 1055.4208 6993.2227 11503982
3027.386 1068.7048 7081.2432 11241070
3101.4714 1079.8937 7155.3804 10452584
3181.1399 1092.6985 7240.2251 8413773
3253.9946 1102.8533 7307.5107 8545876
3298.3799 1103.2194 7309.936 8809047
3343.9536 1103.9679 7314.8965 8414546
3314.3877 1080.2084 7157.4658 8151116
3353.1768 1079.0457 7149.7612 9138011
3427.9238 1089.3389 7217.9639 10455153
3475.3999 1090.8188 7227.77 13745059
3513.575 1089.3788 7218.229 13811111
3489.5647 1068.925 7082.7021 12295555
3581.0056 1083.9022 7181.9404 10191207
3611.5393 1080.3085 7158.1289 8874835
3645.176 1077.7157 7140.9492 8611407
3688.4609 1078.0022 7142.8477 9203544
3686.7979 1065.2946 7058.6465 9795681
3757.4902 1073.5446 7113.3105 9993318
3868.679 1093.0531 7242.5752 10322028
3935.2717 1099.672 7286.4316 10782836
3924.5645 1084.7809 7187.7632 9598562
3881.5527 1061.3761 7032.6826 7953737
3903.238 1055.9713 6996.8706 7230269
3986.3989 1067.1368 7070.853 7493441
4042.3928 1070.8733 7095.6113 11177591
4151.7729 1088.5298 7212.6035 11046263
4203.7695 1090.9348 7228.5391 10848886
4234.2295 1087.7588 7207.4941 9599077
4248.9053 1080.6316 7160.27 9731432
4313.3354 1086.1743 7196.9961 8809549
4281.1587 1067.5194 7073.3887 9599578
4321.563 1067.149 7070.9341 9862493
4405.8403 1077.5156 7139.623 10388325
4358.9346 1055.9071 6996.4453 12362368
4366.4941 1047.7751 6942.563 8611928
4644.4263 1104.0676 7315.5576 8349274
4654.9141 1096.3306 7264.291 7823443
4694.6665 1095.5645 7259.2148 7494222
4879.6265 1128.3909 7476.7231 11244160
4819.5952 1104.4832 7318.3101 9729893
4866.6006 1105.3123 7323.8037 9663841
5046.9966 1136.1547 7528.166 8873294
4883.8257 1089.7925 7220.9692 6045994
4837.3564 1070.0502 7090.1577 10388055
4796.9287 1051.973 6970.3779 10387283
4888.6948 1062.947 7043.0918 10518874
4748.6641 1023.7624 6783.4541 9597773
4739.8232 1013.2813 6714.0063 8742465
4684.6079 993.14319 6580.5713 8151108
4810.4648 1011.4081 6701.5947 11837061
4785.9116 998.00903 6612.8125 10982526
4920.0659 1017.6541 6742.981 12627097
4978.8374 1021.5165 6768.5728 13481633
5231.6875 1064.8182 7055.4907 8085847
5376.915 1085.7026 7193.8706 9664630
5404.2808 1082.6472 7173.625 8218216
5261.7051 1045.8604 6929.875 5851212
5202.2324 1026.0334 6798.502 4537661
5225.5117 1022.7068 6776.4604 4209470
5238.8179 1017.4943 6741.9214 9473943
5325.1572 1026.4376 6801.1807 8816014
5356.7363 1024.7709 6790.1367 10132386
5338.8311 1013.7328 6716.9985 12632264
5414.8169 1020.5543 6762.1978 14146008
5429.002 1015.7132 6730.1206 14014421
5366.0503 996.61646 6603.585 13750737
5469.582 1008.4927 6682.2769 13553357
5480.4473 1003.2349 6647.4385 13355978
5524.6035 1004.1027 6653.189 13553101
5718.686 1032.0145 6838.1333 12040375
5870.6597 1051.988 6970.478 10132635
5902.1685 1050.2468 6958.9399 6908781
5893.2734 1041.3899 6900.2544 6316129
5785.2764 1015.2636 6727.1411 6579557
5818.0776 1014.0345 6718.9971 6184539
5957.21 1031.2286 6832.9258 6776928
6153.0444 1057.9399 7009.915 8224372
6103.5898 1042.4015 6906.957 5198145
6099.0449 1034.6888 6855.8525 5658695
6105.9917 1029.0148 6818.2563 6777429
6186.7778 1035.7772 6863.0649 7895909
6192.7378 1030.0061 6824.8247 7567201
6280.0317 1037.7498 6876.1348 8619887
6308.3345 1035.7085 6862.6094 7764579
6258.8931 1021.0112 6765.2241 5659203
6313.6807 1023.3952 6781.021 5330238
6209.8003 1000.1931 6627.2842 8093544
6264.2812 1002.629 6643.4243 8554095
6312.249 1003.9986 6652.4995 8817267
6258.5435 989.27991 6554.9727 8949109
0 0 0 0
0 0 0 0
0 0 0 0
0 0 0 0
-6048.4839 1040.9497 6636.8159 270
-6017.4297 1042.3812 6645.9429 270
-6002.1968 1046.5903 6672.7788 270
-5953.1997 1044.9287 6662.1855 270
-5929.3706 1047.6921 6679.8042 14
-5894.8457 1048.59 6685.5288 14
-5837.1943 1045.3584 6664.9248 14
-5797.7852 1045.3721 6665.0117 270
-5757.1807 1045.1687 6663.7158 270
-5724.4199 1046.3966 6671.5439 14
-5696.4644 1048.5259 6685.1196 14
-5663.3662 1049.7318 6692.8086 14
-5612.4331 1047.6256 6679.3799 14
-5596.4653 1052.0625 6707.6685 14
-5524.8125 1046.02 6669.1436 12
-5421.1685 1033.7899 6591.167 12
-5307.52 1019.4606 6499.8076 12
-5313.3862 1028.046 6554.5454 12
-5321.3872 1037.1738 6612.7422 12
-5282.8882 1037.3065 6613.5884 12
-5259.5825 1040.4469 6633.6104 11
-5235.3057 1043.4409 6652.6997 13
-5182.3394 1040.719 6635.3452 13
-5125.9873 1037.2703 6613.3569 13
-5055.9922 1030.9865 6573.293 14
-4990.2319 1025.4753 6538.1558 14
-4963.1895 1027.8966 6553.5928 16
-4926.0269 1028.2435 6555.8052 273
-4882.0776 1027.1682 6548.9492 275
-4835.3467 1025.4857 6538.2217 277
-4741.1304 1013.6239 6462.5942 279
-4740.231 1021.6819 6513.9702 535
-4701.8149 1021.7198 6514.2114 537
-4682.4282 1025.9276 6541.0396 536
-4619.7466 1020.6406 6507.3311 539
-4629.9404 1031.5004 6576.5698 540
-4643.2363 1043.2415 6651.4277 540
-4618.6201 1046.5925 6672.7935 540
-4565.394 1043.4624 6652.8364 542
-4506.9692 1039.0792 6624.8906 541
-4444.5073 1033.6801 6590.4668 541
-4379.6899 1027.6326 6551.9097 539
-4356.0552 1031.2263 6574.8223 534
-4315.6094 1030.8691 6572.5454 277
-4292.7158 1034.7365 6597.2021 530
-4270.0918 1038.7404 6622.73 273
-4228.0029 1038.0396 6618.2617 273
-4208.7847 1042.9934 6649.8457 273
-4160.5605 1040.7847 6635.7637 273
-4141.4897 1045.8964 6668.355 273
-4120.3848 1050.5879 6698.2666 17
-4086.187 1051.9998 6707.2686 16
-4055.4502 1054.3392 6722.1841 16
-4023.6348 1056.4419 6735.5903 16
-3987.5366 1057.4509 6742.0239 18
-3960.9243 1061.0215 6764.7881 18
-3951.2261 1069.2419 6817.1997 18
-3890.5032 1063.6819 6781.7505 18
-3864.6667 1067.6436 6807.0088 18
-3824.9199 1067.8053 6808.04 16
-3787.0786 1068.5082 6812.5215 16
-3753.2021 1070.3567 6824.3076 16
-3716.3098 1071.3762 6830.8076 16
-3707.6992 1080.6614 6890.0073 16
-3667.5852 1080.8689 6891.3301 16
-3629.3171 1081.6311 6896.1899 16
-3593.3472 1083.1034 6905.5771 16
-3539.3083 1079.1006 6880.0562 16
-3503.7832 1080.7151 6890.3491 16
-3464.8948 1081.3179 6894.1924 16
-3412.8965 1077.7948 6871.731 16
-3369.363 1076.8925 6865.9771 17
-3327.2275 1076.42 6862.9658 18
-3289.1233 1077.2565 6868.2983 18
-3250.7007 1078.0081 6873.0903 18
-3229.5605 1084.5828 6915.0088 18
-3164.8091 1076.4923 6863.4268 18
-3126.0864 1077.16 6867.6836 19
-3102.7441 1083.215 6906.2881 19
-3062.6248 1083.4962 6908.0815 19
-3012.8606 1080.3267 6887.8735 19
-2971.1826 1080.0095 6885.8511 19
-2938.2126 1082.8928 6904.2344 19
-2892.6035 1081.1337 6893.0186 19
-2867.804 1087.2131 6931.7798 19
-2831.7288 1089.1326 6944.0171 19
-2805.5942 1094.9882 6981.3511 19
-2752.3267 1090.2708 6951.2744 19
-2712.4197 1090.7832 6954.541 19
-2674.2288 1092.012 6962.3755 19
-2635.4841 1093.0497 6968.9922 19
-2595.7954 1093.7227 6973.2827 19
-2558.6038 1095.4866 6984.5283 19
-2522.9346 1097.9709 7000.3687 19
-2482.4761 1098.4193 7003.2271 20
-2443.7595 1099.6669 7011.1807 20
-2418.3562 1107.0516 7058.2646 19
-2357.969 1098.4003 7003.1055 19
-2321.5391 1100.7986 7018.396 21
-2282.0469 1101.8059 7024.8188 21
-2235.4067 1099.3354 7009.0679 21
-2209.2551 1107.0381 7058.1782 21
-2170.1775 1108.4359 7067.0898 21
-2121.3496 1104.8107 7043.9761 21
-2081.4512 1105.7837 7050.1802 21
-2041.3751 1106.7003 7056.0239 21
-2004.6321 1109.5 7073.8745 21
-1966.3895 1111.5715 7087.082 21
-1940.3984 1120.8102 7145.9854 21
-1903.3815 1123.9501 7166.0049 21
-1862.9429 1125.1669 7173.7627 21
-1824.564 1127.7134 7189.998 21
-1784.677 1129.4272 7200.9253 21
-1736.5875 1125.907 7178.481 21
-1694.2905 1126.0599 7179.4561 21
-1657.3329 1129.8605 7203.6875 21
-1627.4948 1138.8441 7260.9644 21
-1586.7681 1140.4893 7271.4536 21
-1547.2875 1143.1469 7288.3979 21
-1506.4285 1144.9094 7299.6353 21
-1459.656 1142.149 7282.0361 21
-1418.4586 1143.7157 7292.0244 21
-1378.9536 1146.7883 7311.6147 21
-1346.3864 1156.017 7370.4541 21
-1305.8075 1158.7549 7387.9102 21
-1255.4652 1152.7184 7349.4229 21
-1210.918 1151.7599 7343.312 21
-1167.8983 1152.2372 7346.3555 21
-1127.8778 1155.8248 7369.2295 21
-1089.4768 1161.428 7404.9531 21
-1045.8628 1161.7108 7406.7568 22
-1011.3635 1172.5862 7476.0947 23
-968.55029 1174.3768 7487.5112 23
-919.32745 1168.1947 7448.0957 22
-875.15125 1168.1252 7447.6533 21
-833.43671 1171.5087 7469.2256 21
-789.65576 1172.2041 7473.6587 21
-744.74139 1171.1996 7467.2544 21
-710.49597 1187.906 7573.7705 21
-666.06256 1188.683 7578.7241 21
-623.74255 1193.6166 7610.1787 21
-579.44293 1195.2352 7620.4995 21
-533.89734 1194.3405 7614.7939 21
-488.00101 1192.4233 7602.5718 21
-445.45615 1199.1383 7645.3843 21
-400.51773 1200.2008 7652.1587 21
-356.66827 1205.2144 7684.123 21
-307.81229 1192.3021 7601.7983 21
-262.76382 1192.24 7601.4023 21
-218.80559 1198.1219 7638.9038 21
-173.22498 1195.8712 7624.5547 21
-127.91683 1194.5774 7616.3047 21
-82.68293 1192.9441 7605.8921 20
-37.760445 1197.2736 7633.4951 19
7.4407015 1193.8391 7611.5977 19
52.390202 1190.5819 7590.8311 19
97.317383 1190.0607 7587.5078 19
141.5515 1184.0714 7549.3218 19
185.99339 1182.2789 7537.8936 19
229.92001 1178.5392 7514.0498 19
273.93552 1176.3944 7500.3755 19
318.98315 1178.6622 7514.834 18
365.31326 1184.533 7552.2642 15
405.90341 1172.5413 7475.8086 15
448.52756 1168.2067 7448.1729 65549
477.24155 1131.6641 7215.1865 262152
503.95203 1096.7688 6992.7041 590596
0 0 0 0
0 0 0 0
644.39801 1124.993 7172.6543 9665643
681.01489 1115.3701 7111.3008 9731436
723.89685 1116.5315 7118.7056 9731436
753.8891 1098.7786 7005.5176 9665644
796.84631 1100.7885 7018.332 9731437
837.76056 1099.9167 7012.7744 9468264
891.44861 1115.1061 7109.6172 9665385
915.83966 1093.9309 6974.6099 9205091
970.94031 1109.6816 7075.0322 9468261
1009.6689 1106.1917 7052.7812 9797483
1050.0226 1104.6887 7043.1987 9863019
1093.1681 1106.1255 7052.3594 10059373
1135.7042 1106.8625 7057.0586 9927787
1181.7216 1110.8198 7082.2891 9730409
1227.839 1114.5964 7106.3677 9335906
1294.1375 1135.8351 7241.7798 8020303
1326.3274 1126.735 7183.7603 9336163
1354.3486 1114.7697 7107.4722 9467749
1399.2227 1116.9791 7121.5591 9138271
1428.4597 1106.9418 7057.564 8677976
1470.8915 1107.4095 7060.5459 9072989
1518.5353 1111.6667 7087.6895 9270624
1554.2178 1107.1742 7059.0459 9007450
1599.3948 1109.5034 7073.8965 8020299
1638.8901 1107.8729 7063.5005 8809815
1669.8632 1100.7061 7017.8066 9204575
1713.2074 1101.8439 7025.061 9599333
1748.1187 1097.6328 6998.2119 9139039
1733.9371 1063.5057 6780.6274 8415829
1795.929 1076.5872 6864.0308 8679003
1775.6361 1040.8549 6636.2119 10455672
1816.5955 1041.7982 6642.2261 9008226
1890.1356 1060.9902 6764.5894 9534568
1938.2997 1065.4365 6792.9375 8218962
1977.2834 1064.7585 6788.6152 9205855
1984.5145 1047.3497 6677.6206 8613206
2013.9606 1042.1163 6644.2544 9007964
2120.0195 1075.9669 6860.0762 11442562
2144.3967 1067.8679 6808.4395 9008477
2213.1086 1081.7384 6896.8735 13219228
2251.5781 1080.5917 6889.563 14074794
2285.2017 1077.2017 6867.9492 13481372
2368.3291 1096.8572 6993.2671 10454638
2427.866 1105.0991 7045.8159 8545873
2497.6228 1117.6355 7125.7446 8940886
2528.1719 1112.5023 7093.0166 9598817
2559.5056 1107.8766 7063.5239 8809044
2599.4512 1107.0671 7058.3638 8875095
2659.23 1114.5964 7106.3682 8546386
2645.324 1091.4879 6959.0342 8480593
2692.6755 1093.9763 6974.8994 8415057
2734.4573 1094.1608 6976.0752 8744021
2793.5776 1101.1741 7020.7905 9599585
2797.8362 1086.6736 6928.3394 12559753
2817.1509 1078.3556 6875.3062 13941660
2845.1904 1073.5668 6844.7739 12822665
2911.6426 1083.2031 6906.2124 10717548
3007.0803 1103.2062 7033.7466 11046003
3081.3765 1115.0123 7109.0195 11835523
3140.636 1121.1323 7148.0391 10783092
3142.4219 1106.8458 7056.9517 8874842
3200.5303 1112.5122 7093.0796 8940891
3188.0762 1093.8219 6973.915 9269855
3209.5684 1087.1078 6931.1074 8940632
3231.0029 1080.5439 6889.2583 8874840
3250.2769 1073.4303 6843.9033 8874838
3326.1201 1084.9442 6917.3135 9730404
3335.0769 1074.6257 6851.5259 10454641
3453.5176 1099.4093 7009.5386 11179396
3445.0483 1083.6825 6909.269 11773075
3455.8474 1074.3152 6849.5454 10720388
3407.1965 1046.8986 6674.7441 12891295
3388.293 1029.1462 6561.5605 13745061
3480.6021 1045.1929 6663.8696 8347981
3557.7083 1056.3655 6735.103 7887944
3562.8586 1046.1617 6670.0474 8545362
3655.1394 1061.4856 6767.7471 5585707
3677.9041 1056.5076 6736.0093 2363403
3675.3179 1044.4326 6659.022 9732728
3634.6287 1021.901 6515.3667 12430756
3553.4976 988.59192 6302.9971 12232602
3720.1697 1024.1982 6530.0132 11573898
3817.2136 1040.0995 6631.3955 11177854
3902.9172 1052.6184 6711.2124 10980985
4067.2922 1085.8885 6923.334 10651762
4100.4517 1083.8121 6910.0952 10322795
4196.2529 1098.1702 7001.6382 9862243
4249.6743 1101.2649 7021.3696 9796192
4269.0093 1095.552 6984.9458 9993573
4213.9922 1071.051 6828.7344 10453611
4280.5918 1077.6331 6870.6992 10980470
4425.9219 1103.7244 7037.0508 8875096
4400.7383 1087.2035 6931.7183 8677720
4469.335 1093.9423 6974.6826 7230275
4476.4766 1085.6534 6921.835 6572088
4602.0024 1105.9653 7051.3379 6966846
4545.7905 1082.629 6902.5522 7360836
4661.1362 1100.2028 7014.5981 5717553
4650.5435 1088.0024 6936.812 1706497
4636.3579 1075.1827 6855.0767 5718057
4810.9092 1105.974 7051.3936 8347706
4775.4512 1088.3721 6939.1685 8874051
4682.145 1057.9989 6745.5176 8873796
4679.7881 1048.5173 6685.0654 9531471
4648.3354 1032.7306 6584.4136 9860695
4692.938 1033.9633 6592.2725 9400144
4672.3662 1020.9347 6509.2061 9531733
4777.7769 1035.4219 6601.5723 11374451
4894.8247 1052.1754 6708.3882 12361349
5043.0762 1075.3124 6855.9028 12624521
5194.9053 1098.8364 7005.8862 11769219
5265.5605 1104.9535 7044.8872 10255469
5156.7637 1073.6134 6845.0708 9927019
5066.6909 1046.6301 6673.0332 9795947
4966.4829 1017.9874 6490.4146 8348759
4832.8159 982.97919 6267.2119 10849920
4785.8345 966.00201 6158.9697 11047813
4941.3506 989.8457 6310.9907 10850179
5009.5776 995.97693 6350.082 11903385
5156.749 1017.5952 6487.9141 12363174
5107.5181 1000.4237 6378.4331 8613232
5141.5947 999.70227 6373.8335 5061189
5164.4316 996.82178 6355.4683 4338239
5289.4932 1013.5714 6462.2588 7036783
5423.5693 1031.795 6578.4487 10196898
5460.4346 1031.3971 6575.9116 12171712
5463.8232 1024.7263 6533.3804 12961224
5451.9434 1015.306 6473.3188 13290186
5327.4834 985.198 6281.3584 13750480
5386.5015 989.20258 6306.8901 13619149
5718.4966 1042.9375 6649.4893 13882321
5813.3809 1052.9885 6713.5728 14079700
5723.3833 1029.6428 6564.7266 14211291
5824.79 1040.8136 6635.9482 13421774
5939.084 1054.1218 6720.7983 10526625
5966.1592 1051.8757 6706.4775 6250336
5930.5508 1038.6807 6622.3496 5526613
5833.4351 1014.9576 6471.0977 2500133
5842.2051 1009.8469 6438.5132 2763304
5841.2847 1003.1384 6395.7417 4145207
6070.645 1035.8082 6604.0356 6909021
6128.9365 1039.0579 6624.7539 8290670
6103.3135 1028.1302 6555.0825 8883059
6156.5835 1030.5466 6570.4893 8027751
6166.3188 1025.6914 6539.5332 8553839
6117.293 1011.1835 6447.0347 8093802
6060.1108 995.51569 6347.1411 8554353
0 0 0 0
0 0 0 0
0 0 0 0
0 0 0 0
-5912.8164 1056.0372 6487.9517 14
-5881.5024 1057.3176 6495.8179 14
-5843.9351 1057.4832 6496.8354 270
-5822.7129 1060.6283 6516.1582 270
-5783.0869 1060.4408 6515.0059 270
-5743.9785 1060.3463 6514.4258 270
-5701.5737 1059.6379 6510.0732 270
-5650.6353 1057.323 6495.8511 270
-5607.8223 1056.5072 6490.8394 270
-5588.6279 1060.1606 6513.2847 13
-5560.6826 1062.1931 6525.772 12
-5515.8745 1061.0106 6518.5068 12
-5478.9497 1061.3384 6520.5205 12
-5447.3428 1062.7084 6528.937 12
-5385.4062 1058.1387 6500.8623 12
-5329.3086 1054.6586 6479.4819 12
-5286.4424 1053.7655 6473.9951 12
-5261.8384 1056.5264 6490.9565 12
-5206.9385 1053.1998 6470.5195 12
-5162.0444 1051.8628 6462.3057 12
-5122.0479 1051.5112 6460.146 12
-5080.1421 1050.7595 6455.5273 12
-5033.1768 1048.9419 6444.3608 12
-4985.4976 1046.9467 6432.1025 12
-4956.8931 1048.9572 6444.4546 12
-4907.0576 1046.4712 6429.1816 14
-4881.1265 1049.084 6445.2334 16
-4796.2012 1038.9587 6383.0269 17
-4754.457 1038.1007 6377.7554 275
-4695.0352 1033.3383 6348.4966 19
-4642.8477 1030.1039 6328.626 277
-4603.6748 1029.728 6326.3164 277
-4606.373 1038.7882 6381.9795 279
-4585.6543 1042.6741 6405.853 278
-4557.0361 1044.8136 6418.9976 25
-4522.8462 1045.7008 6424.4482 27
-4529.8662 1056.2119 6489.0254 27
-4524.1855 1063.9163 6536.3579 26
-4491.7856 1065.416 6545.5723 25
-4445.4355 1063.6041 6534.4404 279
-4389.0176 1059.3306 6508.1855 278
-4330.0405 1054.358 6477.6357 277
-4271.1704 1049.3229 6446.7017 275
-4221.3433 1046.4386 6428.981 275
-4187.9907 1047.6228 6436.2568 274
-4159.8882 1050.1542 6451.8086 272
-4130.2925 1052.3521 6465.3115 272
-4120.0581 1059.5703 6509.6577 272
-4087.5513 1061.1431 6519.3203 272
-4058.7014 1063.7041 6535.0547 16
-4031.7917 1066.8278 6554.2456 16
-3996.8367 1067.8628 6560.6045 16
-3966.1455 1070.0685 6574.1553 16
-3915.1519 1066.786 6553.9893 16
-3884.2412 1068.9648 6567.3745 18
-3876.2649 1077.5631 6620.1997 18
-3834.1685 1076.7551 6615.2363 18
-3812.1252 1081.6204 6645.126 18
-3780.7798 1083.92 6659.2549 18
-3749.626 1086.3239 6674.0234 16
-3712.3506 1086.9863 6678.0938 16
-3671.1819 1086.5111 6675.1733 16
-3630.6287 1086.2096 6673.3208 16
-3614.323 1093.2356 6716.4868 16
-3575.9729 1093.676 6719.1924 16
-3534.8 1093.2532 6716.5947 16
-3496.2812 1093.651 6719.0391 16
-3462.3232 1095.5011 6730.4053 15
-3406.978 1090.5483 6699.9771 18
-3368.6897 1091.0031 6702.771 18
-3331.386 1091.7913 6707.6128 18
-3296.9766 1093.5586 6718.4707 18
-3261.1235 1094.8842 6726.6152 18
-3210.4812 1091.2159 6704.0786 19
-3168.5828 1090.465 6699.4653 19
-3135.9536 1092.9257 6714.582 19
-3089.551 1090.5874 6700.2168 19
-3042.3252 1087.894 6683.6694 19
-3019.6023 1094.007 6721.2256 19
-2978.9629 1093.7053 6719.373 19
-2945.2192 1095.9617 6733.2349 19
-2915.2859 1099.7173 6756.3081 19
-2886.7603 1104.1158 6783.3315 19
-2845.3904 1103.6567 6780.5107 19
-2795.6289 1099.8828 6757.3247 19
-2759.3831 1101.3939 6766.6089 19
-2733.2217 1107.0343 6801.2612 19
-2691.0129 1106.2465 6796.4209 19
-2641.3123 1102.3079 6772.2241 19
-2602.8069 1102.9923 6776.4282 19
-2561.5496 1102.5135 6773.4873 19
-2525.3513 1104.2317 6784.0435 19
-2489.2583 1106.0522 6795.228 19
-2459.7822 1110.921 6825.1401 19
-2421.9595 1112.1199 6832.5059 19
-2389.7991 1116.0037 6856.3667 19
-2350.6365 1116.6954 6860.6167 19
-2312.1775 1117.7517 6867.106 19
-2265.6919 1114.8961 6849.5615 21
-2218.5916 1111.6282 6829.4849 21
-2178.2654 1111.6963 6829.9028 21
-2158.9231 1122.6787 6897.376 21
-2116.6084 1121.9086 6892.644 21
-2075.1812 1121.5876 6890.6729 21
-2028.3484 1118.2737 6870.313 21
-1990.219 1119.7207 6879.2026 21
-1951.8448 1121.0876 6887.6006 21
-1913.1115 1122.3021 6895.0625 21
-1885.3362 1130.1383 6943.2051 21
-1847.9817 1132.454 6957.4316 21
-1811.1919 1135.229 6974.481 21
-1773.7833 1137.7369 6989.8882 21
-1737.1628 1140.8822 7009.2124 21
-1697.3486 1142.0327 7016.2808 21
-1652.5403 1139.7965 7002.542 21
-1614.2819 1142.0789 7016.5645 21
-1581.1948 1148.2374 7054.4004 21
-1543.3553 1151.1855 7072.5127 21
-1504.4668 1153.4939 7086.6938 21
-1467.5377 1157.4801 7111.1846 21
-1419.7815 1152.9099 7083.1069 21
-1379.7598 1154.5336 7093.0815 21
-1342.0106 1158.2203 7115.7319 21
-1307.6976 1165.2081 7158.6626 21
-1269.1915 1168.8027 7180.7466 21
-1227.1964 1169.3223 7183.939 21
-1180.1262 1164.8696 7156.5835 21
-1137.4781 1164.6129 7155.0059 21
-1101.7495 1171.6948 7198.5151 21
-1061.2079 1174.0225 7212.8149 21
-1020.9363 1176.8568 7230.2285 21
-982.36676 1181.9872 7261.748 21
-938.80316 1181.3035 7257.5474 21
-896.96167 1182.8251 7266.8955 21
-854.58099 1183.7533 7272.5981 21
-810.15747 1181.8 7260.5977 21
-768.23669 1183.4833 7270.9395 21
-723.09839 1180.1154 7250.2476 21
-685.60248 1189.5824 7308.4102 21
-643.08514 1191.0258 7317.2783 21
-602.36523 1196.2473 7349.3574 21
-559.19733 1197.0422 7354.2412 21
-515.96808 1197.829 7359.0752 21
-473.25464 1200.0692 7372.8379 21
-429.68488 1200.3724 7374.7012 21
-388.11969 1206.9784 7415.2861 21
-343.72653 1205.3538 7405.3042 21
-298.90091 1201.5151 7381.7212 21
-256.09647 1205.8779 7408.5249 21
-211.88728 1204.0629 7397.374 21
-167.80597 1202.2173 7386.0352 21
-123.83006 1200.0912 7372.9731 21
-79.999771 1197.8285 7359.0718 21
-36.4147 1198.2147 7361.4448 19
7.1959724 1198.1825 7361.2471 19
50.845772 1199.1284 7367.0576 19
94.399467 1197.981 7360.0083 19
137.93942 1197.4392 7356.6802 19
180.05457 1187.7587 7297.2061 19
223.36841 1188.2031 7299.9365 19
265.8934 1184.9877 7280.1821 19
309.22723 1185.7715 7284.9971 18
352.03674 1184.5989 7277.793 15
391.91144 1174.8843 7218.1094 16
432.05145 1167.7979 7174.5732 65552
472.91284 1163.7562 7149.7427 65550
509.48007 1150.6805 7069.4097 196619
527.85358 1101.6213 6768.0059 327684
0 0 0 0
625.69788 1133.6057 6964.5073 8745574
653.01947 1109.9161 6818.9668 9928815
692.34509 1108.201 6808.4297 9533800
731.43469 1106.3179 6796.8599 9730410
769.70618 1103.4583 6779.2915 9599849
805.30627 1097.2426 6741.104 9665641
858.40186 1114.3258 6846.0581 9599848
887.63855 1100.2926 6759.8433 9468263
921.65607 1093.1415 6715.9082 9402469
969.79962 1102.6432 6774.2842 9336420
1004.2574 1096.4478 6736.2212 9402469
1065.3981 1118.7446 6873.2065 9138270
1086.786 1099.1935 6753.0903 9139040
1144.4319 1116.4005 6858.8047 8810333
1167.6254 1099.9713 6757.8691 8942176
1212.3213 1104.2164 6783.9497 8809563
1268.1658 1118.0179 6868.7412 9731692
1308.1132 1117.3818 6864.8335 9402470
1347.8438 1116.6045 6860.0581 9139298
1386.6882 1115.1603 6851.1846 9336676
1419.0814 1108.7574 6811.8481 9270625
1466.8727 1114.407 6846.5566 9797224
1497.5453 1107.097 6801.647 9665638
1522.9791 1096.3988 6735.9204 9665895
1548.3604 1086.2101 6673.3237 9534309
1596.8663 1092.3472 6711.0283 9599845
1655.3708 1104.8594 6787.8999 9336929
1681.7534 1095.8474 6732.5332 9402724
1699.8165 1081.9575 6647.1978 9336931
1729.8159 1076.1221 6611.3467 11244672
1746.1272 1062.2183 6525.9258 10587257
1784.3325 1061.9469 6524.2593 10191984
1818.4038 1059.2791 6507.8687 10850170
1861.4504 1061.8418 6523.6133 8679514
1910.1438 1067.4558 6558.104 8547671
1950.2451 1068.1403 6562.3086 8810586
1982.3092 1064.4821 6539.834 8876891
2038.5579 1073.7019 6596.478 8942684
2081.9148 1075.9127 6610.0605 8744791
2139.3923 1085.2045 6667.146 10784628
2198.5908 1095.0166 6727.4287 13285019
2232.4341 1092.0758 6709.3613 13877668
2273.9307 1092.9163 6714.5249 13614236
2330.1873 1100.7001 6762.3457 11705472
2400.927 1114.9464 6849.8711 12231564
2367.0339 1080.9371 6640.9292 13020824
2359.218 1059.7538 6510.7856 8876377
2399.1274 1060.3452 6514.4189 8744791
2437.7827 1060.3723 6514.5854 8876377
2480.9534 1062.3322 6526.626 9205600
2582.5142 1088.8505 6689.5459 8744792
2610.4717 1084.0033 6659.7661 9073758
2678.8 1095.8148 6732.333 9270621
2724.8955 1098.3187 6747.7153 9731170
2735.1917 1086.5289 6675.2832 10125671
2758.2571 1080.0756 6635.6357 11837058
2794.749 1078.9871 6628.9487 12626319
2852.082 1085.8636 6671.1958 12627091
2782.9895 1045.0765 6420.6133 14010800
2721.8008 1008.3174 6194.7764 13814965
2731.3823 998.40497 6133.8779 14143682
2809.8601 1013.606 6227.2681 13615794
2781.439 990.35095 6084.3965 13085588
3006.8762 1056.9225 6493.3906 8809815
3091.2246 1072.8457 6591.2178 8348752
3118.9214 1068.9553 6567.3169 8414803
3185.3606 1078.2755 6624.5767 8876128
3224.9863 1078.4026 6625.3579 8152665
3210.3123 1060.5878 6515.9087 11048585
3259.0154 1063.8854 6536.168 11377553
3403.6321 1098.0481 6746.0532 11706262
3338.8872 1064.6597 6540.9253 11114123
3305.084 1041.7903 6400.4233 12363675
3329.7214 1037.6517 6374.9976 13547430
3433.9241 1058.123 6500.7666 12889240
3465.7585 1056.0884 6488.2661 11244415
3494.708 1053.2288 6470.6978 9928555
3448.9138 1028.1494 6316.6187 9336422
3457.9036 1019.7648 6265.1055 5059113
3421.9072 998.43237 6134.0464 11903379
3406.1191 983.38251 6041.585 13614766
3474.8064 992.78107 6099.3267 13811888
3549.5227 1003.691 6166.3535 13811889
3578.5344 1001.5865 6153.4243 12362644
3695.3486 1023.8514 6290.2129 12033418
3808.3962 1044.6387 6417.9224 12559759
3787.8528 1028.7332 6320.2046 12033413
3862.7703 1038.8113 6382.1216 11112309
3981.9358 1060.4784 6515.2368 11177848
4021.0874 1060.6244 6516.1343 11112055
4116.855 1075.559 6607.8877 10322797
4088.4795 1058.0846 6500.5303 9928297
4132.2217 1059.4259 6508.771 8613985
4078.7397 1036.0464 6365.1343 14275521
3922.3787 987.20203 6065.0508 13749949
3960.3242 987.70447 6068.1377 14013374
3990.0259 986.16052 6058.6519 14275260
4211.9175 1031.7214 6338.5635 12430482
4480.2788 1087.7594 6682.8428 10718063
4589.7622 1104.5801 6786.1831 11309428
4599.021 1097.1974 6740.8271 11769722
4631.4868 1095.431 6729.9751 10717033
4542.542 1065.2241 6544.3931 10058075
4557.415 1059.6676 6510.2559 8084541
4591.2988 1058.5875 6503.6206 8808266
4594.8174 1050.5825 6454.4404 9136975
4661.272 1056.981 6493.7505 9597527
4740.5815 1066.1658 6550.1787 10255455
4817.8506 1074.7463 6602.8945 12295295
4874.1455 1078.5474 6626.2471 11308150
4956.0127 1087.9011 6683.7134 10453099
4964.8672 1081.2067 6642.5845 10650226
5041.5439 1089.2709 6692.1289 11308924
4981.1914 1067.8339 6560.4272 11441024
4952.3271 1053.427 6471.9155 9729898
4907.1323 1035.7942 6363.5854 7297355
4765.7515 998.28229 6133.1245 10850427
4849.7466 1008.1903 6193.9956 10259318
4854.0654 1001.5104 6152.957 10192499
4834.9912 990.13953 6083.0977 9995637
4867.3374 989.38922 6078.4878 11179653
5145.2192 1038.1935 6378.3262 12297878
5189.5732 1039.509 6386.4082 12561052
5277.0791 1049.3865 6447.0923 10916229
5177.8276 1022.251 6280.3799 9073519
5357.0952 1050.0978 6451.4619 8678765
5341.7905 1039.6802 6387.46 8415855
5296.2573 1023.5671 6288.4658 7759727
5314.9409 1020.0032 6266.5703 6050140
5290.2021 1008.2133 6194.1367 5590875
5618.0405 1063.3173 6532.6782 9144727
5671.5093 1066.0933 6549.7329 10920370
5628.5669 1050.8319 6455.9722 11709882
5688.5244 1054.8579 6480.7065 10460070
5611.6328 1033.6232 6350.2471 9868188
5663.0278 1036.1436 6365.7314 8816011
5398.2495 981.16406 6027.9556 8289665
5374.4146 970.41241 5961.9009 9541014
5364.4092 962.28186 5911.9492 11843255
5451.9243 971.6369 5969.4233 12963536
5627.5015 996.46442 6121.9556 11713981
5878.9092 1034.3154 6354.5 9148053
5902.8848 1031.9257 6339.8184 6778736
6029.2505 1047.3525 6434.5962 3751230
5671.0928 978.9469 6014.334 1185303
5754.5229 987.14661 6064.71 2500649
5794.5444 987.84436 6068.9971 3619125
0 0 0 0
0 0 0 0
0 0 0 0
0 0 0 0
-5735.0688 1061.5719 6292.915 270
-5781.3521 1077.141 6385.207 270
-5748.7905 1078.1285 6391.0615 270
-5681.4229 1072.5583 6358.042 270
-5671.5015 1077.8312 6389.2983 270
-5651.6392 1081.2728 6409.7007 270
-5602.3936 1079.1014 6396.8286 270
-5576.0244 1081.3369 6410.0801 270
-5508.9775 1075.6605 6376.4307 14
-5461.4404 1073.7412 6365.0537 11
-5448.5562 1078.6555 6394.1855 12
-5644.2598 1125.2222 6670.2285 12
-5335.6704 1071.2024 6350.0034 12
-5317.5859 1075.152 6373.4165 12
-5196.187 1058.1199 6272.4512 12
-5114.481 1048.9833 6218.2905 12
-5170.585 1068.1842 6332.1118 12
-5140.6758 1069.7665 6341.4917 12
-5083.9189 1065.744 6317.647 12
-5018.7656 1059.8885 6282.9365 12
-4961.875 1055.7037 6258.1289 12
-4936.7949 1058.275 6273.3711 12
-4892.1592 1056.6614 6263.8057 12
-4854.0679 1056.4474 6262.5371 12
-4834.2007 1060.2269 6284.9419 11
-4802.1577 1061.3741 6291.7427 14
-4738.1943 1055.4291 6256.5005 16
-4684.9614 1051.7992 6234.9834 17
-4608.7407 1042.9099 6182.2876 274
-4579.9351 1044.6935 6192.8608 275
-4546.2622 1045.3868 6196.9712 277
-4509.3608 1045.343 6196.7109 277
-4495.1035 1050.5908 6227.8198 277
-4459.0928 1050.7992 6229.0552 279
-4434.3198 1053.6814 6246.1406 23
-4437.0708 1063.2072 6302.6089 278
-4455.4312 1076.667 6382.3975 278
-4425.0215 1078.4708 6393.0898 278
-4379.8203 1076.6696 6382.4126 22
-4373.5415 1084.4884 6428.7622 19
-4304.8398 1076.83 6383.3633 19
-4222.3169 1065.5477 6316.4834 274
-4161.4678 1059.5825 6281.1216 274
-4128.0396 1060.5542 6286.8818 274
-4093.6934 1061.3057 6291.3369 273
-4056.0098 1061.1978 6290.6973 272
-4032.0886 1064.7222 6311.5894 272
-4017.2458 1070.7321 6347.2158 272
-3985.1074 1072.2021 6355.9302 272
-3953.5671 1073.8628 6365.7739 16
-3924.2822 1076.1738 6379.4741 16
-3869.4243 1071.4486 6351.4634 16
-3845.1816 1075.1913 6373.6494 16
-3823.1055 1079.62 6399.9023 16
-3784.9829 1079.5608 6399.5513 16
-3777.3989 1088.2985 6451.3481 16
-3747.2915 1090.6595 6465.3438 16
-3720.3616 1094.0037 6485.1675 16
-3687.1169 1095.5413 6494.2827 15
-3653.1655 1096.899 6502.3315 16
-3621.4558 1098.9661 6514.5845 16
-3606.2065 1106.1266 6557.0312 16
-3568.0205 1106.3309 6558.2427 15
-3538.5684 1109.2778 6575.7119 17
-3500.4883 1109.5554 6577.3574 18
-3463.446 1110.172 6581.0127 18
-3423.4082 1109.8314 6578.9937 18
-3385.8152 1110.2848 6581.6812 18
-3342.2197 1108.7574 6572.627 18
-3298.814 1107.2577 6563.7368 18
-3263.832 1108.5835 6571.5962 18
-3225.9438 1108.9421 6573.7217 18
-3180.981 1106.8479 6561.3076 19
-3144.748 1107.7771 6566.8154 19
-3103.3992 1106.9048 6561.6445 19
-3059.7048 1105.1633 6551.3213 19
-3026.7959 1107.3226 6564.1216 19
-2972.0269 1101.4369 6529.2314 19
-2949.145 1107.369 6564.397 19
-2923.3459 1112.35 6593.9229 19
-2892.9717 1115.701 6613.7886 19
-2853.7681 1115.6925 6613.7378 19
-2817.8723 1116.9949 6621.458 19
-2780.104 1117.5813 6624.9341 19
-2736.4749 1115.7948 6614.3438 19
-2697.22 1115.7657 6614.1714 19
-2667.1152 1119.5769 6636.7637 19
-2624.1863 1118.0383 6627.6436 19
-2573.073 1112.913 6597.2612 19
-2535.4761 1113.566 6601.1323 19
-2496.4763 1113.6136 6601.4146 19
-2461.3796 1115.4315 6612.1909 19
-2434.7012 1121.1849 6646.2969 19
-2415.3589 1130.5614 6701.8789 19
-2365.8953 1125.9166 6674.3452 19
-2325.0579 1125.2888 6670.6235 19
-2287.8733 1126.4377 6677.4346 19
-2249.1877 1126.8751 6680.0273 19
-2213.5952 1128.9056 6692.064 21
-2171.491 1127.6287 6684.4946 21
-2132.9597 1128.1943 6687.8477 21
-2095.5129 1129.3657 6694.7915 21
-2064.7405 1134.2488 6723.7378 21
-2028.5958 1136.3149 6735.9854 21
-1988.9342 1136.4542 6736.8115 21
-1945.4097 1134.3469 6724.3193 21
-1905.8582 1134.5165 6725.3247 21
-1868.2634 1135.8831 6733.4253 21
-1838.9128 1142.4308 6772.2397 21
-1799.3003 1142.7533 6774.1514 21
-1763.327 1145.4545 6790.1646 21
-1728.1281 1148.7966 6809.9761 21
-1690.1549 1150.4103 6819.5415 21
-1652.8354 1152.5587 6832.2778 21
-1612.8591 1152.9159 6834.395 21
-1576.7579 1156.1328 6853.4648 21
-1539.5752 1158.7058 6868.7173 21
-1502.1791 1161.2535 6883.8198 21
-1464.5024 1163.7206 6898.4443 21
-1426.5697 1166.1199 6912.667 21
-1384.5253 1165.2007 6907.2183 21
-1343.8954 1165.4521 6908.709 21
-1305.0876 1167.3495 6919.9556 21
-1271.9449 1174.6012 6962.9434 21
-1232.3601 1176.1906 6972.3647 21
-1193.1145 1178.225 6984.4253 21
-1150.4829 1176.9419 6976.8188 21
-1111.9192 1179.8794 6994.2329 21
-1072.3203 1181.9038 7006.2329 21
-1031.6456 1182.8575 7011.8862 21
-992.35175 1185.541 7027.7939 21
-954.59705 1190.3788 7056.4717 21
-915.65991 1194.1176 7078.6353 21
-874.86212 1195.6725 7087.8525 21
-832.883 1195.6881 7087.9448 21
-791.42639 1196.4952 7092.73 21
-746.25378 1191.4602 7062.8828 21
-703.69202 1190.2429 7055.667 21
-662.10571 1190.6261 7057.938 21
-623.64923 1197.0685 7096.1279 21
-581.68726 1197.2273 7097.0693 21
-542.92383 1204.5067 7140.2212 21
-500.83728 1205.021 7143.27 21
-458.22507 1204.2488 7138.6919 21
-416.34204 1205.4305 7145.6978 21
-374.83105 1208.079 7161.3975 21
-333.92938 1213.618 7194.2324 21
-290.09607 1208.5643 7164.2749 21
-247.93428 1209.9358 7172.4038 21
-205.42578 1209.8323 7171.7905 21
-162.91861 1209.6847 7170.916 21
-120.31807 1208.4955 7163.8662 21
-77.903244 1208.8917 7166.2153 21
-35.311508 1204.2041 7138.4277 19
6.975913 1203.8173 7136.1338 19
49.276047 1204.4053 7139.6201 19
91.459 1202.9088 7130.7495 19
133.73868 1203.2284 7132.6436 19
175.40601 1199.208 7108.8105 19
216.80566 1195.2687 7085.4585 19
257.60504 1189.8346 7053.2461 19
298.53738 1186.4458 7033.1577 18
338.81384 1181.5999 7004.4312 18
378.29071 1175.3269 6967.2461 18
418.03021 1171.0242 6941.7393 18
455.07104 1160.6094 6880.0015 16
495.07935 1158.853 6869.5894 65552
522.56104 1130.269 6700.146 65550
568.78033 1143.3881 6777.9146 262155
600.55597 1127.6562 6684.6582 327685
0 0 0 0
664.07788 1101.6432 6530.4541 7561560
705.37274 1105.7299 6554.6792 9731950
740.08252 1099.606 6518.3774 9731688
778.74188 1099.6665 6518.7368 9928813
815.76672 1097.5226 6506.0273 9665897
857.79065 1101.9943 6532.5356 9665641
889.70001 1093.6467 6483.0522 9599848
929.0976 1094.8138 6489.9707 9731435
971.53625 1099.3295 6516.7383 9797483
1007.8778 1096.8643 6502.1255 9599077
1045.2357 1095.6461 6494.9043 9468261
1087.8357 1099.8142 6519.6123 9402725
1132.5684 1105.7788 6554.9697 9073760
1183.1647 1116.8829 6620.7944 9468518
1212.9272 1108.239 6569.5537 8941919
1259.4735 1114.9907 6609.5776 9205345
1299.304 1115.5693 6613.0078 8876381
1337.1973 1114.4995 6606.6655 7362886
1375.295 1113.656 6601.6655 7363142
1399.3561 1101.8071 6531.4263 8481365
1440.5903 1103.7537 6542.9653 8678999
1471.5797 1097.9546 6508.5884 9271136
1511.3292 1098.8206 6513.7222 9271135
1549.5509 1098.5603 6512.1792 9270879
1586.2645 1097.2694 6504.5273 9336672
1619.5911 1093.7526 6483.6797 9204831
1659.4272 1094.693 6489.2539 9139038
1701.9147 1097.3 6504.7085 8875610
1706.3839 1075.8224 6377.3906 9599590
1755.0818 1082.556 6417.3071 9797482
1804.7898 1089.6139 6459.1455 10126445
1811.7997 1071.1355 6349.6074 10323568
1825.2933 1057.1642 6266.7866 9929065
1857.597 1054.427 6250.5605 9271136
1887.0056 1050.1857 6225.418 9139806
1930.7651 1053.9406 6247.6763 8942171
1963.4293 1051.6115 6233.8701 8942426
2032.2703 1068.387 6333.314 8810840
2089.0884 1078.3483 6392.3638 10323565
2178.8777 1104.6709 6548.4028 11442556
2204.4282 1098.074 6509.2969 12625551
2244.8037 1098.9615 6514.5581 12099720
2214.7402 1065.918 6318.6782 12824730
2190.7634 1036.8535 6146.3862 14142912
2222.8855 1034.8561 6134.5454 14078144
2231.7625 1022.2754 6059.9683 10916472
2363.5674 1065.5095 6316.2573 8283984
2416.8032 1072.5288 6357.8667 9270622
2455.6472 1073.0438 6360.9194 9007964
2522.9224 1085.7791 6436.4131 9468771
2537.8218 1075.9299 6378.0283 9271136
2586.3101 1080.401 6404.5327 8942170
2652.9526 1092.2172 6474.5771 9007448
2705.1077 1097.8168 6507.772 8875859
2687.0125 1075.15 6373.4053 8744273
2749.6392 1084.963 6431.5762 11047030
2726.0471 1060.9523 6289.2417 12823956
2705.1711 1038.6318 6156.9277 11508614
2722.8794 1031.5223 6114.7832 13945273
2713.0745 1014.3132 6012.7695 13946820
2751.2041 1015.239 6018.2573 13947332
2834.9543 1032.7605 6122.123 9139555
2950.0647 1061.1193 6290.2319 8480851
3023.1687 1073.8496 6365.6963 8743512
3069.5925 1076.906 6383.8145 8941661
3124.3691 1082.7827 6418.6514 8744541
3191.5022 1092.749 6477.73 9139299
3105.3286 1050.611 6227.9395 9534054
3138.5059 1049.3677 6220.5693 10652535
3147.6914 1040.2246 6166.3696 10192240
3224.1194 1053.2582 6243.6318 10454639
3227.2649 1042.3278 6178.8369 10849396
3305.5593 1055.6414 6257.7593 11638400
3445.178 1088.0267 6449.7368 11704706
3407.7078 1064.3883 6309.6104 9993576
3383.6277 1045.3999 6197.0483 5651247
