# .PCD v0.7 - Point Cloud Data file format
VERSION 0.7
FIELDS x y z rgb
SIZE 4 4 4 4
TYPE F F F U
COUNT 1 1 1 1
WIDTH 1371
HEIGHT 1
VIEWPOINT 0 0 0 1 0 0 0
POINTS 1371
DATA ascii
606.48254 1132.8035 3510.1411 18
623.74237 1126.4196 3490.3594 18
647.2467 1131.3604 3505.6694 18
664.77509 1125.8732 3488.6665 18
683.98657 1123.4813 3481.2549 18
705.13214 1124.3132 3483.833 18
729.48083 1130.0602 3501.6404 17
745.09802 1122.3369 3477.7087 16
684.49023 1003.3014 3108.8616 14
700.30707 999.58911 3097.3589 65550
712.58215 991.14026 3071.1787 196615
731.77136 992.4895 3075.3596 524545
762.87079 1009.5345 3128.1758 3350813
775.71674 1002.1884 3105.4128 7232078
802.73053 1013.0627 3139.1084 8613468
821.70581 1013.5296 3140.5549 9007968
840.3252 1013.5465 3140.6074 8942431
864.28174 1019.8605 3160.1724 9074017
878.17969 1014.2894 3142.9094 8810333
897.30383 1014.8603 3144.6785 8810333
913.10968 1011.7313 3134.9829 8612954
930.00061 1009.9055 3129.3252 8283988
937.3783 998.02216 3092.5034 8810335
964.90125 1007.6319 3122.2805 9139300
982.80542 1007.0245 3120.3982 9335909
1002.9152 1008.6577 3125.4587 9796460
1020.6418 1007.8782 3123.0435 9796203
1039.2908 1008.0211 3123.4861 9467495
1060.2198 1010.3318 3130.6462 9599081
1078.1553 1009.7594 3128.8726 8941151
1095.9971 1009.1201 3126.8916 8809308
1120.7749 1014.7822 3144.4363 9533031
1130.6993 1007.0301 3120.4155 9072737
1156.5159 1013.4539 3140.3206 9533288
1174.0392 1012.5219 3137.4326 9204066
1193.152 1012.9684 3138.8162 9006431
1213.3369 1014.2974 3142.9343 8743259
1205.0718 992.16278 3074.3472 9006174
1257.2964 1019.7483 3159.8245 9335395
1265.0779 1011.007 3132.7385 9598824
1270.4318 1000.6064 3100.511 9006688
1303.6425 1012.13 3136.2183 9072736
1323.9242 1013.4329 3140.2556 9006687
1334.0605 1007.0413 3120.4502 8809565
1356.354 1009.8759 3129.2336 9533288
1375.9938 1010.6851 3131.7407 9138273
1391.2863 1008.3217 3124.418 8743515
1425.9229 1019.8561 3160.1587 8808795
1453.8499 1026.3547 3180.2957 9203810
1464.486 1020.6368 3162.5776 9466725
1484.1077 1021.2463 3164.4666 9269346
1494.8707 1015.821 3147.6553 8611416
1521.2354 1021.0006 3163.7048 8743259
1544.8514 1024.2316 3173.7168 8743261
1551.0586 1015.9819 3148.1538 9071967
1585.387 1026.1294 3179.5972 8940638
1584.9314 1013.7892 3141.3596 9006430
1584.3434 1001.6518 3103.7502 8809052
1618.7012 1011.6328 3134.6775 9203809
1640.6915 1013.7457 3141.2249 8677465
1671.6667 1021.3007 3164.6348 8282708
1671.1505 1009.6617 3128.5701 8545880
1713.9651 1024.1703 3173.5269 9203555
1730.7512 1022.9796 3169.8372 8677725
1744.6661 1020.1356 3161.0244 8875105
1758.9729 1017.5786 3153.1016 8940642
1770.5122 1013.4913 3140.4363 7296586
1802.4702 1021.0557 3163.8757 8546908
1760.5658 987.05365 3058.5159 9074022
1751.9103 972.19543 3012.4756 5325628
1807.9017 993.14978 3077.4055 1642507
1817.196 988.28943 3062.345 1774351
1812.304 975.88593 3023.9114 918788
1823.5444 972.32745 3012.8848 917504
1822.558 962.38165 2982.0664 1114112
1821.1589 952.41089 2951.1709 2757131
1849.9689 958.27802 2969.3508 1377794
1857.045 952.88257 2952.6323 9005138
1867.2883 949.19788 2941.2148 9268050
1847.8387 930.62695 2883.6704 10320474
1888.5111 942.39825 2920.1453 11570796
1908.6626 943.80847 2924.5149 11965811
1923.9182 942.79413 2921.3721 13085057
1955.7789 949.86249 2943.2742 13215868
1962.4625 944.68622 2927.2349 12755316
1994.4052 951.65326 2948.8232 12426603
2023.0599 956.94415 2965.2175 13084276
2043.8025 958.43347 2969.8325 13808000
2071.7524 963.24847 2984.7524 13216375
2100.8755 968.52271 3001.0952 13150327
2123.0891 970.54999 3007.377 12492398
2152.196 975.66833 3023.2368 11965801
2188.6785 984.01813 3049.1099 12690041
2172.8347 968.89844 3002.2595 9005142
2222.884 983.16821 3046.4763 8808028
2291.8127 1005.4911 3115.647 9005919
2296.4114 999.45935 3096.9565 8808029
2305.8381 995.60779 3085.022 8874078
2355.8203 1009.19 3127.1082 9005663
2360.4702 1003.2922 3108.8333 9203041
2385.439 1006.0552 3117.3948 9137760
2398.8169 1003.9249 3110.7935 9269604
2405.1697 998.90942 3095.2524 9598570
2457.9805 1013.1188 3139.282 8348505
2450.7268 1002.5434 3106.5129 8020057
2480.5774 1007.1911 3120.9146 7757661
2466.343 994.00281 3080.0486 9797759
2482.5242 993.17627 3077.4875 9600639
2455.5359 975.21716 3021.8389 10390669
2459.0742 969.55389 3004.2905 10655127
2500.949 978.97845 3033.4939 9338757
2494.0481 969.31207 3003.5413 8286326
2480.3096 957.14392 2965.8367 8221044
2500.416 958.11566 2968.8477 10129042
2490.2812 947.56696 2936.1611 10785687
2505.9292 946.90704 2934.1162 9405061
2526.0857 947.94794 2937.3418 8089453
2531.8101 943.59607 2923.8567 8747641
2533.3181 937.74237 2905.7183 6969430
2522.0239 927.26093 2873.2402 3154980
2547.9067 930.49701 2883.2676 10260616
2560.3652 928.82001 2878.0713 11379090
2568.3967 925.56982 2868.0002 11904918
2614.9917 936.16827 2900.8408 11903893
2614.5117 929.88544 2881.3726 8482657
2664.5432 941.53253 2917.4629 9007717
2676.3926 939.62469 2911.551 10980482
2729.594 952.1662 2950.4124 8282971
2783.9905 964.96216 2990.0625 7756369
2801.9194 965.03619 2990.292 7558733
2877.1487 984.7207 3051.2871 8150613
2902.8245 987.30542 3059.2961 7492939
2918.6733 986.53638 3056.9131 8019280
0 0 0 0
0 0 0 0
0 0 0 0
0 0 0 0
0 0 0 0
-3231.5361 1172.9639 3569.0659 19
-3230.335 1180.2504 3591.2371 19
-3194.9331 1175.0547 3575.4277 19
-3386.3933 1253.7836 3814.9822 19
-3372.1729 1256.9072 3824.4866 20
-3139.3311 1178.0353 3584.4971 20
-3290.2683 1243.0831 3782.4231 21
-3294.3789 1253.1707 3813.1172 21
-3265.241 1250.6627 3805.4858 21
-3063.8218 1181.6732 3595.5664 21
-3034.3159 1178.4866 3585.8701 21
-3014.655 1179.1056 3587.7537 20
-2995.8972 1180.089 3590.7461 20
-2982.1858 1183.0885 3599.873 18
-2963.1064 1183.9866 3602.6055 18
-2942.0085 1184.085 3602.905 19
-2922.1658 1184.6937 3604.7573 19
-3068.0779 1253.0061 3812.6162 19
-3054.939 1256.8932 3824.4438 19
-3032.4478 1256.9619 3824.6528 19
-3011.2163 1257.5576 3826.4656 19
-2988.761 1257.6475 3826.7393 19
-2967.4697 1258.2323 3828.5186 19
-2945.6914 1258.6179 3829.6921 18
-2923.2734 1258.7343 3830.0459 20
-2897.0583 1257.2045 3825.3911 19
-2867.3059 1254.1035 3815.9556 18
-2843.1409 1253.4164 3813.865 22
-2823.1821 1254.5875 3817.4285 18
-2802.6106 1255.5032 3820.2144 19
-2778.8901 1255.0115 3818.7185 19
-2756.7175 1255.2166 3819.3423 19
-2735.9431 1256.0669 3821.9299 19
-2718.2273 1258.3474 3828.8689 19
-2697.8406 1259.4194 3832.1306 19
-2674.9741 1259.3422 3831.8958 19
-2644.8572 1255.821 3821.1814 19
-2621.7568 1255.5992 3820.5071 19
-2602.6812 1257.318 3825.7366 19
-2582.5464 1258.5509 3829.488 19
-2559.0142 1258.1353 3828.2231 19
-2538.8708 1259.3931 3832.0508 19
-2505.9846 1254.2958 3816.5405 19
-2486.3938 1255.8207 3821.1807 19
-2467.9631 1257.965 3827.7053 19
-2446.0637 1258.3646 3828.9211 19
-2429.1472 1261.3591 3838.0327 19
-2412.3118 1264.4528 3847.446 19
-2390.7708 1265.1152 3849.4619 19
-2372.4658 1267.5195 3856.7776 19
-2352.6489 1269.1549 3861.7537 19
-2328.2876 1268.3468 3859.2947 18
-2305.9084 1268.6132 3860.1052 21
-2284.771 1269.5748 3863.0315 20
-2263.571 1270.5209 3865.9099 18
-2244.1758 1272.5096 3871.9614 18
-2223.5427 1273.8303 3875.9797 18
-2202.6035 1275.0015 3879.5435 19
-2182.1501 1276.4812 3884.0459 18
-2162.0764 1278.2172 3889.3281 19
-2138.3801 1277.8258 3888.1372 18
-2131.3931 1287.5195 3917.6328 18
-2101.2468 1283.2827 3904.7412 19
-2093.5857 1292.8365 3933.8115 19
-2061.9219 1287.6165 3917.9282 19
-2061.7441 1302.1639 3962.1926 19
-2033.6836 1299.233 3953.2747 21
-1992.4863 1287.7437 3918.3149 21
-1957.0565 1279.7548 3894.0066 21
-1933.6614 1279.5391 3893.3501 21
-1909.1901 1278.5972 3890.4844 21
-1884.4747 1277.4672 3887.0457 19
-1860.6995 1276.954 3885.4846 19
-1838.3199 1277.3982 3886.8359 19
-1815.8787 1277.8098 3888.0886 19
-1791.7794 1277.0507 3885.7786 19
-1765.3926 1274.6199 3878.3823 19
-1743.4622 1275.385 3880.7104 19
-1720.7883 1275.6196 3881.4243 19
-1695.8342 1274.1472 3876.9441 19
-1668.3821 1270.7318 3866.5518 19
-1618.3218 1249.762 3802.7451 19
-1593.6652 1248.0951 3797.6733 19
-1566.3551 1244.2727 3786.0425 19
-1547.0868 1246.8202 3793.7942 19
-1525.7316 1247.7362 3796.5813 19
-1507.7883 1251.5117 3808.0693 19
-1479.9656 1247.0769 3794.5754 19
-1462.6584 1251.5029 3808.0427 19
-1441.4154 1252.6473 3811.5247 19
-1424.172 1257.3591 3825.8616 19
-1401.6394 1257.4781 3826.2239 19
-1379.8455 1258.2745 3828.6472 19
-1357.7119 1258.7828 3830.1938 19
-1333.7963 1257.6281 3826.6802 19
-1312.4368 1258.8853 3830.5054 19
-1292.1786 1261.2616 3837.7361 19
-1271.213 1263.0203 3843.0874 19
-1250.1156 1264.7096 3848.2278 19
-1230.7377 1268.2336 3858.9504 19
-1229.399 1290.8319 3927.7117 19
-1209.0042 1293.9073 3937.0698 19
-1188.2377 1296.6984 3945.5623 19
-1168.1746 1300.3845 3956.7783 19
-1148.1243 1304.2362 3968.498 19
-1126.9325 1306.9248 3976.6792 19
-1103.7959 1307.4249 3978.2007 19
-1083.5082 1311.395 3990.2805 19
-1061.2604 1313.1167 3995.5195 19
-1042.2858 1319.0593 4013.6016 19
-1020.8494 1322.0912 4022.8267 19
-998.90387 1324.5929 4030.4392 19
-979.38245 1330.5104 4048.4446 19
-957.12659 1332.917 4055.7673 19
-935.29895 1336.0591 4065.3281 19
-914.39014 1340.7147 4079.4939 19
-891.29974 1342.3372 4084.4309 19
-872.70807 1351.0148 4110.835 19
-849.54736 1352.9146 4116.6152 19
-826.66229 1355.3782 4124.1118 19
-802.3363 1355.5576 4124.6577 19
-778.12219 1355.9432 4125.8311 19
-754.39734 1357.2341 4129.7588 19
-730.31232 1357.9418 4131.9121 19
-705.9953 1358.2521 4132.8564 19
-681.30762 1357.8463 4131.6216 19
-656.76373 1357.7073 4131.1987 19
-629.74463 1352.2424 4114.5703 19
-602.85309 1346.6227 4097.4707 19
-576.85162 1342.6029 4085.2393 19
-552.19263 1341.4923 4081.8601 19
-527.60101 1340.4513 4078.6924 19
-499.70724 1330.5179 4048.4678 19
-475.34015 1329.4467 4045.2078 19
-452.41895 1332.5201 4054.5598 19
-429.26392 1335.2111 4062.7476 19
-408.69858 1346.7552 4097.874 21
-380.64307 1333.517 4057.5928 21
-356.905 1334.6388 4061.0063 21
-331.37543 1328.7395 4043.0562 21
-307.38235 1328.5619 4042.5156 21
-283.13782 1327.1755 4038.2974 21
-256.92688 1315.4653 4002.6658 21
-233.05385 1314.561 3999.9143 21
-209.42198 1314.9661 4001.1467 21
-184.89926 1309.1671 3983.5017 21
-161.4696 1310.543 3987.6882 21
-137.65913 1308.7699 3982.293 21
-113.76446 1305.2969 3971.7256 20
-89.581047 1295.8364 3942.9395 19
-66.334137 1298.0271 3949.6052 19
-42.945839 1298.3312 3950.5303 19
-19.544538 1298.4996 3951.043 19
3.8541088 1295.7343 3942.6287 19
27.031166 1287.1646 3916.553 19
50.207031 1286.481 3914.4727 19
73.784256 1293.2643 3935.1128 19
96.698845 1287.9642 3918.9863 19
119.57392 1284.2922 3907.8132 19
142.78233 1284.8109 3909.3914 19
166.15288 1286.4401 3914.3486 19
189.47855 1287.3654 3917.1641 19
211.66763 1281.2091 3898.4319 19
234.58414 1280.2339 3895.4646 19
257.92413 1281.5376 3899.4314 18
280.54852 1279.3636 3892.8164 18
303.37732 1278.3812 3889.8271 18
325.78607 1275.8926 3882.2549 18
348.20074 1273.7538 3875.7468 18
370.30984 1270.8308 3866.8533 18
394.01761 1273.4152 3874.7168 18
416.10571 1270.7688 3866.6641 18
435.52533 1260.6741 3835.9482 18
456.70935 1256.4347 3823.0488 18
441.28857 1156.652 3519.4324 18
456.76373 1143.1998 3478.5005 18
477.47232 1143.4421 3479.2378 18
498.43124 1144.239 3481.6626 18
522.44128 1151.6986 3504.3606 18
540.7926 1146.5903 3488.8174 18
560.37573 1144.3739 3482.073 18
576.98682 1136.4608 3457.9951 18
604.61237 1150.041 3499.3169 18
618.55713 1137.5613 3461.3438 18
638.31659 1136.2328 3457.3015 18
655.34918 1130.2838 3439.2002 18
671.81421 1123.7443 3419.3018 18
691.48584 1122.7943 3416.4111 18
714.96661 1127.9075 3431.9692 17
739.90149 1134.9685 3453.4543 16
750.4267 1120.1404 3408.3359 17
696.43579 1012.3114 3080.2366 17
704.00354 997.18335 3034.2053 65549
709.76459 980.31335 2982.8735 196617
738.27167 994.91602 3027.3062 458754
762.63062 1003.3685 3053.0254 3153947
782.83533 1006.0905 3061.3074 7232585
806.90118 1013.5389 3083.9717 9402984
829.81537 1019.2432 3101.3284 8942433
846.40088 1017.0952 3094.7925 9008226
861.0589 1012.7713 3081.6357 9073761
879.89526 1013.4393 3083.6685 8810076
895.91858 1010.9062 3075.9609 8810333
916.16846 1013.1479 3082.782 8810333
930.13953 1008.4944 3068.6221 9205093
945.84418 1005.8629 3060.615 9336679
967.33453 1009.3674 3071.2783 9270886
987.91858 1011.8143 3078.7236 9139300
1001.8367 1007.4689 3065.502 9533288
1024.6967 1012.1105 3079.625 9533288
1034.726 1004.1382 3055.3672 9467495
1056.0657 1007.2275 3064.7673 9664874
1070.725 1003.9485 3054.7903 9204323
1086.364 1001.6819 3047.8931 9335909
1106.1505 1003.251 3052.6677 9401702
1126.6403 1005.3973 3059.1985 9270116
1144.5288 1005.191 3058.5708 9467494
1146.3245 991.0777 3015.6272 9204323
1180.7458 1005.1721 3058.5132 8480856
1176.7046 986.59174 3001.9773 9006945
1218.2361 1006.2059 3061.6587 9203810
1239.7463 1008.9503 3070.0095 9269346
1239.4829 994.15143 3024.9797 9072224
1283.1437 1014.5026 3086.9036 9137761
1301.5709 1014.6115 3087.2351 9138017
1305.2629 1003.39 3053.0906 9072994
1332.3582 1010.2201 3073.873 9006944
1347.9204 1008.2393 3067.8459 9072737
1362.7059 1005.7381 3060.2354 8612185
1379.9266 1005.0761 3058.2209 8546136
1405.1633 1010.1941 3073.7939 9401702
1434.8392 1018.3317 3098.5549 9467495
1450.8175 1016.6652 3093.4841 9401702
1458.1998 1009.0917 3070.4397 8940894
1473.9247 1007.4068 3065.313 8282708
1486.8213 1003.8534 3054.5007 9138019
1515.1272 1010.6642 3075.2244 8874847
1536.6039 1012.8118 3081.7593 8940640
1555.0476 1012.9335 3082.1292 8874846
1560.7593 1004.855 3057.5483 9466982
1592.636 1013.6144 3084.2014 8677209
1600.144 1006.8418 3063.5938 9138016
1625.9924 1011.6318 3078.1687 8809053
1647.3567 1013.5566 3084.0254 8809052
1679.9858 1022.2942 3110.6118 9006432
1686.3519 1015.034 3088.5205 8808797
1707.1069 1016.4976 3092.9739 8414039
1726.8396 1017.3278 3095.5 8480089
1736.853 1012.4747 3080.7334 8414294
1783.231 1028.7006 3130.105 8677980
1754.3258 1001.6102 3047.6753 7757390
1789.9631 1011.5464 3077.9087 8152147
1782.1827 996.99323 3033.6267 7692110
1808.2477 1001.4755 3047.2651 8021846
1776.6111 974.2276 2964.3562 7626834
1784.1562 968.78882 2947.8071 8481885
1818.7129 977.98041 2975.7749 983552
1814.4194 966.30505 2940.2495 1245184
1831.0114 965.86902 2938.9226 1376256
1837.0385 959.92053 2920.8228 3809558
1855.6863 960.61646 2922.9402 8808787
1863.5894 955.78864 2908.2505 12163946
1884.4135 957.61554 2913.8091 12032107
1903.9056 958.73853 2917.2263 12558453
1922.5009 959.39374 2919.2197 13347714
1935.7209 957.37872 2913.0886 12952956
1970.7687 966.09967 2939.6245 12228719
1993.2848 968.57843 2947.1667 12690036
2009.5212 967.98914 2945.3738 13479293
2043.3337 975.80353 2969.1514 13545084
2073.0872 981.56274 2986.6753 13413757
2088.1689 980.33643 2982.9438 12821622
2121.4814 987.61786 3005.0996 12360819
2150.9099 992.9848 3021.4302 12492152
2168.281 992.74286 3020.6938 12821633
2158.584 980.2132 2982.5688 7360056
2193.0339 987.7713 3005.5667 9268063
2225.6804 994.4021 3025.7424 8873818
2256.3374 1000.0449 3042.9124 8873818
2288.0681 1006.0707 3061.2473 9071197
2283.5481 996.18726 3031.1743 8347474
2294.7058 993.24402 3022.2188 8084560
2334.3901 1002.5984 3050.6821 8742747
2355.1975 1003.7638 3054.228 8676955
2375.3337 1004.6275 3056.8562 8611676
2383.4822 1000.4464 3044.134 8743521
2413.8872 1005.6001 3059.8154 8480349
2443.4646 1010.3347 3074.2217 7822936
2448.0403 1004.7377 3057.1914 8612710
2454.8284 1000.1245 3043.1543 9403001
2441.7783 987.55511 3004.9087 10653582
2448.8213 983.23529 2991.7644 10588561
2456.7625 979.33557 2979.8984 10456721
2498.7388 988.96222 3009.1899 9339267
2473.5325 972.05084 2957.7327 6377812
2466.5012 962.46973 2928.5793 10392468
2500.9463 969.09399 2948.7356 11970473
2481.8462 955.02222 2905.9182 9273217
2517.3845 962.02429 2927.2241 9733766
2508.9612 952.24561 2897.4697 9339007
2513.9236 947.64563 2883.4729 8614514
2512.3193 940.64911 2862.1841 1180423
2525.1582 939.1178 2857.5247 7761260
2529.3398 934.40869 2843.196 10326405
2555.8372 937.95135 2853.9756 10589319
2558.0034 932.57715 2837.623 10918282
2575.3735 932.77979 2838.2395 12825508
2601.5652 936.15411 2848.5068 11443856
2618.9502 936.33624 2849.0613 10785158
2689.4722 955.39227 2907.0444 11376267
2703.6577 954.32056 2903.7834 7691602
2793.2131 979.69769 2981.0005 8020311
2802.6917 976.84613 2972.3235 8085591
2825.0928 978.50604 2977.3743 8545886
2835.2297 975.92389 2969.5173 8085591
0 0 0 0
0 0 0 0
0 0 0 0
0 0 0 0
0 0 0 0
-3177.2625 1174.0527 3509.1235 19
-3177.5964 1181.9095 3532.6064 19
-3160.2964 1183.2677 3536.666 21
-3141.9133 1184.2362 3539.5605 21
-3271.7883 1241.4735 3710.6372 21
-3299.2805 1260.3737 3767.1277 21
-3281.2163 1262.0096 3772.0173 21
-3264.6348 1264.2421 3778.6897 21
-3052.1521 1190.118 3557.1406 21
-3214.053 1261.9607 3771.8711 21
-3004.2827 1187.8553 3550.3777 21
-3163.4888 1259.6221 3764.8811 21
-2966.269 1189.4803 3555.2351 19
-3074.4573 1241.6807 3711.2563 19
-2923.3523 1189.158 3554.2712 19
-2891.2634 1184.6376 3540.7605 19
-2877.5435 1187.6324 3549.7117 19
-2863.3352 1190.4684 3558.188 19
-2841.8774 1190.3099 3557.7146 19
-2837.2061 1197.2327 3578.4055 21
-2971.1714 1263.2012 3775.5789 20
-2948.5459 1263.0908 3775.2488 21
-2926.8513 1263.3804 3776.1143 22
-2906.1785 1264.1187 3778.3213 21
-2885.501 1264.8667 3780.5569 21
-2862.5664 1264.6292 3779.8467 21
-2841.6096 1265.2684 3781.7576 21
-2816.23 1263.933 3777.7661 21
-2792.0869 1263.1355 3775.3826 19
-2760.8491 1259.0896 3763.2898 19
-2738.4407 1259.0374 3763.1333 19
-2715.0857 1258.5453 3761.6628 19
-2695.6904 1259.896 3765.6997 19
-2671.5293 1259.0228 3763.0903 19
-2652.2251 1260.4434 3767.3362 19
-2631.283 1261.1031 3769.3081 19
-2608.4329 1260.8519 3768.5571 19
-2583.8918 1259.7719 3765.3289 19
-2555.1008 1256.5828 3755.7974 19
-2533.7957 1257.0518 3757.1987 19
-2512.1323 1257.3495 3758.0889 19
-2491.5701 1258.209 3760.6575 19
-2469.3599 1258.2439 3760.762 19
-2447.8513 1258.6404 3761.947 19
-2426.4089 1259.0784 3763.2563 19
-2406.4978 1260.3267 3766.9871 19
-2395.0706 1266.0828 3784.1917 19
-2375.6558 1267.6855 3788.9822 19
-2357.2029 1269.8372 3795.4131 19
-2338.2429 1271.7545 3801.1438 19
-2317.4333 1272.693 3803.949 19
-2296.564 1273.6169 3806.7107 19
-2276.4314 1274.972 3810.7607 18
-2253.1013 1274.5453 3809.4854 19
-2236.3181 1277.8511 3819.3657 19
-2217.1514 1279.8481 3825.335 19
-2196.9773 1281.2993 3829.6724 19
-2176.0073 1282.3116 3832.698 19
-2156.9141 1284.4629 3839.1279 18
-2136.5984 1285.9243 3843.4958 18
-2115.7266 1287.0789 3846.9468 18
-2093.9988 1287.7322 3848.8997 18
-2076.9316 1291.2977 3859.5566 19
-2067.0791 1299.478 3884.0066 19
-2037.2018 1295.1121 3870.957 19
-2038.6222 1310.77 3917.7573 19
-1987.0406 1292.3179 3862.6055 21
-1962.6099 1291.2994 3859.5615 21
-1940.322 1291.6836 3860.7097 21
-1917.7161 1291.8625 3861.2449 21
-1890.9691 1289.2227 3853.3545 20
-1863.9524 1286.3323 3844.7151 19
-1839.6956 1285.2982 3841.6245 19
-1817.1603 1285.4562 3842.0969 19
-1794.041 1285.1998 3841.3308 19
-1773.0681 1286.4944 3845.2 19
-1750.2019 1286.4308 3845.01 19
-1724.2914 1284.0985 3838.0388 19
-1700.8868 1283.5951 3836.5342 20
-1678.4873 1283.8467 3837.2861 19
-1653.6415 1282.2084 3832.3894 19
-1628.4437 1280.2478 3826.5295 19
-1572.7478 1253.9165 3747.8276 19
-1548.38 1252.1658 3742.595 19
-1529.0428 1254.4915 3749.5464 19
-1506.2126 1253.9778 3748.0112 19
-1490.653 1259.5923 3764.7922 19
-1465.0162 1256.7329 3756.2461 19
-1447.2784 1260.6658 3768.001 19
-1426.7775 1262.2773 3772.8176 19
-1400.6152 1258.8519 3762.5793 19
-1384.9543 1264.9067 3780.6765 19
-1365.6024 1267.734 3789.1272 19
-1341.2682 1265.9535 3783.8052 19
-1320.7325 1267.7585 3789.2002 19
-1299.6014 1269.0446 3793.0442 19
-1278.5132 1270.4183 3797.1501 19
-1258.2458 1272.6718 3803.8853 19
-1253.4637 1290.9557 3858.5344 19
-1237.5554 1298.2471 3880.3274 19
-1216.281 1300.0786 3885.8015 19
-1194.9979 1301.9714 3891.4592 19
-1174.089 1304.3544 3898.5815 19
-1154.4301 1308.2495 3910.2239 19
-1134.4706 1311.9564 3921.3035 19
-1112.7908 1313.7876 3926.7764 19
-1092.1578 1316.9592 3936.2561 19
-1069.5118 1317.7887 3938.7354 19
-1048.9797 1321.318 3949.2839 19
-1028.3811 1324.9226 3960.0581 19
-1006.205 1326.6156 3965.1179 19
-985.97571 1331.0179 3978.2761 19
-968.84369 1339.9191 4004.8809 19
-951.03851 1348.313 4029.9692 19
-932.23041 1355.6807 4051.9905 19
-907.55609 1354.6814 4049.0039 19
-883.29059 1354.2548 4047.7288 19
-859.58063 1354.6797 4048.9988 19
-833.48383 1351.2596 4038.7766 19
-811.44934 1354.4178 4048.2163 19
-787.96191 1355.2695 4050.7617 19
-763.27423 1354.0453 4047.1028 19
-740.04431 1355.4117 4051.1865 19
-715.94757 1355.2289 4050.6401 19
-692.76636 1356.8264 4055.415 19
-668.35211 1356.0371 4053.0562 19
-644.17822 1355.6947 4052.0327 19
-619.89764 1355.0927 4050.2332 19
-595.39636 1353.9403 4046.7886 19
-564.33307 1337.1431 3996.5835 19
-540.80591 1337.5127 3997.6882 19
-518.2467 1340.4199 4006.3779 19
-493.75671 1338.3726 4000.2585 19
-470.10587 1338.5081 4000.6636 19
-446.18008 1337.8336 3998.6475 19
-422.77795 1338.7417 4001.3616 19
-398.50186 1336.8257 3995.635 21
-373.23224 1331.1245 3978.5947 21
-349.69806 1331.2612 3979.0032 21
-327.18069 1335.5684 3991.8767 21
-303.2619 1334.3804 3988.3259 21
-279.7095 1334.7397 3989.4004 21
-254.13899 1324.6467 3959.2332 21
-229.16476 1315.9252 3933.1653 21
-205.56419 1314.01 3927.4412 21
-182.36469 1314.4968 3928.8962 21
-158.91771 1313.0815 3924.666 21
-135.37393 1310.244 3916.1851 21
-111.50818 1302.4719 3892.9548 20
-88.428719 1302.2257 3892.219 19
-65.384598 1302.5099 3893.0686 19
-42.179955 1298.1636 3880.0779 19
-19.221767 1300.0756 3885.7927 19
3.8232622 1308.5341 3911.074 19
26.585995 1288.7871 3852.0525 19
49.858868 1300.5892 3887.3279 19
72.112213 1286.7413 3845.938 19
94.710602 1284.2217 3838.4072 19
117.37922 1283.4458 3836.0879 19
139.98558 1282.3512 3832.8162 19
162.79221 1283.1406 3835.1755 19
185.78333 1285.0127 3840.7712 19
208.32567 1283.7109 3836.8804 19
230.51778 1280.7195 3827.9392 19
251.96303 1274.4861 3809.3083 18
274.34982 1273.6486 3806.8049 18
295.8873 1269.2948 3793.7922 18
317.38733 1265.4065 3782.1704 18
339.33841 1263.7108 3777.1021 18
361.84219 1264.1559 3778.4321 18
386.42444 1271.3873 3800.0466 18
413.59634 1285.874 3843.3457 18
404.87143 1193.0687 3565.9602 18
445.25763 1247.011 3727.188 18
438.92542 1171.1962 3500.5852 18
451.09039 1149.3519 3435.2949 18
468.96106 1143.3037 3417.2178 18
507.52905 1186.1273 3545.2129 18
511.51727 1147.9436 3431.0857 18
531.81842 1147.8889 3430.9224 18
549.10547 1141.5718 3412.0413 18
565.08569 1133.0831 3386.6694 18
586.60059 1135.8938 3395.0701 18
604.47052 1131.694 3382.5173 18
622.35187 1127.7844 3370.832 18
640.7793 1125.0768 3362.739 18
662.63812 1128.3755 3372.5986 18
681.95453 1127.2786 3369.3198 18
705.35815 1132.808 3385.8469 15
729.53857 1139.2448 3405.0857 15
745.87531 1133.416 3387.6643 14
760.73523 1125.7073 3364.6238 14
704.61957 1016.047 3036.8604 14
707.78632 995.20288 2974.5593 65547
714.95355 980.8598 2931.6895 196616
742.09662 993.95245 2970.822 721412
760.48633 994.9859 2973.9109 4206377
796.07037 1017.9595 3042.5767 6442300
818.49677 1023.4631 3059.0264 6244659
826.95026 1011.6349 3023.6731 7560520
844.60767 1011.329 3022.7588 7954768
852.9696 1000.1365 2989.3054 8086610
876.27759 1006.5676 3008.5273 8678747
894.19476 1006.6734 3008.8435 8810333
905.87646 999.8924 2988.5759 9073507
924.72009 1001.1251 2992.2603 9139300
946.74237 1005.688 3005.8984 9205093
968.93018 1010.2549 3019.5486 8941664
982.01495 1005.3372 3004.8499 9138530
999.19354 1004.7109 3002.978 9467494
1017.6749 1005.3937 3005.0186 9270116
1035.8925 1005.7967 3006.2231 9862252
1050.9108 1003.1324 2998.26 9796203
1067.1368 1001.6902 2993.9495 9467495
1089.0986 1005.5913 3005.6094 9006944
1096.4801 996.12097 2977.3035 9072736
1112.689 994.84302 2973.4836 9006687
1122.0173 987.54907 2951.6829 8941151
1147.8778 994.80634 2973.3743 9270116
1169.9187 998.58405 2984.6655 9335909
1186.8137 997.92249 2982.688 9335908
1205.2152 998.5285 2984.4993 9270372
1229.1024 1003.5961 2999.6458 8677978
1251.7704 1007.538 3011.4277 8875358
1249.8373 991.84607 2964.5264 9599081
1282.3033 1003.5094 2999.3867 9401702
1309.9442 1011.1293 3022.1619 9006687
1319.1511 1004.5067 3002.3677 9204067
1339.1185 1006.1452 3007.2649 9072737
1347.3496 999.03827 2986.0229 9138529
1374.6439 1006.0676 3007.033 8546392
1402.8167 1013.5517 3029.4021 9401703
1425.5846 1016.9909 3039.6816 8283222
1432.5938 1009.2426 3016.5227 8941153
1451.5389 1009.9902 3018.7573 10585464
1461.3066 1004.4118 3002.084 9466983
1486.2168 1009.2502 3016.5457 9401189
1497.4592 1004.8027 3003.2522 9006430
1509.7433 1001.1503 2992.3354 8940638
1522.4349 997.84973 2982.4707 8809052
1537.6531 996.26196 2977.7249 9269603
1557.743 997.83087 2982.4141 9072224
1601.5455 1014.3835 3031.8884 9335395
1618.5707 1013.797 3030.1353 9466982
1627.454 1008.1796 3013.3455 9137760
1647.7629 1009.6852 3017.8457 9269349
1672.2366 1013.6832 3029.7949 9072226
1671.0426 1002.2022 2995.4795 9401192
1713.0065 1016.5742 3038.436 9072739
1710.8422 1004.7319 3003.0408 8744031
1725.3414 1002.819 2997.323 8349784
1737.1283 999.38428 2987.0571 8021332
1748.475 995.76837 2976.2495 7362887
1755.7355 989.92072 2958.7715 7099202
1754.7747 979.59912 2927.9214 7427908
1779.8672 983.88141 2940.7207 8414804
1778.4012 973.54199 2909.8171 8941408
1795.291 973.35297 2909.2522 6046519
1803.1047 968.29352 2894.1301 1443073
1831.6421 974.35358 2912.2429 1310720
1846.7919 973.24524 2908.9302 3415313
1839.4391 960.40845 2870.5625 11374429
1876.1284 970.59143 2900.9983 12098154
1899.2767 973.64789 2910.1338 12229228
1908.1803 969.4126 2897.4749 12295279
1945.5607 979.59088 2927.8967 12623990
1974.0979 985.17603 2944.5903 13281407
1992.5265 985.66296 2946.0454 12623991
2017.281 989.24359 2956.7476 13479043
2042.5253 993.00049 2967.9766 13281666
2056.8 991.40594 2963.2107 11176033
2079.6768 993.94958 2970.8132 8017470
2053.9397 973.41101 2909.4258 8873039
2111.1211 992.18457 2965.5381 9070677
2144.5989 999.59985 2987.7017 8939348
2155.0457 996.24695 2977.6799 8675664
2187.657 1003.1116 2998.1975 7886664
2176.2285 989.83459 2958.5142 8807767
2216.5535 1000.1212 2989.2598 8676182
2231.7778 999.00891 2985.9353 8216401
2251.7031 1000.002 2988.9036 8545366
2264.4426 997.81305 2982.3611 8742748
2276.1465 995.2052 2974.5664 8611418
2295.8586 996.11218 2977.2771 8677211
2324.4077 1000.81 2991.3186 8479834
2347.03 1002.9043 2997.5781 8742751
2374.4292 1006.993 3009.7988 8742751
2392.3557 1007.0333 3009.9192 7032648
2411.2419 1007.474 3011.2366 8809832
2400.9409 995.80273 2976.3523 9073261
2414.5381 994.14117 2971.386 9731451
2431.1265 993.72638 2970.1462 8943221
2443.8494 991.7489 2964.2358 11378078
2450.3086 987.27594 2950.8665 10786967
2447.1909 979.03479 2926.2346 10720662
2464.3533 978.966 2926.0291 10983577
2487.1907 981.13678 2932.5171 11838632
2498.3596 978.70642 2925.2532 11641253
2499.637 972.4613 2906.5872 9339010
2506.9309 968.62634 2895.125 10259598
2494.897 957.42645 2861.6494 10128011
2511.1091 957.14398 2860.8054 2037785
2506.324 948.91565 2836.2114 10064015
2533.8914 952.96417 2848.3123 7035218
2521.6279 942.07849 2815.7761 8876906
2529.6946 938.88116 2806.2197 7824218
2545.2786 938.49744 2805.0725 10389628
2554.8545 935.91779 2797.3623 9601140
2589.5403 942.5105 2817.0674 12102560
2626.6582 949.8985 2839.1492 13615798
2649.2095 951.95801 2845.3049 12100763
2735.2725 976.66925 2919.1643 8216923
2773.7156 984.17346 2941.5938 8349279
2773.8164 978.06427 2923.334 8545888
2778.9861 973.80707 2910.6096 8545885
0 0 0 0
0 0 0 0
0 0 0 0
0 0 0 0
0 0 0 0
-3144.8577 1182.6555 3473.334 19
-3116.4336 1179.6851 3464.6101 20
-3093.4333 1178.7419 3461.8403 21
-3066.9546 1176.4518 3455.1145 21
-3051.2639 1178.297 3460.5337 21
-3049.5532 1185.6023 3481.9885 21
-3230.1125 1264.3525 3713.2695 21
-3214.4758 1266.8596 3720.6326 21
-3144.3108 1247.7628 3664.5474 21
-3178.6133 1270.1448 3730.2808 21
-3159.208 1271.2288 3733.4641 21
-3133.6614 1269.8392 3729.3833 20
-3108.8728 1268.7394 3726.1536 19
-3086.8284 1268.7517 3726.1897 19
-3063.2031 1268.11 3724.3047 19
-3030.2598 1263.5732 3710.981 19
-2781.0088 1168.114 3430.6274 19
-2811.0479 1189.424 3493.2122 19
-2965.634 1264.1395 3712.644 19
-2953.9553 1268.5697 3725.6548 19
-2932.0405 1268.6375 3725.854 19
-2908.9944 1268.2131 3724.6079 19
-2886.9861 1268.2383 3724.6816 18
-2866.6614 1269.009 3726.9453 18
-2847.2834 1270.2141 3730.4844 18
-2823.3574 1269.3932 3728.0735 21
-2803.8401 1270.5573 3731.4922 21
-2780.2278 1269.8693 3729.4717 21
-2754.9214 1268.3905 3725.1284 19
-2724.929 1264.7126 3714.3274 19
-2703.7544 1265.1011 3715.468 19
-2682.446 1265.4327 3716.4419 19
-2660.5955 1265.5118 3716.6743 19
-2643.6548 1267.9471 3723.8267 19
-2615.5146 1265.0068 3715.1912 19
-2591.5581 1264.0573 3712.4023 19
-2569.6682 1264.108 3712.5513 19
-2547.2922 1263.9185 3711.9949 19
-2527.4048 1264.9712 3715.0864 19
-2503.7505 1264.1404 3712.6465 19
-2480.5249 1263.5133 3710.8049 19
-2459.5378 1264.0256 3712.3096 19
-2440.2278 1265.4166 3716.3948 19
-2420.7883 1266.7655 3720.356 19
-2400.74 1267.8173 3723.4453 19
-2380.0981 1268.5723 3725.6626 19
-2356.9309 1267.9829 3723.9316 19
-2335.7512 1268.4617 3725.3379 19
-2324.3826 1274.3286 3742.5681 19
-2306.2595 1276.5697 3749.1501 19
-2286.7368 1278.0719 3753.562 19
-2268.2434 1280.1849 3759.7676 19
-2248.3521 1281.5427 3763.7556 20
-2230.5513 1284.1313 3771.3579 20
-2208.5798 1284.3473 3771.9919 19
-2184.9412 1283.5878 3769.7615 19
-2164.0513 1284.4445 3772.2773 19
-2143.9536 1285.7938 3776.2405 19
-2123.4209 1286.908 3779.5127 19
-2104.5974 1289.093 3785.9299 19
-2084.458 1290.5105 3790.0928 19
-2061.1938 1290.0029 3788.6021 19
-2055.6685 1300.7085 3820.0432 19
-2028.8325 1298.0181 3812.1416 19
-2033.1107 1315.3975 3863.1833 19
-1980.189 1295.7437 3805.4622 20
-1964.9027 1300.548 3819.5718 21
-1939.3184 1298.5685 3813.7581 21
-1916.0156 1298.0879 3812.3469 21
-1891.9781 1297.0922 3809.4226 21
-1868.8876 1296.7295 3808.3574 20
-1845.4636 1296.124 3806.5789 19
-1819.1703 1293.463 3798.7639 18
-1796.6399 1293.4446 3798.7097 20
-1775.2981 1294.2922 3801.1992 20
-1751.9288 1293.6646 3799.3557 20
-1727.3839 1292.1409 3794.8811 20
-1704.6801 1291.9725 3794.3865 20
-1678.7452 1289.3184 3786.5916 18
-1654.2245 1287.6929 3781.8176 19
-1590.4166 1255.0208 3685.8633 19
-1580.8126 1264.8074 3714.6055 19
-1555.4248 1262.0636 3706.5474 19
-1527.8971 1257.48 3693.0857 19
-1513.0992 1263.3922 3710.4495 19
-1490.7133 1263.0496 3709.4429 19
-1468.1769 1262.5673 3708.0266 19
-1446.7164 1263.0098 3709.3259 19
-1423.832 1262.2034 3706.958 19
-1400.1635 1260.6659 3702.4424 19
-1383.0957 1265.1172 3715.5151 19
-1361.5593 1265.5587 3716.8123 19
-1341.3196 1267.24 3721.7498 19
-1315.3401 1263.464 3710.6602 19
-1295.6317 1265.6859 3717.1855 19
-1275.3899 1267.4545 3722.3796 19
-1258.0602 1272.2301 3736.4053 19
-1240.0978 1276.5256 3749.0208 19
-1224.2318 1283.1752 3768.5498 19
-1220.1469 1302.6494 3825.7434 19
-1200.2363 1305.6453 3834.5417 19
-1179.0592 1307.3524 3839.5557 19
-1160.4346 1312.0126 3853.2419 19
-1141.2577 1316.2228 3865.6069 19
-1119.6383 1317.7308 3870.0359 19
-1100.7623 1322.5981 3884.3308 19
-1079.0753 1324.2238 3889.1052 19
-1059.3135 1328.3344 3901.1775 19
-1036.6003 1328.8448 3902.6768 19
-1016.4177 1332.6969 3913.9897 19
-996.04578 1336.4746 3925.0845 19
-975.64081 1340.3873 3936.5759 19
-955.16132 1344.3872 3948.3228 19
-933.7998 1347.3148 3956.9211 19
-907.92896 1343.7198 3946.363 19
-881.39233 1338.9232 3932.2759 19
-857.39679 1337.8313 3929.0688 19
-842.7049 1351.6002 3969.5071 19
-822.89606 1357.7173 3987.4719 19
-799.7301 1358.4932 3989.7505 19
-774.84985 1356.3156 3983.355 19
-749.50745 1353.1666 3974.1072 19
-728.06366 1357.0803 3985.6016 19
-703.84625 1355.9135 3982.1743 19
-681.2821 1357.9608 3988.187 19
-654.2027 1350.832 3967.2505 19
-631.38141 1352.2916 3971.5376 19
-608.25635 1353.1888 3974.1724 19
-585.82965 1355.7743 3981.7656 19
-562.06641 1355.3538 3980.5305 19
-536.93347 1351.449 3969.0627 19
-511.17102 1345.5297 3951.6782 19
-488.60645 1347.8635 3958.5327 19
-463.16119 1342.0856 3941.5635 19
-439.24716 1340.3667 3936.5149 19
-415.90411 1340.2949 3936.3044 19
-392.66046 1340.554 3937.0652 21
-369.05109 1339.5186 3934.0242 21
-345.48605 1338.515 3931.0771 21
-321.26782 1334.6532 3919.7351 21
-297.24765 1331.0762 3909.23 21
-273.43777 1327.916 3899.949 21
-249.80441 1325.109 3891.7048 21
-225.85635 1319.892 3876.3831 21
-202.58046 1317.8667 3870.4351 21
-179.52112 1316.913 3867.6343 21
-156.30946 1314.3994 3860.252 21
-133.16562 1311.6921 3852.3013 21
-110.18055 1309.7528 3846.6052 21
-87.24324 1307.5173 3840.04 21
-64.506615 1307.7736 3840.7925 19
-41.779488 1308.6067 3843.2393 19
-19.019028 1309.1407 3844.8081 19
3.7560098 1308.2789 3842.2766 19
26.30871 1297.9277 3811.8765 19
48.922638 1298.7642 3814.3328 19
71.768753 1303.2886 3827.6206 19
94.040512 1297.7145 3811.2502 19
116.3007 1294.17 3800.8406 19
138.3463 1289.7748 3787.9321 19
160.37883 1286.5017 3778.3196 19
182.3596 1283.666 3769.9915 19
204.56282 1282.8441 3767.5774 19
227.81158 1288.0957 3783.0007 19
249.38898 1283.8027 3770.3926 18
273.20221 1290.7788 3790.8809 18
291.83963 1274.099 3741.894 18
314.80267 1277.3256 3751.3701 18
336.43152 1275.0702 3744.7463 18
358.61655 1275.0712 3744.7493 18
381.31778 1276.8007 3749.8284 18
409.12405 1294.4924 3801.7871 18
421.94592 1265.4001 3716.3462 18
443.55325 1264.2339 3712.9211 18
465.53113 1264.1841 3712.7749 18
486.84735 1262.4232 3707.6035 18
478.68842 1187.6829 3488.0989 18
531.37823 1263.8539 3711.8052 18
519.16821 1185.7444 3482.4058 18
567.80988 1247.2747 3663.1138 18
546.19049 1155.6183 3393.9285 18
560.7796 1144.3591 3360.8618 18
578.7616 1140.5588 3349.7004 18
598.04938 1139.4983 3346.5857 18
617.18335 1138.2222 3342.8379 18
636.70349 1137.7153 3341.3496 18
655.76996 1136.4529 3337.6421 18
673.46069 1132.9502 3327.3547 18
674.04492 1101.6869 3235.5378 18
708.78021 1126.427 3308.197 18
728.10822 1126.0087 3306.9685 15
747.11621 1125.1305 3304.3889 16
703.98206 1033.1025 3034.1128 14
707.99176 1013.119 2975.4231 65550
712.44733 994.7287 2921.4128 65548
719.15118 980.27533 2878.9648 196616
735.54523 979.39441 2876.3777 393217
772.42151 1005.2084 2952.1907 4075563
789.2171 1004.3254 2949.5974 7364427
809.03778 1007.2468 2958.1775 7231555
827.367 1008.2271 2961.0562 8415832
837.61395 999.52191 2935.4902 8546904
858.45056 1003.5505 2947.3218 8875869
872.77441 999.9566 2936.7668 8415575
887.54852 997.00903 2928.1101 9073507
908.216 1000.6678 2938.8555 8678748
926.64264 1001.7665 2942.082 9007714
944.84558 1002.5871 2944.4922 9007714
963.15179 1003.4855 2947.1309 9072737
980.00513 1002.8652 2945.3091 9204066
999.31506 1004.7366 2950.8049 9204323
1013.1871 1001.1703 2940.3311 9467494
1035.5693 1005.9915 2954.4905 9467238
1046.4102 999.62708 2935.7991 9335909
1057.3785 993.5907 2918.0706 9072737
1078.6791 997.30121 2928.968 9006687
1092.7185 994.28705 2920.116 8875101
1114.1956 998.02911 2931.106 9072737
1134.313 1000.4572 2938.2368 8809565
1140.5846 990.78442 2909.8291 9467495
1164.5408 996.53308 2926.7122 9335908
1172.0293 988.22778 2902.3203 9138786
1193.9144 992.12598 2913.769 9072736
1215.5614 995.71796 2924.3184 8019792
1239.4752 1001.0399 2939.9485 9006944
1253.7654 998.54974 2932.6348 9335652
1268.7458 996.6698 2927.1138 9401445
1280.2594 992.15375 2913.8506 9270116
1316.4825 1006.6522 2956.4312 8875357
1341.1357 1012.0391 2972.2517 9006688
1354.3978 1008.8019 2962.7444 9072737
1377.1594 1012.6326 2973.9949 9138273
1391.5542 1010.2921 2967.1208 8612185
1386.1772 993.83441 2918.7864 8414551
1391.7129 985.50958 2894.3374 8348757
1432.302 1001.9078 2942.4973 8020050
1420.5801 981.75952 2883.324 9072993
1449.6611 989.95392 2907.3899 9269603
1480.6671 999.255 2934.7061 8940639
1497.7997 999.08594 2934.2097 8940384
1509.6376 995.42969 2923.4717 8809053
1525.9683 994.78516 2921.5789 9071967
1546.3927 996.79401 2927.4785 9598568
1568.124 999.59119 2935.6936 9269602
1589.0935 1001.8468 2942.3181 9598312
1641.6925 1023.778 3006.7278 8874588
1633.8945 1007.9785 2960.3262 8940381
1650.2405 1007.251 2958.1897 8743261
1671.2375 1009.3481 2964.3486 8809564
1684.8031 1006.9598 2957.3345 8152405
1699.6208 1005.3615 2952.6404 8415577
1703.2124 997.22278 2928.7378 8086612
1727.7091 1001.3646 2940.9019 7691853
1717.9182 985.74939 2895.0417 8086353
1744.2396 990.95941 2910.343 8809820
1752.4795 985.89526 2895.4702 8677978
1788.0958 996.1814 2925.6794 8941149
1786.1699 985.5553 2894.4717 8151632
1811.2274 989.87823 2907.1677 7888203
1827.1263 989.16156 2905.063 7756615
1828.7949 980.82617 2880.5828 5847848
1848.8978 982.44037 2885.3235 6243628
1871.6149 985.40118 2894.019 11836024
1911.9216 997.48523 2929.5085 13413260
1922.5975 994.03186 2919.3665 13941145
1959.3741 1004.0146 2948.6848 12032123
1968.2025 999.62634 2935.7969 9004876
1967.9878 990.76221 2909.7639 8412481
2006.4801 1001.3694 2940.9163 9399120
2004.4001 991.72021 2912.5771 9925465
2020.5072 991.15723 2910.9238 10188639
2035.9823 990.29645 2908.3958 9925726
2043.8892 985.79968 2895.1892 8281415
2073.0723 991.5542 2912.0898 9268313
2104.8535 998.44635 2932.3313 9597793
2129.501 1001.8693 2942.3843 8545104
2156.6238 1006.3919 2955.6665 7492163
2157.5007 998.69244 2933.0542 8019277
2170.0142 996.45966 2926.4966 8085071
2181.23 993.67096 2918.3064 8019277
2211.635 999.59924 2935.7173 9203552
2214.4858 993.07843 2916.5662 8874845
2223.24 989.28522 2905.426 8940640
2232.9441 985.96997 2895.6895 8940640
2265.5081 992.72211 2915.5198 8874846
2283.157 992.88599 2916.001 8875104
2298.2339 991.93719 2913.2146 8676958
2353.4495 1008.1976 2960.9697 8414556
2356.1663 1001.8939 2942.4563 7954778
2384.6616 1006.5638 2956.1714 8283489
2395.2466 1003.6608 2947.6455 8677730
2401.1191 998.83954 2933.4861 7493457
2422.2407 1000.3853 2938.0259 7822422
2435.6858 998.76135 2933.2563 8744038
2439.0427 993.05298 2916.4915 10389633
2453.1416 991.7677 2912.7168 12298145
2460.5059 987.79669 2901.0544 11509660
2490.9895 993.09802 2916.6238 12891573
2472.978 979.12555 2875.5881 10983834
2481.5603 975.80151 2865.8257 12628146
2493.231 973.72876 2859.7385 10457233
2506.144 972.16602 2855.1487 6640725
2498.0032 962.51184 2826.7954 9732995
2529.1821 968.03577 2843.0188 6969947
2532.863 963.03149 2828.3215 8876916
2533.28 956.86017 2810.197 7166811
2523.1746 946.82086 2780.7126 6245453
2532.0564 943.99048 2772.4001 4271148
2512.29 930.58496 2733.0295 8157043
2557.1199 941.12524 2763.9854 14143687
2563.823 937.58844 2753.5979 13814721
2585.4788 939.52997 2759.3 13086635
2653.4465 958.17047 2814.0454 8348765
2667.9094 957.37811 2811.7183 8743264
2725.2278 971.87878 2854.3052 8151897
0 0 0 0
0 0 0 0
0 0 0 0
0 0 0 0
0 0 0 0
-3098.6382 1185.5487 3422.2871 20
-3175.373 1222.9092 3530.1345 21
-3300.7766 1279.6327 3693.8767 20
-3269.6572 1276.0282 3683.4717 19
-3254.6067 1278.6885 3691.1511 20
-3228.2275 1276.9038 3685.9995 21
-3204.5029 1276.152 3683.8289 21
-3182.2615 1275.9846 3683.3457 21
-3159.46 1275.5886 3682.2026 21
-3140.8945 1276.9094 3686.0156 21
-3120.9268 1277.6747 3688.2246 21
-3093.5662 1275.4027 3681.666 19
-3071.5488 1275.317 3681.4189 19
-3052.4841 1276.4648 3684.7319 19
-3029.4946 1275.9762 3683.3215 19
-2800.0095 1187.8766 3429.0073 19
-2769.1265 1183.3601 3415.9695 19
-2967.145 1277.3162 3687.1897 19
-2943.3093 1276.4523 3684.696 19
-2918.1621 1275.0026 3680.511 18
-2902.4543 1277.6862 3688.2578 19
-2880.574 1277.6727 3688.219 18
-2858.3613 1277.5105 3687.7507 20
-2830.2197 1274.6757 3679.5674 21
-2807.7871 1274.3879 3678.7368 21
-2787.6921 1275.165 3680.98 20
-2762.3843 1273.5509 3676.3206 19
-2736.2605 1271.5321 3670.4929 20
-2716.136 1272.291 3672.6836 19
-2688.4822 1269.5068 3664.647 19
-2522.9133 1201.0236 3466.9583 19
-2648.7339 1271.2694 3669.7346 19
-2627.5994 1271.5625 3670.5808 19
-2606.3345 1271.797 3671.2576 19
-2585.1465 1272.0732 3672.0549 19
-2564.1323 1272.4404 3673.115 19
-2542.9009 1272.7052 3673.8794 19
-2519.762 1272.0115 3671.8767 19
-2500.0322 1273.0417 3674.8508 19
-2478.595 1273.213 3675.3452 19
-2455.8884 1272.7295 3673.9495 19
-2433.012 1272.1486 3672.2725 19
-2412.311 1272.7048 3673.8784 19
-2392.1628 1273.5656 3676.3628 19
-2372.4333 1274.6671 3679.5427 19
-2351.2273 1274.9884 3680.47 19
-2329.853 1275.2235 3681.1487 19
-2312.7571 1277.8268 3688.6638 19
-2297.355 1281.4248 3699.05 19
-2277.0896 1282.3533 3701.7302 19
-2257.9946 1283.9652 3706.3833 19
-2239.4753 1285.9397 3712.0828 19
-2219.8064 1287.2861 3715.9697 18
-2202.4692 1290.0258 3723.8779 19
-2184.7395 1292.5883 3731.2751 19
-2161.2095 1291.7366 3728.8167 19
-2138.4805 1291.3508 3727.7031 19
-2118.9919 1292.9344 3732.2744 19
-2098.3677 1293.851 3734.9204 19
-2077.2666 1294.4901 3736.7651 19
-2057.0928 1295.7268 3740.3352 19
-2034.3488 1295.3541 3739.2593 19
-2027.1321 1304.969 3767.0142 19
-1999.9037 1301.7719 3757.7849 19
-1984.3279 1306.173 3770.4895 19
-1962.1567 1306.2834 3770.8086 20
-1966.9133 1324.5299 3823.48 21
-1920.9424 1308.6433 3777.6206 21
-1896.642 1307.3192 3773.7983 21
-1875.3645 1308.072 3775.9717 21
-1849.4912 1305.5989 3768.8323 19
-1857.9055 1327.5652 3832.2422 18
-1799.5405 1301.7679 3757.7737 18
-1778.1467 1302.4037 3759.6089 18
-1751.7865 1299.3717 3750.8569 20
-1726.1764 1296.8257 3743.5071 20
-1703.4535 1296.4105 3742.3086 21
-1682.2676 1297.1694 3744.4995 21
-1660.2555 1297.3032 3744.8857 19
-1636.2174 1295.8361 3740.6506 19
-1581.2402 1269.4893 3664.5962 19
-1550.4215 1262.0747 3643.1924 19
-1538.676 1270.1957 3666.6353 19
-1513.5114 1267.313 3658.3137 19
-1494.3651 1269.4592 3664.5093 19
-1464.7209 1262.6194 3644.7646 19
-1439.3353 1259.3004 3635.1843 19
-1418.1945 1259.6512 3636.1968 19
-1395.7319 1258.8207 3633.7993 19
-1374.2957 1258.9042 3634.0403 19
-1360.4373 1266.0424 3654.646 19
-1337.8218 1265.1304 3652.0132 19
-1316.5118 1265.443 3652.916 19
-1298.7106 1269.1952 3663.7471 19
-1276.1908 1268.3854 3661.4094 19
-1255.8081 1269.7081 3665.2278 19
-1236.2408 1271.9165 3671.6025 19
-1216.8403 1274.3784 3678.7095 19
-1203.4397 1283.3286 3704.5454 19
-1182.9789 1284.9424 3709.2039 19
-1163.4673 1287.6678 3717.0713 19
-1162.5562 1311.4816 3785.814 19
-1144.7308 1316.7761 3801.0974 19
-1125.4355 1320.5581 3812.0151 19
-1105.3258 1323.52 3820.5649 19
-1084.6691 1325.9368 3827.5415 19
-1064.1975 1328.6884 3835.4841 19
-1042.7028 1330.2544 3840.0046 19
-1021.9612 1332.8726 3847.5625 19
-999.48901 1333.3015 3848.801 19
-981.40466 1339.7405 3867.3882 19
-961.26892 1343.6201 3878.5874 19
-941.74249 1348.5623 3892.8535 19
-921.32898 1352.4502 3904.0769 19
-900.91949 1356.5446 3915.896 19
-878.5177 1357.7761 3919.4509 19
-855.46515 1358.0415 3920.217 19
-829.93622 1354.2808 3909.3611 19
-804.30682 1350.1355 3897.395 19
-782.25574 1351.9292 3902.573 19
-766.46796 1364.9866 3940.2654 19
-742.79932 1364.3885 3938.5388 19
-719.08539 1363.6656 3936.4521 19
-697.66718 1367.3939 3947.2144 19
-672.05707 1362.88 3934.1841 19
-647.82141 1360.9291 3928.5525 19
-625.84283 1363.7511 3936.6985 19
-603.83563 1366.7268 3945.2886 19
-579.80933 1365.1881 3940.8469 19
-556.84235 1366.119 3943.5342 19
-532.90997 1364.6594 3939.3208 19
-508.94269 1362.9727 3934.4517 19
-483.87042 1358.0227 3920.1628 19
-458.78448 1352.5333 3904.3169 19
-435.4953 1352.0394 3902.8909 20
-411.54318 1349.3164 3895.0305 20
-390.11026 1355.0201 3911.4954 21
-366.10403 1351.9418 3902.6091 21
-342.71002 1350.8615 3899.4905 21
-318.2085 1344.944 3882.4087 21
-295.7948 1347.6163 3890.123 21
-271.56949 1341.7894 3873.3025 21
-248.17479 1339.3694 3866.3169 21
-224.92116 1337.2963 3860.3323 21
-201.99106 1336.895 3859.1741 21
-179.4308 1339.1516 3865.6882 21
-155.73581 1332.3607 3846.085 21
-132.92796 1332.1326 3845.4263 21
-110.04639 1330.9183 3841.9214 20
-87.332741 1331.6312 3843.9792 19
-64.388023 1328.0812 3833.7314 19
-41.63781 1326.86 3830.2063 19
-18.93985 1326.3733 3828.8015 19
3.7421451 1326.1282 3828.0938 19
26.157883 1312.9397 3790.0229 19
48.432747 1308.1296 3776.1379 19
70.30719 1298.9612 3749.6714 19
92.773346 1302.5027 3759.8948 19
114.78766 1299.5574 3751.3926 19
136.85437 1298.0646 3747.0833 19
158.96904 1297.3798 3745.1067 19
180.60005 1293.399 3733.6155 19
200.52971 1279.4318 3693.2969 19
222.48099 1279.8423 3694.4817 19
244.07611 1278.3138 3690.0696 18
265.74301 1277.3818 3687.3794 18
288.46368 1281.2719 3698.6084 18
310.21829 1280.6246 3696.74 18
328.6496 1267.2484 3658.1272 18
350.20523 1266.8291 3656.9167 18
374.979 1277.4215 3687.4939 18
403.80054 1299.8779 3752.3181 18
417.38992 1273.5155 3676.2185 18
438.01147 1270.1598 3666.5315 18
459.35077 1269.1042 3663.4844 18
483.39331 1275.2755 3681.2988 18
497.72781 1256.4081 3626.835 18
520.63995 1259.8586 3636.7954 18
543.52435 1262.9706 3645.7786 18
563.93555 1260.3173 3638.1194 18
549.33307 1182.4891 3413.4553 18
550.89911 1143.7563 3301.6465 18
571.15002 1145.1421 3305.6467 18
595.26044 1153.9177 3330.9792 18
612.73895 1149.6868 3318.7659 18
633.12775 1151.0096 3322.5845 18
657.82635 1159.8517 3348.1084 18
674.43079 1154.3225 3332.1477 18
681.87 1133.8671 3273.0994 18
674.57141 1090.7135 3148.5293 18
687.35455 1081.4784 3121.8708 16
736.57593 1128.5569 3257.7708 16
696.35083 1039.6835 3001.2227 14
699.10046 1017.8013 2938.0562 65550
702.22192 997.5105 2879.4832 65550
706.20111 979.3717 2827.1223 13
725.01282 982.16663 2835.1904 262153
750.88416 994.18207 2869.875 393219
772.49811 1000.1534 2887.1123 3680807
790.26074 1000.9878 2889.521 6706250
808.87958 1002.8483 2894.8916 8481629
826.07623 1002.905 2895.0552 9600363
841.84961 1001.2664 2890.3254 9073762
856.40436 998.27295 2881.6841 8678747
875.59528 1000.6948 2888.6753 8941921
889.85986 997.50171 2879.4578 9007714
906.54669 997.09283 2878.2773 8547163
924.474 998.03827 2881.0066 8612956
941.03809 997.50427 2879.4653 8743772
958.21692 997.62964 2879.8269 8809564
975.99371 998.362 2881.9412 8809564
992.50323 997.79523 2880.3049 9204323
1012.6766 1000.8688 2889.1775 8875358
1025.7865 996.97498 2877.9373 8941151
1041.9307 996.10938 2875.4387 8809565
1058.4939 995.66602 2874.1587 9072737
1069.8013 990.37097 2858.8735 9138530
1090.2487 993.57031 2868.1091 9072736
1115.7308 1001.1895 2890.103 8875358
1128.3668 997.2251 2878.6594 8941151
1150.6636 1001.7897 2891.8359 9006944
1164.4159 998.89062 2883.467 8546392
1170.5807 989.6604 2856.8225 8875358
1193.1937 994.40131 2870.5078 8677979
1214.047 997.56287 2879.6343 8612186
1230.7391 997.2652 2878.7749 8809564
1245.8615 995.72089 2874.3171 8283221
1266.8429 998.83789 2883.3149 9007203
1283.7847 998.72919 2883.0012 9073509
1305.8563 1002.5619 2894.0649 8876130
1319.5229 999.92596 2886.4558 8941666
1346.8403 1007.5695 2908.5203 9073251
1371.8563 1013.3201 2925.1204 7757134
1359.8519 991.92328 2863.3547 8151891
1376.9047 991.98779 2863.541 7559500
1401.9158 997.7146 2880.0723 7954257
1408.1368 990.09186 2858.0681 8349016
1418.4709 985.50812 2844.8362 8809567
1447.4152 993.80969 2868.8 9203813
1462.7378 992.67444 2865.5232 8940894
1484.1371 995.64185 2874.0889 8808795
1495.2595 991.72583 2862.7847 9400932
1518.5431 995.87311 2874.7563 9203809
1538.9147 998.03967 2881.0107 9203553
1555.9125 997.99487 2880.8813 9269602
1576.7789 1000.4054 2887.8398 9203553
1597.9042 1002.9267 2895.1179 9006431
1613.4597 1001.9357 2892.2573 8940640
1633.7302 1003.8627 2897.8201 8677981
1651.7786 1004.3985 2899.3665 7691856
1657.7803 997.6734 2879.9534 8349786
1665.8713 992.32977 2864.5281 8415836
1669.4243 984.41815 2841.6897 8218455
1692.9154 988.30383 2852.9067 8481371
1727.2264 998.36719 2881.9561 9006687
1724.1646 986.84253 2848.6882 9204321
1741.2853 986.98108 2849.0881 8875356
1760.8231 988.47388 2853.3975 8809306
1805.8003 1004.0833 2898.4565 9138270
1821.9821 1003.5384 2896.8838 8414546
1812.4833 988.99091 2854.8899 8874838
1834.7305 991.87469 2863.2144 9005910
1880.8445 1007.4899 2908.2905 9202778
1887.8021 1002.0377 2892.5518 8412749
1909.5723 1004.4753 2899.5884 8873300
1927.3274 1004.7764 2900.4573 8214858
1922.3661 993.3338 2867.4265 9662045
1939.8665 993.59662 2868.1851 9596764
1948.3131 989.25787 2855.6604 9596508
1974.8412 994.09564 2869.6255 9530971
1997.7507 997.0448 2878.1389 9793888
2023.8333 1001.5142 2891.0405 9596507
2036.0864 999.1225 2884.1365 8676175
