# .PCD v0.7 - Point Cloud Data file format
VERSION 0.7
FIELDS x y z rgb
SIZE 4 4 4 4
TYPE F F F U
COUNT 1 1 1 1
WIDTH 1360
HEIGHT 1
VIEWPOINT 0 0 0 1 0 0 0
POINTS 1360
DATA ascii
-3277.4187 1046.5214 5277.084 16
-3182.5813 1026.0256 5173.7344 16
-3020.6917 983.30426 4958.312 16
-2986.4348 981.69928 4950.2188 16
-3080.6682 1022.7185 5157.0581 15
-3070.2402 1029.4661 5191.0825 269
-3041.9856 1030.3123 5195.3496 269
-3019.2598 1033.0675 5209.2432 269
-2950.3599 1019.9177 5142.9351 269
-2975.2634 1039.2589 5240.4634 15
-2930.574 1034.443 5216.1787 16
-2766.9766 987.10437 4977.4741 16
-2746.3057 990.28369 4993.5054 15
-2800.6453 1020.8745 5147.7598 15
-2762.793 1018.1636 5134.0903 15
-2814.0637 1048.6024 5287.5776 15
-2789.7432 1051.2417 5300.8867 17
-2779.2502 1059.2111 5341.0723 17
-2749.7346 1060.0306 5345.2051 18
-2722.6875 1061.8322 5354.2891 17
-2694.3625 1063.1719 5361.0439 18
-2673.417 1067.49 5382.8184 19
-2648.8884 1070.4646 5397.8174 19
-2622.7527 1072.8544 5409.8682 19
-2623.2388 1086.3276 5477.8076 19
-2564.21 1075.1838 5421.6147 19
-2539.4602 1078.313 5437.3936 19
-2493.9324 1072.5863 5408.5166 19
-2466.2705 1074.4943 5418.1377 19
-2450.2625 1081.5968 5453.9521 19
-2427.0015 1085.6448 5474.3643 19
-2397.2329 1086.8522 5480.4521 19
-2374.7444 1091.4385 5503.5786 19
-2345.0972 1092.8165 5510.5273 19
-2320.3018 1096.5262 5529.2339 19
-2288.0725 1096.7791 5530.5083 19
-2256.0891 1097.1587 5532.4229 21
-2235.2122 1103.0303 5562.0303 21
-2207.9783 1105.8937 5576.4688 21
-2173.7471 1105.286 5573.4048 21
-2146.6917 1108.3646 5588.9287 21
-2115.5989 1109.4225 5594.2627 21
-2090.9248 1113.9336 5617.0107 21
-2064.3181 1117.5443 5635.2173 21
-2029.4231 1116.7131 5631.0259 21
-1998.3524 1117.9935 5637.4824 21
-1994.9021 1135.0326 5723.4019 21
-1969.8348 1140.1489 5749.2012 21
-1950.3792 1148.7504 5792.5742 21
-1948.2144 1168.0266 5889.7744 21
-1870.8716 1142.1118 5759.0991 21
-1841.8888 1145.3051 5775.2012 21
-1814.6835 1149.7454 5797.5913 21
-1787.5009 1154.3717 5820.9194 22
-1759.6411 1158.7341 5842.917 22
-1728.1603 1160.8392 5853.5322 22
-1699.1412 1164.718 5873.0908 21
-1665.1676 1165.2919 5875.9844 21
-1630.9004 1165.6803 5877.9429 21
-1600.5641 1168.9564 5894.4634 21
-1569.3372 1171.714 5908.3682 21
-1540.3916 1176.3395 5931.6919 21
-1510.9832 1180.8192 5954.2808 21
-1473.4255 1178.9922 5945.0684 21
-1439.8094 1180.3071 5951.6987 21
-1404.843 1180.5531 5952.939 21
-1372.5868 1183.1478 5966.0234 22
-1333.7821 1180.0862 5950.5845 20
-1298.5789 1180.131 5950.8105 21
-1267.7773 1184.2902 5971.7832 21
-1235.0211 1186.8098 5984.4888 21
-1203.8625 1191.0591 6005.9155 21
-1174.4583 1197.3555 6037.665 20
-1140.6244 1199.3898 6047.9233 20
-1103.2272 1197.6876 6039.3398 20
-1071.45 1202.177 6061.978 21
-1036.325 1203.0912 6066.5874 21
-1001.9307 1204.95 6075.9604 22
-967.64758 1207.0859 6086.731 23
-936.4516 1213.3873 6118.5059 23
-902.98657 1217.1378 6137.4175 23
-869.24823 1220.819 6155.9795 23
-836.41565 1226.1504 6182.8638 23
-801.39923 1228.6222 6195.3276 23
-766.80615 1232.0114 6212.4175 23
-732.22321 1235.7594 6231.3169 23
-697.97571 1240.5016 6255.2295 23
-660.74744 1240.1809 6253.6123 23
-625.00293 1242.7725 6266.6802 23
-589.69708 1246.6185 6286.0742 23
-553.80005 1249.6493 6301.3564 23
-518.40594 1254.335 6324.9839 23
-518.95697 1353.4999 6825.0229 23
-485.86029 1374.2505 6929.6582 23
-445.4361 1376.1927 6939.4521 23
-405.51028 1380.2264 6959.792 23
-364.31717 1380.3713 6960.5229 23
-324.58795 1386.8079 6992.979 21
-283.17569 1386.885 6993.3677 21
-241.0193 1382.7194 6972.3623 21
-196.85419 1362.9232 6872.5405 21
-147.45529 1287.118 6490.293 21
-109.09042 1288.123 6495.3604 21
-70.361313 1283.5782 6472.4434 21
-32.023285 1283.8264 6473.6948 21
6.3311458 1284.394 6476.5576 21
44.634151 1282.5095 6467.0547 21
82.897301 1281.7496 6463.2227 21
121.75901 1287.8007 6493.7354 21
161.808 1300.4885 6557.7139 21
200.27765 1298.0275 6545.3037 21
240.85687 1307.8195 6594.6802 21
279.49869 1305.8267 6584.6309 18
318.22321 1304.661 6578.7529 19
357.04129 1304.0914 6575.8809 19
395.31339 1301.8358 6564.5073 18
433.6286 1300.1135 6555.8228 65554
467.772 1287.1948 6490.6797 65551
502.31995 1277.2672 6440.6196 196620
523.52808 1237.2162 6238.6626 393222
0 0 0 0
0 0 0 0
0 0 0 0
701.52051 1292.7877 6518.8823 9599084
745.67456 1302.4551 6567.6299 9532778
784.17029 1301.7706 6564.1782 9730157
825.33063 1305.365 6582.3027 9730414
860.74371 1299.9552 6555.0244 9598570
892.78967 1290.1469 6505.5654 9335142
937.9574 1299.3275 6551.8589 9532520
980.01654 1303.6432 6573.6211 9664105
1018.0816 1302.5193 6567.9536 9532521
1045.0217 1287.7689 6493.5747 9335654
1094.5336 1300.8932 6559.7539 9401704
1127.7523 1294.4166 6527.0962 9533289
1177.2377 1306.4209 6587.6274 9335911
1210.8782 1300.6355 6558.4551 9138530
1248.2502 1299.0936 6550.6797 9138272
1270.4895 1282.3701 6466.3516 8217169
1310.6252 1284.1609 6475.3818 9401443
1354.6929 1289.5927 6502.7715 9335135
1402.0364 1297.7563 6543.9365 9532514
1429.1395 1287.2499 6490.9575 9532513
1475.8167 1294.4626 6527.3276 9730405
1506.6293 1287.7473 6493.4658 9730150
1553.5134 1294.761 6528.832 9269857
1603.0029 1303.5525 6573.1636 8743513
1636.5619 1299.2798 6551.6187 8941406
1655.4434 1283.8223 6473.6743 9599081
1704.2612 1291.7554 6513.6768 4863273
1693.9525 1255.5142 6330.9302 6704703
1694.3448 1228.6023 6195.2275 11506818
1719.9658 1220.7377 6155.5698 10717813
1746.4824 1213.822 6120.6978 10652018
1783.9287 1214.6295 6124.7695 10980727
1820.1709 1214.6012 6124.627 10651506
1895.5258 1240.1639 6253.5269 6309425
1966.605 1262.0028 6363.6494 8677717
1995.9266 1256.7275 6337.0488 9533540
2016.1534 1246.0264 6283.0879 9533029
2064.4165 1252.726 6316.8706 9007195
2120.5022 1263.8495 6372.9609 9138782
2132.98 1249.0475 6298.3223 9467492
2158.991 1242.5431 6265.5239 10980475
2243.0662 1269.1111 6399.4927 9402212
2220.7156 1235.5815 6230.4199 11441796
2341.4241 1281.4436 6461.6792 9467749
2356.5872 1268.9951 6398.9077 8874840
2424.6204 1284.9601 6479.4111 11111286
2422.7329 1263.9495 6373.4653 12492935
2461.7708 1264.6071 6376.7812 13414549
2492.4302 1261.0057 6358.6216 12823183
2549.4387 1270.6443 6407.2236 11244153
2574.1646 1264.1461 6374.457 10125675
2599.521 1258.1411 6344.1768 9401698
2651.4077 1264.9647 6378.5845 9335907
2691.5718 1266.0823 6384.2197 9072734
2711.3547 1257.7147 6342.0264 9072733
2754.6812 1260.3477 6355.3032 9007195
2766.4204 1248.6525 6296.3301 8744794
2877.3931 1281.4625 6461.7749 9204574
2904.8625 1276.7108 6437.8145 9270367
2964.6824 1286.1162 6485.2412 9204317
2981.6423 1276.9257 6438.8979 10388336
3026.6082 1279.8097 6453.4404 11177851
3046.5994 1272.1929 6415.0327 12559760
3029.6196 1249.5156 6300.6831 3547415
2948.4385 1201.234 6057.2227 3283472
2978.9553 1199.0735 6046.3281 5124120
2973.0293 1182.4698 5962.604 4137737
2873.2722 1129.3746 5694.8716 9996140
2989.9841 1161.6101 5857.4194 14077094
3008.8647 1155.5345 5826.7832 14076578
3063.6782 1163.2401 5865.6382 12490359
3140.4216 1179.0059 5945.1372 11174244
3217.7627 1194.6438 6023.9917 11832948
3236.6404 1188.4713 5992.8667 11241073
3331.5249 1210.0392 6101.6226 8348495
3504.4856 1259.1978 6349.5044 8282705
3555.8628 1264.0896 6374.1724 9401700
3597.9277 1265.6033 6381.8047 9795946
3621.6299 1260.6932 6357.0459 11638405
3760.8442 1295.6804 6533.4688 9928298
3820.8142 1302.9316 6570.0332 9600102
3701.3459 1249.4637 6300.4209 13549219
3668.7156 1226.0846 6182.5317 14208691
3723.5132 1232.0973 6212.8511 13878186
3755.3989 1230.4851 6204.7212 9201237
3848.1799 1248.6636 6296.3857 7820608
3926.1157 1261.722 6362.2339 7755581
3999.196 1272.9867 6419.0356 8874059
4008.0586 1263.7905 6372.6641 9861464
4009.8108 1252.5449 6315.958 10519397
4154.8799 1285.8613 6483.9556 11637623
4072.9363 1248.9545 6297.853 11440247
4165.8242 1265.8425 6383.0112 11045493
4209.145 1267.5007 6391.3726 10387823
4256.2554 1270.2604 6405.2881 10716788
4288.0024 1268.4265 6396.0405 11046266
4377.0005 1283.4117 6471.604 11638404
4489.2974 1304.9092 6580.0049 11704197
4532.084 1306.0057 6585.5342 10848888
4425.5205 1264.4128 6375.8018 10125166
4324.9004 1225.2075 6178.1089 9401442
4367.6621 1226.9382 6186.8364 9137760
4533.1221 1262.8212 6367.7759 9532518
4534.0063 1252.6432 6316.4536 8743260
4501.937 1233.6018 6220.4375 3942175
4571.2656 1242.429 6264.9482 10849390
4618.811 1245.241 6279.1279 10717289
4540.5425 1214.3595 6123.4077 9533275
4672.001 1239.614 6250.7534 9401691
4670.9067 1229.5778 6200.146 9861990
4678.3735 1221.9344 6161.6045 9730409
4780.5527 1238.9553 6247.4326 7428171
4778.3691 1228.8755 6196.605 7691862
4939.9233 1260.7375 6357.269 2692883
4826.9087 1222.5737 6164.8281 10062465
4900.6602 1231.9325 6212.0195 12822419
5102.2007 1273.036 6419.2847 9072731
5160.8301 1278.1379 6445.0107 8809560
5259.1899 1292.9323 6519.6113 9203549
5263.5527 1284.571 6477.4492 9728609
5271.4043 1277.1759 6440.1597 9663584
5246.0352 1261.8961 6363.1113 10123879
5211.7842 1244.7131 6276.4663 9400153
5274.3906 1250.7418 6306.8657 9663578
5091.228 1198.8153 6045.0264 11111534
5062.4341 1183.7091 5968.853 10651236
5036.2344 1169.4147 5896.7734 10848612
4952.8311 1142.1261 5759.1709 10585438
4917.5698 1126.2365 5679.0474 10189911
4977.5884 1132.2358 5709.2993 8282940
4915.8491 1110.6451 5600.4282 6968379
4932.6509 1106.9701 5581.897 12166801
4970.5396 1108.0446 5587.3149 10785156
5073.4336 1123.5002 5665.25 10521994
5132.9639 1129.213 5694.0566 9271675
5325.4673 1163.9133 5869.0327 4469828
5280.998 1146.7075 5782.2725 3681600
5432.8066 1172.0684 5910.1548 3617349
5565.2275 1192.9482 6015.4419 4935517
5520.6963 1175.873 5929.3403 8357523
5529.9756 1170.4026 5901.7549 10660792
5544.6875 1166.1433 5880.2778 12041924
5597.0576 1169.808 5898.7568 12896461
5563.6714 1155.615 5827.1885 13291216
0 0 0 0
0 0 0 0
0 0 0 0
0 0 0 0
-4650.1035 1042.1101 5102.416 23
-4606.1577 1039.0156 5087.2651 25
-4557.8813 1034.8972 5067.1001 25
-4498.6978 1028.2313 5034.4624 27
-4462.6289 1026.7947 5027.4282 27
-4392.5527 1017.4616 4981.7314 283
-4366.1323 1018.1828 4985.2627 284
-4346.1914 1020.435 4996.29 540
-4327.4102 1022.9923 5008.811 286
-4292.1729 1021.6679 5002.3267 542
-4270.019 1023.4611 5011.1064 544
-4240.1113 1023.4078 5010.8452 546
-4217.8081 1025.2021 5019.6309 547
-4185.9883 1024.6924 5017.1353 1060
-4150.9736 1023.3877 5010.7471 1064
-4097.3052 1017.4322 4981.5874 1063
-4037.5154 1009.8591 4944.5078 1063
-4012.4624 1010.9273 4949.7378 1573
-3988.9321 1012.3975 4956.9365 541
-3942.1738 1007.9506 4935.1631 536
-3992.9858 1028.5707 5036.1245 534
-3970.957 1030.5968 5046.0444 530
-3945.9441 1031.8732 5052.2939 275
-3885.9543 1023.9527 5013.5132 274
-3852.2922 1022.9009 5008.3633 273
-3858.5645 1032.5189 5055.4556 15
-3825.2395 1031.6086 5050.9985 16
-3779.7952 1027.3898 5030.3423 16
-3726.7141 1021.0118 4999.1138 16
-3721.4612 1027.74 5032.0566 16
-3673.1548 1022.5909 5006.8457 18
-3647.6812 1023.7664 5012.6011 18
-3638.6028 1029.6003 5041.1655 18
-3624.168 1034.0027 5062.7207 17
-3597.3579 1034.9183 5067.2036 15
-3577.49 1037.8634 5081.623 274
-3543.0764 1036.6027 5075.4507 274
-3523.4902 1039.6957 5090.5947 274
-3479.2666 1035.5093 5070.0972 274
-3440.2041 1032.7996 5056.8296 274
-3412.9302 1033.6123 5060.8091 274
-3385.9248 1034.5217 5065.2617 274
-3355.8572 1034.5032 5065.1709 274
-3321.4109 1033.1224 5058.4106 274
-3290.4094 1032.7977 5056.8208 274
-3268.679 1035.4038 5069.5811 271
-3247.6472 1038.2816 5083.6714 272
-3210.5908 1036.0422 5072.707 272
-3176.5168 1034.7322 5066.2925 272
-3422.3984 1125.4608 5510.521 16
-3139.1289 1042.249 5103.0967 16
-3101.8286 1039.8794 5091.4941 16
-3305.2725 1118.9646 5478.7139 16
-3055.9868 1044.8315 5115.7412 16
-3028.9631 1045.9653 5121.292 16
-3005.2041 1048.2607 5132.5312 16
-2977.3984 1049.1771 5137.0181 16
-2949.6953 1050.149 5141.7764 16
-2923.1699 1051.5648 5148.709 16
-2902.2983 1055.0657 5165.8501 16
-2770.3782 1017.8419 4983.5933 16
-2835.4741 1052.9799 5155.6372 16
-2740.928 1028.9529 5037.9956 18
-2791.6653 1059.5374 5187.7441 18
-2778.5215 1066.2875 5220.7944 18
-2758.1987 1070.4037 5240.9482 18
-2733.7793 1073.0056 5253.688 18
-2710.325 1076.0505 5268.5967 18
-2683.4797 1077.8047 5277.1851 19
-2662.7239 1082.0746 5298.0918 19
-2639.3384 1085.365 5314.2026 19
-2615.7905 1088.6674 5330.3716 19
-2571.2644 1083.2128 5303.6646 19
-2548.3325 1086.8329 5321.3896 19
-2525.311 1090.505 5339.3691 19
-2497.782 1092.2992 5348.1538 19
-2465.1633 1091.885 5346.126 19
-2433.6748 1091.9672 5346.5283 19
-2409.2959 1095.2836 5362.7661 19
-2387.928 1100.0758 5386.23 19
-2358.4458 1101.209 5391.7783 19
-2337.3696 1106.3522 5416.9604 19
-2310.9749 1109.0862 5430.3467 19
-2284.1492 1111.6874 5443.083 19
-2260.8179 1116.0884 5464.6313 20
-2232.4231 1118.0811 5474.3882 21
-2202.3674 1119.2886 5480.3003 21
-2177.939 1123.4348 5500.6011 21
-2147.5635 1124.5928 5506.271 21
-2118.8743 1126.6831 5516.5059 21
-2087.8269 1127.5654 5520.8257 21
-2053.7859 1126.8334 5517.2412 21
-2027.605 1130.4597 5534.9971 21
-1999.1304 1132.9056 5546.9727 21
-1974.6849 1137.7546 5570.7148 21
-1953.2903 1144.5564 5604.0171 21
-1924.5654 1147.2238 5617.0771 21
-1892.4749 1147.9432 5620.6001 21
-1866.8636 1152.6893 5643.8379 21
-1841.4509 1157.7332 5668.5337 21
-1811.5051 1160.0614 5679.9336 21
-1783.3237 1163.6293 5697.4028 21
-1754.5109 1166.9148 5713.4893 22
-1724.9324 1169.8101 5727.6655 23
-1695.4233 1172.87 5742.6475 22
-1665.9746 1176.0975 5758.4507 21
-1635.5863 1178.783 5771.5986 21
-1598.4653 1176.6272 5761.0435 21
-1569.7188 1180.6761 5780.8682 21
-1540.5516 1184.5823 5799.9937 21
-1509.7543 1187.3846 5813.7144 21
-1480.59 1191.6321 5834.5112 21
-1457.6335 1201.1985 5881.3501 21
-1419.844 1198.7103 5869.168 21
-1385.918 1199.441 5872.7456 20
-1352.8981 1201.0137 5880.4453 20
-1318.8346 1201.7185 5883.897 21
-1284.8613 1202.5461 5887.9487 21
-1252.6791 1205.1429 5900.6636 21
-1219.4839 1206.8865 5909.2002 21
-1185.4673 1207.8961 5914.1436 21
-1154.2078 1211.8621 5933.5615 21
-1121.29 1214.2814 5945.4072 21
-1085.1744 1213.2821 5940.5146 21
-1053.7479 1217.6344 5961.8247 21
-1021.4167 1221.2069 5979.3159 21
-989.66376 1225.7521 6001.5708 22
-955.53186 1227.5801 6010.5205 22
-921.78247 1230.0598 6022.6621 23
-888.06494 1232.7833 6035.9976 23
-855.94025 1238.0396 6061.7329 23
-820.91449 1239.3762 6068.2773 23
-786.68927 1242.0992 6081.6099 23
-752.4245 1245.0182 6095.9019 23
-717.48199 1247.0535 6105.8672 23
-683.2525 1250.61 6123.2808 23
-647.92853 1252.4497 6132.2881 23
-612.88019 1255.0723 6145.1294 23
-577.77722 1257.9073 6159.0103 23
-544.25494 1264.7981 6192.749 23
-554.38257 1381.455 6763.9287 23
-516.93799 1388.5098 6798.4707 22
-479.45587 1396.6475 6838.3145 21
-436.17435 1387.8344 6795.1636 21
-394.39105 1382.481 6768.9521 21
-352.99628 1377.4316 6744.2295 21
-314.48877 1383.7981 6775.4009 21
-275.10129 1387.5886 6793.9604 21
-237.23882 1401.6887 6862.998 21
-182.22514 1299.3276 6361.814 21
-144.01724 1294.6614 6338.9668 21
-105.92454 1288.104 6306.8604 21
-68.539917 1287.7026 6304.895 21
-31.187756 1287.6807 6304.7876 21
6.1669836 1288.4644 6308.625 21
43.602631 1290.297 6317.5977 21
81.622292 1299.7363 6363.8145 21
119.5871 1302.6133 6377.9014 21
158.29475 1310.2576 6415.3296 21
196.16943 1309.3821 6411.0425 21
233.34032 1304.8549 6388.8765 21
271.66953 1307.1646 6400.1855 18
308.4772 1302.4843 6377.2695 19
347.47559 1307.066 6399.7026 18
383.88196 1301.9552 6374.6787 18
420.43512 1298.2131 6356.3569 18
457.34018 1296.0836 6345.9302 16
490.41791 1284.255 6288.0146 16
518.65094 1262.3053 6180.5439 15
547.76654 1245.2568 6097.0703 196618
583.59137 1244.6263 6093.9834 458755
0 0 0 0
0 0 0 0
691.59204 1244.0764 6091.291 9006944
745.68854 1274.8677 6242.0522 9138273
786.57721 1281.2356 6273.231 9401701
831.68164 1293.5859 6333.7017 9270116
857.35236 1275.9479 6247.3413 9204323
888.18774 1267.1381 6204.2061 9204323
919.50195 1259.6841 6167.7095 9599080
971.67902 1280.2889 6268.5962 9599080
997.01801 1265.3168 6195.2886 9730410
1045.1384 1279.293 6263.7192 9664873
1085.4966 1283.1353 6282.5317 9664873
1128.5353 1289.7864 6315.0977 9402728
1160.5277 1283.791 6285.7432 9468521
1193.9133 1279.6619 6265.5254 9599851
1195.9202 1243.1632 6086.8193 9731435
1245.5127 1256.819 6153.6812 9664871
1299.3992 1273.9077 6237.3516 9599333
1335.8981 1273.4762 6235.2393 9533540
1370.0215 1270.8644 6222.4512 9533796
1422.2739 1284.7657 6290.5156 9270624
1460.5476 1285.6525 6294.8569 9401698
1490.2388 1279.1282 6262.9126 9007196
1514.9119 1268.7184 6211.9438 8942173
1548.0256 1265.7037 6197.1831 9205091
1594.0112 1273.109 6233.4414 9204834
1650.5535 1288.4197 6308.4062 9007455
1652.3204 1261.2415 6175.335 8941403
1683.2572 1257.0243 6154.6865 10520178
1705.3807 1246.5437 6103.3716 9204061
1729.5074 1237.9324 6061.208 8940888
1767.5657 1239.4401 6068.5903 9466978
1786.8428 1227.9806 6012.4819 8282960
1780.8822 1199.964 5875.3062 8546644
1877.6189 1240.8927 6075.7026 8678231
1897.9045 1230.7067 6025.8296 9007453
1970.423 1254.1421 6140.5747 9006942
1984.4612 1240.1808 6072.2168 9533541
2012.0724 1235.0481 6047.0859 9994350
2033.6449 1226.4531 6005.0029 10126450
2048.436 1214.1342 5944.6865 9863280
2086.3308 1215.6942 5952.3247 9797488
2150.085 1232.0199 6032.2593 9863282
2181.3643 1229.5076 6019.9585 9732465
2201.0593 1220.6519 5976.5986 10324857
2242.7131 1224.0616 5993.2935 11179650
2252.301 1210.1362 5925.1118 10389364
2329.9966 1232.6703 6035.4438 11244928
2408.6313 1255.0125 6144.8364 11771272
2433.8083 1249.2501 6116.6226 13086102
2455.6602 1241.9749 6081.0015 13217689
2493.2661 1242.7629 6084.8599 12362636
2522.7266 1239.5261 6069.0117 9138524
2557.3281 1238.8708 6065.8032 8744281
2626.519 1254.7579 6143.5903 9205088
2652.3328 1249.7716 6119.1758 8942172
2634.9417 1224.8363 5997.0864 8481622
2712.5701 1244.1459 6091.6313 8284243
2773.8391 1255.5438 6147.438 8547415
2797.2949 1249.7523 6119.0815 8086093
2842.2439 1253.5886 6137.8647 8349009
2893.7959 1260.2036 6170.2534 8283216
2946.4556 1267.1299 6204.166 7690823
2918.3933 1239.5985 6069.3662 6836540
2932.6719 1230.5029 6024.8315 7626054
2943.1733 1220.0602 5973.7021 8152396
2993.8091 1226.3053 6004.2793 6836275
2956.1262 1196.652 5859.0894 6309676
2953.4407 1181.6896 5785.8301 14012844
3020.697 1194.7336 5849.6968 13810838
3025.3003 1182.9824 5792.1606 12358517
3070.4053 1187.1547 5812.5889 11438189
3133.3252 1198.0461 5865.9155 10912102
3154.2109 1192.8027 5840.2432 10583658
3311.2285 1238.5946 6064.4507 6835514
3317.8491 1227.7498 6011.3521 8743513
3416.5027 1250.8301 6124.3584 8217169
3455.939 1251.9727 6129.9526 7690824
3483.2085 1248.7299 6114.0752 6243122
3539.8525 1255.9761 6149.5542 7361858
3614.7336 1269.4794 6215.6699 8085579
3686.1323 1281.4999 6274.5249 10388590
3584.6702 1233.7843 6040.8984 12757651
3663.9448 1248.6039 6113.4585 13020566
3711.1345 1252.3064 6131.5869 11507328
3878.7627 1296.1847 6346.4253 10980982
3863.6667 1278.7449 6261.0356 9599073
3862.6562 1266.2542 6199.8784 9204315
3925.9478 1274.8796 6242.1108 8874839
3879.7888 1248.1338 6111.1567 8546131
3853.554 1228.2329 6013.7173 9006683
3882.2737 1226.0516 6003.0371 9335392
3953.6812 1237.2687 6057.959 9598564
3982.8557 1235.1865 6047.7642 9861993
4081.2825 1254.4268 6141.9688 10256751
4121.2959 1255.5319 6147.3794 10651509
4224.6416 1275.7423 6246.3345 9796972
4193.6655 1255.392 6146.6943 5258027
4168.6187 1237.1515 6057.3853 6639938
4159.0557 1223.7786 5991.9082 6639938
4190.2944 1222.5363 5985.8252 7166279
4105.1812 1187.6532 5815.0298 8613982
4228.5249 1213.1569 5939.9014 10521209
4345.9355 1236.5514 6054.4463 7427652
4356.04 1229.2809 6018.8481 7099462
4406.3345 1233.3781 6038.9087 10849649
4383.2046 1217.0225 5958.8286 6703922
4459.5132 1228.3174 6014.1309 8611915
4461.8184 1219.2115 5969.5464 9467476
4528.7676 1227.7742 6011.4712 10257246
4501.0005 1210.7255 5927.9966 10322276
4505.2876 1202.4961 5887.7041 12229760
4533.6299 1200.7646 5879.2266 7229247
4743.1582 1246.682 6104.0488 6179136
4715.1211 1229.9358 6022.0547 6967878
4817.2974 1247.152 6106.3496 7033415
4934.959 1268.0908 6208.8711 8217430
5076.6724 1294.8544 6339.9121 8481113
4979.5703 1260.76 6172.9775 9006686
5006.626 1258.3688 6161.2695 8940895
4978.0161 1242.1222 6081.7227 9071710
4981.9087 1234.161 6042.7427 2100488
4832.6509 1188.6443 5819.8818 5060137
4891.7017 1194.6453 5849.2646 10388578
4903.1587 1189.0205 5821.7241 9796438
4895.9746 1178.9852 5772.5889 9532498
4904.9482 1172.9532 5743.0547 9795672
4896.0088 1162.75 5693.0977 9795671
4865.2993 1147.5516 5618.6826 9861208
4837.4136 1133.2213 5548.5186 7952954
4856.5396 1130.0232 5532.8594 8085315
4738.9395 1095.2677 5362.6885 10454379
4945.2896 1135.3481 5558.9316 11178105
4920.7681 1122.2451 5494.7759 10980730
4935.7915 1118.2737 5475.3311 11771016
5015.2432 1128.8558 5527.144 9073253
5255.7754 1175.3225 5754.6558 8283748
5256.2744 1167.8588 5718.1113 7757920
5373.5654 1186.2737 5808.2749 7758181
5312.9629 1165.4323 5706.2305 7955820
5226.0083 1139.1104 5577.3521 7429991
5194.7344 1125.1796 5509.144 6904680
5340.0703 1149.4376 5627.917 4142149
5378.9458 1150.6216 5633.7139 2630447
0 0 0 0
0 0 0 0
0 0 0 0
0 0 0 0
-4594.1665 1059.4385 5041.0376 279
-4570.5415 1060.8868 5047.9292 281
-4518.3398 1055.6774 5023.1411 281
-4465.4468 1050.2361 4997.251 283
-4410.3872 1044.2095 4968.5747 283
-4362.8604 1039.8972 4948.0562 283
-4340.0957 1041.4688 4955.5337 284
-4300.4185 1038.9756 4943.6704 540
-4281.0015 1041.3766 4955.0952 286
-4266.2788 1044.9604 4972.1484 286
-4229.4312 1043.1376 4963.4746 544
-4206.814 1044.8232 4971.4956 290
-4183.9575 1046.4731 4979.3457 291
-4148.5117 1044.975 4972.2173 1062
-4113.0967 1043.4634 4965.0249 1578
-4061.8506 1037.8848 4938.481 1321
-4003.1362 1030.3032 4902.4058 806
-3975.6875 1030.7166 4904.3726 289
-3942.52 1029.6423 4899.2612 541
-3959.7502 1041.8119 4957.167 536
-3942.2097 1044.9469 4972.0835 534
-3896.311 1040.5557 4951.189 530
-3858.0569 1038.1548 4939.7651 275
-3825.804 1037.3444 4935.9092 274
-3811.8528 1041.5222 4955.7881 272
-3796.52 1045.3844 4974.1655 272
-3745.842 1039.4985 4946.1592 16
-3736.7051 1045.1385 4972.9956 272
-3705.8115 1044.7349 4971.0747 272
-3662.2419 1040.7223 4951.9819 272
-3621.7979 1037.5404 4936.8418 274
-3596.1167 1038.5702 4941.7417 18
-3561.5122 1037.0187 4934.3594 274
-3549.6279 1042.1118 4958.5933 18
-3515.197 1040.6152 4951.4727 18
-3487.7542 1041.1797 4954.1587 274
-3467.6777 1043.9714 4967.4419 274
-3434.9324 1042.9642 4962.6494 274
-3395.9897 1040.0417 4948.7437 274
-3368.3076 1040.5469 4951.1475 274
-3346.7246 1042.9617 4962.6377 274
-3317.4275 1042.9939 4962.791 274
-3282.6282 1041.2815 4954.6426 274
-3251.4468 1040.6962 4951.8574 274
-3220.0618 1040.0342 4948.708 274
-3198.6882 1042.6234 4961.0283 271
-3162.0276 1040.2317 4949.6479 272
-3137.0466 1041.6735 4956.5078 272
-3115.303 1044.2275 4968.6606 272
-3090.0283 1045.6356 4975.3604 16
-3062.6479 1046.3513 4978.7661 16
-3032.5789 1046.1533 4977.8242 16
-3002.428 1045.9231 4976.7285 16
-2978.8088 1047.9861 4986.5449 16
-2962.2019 1052.5822 5008.4141 16
-2936.5701 1054.032 5015.3125 16
-2911.2419 1055.6216 5022.876 16
-2883.8386 1056.4838 5026.9785 15
-2863.2686 1059.8932 5043.2017 15
-2840.2756 1062.4685 5055.4551 19
-2813.8955 1063.818 5061.876 18
-2791.1863 1066.5992 5075.1104 18
-2764.73 1067.9937 5081.7451 18
-2742.4058 1071.0326 5096.2051 18
-2721.2466 1074.5992 5113.1758 18
-2696.7915 1076.9301 5124.2661 18
-2675.4944 1080.5892 5141.6777 18
-2651.0493 1083.0466 5153.3706 18
-2616.5559 1081.4086 5145.5762 19
-2592.1511 1083.9504 5157.6714 18
-2567.2654 1086.3496 5169.0869 19
-2546.5601 1090.5968 5189.2959 20
-2527.938 1095.851 5214.2964 20
-2501.4302 1097.7745 5223.4492 20
-2476.396 1100.401 5235.9463 18
-2453.7102 1104.1508 5253.7886 19
-2425.9001 1105.6616 5260.9771 19
-2400.6099 1108.3749 5273.8877 19
-2368.5146 1107.9767 5271.9927 20
-2341.1572 1109.8136 5280.7334 20
-2315.4834 1112.5092 5293.5596 20
-2291.1687 1115.9408 5309.8882 20
-2266.5764 1119.3308 5326.0186 20
-2242.873 1123.2618 5344.7231 21
-2215.8716 1125.6301 5355.9917 21
-2190.1182 1128.7102 5370.6475 21
-2164.5344 1131.97 5386.1582 21
-2139.4365 1135.5851 5403.3599 21
-2112.2285 1138.1731 5415.6738 21
-2080.8093 1138.5365 5417.4033 21
-2052.7417 1140.7742 5428.0508 21
-2022.6295 1141.9286 5433.5435 21
-1997.3932 1145.9176 5452.5244 21
-1966.2988 1146.6219 5455.8755 21
-1949.8204 1156.0151 5500.5708 21
-1928.3475 1162.7163 5532.4561 21
-1904.0647 1167.9255 5557.2427 21
-1874.7177 1170.1573 5567.8618 21
-1841.7831 1170.1896 5568.0151 21
-1813.0638 1172.95 5581.1499 21
-1783.5577 1175.2944 5592.3057 21
-1756.3431 1179.2662 5611.2046 21
-1727.6858 1182.4041 5626.1343 21
-1698.8154 1185.5165 5640.9438 21
-1676.1698 1193.1849 5677.4326 21
-1647.4564 1196.7598 5694.4424 21
-1618.511 1200.3119 5711.3442 21
-1585.1456 1200.6678 5713.0376 21
-1552.8192 1201.8434 5718.6313 21
-1518.254 1201.3 5716.0459 21
-1487.2977 1203.6526 5727.2397 21
-1460.0266 1209.1669 5753.478 21
-1434.0709 1216.0602 5786.2778 21
-1403.9414 1219.6653 5803.4316 21
-1371.7147 1221.5837 5812.5596 21
-1331.048 1215.8911 5785.4731 21
-1298.3102 1217.3319 5792.3286 21
-1263.3726 1216.7323 5789.4756 21
-1234.5801 1222.1826 5815.4097 21
-1192.6346 1214.5513 5779.0981 21
-1164.8927 1221.361 5811.5 21
-1134.9668 1226.2257 5834.6475 21
-1104.8069 1231.1353 5858.0083 21
-1071.5753 1232.8296 5866.0698 21
-1038.3955 1234.6989 5874.9644 21
-1005.7682 1237.3776 5887.7104 21
-970.35699 1236.7007 5884.4897 23
-936.22577 1237.6655 5889.0806 23
-906.05237 1244.1396 5919.8857 23
-872.6803 1246.5662 5931.4316 23
-838.09167 1247.3855 5935.3301 23
-803.98572 1249.0264 5943.1382 23
-769.47217 1250.1555 5948.5107 23
-735.7879 1252.8049 5961.1172 23
-701.92554 1255.4031 5973.4795 22
-668.07977 1258.3082 5987.3032 22
-634.73627 1262.5383 6007.4307 22
-600.4566 1265.2982 6020.563 20
-565.80927 1267.5828 6031.4336 22
-531.5899 1271.1991 6048.6406 22
-534.71417 1371.0933 6523.9585 22
-500.78021 1384.1265 6585.9731 22
-468.08826 1403.085 6676.1821 21
-427.31046 1399.0688 6657.0728 21
-388.09473 1399.8707 6660.8877 21
-347.06317 1393.5627 6630.8735 21
-307.99512 1394.535 6635.5 21
-268.19656 1392.0005 6623.4399 21
-229.02231 1392.3927 6625.3057 21
-177.93968 1305.5732 6212.2007 21
-139.94533 1294.5481 6159.7397 21
-103.55685 1295.8395 6165.8853 21
-66.848083 1292.3468 6149.2661 21
-30.43153 1292.903 6151.9121 21
6.0458817 1299.8025 6184.7417 21
42.9496 1307.8386 6222.9795 21
80.058655 1311.8158 6241.9033 21
116.97519 1311.1217 6238.6011 21
154.2785 1314.0554 6252.5601 21
191.21112 1313.307 6248.999 21
228.42111 1314.3976 6254.188 21
265.33676 1313.7262 6250.9941 18
300.77795 1306.8134 6218.1006 19
337.73364 1307.271 6220.2783 20
374.12628 1305.6737 6212.6782 19
410.49786 1304.2955 6206.1206 18
444.09091 1295.0414 6162.0874 15
480.22745 1294.0468 6157.355 16
512.92731 1284.5858 6112.3374 16
545.37537 1275.7837 6070.4551 65552
575.43658 1262.8323 6008.8296 131086
603.35736 1246.9663 5933.3359 327687
634.52057 1239.1797 5896.2852 1115653
681.38306 1261.2654 6001.3735 6047806
722.73639 1271.4686 6049.9233 8546908
746.88849 1251.8765 5956.6992 8941152
781.90717 1251.444 5954.6416 9072737
815.91821 1249.506 5945.4199 9862253
856.87286 1257.9216 5985.4634 9599081
903.20459 1273.2485 6058.3926 9862253
928.93469 1259.4719 5992.8398 9862509
964.12646 1259.0656 5990.9062 9664874
998.59259 1257.774 5984.7612 9533031
1037.6049 1262.1008 6005.3486 9269859
1067.9066 1255.8969 5975.8291 9598825
1095.0278 1246.4706 5930.9771 9730923
1145.2216 1263.0774 6009.9961 10059889
1185.1805 1267.7352 6032.1587 9730921
1225.4023 1272.3932 6054.3223 9796201
1262.0717 1273.2024 6058.1729 9664871
1297.3872 1272.6389 6055.4917 9533285
1319.7047 1259.6987 5993.9194 9138527
1359.9283 1264.0808 6014.77 9336162
1396.1725 1264.6345 6017.4048 9073249
1430.7709 1263.707 6012.9917 9731434
1472.1792 1268.6932 6036.7173 9534056
1508.8555 1269.4617 6040.3735 9468263
1538.1018 1264.0883 6014.8057 9336675
1558.7417 1252.0452 5957.502 8744793
1579.0449 1240.2709 5901.4775 8480595
1633.8336 1255.507 5973.9736 8743767
1671.5834 1257.2808 5982.4141 9007196
1689.0012 1244.0061 5919.25 8875610
1733.4369 1250.7661 5951.416 8546645
1757.7971 1243.0597 5914.7476 8875610
1785.5586 1238.0131 5890.7344 8480852
1831.8364 1245.752 5927.5576 8809560
1863.0754 1243.1648 5915.2476 8876123
1903.2538 1246.528 5931.25 8941659
1914.6931 1231.288 5858.7349 8087121
1933.1776 1221.0405 5809.9751 9600108
1947.4663 1208.5479 5750.5322 9139558
1976.0692 1205.215 5734.6738 9205353
1997.6428 1197.78 5699.2969 9074538
2002.5151 1180.7446 5618.2388 9337965
2049.6382 1188.7714 5656.4316 9535858
2093.8308 1194.8674 5685.438 9075301
2118.77 1189.9574 5662.0752 9930347
2146.3591 1186.6654 5646.4106 9337184
2185.3457 1189.6792 5660.751 8087376
2230.6016 1195.9631 5690.6514 8745048
2306.3682 1218.175 5796.3408 11705479
2322.915 1208.9155 5752.2822 11047548
2374.2073 1217.745 5794.2944 12692116
2384.6235 1205.656 5736.772 13679009
2451.5083 1222.0558 5814.8062 11375229
2541.5969 1249.4076 5944.9521 9204316
2598.9194 1260.1249 5995.9468 8415571
2640.3694 1262.9606 6009.4399 7955278
2667.2444 1258.842 5989.8433 9271138
2716.186 1265.1097 6019.666 8415829
2735.4043 1257.55 5983.6953 7757644
2790.1155 1266.2922 6025.293 7823436
2808.6328 1258.5946 5988.6655 7758156
2837.1841 1255.5292 5974.0796 7100225
2862.2334 1251.0088 5952.5708 7692617
2853.1809 1231.8748 5861.5269 7758409
2885.2852 1230.7568 5856.2075 8218446
2893.5078 1219.5995 5803.1187 9007959
2955.5618 1231.1273 5857.9707 11376248
2997.0115 1233.9048 5871.186 13811613
3042.2524 1238.1614 5891.4399 13677718
3039.0063 1222.8115 5818.4019 11835258
3043.9304 1211.0565 5762.4692 10519399
3077.7456 1210.9296 5761.8647 9663580
3143.8059 1223.3527 5820.9771 9598304
3242.4167 1248.0354 5938.4229 9203804
3319.9949 1264.1796 6015.2397 9401186
3365.9014 1268.0488 6033.6514 7822410
3456.0459 1288.3278 6130.1426 8217168
3406.4653 1256.6405 5979.3677 8809563
3420.1902 1248.7185 5941.6729 8349013
3498.2673 1264.2136 6015.4019 8481108
3528.2043 1262.1747 6005.7002 8349266
3505.4058 1241.4991 5907.3218 8810072
3599.8945 1262.3612 6006.5879 9467232
3657.9031 1270.1476 6043.6372 10322284
3679.1111 1265.1285 6019.7554 11836293
3603.6953 1227.299 5839.7544 12297102
3628.4397 1223.9758 5823.9419 12231824
3715.9868 1241.7007 5908.2808 12692634
3761.8262 1245.2882 5925.3511 10258294
3800.4651 1246.448 5930.8691 9732721
3698.1633 1201.785 5718.3535 11244669
3705.7935 1193.3331 5678.1372 8612438
3734.9551 1191.9044 5671.3394 7624519
3751.865 1186.6263 5646.2251 7953744
3847.5771 1206.1445 5739.0967 6440765
3868.8438 1202.1879 5720.27 3283476
3909.7505 1204.35 5730.5576 3218968
3932.3699 1200.8899 5714.0942 11049105
3956.3586 1197.9037 5699.8848 10324862
3956.5925 1187.8363 5651.9824 8876643
3983.9041 1185.9989 5643.2397 9797228
3980.1592 1175.0236 5591.0166 10389874
4114.7515 1204.7322 5732.377 10389615
4246.6484 1233.172 5867.6992 10849654
4155.3359 1196.8589 5694.9141 9796453
4327.3032 1236.3524 5882.8325 9994088
4289.4458 1215.7448 5784.7769 9730658
4243.1846 1193.1008 5677.0322 9664607
4371.6997 1219.5704 5802.98 9467484
4390.5078 1215.2606 5782.4731 10125415
4408.0068 1210.6581 5760.5737 10257004
4472.4912 1218.9318 5799.9414 8085836
4755.7432 1286.2477 6120.2446 8217941
4743.1348 1273.1311 6057.8335 7494478
4752.2705 1266.0043 6023.9224 7757649
4788.4307 1266.1294 6024.5181 7428428
4776.5864 1253.6534 5965.1548 7230278
4885.3853 1272.7921 6056.2202 7295815
4833.6094 1250.1219 5948.3506 6506047
4955.1313 1272.2758 6053.7637 1182729
4693.4907 1196.4376 5692.9097 918274
4759.9116 1204.7126 5732.2837 1179904
4742.5161 1191.807 5670.8755 9204813
4801.8618 1198.2325 5701.4497 8481096
4776.2847 1183.525 5631.4688 8349252
4787.5854 1178.0964 5605.6382 8085826
4780.3765 1168.2191 5558.6396 9598036
4763.312 1156.085 5500.9028 9203794
4735.4429 1141.5112 5431.5576 9927260
4653.8149 1114.2627 5301.9033 9137231
4780.5708 1136.9385 5409.7993 8413255
4747.2603 1121.4979 5336.3296 9597786
4908.7754 1151.9829 5481.3843 11242868
4791.1909 1116.9991 5314.9238 11901315
4817.3281 1115.7601 5309.0283 11703938
5120.6055 1178.3104 5606.6558 9993327
5123.625 1171.4067 5573.8071 10190707
5111.9424 1161.2517 5525.4873 9664110
5082.1685 1147.1426 5458.3525 8612192
5037.7344 1129.9235 5376.4204 8414304
4999.6387 1114.3335 5302.2397 8414561
5043.6782 1117.1304 5315.5483 8283746
5138.4565 1131.0612 5381.834 8152671
0 0 0 0
0 0 0 0
0 0 0 0
0 0 0 0
-4561.3628 1081.5248 5005.0435 278
-4543.4248 1084.3203 5017.98 281
-4496.2515 1080.1293 4998.585 283
-4447.7256 1075.5557 4977.4194 283
-4380.0811 1066.2668 4934.4331 283
-4352.002 1066.5497 4935.7417 284
-4305.939 1062.399 4916.5337 283
-4234.4551 1051.877 4867.8403 285
-4256.5073 1064.6053 4926.7441 288
-4210.1572 1060.2831 4906.7417 289
-4210.5796 1067.7616 4941.3506 546
-4188.104 1069.4977 4949.3848 547
-4155.3911 1068.6255 4945.3481 549
-4120.1914 1067.0969 4938.2744 549
-4071.8184 1062.1101 4915.1968 549
-4018.4871 1055.7489 4885.7588 550
-3974.6646 1051.8118 4867.5381 804
-3941.4006 1050.6316 4862.0767 288
-3918.9854 1052.347 4870.0156 539
-3908.051 1057.1938 4892.4453 537
-3887.7383 1059.5571 4903.3818 533
-3862.72 1060.6637 4908.5034 530
-3842.0859 1063.0002 4919.3159 274
-3816.1633 1063.8981 4923.4712 274
-3784.1057 1063.0863 4919.7144 273
-3751.26 1062.0387 4914.8662 271
-3696.752 1054.7938 4881.3384 271
-3680.0771 1058.3148 4897.6328 272
-3656.7612 1059.9666 4905.2769 272
-3629.8494 1060.5942 4908.1816 17
-3600.52 1060.52 4907.8379 18
-3572.8193 1060.9282 4909.7271 18
-3536.8867 1058.8784 4900.2412 18
-3512.4712 1060.2714 4906.6875 18
-3473.3599 1057.2146 4892.541 18
-3444.8047 1057.3463 4893.1509 274
-3420.7175 1058.8634 4900.1719 274
-3380.6035 1055.4031 4884.1577 274
-3359.7051 1057.9336 4895.8687 274
-3329.4641 1057.5408 4894.0508 274
-3313.6318 1061.7579 4913.5664 274
-3269.5989 1056.9335 4891.2407 274
-3239.0833 1056.4318 4888.9185 274
-3201.4482 1053.5778 4875.7109 274
-3169.7769 1052.6525 4871.4287 274
-3143.5776 1053.5441 4875.5547 16
-3117.4741 1054.4844 4879.9067 16
-3089.8562 1054.9255 4881.9478 16
-3065.3394 1056.4436 4888.9731 16
-3048.2822 1060.5859 4908.1436 16
-3029.2517 1064.1151 4924.4756 16
-2990.3372 1060.6603 4908.4868 16
-2975.6851 1065.8276 4932.4004 16
-2933.8157 1061.2521 4911.2261 16
-2910.7598 1063.4586 4921.437 16
-2888.9734 1066.1782 4934.0229 16
-2863.7139 1067.6587 4940.874 18
-2850.6172 1073.751 4969.0679 17
-2825.2693 1075.3077 4976.272 18
-2796.9602 1075.7583 4978.3574 19
-2772.6462 1077.7714 4987.6733 19
-2747.083 1079.337 4994.9189 19
-2719.5474 1080.1534 4998.6968 19
-2697.7346 1083.2858 5013.1929 19
-2678.1558 1087.395 5032.209 19
-2653.9934 1089.7146 5042.9438 19
-2630.8884 1092.5261 5055.9551 19
-2607.2068 1095.1603 5068.1455 19
-2586.3669 1099.0636 5086.2085 20
-2548.5354 1095.7529 5070.8877 21
-2528.9587 1100.3058 5091.9575 21
-2507.1292 1103.9767 5108.9453 20
-2481.4836 1106.0363 5118.4766 20
-2458.5032 1109.3495 5133.8096 20
-2433.6907 1111.9086 5145.6523 20
-2410.4143 1115.2434 5161.0854 20
-2385.4568 1117.8761 5173.2686 19
-2355.803 1118.3479 5175.4521 19
-2336.7336 1123.923 5201.2524 19
-2309.4731 1125.6548 5209.2666 19
-2275.0737 1123.9067 5201.1768 18
-2249.2195 1126.39 5212.6689 18
-2221.8921 1128.1943 5221.019 19
-2204.3079 1135.0669 5252.8232 19
-2178.8479 1138.0223 5266.501 19
-2150.5212 1139.5449 5273.5469 21
-2129.4966 1145.0388 5298.9712 21
-2102.8357 1147.621 5310.9209 21
-2077.8774 1151.2249 5327.5991 21
-2048.9104 1152.6847 5334.3545 21
-2024.7115 1156.9148 5353.9302 21
-1999.7883 1160.859 5372.1831 21
-1971.0837 1162.7003 5380.7046 21
-1945.3206 1166.3656 5397.667 21
-1921.2549 1171.1885 5419.9854 21
-1896.3459 1175.6522 5440.6431 21
-1868.5654 1178.4594 5453.6338 21
-1839.0671 1180.2629 5461.9805 21
-1808.0154 1181.1163 5465.9297 21
-1779.4126 1183.6299 5477.5615 21
-1753.825 1188.2795 5499.0791 21
-1719.5043 1187.0763 5493.5107 21
-1690.6315 1189.6602 5505.4683 21
-1662.6515 1192.9863 5520.8613 21
-1638.3547 1199.1418 5549.3477 21
-1617.0266 1207.7667 5589.2612 21
-1588.2168 1211.0472 5604.4429 21
-1560.9999 1215.7085 5626.0142 21
-1526.8101 1215.024 5622.8467 21
-1494.5876 1215.9097 5626.9448 21
-1466.3142 1220.1216 5646.437 21
-1437.1267 1223.752 5663.2373 21
-1411.2908 1230.4779 5694.3633 21
-1383.6779 1235.9462 5719.6689 21
-1354.0831 1239.8741 5737.8467 21
-1316.2373 1236.2548 5721.0972 21
-1279.9816 1233.9771 5710.5566 21
-1246.7911 1234.611 5713.4902 21
-1213.3661 1235.0416 5715.4829 21
-1179.2349 1234.7573 5714.1675 21
-1151.571 1241.4283 5745.0396 21
-1118.3187 1242.2977 5749.063 21
-1091.1582 1250.2015 5785.6396 21
-1057.0383 1250.3854 5786.4907 21
-1024.5912 1252.627 5796.8638 21
-990.93237 1253.491 5800.8623 21
-958.3783 1255.8647 5811.8477 23
-927.74457 1261.0258 5835.7319 23
-894.28815 1262.6011 5843.022 23
-860.41528 1263.6915 5848.0684 23
-826.47369 1264.7686 5853.0522 20
-792.72772 1266.2522 5859.9185 20
-756.47955 1263.6918 5848.0693 21
-722.99548 1265.7247 5857.4775 21
-690.53101 1269.8376 5876.5107 21
-658.052 1274.3589 5897.4346 21
-624.14984 1276.4769 5907.2358 21
-588.43872 1274.9271 5900.064 21
-556.68298 1282.2926 5934.1494 21
-556.1369 1367.387 6327.9463 21
-524.59399 1383.0613 6400.4834 21
-485.1192 1378.6368 6380.0083 21
-451.73816 1392.2456 6442.9863 21
-413.90677 1393.3845 6448.2568 21
-375.77878 1393.655 6449.5088 21
-337.84924 1394.806 6454.8354 21
-299.63333 1394.9177 6455.3521 21
-262.10617 1398.7377 6473.0303 21
-224.86424 1405.6499 6505.0181 21
-184.05713 1388.5258 6425.772 21
-136.6481 1299.6793 6014.6113 21
-106.80154 1374.1141 6359.0781 21
-66.189156 1315.6786 6088.6519 21
-30.07246 1313.6628 6079.3237 21
5.9412947 1313.3232 6077.7524 21
41.914093 1312.2843 6072.9443 21
77.838158 1311.3842 6068.7783 21
113.95159 1313.2352 6077.3447 19
149.5759 1309.9138 6061.9741 19
185.32883 1308.7869 6056.7588 19
221.32222 1309.4482 6059.8198 19
256.85199 1307.5648 6051.1035 19
290.96826 1299.8282 6015.3008 19
326.47681 1299.321 6012.9531 19
361.73218 1298.0052 6006.8638 19
397.07593 1297.2137 6003.2012 18
432.6311 1297.1864 6003.0742 18
467.32907 1294.788 5991.9751 18
501.91772 1292.4469 5981.1411 18
536.98901 1291.5753 5977.1079 16
570.30029 1286.8403 5955.1953 65551
599.78522 1274.5262 5898.2085 65549
631.5343 1268.114 5868.5347 196617
664.58972 1264.8574 5853.4639 393476
684.117 1237.4537 5726.646 2562073
732.2641 1261.962 5840.0645 8350561
760.52802 1251.5388 5791.8281 9665902
793.04425 1248.7111 5778.7422 9599851
841.06409 1269.5187 5875.0352 9731179
868.33374 1258.5968 5824.4907 9665385
896.08099 1249.1753 5780.8906 9600105
932.81531 1252.5148 5796.3447 9730922
972.01953 1258.8156 5825.5034 9598823
999.14337 1249.576 5782.7451 9467495
1024.0244 1238.2373 5730.272 9664874
1069.2935 1251.488 5791.5933 9138527
1090.7196 1236.877 5723.9766 9073504
1132.9125 1245.9862 5766.1323 9468263
1184.3782 1264.4623 5851.6348 9863021
1214.7804 1260.0392 5831.166 9863021
1251.4237 1262.1554 5840.9595 9797228
1278.0376 1254.3145 5804.6729 9731435
1313.3562 1255.2036 5808.7881 9599849
1340.1099 1248.0707 5775.7788 9402470
1393.3085 1265.3086 5855.5513 9007968
1420.2819 1258.4713 5823.9106 8678747
1448.967 1253.4393 5800.6235 8941918
1476.8994 1248.0044 5775.4717 9007712
1515.238 1251.4099 5791.2314 9007966
1552.6559 1253.9208 5802.8516 8679001
1567.7303 1238.6696 5732.2725 8349779
1610.5767 1245.5422 5764.0776 9073501
1653.2551 1252.0027 5793.9746 9139296
1694.4937 1257.1318 5817.7114 9205089
1715.7676 1247.5403 5773.3237 7691593
1746.8577 1245.3215 5763.0562 8086351
1759.2471 1230.1118 5692.6689 8810073
1803.8749 1237.592 5727.2861 9468003
1836.8 1236.9156 5724.1558 9664872
1854.6588 1226.3018 5675.0371 9139298
1886.5931 1225.207 5669.9707 8613210
1923.3588 1227.233 5679.3467 7954766
1912.2488 1199.1667 5549.4629 7823693
1937.0226 1194.1716 5526.3467 8021073
1949.0906 1181.6396 5468.3516 9402983
1979.8055 1180.6373 5463.7129 11311496
2057.0129 1206.9467 5585.4658 8613982
2064.8308 1192.3533 5517.9316 7758409
2130.8479 1211.2986 5605.606 8218703
2148.8193 1202.7698 5566.1362 8350547
2188.0366 1206.2107 5582.0605 8810584
2225.4299 1208.5591 5592.9282 9139550
2288.7759 1224.7257 5667.7432 9929066
2295.3428 1210.4814 5601.8242 9863016
2364.2358 1229.0435 5687.7251 13021849
2391.3953 1225.6935 5672.2222 14008744
2451.1599 1238.9164 5733.4146 13679266
2476.9258 1234.8284 5714.4961 12165256
2577.1382 1267.4641 5865.5269 9401695
2598.6167 1261.0244 5835.7256 9007194
2628.4961 1258.7772 5825.3257 10980984
2665.6787 1260.0403 5831.1709 11573378
2665.7917 1243.9728 5756.8145 11507586
2677.7744 1233.7802 5709.645 9928300
2667.2866 1213.6176 5616.3374 9402723
2703.4189 1214.9027 5622.2852 8876635
2720.217 1207.5739 5588.3687 8350034
2755.8135 1208.6656 5593.4214 8613205
2819.27 1221.8055 5654.23 8941913
2901.4138 1242.6405 5750.6489 9007189
2933.8132 1241.9341 5747.3799 10388586
2987.0308 1249.9554 5784.501 12955023
3030.7231 1253.8541 5802.543 13151889
3011.2957 1231.8447 5700.6885 12296579
3047.2051 1232.7094 5704.6899 11046515
3152.3809 1261.2683 5836.854 12033668
3159.3289 1250.3333 5786.249 13087389
3224.3208 1262.3578 5841.8955 14140849
3169.8679 1227.8594 5682.2456 13350565
3317.313 1271.4701 5884.0659 11968141
3278.5171 1243.5332 5754.7803 11638917
3327.8079 1249.2384 5781.1826 11441538
3348.5786 1244.2303 5758.0063 9006681
3389.2207 1246.6323 5769.1221 7822665
3347.0156 1218.8176 5640.4023 8151630
3436.4175 1239.0035 5733.8184 8875355
3514.8496 1254.8782 5807.2822 9401954
3558.1404 1258.0204 5821.8232 9007972
3473.0029 1216.1309 5627.9683 9534317
3480.926 1207.3149 5587.1704 10062208
3479.8713 1195.5804 5532.8657 10852239
3522.0051 1198.7648 5547.6025 10852241
3626.24 1222.8319 5658.9795 13088944
3603.5095 1204.0353 5571.9932 13483955
3566.6897 1180.915 5464.998 13615282
3557.2402 1167.1914 5401.4883 13020318
3746.3188 1218.2722 5637.8784 9204833
3761.7952 1212.4951 5611.1431 9007199
3837.0203 1225.9087 5673.2178 6376253
3876.3264 1227.7129 5681.5674 6112822
3831.9802 1203.2197 5568.2188 6507837
3908.3083 1216.7122 5630.6592 8876383
3989.5288 1231.4867 5699.0317 8613212
3934.0327 1204.1656 5572.5962 9468263
3762.939 1142.2106 5285.8828 12562853
3818.3503 1149.4646 5319.4526 13879226
3836.0312 1145.3345 5300.3394 12694694
3854.4241 1141.4822 5282.5122 11772822
4055.759 1191.4337 5513.6763 11180425
4057.0986 1182.3053 5471.4316 10522237
4176.4834 1207.4491 5587.7915 10258806
4274.2588 1225.9993 5673.6372 10916475
4275.5488 1216.8007 5631.0679 10652532
4359.3545 1231.046 5696.9927 9994345
4455.54 1248.5417 5777.959 9270112
4499.5464 1251.2605 5790.5405 9072479
4475.1602 1235.063 5715.582 9072225
4454.498 1220.1288 5646.4697 8677980
4523.8247 1229.8822 5691.6064 8875359
4582.147 1236.5217 5722.3325 8546140
4528.1777 1212.9835 5613.4038 8611932
4467.2715 1187.9442 5497.5273 8545884
4564.9727 1205.1389 5577.1006 8414039
4706.2559 1233.5094 5708.3926 7558729
4661.7031 1213.1152 5614.0127 7427399
4693.1011 1212.6343 5611.7876 6243123
4744.3364 1217.2499 5633.1475 6967100
4695.9121 1196.41 5536.7056 7756358
4570.4893 1156.3779 5351.4463 7953992
4608.5161 1157.9669 5358.7998 8282443
4580.4224 1143.0339 5289.6929 8611407
4564.9468 1131.4313 5235.9985 8545355
4590.9512 1130.1967 5230.2852 8479305
4685.022 1145.6228 5301.6738 7689530
4870.3076 1182.9998 5474.6455 9860955
4889.4067 1179.7823 5459.7563 10452834
4830.0137 1157.7922 5357.9907 12361087
4879.2021 1161.9468 5377.2173 11505524
4862.4307 1150.4417 5323.9746 10387052
5005.3457 1176.6229 5445.1353 10255214
4970.29 1160.9005 5372.3755 10519414
4971.9858 1153.9076 5340.0137 10453621
4992.4785 1151.3379 5328.1221 10584951
4986.7783 1142.798 5288.6011 10124403
4980.9375 1134.3328 5249.4263 9664364
4981.0415 1127.318 5216.9634 8940899
0 0 0 0
0 0 0 0
0 0 0 0
0 0 0 0
0 0 0 0
-4487.6953 1100.3831 4956.4297 281
-4448.3364 1097.9159 4945.3169 283
-4370.1401 1085.7667 4890.5938 283
-4342.9077 1086.2021 4892.5552 284
-4316.3994 1086.8256 4895.3633 283
-4277.1523 1084.2284 4883.6646 286
-4256.8071 1086.4199 4893.5361 286
-4230.2964 1087.0571 4896.4058 288
-4156.9155 1075.5758 4844.6909 290
-4192.0005 1092.1948 4919.5474 546
-4176.3306 1095.73 4935.4712 547
-4139.5522 1093.7379 4926.4985 549
-4086.0132 1087.2577 4897.3096 548
-4048.7791 1085.0544 4887.3853 548
-4000.656 1079.8801 4864.0791 802
-3941.166 1071.5404 4826.5142 798
-3906.6177 1069.9095 4819.1685 284
-3878.7771 1070.1052 4820.0498 537
-3863.5728 1073.8157 4836.7632 536
-3842.4812 1075.9335 4846.3018 532
-3806.7637 1073.9567 4837.3979 532
-3792.9185 1078.1671 4856.3633 530
-3760.3567 1077.0812 4851.4717 274
-3728.1138 1076.0704 4846.9189 274
-3692.137 1073.958 4837.4038 274
-3659.6877 1072.8464 4832.3975 274
-3631.9724 1073.1162 4833.6123 274
-3605.3831 1073.7256 4836.3569 274
-3573.0938 1072.6335 4831.4385 274
-3538.3271 1070.7743 4823.0635 274
-3510.2395 1070.9222 4823.7305 274
-3482.7952 1071.2706 4825.2993 274
-3458.2092 1072.5112 4830.8877 274
-3425.0154 1071.0807 4824.4438 274
-3392.6643 1069.8918 4819.0889 274
-3358.4971 1068.1051 4811.041 274
-3325.1909 1066.5641 4804.0996 274
-3294.3252 1065.7859 4800.5947 274
-3286.5027 1072.5143 4830.9009 274
-3258.4985 1072.7168 4831.813 274
-3229.9082 1072.7281 4831.8643 274
-3196.0781 1070.984 4824.0083 274
-3165.0093 1070.1421 4820.2158 274
-3142.3459 1072.1525 4829.2715 273
-3097.2817 1066.4868 4803.7515 16
-3066.8318 1065.7947 4800.6343 16
-3041.7878 1066.986 4806 16
-3013.426 1067.0249 4806.1753 16
-2991.1895 1069.2543 4816.2168 16
-2963.1892 1069.4463 4817.082 16
-2937.1521 1070.3574 4821.186 16
-2918.8677 1074.1395 4838.2217 16
-2892.8894 1075.1372 4842.7153 16
-2867.4832 1076.3695 4848.2661 18
-2842.6155 1077.8311 4854.8491 18
-2821.6318 1080.8102 4868.2681 18
-2794.6521 1081.5304 4871.5122 18
-2778.269 1086.4093 4893.4883 18
-2744.353 1084.4629 4884.7207 18
-2727.0083 1089.093 4905.5762 18
-2704.1084 1091.5803 4916.7798 18
-2685.2578 1095.7742 4935.6704 18
-2661.2036 1097.9138 4945.3076 19
-2641.5586 1101.9402 4963.4434 19
-2617.593 1104.2346 4973.7783 18
-2597.2163 1108.1125 4991.2456 18
-2563.4565 1106.3041 4983.0996 18
-2531.1975 1105.1086 4977.7148 20
-2507.4675 1107.6527 4989.1743 20
-2482.9973 1109.9265 4999.416 20
-2463.7412 1114.6141 5020.5308 19
-2445.5947 1119.9244 5044.4497 19
-2422.0264 1122.8527 5057.6392 19
-2396.9692 1125.1553 5068.0107 20
-2374.0432 1128.5294 5083.209 20
-2350.6357 1131.7585 5097.7534 20
-2324.7136 1133.8451 5107.1519 21
-2298.3909 1135.7887 5115.9062 20
-2274.699 1139.1018 5130.8296 21
-2249.2515 1141.6134 5142.1426 21
-2215.2332 1139.7843 5133.9038 21
-2181.7517 1138.1843 5126.6973 21
-2157.7278 1141.5426 5141.8237 21
-2139.5024 1148.1088 5171.3994 21
-2118.4719 1153.3385 5194.9556 21
-2087.4314 1153.1923 5194.2969 21
-2067.2329 1159.1211 5221.0024 21
-2045.2692 1164.2251 5243.9922 21
-2025.7728 1170.913 5274.1157 21
-1996.9524 1172.3363 5280.5273 21
-1966.9918 1173.125 5284.0796 21
-1947.0906 1180.0358 5315.2075 21
-1920.2876 1182.922 5328.208 21
-1888.4175 1182.7313 5327.3491 21
-1860.7152 1185.1887 5338.418 21
-1832.771 1187.5743 5349.1636 21
-1804.1354 1189.588 5358.2339 21
-1774.546 1191.0338 5364.7461 21
-1745.8757 1193.1604 5374.3247 21
-1714.1753 1193.2567 5374.7583 21
-1691.2677 1199.5933 5403.2998 21
-1664.6407 1203.4852 5420.8306 21
-1638.6608 1208.0074 5441.1997 21
-1607.942 1209.1476 5446.335 21
-1579.6193 1212.173 5459.9624 21
-1552.5781 1216.329 5478.6821 21
-1524.2926 1219.6669 5493.7168 21
-1496.6323 1223.6615 5511.71 21
-1468.312 1227.2826 5528.0205 21
-1437.2213 1228.7006 5534.4072 21
-1406.5416 1230.5442 5542.7114 21
-1385.2024 1240.843 5589.1006 21
-1354.0586 1242.6484 5597.2324 21
-1324.201 1245.7546 5611.2236 21
-1292.6865 1247.4219 5618.7329 21
-1262.7982 1250.7877 5633.894 21
-1227.8363 1249.1748 5626.6289 21
-1195.0743 1249.7725 5629.3208 21
-1162.2539 1250.3414 5631.8838 21
-1130.1191 1251.7036 5638.019 21
-1098.0326 1253.2035 5644.7754 21
-1070.3853 1260.0234 5675.4946 21
-1034.77 1257.6023 5664.5884 21
-1002.9896 1259.8353 5674.647 21
-970.73364 1261.6055 5682.6201 21
-941.80255 1267.9791 5711.3286 23
-908.18536 1268.2834 5712.6997 23
-875.60785 1270.1196 5720.9702 23
