# .PCD v0.7 - Point Cloud Data file format
VERSION 0.7
FIELDS x y z rgb
SIZE 4 4 4 4
TYPE F F F U
COUNT 1 1 1 1
WIDTH 1411
HEIGHT 1
VIEWPOINT 0 0 0 1 0 0 0
POINTS 1411
DATA ascii
-649.57733 1398.8218 2898.0481 19
-634.27496 1402.9498 2906.6006 18
-618.20032 1405.5524 2911.9927 18
-599.12189 1401.2789 2903.1392 19
-578.98804 1394.2114 2888.4968 20
-559.48126 1388.2695 2876.1863 21
-556.27795 1423.6796 2949.5481 21
-529.79584 1399.8768 2900.2341 21
-511.77896 1397.5958 2895.5085 21
-496.57559 1403.1066 2906.9255 21
-478.42807 1400.3954 2901.3086 21
-461.47937 1401.1219 2902.8137 21
-450.0748 1419.3894 2940.6597 21
-438.97397 1440.1239 2983.6172 21
-415.74368 1421.1365 2944.2793 21
-387.96573 1384.26 2867.8794 21
-371.9415 1387.8635 2875.3452 21
-353.04181 1380.5685 2860.2314 21
-340.92484 1400.3989 2901.3157 21
-324.28326 1402.7627 2906.2131 21
-306.40173 1399.7274 2899.9246 21
-288.49832 1396.2253 2892.6689 21
-271.72067 1398.0735 2896.4978 21
-254.21031 1396.1465 2892.5056 21
-233.66046 1376.0413 2850.8521 21
-215.93921 1370.7588 2839.908 21
-200.46739 1380.0695 2859.1975 21
-183.1073 1376.8993 2852.6299 21
-166.27843 1377.4856 2853.8445 21
-149.53642 1379.0056 2856.9934 21
-132.4772 1377.6146 2854.1118 19
-115.61057 1378.1124 2855.1433 19
-98.239838 1371.7423 2841.9458 19
-81.430801 1372.2023 2842.8987 19
-64.620468 1372.8744 2844.291 19
-47.73584 1371.8856 2842.2427 19
-30.855028 1369.9888 2838.3127 19
-14.040228 1369.9896 2838.3145 18
2.7723434 1368.8811 2836.0178 18
19.590092 1370.0376 2838.4138 19
36.45179 1371.7798 2842.0232 19
54.016232 1390.5115 2880.8311 19
68.849937 1346.8301 2790.333 19
84.953621 1340.0963 2776.3821 19
100.96118 1334.2765 2764.325 19
116.71406 1327.1853 2749.6335 19
132.97006 1326.8516 2748.9419 19
149.60205 1329.9331 2755.3264 19
165.36566 1325.448 2746.0342 19
181.96625 1327.8741 2751.0605 19
197.0303 1319.6105 2733.9399 19
213.28224 1319.9536 2734.6509 19
229.24084 1318.5612 2731.7661 19
245.26965 1317.7295 2730.0432 19
260.98514 1315.4216 2725.2617 19
276.49948 1312.4279 2719.0593 19
289.92697 1300.4037 2694.1477 19
308.80289 1312.7966 2719.8232 19
324.59641 1311.5065 2717.1504 18
338.40222 1302.6864 2698.8772 18
353.79672 1300.5021 2694.3516 18
371.79214 1307.6542 2709.1692 18
386.48029 1303.0635 2699.6582 18
402.00363 1301.5415 2696.5051 18
417.01382 1298.5381 2690.2827 19
427.13556 1281.094 2654.1426 19
445.65329 1289.1764 2670.8875 19
460.19098 1285.5859 2663.4487 19
474.19904 1280.803 2653.5396 19
491.68497 1285.4193 2663.1035 19
506.53494 1283.0715 2658.2395 19
524.50983 1288.5421 2669.5735 19
537.19958 1281.0889 2654.1318 19
550.00977 1274.3385 2640.1465 19
565.86902 1274.8307 2641.1663 19
582.61658 1277.2437 2646.1653 19
595.91205 1272.1605 2635.6343 19
604.57721 1257.7047 2605.6851 19
623.72949 1265.2419 2621.3005 19
637.61377 1261.9862 2614.5554 19
648.81213 1253.6951 2597.3779 19
638.43365 1205.0612 2496.6191 19
647.28809 1194.1102 2473.9314 19
658.60785 1188.0917 2461.4622 19
664.78967 1173.2661 2430.7468 19
679.02808 1172.9865 2430.1675 19
695.6167 1176.6938 2437.8484 19
706.38721 1170.609 2425.2419 19
722.67725 1173.7311 2431.7104 19
734.04272 1168.8894 2421.6794 19
743.42798 1161.1404 2405.6252 19
755.50317 1157.8053 2398.7156 18
711.19855 1069.7867 2216.3606 18
716.68927 1058.5037 2192.9846 18
723.28369 1049.2234 2173.7581 18
728.28076 1037.9912 2150.4875 18
738.74658 1034.8057 2143.8877 18
744.22333 1024.8575 2123.2773 18
748.29016 1013.3307 2099.3962 18
750.37146 999.53589 2070.8167 18
757.60565 992.93848 2057.1482 65552
763.33209 984.6051 2039.8833 65549
769.59052 977.20703 2024.5562 196616
775.53046 969.63776 2008.8743 853513
789.487 972.16907 2014.1184 2760478
816.57489 990.55383 2052.2078 5720129
830.69299 992.89691 2057.062 7429972
841.68481 991.48962 2054.1465 7232334
849.84802 986.83789 2044.509 7956312
853.57947 977.24298 2024.6306 8087642
875.89044 988.89062 2048.762 7956056
883.37634 983.71094 2038.0306 7232076
886.03717 973.37018 2016.6071 8086872
905.08984 981.07251 2032.5646 7494735
922.21838 986.5144 2043.8387 7955286
937.25146 989.60266 2050.2371 7626321
949.67737 989.89435 2050.8413 7560528
965.80493 993.98834 2059.3232 7823700
973.19513 989.10004 2049.1958 8021592
986.32794 990.0968 2051.2607 8218972
995.80127 987.44043 2045.7573 8086874
1016.1729 995.52484 2062.5066 8086874
1030.8657 997.91992 2067.4685 8218460
1047.7542 1002.3591 2076.6655 6507842
1048.3047 991.24664 2053.6431 7297357
1060.2206 991.01263 2053.1582 6968649
1073.4398 991.98834 2055.1797 7890262
1083.8853 990.40759 2051.9048 7495505
1096.6003 990.9129 2052.9517 7955286
1108.1217 990.34021 2051.7651 7823702
1124.1647 993.77722 2058.8857 8086874
1136.4977 993.89587 2059.1316 8612961
1149.9055 994.94196 2061.2988 7560530
1178.3845 1008.8691 2090.1531 8086874
1183.0907 1002.3655 2076.6787 8087388
1201.644 1007.6068 2087.5376 6705477
1207.3059 1002.0416 2076.0078 7561045
1225.1592 1006.6053 2085.4626 7692631
1236.7833 1006.011 2084.2314 7824475
1253.4833 1009.5164 2091.4939 7494483
1265.2693 1009.0343 2090.4951 7495253
1271.824 1004.4302 2080.9563 7561046
1283.3855 1003.8305 2079.7141 7626839
1283.964 994.73352 2060.8669 7890013
1292.3956 991.83453 2054.8611 7429462
1305.2864 992.37982 2055.9907 7823963
1318.568 993.20947 2057.7097 8021599
1339.4528 999.69855 2071.1536 7100497
1346.1674 995.59003 2062.6416 7232083
1357.8425 995.19086 2061.8147 7495255
1389.3131 1009.1782 2090.7932 7955805
1392.4731 1002.5356 2077.0312 6771532
1399.1622 998.52795 2068.7283 7429719
1405.4669 994.31781 2060.0059 8153185
1424.0698 998.80585 2069.304 8021599
1432.2137 995.94427 2063.3755 7824220
1439.733 992.70044 2056.655 7495255
1471.5072 1006.0945 2084.4045 7363669
1487.1134 1008.3033 2088.9807 7560791
1505.9709 1012.662 2098.011 7363668
1520.507 1014.0672 2100.9221 7429460
1524.3755 1008.3927 2089.166 8942442
1536.452 1008.1959 2088.7581 7758424
1555.7451 1012.6996 2098.0889 7560019
1566.6986 1011.7464 2096.114 7362899
1574.8671 1009.0239 2090.4734 6244417
1598.5001 1016.1747 2105.2883 6836554
1595.9824 1006.7193 2085.699 7362899
1622.9413 1015.8596 2104.6355 8152415
1622.3801 1007.7661 2087.8677 8152415
1634.8894 1007.8527 2088.0471 7955036
1651.7517 1010.6011 2093.7412 7560278
1664.9618 1011.0908 2094.7556 7626071
1680.6947 1013.0938 2098.9055 7888986
1697.5708 1015.7516 2104.4119 7099727
1725.078 1024.6854 2122.9207 7955036
1731.9521 1021.3226 2115.9539 9007723
1745.484 1021.9061 2117.1626 8086365
1746.2216 1015.0441 2102.946 7954521
1750.2094 1010.1551 2092.8171 7822935
1761.3076 1009.4101 2091.2737 8414557
1760.1744 1001.7145 2075.3301 8217179
1793.9255 1013.8406 2100.4526 8085593
1802.1433 1011.4689 2095.5391 8414558
1817.7416 1013.2435 2099.2158 8019800
1820.8933 1008.1034 2088.5664 8480351
1824.7037 1003.3948 2078.8113 7690835
1826.1287 997.44641 2066.4875 8480865
1854.0718 1005.9651 2084.1365 8480864
1878.1887 1012.309 2097.2795 8086107
1890.0455 1012.0048 2096.6494 7757142
1905.0016 1013.3535 2099.4434 7888728
1916.4431 1012.827 2098.3528 7625558
1929.2169 1013.0068 2098.7253 8283488
1924.1283 1003.8653 2079.7861 7428179
1945.863 1008.7453 2089.8965 7954523
1957.6067 1008.4171 2089.2163 7691351
1974.7434 1010.8535 2094.2642 7362386
1986.835 1010.693 2093.9316 7822937
2001.2742 1011.7214 2096.0623 8020314
0 0 0 0
0 0 0 0
0 0 0 0
0 0 0 0
0 0 0 0
0 0 0 0
0 0 0 0
0 0 0 0
0 0 0 0
0 0 0 0
-2157.8601 1203.8411 2463.8508 21
-2139.1929 1201.5546 2459.1711 21
-2125.0974 1201.822 2459.7188 21
-2115.4727 1204.6393 2465.4846 19
-2115.0237 1212.757 2482.0989 19
-2092.9756 1208.5167 2473.4204 19
-2090.5249 1215.6122 2487.9424 19
-2063.5535 1208.4489 2473.2815 19
-2082.4841 1228.256 2513.8201 19
-2120.3542 1259.5997 2577.97 19
-2055.3689 1229.8534 2517.0894 19
-2099.9766 1265.7279 2590.5122 19
-2087.7856 1267.644 2594.4338 19
-2062.1101 1261.3406 2581.5327 19
-2057.7075 1268.052 2595.2688 19
-2051.8413 1273.9558 2607.3518 19
-2042.0245 1277.4778 2614.5601 19
-2032.9867 1281.5447 2622.8835 19
-2002.1494 1271.8264 2602.9937 18
-1973.2792 1263.2166 2585.3723 18
-1972.0961 1272.3348 2604.0342 19
-1945.291 1264.936 2588.8916 19
-1938.5364 1270.5613 2600.4045 20
-1924.8342 1271.6865 2602.7075 21
-1917.4745 1277.0542 2613.6931 21
-1906.5682 1280.1278 2619.9839 21
-1890.2831 1279.6107 2618.9255 21
-1861.21 1270.3567 2599.9858 21
-1797.7346 1237.2715 2532.2717 21
-1778.665 1234.4484 2526.4937 21
-1824.9038 1277.2878 2614.1714 21
-1695.0836 1196.5787 2448.9875 21
-1791.6205 1275.6434 2610.8059 21
-1780.244 1278.5814 2616.8188 21
-1778.1906 1288.3254 2636.7617 21
-1766.6931 1291.3395 2642.9302 21
-1664.4432 1227.4799 2512.2314 21
-1716.8787 1277.5732 2614.7556 21
-1704.9691 1280.2621 2620.2588 21
-1690.0192 1280.6964 2621.1475 21
-1599.0564 1223.002 2503.0669 21
-1576.6252 1217.1329 2491.0549 21
-1571.679 1224.7787 2506.7031 21
-1555.6917 1223.8843 2504.8726 21
-1545.575 1227.6354 2512.5498 21
-1529.5548 1226.725 2510.6865 21
-1509.2645 1222.3383 2501.7085 21
-1501.1381 1227.8137 2512.9148 21
-1487.8114 1229.1028 2515.553 21
-1476.2118 1231.859 2521.1941 21
-1463.0485 1233.3535 2524.2529 19
-1449.6003 1234.6364 2526.8784 19
-1434.3409 1234.3871 2526.3682 19
-1419.9314 1234.8717 2527.3601 19
-1404.959 1234.8719 2527.3606 19
-1391.619 1236.3224 2530.3291 19
-1383.449 1242.4475 2542.8652 19
-1366.8967 1241.0966 2540.1003 19
-1343.5209 1233.4512 2524.4529 19
-1326.0623 1231.1272 2519.6963 19
-1312.2454 1232.1698 2521.8303 19
-1299.8561 1234.5924 2526.7883 19
-1290.5916 1240.0739 2538.0071 19
-1275.2905 1239.8158 2537.479 21
-1261.83 1241.3624 2540.6443 21
-1244.7875 1239.38 2536.5869 21
-1228.3442 1237.9529 2533.6663 21
-1213.66 1238.2854 2534.3467 21
-1272.3635 1314.4408 2690.2107 21
-1192.1998 1247.2488 2552.6919 21
-1182.1906 1252.6671 2563.7812 21
-1169.6307 1255.4886 2569.5559 21
-1159.5663 1261.0985 2581.0374 21
-1142.7783 1259.4484 2577.6602 19
-1125.3422 1257.0293 2572.7092 19
-1108.5135 1255.2321 2569.0308 19
-1091.283 1252.9231 2564.3052 19
-1075.5735 1252.3199 2563.0708 19
-1063.8726 1256.4338 2571.4902 22
-1052.6479 1261.2378 2581.3225 21
-1040.2148 1264.7141 2588.4373 21
-1026.46 1266.6633 2592.4268 19
-1076.7847 1348.9479 2760.835 19
-1056.7018 1344.2067 2751.1313 19
-1042.1722 1346.4921 2755.8088 19
-1024.2821 1344.439 2751.6067 19
-1006.5311 1342.5052 2747.6492 19
-996.75049 1351.3135 2765.6765 19
-985.22241 1358.0074 2779.3767 19
-967.26239 1355.9126 2775.0894 19
-953.87457 1360.2655 2783.9983 19
-930.07568 1349.6637 2762.3 19
-919.87421 1358.7672 2780.9319 19
-900.44696 1354.3267 2771.8435 18
-887.03809 1358.9413 2781.2881 21
-877.21155 1369.3226 2802.5352 21
-862.65137 1372.5728 2809.187 21
-849.65039 1378.4803 2821.2778 21
-826.49152 1367.8141 2799.4478 21
-817.70746 1380.9879 2826.4102 21
-800.23016 1379.7241 2823.8235 21
-785.37024 1383.0155 2830.5598 21
-777.3476 1398.7537 2862.7703 21
-764.50812 1406.3328 2878.2822 21
-749.08997 1409.4061 2884.5723 21
-732.74799 1410.8441 2887.5154 21
-702.7135 1385.3569 2835.3518 21
-688.17676 1389.9226 2844.6963 19
-667.78192 1382.5887 2829.6863 19
-655.90637 1392.9698 2850.9331 19
-641.75415 1398.937 2863.1455 19
-625.6825 1400.9302 2867.2251 19
-611.29126 1406.9025 2879.4482 19
-589.98987 1396.8571 2858.8887 18
-576.06427 1404.1967 2873.9104 21
-558.99341 1404.0833 2873.6782 21
-542.44568 1405.318 2876.2053 21
-527.37372 1410.5801 2886.9751 21
-508.50681 1405.7041 2876.9956 21
-490.48636 1402.9113 2871.2795 21
-472.43005 1399.8114 2864.9351 21
-457.81439 1407.0549 2879.7603 21
-441.30057 1408.7996 2883.3311 21
-423.474 1406.3256 2878.2673 20
-405.18112 1402.0298 2869.4756 22
-384.1261 1387.382 2839.4963 22
-367.27097 1387.2561 2839.239 21
-352.46768 1395.2405 2855.5801 21
-333.56097 1386.9675 2838.6482 21
-319.72861 1400.0358 2865.3945 21
-301.08609 1392.3258 2849.6147 21
-283.8075 1390.3817 2845.636 21
-269.6579 1404.4893 2874.5093 21
-253.47987 1409.2214 2884.1943 21
-236.39685 1409.243 2884.2385 21
-215.00468 1381.578 2827.6177 21
-200.76999 1399.1167 2863.5134 21
-182.42062 1388.5721 2841.9324 21
-165.48096 1387.705 2840.1575 21
-148.52669 1386.5049 2837.7014 19
-131.88828 1388.3237 2841.4238 18
-114.48631 1381.4611 2827.3784 19
-97.32444 1375.64 2815.4646 19
-80.476234 1372.7612 2809.5728 19
-63.867996 1373.542 2811.1709 19
-47.235474 1374.1672 2812.4504 19
-30.515429 1371.54 2807.0735 19
-13.856748 1368.6815 2801.2229 19
2.7426574 1370.8446 2805.6501 19
19.395864 1373.103 2810.2722 19
36.23114 1380.2109 2824.8198 19
53.484425 1393.7198 2852.468 19
70.486061 1395.759 2856.6414 19
83.775375 1337.7299 2737.8755 19
100.02151 1338.0822 2738.5967 19
116.0601 1335.9473 2734.2273 19
132.33345 1336.7065 2735.781 19
147.93462 1331.2512 2724.616 19
163.72046 1328.3677 2718.7144 19
179.30951 1324.5469 2710.8945 19
195.29953 1324.0728 2709.9241 19
210.37413 1317.9359 2697.364 19
227.19479 1322.8318 2707.3843 19
243.89856 1326.4463 2714.782 19
259.44894 1323.7289 2709.2205 19
273.55933 1314.4091 2690.146 19
290.79254 1320.2943 2702.1909 19
307.21939 1322.0951 2705.8767 19
322.64743 1319.6321 2700.8357 18
338.8461 1320.4049 2702.4172 18
353.51065 1315.3994 2692.1729 18
368.25052 1311.0945 2683.3621 18
383.81311 1309.9536 2681.0271 18
399.92911 1310.7172 2682.5898 18
414.0462 1305.1217 2671.1377 19
494.03418 1499.9274 3069.8384 19
506.42703 1482.9623 3035.1165 19
457.81207 1294.6376 2649.6804 19
469.20844 1282.8783 2625.613 19
487.30884 1289.6151 2639.4011 19
504.28943 1293.0618 2646.4553 19
518.86847 1290.3284 2640.8611 19
531.73334 1283.6168 2627.1248 19
542.93878 1273.3953 2606.2046 19
562.40692 1282.582 2625.0068 19
578.33289 1283.4138 2626.7092 19
590.16553 1275.3564 2610.2185 19
570.05408 1200.4413 2456.8928 19
587.08118 1205.5171 2467.2812 19
629.9566 1262.1342 2583.157 19
638.77283 1249.4454 2557.1875 19
658.05457 1257.3412 2573.3474 19
656.12714 1225.2726 2507.7141 19
664.64258 1213.6937 2484.0161 19
665.45392 1188.853 2433.1755 19
675.12573 1180.5592 2416.2012 19
683.73047 1170.7828 2396.1921 19
695.11707 1166.0707 2386.5481 19
706.94751 1162.2762 2378.782 19
721.92645 1163.7052 2381.7065 19
734.26959 1160.912 2375.99 19
705.09125 1093.8115 2238.6582 18
713.8233 1086.9136 2224.5403 18
716.05927 1070.5535 2191.0569 18
722.63422 1061.1476 2171.8062 18
727.59857 1049.7469 2148.4731 18
738.11322 1046.6085 2142.0498 18
743.07587 1035.8368 2120.0037 18
747.49603 1024.6793 2097.1682 18
750.48969 1011.9633 2071.1428 16
757.60565 1005.1255 2057.1482 65554
762.22894 995.24945 2036.9353 65553
764.24933 982.33569 2010.5051 131084
774.51782 980.25726 2006.2513 196615
783.62897 976.79895 1999.1733 1181964
804.03064 987.30786 2020.6815 3943978
826.85889 1000.4445 2047.5677 5127476
828.80701 988.30292 2022.7181 7297872
843.91779 991.97937 2030.2426 6969160
851.33362 986.63464 2019.3037 8416607
860.30927 983.22076 2012.3167 6772039
868.9458 979.51788 2004.738 8087642
881.33032 980.0827 2005.8942 7627091
896.89557 984.12268 2014.1626 7561298
906.59784 981.70789 2009.2203 7495505
923.71545 987.28119 2020.627 7692884
936.90417 988.56647 2023.2576 7561554
942.948 982.37555 2010.5868 7626064
959.17749 986.81836 2019.6797 8350044
971.53479 987.21698 2020.4955 7166283
990.45703 994.19562 2034.7783 7890007
998.55414 990.27106 2026.7462 8152665
1005.9171 985.72034 2017.4324 8152665
1024.168 991.82056 2029.9175 8020824
1035.5063 991.1626 2028.5708 7362894
1046.632 990.31848 2026.8433 7165772
1055.2266 987.12598 2020.3092 7889237
1076.0614 995.32666 2037.0934 7034442
1087.8068 995.03137 2036.489 7692114
1098.5878 993.87024 2034.1124 8086872
1117.0059 999.56824 2045.7743 7560527
1130.9552 1001.188 2049.0896 8613217
1132.1771 991.62598 2029.5193 8481631
1159.8142 1005.1577 2057.2141 8284253
1168.7144 1002.3384 2051.4441 6968393
1173.0087 995.6676 2037.7911 7561044
1192.2635 1001.7022 2050.1418 7889752
1203.9103 1001.2875 2049.293 7363408
1215.5468 1000.8725 2048.4436 7363408
1227.7114 1000.8962 2048.4924 7560789
1244.2666 1004.4639 2055.7942 7626839
1260.0575 1007.3514 2061.7039 7100495
1270.114 1005.6432 2058.2078 7758425
1278.3219 1002.5178 2051.811 7626839
1282.1003 996.01001 2038.4918 7626584
1292.337 994.59418 2035.5941 7429462
1291.5894 984.82886 2015.6078 8021599
1315.7855 994.08777 2034.5577 6771532
1322.9939 990.46063 2027.1343 7232083
1344.8444 997.76208 2042.0778 7560790
1361.1229 1000.8363 2048.3696 6376771
1369.5491 998.13318 2042.8373 7166031
1386.3596 1001.5346 2049.7988 8021596
1393.6608 998.06671 2042.7013 7626839
1402.0148 995.40619 2037.2561 7626840
1421.158 1000.3857 2047.4476 8547686
1426.092 995.36359 2037.1689 7890013
1445.4623 1000.4171 2047.5116 7232083
1465.306 1005.7115 2058.3474 7495255
1484.3271 1010.3586 2067.8584 8021343
1493.3322 1008.1674 2063.374 7626584
1508.1554 1009.9081 2066.9365 7890011
1523.3943 1011.8967 2071.0066 7955804
1539.8975 1014.6866 2076.7166 8087133
1560.2053 1019.9195 2087.4265 7626069
1567.4092 1016.5712 2080.5737 7691606
1560.2056 1004.004 2054.8528 7033933
1576.9402 1006.9164 2060.8135 6902348
1579.4635 1000.7795 2048.2534 5389109
1596.084 1003.6004 2054.0269 8481123
1613.5114 1006.8821 2060.7434 8218208
1626.5789 1007.4143 2061.8325 8415587
1640.1221 1008.2308 2063.5037 8152415
1654.6678 1009.6472 2066.4026 8086622
1683.8508 1019.9084 2087.4038 7889243
1702.8535 1023.8987 2095.5706 7691607
1700.244 1014.9305 2077.2156 7889243
1721.2606 1020.0927 2087.781 8547173
1730.2946 1018.1306 2083.7651 7955036
1736.4674 1014.5248 2076.3853 7626071
1740.5575 1009.7614 2066.6362 7691351
1747.4525 1006.6802 2060.3303 8283488
1760.6219 1007.2315 2061.4585 8151902
1781.7914 1012.3205 2071.8738 8086110
1785.9358 1007.733 2062.4849 8743782
1798.1232 1007.7156 2062.4492 7164493
1805.1984 1004.8525 2056.5896 8019800
1812.2019 1001.9885 2050.7278 8349278
1824.2776 1001.9482 2050.6453 6967369
1838.7025 1003.1901 2053.1873 8678498
1843.3795 999.13232 2044.8822 7230798
1868.2949 1006.0255 2058.99 7296593
1893.7239 1013.1038 2073.4771 7888731
1899.6652 1009.7325 2066.5771 7230800
1899.4697 1003.1635 2053.1326 8283488
1916.5468 1005.7421 2058.4102 7757144
1940.1393 1011.6856 2070.5745 7230800
1942.8717 1006.7453 2060.4634 7428179
1960.0311 1009.2957 2065.6831 7559765
1963.691 1004.9061 2056.6992 7560023
0 0 0 0
0 0 0 0
0 0 0 0
0 0 0 0
0 0 0 0
0 0 0 0
0 0 0 0
0 0 0 0
0 0 0 0
0 0 0 0
-2133.1472 1204.4833 2435.6335 21
-2120.1748 1205.3115 2437.3083 21
-2112.7661 1209.3356 2445.4458 21
-2099.4592 1210.016 2446.8215 18
-2080.7358 1207.5624 2441.8599 19
-2065.8357 1207.3086 2441.3469 19
-2058.5361 1211.5248 2449.8726 19
-2051.1287 1215.7366 2458.3894 19
-2022.9641 1207.6177 2441.9719 19
-2017.0964 1212.7881 2452.427 19
-1993.4017 1207.2371 2441.2021 18
-1981.4019 1208.7391 2444.2395 18
-1992.0341 1224.1715 2475.446 19
-2045.609 1266.4183 2560.875 20
-2042.1951 1273.7515 2575.7036 21
-2027.6104 1274.1753 2576.5605 21
-2013.4067 1274.8469 2577.9187 21
-2000.3281 1276.2463 2580.7485 21
-1979.1116 1272.4353 2573.0422 21
-1965.1309 1273.2533 2574.6963 21
-1952.83 1275.1812 2578.5945 21
-1940.1521 1276.8911 2582.0525 21
-1923.5387 1276.0176 2580.2861 21
-1908.5096 1276.1896 2580.6338 21
-1885.176 1270.7664 2569.6672 21
-1878.8477 1276.811 2581.8906 21
-1862.1608 1275.8579 2579.9631 21
-1839.8862 1271.0289 2570.1982 21
-1826.5712 1272.3604 2572.8906 21
-1817.14 1276.4424 2581.145 21
-1793.916 1270.8228 2569.7815 21
-1778.4703 1270.6644 2569.4612 21
-1760.7969 1268.8978 2565.8889 21
-1749.0906 1271.4381 2571.0256 21
-1721.2562 1262.1963 2552.3374 21
-1711.7739 1266.3676 2560.7722 21
-1700.9083 1269.5808 2567.27 21
-1682.2106 1266.9532 2561.9568 21
-1679.2025 1276.2023 2580.6594 21
-1673.0879 1283.2386 2594.8879 21
-1572.8817 1217.5688 2462.0945 21
-1555.8347 1215.646 2458.2063 21
-1546.1205 1219.4703 2465.9395 21
-1534.8542 1222.1318 2471.3215 20
-1516.993 1219.5427 2466.0859 20
-1498.7946 1216.6295 2460.1951 21
-1491.5397 1222.6298 2472.3284 21
-1483.8147 1228.3599 2483.9153 21
-1471.1136 1230.0438 2487.3208 21
-1457.535 1231.0209 2489.2964 21
-1443.1677 1231.3451 2489.9519 19
-1427.6654 1230.6975 2488.6423 19
-1417.6608 1234.825 2496.9888 19
-1401.6118 1233.7192 2494.7527 19
-1386.8298 1233.7169 2494.7483 19
-1375.5972 1236.9061 2501.1973 19
-1371.6093 1246.7501 2521.103 19
-1356.1511 1246.2698 2520.1318 19
-1343.5803 1248.4618 2524.5645 19
-1324.8721 1244.936 2517.4348 19
-1304.0703 1239.3405 2506.1196 19
-1292.9125 1242.8867 2513.2908 19
-1276.1649 1241.0796 2509.6365 19
-1267.5767 1247.2583 2522.1306 21
-1248.0841 1242.7269 2512.9678 21
-1231.4611 1240.9778 2509.4307 21
-1219.1344 1243.5685 2514.6694 21
-1202.842 1242.1279 2511.7566 21
-1229.5961 1285.6606 2599.7856 21
-1203.1329 1273.9481 2576.1013 21
-1171.9583 1256.8818 2541.5908 21
-1155.1508 1254.98 2537.7451 21
-1143.9403 1259.189 2546.2561 21
-1130.9839 1261.5627 2551.0564 19
-1113.0162 1258.3354 2544.5303 19
-1098.4962 1258.9708 2545.8152 19
-1082.7965 1258.2529 2544.3635 19
-1070.4875 1261.5106 2550.9509 19
-1057.0833 1263.5524 2555.0796 19
-1094.8044 1327.6526 2684.6992 18
-1090.1516 1341.4988 2712.6982 20
-1083.9386 1353.8108 2737.5947 20
-1070.4868 1357.3184 2744.6875 19
-1057.7212 1361.8174 2753.7854 20
-1042.1064 1362.7319 2755.6345 21
-1007.2092 1338.0592 2705.7427 20
-999.70209 1349.564 2729.0071 19
-983.74463 1349.8518 2729.5891 19
-971.85986 1355.8311 2741.6802 20
-951.53943 1350.045 2729.98 20
-940.7326 1357.7903 2745.6418 19
-935.17957 1373.5244 2777.4585 18
-921.26691 1377.3242 2785.1421 18
-914.18048 1391.6542 2814.1194 19
-890.28052 1380.4459 2791.4546 21
-871.27362 1376.5442 2783.5647 21
-848.92114 1367.1038 2764.4751 21
-838.87848 1377.5059 2785.5095 21
-836.5661 1401.274 2833.572 21
-821.24902 1403.786 2838.6516 21
-801.58954 1398.8256 2828.6208 21
-785.32458 1399.7031 2830.3955 21
-757.87671 1380.2526 2791.0637 21
-742.34149 1382.1139 2794.8276 21
-728.13098 1386.5826 2803.864 21
-712.29962 1388.1014 2806.9353 21
-713.6955 1424.0671 2879.6628 21
-696.99292 1424.7971 2881.1392 19
-665.53125 1394.6361 2820.1492 19
-651.47894 1400.3427 2831.6887 19
-635.07892 1401.1713 2833.3643 19
-618.83539 1402.3995 2835.8479 19
-601.24683 1400.563 2832.1343 19
-587.58478 1408.0303 2847.2341 19
-569.50256 1405.0339 2841.175 19
-555.41925 1412.0211 2855.3042 21
-537.77118 1410.1002 2851.4197 21
-522.07666 1413.3431 2857.9775 21
-506.14484 1416.1396 2863.6323 22
-490.04282 1418.6373 2868.6831 23
-473.52786 1420.076 2871.5925 21
-454.73596 1414.5393 2860.3962 21
-437.83301 1414.6771 2860.675 21
-418.41809 1406.3831 2843.9033 21
-401.4054 1405.8058 2842.7361 21
-385.82693 1410.4213 2852.0691 21
-366.17728 1399.8953 2830.7839 21
-347.90958 1393.8956 2818.6519 21
-330.69525 1391.724 2814.2607 21
-313.5401 1389.5841 2809.9333 21
-296.70901 1388.7211 2808.1882 21
-279.90225 1387.8759 2806.4792 21
-261.936 1380.8119 2792.1948 21
-245.6566 1382.2874 2795.1782 21
-228.7435 1380.1523 2790.8611 21
-211.07796 1372.7913 2775.9758 21
-194.89066 1374.6124 2779.6584 21
-180.16747 1388.0496 2806.8303 21
-161.46255 1370.4242 2771.1892 21
-145.59282 1375.5963 2781.6482 19
-129.25555 1377.1075 2784.7041 19
-112.92851 1379.1859 2788.9067 19
-96.194008 1376.1475 2782.7625 20
-79.669823 1375.4833 2781.4194 20
-63.116676 1373.8423 2778.1013 19
-46.575806 1371.4052 2773.1731 19
-29.96841 1363.2856 2756.7542 19
-13.737471 1373.3522 2777.1101 19
2.696651 1364.1919 2758.5869 19
18.792328 1346.5071 2722.8257 19
34.865559 1344.2938 2718.3501 19
50.492832 1331.7174 2692.9187 19
66.453796 1331.8676 2693.2227 19
82.530388 1333.8285 2697.1877 19
98.173828 1329.2885 2688.0071 19
114.08628 1329.1497 2687.7266 19
129.13608 1320.2255 2669.6807 19
145.03986 1321.027 2671.3013 20
160.41866 1317.3595 2663.8853 20
176.74464 1321.4305 2672.1174 19
192.57852 1321.4557 2672.1682 19
205.59528 1303.6144 2636.0906 19
221.02405 1302.5063 2633.8501 19
235.20634 1294.6832 2618.0305 19
250.43208 1293.2164 2615.0645 19
268.78064 1307.1069 2643.1531 19
285.82593 1313.4791 2656.0386 19
300.60406 1309.3115 2647.6111 18
310.86099 1286.8413 2602.1731 18
324.43015 1279.5577 2587.4448 18
339.73767 1279.4785 2587.2844 18
355.04657 1279.4109 2587.1477 18
370.94125 1281.3724 2591.1143 18
386.94989 1283.556 2595.5298 18
484.35089 1545.2417 3124.6948 18
494.15414 1518.4825 3070.584 19
506.36823 1500.7687 3034.7642 19
518.73938 1484.719 3002.3096 19
459.20178 1270.7417 2569.6174 19
473.69531 1268.7878 2565.6665 19
489.25848 1269.7313 2567.5745 19
499.983 1258.4395 2544.7405 19
523.56537 1279.224 2586.7698 19
506.56421 1202.4886 2431.6001 19
518.08069 1195.8207 2418.1165 19
539.6283 1212.0419 2450.9182 19
576.47314 1260.8717 2549.6589 19
555.45709 1183.885 2393.981 19
569.32159 1183.224 2392.6443 19
580.93542 1178.0312 2382.144 19
593.16461 1174.3032 2374.6052 19
638.96069 1235.6614 2498.6802 19
627.47009 1185.965 2398.187 19
659.58374 1219.0598 2465.1094 19
644.52496 1165.4241 2356.6504 19
660.49988 1168.9879 2363.8569 19
677.60303 1174.3589 2374.718 19
690.362 1172.1357 2370.2224 19
700.12823 1165.0214 2355.8362 19
713.6405 1164.2966 2354.3706 19
723.10822 1157.1274 2339.8735 19
741.18701 1163.7483 2353.262 18
737.18481 1136.0952 2297.3435 18
719.06354 1088.0797 2200.2495 18
721.74786 1072.6965 2169.1423 18
726.67902 1061.1322 2145.7578 18
737.97937 1059.1064 2141.6614 18
741.41467 1046.0524 2115.2642 18
746.4718 1035.6824 2094.2947 18
748.48236 1021.4938 2065.6033 18
756.77161 1016.1926 2054.8835 18
761.8819 1006.8581 2036.0078 18
764.96222 995.17365 2012.3804 16
771.27948 987.99438 1997.8629 65549
780.55145 984.75977 1991.322 262151
790.93329 983.00092 1987.7654 918535
806.67432 987.85657 1997.5841 3614757
819.56256 989.12878 2000.1569 5850429
831.16199 988.83148 1999.5555 6442563
843.15228 989.00085 1999.8981 7692628
848.66876 981.67725 1985.0886 7495505
852.58356 972.72638 1966.9888 6969161
872.1629 981.64789 1985.0294 9140073
887.19647 985.28363 1992.3813 7561298
896.62823 982.68445 1987.1254 7561298
903.11591 976.96783 1975.5656 5850680
925.92474 988.82739 1999.5472 7363149
940.71503 991.93225 2005.8257 6113082
950.80927 990.06958 2002.0592 7100234
958.3739 985.65137 1993.1249 8218715
975.00256 990.54913 2003.0289 7758421
990.14233 993.83478 2009.6729 6771528
1002.7194 994.50061 2011.0193 8284767
1010.9462 990.88684 2003.7117 7495251
1017.3939 985.63324 1993.0883 8416353
1038.0853 994.14105 2010.2924 9271406
1047.8169 992.07916 2006.1228 8285281
1059.6951 992.07294 2006.1104 7824729
1072.1658 992.61566 2007.2076 7166029
1089.9032 997.96869 2018.0322 7166286
1102.604 998.64392 2019.3977 7823702
1113.7622 997.92261 2017.939 7823702
1125.1484 997.41846 2016.9197 6902600
1143.434 1002.977 2028.1598 7692116
1144.451 993.43005 2008.8546 7692372
1153.71 991.16034 2004.2649 8087389
1175.7607 999.81445 2021.7646 7758424
1183.5074 996.25323 2014.5634 7232078
1203.2615 1002.7695 2027.7402 7232079
1210.019 998.43329 2018.9718 7758425
1230.9312 1005.747 2033.7611 8153183
1247.9271 1009.7503 2041.8563 7692375
1257.2131 1007.498 2037.302 7955803
1260.1843 1000.2764 2022.6986 7824219
1274.5519 1002.1513 2026.49 7824220
1275.142 993.25946 2008.5095 7692377
1283.7007 990.6817 2003.297 7692634
1298.9852 993.29437 2008.5801 6968911
1313.9307 995.60248 2013.2474 7034704
1330.6759 999.22052 2020.5637 7495255
1342.4814 999.09796 2020.3159 7890011
1361.0483 1003.965 2030.1577 7824218
1364.9425 998.01837 2018.1327 7297875
1379.9337 1000.2184 2022.5815 8218721
1383.8402 994.41528 2010.8468 8350050
1401.5138 998.51971 2019.1465 7824219
1415.3711 999.8587 2021.8541 7495255
1436.1753 1006.0414 2034.3564 8284514
1434.0092 996.16455 2014.384 7100497
1438.6536 991.1427 2004.2291 9205873
1467.2875 1002.595 2027.3873 6968911
1490.2521 1010.019 2042.3998 7824220
1502.3185 1009.9967 2042.3546 8021599
1519.0051 1013.056 2048.541 7955806
1527.3225 1010.5295 2043.432 7823964
1534.09 1007.0253 2036.3459 7890011
1539.9412 1002.9789 2028.1637 7757655
1555.8928 1005.5229 2033.308 7691606
1571.187 1007.6061 2037.5205 5783864
1570.8979 999.74023 2021.6145 7494483
1586.9371 1002.3062 2026.8032 8744552
1598.2983 1001.9012 2025.9843 8086622
1609.8809 1001.64 2025.4561 8086622
1630.0421 1006.6807 2035.6492 8218208
1640.0015 1005.393 2033.0454 7362899
1664.4996 1012.9722 2048.3716 7560022
1672.5582 1010.5095 2043.3914 7231313
1692.0834 1014.9599 2052.3909 8020829
1698.0773 1011.2883 2044.9664 7560278
1711.926 1012.3137 2047.0399 8612966
1724.7389 1012.7164 2047.8541 9336689
1731.7844 1009.7505 2041.8569 6638406
1749.6292 1013.079 2048.5874 8875625
1761.4055 1012.8721 2048.1689 8809832
1778.0708 1015.46 2053.4021 8480867
1778.2263 1008.648 2039.6274 8020059
1791.8024 1009.4892 2041.3282 7690581
1795.3522 1004.7079 2031.66 6836042
1813.7635 1008.252 2038.8265 6967884
1813.6787 1001.5353 2025.2444 8744295
1824.9343 1001.1281 2024.4209 10125949
1837.7798 1001.5925 2025.3602 8942446
1863.2706 1008.8981 2040.1329 8481899
1891.3386 1017.496 2057.519 12165797
1865.3499 997.08856 2016.2524 8873831
1865.9097 991.04169 2004.0249 8481635
1907.9071 1006.9409 2036.1754 7691608
1917.205 1005.4908 2033.243 7296851
1931.4666 1006.6459 2035.5789 7559766
1931.8782 1000.613 2023.3794 7428437
0 0 0 0
0 0 0 0
0 0 0 0
0 0 0 0
0 0 0 0
0 0 0 0
0 0 0 0
0 0 0 0
0 0 0 0
0 0 0 0
-2100.2915 1200.1383 2398.1189 21
-2090.7847 1202.8424 2403.5222 21
-2078.9026 1204.2075 2406.2502 21
-2071.1592 1208.0055 2413.8394 18
-2058.3967 1208.9086 2415.6438 19
-2046.9456 1210.5999 2419.0232 19
-2036.3026 1212.7964 2423.4124 19
-2025.8594 1215.1437 2428.1028 19
-2009.0508 1213.6794 2425.177 19
-1993.3335 1212.8579 2423.5354 18
-1975.7972 1210.9099 2419.6428 18
-1954.5179 1206.6226 2411.0757 20
-1965.5903 1222.3915 2442.5852 21
-2034.6125 1274.7002 2547.1086 21
-2021.4197 1275.8973 2549.501 21
-2006.2178 1275.835 2549.3762 21
-1988.7809 1274.3396 2546.3882 21
-1980.7367 1278.8859 2555.4724 21
-1966.343 1279.3708 2556.4417 21
-1950.7777 1279.0952 2555.8909 22
-1930.5068 1275.7058 2549.1182 21
-1897.8091 1263.9863 2525.7002 20
-1798.3149 1207.239 2412.3076 21
-1791.1895 1212.0879 2421.9966 21
-1847.1277 1260.0345 2517.804 21
-1834.906 1261.8875 2521.5063 21
-1821.4086 1262.8862 2523.5022 21
-1810.0796 1265.4177 2528.5603 21
-1793.66 1264.4027 2526.5322 21
-1792.9401 1274.5308 2546.7703 21
-1711.4534 1226.9299 2451.6541 21
-1697.0928 1227.0481 2451.8901 21
-1734.7639 1265.1136 2527.9529 21
-1721.1488 1266.1147 2529.9534 21
-1711.8551 1270.3406 2538.3972 21
-1717.2845 1285.6637 2569.0161 23
-1601.4631 1209.6735 2417.1721 23
-1593.6604 1214.6406 2427.0977 23
-1585.5844 1219.488 2436.7837 22
-1563.6514 1213.6692 2425.1565 23
-1550.3251 1214.4845 2426.7856 21
-1540.8816 1218.3854 2434.5803 21
-1520.7225 1213.807 2425.4319 20
-1501.0863 1209.5625 2416.9504 21
-1501.6884 1221.7013 2441.2061 21
-1491.7688 1225.433 2448.6628 21
-1479.9926 1227.6976 2453.1882 21
-1467.1055 1229.0768 2455.9438 21
-1453.9221 1230.2328 2458.2539 21
-1439.5592 1230.4041 2458.5959 21
-1426.005 1231.277 2460.3403 19
-1414.8851 1234.2916 2466.3643 19
-1400.7534 1234.7144 2467.209 19
-1384.8314 1233.5514 2464.885 19
-1378.8107 1241.277 2480.3225 19
-1360.7869 1238.2472 2474.2681 19
-1348.0989 1240.0594 2477.8894 19
-1338.2083 1244.5131 2486.7886 19
-1323.4425 1244.4816 2486.7258 19
-1314.5573 1250.0413 2497.8352 19
-1298.5667 1248.894 2495.543 19
-1341.8899 1305.4224 2608.4978 19
-1266.3474 1246.2852 2490.3298 19
-1252.4171 1247.1047 2491.9673 21
-1242.5836 1252.0718 2501.8926 21
-1238.4189 1262.9399 2523.6094 21
-1217.5647 1256.8457 2511.4319 21
-1204.1924 1258.4194 2514.5764 21
-1187.8097 1256.8474 2511.4351 21
-1174.2672 1258.2788 2514.2954 21
-1146.769 1244.6006 2486.9636 21
-1132.9061 1245.5576 2488.876 21
-1119.0997 1246.6028 2490.9644 20
-1106.7444 1249.3138 2496.3816 19
-1101.0686 1259.7405 2517.2161 19
-1076.4666 1248.5024 2494.7603 19
-1063.0814 1250.1422 2498.0369 19
-1061.2587 1265.6172 2528.959 19
-1048.8317 1268.708 2535.135 19
-1087.3981 1334.4683 2666.5374 18
-1073.437 1336.7548 2671.1062 19
-1058.6508 1338.0665 2673.7275 19
-1046.5842 1342.9083 2683.4023 19
-1030.2194 1342.2988 2682.1843 19
-1009.9089 1336.4489 2670.4949 19
-994.24713 1336.6624 2670.9216 19
-982.65308 1342.4398 2682.4663 19
-966.1488 1341.5891 2680.7661 19
-963.88232 1360.8108 2719.175 19
-950.58929 1364.854 2727.2542 20
-933.76349 1363.8767 2725.3015 20
-907.84869 1349.3563 2696.2866 19
-896.26636 1355.9996 2709.5615 19
-874.48669 1347.176 2691.9302 19
-861.63416 1352.0327 2701.6348 21
-843.29999 1348.309 2694.1938 21
-829.36493 1351.6106 2700.7913 21
-816.59961 1356.986 2711.5322 21
-799.38281 1355.0314 2707.6265 21
-789.05768 1364.9181 2727.3821 21
-768.05499 1356.3618 2710.2852 21
-755.20648 1362.1477 2721.8464 21
-734.58801 1353.8658 2705.2976 21
-719.32739 1355.3094 2708.1821 21
-705.19885 1359.0006 2715.5579 21
-690.26428 1361.2744 2720.1013 21
-676.91425 1366.8564 2731.2556 21
-660.21503 1365.7836 2729.1116 19
-642.47699 1362.4537 2722.458 19
-624.76532 1359.0098 2715.5764 19
-610.31451 1362.6647 2722.8796 19
-595.90051 1366.6023 2730.7476 19
-580.36554 1368.1171 2733.7744 19
-564.33722 1368.5225 2734.5845 19
-551.11316 1375.9532 2749.4326 20
-534.04236 1373.9399 2745.4097 21
-517.53766 1373.3022 2744.1355 21
-503.55975 1379.5458 2756.6113 21
-490.43091 1388.6118 2774.7271 21
-475.58368 1393.2725 2784.04 22
-459.2688 1393.8138 2785.1218 22
-444.17099 1398.2271 2793.9402 21
-427.93027 1399.2446 2795.9736 21
-412.07599 1401.6586 2800.7971 21
-392.9566 1392.7031 2782.9023 21
-376.94919 1394.4756 2786.4441 21
-359.57614 1391.127 2779.7529 21
-344.15268 1395.3616 2788.2146 21
-327.40546 1394.3854 2786.2639 21
-309.17532 1386.6547 2770.8164 21
-292.72668 1386.4951 2770.4976 21
-275.06821 1380.2458 2758.0103 21
-255.57559 1363.4225 2724.3938 21
-238.84206 1360.0424 2717.6396 21
-223.42265 1364.1975 2725.9424 21
-206.82079 1361.2175 2719.9878 21
-190.29373 1358.2681 2714.0942 21
-174.51709 1360.6248 2718.8032 21
-159.25583 1367.8872 2733.3152 21
-144.35435 1380.2339 2757.9863 19
-128.09885 1381.1334 2759.7839 19
-111.48958 1377.9238 2753.3704 19
-93.684502 1356.3021 2710.166 19
-75.849113 1325.207 2648.0315 21
-60.065876 1323.099 2643.8193 21
-44.486179 1325.5688 2648.7546 21
-28.772921 1324.5819 2646.7825 21
-13.06948 1322.2245 2642.0718 19
2.5802121 1320.9242 2639.4736 19
18.147413 1315.8748 2629.3838 19
33.605965 1311.2505 2620.1436 19
49.0807 1309.9805 2617.6057 19
64.653122 1311.3015 2620.2454 19
80.183327 1311.4204 2620.4832 19
95.470345 1308.1687 2613.9856 19
110.57043 1303.6206 2604.8975 19
126.43404 1308.0861 2613.8203 20
141.80661 1307.051 2611.7522 21
156.10506 1297.2932 2592.2542 21
171.14008 1294.8563 2587.3848 21
185.79442 1290.1766 2578.0337 20
199.64853 1281.0731 2559.843 19
213.71086 1274.4967 2546.7019 19
228.00577 1270.083 2537.8826 19
243.79689 1274.0344 2545.7783 19
260.79333 1283.4572 2564.6069 19
272.83572 1268.8041 2535.3271 19
287.44897 1267.012 2531.7461 19
301.61856 1263.5388 2524.8059 18
316.4769 1263.1428 2524.0149 18
331.71463 1264.2286 2526.1846 18
345.72205 1260.7343 2519.2019 18
360.08212 1258.7617 2515.2605 19
375.50186 1260.5032 2518.7402 18
484.37857 1563.8424 3124.8733 19
494.09213 1536.4803 3070.1985 19
419.44308 1258.0332 2513.8047 19
437.83551 1268.171 2534.062 19
449.5527 1258.9431 2515.6228 19
468.91162 1271.0208 2539.7566 19
479.2103 1258.5527 2514.8428 19
490.75909 1250.0206 2497.7939 19
501.81723 1240.7748 2479.3188 19
489.95081 1176.9844 2351.8528 19
500.81082 1169.8066 2337.51 19
511.68478 1163.0468 2324.0027 19
528.42279 1169.6208 2337.1389 19
537.93329 1160.2701 2318.4543 19
552.37445 1161.7552 2321.4219 19
564.36127 1158.1316 2314.1812 19
579.28143 1160.5566 2319.0269 19
587.57404 1149.8989 2297.7307 19
639.00159 1222.229 2442.2605 19
622.78497 1164.8365 2327.5789 19
636.83276 1165.3098 2328.5247 19
644.21594 1153.8264 2305.5784 19
655.35089 1149.4 2296.7336 19
666.59192 1145.3359 2288.6128 19
679.46631 1144.1843 2286.3115 19
692.86121 1143.9371 2285.8176 19
699.25671 1132.3646 2262.6936 19
713.328 1133.4238 2264.8098 18
725.55396 1131.5659 2261.0974 18
739.56439 1132.5078 2262.9797 18
750.66327 1129.0372 2256.0447 18
766.99878 1133.4265 2264.8152 18
737.0412 1070.4316 2138.9387 18
799.04346 1140.8654 2279.6797 18
813.854 1142.698 2283.3416 18
821.94397 1135.189 2268.3369 18
757.63989 1029.5461 2057.2412 18
761.34631 1018.2036 2034.5767 16
765.61664 1007.9571 2014.1021 16
771.30341 999.86121 1997.9248 15
778.24792 993.61597 1985.4456 131085
788.14001 991.26385 1980.7455 196617
791.14801 980.44934 1959.1361 262148
801.03021 978.34351 1954.9281 1180163
817.16571 983.82654 1965.8843 3350554
828.19794 983.09747 1964.4275 5258291
835.77496 978.34412 1954.9293 6705734
849.39447 980.69714 1959.6312 7297870
865.80389 986.16467 1970.5564 7956056
877.409 986.08716 1970.4016 8087642
887.37225 984.1908 1966.6122 7956056
898.57593 983.70135 1965.6343 7495248
903.73291 976.68976 1951.6237 8218971
922.07581 983.92566 1966.0824 7692371
932.46185 982.59631 1963.4261 7363149
951.0014 989.78595 1977.7924 7692114
968.91431 996.15613 1990.5214 7099977
968.08173 983.33234 1964.8969 6508356
988.04523 991.68604 1981.5891 8416353
1004.1182 995.9845 1990.1785 7824216
1006.9567 987.20825 1972.6417 8021595
1023.5495 991.96326 1982.1432 8284767
1039.1279 995.63843 1989.4869 8284768
1050.9141 995.63843 1989.4869 7955802
1053.2262 986.76227 1971.7505 7890009
1073.3484 994.58392 1987.3798 7758936
1081.2206 991.00806 1980.2345 7890009
1097.3291 994.97693 1988.1652 8021595
1095.5612 982.82458 1963.8822 7692630
1122.4807 996.39264 1990.994 8153180
1125.8859 989.02264 1976.2672 6968907
1138.7018 989.9859 1978.192 8021596
1168.3004 1005.3719 2008.9363 7561043
1166.0239 993.29425 1984.8027 7363665
1180.1326 995.27649 1988.7635 6244927
1194.9596 997.81909 1993.8444 6837322
1203.6783 995.26147 1988.7338 7955547
1220.7466 999.59027 1997.3834 7890011
1229.6947 997.25073 1992.7086 7495253
1241.149 996.96899 1992.1455 7824217
1250.4778 995.00104 1988.2133 8350563
1267.2125 998.90784 1996.0198 8021598
1273.4507 994.54456 1987.3011 8021598
1282.3849 992.34772 1982.9114 7692634
1299.3989 996.38635 1990.9814 7100496
1312.4463 997.33801 1992.8829 7495255
1325.6338 998.3783 1994.9617 7692375
1343.0197 1002.5341 2003.2659 7561046
1352.7896 1000.9818 2000.1639 7363668
1363.2987 999.99866 1998.1995 7100497
1381.9459 1004.9505 2008.0942 6704713
1389.4713 1001.799 2001.7969 8021341
1394.2267 996.72064 1991.6493 7692631
1410.0303 999.55945 1997.3219 8087134
1422.1943 999.79248 1997.7876 7429461
1437.5227 1002.2277 2002.6537 4929328
1446.0753 999.93787 1998.078 8021599
1462.944 1003.3889 2004.9739 8153183
1485.0294 1010.3336 2018.8507 7824220
1508.1532 1017.868 2033.906 8416357
1499.0933 1003.7341 2005.6636 6771274
1525.6068 1013.4538 2025.0854 8020313
1524.0255 1004.5042 2007.2023 7560277
1535.5914 1004.2914 2006.7773 8086365
1545.2206 1002.8251 2003.8472 8217951
1557.2646 1002.9364 2004.0697 7362899
1562.1877 998.49457 1995.194 8744808
1580.4729 1002.5958 2003.389 7890013
1592.6609 1002.7969 2003.791 8152415
1607.0529 1004.3725 2006.9392 8152414
1622.0261 1006.2856 2010.7621 7493974
1637.4854 1008.4701 2015.1272 6836300
1645.4929 1006.0669 2010.3251 8480868
1661.2378 1008.395 2014.9772 6902093
1664.4473 1003.1349 2004.4666 6112577
1677.7002 1003.9597 2006.1143 7099472
1691.7778 1005.2626 2008.7179 7757402
1699.8838 1003.0239 2004.2445 7822938
1709.0659 1001.4468 2001.0933 7559508
1725.2819 1003.9846 2006.1643 8020316
1751.8185 1012.4525 2023.0847 7888730
1758.8461 1009.6068 2017.3983 8152414
1767.5577 1007.7595 2013.7072 8086622
1788.286 1012.7423 2023.6638 7033934
1792.0453 1008.1129 2014.4135 8217952
1800.1686 1005.9834 2010.1582 8415331
1809.1691 1004.369 2006.9323 8151903
1823.8645 1005.9166 2010.0247 7888731
1833.5948 1004.7233 2007.6404 8217698
1831.0995 996.88965 1991.9871 6967888
1853.864 1002.8203 2003.8375 8283492
1862.088 1000.8598 1999.9203 7888477
1878.0679 1003.0667 2004.33 7954268
1910.8629 1014.1702 2026.5172 7165010
1895.6823 999.83154 1997.8656 7362901
1935.665 1014.5848 2027.3457 7888988
0 0 0 0
0 0 0 0
0 0 0 0
0 0 0 0
0 0 0 0
0 0 0 0
0 0 0 0
0 0 0 0
0 0 0 0
0 0 0 0
-2080.9414 1203.1573 2376.0247 21
-2072.4412 1206.4032 2382.4348 21
-2053.248 1203.4265 2376.5562 21
-2042.9008 1205.6288 2380.9053 19
-2035.4347 1209.574 2388.6965 19
-2021.0918 1209.4594 2388.47 19
-2007.7463 1209.9441 2389.4272 20
-1994.2778 1210.3611 2390.2507 21
-1982.7445 1211.9668 2393.4219 21
-1972.3452 1214.2939 2398.0176 21
-1968.2622 1220.5718 2410.415 21
-2047.2119 1278.8083 2525.4221 21
-2038.8263 1282.946 2533.5935 21
-2022.235 1281.9434 2531.6133 20
-2006.9034 1281.7302 2531.1924 21
-1992.1329 1281.8749 2531.478 21
-1976.8928 1281.7174 2531.167 21
-1949.6953 1273.7455 2515.4238 21
-1945.1926 1280.5918 2528.9441 21
-1913.441 1269.4659 2506.9727 21
-1904.679 1273.5378 2515.0139 21
-1795.0687 1209.7115 2388.968 21
-1779.2832 1208.6027 2386.7781 21
-1774.1232 1214.751 2398.9202 21
-1777.6644 1227.0048 2423.1191 21
-1827.5392 1271.6993 2511.3831 21
-1737.0825 1218.676 2406.6714 21
-1786.0354 1263.3893 2494.9722 21
-1786.9142 1274.5587 2517.03 21
-1779.7687 1280.1445 2528.061 21
-1752.9885 1271.5829 2511.1531 21
-1747.7582 1278.6399 2525.0896 21
-1660.7557 1225.4789 2420.1057 21
-1629.5863 1212.9502 2395.364 21
-1701.7784 1277.8124 2523.4553 21
-1703.0305 1290.0854 2547.6924 21
-1597.1536 1220.6997 2410.6677 21
-1581.5259 1219.6614 2408.6172 20
-1658.4708 1290.6455 2548.7983 21
-1623.3093 1274.8896 2517.6833 21
-1527.2657 1210.5834 2390.6899 22
-1512.4846 1210.089 2389.7134 23
-1489.8887 1203.2736 2376.2542 21
-1499.5323 1222.6141 2414.4485 21
-1491.7759 1228.0038 2425.092 21
-1474.9885 1225.9918 2421.1187 21
-1550.054 1301.0369 2569.3196 21
-1444.5259 1224.4862 2418.1455 21
-1427.849 1222.4733 2414.1702 21
-1428.0382 1235.0056 2438.9194 20
-1404.3444 1226.9285 2422.9685 19
-1391.8154 1228.5396 2426.1501 19
-1379.0562 1229.979 2428.9927 19
-1365.5159 1230.7446 2430.5049 19
-1360.7689 1239.5367 2447.8677 19
-1337.2096 1231.1971 2431.3984 19
-1332.3566 1240.0869 2448.9541 19
-1379.1593 1297.78 2562.8879 19
-1374.8246 1308.1021 2583.272 19
-1374.8832 1322.8834 2612.4626 19
-1352.9951 1316.6443 2600.1416 19
-1346.3185 1325.2349 2617.1064 19
-1325.8591 1320.3008 2607.3623 18
-1306.3386 1316.196 2599.2563 21
-1290.0812 1315.3204 2597.5271 21
-1209.0265 1247.5612 2463.7144 21
-1190.1217 1243.0602 2454.8259 21
-1174.2888 1241.6963 2452.1323 21
-1157.6075 1239.3898 2447.5774 21
-1141.2794 1237.4077 2443.6631 21
-1127.8324 1238.5385 2445.8962 19
-1117.6335 1243.3121 2455.3235 18
-1104.0712 1244.4208 2457.5127 18
-1092.3352 1247.645 2463.8801 19
-1079.5248 1249.7129 2467.9636 19
-1066.9364 1252.098 2472.6738 19
-1054.4778 1254.7037 2477.8198 19
-1042.2819 1257.7003 2483.7375 19
-1027.8986 1258.1053 2484.5374 19
-1068.0938 1326.2944 2619.199 19
-1058.0884 1333.239 2632.9131 19
-1039.3236 1329.1891 2624.9153 19
-1027.3982 1333.8956 2634.21 19
-1013.5228 1336.1768 2638.7146 19
-996.1297 1333.819 2634.0586 19
-978.83179 1331.5159 2629.5103 19
-963.36981 1331.676 2629.8264 19
-953.08533 1339.1158 2644.519 19
-935.31934 1336.1172 2638.5969 19
-885.48676 1286.4302 2540.4739 19
-909.85229 1344.6835 2655.5139 19
-894.18579 1344.7817 2655.708 19
-879.44641 1346.3029 2658.7119 19
-865.47705 1349.0797 2664.1958 19
-847.90442 1346.2388 2658.5854 21
-833.65155 1348.6609 2663.3687 21
-817.94354 1348.777 2663.5979 21
-805.99652 1355.2213 2676.3245 21
-791.46356 1357.4891 2680.803 21
-778.39355 1362.4103 2690.5215 21
-762.16919 1361.901 2689.5156 21
-744.95496 1359.5632 2684.8989 21
-731.4953 1364.1252 2693.908 21
-715.18567 1363.4574 2692.5891 21
-695.2301 1355.6495 2677.1702 21
-681.58331 1360.0664 2685.8926 21
-668.4198 1365.6816 2696.9817 21
-654.32306 1369.6184 2704.7561 19
-632.83606 1357.8954 2681.6052 19
-624.47461 1374.4579 2714.3132 19
-609.95508 1377.9836 2721.2759 19
-592.99402 1376.0352 2717.4282 19
-576.68768 1375.54 2716.4502 19
-563.08112 1381.6407 2728.498 19
-548.95544 1386.7904 2738.668 20
-532.92615 1387.2987 2739.6714 21
-517.32507 1388.9884 2743.0085 21
-499.34045 1384.1807 2733.5139 21
-487.37692 1396.3005 2757.4485 21
-471.16092 1396.6555 2758.1497 21
-455.50723 1398.7626 2762.3108 21
-431.26993 1373.6863 2712.7893 21
-422.01169 1396.2269 2757.3032 21
-405.56671 1395.8479 2756.5549 21
-389.22836 1395.8198 2756.4993 21
-372.40085 1393.9579 2752.8223 21
-355.25607 1390.6835 2746.356 21
-331.58899 1360.3373 2686.4275 21
-314.91492 1357.0662 2679.9678 21
-298.53796 1354.7963 2675.4849 21
-283.12033 1356.8691 2679.5786 21
-270.91281 1375.4869 2716.3455 21
-253.75134 1369.7155 2704.9478 21
-236.17139 1360.7546 2687.2517 21
-220.46686 1362.0852 2689.8794 21
-204.16553 1359.6486 2685.0674 21
-188.21346 1359.3226 2684.4238 21
-172.58904 1361.5214 2688.7659 21
-158.00789 1373.2343 2711.8967 21
-139.12805 1346.0103 2658.1343 20
-121.87513 1329.5859 2625.699 20
-106.25969 1328.8329 2624.2119 19
-90.085121 1319.6315 2606.0408 19
-74.736824 1321.2311 2609.1997 18
-59.214439 1319.7847 2606.3433 19
-43.752052 1319.1267 2605.0439 19
-28.266212 1316.6593 2600.1711 19
-12.817746 1312.1077 2591.1824 19
2.5310225 1311.0806 2589.1543 19
17.939831 1316.2217 2599.3069 19
33.197086 1310.6301 2588.2646 19
48.533852 1310.7194 2588.4409 19
63.744919 1308.186 2583.438 19
78.82515 1304.4685 2576.0964 19
93.976913 1302.9487 2573.0952 19
108.93627 1299.5579 2566.3989 19
124.63113 1304.6971 2576.5481 19
137.18994 1279.4674 2526.7236 20
152.77063 1284.6119 2536.8833 20
168.82677 1292.4747 2552.4109 20
184.11621 1293.658 2554.7476 20
198.44844 1288.4464 2544.4558 18
211.26341 1274.8154 2517.5369 19
227.4192 1281.812 2531.3538 19
242.91541 1284.4552 2536.5737 19
256.22458 1275.8999 2519.6785 19
269.97314 1270.3541 2508.7266 19
284.94449 1270.8406 2509.6873 19
299.24774 1268.4469 2504.9602 18
313.43613 1265.8157 2499.7639 18
328.1394 1265.4072 2498.9573 18
341.68417 1260.7595 2489.7788 19
354.46405 1253.7908 2476.0168 19
369.2171 1254.0781 2476.5842 19
384.43076 1255.848 2480.0796 19
494.05896 1554.5646 3069.9922 19
506.20047 1536.2168 3033.7585 19
428.4498 1255.6763 2479.7402 19
447.93954 1269.2751 2506.5957 19
459.93481 1261.4467 2491.1357 19
472.74335 1256.2661 2480.905 19
488.92288 1260.0857 2488.4482 19
503.16711 1258.8401 2485.9883 19
490.02081 1191.0874 2352.1887 19
529.29974 1250.9874 2470.4807 19
507.452 1167.0798 2304.7781 19
521.86218 1168.7733 2308.1223 19
530.83453 1158.5126 2287.8591 19
586.8819 1248.9432 2466.4438 19
557.10126 1156.7667 2284.4114 19
571.03339 1157.5751 2286.0076 19
585.8125 1160.0231 2290.842 19
638.32605 1235.3901 2439.6787 19
658.47668 1246.1724 2460.9719 19
669.8609 1240.2567 2449.2893 19
653.31775 1183.98 2338.1528 19
649.36511 1152.3838 2275.7559 19
661.59943 1150.2145 2271.4719 19
680.37598 1159.2788 2289.3723 19
692.39807 1156.7051 2284.2896 19
703.26398 1152.3354 2275.6604 19
717.14001 1152.9697 2276.9131 19
733.85406 1158.0591 2286.9636 19
741.26465 1148.5488 2268.1824 19
748.08289 1138.4756 2248.2896 19
728.88318 1089.8519 2152.2664 18
733.7937 1078.3308 2129.5142 18
739.28705 1068.0413 2109.1941 18
744.52966 1057.7374 2088.8457 18
748.84271 1046.4716 2066.5977 18
826.30249 1136.1427 2243.6826 18
760.8335 1029.563 2033.2062 16
762.98706 1016.3862 2007.1844 16
767.93311 1007.2767 1989.1947 15
775.69525 1002.0804 1978.9332 65550
779.28058 991.72351 1958.48 65551
786.67706 986.4494 1948.0646 196619
794.06738 981.32019 1937.9353 262149
799.65106 974.13635 1923.7484 1049866
810.29688 973.23456 1921.9675 2627863
830.64471 983.84912 1942.9294 5127220
844.401 986.47284 1948.1108 5718840
854.62775 984.95813 1945.1196 6376768
862.93994 981.30652 1937.9082 6969161
870.61871 977.04004 1929.4827 7692884
885.0705 980.38647 1936.0913 7429712
892.89594 976.40118 1928.2211 7232076
909.08508 981.54712 1938.3833 7627091
922.86884 983.99969 1943.2268 7956056
933.31207 982.87402 1941.0038 8021337
947.95062 986.14014 1947.4539 7955801
956.276 982.83923 1940.9351 8021853
963.4621 978.45953 1932.286 7758424
982.79443 986.37329 1947.9143 8613732
994.29724 986.33655 1947.8417 7955801
1007.3589 987.82916 1950.7894 8021595
1020.2756 989.14758 1953.3929 8152924
1034.8367 992.01263 1959.0509 7890009
1041.8151 987.62579 1950.3878 7166029
1057.1793 991.19775 1957.4418 7824216
1065.1694 987.85327 1950.8369 7561044
