# .PCD v0.7 - Point Cloud Data file format
VERSION 0.7
FIELDS x y z rgb
SIZE 4 4 4 4
TYPE F F F U
COUNT 1 1 1 1
WIDTH 1357
HEIGHT 1
VIEWPOINT 0 0 0 1 0 0 0
POINTS 1357
DATA ascii
-4965.0928 1009.8571 5593.4854 9
-4941.0796 1011.7252 5603.833 8
-4923.2471 1014.8927 5621.3774 11
-5002.6558 1038.2855 5750.9478 12
-4927.3633 1029.6714 5703.2344 270
-4908.8521 1032.8855 5721.0376 14
-4915.3306 1041.4392 5768.4155 14
-4807.5312 1025.7306 5681.4067 15
-4859.8711 1044.2083 5783.7524 270
-4806.8433 1040.1481 5761.2637 14
-4786.2852 1043.1061 5777.6479 14
-4774.0015 1047.923 5804.3281 270
-4573.5947 1011.2161 5601.0127 270
-4529.7676 1008.8451 5587.8804 270
-4619.1318 1036.3214 5740.0684 270
-4565.6689 1031.9237 5715.71 270
-4433.7949 1009.6054 5592.0918 270
-4397.4097 1008.8583 5587.9536 270
-4374.2056 1011.1469 5600.6294 270
-4811.6958 1120.7791 6207.8701 270
-4547.7656 1067.4612 5912.5479 270
-4514.7407 1067.9348 5915.1714 16
-4552.0645 1085.1865 6010.7271 16
-4573.8115 1098.9678 6087.0596 16
-4657.0176 1127.8523 6247.0479 16
-4119.7544 1005.7285 5570.6177 16
-4351.6895 1070.9281 5931.751 271
-4331.2104 1074.5656 5951.8989 14
-4494.4961 1124.2289 6226.978 270
-4245.3218 1070.6898 5930.4312 270
-4137.6445 1052.2412 5828.2466 15
-4156.4399 1065.9159 5903.9893 15
-4194.9922 1084.9323 6009.3184 16
-3790.7024 988.76373 5476.6519 15
-3732.4021 981.96143 5438.9746 16
-3696.2041 980.90607 5433.1294 16
-3652.7461 977.88867 5416.4165 16
-3815.7935 1030.592 5708.3345 16
-3912.1687 1066.0698 5904.8413 16
-4037.1648 1110.0571 6148.4824 16
-3906.4314 1083.89 6003.5459 16
-3967.3513 1110.9075 6153.1924 15
-3866.2695 1092.6428 6052.0264 271
-3581.5654 1021.657 5658.8442 269
-3546.3955 1021.1832 5656.2197 14
-3731.8418 1084.8326 6008.7666 14
-3693.0193 1083.886 6003.5234 14
-3682.9678 1091.4473 6045.4048 14
-3626.1289 1085.1554 6010.5547 14
-3628.4985 1096.6333 6074.1294 14
-3594.9707 1097.3832 6078.2832 14
-3547.479 1093.8425 6058.6719 14
-3204.9646 998.33154 5529.647 14
-3332.167 1048.6732 5808.4839 14
-3310.9302 1052.8624 5831.6875 14
-3273.6582 1051.9873 5826.8398 12
-3217.1484 1044.8453 5787.2817 12
-3133.5991 1028.6733 5697.707 12
-3200.0703 1061.9329 5881.9277 12
-3158.6289 1059.7201 5869.6714 12
-3186.929 1081.1168 5988.1851 268
-3097.9167 1062.7509 5886.458 268
-3115.2751 1080.8728 5986.834 267
-3090.6743 1084.6865 6007.957 267
-3027.1782 1074.7795 5953.0835 270
-3016.5625 1083.6351 6002.1338 270
-3048.9736 1108.3428 6138.9868 270
-2959.9788 1088.9816 6031.7471 270
-2992.2388 1114.3021 6171.9951 16
-2931.188 1105.0707 6120.8628 16
-2878.9983 1098.9904 6087.1846 16
-2852.2939 1102.6077 6107.2207 16
-2825.1667 1106.1523 6126.8545 16
-2794.0227 1108.1962 6138.1748 270
-2763.1965 1110.4216 6150.501 270
-2730.3499 1111.8835 6158.5991 270
-2695.3359 1112.4908 6161.9624 270
-2681.8501 1122.1222 6215.3096 270
-2670.2605 1132.8263 6274.5981 526
-2643.0862 1137.1277 6298.4233 270
-2645.5012 1154.4646 6394.4507 15
-2610.5513 1155.7628 6401.6411 16
-2586.9792 1162.2108 6437.356 16
-2549.886 1162.6865 6439.9907 15
-2516.4309 1164.8606 6452.0327 16
-2469.2395 1160.6453 6428.6846 18
-2432.2012 1161.1449 6431.4521 18
-2405.7634 1166.8018 6462.7852 18
-2368.1414 1167.1295 6464.6001 18
-2331.1064 1167.7621 6468.104 18
-2300.6355 1171.7592 6490.2427 19
-2267.0693 1174.2887 6504.2539 19
-2222.4458 1171.0791 6486.4766 19
-2194.5476 1176.725 6517.748 19
-2155.356 1176.4089 6515.998 19
-2123.5488 1180.1853 6536.9146 19
-2083.4216 1179.3922 6532.5215 19
-2052.0618 1183.6261 6555.9731 19
-2024.8188 1190.4438 6593.7354 21
-2078.6375 1246.1254 6902.1489 20
-1966.4167 1202.5051 6660.5415 20
-1912.5631 1193.522 6610.7847 21
-1874.1471 1193.9984 6613.4233 21
-1900.9033 1236.9022 6851.063 21
-1864.7078 1239.8221 6867.2363 21
-1835.5851 1247.6798 6910.7593 21
-1804.2661 1254.3691 6947.811 21
-1709.6664 1216.3497 6737.2251 21
-1670.1782 1216.6589 6738.9385 21
-1599.6226 1193.798 6612.3135 21
-1648.9591 1261.5106 6987.3667 21
-1609.5471 1263.0665 6995.9844 21
-1561.2941 1257.5835 6965.6147 21
-1522.032 1259.2415 6974.7974 21
-1456.6235 1238.756 6861.3311 21
-1382.0924 1209.1136 6697.1455 21
-1343.6638 1210.2367 6703.3657 21
-1304.1671 1210.4368 6704.4741 21
-1265.5127 1211.4557 6710.1177 21
-1176.7799 1163.0466 6441.9858 21
-1094.3545 1117.8354 6191.5654 21
-1048.4733 1108.1111 6137.7036 21
-1004.8189 1100.1261 6093.4756 21
-986.41211 1120.2184 6204.7642 22
-998.9671 1178.3888 6526.9639 21
-938.81781 1152.028 6380.9546 21
-900.80823 1151.7629 6379.4863 21
-846.646 1129.9176 6258.4873 20
-797.95551 1113.7081 6168.7051 20
-782.53149 1144.6014 6339.8193 22
-738.87671 1135.2349 6287.939 23
-725.47845 1173.829 6501.7075 23
-697.68695 1192.157 6603.2246 23
-689.43823 1248.0392 6912.7495 23
-651.56091 1253.9579 6945.5327 23
-612.30463 1257.8417 6967.0444 23
-572.06555 1260.1222 6979.6758 23
-530.76385 1260.235 6980.3008 23
-488.30142 1257.3778 6964.4756 23
-448.0235 1260.1376 6979.7617 23
-407.7001 1263.3177 6997.376 23
-366.88882 1265.5349 7009.6562 22
-325.66763 1266.7234 7016.2397 21
-285.1217 1271.2706 7041.4263 21
-256.67545 1340.571 7425.2734 21
-212.14772 1337.1755 7406.4658 21
-171.46458 1362.5605 7547.0708 21
-126.93459 1364.5013 7557.8208 21
-82.651398 1372.6566 7602.9917 21
-37.788795 1379.1986 7639.2266 21
7.6099458 1405.4678 7784.729 21
54.155579 1416.6411 7846.6167 21
100.08437 1408.8098 7803.2402 21
143.8071 1384.6857 7669.6191 19
187.79135 1374.0593 7610.7607 19
229.76404 1355.6786 7508.9526 19
273.58624 1352.4037 7490.813 19
318.37689 1354.162 7500.5518 19
362.02069 1351.2089 7484.1953 19
410.76669 1365.866 7565.3789 19
459.98087 1379.043 7638.3647 19
508.08353 1386.8256 7681.4717 19
536.83636 1344.8544 7448.998 19
577.0993 1335.9037 7399.4214 19
608.37866 1308.8892 7249.791 19
632.45483 1270.9622 7039.7173 16
667.64142 1258.6735 6971.6519 13
701.07611 1244.7063 6894.2891 394249
739.15887 1240.075 6868.6367 7300708
786.81799 1251.1548 6930.0063 8747119
831.53766 1256.6931 6960.6831 9930105
871.33667 1254.6232 6949.2178 9864055
913.81317 1256.4211 6959.1768 9336941
967.19623 1272.4124 7047.75 9534318
1012.0967 1276.3824 7069.7402 9797490
1062.6097 1286.8339 7127.6289 9468268
1105.7172 1287.8608 7133.3174 9336425
1149.8766 1289.9924 7145.1235 9402475
1185.639 1282.8867 7105.7666 9797233
1220.8141 1275.6548 7065.7095 9468525
1274.3535 1287.4554 7131.0718 9665903
1309.2922 1280.3099 7091.4937 9205353
1369.4001 1297.4554 7186.4609 9007973
1433.9178 1317.6191 7298.1455 9469294
1482.4425 1322.3367 7324.2754 10390141
1524.5941 1321.2629 7318.3281 9535087
1573.8159 1326.2063 7345.7085 8943208
1600.6335 1312.5125 7269.8599 9995639
1650.4255 1317.8813 7299.5977 10588033
1719.7104 1338.144 7411.8306 9996410
1751.5938 1329.0194 7361.2896 11510421
1797.0186 1330.3628 7368.731 11641236
1795.3005 1297.5697 7187.0938 9008488
1891.683 1335.5566 7397.499 9073764
1937.2411 1336.7528 7404.1245 7757381
2048.8674 1382.4758 7657.3794 13481626
2021.3956 1334.3942 7391.0605 13086868
2045.8828 1321.9243 7321.9912 13020820
2073.0291 1311.6547 7265.1089 12692113
2100.0361 1301.7166 7210.0625 12560273
2145.5256 1303.4026 7219.4009 12625811
2212.8809 1318.0465 7300.5122 12756884
2236.1038 1306.3466 7235.708 12230028
2271.6038 1302.1243 7212.3208 12165004
2310.6348 1300.0446 7200.8018 8677464
2423.0044 1338.5552 7414.1074 8875357
2472.1123 1341.3685 7429.6909 9270116
2529.3442 1348.4147 7468.7178 9533288
2578.8457 1351.1678 7483.9678 9007202
2586.2549 1332.147 7378.6133 8546909
2656.7395 1345.7078 7453.7246 8086357
2690.8035 1340.6787 7425.8696 8020561
2729.6997 1338.1803 7412.0312 9664357
2794.6919 1348.3516 7468.3687 12032902
2893.2556 1374.1505 7611.2661 12559246
2958.2073 1383.4387 7662.7124 11571582
3026.8965 1394.1674 7722.1377 10913909
3063.4026 1389.9742 7698.9121 11900803
3152.0437 1409.2125 7805.4707 13612452
3176.749 1399.7233 7752.9111 11572611
3268.3186 1419.5464 7862.7085 9270114
3299.0847 1412.774 7825.1973 8940636
3345.2498 1412.6925 7824.7461 8940638
3407.5823 1419.3473 7861.6064 8809052
3445.9187 1415.9624 7842.8579 8809052
3483.1787 1412.2313 7822.1914 8874847
3519.2065 1408.1049 7799.3359 9072480
3463.5723 1367.885 7576.562 9797230
3406.6008 1328.1729 7356.6011 9929066
3441.0706 1324.665 7337.1719 13350039
3679.9221 1398.9414 7748.5801 13415834
3693.0198 1386.6234 7680.3525 13744803
3700.8989 1372.6698 7603.0645 11903118
3750.7122 1374.4181 7612.748 10586747
3870.8906 1401.6033 7763.3237 10256755
3930.8088 1406.5867 7790.9263 9533032
3995.6541 1413.1969 7827.54 9137760
4065.8635 1421.5311 7873.7021 9466725
4146.853 1433.4026 7939.4565 10059119
4206.8833 1437.844 7964.0571 11178112
4237.5293 1432.2552 7933.1021 11244416
4255.4219 1422.526 7879.2129 9796202
4271.7485 1412.49 7823.624 5521202
4214.9316 1378.7434 7636.7056 11706516
4201.5044 1359.7562 7531.5376 12035225
4177.9438 1337.9229 7410.6055 12956071
4191.8013 1328.4016 7357.8682 13416105
4463.2563 1399.87 7753.7231 11835788
4586.1665 1423.7668 7886.0854 11243649
4810.6948 1478.4106 8188.7515 6571835
4885.9771 1486.5555 8233.8652 7690317
4877.8613 1469.4164 8138.9331 6834749
5152.8696 1537.0669 8513.6416 6703675
4732.9512 1398.1229 7744.0469 9598038
5032.1431 1472.2343 8154.541 11901305
5109.4878 1480.6482 8201.1445 13480851
5125.2588 1471.2285 8148.9707 12625035
5115.5757 1454.7463 8057.6772 12362121
5080.2822 1431.3533 7928.106 11835780
5090.8672 1421.1963 7871.8477 11243902
5138.8086 1421.5579 7873.8501 11047554
5239.0952 1436.2629 7955.2998 13613994
5193.1714 1410.9805 7815.2632 13416876
5230.4824 1408.5599 7801.8564 13284520
5282.7656 1410.1786 7810.8213 6706508
5253.9736 1390.3147 7700.7979 10393752
5342.0786 1401.46 7762.5303 9472651
5408.3452 1406.7347 7791.7466 8617602
5375.1045 1386.2571 7678.3232 7894136
5306.7544 1357.1443 7517.0703 4670023
5230.3447 1326.472 7347.1802 4012611
5175.8101 1301.8079 7210.5684 5789023
5625.8535 1403.4191 7773.3813 10526374
5641.0415 1395.7823 7731.0825 12039867
5673.0488 1392.397 7712.3315 13619923
5677.4443 1382.3427 7656.6416 13948375
5617.9165 1357.0071 7516.3105 11447988
5669.002 1358.5786 7525.0146 10657709
5866.9648 1395.05 7727.0264 13422541
5816.4644 1372.3345 7601.207 12633024
5535.3745 1295.9807 7178.292 10921891
5653.3667 1313.5146 7275.4106 8487297
5685.5156 1310.9894 7261.4233 4868938
5793.7705 1325.9187 7344.1157 4277056
5943.5234 1350.0519 7477.7866 4934727
6007.9917 1354.5992 7502.9736 6776928
6087.6274 1362.4742 7546.5928 6645592
6075.2109 1349.7825 7476.2944 7303518
6171.8965 1361.3391 7540.3057 8290922
6190.0103 1355.5236 7508.0938 8685681
6193.1606 1346.5376 7458.3213 8356457
6207.5781 1340.1113 7422.7271 9277046
6313.3911 1353.3674 7496.1514 7895650
6429.2764 1368.5824 7580.4253 6974547
6286.4888 1328.9054 7360.6587 8093541
6445.9824 1353.234 7495.4121 8554348
6413.0586 1337.1113 7406.1099 9277814
6519.7139 1350.1117 7478.1182 9540986
6614.1001 1360.4135 7535.1777 9014642
6627.894 1354.1113 7500.2715 9014642
6556.4531 1330.5953 7370.0186 9146229
6513.4727 1313.1281 7273.2695 11317396
6492.3018 1300.2584 7201.9863 11448983
6612.4946 1315.6838 7287.4258 12435877
6691.4165 1322.7507 7326.5684 11251606
6480.6519 1272.8307 7050.0674 11383193
6379.7705 1244.9934 6895.8799 9869698
6680.3491 1295.3557 7174.8311 9146232
6568.8789 1265.6877 7010.5034 9146232
6709.1108 1284.5858 7115.1772 8751474
6620.6763 1259.7386 6977.5518 9409404
6607.71 1249.4705 6920.6772 10133127
0 0 0 0
0 0 0 0
0 0 0 0
0 0 0 0
-5011.9678 1025.4651 5499.4785 10
-5069.1782 1043.9567 5598.6475 8
-5016.4639 1039.9048 5576.9175 8
-4976.7104 1038.5035 5569.4028 8
-5019.8174 1054.4897 5655.1357 11
-4956.4424 1048.1725 5621.2563 11
-4719.4053 1004.7956 5388.6304 15
-4979.4819 1067.3881 5724.3076 17
-4837.6821 1044.1029 5599.4316 20
-4790.4062 1041.038 5582.9946 277
-4769.9272 1043.7942 5597.7764 274
-4916.564 1083.4149 5810.2583 16
-5007.9189 1111.3264 5959.9453 15
-5027.7529 1123.65 6026.0356 14
-4882.7905 1099.0564 5894.1421 14
-4854.2949 1100.5125 5901.9507 270
-4320.6982 986.64783 5291.3052 270
-4515.959 1038.7727 5570.8462 270
-4852.687 1124.4453 6030.3008 270
-4642.9375 1083.8219 5812.4414 270
-4719.9033 1110.0209 5952.9438 14
-4694.0156 1112.2432 5964.8618 14
-4374.9438 1044.5026 5601.5747 14
-4741.2632 1140.6118 6117.0005 14
-4668.9961 1131.8776 6070.1597 14
-4483.0459 1095.2344 5873.6455 270
-4224.8325 1040.2255 5578.6372 16
-4506.2939 1118.2738 5997.2036 16
-4449.48 1112.9497 5968.6514 16
-4511.9946 1137.6271 6100.9937 16
-4475.1919 1137.4597 6100.0957 16
-4440.1313 1137.7358 6101.5767 16
-4374.1099 1130.0181 6060.187 16
-4386.6416 1142.634 6127.8452 16
-4349.666 1142.4573 6126.8975 16
-4313.563 1142.5087 6127.1733 16
-4290.231 1145.9723 6145.748 16
-4304.1885 1159.5409 6218.5151 16
-4182.502 1136.486 6094.874 16
-4171.001 1143.2303 6131.0435 16
-4100.79 1133.8601 6080.7915 16
-4095.8464 1142.5299 6127.2871 16
-3859.4805 1086.2227 5825.3164 16
-3789.3027 1076.0939 5770.9961 16
-3749.5923 1074.5115 5762.5103 16
-3702.5784 1070.7878 5742.5405 269
-3847.8337 1123.1152 6023.168 269
-3825.7588 1127.1243 6044.6675 269
-3806.7798 1132.1298 6071.5117 270
-3786.9675 1136.9806 6097.5264 14
-3763.7402 1140.8896 6118.4902 14
-3702.7185 1133.3068 6077.8242 14
-3663.7207 1132.3822 6072.8657 14
-3657.0723 1141.537 6121.9624 14
-3628.499 1143.9629 6134.9722 14
-3595.2405 1144.9458 6140.2432 14
-3562.9636 1146.2646 6147.3159 14
-3238.0505 1052.4926 5644.4248 14
-3486.4038 1145.0416 6140.7573 14
-3339.0054 1108.1951 5943.1523 12
-3382.9661 1134.751 6085.5688 12
-3381.127 1146.3507 6147.7778 11
-3331.646 1141.8744 6123.772 13
-3231.594 1119.7764 6005.2622 13
-3192.7683 1118.6381 5999.1572 270
-3074.1614 1089.2067 5841.3193 270
-3123.4058 1119.2537 6002.459 270
-3059.2483 1108.8879 5946.8682 270
-3062.302 1122.9266 6022.1562 270
-3069.5381 1138.8479 6107.5405 270
-3045.3572 1143.3538 6131.7056 270
-3016.0981 1146.0389 6146.1055 270
-2963.9773 1139.9966 6113.7012 16
-2903.1453 1130.4128 6062.3042 14
-2840.6438 1119.9308 6006.0903 270
-2796.8267 1116.6428 5988.4565 270
-2775.5918 1122.402 6019.3428 270
-2800.3418 1147.1487 6152.0571 270
-2780.2134 1153.9214 6188.3784 270
-2748.6453 1156.0635 6199.8667 270
-2712.3491 1156.2483 6200.8574 270
-2664.3088 1151.3628 6174.6572 270
-2640.2769 1156.8608 6204.1426 269
-2601.2717 1155.861 6198.7803 15
-2564.6987 1155.9286 6199.1426 16
-2511.5195 1148.4049 6158.7939 17
-2490.343 1155.5084 6196.8896 18
-2475.481 1165.7983 6252.0732 18
-2459.7139 1175.968 6306.6123 18
-2430.4834 1179.9155 6327.7827 18
-2396.6821 1181.7329 6337.5293 18
-2373.0339 1188.6941 6374.8618 18
-2326.0076 1183.9805 6349.583 18
-2294.937 1187.3671 6367.7451 19
-2257.4573 1187.4957 6368.4346 19
-2221.9121 1188.6635 6374.6973 18
-2181.1638 1187.0399 6365.9902 18
-2146.5703 1188.7678 6375.2568 19
-2126.4443 1198.7131 6428.5928 19
-2072.2546 1189.4688 6379.0156 19
-2060.9966 1204.9814 6462.209 19
-2075.2874 1236.3013 6630.1748 20
-2039.0914 1238.1732 6640.2134 20
-2000.5493 1238.6661 6642.8569 21
-1975.3523 1247.6073 6690.8076 21
-1935.9979 1247.7899 6691.7871 21
-1898.4535 1249.1714 6699.1953 21
-1868.8745 1255.9646 6735.6274 21
-1844.759 1266.8063 6793.77 21
-1798.2596 1262.4175 6770.2339 21
-1751.7787 1257.8419 6745.6948 21
-1659.7136 1219.5573 6540.3779 21
-1564.6805 1177.2094 6313.27 21
-1604.5293 1236.7528 6632.5957 21
-1556.2407 1229.645 6594.4775 21
-1516.2783 1228.9194 6590.5864 21
-1457.0518 1212.1295 6500.5439 21
-1422.0308 1215.1116 6516.5361 21
-1372.4072 1205.4338 6464.6353 21
-1332.5635 1204.0371 6457.145 21
-1278.922 1189.7227 6380.3774 21
-1288.1556 1234.8071 6622.1616 21
-1251.9016 1237.7507 6637.9478 21
-1120.165 1143.4203 6132.062 21
-1084.2159 1143.8198 6134.2046 21
-1044.7889 1140.4506 6116.1357 21
-995.50696 1125.6954 6037.0054 21
-981.97894 1151.7771 6176.8784 21
-946.99542 1153.7383 6187.3965 21
-915.92908 1160.8218 6225.3848 21
-885.96362 1169.9534 6274.3569 21
-831.43732 1146.031 6146.063 21
-797.95386 1150.2506 6168.6924 21
-760.67438 1149.1406 6162.7397 22
-729.55261 1157.6901 6208.5898 23
-693.36676 1158.6848 6213.9243 23
-674.64392 1190.6097 6385.1348 23
-680.3454 1271.9917 6821.5791 23
-641.55469 1275.2155 6838.8677 23
-603.047 1279.4744 6861.7075 23
-563.38708 1281.7277 6873.792 23
-523.00757 1282.5671 6878.2944 23
-479.3996 1274.9625 6837.5117 23
-437.85321 1271.9431 6821.3188 23
-400.97607 1283.2527 6881.9707 23
-357.63885 1274.108 6832.9292 21
-318.21591 1278.3539 6855.6992 21
-282.30481 1300.0139 6971.8604 21
-242.05708 1305.7057 7002.3843 21
-209.91583 1366.5238 7328.5464 21
-165.81029 1360.8641 7298.1943 21
-124.16957 1378.5774 7393.189 21
-80.252472 1376.5503 7382.3179 21
-36.511681 1376.314 7381.0503 21
7.3186831 1396.0283 7486.7764 21
52.127827 1408.3424 7552.8159 21
96.558609 1403.7803 7528.3491 21
139.46254 1386.9166 7437.9116 19
182.6098 1379.9899 7400.7637 19
227.12872 1384.1041 7422.8281 19
266.81488 1362.2101 7305.4126 19
310.71152 1364.9236 7319.9648 19
352.30396 1358.0901 7283.3174 19
402.81824 1383.3878 7418.9868 19
452.21545 1400.2493 7509.4131 19
491.47928 1385.5233 7430.4395 19
526.39575 1361.9705 7304.1274 19
568.12494 1358.2837 7284.355 19
596.25006 1324.8884 7105.2598 19
632.26123 1312.2653 7037.5625 18
660.40186 1285.8789 6896.0547 14
689.27466 1263.9095 6778.2354 131079
0 0 0 0
762.4613 1252.208 6715.4814 8417899
813.50531 1269.7834 6809.7368 8548452
860.97485 1280.3826 6866.5786 9074026
905.56287 1285.9332 6896.3462 9139562
947.72144 1287.7037 6905.8413 9205353
992.83405 1293.1753 6935.1851 9665647
1039.4358 1300.0747 6972.1855 9270889
1090.8307 1312.2126 7037.2803 9139047
1122.6718 1300.8004 6976.0776 9336425
1167.9178 1305.1791 6999.5601 9007460
1217.292 1313.7126 7045.3247 9139046
1262.109 1316.9252 7062.5537 9139303
1311.4395 1324.49 7103.123 9270633
1357.1836 1328.0751 7122.3496 9205353
1409.8025 1337.9685 7175.4067 9205353
1458.7581 1343.9077 7207.2583 9929592
1499.365 1342.0365 7197.2236 9206122
1555.115 1353.4482 7258.4233 9600881
1587.8235 1344.7319 7211.6787 10126968
1629.9722 1344.2578 7209.1357 9863796
1670.0098 1342.1112 7197.6235 9403245
1728.9308 1354.8695 7266.0454 9337709
1768.6122 1352.2971 7252.25 9798259
1803.8197 1346.5071 7221.1987 10258554
1846.8175 1346.6659 7222.0508 9140069
1900.9867 1354.7791 7265.5601 9665384
1921.2979 1338.9375 7180.6035 5388063
1961.943 1337.646 7173.6772 11572339
1970.2104 1314.8021 7051.168 11703927
1998.8961 1306.25 7005.3037 13216400
2025.5599 1296.7513 6954.3628 12755597
2075.9417 1302.5127 6985.2607 9529947
2104.5759 1294.6705 6943.2036 9727067
2208.7097 1332.6837 7147.0649 9464667
2265.541 1341.2625 7193.0723 7491391
2308.0444 1341.1985 7192.7295 9137759
2376.9531 1356.2029 7273.1963 8941150
2425.4338 1359.2249 7289.4028 9007457
2481.5513 1366.3459 7327.5928 4796705
2452.114 1326.9257 7116.1851 9073249
2552.3921 1357.845 7282.0024 8809819
2553.8445 1336.036 7165.0435 10454900
2603.4692 1339.7296 7184.8516 10191727
2667.3521 1350.5232 7242.7363 10388591
2736.8586 1363.7775 7313.8184 8546131
2827.4858 1386.979 7438.2461 13020312
2904.7166 1402.9979 7524.1538 13745319
2980.8396 1418.0056 7604.6392 13747114
3028.0669 1419.0251 7610.1069 13747114
3030.5566 1399.3573 7504.6299 13746347
3153.5327 1435.0883 7696.2515 12295568
3226.5005 1447.3678 7762.1055 11440514
3260.1121 1441.8953 7732.7573 9598311
3297.7769 1438.3425 7713.7041 9072481
3355.5527 1443.5386 7741.5698 9204066
3380.8733 1434.8206 7694.8159 9466210
3319.6069 1390.0763 7454.8564 9532260
3225.8159 1333.0664 7149.1177 6966330
3232.3467 1318.4547 7070.7563 10585965
3365.4583 1355.188 7267.7534 3942682
3405.8533 1354.1301 7262.0801 11572334
3538.1057 1389.1646 7449.9668 11966577
3559.7231 1380.4323 7403.1362 13018743
3645.019 1396.306 7488.2661 13412732
3587.6099 1357.7892 7281.7031 11636082
3727.8582 1394.1051 7476.4629 10056543
3839.1304 1418.8595 7609.2183 9463895
3923.4744 1433.2026 7686.1392 9134420
3956.2625 1428.6 7661.4556 9069397
4045.4316 1444.2299 7745.2773 9003605
4082.5613 1441.1394 7728.7031 7951943
4103.5811 1432.4938 7682.3374 7163709
4127.5908 1425.0699 7642.5244 8217164
4063.3772 1387.6782 7441.9961 12298127
4020.1514 1358.1799 7283.7988 10126451
4148.3604 1386.611 7436.272 11376520
4199.5728 1388.9784 7448.9688 10061176
4240.3071 1387.8674 7443.0103 13680048
4167.0625 1349.8573 7239.1655 13876403
4154.5122 1332.0823 7143.8394 11572877
4547.3311 1443.3308 7740.4556 10388086
4716.7876 1482.1698 7948.7461 9597800
4734.6211 1473.0675 7899.9307 9663845
4735.3267 1458.8662 7823.771 9729123
4826.3999 1472.5111 7896.9473 9861220
4839.3833 1462.2981 7842.1753 1181189
4977.9038 1489.8514 7989.9419 13679778
4975.3652 1475.0654 7910.6455 12822928
4971.0449 1460.0321 7830.0234 12296841
4997.2803 1454.1682 7798.5757 11375485
5039.6499 1453.0635 7792.6514 9335646
5105.6572 1458.7327 7823.0547 8875866
5171.3828 1464.22 7852.4819 11705481
5207.7612 1461.374 7837.2197 12824737
5259.4424 1462.8347 7845.0532 13681338
5137.4585 1416.3906 7595.9775 1575948
4911.6274 1342.3711 7199.0176 2494994
5132.4717 1390.6536 7457.9521 1837837
5201.3774 1397.2952 7493.5703 1904914
4989.8965 1329.1389 7128.0547 5984080
4944.2964 1305.9407 7003.6445 12630199
5115.2163 1339.8424 7185.4561 12827577
5119.0342 1329.7761 7131.4722 11313823
5114.2207 1317.6508 7066.4448 9996421
5204.1763 1329.9409 7132.356 9271414
5318.2935 1348.1581 7230.0522 8676456
5385.708 1354.3396 7263.2036 7755870
5632.4541 1405.1622 7535.7607 4400169
5761.7788 1426.1219 7648.166 11112585
5903.9443 1449.9082 7775.7295 10983317
5848.6323 1425.2045 7643.2456 9343378
5697.9521 1377.8192 7389.123 12172991
5642.9087 1354.1063 7261.9526 12765642
5555.73 1323.099 7095.6631 12831691
5299.6523 1252.6362 6717.7778 13226191
5477.0376 1284.9143 6890.8818 13357265
5706.9351 1328.9431 7127.0044 14212831
5751.5474 1329.4956 7129.9673 12830921
5994.6011 1375.5763 7377.0942 13224909
5901.3853 1344.3849 7209.8174 11777208
5959.7412 1347.923 7228.792 8487559
5940.0923 1333.8939 7153.5557 7500405
6063.8169 1352.0312 7250.8242 4671307
6056.877 1340.9844 7191.5811 3619127
6438.9658 1415.6208 7591.8496 2631971
6261.9414 1367.1521 7331.916 4408636
6161.2939 1335.9115 7164.3755 5263940
6188.7949 1332.6938 7147.1196 5790279
6242.5889 1335.1433 7160.2559 5593410
6360.1641 1351.1089 7245.8779 6119753
6399.2554 1350.2997 7241.5381 7501406
6352.4165 1331.4901 7140.6641 8093541
6351.5317 1322.4977 7092.4385 9738366
6384.6206 1320.6509 7082.5342 10396296
6436.7104 1322.7328 7093.6992 11120017
6511.6177 1329.4463 7129.7031 11053968
6480.4258 1314.5511 7049.8213 10856588
6466.3916 1303.3048 6989.5083 9935484
6410.1597 1283.7506 6884.6416 9935485
6494.4609 1292.4104 6931.083 10133119
6424.6821 1270.4915 6813.5332 10461827
6433.6084 1264.3132 6780.4004 11580566
6443.0684 1258.3159 6748.2373 10593672
0 0 0 0
0 0 0 0
0 0 0 0
0 0 0 0
-5068.2549 1069.9276 5561.2402 17
-5036.8022 1070.245 5562.8901 13
-4838.8237 1034.9492 5379.4307 12
-5039.2095 1084.9542 5639.3452 11
-4984.1143 1080.2539 5614.9141 12
-4905.6152 1070.3838 5563.6113 12
-4923.6948 1081.5957 5621.8887 14
-4899.2812 1083.5624 5632.1108 15
-4884.9248 1087.7954 5654.1133 17
-4839.187 1085.0507 5639.8467 16
-4782.0566 1079.6954 5612.0112 14
-4733.2192 1076.1506 5593.5864 14
-4789.8237 1096.6985 5700.3896 14
-4754.2534 1096.2834 5698.2319 14
-4724.8428 1097.293 5703.4795 14
-4689.8291 1097.0065 5701.9902 270
-4707.6436 1109.1625 5765.1743 270
-4662.9434 1106.6597 5752.165 270
-4646.3818 1110.8472 5773.9312 270
-4437.0161 1068.6598 5554.6509 14
-4425.0562 1073.7427 5581.0703 14
-4388.7998 1072.962 5577.0127 14
-4345.9893 1070.5552 5564.5024 270
-4576.0874 1135.8513 5903.897 270
-4507.3413 1127.4045 5859.9922 270
-4528.0908 1141.3855 5932.6626 14
-4476.8569 1137.2987 5911.4204 14
-4409.9531 1129.1353 5868.9888 14
-4402.7744 1136.2557 5905.999 270
-4290.3193 1116.1031 5801.2505 270
-4321.8286 1133.3792 5891.0474 269
-4249.7222 1123.5426 5839.9189 271
-4173.7222 1112.5066 5782.5562 15
-4123.854 1108.311 5760.7485 16
-4124.7988 1117.8157 5810.1519 16
-4127.9736 1128.0897 5863.5537 16
-4076.8201 1123.5654 5840.0376 16
-4009.3445 1114.4268 5792.5371 16
-3859.5781 1082.0594 5624.2993 16
-3909.9187 1105.7184 5747.2729 16
-3953.5493 1127.8789 5862.458 16
-4156.311 1196.2317 6217.7407 16
-3786.897 1099.6561 5715.7622 16
-3749.7212 1098.6849 5710.7148 16
-3691.9966 1091.6205 5673.9951 16
-3701.5879 1104.5123 5741.0044 15
-3752.9297 1130.2168 5874.6104 16
-3726.7239 1132.8301 5888.1934 269
-3694.7385 1133.7192 5892.8149 270
-3665.3684 1135.4354 5901.7354 14
-3641.0757 1138.7726 5919.0815 14
-3466.3267 1094.6609 5689.7988 14
-3561.75 1135.8409 5903.8428 14
-3542.7251 1140.9779 5930.5439 14
-3514.8967 1143.3545 5942.8965 14
-3459.4692 1136.7103 5908.3623 14
-3396.5095 1127.4303 5860.1265 14
-3465.6646 1162.2654 6041.1914 14
-3881.0117 1315.1398 6835.7979 14
-3347.3096 1146.2474 5957.9336 14
-3900.2429 1349.8264 7016.0908 12
-3298.4021 1153.833 5997.3618 12
-3809.5723 1347.1597 7002.23 12
-3325.1523 1188.8018 6179.1216 13
-3204.8069 1158.5303 6021.7773 270
-3603.3643 1317.2711 6846.876 14
-3132.3884 1158.1349 6019.7217 14
-3097.708 1158.5021 6021.6304 14
-3062.2065 1158.567 6021.9683 14
-3038.7886 1163.2593 6046.3574 14
-3011.5476 1166.5826 6063.6313 14
-2973.9861 1165.9399 6060.291 270
-2934.5239 1164.5273 6052.9487 16
-2904.9907 1167.0687 6066.1577 270
-2867.0786 1166.2655 6061.9829 270
-2835.2729 1167.9572 6070.7759 270
-2798.2795 1167.528 6068.5449 270
-2766.5427 1169.3093 6077.8042 270
-2737.0623 1172.1039 6092.3296 270
-2707.7891 1175.0631 6107.7109 270
-2680.7029 1179.0645 6128.5088 14
-2648.4841 1180.8871 6137.9829 14
-2614.635 1182.0236 6143.8896 16
-2581.0381 1183.3075 6150.5635 16
-2547.2546 1184.5419 6156.979 16
-2514.9668 1186.5172 6167.2471 18
-2498.397 1196.0759 6216.9307 18
-2468.2324 1199.3149 6233.7661 18
-2430.2097 1198.7761 6230.9653 18
-2424.1594 1214.2351 6311.3184 18
-2388.6418 1215.1876 6316.2686 18
-2360.4155 1219.9387 6340.9639 19
-2318.2434 1217.5192 6328.3877 19
-2276.9585 1215.4939 6317.8608 19
-2250.3445 1221.3632 6348.3682 19
-2212.0432 1220.9812 6346.3828 19
-2172.0115 1219.6143 6339.2778 20
-2140.5132 1223.0753 6357.2676 20
-2104.7539 1224.1819 6363.019 20
-2068.8645 1225.2518 6368.5806 19
-2034.9093 1227.5282 6380.4126 19
-1996.6799 1227.2637 6379.0376 20
-1957.9401 1226.6692 6375.9478 21
-1922.8848 1228.405 6384.9702 20
-1893.6342 1233.9932 6414.0161 21
-1854.8003 1233.4374 6411.1274 20
-1818.2786 1234.4281 6416.2764 21
-1782.0519 1235.6655 6422.709 21
-1747.6438 1238.2457 6436.1201 21
-1714.24 1241.6683 6453.9097 21
-1671.2579 1238.151 6435.6274 21
-1705.7772 1293.2268 6721.8994 21
-1609.2246 1249.1887 6492.999 21
-1561.5146 1241.8373 6454.7876 21
-1488.7897 1213.7234 6308.6582 21
-1566.2523 1309.7535 6807.8013 21
-1527.1147 1310.778 6813.1255 21
-1383.549 1219.7899 6340.1909 21
-1294.6233 1173.2408 6098.2393 21
-1347.3297 1256.0566 6528.6973 21
-1308.5931 1255.9999 6528.4023 21
-1271.0923 1257.162 6534.4424 21
-1233.1284 1257.9248 6538.4067 21
-1095.8099 1154.0975 5998.7363 21
-1046.5103 1139.1178 5920.8755 21
-1018.4695 1147.0419 5962.063 21
-964.05981 1124.7705 5846.3018 21
-1017.1354 1230.9159 6398.021 21
-1005.595 1264.0547 6570.269 19
-941.77277 1231.4965 6401.0391 20
-897.67688 1223.0835 6357.3101 21
-813.47644 1156.8983 6013.2949 21
-772.89929 1149.5317 5975.0049 21
-745.79828 1162.463 6042.2183 22
-720.41632 1179.5127 6130.8389 23
-681.09808 1174.344 6103.9731 23
-658.63745 1199.291 6233.6421 23
-659.76544 1272.705 6615.231 23
-626.08655 1284.0077 6673.98 23
-586.87415 1284.7207 6677.6865 23
-546.54297 1282.9109 6668.2793 23
-508.73938 1287.2142 6690.647 23
-470.0545 1289.8267 6704.2256 23
-429.80457 1288.2303 6695.9287 23
-390.83246 1290.5288 6707.8755 23
-351.51068 1292.0623 6715.8462 20
-311.32849 1290.421 6707.3154 21
-288.49918 1370.7482 7124.8374 21
-248.14082 1381.049 7178.3784 21
-205.44051 1379.8804 7172.3042 21
-163.5164 1384.6755 7197.2285 21
-120.91103 1385.0494 7199.1719 21
-78.455353 1388.4799 7217.0029 21
-35.760098 1390.8098 7229.1138 21
7.0703492 1391.5073 7232.7388 21
50.030212 1394.615 7248.8916 21
93.000381 1395.0065 7250.9263 21
135.53194 1390.65 7228.2827 19
178.16882 1389.2068 7220.7812 19
218.75821 1375.4486 7149.2695 19
261.14029 1375.5972 7150.0415 19
301.79071 1367.8555 7109.8022 19
346.88489 1379.6846 7171.2871 19
391.11377 1385.8662 7203.4175 19
436.42438 1394.2875 7247.1895 19
476.43469 1385.7836 7202.9883 19
509.45731 1360.0236 7069.0938 19
543.3028 1340.2069 6966.0908 19
577.23712 1323.3918 6878.6904 19
615.16638 1317.3495 6847.2832 18
651.25055 1308.3479 6800.4951 17
682.51685 1291.28 6711.7798 11
725.14111 1296.3971 6738.377 262148
742.60028 1258.3376 6540.5527 5983823
810.90643 1305.9406 6787.9824 9601400
846.50946 1298.8663 6751.2119 9271916
888.87598 1302.34 6769.2671 9336427
932.31244 1307.0135 6793.5591 9270376
983.00873 1321.0568 6866.5527 9468012
1018.5281 1314.3984 6831.9443 9139047
1058.8837 1314.2515 6831.1802 9401706
1105.3575 1321.4296 6868.4907 9401192
1150.9269 1327.0549 6897.73 9467241
1197.0883 1332.9539 6928.3911 9204070
1241.693 1336.7859 6948.3096 9533035
1290.9578 1345.2279 6992.189 9072998
1337.6997 1350.5979 7020.1006 9336425
1378.781 1350.101 7017.5181 9599854
1438.8407 1367.6729 7108.853 9929846
1475.3176 1362.4666 7081.792 10258554
1514.9993 1360.426 7071.1851 10653312
1553.6035 1357.5538 7056.2563 10258811
1610.1058 1370.0618 7121.2695 9863026
1648.2675 1366.7231 7103.9165 9468524
1695.3341 1370.7509 7124.8516 8941666
1745.2976 1376.8682 7156.6479 9204325
1786.3436 1375.8271 7151.2368 9204324
1808.3612 1360.5184 7071.6655 9269858
1861.9706 1369.1327 7116.4409 8151371
1864.397 1340.5635 6967.9443 6636073
1892.1488 1331.0472 6918.481 9397837
1943.6565 1338.2913 6956.1338 9265225
1969.103 1327.6631 6900.8911 9067079
1975.5723 1304.932 6782.7397 10515294
2010.0396 1301.2322 6763.5093 10910312
2054.3433 1303.9204 6777.4819 10846059
2069.4553 1288.3323 6696.458 10846061
2148.8848 1312.6178 6822.6895 11636349
2187.6121 1311.6034 6817.4165 8743257
2226.6736 1310.8228 6813.3584 6375222
2304.5354 1332.5045 6926.0552 7427400
2403.3328 1365.3209 7096.6274 7887942
2402.9138 1341.6136 6973.4033 7888453
2444.7607 1341.9072 6974.9287 6769718
2446.6055 1320.5992 6864.1748 9401443
2518.3738 1337.1133 6950.0112 10388083
2552.6423 1333.5062 6931.2622 11901066
2574.2031 1323.4799 6879.1475 12361358
2691.6672 1362.3046 7080.9492 12755858
2777.4373 1384.1428 7194.4595 11111030
2855.1028 1401.3429 7283.8623 12625037
2928.0713 1415.76 7358.7988 13546656
2986.1077 1422.6401 7394.5601 13679014
2958.8496 1389.2728 7221.1245 11569270
3072.4214 1422.0381 7391.4312 11371376
3121.9951 1424.6782 7405.1533 12291454
3139.5732 1412.8468 7343.6562 11765881
3203.5254 1421.9221 7390.8281 9595997
3284.8354 1438.3535 7476.2349 9859940
3252.9556 1405.4438 7305.1777 10254958
3085.9348 1315.7771 6839.1104 8939349
3014.2048 1268.5378 6593.5713 4729369
3106.6565 1290.7197 6708.8677 1769472
3160.2825 1296.4141 6738.4658 4531472
3323.145 1346.2184 6997.3374 7755062
3337.5281 1335.3871 6941.0386 12821117
3390.9045 1340.2312 6966.2173 12887927
3405.4221 1329.7849 6911.9199 13085056
3486.1814 1345.1461 6991.7637 13084051
3581.063 1365.5319 7097.7241 13413529
3618.5288 1363.8047 7088.7471 12887188
3827.6929 1426.0869 7412.4756 12031622
3824.9507 1408.9016 7323.1504 10255213
3785.7268 1378.8147 7166.7656 10584691
3814.0364 1373.7189 7140.2788 8677207
3856.2195 1373.677 7140.061 8151632
3852.948 1357.6198 7056.5991 11836542
3869.7668 1348.9102 7011.3286 9336155
3990.2263 1376.1287 7152.8042 9270372
4053.1475 1383.1403 7189.2485 11178113
4105.3467 1386.3849 7206.1138 12099215
4227.8594 1413.0637 7344.7837 12493460
4168.8784 1379.1565 7168.5425 11835275
4318.5586 1414.267 7351.0386 11440261
4411.6543 1430.3309 7434.5352 11177087
4468.937 1434.5807 7456.6245 10452850
4540.1758 1443.1836 7501.3398 9465953
4605.0171 1449.6057 7534.7212 9663845
4739.8037 1477.7112 7680.8066 9202521
4756.2188 1468.7289 7634.1191 3613718
4852.6704 1484.3984 7715.5654 4862755
4840.5435 1466.8719 7624.4668 10124392
4923.772 1478.2987 7683.8608 3746595
4933.8335 1467.7501 7629.0312 4403488
4709.7534 1388.371 7216.437 9270365
4772.0322 1394.0757 7246.0884 12099206
4882.8472 1413.7311 7348.2529 7953224
5014.0312 1438.8845 7478.9946 8610901
5020.1084 1428.0098 7422.4702 4203034
4978.7891 1403.9585 7297.457 1769988
4859.3647 1358.4862 7061.1025 3282453
4865.5347 1348.6017 7009.7251 3679010
4878.1514 1340.6562 6968.4268 3153947
4896.0215 1334.2759 6935.2627 1904909
4812.0728 1300.4847 6759.624 11246995
5083.6943 1362.5527 7082.2393 12102036
5019.334 1334.2903 6935.3379 11904404
5101.0415 1345.0011 6991.0098 12034194
5115.6123 1337.9796 6954.5137 12427412
5494.6328 1425.63 7410.1006 2558474
5543.373 1426.8761 7416.5776 3478548
5616.8208 1434.4124 7455.7495 786432
5592.7148 1417.1123 7365.8276 9730164
5586.5659 1404.595 7300.7656 11179659
5498.6274 1371.8641 7130.6382 9206135
5339.7046 1322.0574 6871.7539 8680567
5470.5903 1344.2151 6986.9243 6839650
5530.2231 1348.6636 7010.0464 4933197
5573.0537 1348.9786 7011.6841 4735818
5604.4585 1346.5438 6999.0283 6971493
5564.4907 1327.1224 6898.0806 6642271
5401.6045 1278.8822 6647.3389 6445660
5478.0366 1287.5912 6692.606 7696498
5584.167 1303.1051 6773.2441 11777718
5743.1147 1330.6351 6916.3389 13423055
5674.4727 1305.4178 6785.2651 13291722
5833.6958 1332.6072 6926.5894 13489103
6136.6196 1392.0133 7235.3687 14014421
6145.6738 1384.3972 7195.7822 13751248
6160.9985 1378.2888 7164.0322 11777206
6123.4536 1360.5173 7071.6602 7697782
6069.8936 1339.4532 6962.1738 4671563
6071.4253 1330.7489 6916.9302 2763561
6197.6006 1349.2975 7013.3418 1579032
6195.8877 1339.9415 6964.7119 3618870
6093.9141 1309.1702 6804.769 5000519
5989.417 1278.2649 6644.1299 5001027
6161.8286 1306.4751 6790.7607 4014129
6387.2173 1345.479 6993.4941 4606520
6431.9658 1346.1735 6997.1035 5198142
6483.1323 1348.1935 7007.6035 6053706
6271.001 1295.7823 6735.1821 7172186
6378.0723 1309.5742 6806.8691 7172440
6300.04 1285.425 6681.3477 8027747
6260.7837 1269.4399 6598.2603 10067073
6373.9839 1284.3733 6675.8804 10067584
0 0 0 0
0 0 0 0
0 0 0 0
0 0 0 0
0 0 0 0
-4949.8892 1084.1643 5466.8989 11
-4901.2788 1080.5876 5448.8633 11
-4888.4434 1084.9031 5470.624 8
-4902.9375 1095.382 5523.4634 11
-4846.8037 1090.1163 5496.9116 11
-4814.3271 1090.1362 5497.0122 12
-4917.1128 1120.9934 5652.6094 13
-4910.0469 1127.0581 5683.1909 13
-4872.1885 1126.0898 5678.3081 14
-4856.7778 1130.3323 5699.7007 13
-4807.6465 1126.7313 5681.543 13
-4776.9497 1127.4303 5685.0674 14
-4732.8379 1124.9507 5672.564 14
-4699.5454 1125.0256 5672.9419 14
-4669.6489 1125.9205 5677.4541 270
-4668.4858 1133.8066 5717.2202 270
-4652.9697 1138.2968 5739.8613 270
-4579.1279 1128.4792 5690.3564 14
-4544.0264 1128.134 5688.6157 14
-4339.0112 1085.2844 5472.5469 14
-4586.8809 1155.9191 5828.7217 14
-4276.7949 1085.9508 5475.9072 14
-4524.4878 1157.6252 5837.3252 14
-4487.9961 1157.1327 5834.8418 14
-4438.2329 1153.1842 5814.9316 12
-4288.0171 1122.8694 5662.0688 12
-4328.7368 1142.4694 5760.9019 13
-4200.7881 1117.511 5635.0493 14
-4109.8271 1102.0712 5557.1943 270
-4190.0845 1132.666 5711.4683 270
-4104.5601 1118.5798 5640.439 270
-4103.0171 1127.3369 5684.5967 15
-4065.4736 1126.2657 5679.1953 15
-4064.2803 1135.3308 5724.9058 271
-3899.499 1098.4668 5539.019 16
-3855.7771 1095.368 5523.3936 16
-3819.6201 1094.3839 5518.4307 16
-3776.699 1091.4279 5503.5254 16
-3874.9324 1129.5679 5695.8462 16
-4028.5154 1184.6544 5973.6201 16
-3965.3062 1176.4009 5932.002 16
-3773.7781 1129.5907 5695.9609 16
-3735.479 1128.215 5689.0239 16
-3658.2305 1114.9432 5622.1016 16
-3711.2434 1141.4932 5755.9795 269
-3539.1406 1098.6531 5539.958 269
-3525.9895 1104.816 5571.0347 270
-3453.8291 1092.431 5508.5835 270
-3609.1279 1152.4404 5811.1807 14
-3544.1899 1142.6039 5761.5801 14
-3617.9558 1177.7274 5938.6904 14
-3362.8508 1105.4346 5574.1538 14
-3459.0376 1148.3293 5790.4507 14
-3442.7642 1154.3751 5820.9365 14
-3418.8484 1157.9546 5838.9863 14
-3382.438 1157.3324 5835.8486 14
-3298.5474 1140.2834 5749.8799 14
-3295.8933 1151.2548 5805.2026 14
-3290.1323 1161.361 5856.1626 13
-3290.9851 1174.0416 5920.1055 11
-3229.2749 1164.4364 5871.6704 11
-3180.8003 1159.4463 5846.5083 11
-3152.2 1161.6707 5857.7246 14
-3212.6328 1197.1208 6036.4819 14
-3493.7129 1316.5143 6638.5234 14
-3088.5186 1177.0776 5935.4141 14
-3022.4619 1165.168 5875.3594 14
-2968.3433 1157.6365 5837.3823 270
-2985.4609 1178.0367 5940.2505 270
-2954.0098 1179.5302 5947.7808 17
-2922.5332 1181.0494 5955.4419 17
-2895.7429 1184.5227 5972.9561 16
-2902.5457 1201.9935 6061.0522 15
-2882.3743 1208.5916 6094.3228 16
-2814.0334 1194.9031 6025.2988 15
-2772.4185 1192.3572 6012.4609 16
-2746.9485 1196.7788 6034.7573 16
-2705.7429 1194.3712 6022.6172 16
-2674.981 1196.5709 6033.709 16
-2644.1748 1198.8101 6045 16
-2596.6667 1193.4344 6017.8936 18
-2567.6101 1196.5076 6033.3896 18
-2526.8696 1194.146 6021.4814 18
-2499.1055 1197.9369 6040.5967 18
-2476.6406 1204.415 6073.2627 19
-2442.3057 1205.2266 6077.355 19
-2402.7744 1203.4596 6068.4453 19
-2372.8538 1206.5259 6083.9067 19
-2338.1431 1207.2135 6087.374 19
-2307.9236 1210.2778 6102.8262 19
-2281.719 1215.5786 6129.5552 19
-2274.1604 1231.145 6208.0488 19
-2243.1819 1234.3362 6224.1406 19
-2200.6228 1231.1552 6208.1001 19
-2160.5212 1229.2644 6198.5659 19
-2116.3196 1224.9348 6176.7344 20
-2077.1389 1223.4105 6169.0474 19
-2043.9192 1225.4052 6179.1055 19
-2015.4597 1230.3787 6204.1846 19
-1982.8289 1232.9431 6217.1157 19
-1948.988 1234.838 6226.6709 19
-1904.2007 1229.7366 6200.9473 21
-1880.5623 1238.3615 6244.438 21
-1841.9135 1237.2495 6238.8306 21
-1818.1228 1246.2769 6284.3516 21
-1787.2815 1250.7477 6306.8955 21
-1758.1622 1256.6403 6336.6084 21
-1724.663 1259.5909 6351.4873 21
-1685.2073 1258.2261 6344.605 21
-1649.7346 1259.8407 6352.7466 21
-1617.4315 1264.0076 6373.7583 21
-1580.5795 1264.7338 6377.4199 21
-1543.4438 1265.2631 6380.0889 21
-1505.7618 1265.3597 6380.5767 21
-1474.8468 1271.2944 6410.5024 21
-1515.8927 1341.2115 6763.0591 21
-1468.0757 1334.1674 6727.5391 21
-1429.2787 1335.1561 6732.5249 21
-1327.6403 1275.8134 6433.2891 21
-1297.1556 1283.3599 6471.3423 21
-1257.767 1282.2885 6465.9399 21
-1219.9587 1282.8115 6468.5771 21
-1178.5181 1279.425 6451.501 21
-1035.194 1161.4973 5856.8506 21
-1025.8085 1190.8824 6005.0249 21
-955.75647 1149.4196 5795.9482 21
-963.77106 1202.2502 6062.3472 21
-908.81 1177.5714 5937.9038 21
-900.10266 1213.2505 6117.8159 21
-838.97491 1178.3015 5941.5854 21
-796.14929 1167.1216 5885.2104 21
-768.03119 1177.4657 5937.3711 21
-763.26697 1226.3251 6183.7441 22
-748.78137 1263.7043 6372.229 23
-686.41058 1219.947 6151.583 21
-691.62793 1298.1416 6545.8794 21
-653.36743 1299.1732 6551.0811 22
-613.71429 1297.3909 6542.0938 23
-577.15289 1302.3448 6567.0742 22
-538.78027 1303.6327 6573.5679 23
-499.41553 1302.5336 6568.0254 23
-461.10141 1304.2203 6576.5312 23
-421.55923 1302.4243 6567.4746 23
-383.35516 1304.8175 6579.5425 23
-344.50836 1305.3173 6582.0625 22
-305.73276 1306.2488 6586.7593 21
-271.84314 1331.3826 6713.4966 21
-245.10243 1406.1442 7090.4819 21
-202.13226 1399.4661 7056.8081 21
-160.48148 1400.822 7063.6455 21
-117.87639 1391.8662 7018.4858 21
-76.509232 1395.7327 7037.9819 21
-34.865273 1397.7628 7048.2192 21
6.8239956 1384.3783 6980.7275 21
49.025314 1408.6844 7103.2915 21
90.750351 1403.1729 7075.499 21
129.94794 1374.4121 6930.4731 19
170.82321 1372.9459 6923.0801 19
211.76274 1372.464 6920.6499 19
252.30833 1369.9994 6908.2217 19
295.43939 1380.302 6960.1733 19
325.56375 1334.756 6730.5068 19
365.05209 1333.3508 6723.4214 19
405.71146 1336.0785 6737.1758 19
444.01877 1331.2656 6712.9072 19
483.72977 1331.1066 6712.1055 19
525.9942 1337.4645 6744.165 19
563.64618 1332.0243 6716.7329 19
603.56116 1332.297 6718.1079 18
639.02057 1323.3092 6672.7871 18
675.888 1318.1146 6646.5933 17
711.42993 1311.0492 6610.9653 196618
758.58606 1325.0073 6681.3496 1050890
790.10608 1311.6243 6613.8652 7364956
843.87366 1334.6932 6730.1904 9469555
877.93768 1325.9229 6685.9658 9731697
917.09973 1325.2767 6682.708 9863026
959.07587 1328.5824 6699.3765 9928563
1016.5752 1352.2747 6818.8447 9402219
1042.6256 1333.9205 6726.2944 9599598
1088.5477 1341.4055 6764.0376 9467755
1128.8422 1341.6702 6765.3721 9599598
1172.1279 1345.3502 6783.9287 9402219
1216.2008 1349.6597 6805.6592 9665391
1265.0443 1358.8168 6851.834 9665134
1312.203 1365.6514 6886.2969 9600111
1357.912 1370.6102 6911.3022 9994869
1422.6477 1393.9215 7028.8491 9798260
1454.8138 1384.9023 6983.3701 10126968
1493.9203 1382.8062 6972.8003 9864053
1538.4895 1385.7433 6987.6104 10324603
1579.7303 1385.6069 6986.9229 10390140
1623.1367 1387.3285 6995.6045 9929332
1660.501 1383.9287 6978.4604 9928562
1707.4524 1388.4902 7001.4624 9993842
1749.7278 1389.1232 7004.6533 9729643
1784.7241 1384.0817 6979.2319 9136218
1836.3127 1391.8447 7018.3774 7031094
1841.851 1365.1326 6883.6812 7162422
1874.7166 1359.3933 6854.7412 6109474
1882.1989 1335.882 6736.1846 10122846
1873.2983 1301.9602 6565.1348 10648677
1923.9584 1309.9719 6605.5337 10055513
1977.2144 1319.3966 6653.0571 9858392
2013.4546 1317.3198 6642.5854 11107945
2053.884 1318.0111 6646.0713 10252893
2090.7932 1316.46 6638.2495 9200201
2113.9658 1306.4763 6587.9072 10583142
2167.8958 1315.5192 6633.5054 9860450
2233.0681 1330.9403 6711.2666 9138013
2339.2893 1369.8596 6907.5176 8677721
2377.9971 1368.5856 6901.0928 8085842
2367.6162 1339.5804 6754.835 5782573
2368.3276 1317.7111 6644.5586 9401702
2472.9949 1353.4513 6824.7783 10387307
2504.8176 1348.8156 6801.4023 11373688
2515.4131 1333.0769 6722.0405 10978162
2542.4417 1326.4021 6688.3828 11636346
2531.9033 1300.634 6558.4468 12294533
2597.2151 1314.02 6625.9463 10123364
2727.856 1359.5676 6855.6201 11569785
2827.6763 1388.6431 7002.2329 12886159
2871.6978 1389.8718 7008.4287 13280916
2922.04 1394.0811 7029.6538 13544089
2974.5193 1399.1772 7055.3516 12754315
2982.9749 1383.7109 6977.3623 12228229
2967.3164 1357.6345 6845.8726 12886158
3039.0288 1371.6971 6916.7827 12755088
3017.5312 1343.8739 6776.4844 9333599
3059.9324 1344.8652 6781.4834 2300437
3098.7183 1344.2626 6778.4443 1509124
3113.9541 1333.5897 6724.6265 1376256
3100.3892 1311.0082 6610.7588 1441792
3154.9397 1317.4335 6643.1582 7360315
3194.9629 1317.7087 6644.5464 9005129
3188.7349 1299.134 6550.8833 11768173
3219.718 1295.984 6534.9995 13940880
3407.1543 1355.1354 6833.2705 10584421
3481.9951 1368.6406 6901.3701 11176816
3529.885 1371.3618 6915.0923 11242357
3584.8748 1376.7474 6942.249 12360324
3628.0261 1377.5159 6946.124 12623755
3662.593 1375.0441 6933.6602 11900801
3604.8354 1338.3505 6748.6323 10650994
3683.8191 1352.6722 6820.8496 10585971
3649.4648 1325.5178 6683.9238 8744792
3732.9124 1341.2736 6763.3726 13152921
3866.5967 1374.5538 6931.188 13942180
3803.3728 1337.8704 6746.2119 12033672
3849.2615 1339.9321 6756.6079 11112057
4064.3203 1400.2335 7060.6777 11506558
4099.2119 1397.8678 7048.7485 11967366
4176.1553 1409.7451 7108.6401 10519409
4179.377 1396.7476 7043.1001 11901575
4238.8496 1402.6204 7072.7134 14138025
4349.8877 1425.2738 7186.9438 13611682
4261.8325 1382.886 6973.2031 12690322
4456.8955 1432.2969 7222.3569 10453358
4474.3687 1424.2391 7181.7261 9598049
4452.4224 1403.9039 7079.186 7098175
4501.019 1405.9838 7089.6733 7822150
4437.5254 1373.3351 6925.042 3547417
4660.5498 1429.1445 7206.4614 786432
4538.5869 1379.1117 6954.1704 786432
4261.5479 1283.2808 6470.9434 7166291
4633.7148 1382.9114 6973.3311 9796453
4733.1294 1400.0988 7059.998 10125421
4905.8779 1438.4878 7253.5747 10388855
4845.606 1408.4779 7102.2495 9863285
4805.8169 1384.887 6983.2925 7231820
4672.3896 1334.9457 6731.4639 4731687
4844.5415 1372.4176 6920.4155 3153944
4921.377 1382.4846 6971.1792 6507324
4970.0405 1384.5364 6981.5249 6113077
5028.9189 1389.3763 7005.9302 10126192
5130.9883 1405.9719 7089.6133 12494222
5010.6313 1361.8446 6867.1016 12298130
5170.0532 1393.8571 7028.5244 11639691
5229.1348 1398.5221 7052.0479 9796722
5574.8237 1479.1583 7458.6558 9467757
5529.5044 1455.5966 7339.8457 8414556
5512.1284 1439.7009 7259.6919 8546141
5387.1787 1396.1721 7040.1982 9400424
5490.1621 1411.9307 7119.6606 9071458
5524.6899 1409.978 7109.8145 9005663
5397.5459 1367.1063 6893.6338 8808800
5453.9517 1371.0194 6913.3657 9468018
5479.3047 1367.1263 6893.7344 1445133
5405.0635 1338.6251 6750.0171 4600629
5476.7129 1346.4086 6789.2656 3943471
5381.7773 1313.4236 6622.939 7300200
5378.8369 1303.2051 6571.4116 6379863
5376.3027 1293.231 6521.1177 7499116
5791.3208 1383.1218 6974.3921 5328208
5849.5591 1387.1344 6994.625 4210243
5793.4004 1364.1536 6878.7446 4737101
5865.6724 1371.5238 6915.9092 8422029
5668.8701 1316.3127 6637.5068 11251128
5477.1714 1263.0392 6368.8755 12567498
5458.0127 1250.0103 6303.1768 13159632
5497.1094 1250.4095 6305.1899 13357779
5755.7588 1300.4072 6557.3037 13291982
5919.1479 1328.3566 6698.2383 13423566
6169.8208 1375.3911 6935.4102 13882320
6117.4683 1354.6993 6831.0713 12632510
5909.4746 1300.0394 6555.4487 10329755
5911.3452 1291.9603 6514.7104 8553088
5994.6406 1301.6667 6563.6548 5658713
6077.0552 1311.0579 6611.0093 2500133
6012.5259 1288.8301 6498.9263 987155
6010.356 1280.1675 6455.2446 263172
6133.772 1298.1942 6546.1445 2302755
6164.6841 1296.5392 6537.7993 4079929
6095.7637 1274.0396 6424.3447 3225130
6414.0596 1332.2468 6717.855 6843482
0 0 0 0
0 0 0 0
0 0 0 0
0 0 0 0
0 0 0 0
-4788.0376 1080.0425 5288.1421 10
-4848.7598 1100.9431 5390.4766 10
-4821.4043 1101.9897 5395.6011 9
-4865.291 1119.4421 5481.0522 9
-4775.4409 1106.1512 5415.9771 11
-4688.3506 1093.3241 5353.1719 10
-4831.2461 1134.3203 5553.8989 11
-4775.2437 1128.8595 5527.1616 14
-4739.6826 1128.189 5523.8784 15
-4692.2007 1124.6519 5506.5601 15
-4730.208 1141.6993 5590.0283 15
-4731.1538 1149.9786 5630.5659 15
-4642.2246 1136.375 5563.9595 272
-4631.627 1141.8888 5590.9561 16
-4588.1987 1139.3296 5578.4258 270
-4596.6851 1149.718 5629.29 14
-4562.8682 1149.6002 5628.7129 14
-4577.1636 1161.6917 5687.9155 14
-4542.7285 1161.5028 5686.9907 14
-4244.5679 1093.3768 5353.4302 14
-4446.4365 1153.9996 5650.2539 14
-4434.7793 1159.7046 5678.1865 14
-4398.1172 1158.9081 5674.2866 14
-4355.1694 1156.4301 5662.1538 14
-4320.8164 1156.2136 5661.0942 14
-4312.4385 1162.9988 5694.3154 14
-4272.2524 1161.2451 5685.7295 270
-4175.9956 1144.1018 5601.792 270
-4137.7144 1142.6948 5594.9028 270
-4167.6289 1160.2504 5680.8589 270
-4153.6855 1165.7827 5707.9468 269
-4096.3403 1159.1245 5675.3462 269
-4062.1953 1158.9752 5674.6157 269
-4181.5815 1202.9927 5890.1353 269
-4541.2466 1317.4583 6450.5854 16
-4508.2949 1318.9979 6458.1245 16
-4481.1147 1322.2672 6474.1313 16
-4423.104 1316.4169 6445.4868 16
-4419.6274 1326.8368 6496.5054 16
-4333.8569 1312.5167 6426.3911 17
-4178.187 1276.5862 6250.4663 17
-4107.3574 1266.1667 6199.4502 18
-4346.5923 1352.0043 6619.7314 17
-4313.0957 1353.7999 6628.5229 16
-4274.1772 1353.9108 6629.0659 16
-4233.7202 1353.532 6627.2109 16
-4203.3823 1356.4115 6641.3101 270
-3609.0012 1175.6115 5756.0708 270
-3557.636 1169.934 5728.272 14
-3533.8362 1173.2991 5744.7485 14
-3459.9785 1159.9481 5679.3789 14
-3433.0381 1162.2181 5690.4937 14
-3417.8745 1168.5597 5721.5435 14
-3382.9517 1168.2051 5719.8066 14
-3346.8708 1167.4393 5716.0576 14
-3346.4736 1179.2321 5773.7974 14
-3306.1521 1177.0546 5763.1362 14
-3268.5022 1175.7927 5756.958 14
-3209.5295 1166.7528 5712.6963 14
-3720.6655 1366.9792 6693.0518 14
-3683.0071 1367.7191 6696.6748 14
-3115.8008 1169.6814 5727.0356 14
-3108.9883 1179.9729 5777.4248 14
-3051.6602 1171.1074 5734.0176 270
-3034.8713 1177.7749 5766.6631 270
-3010.4351 1181.5925 5785.3555 270
-2983.7852 1184.6195 5800.1758 270
-2934.2576 1178.5282 5770.3511 270
-3296.2998 1339.5464 6558.7344 269
-2863.2898 1177.4597 5765.1201 271
-2859.8557 1190.245 5827.7197 271
-2826.6592 1190.8046 5830.4595 16
-2801.52 1194.8142 5850.0918 16
-2789.3997 1204.5465 5897.7427 16
-2725.4778 1191.8721 5835.6865 16
-2689.5083 1191.2532 5832.6562 16
-2653.5977 1190.6444 5829.6753 16
-2633.2715 1197.1046 5861.3057 16
-2597.0024 1196.3926 5857.8198 16
-2566.209 1198.2181 5866.7578 16
