# .PCD v0.7 - Point Cloud Data file format
VERSION 0.7
FIELDS x y z rgb
SIZE 4 4 4 4
TYPE F F F U
COUNT 1 1 1 1
WIDTH 1388
HEIGHT 1
VIEWPOINT 0 0 0 1 0 0 0
POINTS 1388
DATA ascii
0 0 0 0
0 0 0 0
-3916.29 1258.6121 4382.6938 16
-3917.55 1267.4196 4413.3633 16
-3841.4248 1251.1415 4356.6802 16
-3823.1606 1253.6156 4365.2954 16
-3787.9565 1250.5312 4354.5552 16
-3764.229 1251.2191 4356.9507 16
-3568.4148 1194.3207 4158.8208 16
-3626.7397 1222.2808 4256.1821 16
-3633.2007 1233.0306 4293.6152 16
-3622.53 1238.0771 4311.188 16
-3608.7473 1242.1241 4325.2803 16
-3581.8608 1241.6864 4323.7563 16
-3555.4634 1241.4132 4322.8047 16
-3512.7866 1235.4108 4301.9033 16
-3497.3245 1238.9617 4314.2681 16
-3476.6267 1240.6964 4320.3086 16
-3470.835 1247.8158 4345.0996 16
-3436.3223 1244.6388 4334.0366 16
-3596.032 1312.291 4569.6128 15
-3401.6147 1250.7587 4355.3472 15
-3213.8875 1190.7645 4146.4375 16
-3213.0308 1199.616 4177.2598 16
-3164.708 1190.7454 4146.3711 16
-3168.5498 1201.517 4183.8794 17
-3148.2913 1203.2473 4189.9048 17
-3107.467 1197.0828 4168.439 18
-3097.8965 1202.9558 4188.8896 19
-3051.1277 1194.3623 4158.9658 19
-3042.3281 1200.613 4180.7319 19
-3017.8721 1200.7369 4181.1636 19
-2995.9507 1201.8798 4185.1431 19
-2926.8982 1183.9766 4122.8008 19
-2992.5706 1220.7286 4250.7778 19
-2850.4604 1172.6268 4083.2793 19
-2875.8464 1193.1962 4154.9053 19
-2893.2 1210.7592 4216.0625 19
-2956.2205 1247.9054 4345.4116 19
-2836.1235 1207.7262 4205.501 19
-2829.3301 1215.5111 4232.6094 19
-2806.2117 1216.3591 4235.5625 19
-2798.9839 1224.1724 4262.7695 19
-2759.2573 1217.7849 4240.5273 19
-2803.9004 1248.8582 4348.7295 18
-2713.3542 1219.7362 4247.3218 18
-2683.9067 1217.7917 4240.5508 20
-2655.7532 1216.4031 4235.7153 20
-2636.5286 1219.1168 4245.165 21
-2616.4941 1221.5046 4253.48 21
-2587.7163 1219.8175 4247.605 21
-2666.1521 1269.1326 4419.3281 21
-2650.5371 1274.2122 4437.0161 19
-2525.228 1226.1311 4269.5898 19
-2503.5581 1227.9086 4275.7793 18
-2485.7869 1231.6542 4288.8223 19
-2475.7773 1239.3625 4315.6641 19
-2538.0962 1283.8168 4470.4609 20
-2521.9333 1289.0925 4488.832 21
-2499.4131 1291.1964 4496.1582 20
-2487.3367 1298.7991 4522.6318 19
-2469.7952 1303.6825 4539.6367 19
-2454.6025 1309.927 4561.3809 19
-2434.2249 1313.5126 4573.8667 19
-2401.3938 1310.3835 4562.9707 19
-2380.2893 1313.6549 4574.3623 19
-2360.7046 1317.85 4588.9702 19
-2337.6982 1320.2104 4597.1899 19
-2316.9465 1323.915 4610.0894 19
-2293.8281 1326.3392 4618.5312 19
-2269.6077 1328.1772 4624.9316 19
-2246.3142 1330.6094 4633.4004 19
-2220.5769 1331.6359 4636.9751 19
-2195.8589 1333.3073 4642.7949 19
-2169.4612 1333.9882 4645.166 18
-2148.447 1338.0393 4659.2729 19
-2126.542 1341.6339 4671.7896 19
-2101.7334 1343.4673 4678.1738 19
-2079.8875 1347.2686 4691.4106 19
-2053.1882 1347.9868 4693.9116 19
-2027.1897 1349.1909 4698.1045 19
-2001.7542 1350.8086 4703.7373 19
-1973.9299 1350.8372 4703.8369 19
-1947.2567 1351.6654 4706.7212 19
-1931.1443 1359.955 4735.5869 19
-1898.4816 1356.6621 4724.1206 19
-1868.8411 1355.4626 4719.9438 19
-1840.9564 1355.5198 4720.1426 19
-1815.0269 1357.0402 4725.437 19
-1787.2396 1357.1975 4725.9849 19
-1758.5597 1356.6714 4724.1528 19
-1730.4883 1356.6052 4723.9224 19
-1702.0104 1356.2129 4722.5562 19
-1676.7964 1358.4518 4730.3521 19
-1648.4082 1358.1514 4729.3062 19
-1619.0468 1357.0249 4725.3838 19
-1592.6824 1358.415 4730.2241 19
-1566.6942 1360.1816 4736.376 19
-1540.085 1361.4635 4740.8398 19
-1509.4032 1359.1261 4732.7002 19
-1486.6882 1364.0095 4749.7051 21
-1465.4399 1370.4529 4772.1421 21
-1443.8137 1376.7894 4794.207 21
-1410.5668 1372.0767 4777.7964 21
-1382.179 1371.9943 4777.5093 21
-1359.1188 1377.3071 4796.0098 21
-1341.9199 1388.9137 4836.4258 21
-1311.4315 1386.9716 4829.6631 21
-1285.3468 1389.704 4839.1777 21
-1263.5028 1397.251 4865.4575 20
-1239.3241 1402.5079 4883.7632 20
-1213.5404 1406.1566 4896.4683 20
-1191.55 1414.4868 4925.4756 20
-1167.3293 1420.5214 4946.4888 19
-1142.6638 1426.3114 4966.6509 19
-1116.5972 1430.6124 4981.6274 19
-1091.4962 1436.4178 5001.8428 19
-1065.2316 1440.9728 5017.7041 19
-1036.521 1442.386 5022.625 19
-1002.3631 1436.0781 5000.6602 19
-976.16754 1441.1412 5018.2905 20
-949.95258 1446.4929 5036.9258 21
-922.73285 1450.6118 5051.269 21
-897.5249 1458.2758 5077.9561 21
-877.35803 1474.946 5136.0044 21
-846.61359 1474.3931 5134.0786 19
-816.72327 1475.3417 5137.3818 19
-780.28754 1464.0822 5098.1748 19
-744.58746 1453.3521 5060.8105 19
-713.8089 1451.7307 5055.165 19
-683.67212 1451.3297 5053.7686 19
-656.71838 1457.9587 5076.8521 19
-626.82977 1458.3958 5078.3735 19
-596.14343 1456.9272 5073.2598 19
-569.27448 1465.1274 5101.8145 19
-537.04749 1459.6841 5082.8599 19
-506.57266 1458.6394 5079.2222 21
-476.08499 1457.4235 5074.9878 21
-445.94757 1457.188 5074.168 21
-415.89346 1457.2106 5074.2466 21
-385.35712 1455.4152 5067.9946 21
-354.62125 1452.4991 5057.8408 21
-323.81842 1448.7454 5044.7695 22
-294.13074 1449.7247 5048.1797 20
-262.49741 1440.2504 5015.1885 21
-234.19461 1448.9635 5045.5293 22
-201.83437 1431.4502 4984.5449 19
-172.76715 1435.2914 4997.9204 19
-143.38118 1437.5254 5005.6997 19
-113.81902 1438.6978 5009.7817 19
-84.097923 1437.9792 5007.2798 19
-54.422546 1437.6855 5006.2573 19
-24.899702 1445.5437 5033.6206 19
4.9249144 1446.8094 5038.0283 19
34.739159 1445.4707 5033.3667 19
64.465469 1443.3998 5026.1553 19
94.130028 1441.6918 5020.2075 19
123.85752 1441.5364 5019.6665 19
153.78482 1443.3162 5025.8643 19
184.00937 1446.8562 5038.1909 19
212.98744 1440.9747 5017.7109 19
242.4771 1439.5713 5012.8237 19
271.79547 1437.5682 5005.8486 19
300.69614 1433.9672 4993.3091 19
329.52222 1430.6874 4981.8887 18
358.18146 1427.282 4970.0303 19
385.41302 1419.1371 4941.6685 18
413.34753 1414.5477 4925.6875 18
448.5881 1433.9176 4993.1367 18
464.76468 1393.7224 4853.1704 18
491.34811 1387.6002 4831.8521 18
516.06396 1377.1683 4795.5264 18
541.35181 1369.2719 4768.0298 18
562.64685 1352.5602 4709.8369 18
573.99719 1314.651 4577.8306 18
596.80627 1305.2225 4544.9995 18
624.75507 1307.3636 4552.4551 18
643.58038 1291.0258 4495.564 18
669.75098 1290.1357 4492.4644 18
707.70673 1311.1475 4565.6309 18
722.48047 1289.2446 4489.3618 18
754.10156 1297.8936 4519.4785 18
778.2323 1293.4994 4504.1777 18
809.70325 1301.1924 4530.9658 18
832.02423 1294.1597 4506.4766 16
849.91919 1280.8937 4460.2822 16
865.80261 1265.4875 4406.6357 65550
825.8324 1171.7352 4080.1746 131084
833.19568 1148.5645 3999.4902 327684
862.26862 1155.7745 4024.5967 2430743
907.6123 1183.8187 4122.2515 7758938
939.9472 1193.8705 4157.2529 10060658
970.27747 1200.9276 4181.8271 9797226
1006.9771 1215.3206 4231.9458 9863018
1034.4204 1218.114 4241.6733 9600103
1064.8148 1224.168 4262.7539 9534053
1082.7843 1215.9879 4234.2695 9139552
1108.1981 1216.3491 4235.5273 9270625
1137.7416 1221.1265 4252.1631 8941660
1159.1329 1217.1368 4238.2705 9072989
1178.4426 1211.177 4217.5176 8810330
1196.0403 1203.7416 4191.626 8876380
1230.5699 1213.303 4224.9204 8415828
1253.0216 1210.8123 4216.2471 8152656
1268.6053 1201.9119 4185.2544 8678744
1303.1888 1211.0085 4216.9307 8810587
1329.595 1212.3068 4221.4517 8876123
1355.0188 1212.6782 4222.7451 9073758
1379.2524 1211.9904 4220.3496 9271138
1393.1746 1202.4272 4187.0493 8942173
1418.5918 1202.9464 4188.8569 8876380
1440.605 1200.6106 4180.7236 9007709
1472.3689 1206.343 4200.6846 9073502
1499.877 1208.4558 4208.0415 9271136
1518.9717 1203.8315 4191.9395 9205342
1547.2819 1206.5422 4201.3784 9336929
1566.6401 1202.2971 4186.5962 9073759
1602.6202 1210.7416 4216.001 8810587
1614.6199 1201.0883 4182.3867 8350036
1635.5247 1198.2511 4172.5073 8679000
1661.8354 1199.3999 4176.5078 8744794
1696.579 1206.5121 4201.2734 9007966
1704.2949 1194.476 4159.3618 9139551
1721.3278 1189.2197 4141.0586 9205344
1751.8787 1193.3192 4155.3335 8810587
1766.0298 1186.2889 4130.853 8744537
1801.8325 1193.7959 4156.9937 8613205
1820.1637 1189.681 4142.6646 8547412
1847.6627 1191.5879 4149.3047 8481107
1860.2471 1183.9524 4122.7168 8415058
1895.8435 1190.9709 4147.1567 7954507
1911.7642 1185.6077 4128.481 6836026
1949.0669 1193.473 4155.8691 8546644
1972.7197 1192.8881 4153.832 8940889
2010.7294 1200.8918 4181.7026 9007965
2027.8842 1196.3971 4166.0513 8810330
2067.374 1205.0291 4196.1094 8744536
2082.9155 1199.6627 4177.4229 8810587
2107.8877 1199.7904 4177.8672 9007966
2128.9189 1197.698 4170.5811 9007966
2142.761 1191.6553 4149.5396 8942173
2174.1396 1195.3918 4162.5508 8547159
2209.4392 1201.1763 4182.6929 8612181
2228.0823 1197.8772 4171.2051 8612435
2258.2451 1200.776 4181.2993 9335902
2305.1755 1212.4309 4221.8838 9730661
2333.8936 1214.3596 4228.5996 9599331
2353.2371 1211.4214 4218.3682 8810070
2359.6531 1201.9598 4185.4219 9271135
2364.426 1191.8668 4150.2764 9534307
2390.6145 1192.6658 4153.0581 10456179
2410.5247 1190.3481 4144.9878 11575433
2409.2695 1177.7308 4101.0522 13616298
2441.803 1181.7175 4114.9346 14011316
2462.3035 1179.8597 4108.4653 13880244
2472.2388 1173.0253 4084.6665 13746346
2444.9038 1148.8107 4000.3477 10586742
2466.4167 1147.7933 3996.8049 8613462
2487.6438 1146.6636 3992.8711 8875865
2594.3384 1184.5797 4124.9014 8020559
2605.969 1178.787 4104.73 7889230
2607.4724 1168.5627 4069.1274 7625545
2670.4065 1185.8043 4129.1655 6902076
2701.397 1188.6769 4139.1685 8218192
2701.1038 1177.8562 4101.4888 8810072
2746.3782 1186.9216 4133.0562 8876121
2769.2805 1186.2437 4130.6953 7823692
2774.4333 1178.041 4102.1323 7625802
2752.5154 1158.5861 4034.3872 7494472
2853.5576 1190.777 4146.481 7231301
2837.3157 1173.8938 4087.6912 7297094
2884.0852 1183.1459 4119.9082 7494473
2941.2068 1196.4537 4166.2485 6113076
2918.3711 1177.2849 4099.4995 9336164
2892.2886 1157.1335 4029.3293 12164495
2941.5996 1167.2284 4064.481 14141622
2989.8181 1176.7292 4097.5645 14078141
2986.6448 1166.0132 4060.2495 14012348
2993.876 1159.4979 4037.5625 13811630
3090.6963 1187.5079 4135.0977 11703940
3151.7661 1201.4493 4183.644 9270367
3211.9978 1214.8561 4230.3286 9006685
3268.9585 1226.8279 4272.0161 8611927
3315.9771 1234.9131 4300.1704 8546136
3322.2563 1227.8187 4275.4668 8217940
3347.5854 1227.8187 4275.4668 8283219
3318.3877 1207.97 4206.3496 8085585
3374.7444 1219.3285 4245.9023 8546649
3338.938 1197.4659 4169.7734 9993580
3334.2722 1187.0106 4133.3662 9730408
3380.3599 1194.6445 4159.9487 8085583
3380.1011 1185.9072 4129.5239 8743770
3295.8884 1148.052 3997.7058 9336160
3355.9971 1160.6495 4041.5723 9336674
3353.5334 1151.5814 4009.9958 9665125
3362.7578 1146.6263 3992.7417 9994347
3370.1812 1141.131 3973.6055 10126191
3450.3823 1160.1829 4039.9475 9863277
3444.9688 1150.3831 4005.8225 9403241
3535.0696 1172.3942 4082.4692 7495247
3568.1555 1175.3259 4092.678 7561296
3565.186 1166.4219 4061.6724 12297105
3611.9956 1173.8142 4087.4138 8283988
3633.823 1173.0436 4084.7302 12560529
3663.1729 1174.6953 4090.4819 12692115
3699.2734 1178.476 4103.647 11704708
3729.4016 1180.3171 4110.0581 9335651
3784.6594 1190.036 4143.9009 8019536
3811.3479 1190.7043 4146.228 8150612
3843.3074 1193.0002 4154.2227 8085331
3864.0254 1191.7996 4150.042 7953746
3898.1287 1194.7166 4160.1992 7756364
3891.2568 1185.1174 4126.7739 8809052
3836.8777 1161.2599 4043.6978 9598564
3921.0381 1179.3682 4106.7539 9532770
0 0 0 0
0 0 0 0
0 0 0 0
0 0 0 0
0 0 0 0
0 0 0 0
0 0 0 0
0 0 0 0
-3826.2498 1263.4182 4310.5078 16
-3805.1509 1264.8933 4315.5405 16
-3776.2314 1263.7711 4311.7119 16
-3747.7737 1262.7892 4308.3618 16
-3725.9658 1264.0498 4312.6626 16
-3626.821 1238.9098 4226.8901 16
-3631.7581 1249.2214 4262.0713 16
-3602.9829 1248.0002 4257.9048 16
-3553.5608 1239.5597 4229.1074 16
-3527.8933 1239.3442 4228.3726 16
-3495.291 1236.672 4219.2554 16
-3467.5725 1235.7018 4215.9453 16
-3446.8118 1237.215 4221.1079 16
-3405.9006 1231.4644 4201.4883 16
-3311.3401 1206.0884 4114.9111 16
-3268.7266 1199.3973 4092.0823 16
-3242.7178 1198.7443 4089.8545 16
-3296.9756 1227.9772 4189.5908 16
-3182.1663 1194.2059 4074.3708 16
-3145.4165 1189.4366 4058.0986 17
-3125.1404 1190.8713 4062.9939 18
-3100.2854 1190.5699 4061.9651 18
-3092.6873 1196.9426 4083.7075 18
-3067.0417 1196.376 4081.7742 18
-3022.4751 1188.361 4054.4287 18
-3023.1028 1198.1292 4087.7556 19
-3008.7488 1202.0696 4101.1997 19
-2985.4656 1202.4775 4102.5918 19
-2962.6187 1203.0697 4104.6118 19
-2950.7595 1208.1703 4122.0142 19
-2932.1465 1210.5676 4130.1934 19
-2904.886 1209.4052 4126.2271 19
-2883.5002 1210.6895 4130.6089 19
-2852.9678 1208.1226 4121.8511 19
-2789.6755 1191.519 4065.2036 18
-2761.3218 1189.6792 4058.926 19
-2699.4658 1173.2462 4002.8604 19
-2770.0466 1214.5918 4143.9229 19
-2820.738 1247.8779 4257.4878 19
-2784.498 1242.9598 4240.708 18
-2710.9719 1221.1566 4166.3203 18
-2742.3662 1246.6483 4253.2925 18
-2720.7373 1248.2856 4258.8789 19
-2642.801 1223.8777 4175.604 18
-2633.4387 1231.0651 4200.126 20
-2671.5779 1260.807 4301.5991 21
-2683.0474 1278.4143 4361.6714 21
-2624.9084 1262.8748 4308.6538 21
-2629.0193 1277.2732 4357.7778 21
-2595.2827 1273.3872 4344.52 21
-2567.9709 1272.6073 4341.8589 19
-2551.3691 1277.1726 4357.4351 19
-2532.7461 1280.8093 4369.8428 19
-2509.4871 1282.1525 4374.4253 19
-2495.7551 1288.4421 4395.8838 19
-2478.541 1293.0479 4411.5977 19
-2455.416 1294.635 4417.0127 19
-2440.3027 1300.5261 4437.1118 19
-2422.0637 1304.8616 4451.9033 19
-2408.533 1311.8568 4475.77 19
-2385.4038 1313.7218 4482.1328 19
-2366.9475 1318.2312 4497.5181 19
-2346.3394 1321.6312 4509.1182 19
-2324.9456 1324.6621 4519.4585 19
-2300.8794 1326.223 4524.7842 19
-2285.8811 1333.1091 4548.2778 19
-2257.7778 1332.4255 4545.9458 19
-2235.2727 1335.069 4554.9648 19
-2212.5068 1337.6196 4563.667 19
-2193.0903 1342.2832 4579.5781 19
-2170.4543 1345.0685 4589.0811 19
-2149.7324 1349.1259 4602.9233 18
-2120.9502 1348.1638 4599.6411 19
-2091.7595 1346.9137 4595.376 19
-2067.061 1348.5613 4600.9976 19
-2045.0553 1352.0333 4612.8433 19
-2015.5353 1350.5643 4607.8311 19
-1990.3293 1351.9852 4612.6792 19
-1964.3883 1352.9395 4615.9346 19
-1936.6158 1352.6415 4614.918 19
-1912.6074 1355.0015 4622.9702 19
-1884.8058 1354.7039 4621.9546 19
-1854.8521 1352.8279 4615.5542 19
-1826.9045 1352.381 4614.0293 19
-1797.485 1350.814 4608.6831 19
-1770.0216 1350.6914 4608.2651 19
-1741.3726 1349.6464 4604.6992 19
-1715.457 1350.7201 4608.3628 19
-1689.8445 1352.0709 4612.9717 19
-1665.4746 1354.4768 4621.1802 19
-1639.9249 1355.9877 4626.335 19
-1613.3749 1356.7089 4628.7949 19
-1586.6963 1357.3448 4630.9648 19
-1560.2937 1358.2434 4634.0308 19
-1536.4427 1361.4352 4644.9204 19
-1511.4565 1363.7192 4652.7129 19
-1484.8944 1364.6396 4655.853 19
-1460.7887 1367.8951 4666.9604 21
-1429.4449 1364.3678 4654.9258 21
-1406.02 1368.4087 4668.7124 21
-1378.7379 1368.7823 4669.9873 21
-1353.4962 1371.2385 4678.3672 21
-1326.9911 1372.4905 4682.6387 21
-1305.776 1379.3844 4706.1592 20
-1281.5203 1383.2969 4719.5078 20
-1259.8395 1390.2253 4743.146 19
-1235.7384 1394.7382 4758.543 19
-1217.4414 1406.1655 4797.5308 19
-1192.4232 1410.1904 4811.2627 20
-1170.5901 1418.2716 4838.834 20
-1148.7625 1426.7655 4867.813 19
-1123.1046 1430.8169 4881.6357 19
-1099.293 1437.4967 4904.4258 19
-1072.4025 1440.4039 4914.3442 19
-1045.5812 1443.569 4925.1431 19
-1014.4893 1440.8502 4915.8672 19
-977.92816 1429.9733 4878.7573 19
-956.53406 1441.2875 4917.3589 21
-931.88739 1448.2573 4941.1387 21
-900.12451 1444.2614 4927.5054 21
-874.05237 1449.4346 4945.1548 21
-841.78009 1444.3281 4927.7329 21
-814.83917 1448.3312 4941.3906 19
-788.35065 1453.4666 4958.9116 19
-757.96777 1451.5416 4952.3438 19
-728.25623 1450.799 4949.8101 19
-700.02747 1453.0721 4957.5654 19
-675.90106 1464.4324 4996.3242 19
-641.47125 1453.4873 4958.9819 19
-612.34625 1454.0884 4961.0327 19
-583.46558 1455.3595 4965.3696 19
-558.46429 1466.9559 5004.9341 19
-530.45117 1471.4977 5020.4297 19
-500.05307 1469.5699 5013.8525 21
-469.98575 1468.4324 5009.9712 21
-440.29031 1468.3813 5009.7974 21
-409.74509 1465.2843 4999.231 21
-380.09534 1465.1565 4998.7949 21
-350.06113 1463.3998 4992.8013 20
-320.15302 1461.8945 4987.666 18
-288.29279 1450.2633 4947.9824 18
-258.5285 1447.7358 4939.3594 18
-228.49614 1442.8706 4922.7603 19
-199.2549 1442.3081 4920.8413 19
-169.45107 1436.7828 4901.9902 19
-140.74438 1440.1987 4913.6445 19
-112.06187 1445.7078 4932.4399 19
-82.755653 1444.2188 4927.3599 19
-53.556114 1443.983 4926.5557 19
-24.357523 1443.2388 4924.0161 19
4.8144975 1443.5491 4925.0752 19
33.998226 1443.8239 4926.0127 19
63.159904 1443.3409 4924.3647 19
92.235649 1441.8198 4919.1753 19
121.51711 1443.4727 4924.8145 19
150.87593 1445.2268 4930.7988 19
179.73503 1442.4014 4921.1592 19
207.04233 1429.6493 4877.6519 19
240.53006 1457.4706 4972.5723 19
266.91495 1440.8776 4915.9604 19
295.47348 1438.1289 4906.5825 19
323.77298 1434.7246 4894.9683 18
353.19034 1436.4266 4900.7749 18
380.77823 1430.9946 4882.2422 18
409.82492 1431.425 4883.7104 18
441.29294 1439.6979 4911.9355 18
469.94791 1438.3378 4907.2949 18
484.85706 1397.5159 4768.02 18
511.23007 1392.4122 4750.6074 18
536.06793 1383.8783 4721.4912 18
558.80811 1371.0438 4677.7031 18
565.84363 1322.7113 4512.8027 18
573.99933 1281.2402 4371.3125 18
602.7876 1287.4161 4392.3833 18
631.81213 1293.5646 4413.3604 18
662.01654 1301.5439 4440.5845 18
703.78369 1330.7772 4540.3223 18
710.67841 1294.3458 4416.0264 18
739.44708 1298.9257 4431.6514 18
766.5108 1300.299 4436.3369 17
792.09125 1299.1486 4432.4121 17
813.37939 1291.2578 4405.4907 16
840.67078 1293.0918 4411.7476 15
860.86841 1284.2325 4381.522 65551
887.17841 1284.7438 4383.2656 65550
834.44836 1174.0209 4005.5034 131083
853.64825 1167.8241 3984.3616 393220
879.91431 1171.3677 3996.4512 2496020
0 0 0 0
953.99359 1205.1312 4111.645 9270885
980.70764 1208.0328 4121.5449 9402724
1005.2125 1208.1384 4121.9053 9139552
1032.9275 1212.0059 4135.1001 9139552
1061.5132 1216.6919 4151.0879 9271137
1079.5507 1209.3494 4126.0366 9007966
1101.5831 1206.7081 4117.0254 8744794
1116.6631 1196.7305 4082.9836 8876123
1151.952 1208.3744 4122.7104 9007966
1176.4774 1208.4788 4123.0664 8744793
1202.038 1209.6205 4126.9614 8678744
1216.5474 1199.8175 4093.5161 9007966
1243.4197 1202.3523 4102.1641 9007966
1272.334 1206.7268 4117.0889 9007966
1298.4484 1208.3308 4122.5615 8744793
1323.2056 1208.636 4123.603 8744537
1339.087 1200.9701 4097.4482 8942173
1362.1318 1199.8871 4093.7532 8876380
1388.5782 1201.7859 4100.2319 8876379
1409.6774 1199.0713 4090.97 9205344
1445.9596 1209.1447 4125.3384 9336931
1474.3127 1212.363 4136.3188 9205345
1494.3658 1208.7625 4124.0342 9205345
1516.1002 1206.6157 4116.71 9205345
1533.8416 1201.4093 4098.9468 9007709
1544.3907 1190.8196 4062.8171 8942173
1563.1672 1186.8014 4049.1082 8547414
1573.082 1176.2783 4013.2053 8415572
1601.6567 1179.8137 4025.2676 8744794
1635.062 1186.7516 4048.9377 9336931
1674.4174 1197.745 4086.4451 9271138
1703.2689 1201.0186 4097.6138 9336931
1712.8097 1190.7749 4062.6646 9270624
1728.7444 1185.1987 4043.6401 8086348
1747.6086 1181.756 4031.894 8677715
1795.0868 1197.4944 4085.5901 8217421
1783.0399 1173.6333 4004.1812 7691334
1820.0867 1182.2891 4033.7126 8349008
1861.8723 1193.7587 4072.8445 8415315
1885.2719 1193.2972 4071.2705 8546900
1898.1089 1186.2465 4047.2146 8481365
1948.9299 1202.814 4103.7393 8810330
1971.5714 1201.7959 4100.2661 8415829
1973.5848 1188.3816 4054.4995 8350035
2000.5477 1190.1326 4060.4731 8218450
2040.3167 1199.3698 4091.9883 8481622
2064.8372 1199.5314 4092.54 8744794
2088.2087 1199.03 4090.8293 8942171
2104.2893 1194.4015 4075.0378 8942172
2120.3291 1189.8551 4059.5266 9073501
2149.9214 1192.9307 4070.0195 8744538
2167.6338 1189.4192 4058.0393 8678747
2171.676 1178.566 4021.0107 9074018
2230.0916 1197.1366 4084.3691 9468522
2212.3528 1174.8667 4008.3894 9534569
2197.6086 1154.6434 3939.3921 9600104
2243.4307 1166.3326 3979.2727 9468772
2239.584 1152.2251 3931.1411 9008221
2322.1921 1182.4297 4034.1924 9600614
2309.9919 1164.2355 3972.1177 10258286
2326.7024 1160.8322 3960.5066 11310716
2328.1233 1149.9448 3923.3613 12362890
2411.865 1179.532 4024.3062 13152404
2426.2554 1174.9554 4008.6921 8481621
2366.448 1134.8843 3871.978 10784373
2375.2222 1128.1567 3849.0249 10586737
2395.8494 1127.1333 3845.5334 10981491
2388.7891 1113.2263 3798.0859 11573883
2395.8667 1106.106 3773.7925 11179638
2414.2554 1104.2909 3767.6001 14141862
2391.9717 1084.0758 3698.6306 14536621
2494.6892 1120.3658 3822.4441 10256224
2587.4583 1151.5752 3928.9238 7625542
2629.095 1159.6741 3956.5554 8086608
2661.1313 1163.4325 3969.3784 8481621
2722.3354 1179.7655 4025.103 8876126
2726.3923 1171.2643 3996.0984 8349784
2733.9446 1164.3979 3972.6724 7823439
2761.3914 1166.0498 3978.3079 7757390
2793.6646 1169.6945 3990.7427 7757649
2809.4678 1166.4399 3979.6389 7758676
2830.1807 1165.261 3975.6167 9469038
2816.436 1150.0315 3923.657 11705742
2881.8779 1167.1208 3981.9619 12099986
2914.1226 1170.5973 3993.823 13218210
2935.2185 1169.5754 3990.3369 13481379
2977.2139 1176.8313 4015.0918 13546914
3026.9509 1187.0077 4049.8118 12888727
3131.9106 1218.5092 4157.2881 11243644
3177.1018 1226.4468 4184.3696 9796200
3192.7288 1222.9374 4172.396 9204063
3223.9536 1225.4105 4180.8335 8480340
3239.8308 1222.0568 4169.3916 8217170
3201.6318 1198.5109 4089.0581 7296073
3228.8159 1199.6104 4092.8093 4664356
3161.5759 1165.8734 3977.7063 5321772
3151.5439 1153.5758 3935.7495 2427910
3120.1216 1133.6866 3867.8921 4795940
3249.5984 1172.1237 3999.0305 8744031
3223.5881 1154.3262 3938.3096 10454904
3166.3281 1125.6747 3840.5571 11047293
3163.6389 1116.6945 3809.9182 9862248
3238.0305 1134.8566 3871.8833 8283472
3259.7625 1134.4369 3870.4514 9270109
3288.2336 1136.3518 3876.9851 8941146
3340.3242 1146.3462 3911.0837 9204574
3373.4792 1149.7493 3922.6943 9993834
3433.4983 1162.199 3965.1697 10585971
3460.0103 1163.2147 3968.6353 10125934
3473.0818 1159.7288 3956.7419 10190959
3538.5579 1173.6709 4004.3098 9533283
3578.4268 1178.991 4022.4602 9072476
3619.7048 1184.7015 4041.9436 9730406
3665.3357 1191.7524 4065.9998 10454129
3691.7891 1192.5165 4068.6064 10914425
3713.1477 1191.6356 4065.6011 10980218
3723.8286 1187.3616 4051.019 10585462
3719.8416 1178.495 4020.7686 10124655
3724.4592 1172.4502 4000.1448 9400932
3749.823 1172.9713 4001.9229 8085072
3838.3818 1193.1296 4070.6985 7229764
3805.7319 1175.5946 4010.8728 7361608
3832.2585 1176.4436 4013.7693 8282709
0 0 0 0
0 0 0 0
0 0 0 0
0 0 0 0
0 0 0 0
0 0 0 0
0 0 0 0
0 0 0 0
-3815.8918 1285.4653 4298.8389 16
-3726.5659 1263.8087 4226.415 16
-3699.4761 1263.1082 4224.0723 16
-3669.2805 1261.3306 4218.1279 16
-3666.5283 1269.027 4243.8662 16
-3578.6206 1247.1531 4170.7153 16
-3573.4773 1254.0188 4193.6758 16
-3554.0715 1255.9406 4200.1025 16
-3516.5027 1251.4259 4185.0044 16
-3494.3027 1252.3551 4188.1123 16
-3460.0176 1248.9354 4176.6763 16
-3441.9448 1251.3607 4184.7866 16
-3419.7021 1252.2942 4187.9082 16
-3348.29 1235.1038 4130.4204 16
-3222.5095 1197.4575 4004.5242 17
-3210.1338 1201.7057 4018.7307 18
-3285.313 1239.0381 4143.5771 18
-3258.156 1238.0465 4140.2612 18
-3216.616 1231.5332 4118.4795 18
-3196.8472 1233.3193 4124.4526 18
-3148.1501 1223.8868 4092.9087 18
-3067.3799 1201.7421 4018.8525 18
-3014.0793 1190.0974 3979.9104 18
-3006.5879 1196.4991 4001.3191 18
-2994.0403 1200.9744 4016.2854 18
-2974.3682 1202.6409 4021.8582 19
-2952.0674 1203.2627 4023.9375 19
-2928.936 1203.5533 4024.9097 19
-2913.8628 1207.1871 4037.062 19
-2894.9382 1209.2725 4044.0354 20
-2867.9097 1207.979 4039.71 19
-2835.6758 1204.4529 4027.918 19
-2826.7166 1210.8365 4049.2664 19
-2781.1392 1201.5098 4018.0759 18
-2777.2759 1210.199 4047.134 18
-2715.5356 1193.6001 3991.6243 19
-2693.7971 1194.4464 3994.4543 19
-2720.4058 1216.9352 4069.6611 19
-2688.4539 1213.3956 4057.8245 19
-2673.915 1217.7223 4072.2935 19
-2717.9995 1249.0684 4177.1206 19
-2687.6445 1246.4672 4168.4219 19
-2641.3538 1236.3586 4134.6167 19
-2645.313 1249.8016 4179.5728 18
-2510.7612 1197.4398 4004.4648 21
-2596.1331 1249.9662 4180.123 21
-2499.7993 1215.1754 4063.7761 21
-2435.2368 1195.3026 3997.3176 21
-2408.7466 1193.9103 3992.6614 21
-2638.3579 1320.6873 4416.6279 21
-2537.2805 1282.8127 4289.9683 19
-2516.2654 1285.0596 4297.4819 19
-2485.5122 1282.3282 4288.3481 19
-2465.1951 1284.9806 4297.2178 18
-2456.5955 1293.8594 4326.9102 18
-2430.9565 1293.8566 4326.9009 19
-2410.0396 1296.3938 4335.3857 19
-2391.7056 1300.3899 4348.7495 19
-2385.3298 1311.0457 4384.3843 19
-2357.1584 1309.8247 4380.3013 19
-2314.7271 1300.5643 4349.3325 19
-2326.8777 1322.1085 4421.3804 19
-2272.6687 1306.0089 4367.5405 19
-2270.0691 1319.538 4412.7842 19
-2251.1011 1323.7567 4426.8926 19
-2223.7808 1323.1055 4424.7148 19
-2201.3452 1325.3799 4432.3208 19
-2180.519 1328.6898 4443.3896 19
-2164.8999 1335.2922 4465.4697 19
-2148.8035 1341.76 4487.0991 19
-2121.9561 1341.5927 4486.5391 19
-2102.0789 1345.8838 4500.8896 18
-2077.0303 1346.9315 4504.3936 19
-2043.241 1342.2645 4488.7861 19
-2015.8712 1341.7472 4487.0562 19
-1991.1074 1342.9739 4491.1582 19
-1984.0569 1356.3428 4535.8662 19
-1960.215 1358.4423 4542.8877 19
-1934.8051 1359.4985 4546.4199 19
-1903.1636 1356.1442 4535.2021 19
-1901.5542 1374.4003 4596.2539 19
-1861.6002 1365.0693 4565.0498 19
-1825.8237 1358.572 4543.3213 19
-1786.4882 1349.1921 4511.9536 19
-1762.5776 1351.3536 4519.1821 19
-1732.3066 1348.6302 4510.0742 19
-1703.2412 1346.7747 4503.8687 19
-1671.1387 1342.4203 4489.3071 19
-1600.5902 1306.5421 4369.3237 19
-1536.2681 1274.6504 4262.6719 19
-1590.2284 1341.4728 4486.1382 19
-1461.3087 1253.6718 4192.5151 19
-1439.6342 1256.432 4201.7461 19
-1447.3235 1285.3676 4298.5122 19
-1414.2821 1278.5189 4275.6089 19
-1373.4419 1264.2416 4227.8628 19
-1404.8921 1317.2126 4405.0078 19
-1421.3146 1357.8323 4540.8477 21
-1413.33 1376.2524 4602.4482 21
-1375.5535 1365.8162 4567.5474 21
-1352.8262 1370.2037 4582.2202 21
-1330.2318 1374.9084 4597.9536 21
-1306.9379 1379.0715 4611.876 21
-1280.3513 1379.864 4614.5259 21
-1257.9353 1385.2837 4632.6504 21
-1234.1425 1389.3951 4646.3999 19
-1210.1978 1393.5192 4660.1914 19
-1197.8566 1411.5092 4720.3535 19
-1172.2048 1414.2994 4729.6846 19
-1147.0768 1417.8739 4741.6382 19
-1124.4882 1424.8453 4764.9521 19
-1099.6118 1429.2025 4779.5229 19
-1076.8223 1436.5739 4804.1743 19
-1037.9519 1422.3099 4756.4731 19
-1008.6439 1420.7189 4751.1523 19
-982.84338 1424.1188 4762.522 19
-959.41205 1431.2539 4786.3833 19
-938.85962 1443.2493 4826.498 21
-918.75934 1456.7151 4871.5303 21
-891.62213 1459.5353 4880.9614 21
-860.43518 1455.693 4868.1123 21
-832.83441 1457.8619 4875.3657 21
-811.49414 1471.5392 4921.105 19
-785.45032 1477.3889 4940.6675 19
-757.57471 1480.1124 4949.7754 19
-728.05518 1479.7141 4948.4438 19
-698.26923 1478.7184 4945.1138 19
-669.17047 1479.1543 4946.5713 19
-640.39539 1480.3784 4950.665 19
-611.94409 1482.5043 4957.7744 19
-581.62714 1480.097 4949.7241 19
-551.82642 1478.8176 4945.4453 19
-522.78387 1479.5404 4947.8628 19
-493.54044 1479.7467 4948.5527 21
-464.14761 1479.5032 4947.7378 21
-433.8714 1476.2206 4936.7607 21
-401.7738 1465.8188 4901.9751 21
-372.08542 1463.2705 4893.4531 21
-344.63608 1469.8409 4915.4258 21
-314.90271 1466.984 4905.8716 21
-285.39487 1464.7035 4898.2451 21
-256.42554 1464.9835 4899.1816 21
-224.44489 1445.9349 4835.4795 19
-195.44113 1443.2964 4826.6558 19
-166.30243 1438.5863 4810.9043 19
-138.49469 1445.8225 4835.1035 19
-109.73604 1444.3168 4830.0679 19
-81.388092 1449.0609 4845.9336 19
-52.391483 1441.1335 4819.4229 19
-23.749365 1435.6465 4801.0732 19
4.7080917 1440.1775 4816.2256 19
33.299675 1442.7412 4824.7993 19
61.977455 1444.9463 4832.1733 19
90.444252 1442.3932 4823.6353 19
119.0393 1442.6202 4824.3945 19
147.32379 1439.7245 4814.7109 18
176.91621 1448.4767 4843.9795 18
203.92215 1436.5648 4804.144 19
236.80396 1463.8949 4895.541 19
263.51456 1451.2737 4853.333 19
289.89127 1439.4777 4813.8853 19
317.52948 1435.4979 4800.5762 18
346.86124 1439.1992 4812.9541 18
373.67065 1432.6675 4791.1108 18
401.74283 1431.5577 4787.3994 18
432.1413 1438.337 4810.0708 18
457.1456 1427.4344 4773.6104 18
484.16837 1423.7377 4761.2476 18
505.19626 1403.7898 4694.5381 18
529.23389 1393.8505 4661.2993 18
552.13062 1382.0411 4621.8066 18
571.08557 1361.9474 4554.6094 18
571.87915 1302.3086 4355.166 18
592.38129 1290.7628 4316.5547 18
618.97101 1292.8879 4323.6616 18
646.8623 1297.4552 4338.9351 18
671.9314 1296.2286 4334.8335 18
700.71411 1301.9928 4354.1099 16
725.7851 1300.6958 4349.7725 16
749.06732 1296.3918 4335.3794 16
776.86755 1299.9335 4347.2231 15
802.54413 1299.8081 4346.8037 15
829.10852 1301.0837 4351.0698 18
852.82367 1297.9462 4340.5771 18
874.48993 1291.9653 4320.5762 18
893.06519 1281.8877 4286.8745 65550
904.58685 1262.5229 4222.1152 131083
853.81256 1159.5938 3877.9004 327685
894.6626 1183.2363 3956.9656 2167827
928.9798 1197.2521 4003.8369 6705993
966.30145 1214.3457 4061.0015 8613467
975.90521 1196.6219 4001.73 8745051
1001.0263 1198.3146 4007.3904 8941916
1023.0344 1196.2886 4000.615 8744537
1049.9001 1199.9061 4012.7126 8613208
1075.9293 1202.4283 4021.1477 8679000
1099.7052 1202.3777 4020.9783 8744794
1122.6333 1201.422 4017.782 9007965
1147.1888 1202.2114 4020.4219 8942172
1172.5731 1203.8196 4025.7998 8942173
1194.9492 1202.3368 4020.8413 8810588
1217.9576 1201.5358 4018.1626 8744794
1245.1309 1204.7953 4029.063 8613465
1267.7076 1203.5684 4024.9602 8613208
1288.6581 1200.8712 4015.9402 8613208
1312.2144 1200.6561 4015.2209 8481366
1331.3186 1196.4478 4001.1472 8547159
1360.675 1201.439 4017.8386 8942173
1382.7744 1199.9609 4012.896 8942172
1407.2408 1200.5522 4014.8735 9073758
1431.0045 1200.5343 4014.8137 8942173
1456.7841 1202.1805 4020.3188 9073759
1472.5798 1195.6675 3998.5378 8810587
1494.7533 1194.4569 3994.4897 9139552
1514.0493 1191.0208 3982.9983 8942173
1538.9894 1192.0616 3986.4795 9271138
1525.6862 1163.8965 3892.29 9007965
1576.2518 1184.5682 3961.4199 9073759
1602.8647 1186.8969 3969.207 9007966
1622.8899 1184.3503 3960.6912 9139551
1649.4884 1186.6052 3968.2319 9007966
1680.6851 1192.058 3986.467 8679258
1674.8953 1171.4899 3917.6836 9534311
1683.3865 1161.3363 3883.7278 8810843
1720.325 1170.8169 3915.4329 8612179
1726.4225 1159.335 3877.0352 6770231
1774.1049 1175.713 3931.8066 5717286
1794.2048 1173.6246 3924.8223 5322529
1832.8799 1183.5844 3958.1294 7230527
1853.993 1182.095 3953.1492 8546386
1902.0031 1197.5784 4004.9282 8546645
1927.3298 1198.5737 4008.2571 8284243
1945.1393 1194.927 3996.0615 8218451
1949.7313 1183.3458 3957.332 8218450
2007.4709 1203.9135 4026.114 8218193
2019.9052 1197.1466 4003.4844 7823435
2042.8308 1196.6827 4001.9331 7691849
2059.9346 1192.8582 3989.1431 8021071
2106.6731 1206.0865 4033.3813 8547927
2091.9751 1184.2397 3960.3215 8218453
2122.5537 1188.2238 3973.6445 6441271
2001.5387 1108.1879 3705.9895 917504
2022.1902 1107.4739 3703.6018 2233617
1992.2972 1079.3912 3609.6882 5390133
2043.9146 1095.5968 3663.8826 10455929
2105.5637 1116.7826 3734.7322 9403496
2128.635 1117.2792 3736.3926 9206372
2149.3479 1116.5403 3733.9216 9600874
2219.7871 1141.385 3817.0071 9337701
2250.2053 1145.358 3830.2937 9534309
2251.543 1134.5974 3794.3079 9270111
2331.3787 1163.2152 3890.0115 11110518
2339.6731 1155.9274 3865.6394 1179648
2343.3643 1146.5287 3834.2087 3811364
2339.6218 1133.7084 3791.335 6572852
2333.0308 1119.7646 3744.7046 8283210
2321.2048 1103.5947 3690.6292 9730138
2347.1189 1105.5023 3697.0083 12494450
2401.3521 1120.5896 3747.4634 12956276
2366.3677 1094.1486 3659.0396 13680524
2392.9314 1096.3877 3666.5273 13944988
2360.7397 1071.9081 3584.6633 14207395
2489.3669 1120.2349 3746.2771 6702390
2553.0413 1138.7365 3808.1499 7823691
2623.9719 1160.1221 3879.6675 8086864
2669.2476 1169.8922 3912.3406 8086354
2698.1621 1172.3851 3920.6772 8087122
2722.6887 1172.9448 3922.5493 8020814
2756.7542 1177.5701 3938.0166 7758673
2724.9358 1154.2106 3859.8984 3219216
2717.511 1141.4867 3817.3472 655360
2693.9492 1122.2504 3753.0171 4929584
2811.8188 1161.7644 3885.1597 12298911
2812.3015 1152.5297 3854.2769 13022630
2811.908 1143.0875 3822.7004 12429463
2894.3142 1167.1866 3903.2927 12692123
2943.1204 1177.4613 3937.6531 13415330
2969.249 1178.5731 3941.3713 13086107
2994.1318 1179.177 3943.3906 13151898
3039.1968 1187.6582 3971.7537 11704195
3051.6145 1183.3494 3957.3438 10651762
3096.499 1191.6001 3984.9358 9467490
3176.1592 1213.0071 4056.5249 6177844
3135.6755 1188.553 3974.7458 5651505
3108.4431 1169.4489 3910.8577 2888460
3130.168 1168.9095 3909.0544 3481114
3091.6323 1146.0403 3832.5752 3086101
3071.6226 1130.3218 3780.0095 7954521
3105.5991 1134.5533 3794.1604 3547419
3114.3762 1129.5841 3777.5425 2562578
3128.0466 1126.4481 3767.0552 5981755
3114.6587 1113.6813 3724.3608 10126191
3134.0164 1112.7206 3721.1477 10389362
3188.6399 1124.2067 3759.5596 9007195
3238.4402 1133.8447 3791.7908 8744023
3277.9751 1139.7806 3811.6418 8809560
3375.3457 1165.6077 3898.0122 9139038
3371.5913 1156.3997 3867.2188 9533796
3452.0303 1175.9979 3932.759 10454642
3482.8416 1178.54 3941.2605 10322799
3489.1389 1172.8083 3922.0928 10454385
3519.7576 1175.2737 3930.3374 9862505
3532.9678 1171.9321 3919.1624 9730916
3575.4878 1178.293 3940.4343 11967366
3558.0913 1164.9542 3895.8269 13809056
3603.9487 1172.3638 3920.6057 13348763
3609.1218 1166.5287 3901.092 11243388
3621.1836 1162.9801 3889.2249 10782838
3671.4819 1171.6787 3918.3149 9664357
3633.3184 1152.2147 3853.2236 9138014
3683.8928 1160.9591 3882.4663 9006428
3724.8464 1166.5818 3901.27 9138270
0 0 0 0
0 0 0 0
0 0 0 0
0 0 0 0
0 0 0 0
0 0 0 0
0 0 0 0
0 0 0 0
-3736.7676 1283.7499 4209.7007 14
-3653.3921 1263.5396 4143.4263 16
-3606.9866 1255.9283 4118.4678 16
-3578.7236 1254.5737 4114.0254 16
-3555.1633 1254.8604 4114.9653 16
-3499.7563 1243.8324 4078.8025 16
-3472.1489 1242.6001 4074.7612 16
-3446.1592 1241.9333 4072.575 16
-3419.811 1241.1272 4069.9314 17
-3396.9221 1241.574 4071.3965 15
-3370.3267 1240.6627 4068.408 17
-3345.8545 1240.5254 4067.958 18
-3308.6047 1235.6144 4051.8538 18
-3265.0237 1228.2499 4027.7036 18
-3164.3567 1199.1439 3932.259 18
-3111.1814 1187.7371 3894.853 19
-3112.8066 1197.2367 3926.0046 19
-3117.8943 1208.2213 3962.0256 19
-3081.1111 1203.0238 3944.9819 19
-3062.5796 1204.9279 3951.2256 19
-3035.7681 1203.5785 3946.8008 19
-3021.3669 1207.1666 3958.5671 19
-2956.4021 1190.4504 3903.751 19
-2987.6956 1212.5366 3976.1763 19
-2976.8337 1217.7291 3993.2041 19
-2936.853 1210.998 3971.1311 19
-2913.7388 1211.1692 3971.6924 19
-2883.7065 1208.444 3962.7559 19
-2872.78 1213.7463 3980.1433 19
-2842.3279 1210.8185 3970.5422 19
-2818.7927 1210.813 3970.5244 19
-2800.2759 1212.9812 3977.6343 19
-2776.0549 1212.6943 3976.6938 19
-2758.6643 1215.4119 3985.6052 19
-2699.8127 1199.752 3934.2527 19
-2672.3621 1197.8947 3928.1624 19
-2695.3218 1218.7999 3996.7153 19
-2720.8433 1241.2444 4070.3157 19
-2597.5398 1195.5895 3920.603 20
-2623.9124 1218.6248 3996.1409 20
-2612.8408 1224.5311 4015.509 21
-2590.2371 1225.0916 4017.3469 21
-2609.6208 1245.7053 4084.9438 21
-2556.1772 1231.6151 4038.739 21
-2724.3662 1325.0546 4345.1479 21
-2491.082 1223.1489 4010.9766 21
-2627.8621 1302.7361 4271.9604 21
-2452.814 1227.782 4026.1694 21
-2426.498 1226.5365 4022.0854 21
-2410.9656 1230.7712 4035.9719 21
-2458.6353 1267.6777 4156.9966 19
-2451.4912 1276.7832 4186.8555 20
-2434.4885 1280.8879 4200.3154 20
-2415.9399 1284.2552 4211.3579 21
-2400.8245 1289.5371 4228.6782 18
-2382.1082 1292.9758 4239.9546 19
-2362.2 1295.8341 4249.3276 19
-2343.4553 1299.3992 4261.0181 19
-2319.2148 1299.9611 4262.8608 19
-2300.5068 1303.6707 4275.0254 19
-2279.9451 1306.4006 4283.9775 19
-2257.3098 1307.9907 4289.1919 19
-2232.4822 1308.332 4290.311 19
-2212.0344 1311.2778 4299.9707 19
-2191.4822 1314.2294 4309.6494 19
-2169.7236 1316.5184 4317.1562 19
-2151.6602 1321.1311 4332.2822 19
-2125.4531 1320.7944 4331.1782 19
-2104.3167 1323.6392 4340.5063 19
-2084.5254 1327.4109 4352.8745 19
-2061.9922 1329.509 4359.7549 19
-2042.0801 1333.3719 4372.4224 19
-2028.145 1341.287 4398.3774 18
-2003.9008 1342.5015 4402.3599 19
-1981.3199 1344.8768 4410.1494 19
-1956.7316 1345.9351 4413.6196 19
-1931.3546 1346.4722 4415.3809 19
-1907.7421 1348.2709 4421.2793 19
-1884.9872 1350.7344 4429.3574 19
-1863.1377 1353.9253 4439.8213 19
-1842.1199 1357.8206 4452.5947 19
-1814.4102 1356.8248 4449.3296 19
-1780.5747 1351.1514 4430.7251 19
-1751.1705 1348.7211 4422.7554 19
-1724.6528 1348.4736 4421.9443 19
-1696.989 1347.3088 4418.1245 19
-1672.119 1348.3602 4421.5723 19
-1645.9254 1348.361 4421.5747 19
-1615.0126 1344.4331 4408.6943 19
-1505.9457 1274.2463 4178.5366 19
-1506.2986 1295.8461 4249.3667 19
-1440.5349 1260.3341 4132.915 19
-1418.4487 1262.4684 4139.9141 19
-1393.8763 1262.4263 4139.7759 19
-1383.1483 1275.1459 4181.4863 19
-1368.4303 1284.5839 4212.4355 19
-1393.2979 1332.2229 4368.6543 19
-1401.4288 1365.3594 4477.3164 21
-1386.7448 1377.1177 4515.8745 21
-1356.8427 1373.929 4505.418 21
-1324.3424 1367.9287 4485.7417 21
-1303.0039 1373.4479 4503.8403 21
-1281.6907 1379.225 4522.7847 19
-1256.3445 1380.8162 4528.0024 19
-1233.303 1385.0651 4541.9355 19
-1210.4803 1389.755 4557.3149 19
-1191.0452 1398.6365 4586.4395 19
-1177.0824 1414.5092 4638.4893 19
-1153.4362 1419.2256 4653.9556 19
-1128.8304 1422.9637 4666.2139 19
-1104.0175 1426.6216 4678.2085 19
-1079.4536 1430.7981 4691.9043 19
-1052.8748 1432.4539 4697.334 19
-1018.7349 1423.6335 4668.4102 19
-999.72717 1436.0573 4709.1504 19
-969.26453 1432.2676 4696.7231 19
-932.90094 1419.2765 4654.1226 19
-910.94946 1428.0879 4683.0171 20
-883.82214 1429.0839 4686.2832 21
-866.9032 1447.186 4745.644 21
-840.10834 1449.4623 4753.1084 21
-812.6488 1450.7101 4757.2002 21
-785.9126 1453.385 4765.9722 19
-760.64539 1459.0775 4784.6387 19
-732.33398 1459.1449 4784.8599 19
-697.92194 1446.5731 4743.6343 19
-670.33069 1447.677 4747.2539 19
-646.16327 1456.5956 4776.5 19
-614.79962 1449.3662 4752.7935 19
-587.39862 1451.233 4758.915 19
-562.77441 1460.4944 4789.2852 19
-534.91919 1461.9091 4793.9238 19
-510.15295 1472.3975 4828.3179 19
-481.40082 1471.9446 4826.833 21
-452.10141 1469.6555 4819.3267 21
-418.51364 1452.1781 4762.0142 21
-392.85837 1461.6879 4793.1987 21
-364.32877 1461.1521 4791.4419 20
-336.46158 1463.4069 4798.8359 20
-307.02908 1458.6414 4783.2085 18
-279.03122 1460.4154 4789.0259 19
-248.37991 1447.1312 4745.4644 20
-219.96921 1445.1766 4739.0547 19
-191.87331 1445.021 4738.5444 19
-162.98981 1437.8639 4715.0747 19
-134.86674 1435.8422 4708.4453 19
-106.9345 1435.3275 4706.7573 19
-79.111938 1436.4412 4710.4092 19
-51.229614 1437.0922 4712.5439 19
-23.28924 1435.7235 4708.0562 19
4.594882 1433.3938 4700.416 19
32.429359 1432.87 4698.6987 19
60.205765 1431.4495 4694.0405 19
88.073311 1432.4088 4697.1865 19
115.75439 1430.603 4691.2646 19
144.41513 1439.2599 4719.6523 19
172.17322 1437.5717 4714.1162 19
199.60042 1433.9774 4702.3301 19
228.21381 1438.7417 4717.9531 19
261.14282 1466.7051 4809.6514 19
283.80746 1437.1882 4712.8589 19
311.45117 1435.9142 4708.6812 18
340.27005 1439.8223 4721.4966 18
367.9516 1438.6897 4717.7827 18
395.61639 1437.6561 4714.3936 18
423.03461 1435.9218 4708.7061 18
451.0249 1436.2239 4709.6968 18
481.535 1444.0472 4735.3511 18
508.36078 1440.5687 4723.9443 18
528.10754 1418.4398 4651.3789 18
545.60748 1392.7703 4567.2026 18
567.73969 1380.7922 4527.9243 18
561.01672 1302.8832 4272.4429 18
583.68524 1297.0115 4253.1885 18
607.06067 1293.1316 4240.4653 18
630.58563 1289.8658 4229.7563 18
659.21191 1296.8859 4252.7764 18
681.79071 1291.9296 4236.5234 16
709.22498 1296.1991 4250.5244 17
735.56787 1298.2496 4257.2485 16
763.3006 1302.5359 4271.3042 16
782.63824 1292.681 4238.9878 16
810.22076 1296.6337 4251.9492 16
839.87976 1303.5707 4274.6973 17
856.38281 1290.28 4231.1143 17
881.66504 1290.5964 4232.1519 65551
900.56976 1281.8181 4203.3657 15
920.88971 1275.472 4182.5557 131084
858.99365 1158.5696 3799.2068 393220
881.8045 1158.9685 3800.5149 1576460
934.23578 1197.3088 3926.2415 6838090
956.58807 1196.1738 3922.5193 9008483
974.65253 1189.858 3901.8086 9139553
995.98859 1187.7365 3894.8513 8744794
1021.3795 1190.4369 3903.7065 8678744
1045.8197 1191.9341 3908.6165 8876123
1071.8076 1195.0924 3918.9731 8810331
1093.8293 1193.788 3914.6956 8744793
1117.6721 1194.484 3916.978 8876380
1142.9641 1196.6689 3924.1431 8941918
1165.6351 1196.0774 3922.2031 8678748
1190.0875 1197.3013 3926.2163 8547418
1213.882 1197.8287 3927.9463 8678745
1238.1028 1198.7493 3930.9651 8744794
1244.4731 1182.6719 3878.2434 8547415
1280.5409 1194.8884 3918.3042 8020814
1291.3008 1183.4751 3880.8774 8612951
1327.0974 1195.006 3918.6897 9073758
1354.4186 1198.6398 3930.6057 9007966
1363.3732 1186.1711 3889.7185 8876380
1393.5592 1192.2821 3909.7576 8876380
1418.0021 1193.3597 3913.2913 8810587
1428.9214 1183.2048 3879.991 8810587
1452.3135 1183.5358 3881.0764 9007709
1476.4204 1184.4299 3884.0083 9270884
1496.447 1182.0735 3876.281 8810587
1520.6012 1182.9995 3879.3176 8613207
1541.1368 1181.1245 3873.1694 8942172
1569.476 1185.1976 3886.5259 9073759
1589.5507 1183.002 3879.3259 9007966
1603.121 1176.0974 3856.6843 9007965
1614.8021 1168.0201 3830.1973 9270881
1655.4064 1180.7977 3872.0977 9073756
1674.4023 1178.0236 3863.0007 8810329
1706.8207 1184.64 3884.6975 8678999
1716.9247 1175.799 3855.7056 8481620
1735.1013 1172.6459 3845.366 8151885
1737.0707 1158.7631 3799.8411 6967354
1783.4587 1174.4871 3851.4038 7164733
1835.9958 1193.8121 3914.7749 8809813
1857.3621 1192.6399 3910.9307 7559232
1883.8827 1194.7653 3917.9004 6638640
1900.2375 1190.4703 3903.8164 7428157
1930.6459 1194.9769 3918.5947 6112042
1952.1527 1193.9325 3915.1694 5125149
1961.84 1185.7686 3888.3982 6244145
1993.2303 1190.7596 3904.7651 8086606
1999.6471 1180.8881 3872.394 8218704
2024.6147 1182.0713 3876.2742 8350547
2042.7231 1179.2683 3867.0825 8744797
2043.3682 1166.5576 3825.4011 2694679
1988.516 1122.7898 3681.877 983040
1985.4652 1108.9036 3636.3408 851968
1972.4539 1089.812 3573.7356 851968
1971.9407 1077.9581 3534.8638 7102289
2012.2651 1088.4425 3569.2441 9075303
2054.7395 1099.8596 3606.6838 9798511
2069.1575 1096.1783 3594.6121 10390390
2109.1304 1105.9723 3626.7285 12101267
2115.8147 1098.2893 3601.5342 11377542
2144.2832 1101.9545 3613.5532 9205864
2197.7732 1118.2789 3667.0845 6311234
2270.7153 1144.0845 3751.7068 983296
2285.5771 1140.4099 3739.6572 1508096
2323.9678 1148.4333 3765.9678 2824467
2318.8499 1135.0081 3721.9431 11310717
2307.0845 1118.6124 3668.1782 9928289
2317.2051 1113.0355 3649.8906 11046753
2352.2263 1119.4119 3670.7998 10717274
2368.5293 1116.845 3662.3823 11112039
2389.9583 1116.7197 3661.9717 13745558
2397.406 1110.1229 3640.3391 13747614
2431.0969 1115.6873 3658.5859 13679765
2475.3518 1125.9584 3692.2673 11836794
2541.2368 1145.8022 3757.3398 7231035
2590.6213 1157.9264 3797.0977 7625800
2640.7854 1170.1873 3837.3035 7823695
2695.1521 1184.0851 3882.8777 8482140
2699.4604 1175.9413 3856.1721 7033412
2606.6506 1125.9825 3692.3464 983040
2694.261 1154.142 3784.6875 983040
2693.1172 1144.1305 3751.8579 983296
2657.0569 1119.5709 3671.3213 1115653
2771.5784 1158.3436 3798.4656 6113602
2749.2053 1139.7393 3737.458 10785155
2782.1724 1144.1914 3752.0574 11705486
2828.9705 1154.2159 3784.9299 11968914
2887.2822 1168.7434 3832.5688 12626328
2919.5527 1172.5852 3845.167 12822679
2968.8799 1183.165 3879.8606 12822936
2976.6746 1177.1577 3860.1614 13612449
2951.1182 1158.1536 3797.8425 13217947
2972.6763 1157.7872 3796.6409 11309950
3029.4143 1171.0249 3840.0503 9928299
3044.2998 1168.0078 3830.1565 8284248
3098.1653 1179.88 3869.0884 4994602
3083.0974 1165.5188 3821.9946 5191987
3047.8254 1143.7848 3750.7241 5521467
3074.3401 1145.3848 3755.9707 4600110
3056.8562 1130.6873 3707.7744 6113347
3043.0281 1117.5421 3664.6687 2955538
3090.574 1126.963 3695.5618 6507584
3066.0801 1110.167 3640.4841 8218200
3109.6187 1118.067 3666.3896 11771015
3175.8662 1133.9657 3718.5249 11573121
3168.6851 1123.6077 3684.5586 8480850
3257.7463 1147.2854 3762.2031 7954251
3318.4458 1160.7207 3806.2605 8414803
3356.8564 1166.2312 3824.3311 8020046
3425.6731 1182.1608 3876.5674 9269600
3428.833 1175.3715 3854.3037 9467236
3428.7715 1167.5752 3828.738 9072731
3438.4536 1163.1772 3814.3164 8414543
3437.74 1155.3433 3788.627 7953735
3463.9602 1156.6039 3792.7607 9861988
3480.9451 1154.7844 3786.7944 11112056
3472.5701 1144.6292 3753.4932 11243643
3529.2827 1155.9209 3790.5212 11046265
3546.6729 1154.2723 3785.115 10717299
3535.3909 1143.3716 3749.3691 10717299
3547.9609 1140.2728 3739.2075 10191469
3518.8416 1123.8971 3685.5078 10454131
0 0 0 0
0 0 0 0
0 0 0 0
0 0 0 0
0 0 0 0
0 0 0 0
0 0 0 0
0 0 0 0
-3654.0601 1279.7233 4116.5254 16
-3625.0977 1278.1101 4111.3364 16
-3584.2588 1272.2595 4092.5166 16
-3547.6196 1267.8302 4078.2688 16
-3498.0361 1258.6824 4048.8425 16
-3421.5969 1239.6783 3987.7114 16
-3399.511 1240.2395 3989.5166 16
-3368.7434 1237.619 3981.0874 16
-3348.0547 1238.6904 3984.5339 18
-3316.6174 1235.7722 3975.1467 18
-3276.8699 1229.6937 3955.5938 18
-3251.7041 1229.0392 3953.488 18
-3215.7415 1224.2646 3938.1296 18
-3112.3552 1193.5637 3839.3733 18
-3112.4114 1202.3724 3867.7085 19
-3075.0459 1196.7478 3849.6155 19
-3129.2971 1226.9609 3946.8032 19
-3110.2446 1228.6713 3952.3049 19
-2958.1021 1177.4326 3787.4841 19
-2945.7852 1181.4921 3800.542 19
-2947.573 1191.3146 3832.1384 19
-2915.1733 1187.3649 3819.4333 19
-2886.6575 1184.9475 3811.6575 19
-2865.509 1185.5403 3813.5642 19
-2811.3652 1172.3829 3771.2405 19
-2839.7991 1193.7267 3839.8975 19
-2844.3408 1205.291 3877.0967 19
-2855.4541 1219.8508 3923.9319 19
-2874.1519 1237.9164 3982.0439 19
-2849.4531 1237.4352 3980.4958 19
-2826.6121 1237.7593 3981.5383 19
-2798.2051 1235.6311 3974.6929 19
-2767.9636 1232.6499 3965.103 19
-2744.686 1232.7454 3965.4102 19
-2735.4934 1239.2231 3986.2476 19
-2724.9907 1245.2152 4005.5222 19
-2690.6504 1240.324 3989.7883 19
-2663.0627 1238.4863 3983.8772 19
-2796.9761 1312.3953 4221.6226 19
-2583.793 1223.3041 3935.0403 20
-2559.5518 1222.8602 3933.6123 21
-2529.0942 1219.411 3922.5168 21
-2509.7375 1221.2996 3928.5923 21
-2533.5278 1244.4166 4002.9536 21
-2650.1494 1313.9979 4226.7778 21
-2462.1179 1232.4128 3964.3403 21
-2519.0818 1273.0696 4095.1223 21
-2403.252 1226.3431 3944.8159 21
-2400.2058 1236.816 3978.5042 21
-2431.626 1265.433 4070.5574 20
-2417.8752 1270.8805 4088.0806 19
-2407.1704 1278.0557 4111.1611 19
-2387.5471 1280.5938 4119.3252 19
-2362.7249 1280.3671 4118.5962 19
-2348.3625 1285.8629 4136.2749 19
-2330.281 1289.4169 4147.707 18
-2314.6169 1294.3983 4163.731 19
-2296.1145 1297.8827 4174.9395 19
-2278.3315 1301.8542 4187.7148 19
-2260.3867 1305.8196 4200.4702 19
-2241.668 1309.4211 4212.0557 19
-2220.8835 1311.8838 4219.9771 19
-2202.582 1315.8857 4232.8501 19
-2181.2888 1318.1718 4240.2041 19
-2160.5269 1320.8362 4248.7744 19
-2141.8777 1324.8701 4261.7505 19
-2123.793 1329.3535 4276.1724 19
-2097.5781 1328.7949 4274.3755 19
-2075.1062 1330.6226 4280.2549 19
-2052.7002 1332.5385 4286.4175 19
-2034.0833 1336.9928 4300.7461 19
-2013.0104 1339.9255 4310.1797 19
-1988.6648 1340.7269 4312.7578 18
-1965.7076 1342.4976 4318.4536 19
-1944.0319 1345.2015 4327.1514 19
-1920.9341 1346.9807 4332.8745 19
-1890.1641 1343.3552 4321.2124 19
-1865.4595 1344.0002 4323.2871 19
-1841.605 1345.2843 4327.4175 19
-1816.0051 1345.3114 4327.5049 19
-1797.343 1350.5526 4344.3643 19
-1771.8446 1350.7346 4344.9497 19
-1745.3357 1350.1401 4343.0376 19
-1715.5957 1346.9911 4332.9077 19
-1690.6176 1347.5417 4334.6792 19
-1658.5216 1342.3486 4317.9741 19
-1585.1256 1303.0421 4191.5361 19
-1511.9596 1262.677 4061.6921 19
-1572.4148 1334.4012 4292.4097 19
-1472.01 1269.7286 4084.3755 19
-1431.5846 1255.4962 4038.5935 19
-1410.2805 1257.8344 4046.1145 19
-1386.5892 1258.0873 4046.9282 19
-1365.9587 1261.1752 4056.8611 19
-1345.4058 1264.4465 4067.384 19
-1325.5245 1268.48 4080.3586 19
-1394.1914 1358.9747 4371.4561 19
-1381.2109 1371.8038 4412.7236 21
-1362.8783 1379.7095 4438.1543 21
-1340.5627 1383.8149 4451.3604 21
-1312.7794 1382.3276 4446.5762 21
-1273.9443 1368.9039 4403.3955 21
-1252.035 1373.4866 4418.1367 19
-1230.8875 1379.1183 4436.2524 19
-1207.9485 1382.9449 4448.562 19
