# .PCD v0.7 - Point Cloud Data file format
VERSION 0.7
FIELDS x y z rgb
SIZE 4 4 4 4
TYPE F F F U
COUNT 1 1 1 1
WIDTH 1421
HEIGHT 1
VIEWPOINT 0 0 0 1 0 0 0
POINTS 1421
DATA ascii
-848.83453 1245.7388 2612.9651 19
-836.49353 1250.431 2622.8069 19
-822.19946 1252.3257 2626.7812 19
-850.00366 1319.6523 2768.0002 19
-838.55096 1327.4814 2784.4221 19
-823.64667 1330.0511 2789.812 19
-808.84583 1332.8964 2795.78 19
-793.86078 1335.5508 2801.3477 19
-780.64777 1341.3634 2813.5398 19
-768.96704 1350.1199 2831.9067 19
-748.96759 1344.3356 2819.7739 18
-705.30383 1294.8429 2715.9619 18
-691.59351 1299.3136 2725.3394 18
-676.61792 1301.5641 2730.0598 18
-662.01245 1304.6542 2736.5415 18
-648.40417 1309.9143 2747.5745 18
-629.45819 1304.384 2735.9746 18
-615.08752 1308.293 2744.1738 18
-601.41064 1313.9303 2755.998 18
-587.61407 1319.6132 2767.9182 18
-573.09308 1323.9489 2777.0125 18
-559.66284 1331.1353 2792.0859 18
-542.82465 1330.4066 2790.5576 18
-530.66693 1341.464 2813.7507 18
-541.92297 1414.3455 2966.6211 18
-539.34644 1454.8013 3051.4783 18
-522.37738 1457.895 3057.9675 18
-507.91345 1468.4541 3080.1152 18
-492.41516 1476.6981 3097.4072 18
-469.57693 1462.7167 3068.0808 18
-449.04877 1455.0947 3052.0938 19
-432.54373 1460.4166 3063.2566 19
-412.1524 1452.5087 3046.6694 19
-398.52695 1468.8127 3080.8677 19
-385.20715 1487.8624 3120.8247 19
-366.88409 1488.5336 3122.2324 19
-341.55356 1459.3354 3060.9888 19
-324.73233 1465.2589 3073.4133 19
-308.46848 1474.5504 3092.9026 19
-289.32233 1470.3673 3084.1284 19
-271.07315 1470.4862 3084.3779 19
-253.73482 1475.9204 3095.7761 19
-235.76979 1478.272 3100.7085 19
-220.83949 1501.6562 3149.7576 19
-202.96436 1507.4849 3161.9834 19
-184.47429 1509.4669 3166.1406 19
-166.04514 1512.4526 3172.4033 19
-147.23874 1512.3257 3172.137 19
-128.65131 1514.7396 3177.2002 19
-109.95811 1516.5223 3180.9395 19
-91.411057 1521.4749 3191.3276 19
-72.56868 1522.813 3194.1343 19
-53.721283 1524.9526 3198.6223 19
-34.922485 1531.5559 3212.4729 19
-15.853286 1527.9143 3204.8345 19
3.1302402 1526.6271 3202.1345 19
22.115086 1527.6409 3204.261 19
41.072922 1526.7142 3202.3171 19
59.997631 1525.5308 3199.835 19
78.928558 1525.0358 3198.7966 19
97.786369 1523.5931 3195.7708 19
116.79173 1524.5447 3197.7666 19
137.94168 1549.3179 3249.729 19
155.13483 1529.0244 3207.1631 19
175.46471 1540.702 3231.657 19
195.02144 1543.9611 3238.4929 19
213.27277 1537.2273 3224.3687 19
232.75795 1539.7628 3229.687 19
250.95135 1534.017 3217.635 19
272.39029 1547.521 3245.96 19
291.41803 1546.4489 3243.7109 19
307.47729 1530.731 3210.7424 18
326.87637 1532.5028 3214.459 18
345.90234 1532.4265 3214.2988 18
364.98215 1532.5842 3214.6296 18
383.81265 1531.7314 3212.8411 18
402.92236 1532.0209 3213.448 18
422.51712 1534.0452 3217.6941 18
443.61041 1541.1008 3232.4934 18
462.11862 1538.9633 3228.01 18
475.39459 1520.2635 3188.7869 18
500.1062 1538.1656 3226.3369 18
513.91254 1522.4434 3193.3591 18
532.81946 1522.4111 3193.2913 18
555.6463 1533.1974 3215.9158 18
571.54907 1524.7964 3198.2944 18
590.73492 1525.412 3199.5857 18
611.94507 1531.0541 3211.4202 16
629.5155 1527.5242 3204.0161 16
650.03906 1531.1569 3211.6357 16
663.03546 1517.3571 3182.6904 16
684.20538 1522.5083 3193.4951 16
698.94 1513.4478 3174.4905 16
719.89062 1517.9691 3183.9741 16
737.4704 1515.3333 3178.4453 16
753.58014 1509.8831 3167.0137 16
770.55243 1506.3842 3159.6743 16
790.75378 1509.214 3165.6101 16
809.06165 1508.3828 3163.8667 16
823.08838 1499.7882 3145.8394 18
828.30072 1475.8687 3095.6675 18
845.58362 1474.0269 3091.8044 18
864.83984 1475.6301 3095.1672 18
882.70825 1474.848 3093.5269 18
901.66486 1475.879 3095.6892 18
916.5401 1470.3215 3084.0325 16
930.67438 1463.8159 3070.3867 16
952.89001 1470.0267 3083.4141 16
969.33209 1467.2646 3077.6206 16
988.97864 1469.3656 3082.0271 16
1004.3464 1465.1483 3073.1814 16
1022.5375 1465.1268 3073.1362 16
1035.4808 1457.718 3057.5962 16
1051.8582 1455.3154 3052.5566 16
1065.3438 1449.0608 3039.4375 16
1078.6088 1442.719 3026.1353 16
1037.2524 1364.7189 2862.5283 16
1062.3551 1375.2621 2884.6431 16
1067.3201 1359.8152 2852.2427 16
1072.4381 1345.0417 2821.2551 16
1080.7085 1334.6146 2799.384 16
1093.9149 1330.5063 2790.7668 16
1108.7695 1328.4951 2786.5483 16
1121.6544 1324.2175 2777.5759 16
1137.1169 1323.0629 2775.1541 16
1152.9808 1322.4011 2773.7661 16
1169.3326 1322.3102 2773.5752 16
1185.2668 1321.7557 2772.4124 16
1203.9613 1324.2527 2777.6497 16
1159.5585 1258.2164 2639.1372 16
1229.403 1316.2557 2760.876 16
1251.0334 1321.8286 2772.5652 17
1269.0875 1323.5275 2776.1284 15
1165.092 1199.5258 2516.0322 16
1174.8715 1194.3149 2505.1023 15
1170.859 1175.3887 2465.4041 14
1173.3881 1163.4148 2440.2886 14
1181.8466 1157.5398 2427.9658 13
1187.4447 1149.0383 2410.1335 196617
1200.6212 1147.9849 2407.9241 327683
1202.8956 1136.6547 2384.1584 2035213
1221.844 1141.1602 2393.6089 4074014
1246.2467 1150.5979 2413.405 6573372
1277.0707 1165.683 2445.0461 7560265
1289.9418 1164.2263 2441.9907 8152656
1295.7201 1156.4716 2425.7249 8350036
1319.3767 1164.6687 2442.9187 8481108
1338.0151 1168.3063 2450.5486 8415059
1347.6763 1164.1113 2441.7495 8612437
1363.3099 1165.1097 2443.8438 8415059
1374.2397 1162.1093 2437.5503 7954508
1391.2218 1164.2361 2442.0112 7822412
1407.4286 1165.677 2445.0337 7954254
1413.673 1158.9215 2430.8638 7493703
1427.855 1158.7438 2430.491 8217426
1446.1372 1161.8638 2437.0354 8217169
1453.8403 1156.5066 2425.7986 8348755
1472.766 1160.0944 2433.324 8414548
1493.8641 1165.3073 2444.2581 7953997
1518.5034 1173.1558 2460.7205 8151376
1524.1565 1166.3263 2446.3955 8480341
1530.0316 1159.7937 2432.6934 8481367
1546.3733 1161.2429 2435.7332 8217939
1554.554 1156.5936 2425.981 7889230
1583.0576 1167.0114 2447.8323 8086610
1598.1544 1167.4462 2448.7444 8086609
1612.7939 1167.5421 2448.9456 8086610
1634.2112 1172.4991 2459.3433 7691852
1652.6394 1175.243 2465.0986 7494473
1668.5845 1176.1886 2467.0818 7889231
1679.792 1173.807 2462.0864 8283989
1688.8871 1170.0032 2454.1079 8612954
1700.822 1168.2148 2450.3567 8547160
1712.2112 1166.085 2445.8894 8546904
1734.8462 1171.5854 2457.4268 8415575
1741.527 1166.3099 2446.3611 8152403
1766.7267 1173.4211 2461.2771 8218197
1780.3529 1172.7921 2459.9578 8284246
1793.4709 1171.8412 2457.9631 8283989
1819.2935 1179.1398 2473.272 7954511
1830.0529 1176.6368 2468.0222 7822667
1861.4021 1187.307 2490.4031 6967102
1870.6887 1183.8472 2483.146 8085583
1886.3107 1184.4193 2484.3462 7756875
1901.2845 1184.5789 2484.6807 7559497
1915.927 1184.5311 2484.5806 7756619
1930.8845 1184.6774 2484.8872 7822414
1942.5856 1182.8385 2481.0303 6968131
1957.6215 1183.0425 2481.4583 8283477
1966.4852 1179.5414 2474.1145 8217685
1984.7485 1181.6884 2478.6179 8349784
1994.1532 1178.5684 2472.0735 8349783
2012.6479 1180.8269 2476.8108 8283990
2025.5753 1179.8101 2474.678 7691854
2018.135 1167.0298 2447.8711 8020818
2063.625 1184.8215 2485.1897 8086611
2061.9946 1175.4989 2465.6353 7955026
2072.866 1173.3843 2461.1997 7889235
2072.2026 1164.8153 2443.2263 8547164
2081.5327 1161.9437 2437.2031 8020821
2088.1931 1157.6318 2428.1587 8218200
2113.6641 1163.7355 2440.9612 8020821
2138.179 1169.2335 2452.4934 7626063
2158.9817 1172.641 2459.6406 8217944
2177.406 1174.7196 2464.0007 9205352
2180.1746 1168.3805 2450.7041 8152664
2194.1174 1168.0741 2450.0615 8416094
2223.3289 1175.8466 2466.3645 7231563
2245.3203 1179.7242 2474.498 4665636
2261.3787 1180.4543 2476.0295 7757651
2279.5935 1182.2937 2479.8877 6178107
2285.3745 1177.702 2470.2563 6046520
2309.24 1182.4287 2480.1707 2102798
2295.2676 1167.8436 2449.5781 6705473
2293.6167 1159.6715 2432.437 5191210
2300.6804 1155.9803 2424.6946 3217164
2307.0791 1152.0027 2416.3513 5914675
0 0 0 0
0 0 0 0
0 0 0 0
0 0 0 0
0 0 0 0
0 0 0 0
0 0 0 0
0 0 0 0
-2311.5608 1256.9476 2604.1165 19
-2322.7356 1271.5103 2634.2871 19
-2282.2996 1257.8259 2605.9363 19
-2176.2874 1207.5686 2501.8142 19
-2161.5352 1207.6073 2501.8943 19
-2217.7766 1247.583 2584.7151 19
-2122.8525 1202.4869 2491.2861 19
-2197.0671 1253.2388 2596.4326 19
-2107.1714 1210.4353 2507.7534 19
-2098.1514 1213.8119 2514.7488 19
-2087.1213 1216.0656 2519.418 19
-2073.6892 1216.942 2521.2336 19
-2056.0178 1215.3253 2517.8843 19
-2100.0552 1250.4279 2590.6091 19
-2080.6052 1247.967 2585.5107 19
-2061.9792 1245.9679 2581.3689 19
-2042.8889 1243.6558 2576.5789 19
-2140.5457 1312.9165 2720.0718 19
-2037.0527 1258.9159 2608.1943 19
-2107.459 1312.3822 2718.9646 19
-2013.441 1263.4913 2617.6738 19
-2071.8813 1310.2561 2714.5598 19
-1983.1047 1263.9242 2618.5706 19
-2040.6849 1310.8772 2715.8464 19
-1868.4828 1209.7979 2506.4326 19
-2008.0941 1310.608 2715.2891 19
-1821.5806 1198.4781 2482.9807 19
-1975.1489 1310.0952 2714.2266 19
-1958.8197 1309.9283 2713.8809 19
-1930.7061 1301.8129 2697.0674 19
-1794.3019 1219.9358 2527.4363 19
-1763.7542 1209.2577 2505.3135 19
-1790.9708 1238.3385 2565.5625 19
-1788.0455 1246.8976 2583.2949 19
-1790.142 1259.1366 2608.6516 19
-1759.3789 1248.2751 2586.1489 19
-1749.2106 1251.9628 2593.7891 19
-1817.0223 1312.0234 2718.2214 19
-1799.4486 1310.9523 2716.002 19
-1785.3334 1312.4039 2719.0098 19
-1769.3088 1312.4659 2719.1382 19
-1761.9982 1319.0522 2732.7837 19
-1735.4954 1311.2601 2716.6401 19
-1718.0947 1310.2637 2714.5757 19
-1703.5621 1311.4563 2717.0464 19
-1681.9469 1307.1672 2708.1604 19
-1663.2332 1305.0723 2703.8201 19
-1648.0115 1305.7031 2705.127 19
-1632.5714 1306.1718 2706.0979 19
-1617.1062 1306.6294 2707.0461 19
-1477.9927 1206.1869 2498.9517 19
-1591.2385 1311.7458 2717.6462 19
-1575.1155 1311.7267 2717.6064 19
-1568.1245 1319.3905 2733.4844 19
-1551.8652 1319.3348 2733.3689 19
-1535.624 1319.2936 2733.2834 19
-1519.439 1319.3 2733.2969 19
-1494.4448 1311.5756 2717.2935 19
-1403.983 1245.6006 2580.6079 19
-1401.2714 1256.8811 2603.9788 19
-1447.7526 1313.028 2720.3025 19
-1430.299 1311.8009 2717.7603 18
-1346.9497 1249.4214 2588.5239 18
-1359.72 1275.792 2643.1577 18
-1340.9004 1272.7916 2636.9417 18
-1365.7196 1311.6309 2717.4082 18
-1357.8147 1319.5939 2733.9058 18
-1341.6096 1319.5853 2733.8879 18
-1325.3818 1319.5537 2733.8225 18
-1309.2151 1319.5831 2733.8833 18
-1285.4486 1311.8572 2717.877 18
-1277.2225 1319.9962 2734.7393 18
-1261.6068 1320.6091 2736.009 18
-1245.6206 1320.845 2736.4978 18
-1222.613 1313.5436 2721.3708 18
-1177.2997 1281.7622 2655.5269 16
-1199.0035 1323.0718 2741.1111 16
-1149.3845 1285.7318 2663.751 16
-1131.0203 1282.8015 2657.6799 16
-1120.2676 1288.5433 2669.5759 16
-1110.9136 1296.0815 2685.1934 16
-1096.7739 1298.1743 2689.5291 16
-1104.4857 1326.574 2748.3667 16
-1066.9277 1300.6375 2694.6321 16
-1047.6489 1296.5345 2686.1318 16
-1031.2646 1295.9426 2684.9055 16
-1020.1443 1302.0509 2697.5605 16
-1007.0741 1305.8252 2705.3799 18
-998.56964 1315.7372 2725.9155 18
-925.40839 1239.3818 2567.7241 18
-961.14343 1308.7543 2711.4482 18
-950.59106 1316.3857 2727.259 18
-879.51526 1239.0187 2566.9717 19
-866.43256 1242.0643 2573.2815 19
-906.05292 1322.1241 2739.1479 19
-840.63336 1249.0331 2587.7195 19
-826.12372 1250.2751 2590.2925 19
-866.34033 1335.9556 2767.8035 19
-854.40198 1342.964 2782.3232 19
-843.72046 1352.2623 2801.5874 19
-826.76245 1351.6725 2800.3655 19
-814.10181 1358.2281 2813.9473 19
-798.77722 1360.5205 2818.6965 19
-737.92542 1283.7107 2659.5637 19
-771.1665 1370.8065 2840.0068 19
-756.14789 1374.0887 2846.8069 18
-740.74023 1376.7977 2852.4192 18
-725.74487 1380.4174 2859.9185 18
-712.33203 1387.2921 2874.1614 18
-697.46698 1391.6061 2883.0989 18
-683.26855 1397.5001 2895.3101 18
-666.32166 1397.9314 2896.2036 18
-651.43146 1402.8143 2906.3201 18
-593.59277 1312.965 2720.1721 18
-579.03607 1316.5079 2727.5122 18
-565.32556 1322.2333 2739.3738 18
-551.95618 1329.1183 2753.6382 18
-538.72791 1336.7731 2769.4971 18
-562.86273 1440.5319 2984.4624 18
-544.97052 1439.9729 2983.3042 18
-532.83942 1455.1091 3014.6631 18
-514.40485 1453.4844 3011.2971 18
-502.06979 1469.5966 3044.678 18
-482.61829 1465.303 3035.7827 18
-468.98276 1479.0188 3064.1987 18
-439.33887 1441.3212 2986.0974 18
-428.01511 1463.084 3031.1853 19
-411.01334 1466.4937 3038.2493 19
-396.71094 1480.2883 3066.8289 19
-379.82355 1485.2983 3077.2085 19
-361.26352 1483.943 3074.4004 19
-342.17242 1480.1466 3066.5352 19
-322.93042 1475.2349 3056.3591 19
-304.82861 1475.2579 3056.407 19
-287.69391 1480.2599 3066.77 19
-269.68817 1481.1525 3068.6191 19
-253.78064 1494.5302 3096.335 19
-233.93802 1485.0134 3076.6182 19
-218.34691 1503.1567 3114.207 19
-199.78067 1502.277 3112.3845 19
-181.38484 1502.6302 3113.1165 19
-163.85349 1511.0355 3130.5303 19
-145.75279 1515.6659 3140.1233 19
-127.3574 1518.1383 3145.2456 19
-108.7757 1518.8567 3146.7339 19
-90.844078 1530.8268 3171.5332 19
-72.179321 1533.4637 3176.9966 19
-53.125324 1526.7748 3163.1387 19
-34.350216 1525.1782 3159.8306 19
-15.667085 1528.7318 3167.1931 19
3.0957124 1528.5488 3166.8137 19
21.934614 1534.0023 3178.1123 19
40.650524 1529.7894 3169.3843 19
59.232979 1524.8032 3159.054 19
77.986069 1525.5493 3160.5996 19
96.864006 1527.9758 3165.627 19
116.0237 1533.339 3176.738 19
134.67854 1531.464 3172.8535 19
153.29318 1529.6473 3169.0898 19
173.41782 1541.6506 3193.958 19
192.25938 1541.0082 3192.627 19
210.78123 1538.1476 3186.7004 19
229.39767 1536.391 3183.061 19
248.65431 1538.863 3188.1826 19
266.91309 1535.2467 3180.6904 19
286.06235 1536.8914 3184.0979 19
304.34006 1533.9398 3177.9829 18
325.78583 1546.3695 3203.7344 18
344.74747 1546.2888 3203.5674 18
363.48425 1545.2606 3201.437 18
382.5112 1545.5067 3201.9468 18
397.98965 1532.0695 3174.1079 18
417.89151 1536.1045 3182.4675 18
437.46878 1538.6497 3187.7407 18
456.17209 1538.0372 3186.4719 18
472.5567 1529.9666 3169.7512 18
492.94055 1534.9661 3180.1091 18
510.41171 1530.8616 3171.6055 18
528.73016 1529.4994 3168.7834 18
547.23145 1528.7415 3167.2131 18
565.3775 1527.0743 3163.7593 18
584.19318 1527.2649 3164.1538 18
600.46411 1520.9976 3151.1694 16
618.86755 1520.3472 3149.8218 16
632.21753 1507.6832 3123.5852 16
651.5813 1509.6735 3127.7083 16
668.6673 1506.4221 3120.9722 16
686.06342 1504.0254 3116.0068 16
714.31616 1524.9312 3159.3191 16
720.34375 1498.5343 3104.6306 16
740.10065 1501.302 3110.3645 16
751.45477 1487.3041 3081.364 16
768.30316 1484.5867 3075.7341 16
791.18042 1493.3748 3093.9412 16
820.63306 1513.8953 3136.4551 18
833.73785 1504.0164 3115.988 18
838.80548 1480.3809 3067.0205 18
870.77802 1504.2246 3116.4197 18
872.03815 1475.1255 3056.1326 18
890.55969 1475.8154 3057.562 18
908.11731 1474.9124 3055.6909 17
922.05408 1468.2786 3041.9473 16
936.7392 1463.0682 3031.1526 16
958.29681 1468.5856 3042.5835 16
976.95276 1469.5349 3044.55 16
991.72437 1464.7126 3034.5596 16
1007.35 1461.301 3027.4915 16
1025.1128 1461.0549 3026.9814 16
1038.2667 1454.3612 3013.1135 16
1050.3848 1446.4673 2996.7593 16
1066.1107 1443.7217 2991.0708 16
1034.6361 1378.1921 2855.3081 16
1095.0608 1435.2162 2973.4495 16
1070.3109 1380.5702 2860.2351 16
1071.1907 1360.1714 2817.9734 16
1076.2004 1345.5624 2787.7065 16
1081.3466 1331.5627 2758.7026 16
1096.4269 1330.031 2755.5291 16
1109.5426 1326.1957 2747.5833 16
1126.8228 1327.377 2750.0305 16
1147.4188 1332.3752 2760.3857 16
1150.0604 1316.6771 2727.8628 16
1175.8867 1327.59 2750.4717 15
1189 1324.0475 2743.1326 16
1151.9624 1265.5066 2621.8489 18
1208.9231 1310.4126 2714.8843 18
1233.5872 1319.5913 2733.9004 19
1247.8015 1317.4989 2729.5652 18
1163.5231 1212.796 2512.6443 17
1172.4065 1206.6188 2499.8464 16
1167.3647 1186.443 2458.0464 16
1170.5895 1175.0624 2434.4685 14
1180.526 1170.6143 2425.2529 14
1186.3215 1162.2162 2407.854 65549
1191.2904 1153.2175 2389.2107 131082
1203.8409 1151.6832 2386.032 262147
1202.8962 1137.424 2356.49 1115140
1237.1664 1156.4081 2395.8208 4469287
1235.7314 1141.9656 2365.8992 6574142
1250.0747 1142.2644 2366.5183 7165761
1268.9423 1146.6449 2375.5938 7297346
1292.1238 1154.7848 2392.4578 7757642
1306.1995 1154.6985 2392.2788 8086094
1322.1652 1156.2666 2395.5278 8349779
1345.6732 1164.3275 2412.2283 8218193
1360.2347 1164.5596 2412.709 8020814
1365.0262 1156.5092 2396.0303 8019791
1380.3433 1157.4502 2397.98 7098945
1397.9807 1160.2982 2403.8804 7691082
1407.6207 1156.5178 2396.0483 7954254
1419.4851 1154.6223 2392.1211 8085839
1434.3311 1155.1655 2393.2466 8085840
1451.3701 1157.447 2397.9734 8217425
1462.6584 1155.1427 2393.1995 7888461
1475.486 1154.0864 2391.011 7625289
1493.42 1157.0067 2397.061 7362887
1509.9395 1158.786 2400.7476 7757645
1528.6292 1162.1824 2407.7839 7494473
1538.9576 1159.2177 2401.6418 7889231
1551.9298 1158.2805 2399.7002 8086610
1574.7961 1164.6779 2412.9539 8152402
1587.8278 1163.7518 2411.0356 7889233
1596.7285 1159.842 2402.9353 8152405
1615.8928 1163.3906 2410.2871 8086611
1641.2625 1171.3054 2426.6848 7955024
1645.9792 1164.4717 2412.5269 8086611
1660.0543 1164.3193 2412.2112 8020819
1685.8319 1172.3073 2428.7605 7823183
1689.0913 1164.6338 2412.8625 8349783
1702.8152 1164.2437 2412.0544 8547163
1723.3367 1168.4691 2420.8086 7955026
1733.1898 1165.451 2414.5559 8348757
1750.573 1167.5044 2418.8101 8085840
1772.4147 1172.4738 2429.1052 8546134
1783.5964 1170.3682 2424.7432 8283219
1813.608 1180.5533 2445.8445 8414805
1838.9517 1187.5626 2460.3662 8349012
1836.3629 1176.5653 2437.5823 8086096
1855.5479 1179.5811 2443.8303 7691595
1873.6572 1181.8718 2448.5762 7626060
1890.1154 1183.0939 2451.1079 7362632
1900.4126 1180.4702 2445.6724 7427912
1911.1361 1178.1492 2440.8635 7099460
1924.7119 1177.608 2439.7424 7691854
1943.26 1180.0946 2444.894 8086612
1958.4606 1180.5262 2445.7886 7428683
1956.1166 1170.454 2424.9209 7955028
1986.818 1180.1572 2445.0239 8086614
1987.0812 1171.7709 2427.6492 7691856
2010.2168 1176.8956 2438.2666 7362891
2011.8975 1169.4762 2422.895 6573375
2031.7672 1172.6598 2429.4907 7823442
2048.0603 1173.7487 2431.7468 7889236
2062.532 1173.7861 2431.8242 8020566
2077.9155 1174.3381 2432.968 7954773
2084.1118 1169.7262 2423.4131 8020565
2090.3813 1165.2181 2414.0735 7560014
2105.8174 1165.8463 2415.3748 8349530
2126.0398 1169.0979 2422.1113 8152407
2137.9639 1167.7732 2419.3669 8021077
2152.876 1168.0876 2420.0183 8218457
2168.8308 1168.9598 2421.8252 7955286
2173.0876 1163.5568 2410.6313 8152664
2225.4678 1183.8234 2452.6191 8415580
2226.9597 1176.9329 2438.3438 8086616
2265.2141 1189.4347 2464.2446 5060135
2269.5752 1184.0934 2453.1787 6836547
2276.6558 1180.23 2445.1746 7297097
2273.3994 1171.0906 2426.2397 5981750
2270.1296 1162.059 2407.5283 4665632
2283.467 1161.5883 2406.5532 5980977
2304.3738 1164.95 2413.5178 6178099
0 0 0 0
0 0 0 0
0 0 0 0
0 0 0 0
0 0 0 0
0 0 0 0
0 0 0 0
0 0 0 0
-2240.501 1233.261 2524.0635 19
-2178.1284 1206.984 2470.2834 19
-2202.4771 1228.7321 2514.7944 19
-2186.219 1227.9684 2513.2312 19
-2074.803 1173.3788 2401.5051 19
-2117.9797 1206.0669 2468.4065 19
-2137.113 1225.423 2508.0217 19
-1994.6846 1151.7618 2357.2627 19
-2015.9728 1172.2611 2399.2175 19
-2001.7439 1172.2521 2399.1992 19
-2004.8833 1182.4868 2420.1462 19
-1981.829 1177.3086 2409.5481 19
-1953.4536 1168.8713 2392.2798 19
-1957.2151 1179.6807 2414.4031 19
-2177.0305 1321.8309 2705.3359 19
-1924.489 1177.161 2409.2461 19
-1977.9658 1218.9115 2494.6951 19
-2127.3606 1320.8446 2703.3171 19
-2110.7556 1320.4755 2702.5618 19
-2082.7039 1312.8851 2687.0269 19
-2077.0579 1319.4105 2700.3821 19
-2060.5081 1319.057 2699.6587 19
-2043.9666 1318.7034 2698.9348 19
-2027.7789 1318.5743 2698.6707 19
-2011.265 1318.2292 2697.9646 19
-1984.6047 1311.1752 2683.5273 19
-1978.8484 1317.9297 2697.3513 19
-1962.7928 1317.8788 2697.2471 19
-1813.8839 1227.8929 2513.0771 19
-1788.8892 1220.9948 2498.9587 19
-1785.431 1228.8038 2514.9412 19
-1706.74 1184.5302 2424.3281 19
-1746.3046 1222.2747 2501.5781 19
-1746.864 1233.131 2523.7976 19
-1841.437 1311.1132 2683.4004 19
-1614.9832 1159.89 2373.8982 19
-1709.6912 1238.6967 2535.1885 19
-1677.7555 1226.3317 2509.8816 19
-1788.368 1318.8708 2699.2776 19
-1772.5431 1318.9945 2699.5308 19
-1631.0874 1224.7843 2506.7146 18
-1617.9525 1226.0841 2509.375 19
-1602.8302 1225.8882 2508.9739 19
-1709.1487 1319.4392 2700.4409 19
-1693.3212 1319.5723 2700.7131 19
-1668.8787 1312.9299 2687.1187 19
-1538.838 1222.2844 2501.5981 19
-1425.8073 1143.5179 2340.3901 18
-1517.2167 1228.7787 2514.8896 19
-1507.4478 1232.9744 2523.4771 19
-1452.7742 1200.158 2456.313 19
-1475.1993 1231.0143 2519.4651 19
-1465.0568 1235.0465 2527.7178 19
-1429.1112 1217.1855 2491.1626 19
-1444.0569 1242.7487 2543.4814 19
-1414.1003 1229.8005 2516.9812 19
-1419.3602 1247.5297 2553.2666 19
-1329.9094 1181.4993 2418.125 19
-1360.5079 1221.8445 2500.698 19
-1326.7961 1204.6868 2465.5818 19
-1267.6415 1163.7883 2381.8767 18
-1254.3607 1164.559 2383.4539 18
-1242.0801 1166.286 2386.9888 18
-1319.7346 1253.4728 2565.4302 18
-1301.6239 1250.6743 2559.7026 18
-1192.288 1159.1222 2372.3267 18
-1184.2583 1165.049 2384.4568 18
-1168.5945 1163.5178 2381.3232 18
-1225.567 1235.1539 2527.9377 18
-1141.1122 1164.2656 2382.8535 18
-1129.9059 1167.272 2389.0066 18
-1180.0621 1234.5507 2526.7031 18
-1115.7941 1182.3124 2419.7891 18
-1096.9469 1177.4695 2409.8774 18
-1085.9688 1181.0569 2417.2195 18
-1132.8463 1248.5024 2555.2576 17
-1070.8301 1196.1384 2448.0862 17
-1104.1725 1250.3164 2558.97 16
-1096.0095 1258.3497 2575.4116 16
-1088.728 1267.6361 2594.4177 16
-1062.1017 1254.3424 2567.21 16
-1005.4767 1204.7192 2465.6482 16
-991.75049 1205.7902 2467.8401 16
-984.91986 1215.4023 2487.5129 16
-970.14557 1215.3551 2487.4163 16
-956.97949 1217.3522 2491.5037 16
-960.45026 1240.9069 2539.7119 16
-950.82544 1248.0222 2554.2747 18
-970.40613 1294.322 2649.0344 18
-956.88989 1297.2737 2655.0757 18
-896.90839 1236.2775 2530.2371 18
-935.37897 1311.2181 2683.6152 18
-871.25598 1242.4479 2542.866 19
-903.32312 1310.8422 2682.8457 19
-895.49365 1322.7542 2707.2253 19
-880.11298 1323.743 2709.2495 19
-824.51947 1263.1628 2585.2625 19
-807.95441 1261.2125 2581.2708 19
-840.1308 1336.7401 2735.8499 19
-826.2207 1340.4678 2743.4792 19
-812.13477 1344.0543 2750.8196 19
-798.68176 1348.8564 2760.6479 19
-784.61359 1352.7988 2768.7166 19
-764.92938 1347.0198 2756.8889 19
-751.09027 1351.5062 2766.071 19
-738.42188 1358.3464 2780.0706 18
-723.94849 1362.1027 2787.7583 18
-719.26013 1384.8744 2834.3643 18
-705.49182 1390.8342 2846.562 18
-691.87695 1397.396 2859.9917 18
-674.92847 1397.385 2859.9692 18
-659.65082 1400.922 2867.2083 18
-639.26196 1393.5042 2852.0266 18
-604.66736 1353.8765 2770.9221 18
-574.7384 1322.775 2707.2681 18
-560.91351 1328.016 2717.9944 18
-576.5553 1405.3937 2876.3604 18
-535.13672 1344.1599 2751.0356 18
-558.28326 1446.3485 2960.1807 18
-546.70361 1462.2821 2992.7915 18
-516.77863 1428.5706 2923.7954 18
-508.79147 1455.2684 2978.4368 18
-489.81674 1451.328 2970.3723 18
-478.15158 1469.5597 3007.686 18
-459.43768 1466.7002 3001.8337 18
-436.06351 1448.1342 2963.8354 18
-426.55258 1475.9806 3020.8276 18
-407.29944 1471.0791 3010.7959 18
-386.67667 1460.5553 2989.2573 18
-371.76358 1471.6232 3011.9094 19
-358.181 1489.3392 3048.168 19
-340.70605 1491.8925 3053.3936 19
-320.52402 1482.2135 3033.584 19
-301.25659 1475.8652 3020.5916 19
-284.18369 1480.1454 3029.3513 19
-266.25647 1480.2529 3029.5715 19
-249.18196 1485.4594 3040.2273 19
-232.42232 1493.5004 3056.6846 19
-215.2766 1500.2096 3070.416 19
-197.20782 1501.1311 3072.302 19
-179.34196 1503.9419 3078.0547 19
-160.41959 1497.5259 3064.9233 19
-142.16556 1496.5076 3062.8394 19
-124.92494 1507.42 3085.1733 19
-108.03671 1527.0535 3125.3562 19
-89.27359 1522.8263 3116.7046 19
-70.769386 1521.963 3114.938 19
-52.36409 1523.3682 3117.8137 19
-33.89069 1523.2439 3117.5593 19
-15.439225 1524.9885 3121.1299 19
3.0485899 1523.757 3118.6094 19
21.557228 1526.1138 3123.4329 19
40.017532 1524.452 3120.032 19
58.35006 1520.5107 3111.9656 19
76.986359 1524.4773 3120.0837 19
95.236244 1520.7377 3112.4299 19
113.86162 1523.2344 3117.5398 19
133.60883 1537.9475 3147.6526 19
151.20389 1527.3179 3125.8972 19
171.00453 1538.8556 3149.511 19
189.72664 1539.3722 3150.5684 19
208.28468 1538.5845 3148.9563 19
225.89998 1531.5347 3134.5278 19
244.37813 1530.9615 3133.3547 19
265.39725 1545.2638 3162.6265 19
281.83109 1532.7428 3137.0005 19
300.17795 1531.5315 3134.5212 19
319.40656 1534.6979 3141.0017 19
337.51468 1532.4282 3136.3564 19
354.77774 1526.7588 3124.7529 18
374.95755 1533.5812 3138.7163 18
394.60721 1537.6929 3147.1316 18
413.32693 1537.9736 3147.7061 18
432.237 1538.9076 3149.6177 18
450.70575 1538.2581 3148.2883 18
467.34894 1531.6772 3134.8196 18
486.09253 1532.2201 3135.9304 18
504.67355 1532.2292 3135.9495 18
522.77032 1530.8201 3133.0652 18
539.64288 1526.0453 3123.293 18
556.95782 1522.7968 3116.644 18
572.21368 1514.3076 3099.2698 18
593.00043 1520.528 3112.0007 16
616.52911 1533.192 3137.9199 16
630.37146 1521.7317 3114.4644 16
654.49731 1535.0419 3141.7058 16
656.61591 1497.4279 3064.7229 16
675.26617 1498.5244 3066.967 16
705.65015 1524.9204 3120.9905 16
716.50983 1508.8533 3088.1067 16
726.57281 1491.9504 3053.5122 16
743.3598 1489.3402 3048.1702 16
755.01855 1476.8234 3022.5522 16
772.33185 1475.6902 3020.2332 16
784.6535 1465.287 2998.9414 18
802.25732 1464.9901 2998.3337 18
819.1488 1463.4332 2995.1475 18
835.56323 1461.1086 2990.3896 18
858.17712 1469.4958 3007.5557 17
875.32288 1468.369 3005.2493 17
889.73956 1462.8004 2993.8523 18
906.55341 1461.3136 2990.8093 16
926.54816 1464.913 2998.1758 16
942.57281 1462.218 2992.6602 16
960.37 1462.3215 2992.8721 16
978.31183 1462.6375 2993.5186 16
992.20654 1456.9993 2981.9792 16
1012.9236 1461.4011 2990.9885 16
1025.1942 1453.6753 2975.1763 16
1040.7029 1450.7245 2969.1367 16
1055.8713 1447.4052 2962.3433 16
1066.1166 1437.5558 2942.1851 16
1087.7939 1443.1907 2953.7178 16
1101.7803 1438.605 2944.3323 16
1061.7706 1364.7576 2793.1921 16
1070.7693 1355.2035 2773.6382 16
1072.6975 1337.1249 2736.6375 16
1080.6409 1326.9709 2715.8557 16
1099.7043 1330.5695 2723.2207 16
1113.3763 1327.6349 2717.2146 16
1138.3992 1338.1262 2738.6868 16
1144.7322 1326.6625 2715.2244 15
1154.5383 1319.4858 2700.5364 18
1167.9625 1316.584 2694.5972 18
1181.8916 1314.3217 2689.967 18
1152.5002 1264.5861 2588.1753 15
1223.7745 1325.162 2712.1536 16
1234.009 1318.9277 2699.394 16
1244.604 1313.2333 2687.7395 16
1171.4154 1220.396 2497.7332 16
1165.9802 1199.5806 2455.1311 16
1169.8993 1188.7833 2433.033 15
1179.4465 1183.8984 2423.0352 15
1183.687 1173.8682 2402.5066 65549
1183.1439 1159.3888 2372.8723 196622
1187.3357 1149.8346 2353.3184 196618
1196.8247 1145.5728 2344.5957 393222
1208.3606 1143.3453 2340.0371 1049863
1232.2155 1152.6925 2359.1675 3679521
1242.7587 1149.5171 2352.6685 6310718
1253.3662 1146.4709 2346.4338 7099973
1258.735 1138.7522 2330.6362 7494472
1275.9773 1141.8262 2336.9275 6967869
1294.5642 1146.0243 2345.52 7823178
1305.1628 1143.137 2339.6104 8086093
1327.7406 1150.6919 2355.0728 8020044
1344.5725 1153.1617 2360.1277 7953997
1351.8264 1147.4509 2348.4397 7822668
1367.5632 1148.9836 2351.5764 7757388
1381.5674 1149.0442 2351.7004 7625802
1393.2881 1147.2234 2347.9739 7889231
1409.973 1149.4857 2352.604 8217939
1422.5951 1148.4238 2350.4309 7691082
1447.6553 1157.3263 2368.6511 8414548
1464.5432 1159.5872 2373.2783 8809562
1471.5077 1154.0227 2361.8899 8546391
1491.7782 1158.8999 2371.8718 8349012
1505.4214 1158.5857 2371.2288 7955023
1516.4174 1156.2588 2366.4663 8152405
1527.2866 1153.8788 2361.5952 8481369
1551.33 1161.4048 2376.9983 8349783
1564.3695 1160.6313 2375.4155 8481368
1570.0015 1154.425 2362.7131 8612956
1586.3187 1156.116 2366.1741 8218198
1598.7253 1154.952 2363.7917 7823440
1615.2892 1156.7854 2367.5442 7955026
1634.4135 1160.4053 2374.9529 8152148
1649.6035 1161.194 2376.5669 8349783
1669.2826 1165.1023 2384.5659 8218198
1673.3966 1158.1724 2370.3828 8152404
1695.048 1163.3945 2381.0708 8086612
1703.4811 1159.5332 2373.168 8020048
1725.1353 1164.6606 2383.6621 8085842
1741.8107 1166.371 2387.1624 8085842
1752.8866 1164.3342 2382.9939 8348757
1776.4012 1170.5264 2395.6672 7690828
1776.1522 1161.0858 2376.3457 6703931
1786.8021 1158.8627 2371.7954 6374966
1821.0897 1171.885 2398.4478 7822413
1845.9731 1178.7008 2412.3975 7756620
1855.0554 1175.4 2405.6418 7427912
1879.6285 1181.8901 2418.925 6441017
1889.049 1178.8263 2412.6543 6704445
1907.8556 1181.6216 2418.3755 7493448
1918.9309 1179.6228 2414.2844 7888463
1939.325 1183.3396 2421.8914 8217684
1930.7952 1169.4827 2393.531 7691597
1943.1675 1168.3958 2391.3066 8020820
1972.5939 1177.5049 2409.9497 6047030
1982.5618 1174.9509 2404.7229 6638911
1990.1744 1171.0479 2396.7344 7099719
2009.4148 1173.9933 2402.7627 7099719
2009.6951 1165.8979 2386.1943 7165256
2023.8047 1165.8826 2386.1628 7823187
2038.7563 1166.3491 2387.1177 7757393
2052.1326 1165.9141 2386.2273 8086359
2067.0815 1166.3726 2387.1658 8152152
2078.5515 1164.8749 2384.1006 7954773
2087.9016 1162.2177 2378.6621 8020565
2116.9043 1170.462 2395.5356 8415324
2119.5457 1164.1183 2382.552 8283738
2124.1868 1158.9495 2371.9731 8086359
2123.2795 1150.8413 2355.3787 7888980
2154.144 1159.9473 2374.0154 7560528
2162.9385 1157.1281 2368.2456 8350047
2182.8054 1160.2306 2374.5952 8415837
2227.3948 1176.35 2407.5862 6705218
2253.104 1182.3566 2419.8794 7560271
2229.7544 1162.7054 2379.6604 8087125
2230.1799 1155.621 2365.1609 3415825
2295.5916 1182.0887 2419.3313 7429195
2288.1697 1170.9559 2396.5464 6836800
0 0 0 0
0 0 0 0
0 0 0 0
0 0 0 0
0 0 0 0
0 0 0 0
0 0 0 0
0 0 0 0
-2048.2854 1141.1282 2307.5208 19
-2033.7262 1140.6295 2306.5125 19
-2023.4265 1142.5294 2310.3542 19
-2010.52 1142.9731 2311.2515 19
-2001.5264 1145.6626 2316.6899 19
-1984.5872 1143.8099 2312.9436 19
-1981.4171 1149.9224 2325.304 19
-1928.9802 1127.3281 2279.6152 19
-1944.2579 1144.2677 2313.8694 19
-1908.9103 1131.4417 2287.9331 19
-1916.3524 1143.9753 2313.2783 19
-1901.9177 1143.5364 2312.3904 19
-1889.7997 1144.4939 2314.3267 19
-1875.6515 1144.2269 2313.7869 19
-1847.1809 1135.1545 2295.4412 19
-1852.7809 1147.0402 2319.4756 19
-1830.8074 1141.9054 2309.0925 19
-1806.1003 1134.9757 2295.0796 19
-1713.2644 1084.803 2193.6233 19
-1797.0774 1146.5686 2318.522 19
-1684.0802 1082.75 2189.4719 19
-1751.8961 1135.0938 2295.3181 19
-1739.2938 1135.7438 2296.6328 19
-1644.5419 1082.3383 2188.6394 19
-1635.0786 1084.662 2193.3381 19
-1640.7338 1097.1322 2218.5547 19
-1613.8995 1087.9032 2199.8926 19
-1602.358 1088.9167 2201.9419 19
-1592.801 1091.3063 2206.7739 19
-1585.0999 1095.0175 2214.2786 19
-1572.6869 1095.5087 2215.2717 19
-1559.5337 1095.4879 2215.2297 19
-1547.4309 1096.2109 2216.6919 19
-1533.6704 1095.7621 2215.7842 19
-1521.0586 1096.1332 2216.5347 19
-1509.8069 1097.4995 2219.2976 19
-1498.3832 1098.7637 2221.8538 18
-1488.7775 1101.3951 2227.175 18
-1476.0242 1101.7242 2227.8406 18
-1468.9554 1106.3407 2237.1758 18
-1456.6503 1107.0615 2238.6333 18
-1447.3771 1110.121 2244.8198 18
-1434.6296 1110.5479 2245.6831 18
-1424.3256 1112.8918 2250.4229 18
-1416.1108 1116.9279 2258.5845 18
-1403.6849 1117.688 2260.1213 18
-1388.6213 1116.342 2257.3997 19
-1375.2751 1116.364 2257.4443 19
-1372.542 1125.0862 2275.0815 19
-1351.7838 1119.0594 2262.8948 19
-1345.3267 1124.8694 2274.6433 19
-1337.1516 1129.3463 2283.696 19
-1320.5127 1126.6929 2278.3306 19
-1301.321 1121.7842 2268.4045 19
-1297.6621 1130.3025 2285.6296 19
-1285.0446 1131.115 2287.2727 19
-1274.3722 1133.6752 2292.4497 19
-1261.1158 1133.967 2293.04 19
-1249.7736 1136.0052 2297.1614 18
-1235.6722 1135.5527 2296.2463 18
-1226.7946 1139.9438 2305.126 18
-1212.4496 1139.2966 2303.8171 16
-1206.2488 1146.3744 2318.1294 16
-1196.5269 1150.2303 2325.9268 17
-1184.3297 1151.7692 2329.0383 17
-1172.5023 1153.7079 2332.9587 18
-1162.7272 1157.7363 2341.1047 18
-1151.6597 1160.5598 2346.8142 18
-1138.4858 1161.3037 2348.3184 18
-1124.799 1161.536 2348.7883 18
-1114.6279 1165.4504 2356.7039 18
-1097.9709 1162.5966 2350.9329 18
-1090.0938 1169.0851 2364.0537 18
-1074.3629 1167.2104 2360.2627 18
-1066.1317 1173.5414 2373.0647 18
-1110.2957 1238.486 2504.3918 16
-1099.2999 1242.8282 2513.1726 16
-1080.5125 1238.3599 2504.1367 16
-1075.1622 1249.3817 2526.4246 16
-1062.3186 1251.8842 2531.4849 16
-1050.3405 1255.4928 2538.782 16
-1038.1055 1258.8947 2545.6611 16
-1025.3282 1261.7296 2551.3938 16
-1013.3148 1265.6034 2559.2271 16
-1003.4111 1272.27 2572.708 16
-987.2326 1271.0632 2570.2678 16
-938.67957 1227.4838 2482.1438 16
-919.81696 1221.9601 2470.9741 18
-947.26575 1278.7766 2585.8652 18
-938.94904 1288.3853 2605.2952 18
-920.99866 1284.8751 2598.1973 18
-910.13519 1291.3008 2611.1907 18
-894.14819 1290.5536 2609.6797 18
-882.18243 1295.6862 2620.0586 18
-870.24078 1301.0385 2630.8818 18
-823.65491 1253.8474 2535.4548 18
-850.30688 1318.4637 2666.1182 19
-837.42798 1323.0706 2675.4336 19
-823.92767 1326.8544 2683.085 19
-811.08478 1331.8665 2693.2202 19
-799.05518 1338.4419 2706.5168 19
-786.10406 1343.7117 2717.1731 19
-769.70319 1343.1818 2716.1013 19
-755.69714 1346.8975 2723.615 19
-741.85443 1351.0726 2732.0579 19
-728.08093 1355.5631 2741.1382 18
-714.84875 1361.2893 2752.7173 18
-702.08777 1368.201 2766.6938 18
-658.57037 1314.0735 2657.2405 18
-639.34143 1306.9458 2642.8271 18
-622.51233 1304.489 2637.8591 18
-609.41235 1309.9213 2648.844 18
-596.5379 1316.1384 2661.416 18
-581.03571 1316.7382 2662.6287 18
-567.74048 1322.5123 2674.3049 18
-554.2218 1328.0826 2685.5688 18
-544.30676 1342.8727 2715.4763 18
-559.20819 1421.6536 2874.7822 18
-550.52203 1443.5344 2919.0283 18
-527.5943 1428.2803 2888.1826 18
-507.90988 1421.0779 2873.6184 18
-494.53308 1431.6364 2894.9688 18
-483.26529 1449.278 2930.6426 18
-463.22778 1440.9546 2913.8118 18
-445.18356 1438.4275 2908.7017 18
-439.3035 1476.5829 2985.8572 17
-420.0791 1471.2052 2974.9827 17
-402.46368 1471.2384 2975.0498 17
-381.8269 1459.7238 2951.7656 18
-367.14328 1470.9552 2974.4771 19
-350.74429 1476.0999 2984.8804 19
-336.11978 1489.6554 3012.2915 19
-316.21564 1480.0201 2992.8076 19
-296.0831 1468.1077 2968.719 19
-280.05386 1476.3214 2985.3284 19
-261.96729 1474.066 2980.7678 19
-244.77461 1476.8782 2986.4541 19
-228.65526 1487.1089 3007.1421 19
-212.18912 1496.6227 3026.3804 19
-194.12712 1495.5978 3024.3079 19
-176.75589 1500.2274 3033.6697 19
-159.8528 1510.328 3054.0945 19
-141.41104 1506.6139 3046.584 19
-122.97028 1501.8252 3036.9004 19
-105.84043 1514.1487 3061.8206 19
-87.848953 1516.6943 3066.968 19
-69.983215 1523.3042 3080.3342 19
-51.728256 1523.1169 3079.9556 19
-33.454285 1521.8606 3077.415 19
-15.210919 1520.6548 3074.9766 19
3.0090704 1522.2399 3078.1819 19
21.270098 1524.0442 3081.8306 19
39.613064 1527.3409 3088.4971 19
57.827522 1525.1652 3084.0974 19
75.764481 1518.4725 3070.564 19
93.790588 1515.8121 3065.1841 19
112.11359 1518.0348 3069.6787 19
131.3766 1530.5885 3095.0642 19
149.0425 1523.7393 3081.2139 19
168.8869 1538.2264 3110.509 19
187.47282 1539.5286 3113.1421 19
205.83839 1538.9501 3111.9722 19
223.12869 1531.088 3096.0742 19
240.55142 1525.2603 3084.2896 19
259.35147 1528.3719 3090.5818 19
278.28775 1531.8231 3097.5605 19
297.00323 1533.707 3101.3701 18
315.32446 1533.4542 3100.8589 18
334.06476 1535.155 3104.2981 18
352.69476 1536.1979 3106.407 18
369.29886 1528.751 3091.3481 18
387.12823 1526.8402 3087.4844 18
404.57257 1523.6517 3081.0369 18
426.23529 1535.9396 3105.8845 18
440.79544 1522.6754 3079.0625 18
463.54913 1537.6443 3109.3318 18
482.15399 1538.2328 3110.5217 18
501.20691 1540.1548 3114.4084 18
519.89398 1540.8562 3115.8267 18
536.77643 1536.3441 3106.7026 18
557.43286 1542.575 3119.3022 18
573.85535 1537.0656 3108.1614 17
594.96112 1544.0526 3122.2903 16
607.02734 1527.8662 3089.5591 16
624.20782 1525.1229 3084.0117 16
647.86499 1537.9102 3109.8694 16
667.51147 1540.7329 3115.5774 16
676.54944 1519.5763 3072.7957 16
687.97375 1504.7476 3042.8101 15
701.95575 1496.1278 3025.3796 15
719.15918 1494.6323 3022.3555 16
753.46686 1527.8936 3089.6145 16
751.91205 1488.5795 3010.116 16
766.70844 1482.7078 2998.2424 16
782.07855 1478.1864 2989.0999 18
795.19299 1469.6964 2971.9316 18
811.79791 1467.8855 2968.2698 18
831.4762 1471.5908 2975.7625 18
846.88788 1467.7479 2967.9915 18
866.59241 1471.3497 2975.2749 18
878.61804 1462.0303 2956.4297 17
896.89752 1463.2783 2958.9534 17
914.21863 1462.9448 2958.2791 16
930.18677 1460.4995 2953.3342 16
949.00616 1462.5388 2957.458 16
967.15631 1463.4915 2959.3843 16
983.34082 1461.4885 2955.3342 16
1001.8674 1462.9757 2958.3416 16
1021.704 1466.2921 2965.0476 16
1036.2441 1462.0236 2956.416 16
1051.6942 1459.1592 2950.6238 16
1062.7019 1450.3258 2932.7617 16
1079.7466 1449.8833 2931.8667 16
1086.453 1435.7921 2903.3726 16
1051.5997 1368.0734 2766.4355 16
1051.0563 1346.3831 2722.575 16
1056.6669 1333.1128 2695.7405 16
1069.6788 1329.4362 2688.3059 16
1096.5392 1342.8263 2715.3826 16
1111.9972 1342.0677 2713.8486 16
1129.3384 1343.5712 2716.8889 16
1135.7407 1332.2014 2693.8975 16
1144.9264 1324.3661 2678.0535 15
1155.3385 1318.1444 2665.4724 15
1186.9047 1335.9 2701.3767 16
1207.1786 1340.6425 2710.9666 16
1221.9773 1339.2596 2708.1704 16
1220.0243 1319.7913 2668.8025 17
1231.4946 1315.1562 2659.4297 16
1169.8303 1233.5216 2494.3533 16
1164.7855 1212.8813 2452.6157 16
1169.0216 1202.2946 2431.2078 16
1269.1234 1289.3597 2607.2659 16
1180.3423 1184.744 2395.718 15
1178.5663 1168.9061 2363.6917 65551
1185.8497 1162.3198 2350.3733 65550
1191.8872 1154.6793 2334.9231 196620
1193.7256 1143.1929 2311.6958 196617
1197.9901 1134.2639 2293.6404 327683
1209.8986 1132.6915 2290.4607 1904143
1228.9686 1137.7843 2300.759 4600622
1251.9969 1146.3896 2318.1604 6837831
1269.1139 1149.4543 2324.3574 8152918
1276.2312 1143.4935 2312.3037 8021331
1284.2002 1138.4143 2302.033 7889485
1301.527 1141.6503 2308.5764 7493957
1312.3468 1139.1705 2303.562 7888460
1331.906 1144.2499 2313.8333 7757389
1346.35 1144.876 2315.0994 7626059
1356.8521 1142.1713 2309.6301 7428680
1377.5897 1148.0505 2321.5188 8481366
1389.2697 1146.34 2318.0596 8677977
1401.5717 1145.171 2315.6958 8283732
1422.2013 1150.7628 2327.0034 7099458
1443.8622 1157.0739 2339.7651 8810333
1457.0688 1156.5542 2338.7144 8875870
1465.4508 1152.2509 2330.0122 8415062
1477.5885 1150.9532 2327.3884 8678747
1495.4919 1154.1293 2333.8108 9270885
1512.072 1156.2352 2338.0693 8481370
1522.4525 1153.6053 2332.7512 8415576
1539.0853 1155.7178 2337.0229 8086612
1548.6858 1152.5587 2330.635 8415577
1567.2494 1156.0674 2337.73 8086612
1578.4229 1154.111 2333.7737 7560011
1592.8263 1154.5295 2334.6204 7691854
1597.8698 1148.215 2321.8513 7823185
1615.2755 1150.8158 2327.1106 8875872
1627.9939 1150.0614 2325.585 7889233
1645.3513 1152.5695 2330.6565 7625804
1661.853 1154.4412 2334.4414 7625804
1676.8158 1155.2217 2336.0198 8152664
1696.2224 1159.0259 2343.7124 8020821
1706.5142 1156.5908 2338.7883 8218197
1726.0814 1160.4307 2346.5532 8152405
1749.9403 1167.0715 2359.9819 7626061
1751.2938 1158.7167 2343.0872 7691854
1772.1055 1163.2661 2352.2869 8349270
1798.0526 1171.0896 2368.1069 8151379
1819.0098 1175.5669 2377.1606 8217171
1820.3861 1167.418 2360.6826 7625291
1845.6373 1174.588 2375.1812 6704189
1842.0823 1163.4553 2352.6694 5519917
1849.3239 1159.2578 2344.1814 4927266
1868.0157 1162.2471 2350.2261 4861729
1883.5618 1163.2493 2352.2527 6177846
1899.6378 1164.5615 2354.9062 6967104
1915.0087 1165.4258 2356.6538 8020562
1965.5736 1187.5405 2401.373 7363146
1950.3705 1169.8878 2365.6768 7231304
1963.7609 1169.516 2364.9248 7691856
1983.027 1172.6239 2371.2095 8086614
1980.9742 1163.1703 2352.093 7691857
2011.5056 1172.8475 2371.6616 7231050
2014.7614 1166.5973 2359.0227 7362634
2013.3063 1157.7241 2341.0801 8217943
2036.4875 1163.0424 2351.8342 7954772
2050.5256 1163.1019 2351.9548 8020309
2060.8806 1161.0859 2347.8782 7954773
2076.1189 1161.8296 2349.3821 7823443
2089.4192 1161.4861 2348.6873 7889493
2091.311 1154.8472 2335.2625 8152665
2101.5693 1152.8853 2331.2952 7757907
2112.0774 1151.0851 2327.655 7034184
2128.0662 1152.2759 2330.063 7626580
2149.7349 1156.5071 2338.6191 7560528
2171.52 1160.7462 2347.1912 7494478
2183.6279 1159.7916 2345.2607 7165769
2187.4209 1154.4607 2334.481 7889491
2218.3555 1163.4312 2352.6206 7889746
2242.8508 1168.9338 2363.7476 7560268
2251.5662 1166.1949 2358.2092 7099715
0 0 0 0
0 0 0 0
0 0 0 0
0 0 0 0
0 0 0 0
0 0 0 0
0 0 0 0
0 0 0 0
-2253.9634 1270.7571 2539.2295 19
-2293.3157 1301.6305 2600.9209 19
-2202.6926 1258.6519 2515.0408 19
-2173.719 1250.5549 2498.8616 19
-2200.2795 1274.5154 2546.7393 19
-2160.8442 1260.3143 2518.3628 19
-2195.3918 1289.3667 2576.4153 19
-2127.1956 1258.061 2513.8604 19
-2057.009 1225.1289 2448.0552 19
-2082.4404 1249.0819 2495.9182 19
-2072.3733 1251.9329 2501.615 19
-2072.1008 1260.7845 2519.3025 19
-2057.0337 1260.6975 2519.1284 18
-1975.9594 1219.8594 2437.5256 18
-2027.7882 1261.072 2519.8767 19
-2019.6418 1265.3209 2528.3669 19
-2004.5795 1265.2681 2528.2615 19
-1919.7557 1220.8503 2439.5056 19
-1894.8666 1214.1626 2426.1423 19
-1895.5658 1223.8943 2445.5881 19
-1866.0802 1214.1365 2426.0901 19
-1866.1515 1223.6071 2445.0144 19
-1852.3323 1224.047 2445.8933 19
-1933.4952 1287.7542 2573.1931 19
-1957.5934 1314.1654 2625.968 19
-1846.7045 1249.6547 2497.0625 19
-1861.7257 1269.9928 2537.7024 19
-1862.0057 1280.5244 2558.7466 19
-1764.0551 1223.1199 2444.0408 19
-1749.5248 1223.0841 2443.9692 18
-1816.9818 1280.8429 2559.3831 18
-1702.6974 1210.381 2418.5859 19
-1751.2228 1255.4403 2508.6235 19
-1672.8207 1209.4987 2416.8228 19
-1634.7808 1192.1989 2382.2544 19
-1786.6046 1314.2656 2626.1685 19
-1688.4967 1253.0066 2503.7605 18
-1660.9618 1243.4971 2484.7585 18
-1671.7089 1262.7339 2523.1978 18
-1725.1091 1314.827 2627.2903 19
-1702.348 1309.2921 2616.2305 19
-1687.2106 1309.5728 2616.7913 19
-1672.0875 1309.8701 2617.3853 19
-1656.9714 1310.1785 2618.0015 19
-1641.6646 1310.3402 2618.3247 19
-1592.5266 1283.2444 2564.1816 19
-1611.7184 1311.2163 2620.0752 19
-1611.0372 1323.4076 2644.4358 19
-1586.6433 1316.1677 2629.969 18
-1566.5931 1312.4232 2622.4868 18
-1555.6929 1316.3458 2630.3252 18
-1536.4983 1313.2588 2624.1565 18
-1483.8252 1281.2015 2560.0999 18
-1506.2196 1313.9684 2625.5745 18
-1491.526 1314.7273 2627.0908 18
-1476.6124 1315.3062 2628.2476 18
-1461.3557 1315.5885 2628.8118 16
-1430.5192 1301.7001 2601.0598 17
-1415.201 1301.7839 2601.2275 18
-1399.9292 1301.9126 2601.4846 18
-1388.5295 1305.6853 2609.0232 18
-1373.1321 1305.7415 2609.1353 18
-1357.6713 1305.7379 2609.1282 18
-1342.2452 1305.7682 2609.1887 18
-1326.786 1305.7664 2609.1851 18
-1328.2223 1322.5884 2642.7988 18
-1295.9626 1305.8584 2609.3691 18
-1283.2365 1308.6448 2614.937 18
-1281.0199 1322.348 2642.3186 18
-1265.3661 1322.348 2642.3186 18
-1249.7719 1322.4109 2642.4443 18
-1234.241 1322.5432 2642.7087 18
-1218.8164 1322.7944 2643.2107 18
-1193.8503 1312.5619 2622.7639 18
-1188.6229 1324.047 2645.7136 17
-1125.6632 1270.6698 2539.0552 16
-1151.3339 1317.2493 2632.1304 16
-1136.5836 1318.2272 2634.0845 16
-1123.6832 1321.4076 2640.4395 16
-1109.0468 1322.6075 2642.8372 16
-1095.6298 1325.3167 2648.2507 16
-1044.4401 1281.7496 2561.1948 16
-1043.851 1299.9113 2597.4854 16
-1020.1907 1289.4556 2576.593 16
-1017.859 1306.0499 2609.7517 16
-1003.2315 1307.1355 2611.9211 16
-990.65094 1310.9641 2619.5713 18
-1018.0826 1368.7068 2734.9529 18
-949.24579 1296.801 2591.2705 18
-941.60779 1307.5116 2612.6724 18
-928.95227 1311.4965 2620.635 18
-915.2027 1314.0459 2625.7292 18
-912.93365 1333.4523 2664.5071 18
-881.89423 1310.7795 2619.2024 18
-868.27588 1313.6517 2624.9417 18
-872.17035 1343.6075 2684.7996 18
-859.82092 1349.1875 2695.9492 19
-847.22601 1354.5859 2706.7366 19
-834.29999 1359.6532 2716.8618 19
-822.0484 1366.0405 2729.6252 19
-808.68024 1370.7914 2739.1182 19
-796.09277 1377.0874 2751.699 19
-775.47058 1369.4575 2736.4529 19
-766.37012 1382.2833 2762.0815 19
-731.86603 1348.8491 2695.2732 19
-699.71338 1318.3539 2634.3376 18
-709.02075 1366.3657 2730.2749 18
-672.62408 1326.486 2650.5872 18
-648.25049 1308.9773 2615.6013 18
-633.07385 1309.6367 2616.9189 18
-619.65973 1314.0669 2625.7712 18
-605.02802 1316.0767 2629.7874 18
-591.53003 1320.724 2639.0737 18
-576.79816 1322.7939 2643.2097 18
-563.67377 1328.7689 2655.1489 18
-559.42706 1356.6152 2710.7915 18
-571.81036 1427.6274 2852.6882 18
-556.84778 1432.6118 2862.6479 17
-540.91803 1435.343 2868.1055 18
-526.45514 1442.2697 2881.9463 18
-507.93057 1438.1606 2873.7356 18
-489.40573 1433.7657 2864.9536 18
-478.01822 1450.7157 2898.8232 15
-463.37308 1458.6741 2914.7258 16
-443.64813 1450.6387 2898.6694 16
-425.81134 1448.3787 2894.1536 16
-412.24103 1461.0503 2919.4739 16
-399.17026 1476.6794 2950.7041 16
-382.3251 1479.1382 2955.6169 16
-366.85211 1487.3961 2972.1182 17
-349.47607 1488.3818 2974.0879 18
-331.61969 1487.3179 2971.9619 18
-313.96225 1487.0771 2971.4807 18
-295.79532 1484.251 2965.8335 19
-275.90982 1471.8999 2941.1536 19
-258.74667 1473.3855 2944.1221 19
-243.1459 1484.6259 2966.5825 19
-224.84256 1479.8302 2956.9998 19
-210.7767 1504.4702 3006.2356 19
-192.82886 1503.3926 3004.0823 19
-175.31229 1505.8 3008.8928 19
-158.05981 1511.2777 3019.8384 19
-139.17636 1500.5687 2998.4397 19
-121.21256 1498.0924 2993.4915 19
-103.55327 1499.1757 2995.656 19
-86.309044 1507.959 3013.207 19
-68.802879 1515.5531 3028.3813 19
-50.863098 1515.584 3028.4431 19
-32.895607 1514.3728 3026.0229 19
-14.98667 1516.1844 3029.6431 19
2.9636154 1517.2053 3031.6829 19
20.903345 1515.7083 3028.6914 19
38.975407 1520.7576 3038.781 19
56.922672 1519.2853 3035.8391 19
75.115219 1523.4949 3044.2507 19
92.952316 1520.2607 3037.7883 19
110.95087 1520.2883 3037.8435 19
128.8737 1519.4154 3036.0991 19
148.7173 1538.6285 3074.491 19
165.50546 1525.4867 3048.2307 19
183.66403 1526.319 3049.8938 19
201.23999 1522.5942 3042.4512 19
219.49867 1524.2227 3045.7051 19
238.07924 1527.6693 3052.592 19
255.67979 1524.7845 3046.8279 19
274.81381 1530.8225 3058.8928 19
292.81732 1530.2056 3057.6599 19
311.00784 1530.5807 3058.4097 19
328.61691 1528.2108 3053.6741 19
347.6199 1532.2321 3061.7095 19
364.34711 1526.3209 3049.8977 19
383.81833 1531.9204 3061.0867 19
401.62247 1530.6611 3058.5703 19
417.98999 1524.2716 3045.8027 18
434.9758 1520.5724 3038.4109 18
452.22739 1518.0592 3033.3892 18
469.11478 1514.5624 3026.4019 18
486.79233 1513.7803 3024.8389 18
504.35004 1512.694 3022.6685 18
521.33026 1510.0099 3017.3049 18
538.6842 1508.55 3014.3879 18
555.79779 1506.5326 3010.3567 18
572.87799 1504.5527 3006.4006 16
591.32111 1506.1639 3009.6199 16
607.49316 1502.0652 3001.4299 16
624.26233 1499.6342 2996.5723 16
640.71106 1496.5891 2990.4875 16
657.2381 1493.886 2985.0862 16
674.26581 1492.4326 2982.1819 16
691.22394 1490.9033 2979.1262 16
706.48322 1485.8772 2969.083 16
726.60791 1491.0797 2979.4788 16
743.20544 1488.9689 2975.2607 16
761.07092 1489.4374 2976.197 15
778.66937 1489.3737 2976.0698 18
792.02002 1481.368 2960.0728 18
811.58704 1485.0844 2967.4988 18
828.55542 1483.9888 2965.3096 18
841.49152 1475.8663 2949.0793 18
858.18085 1474.5232 2946.3955 18
872.67535 1469.5378 2936.4336 18
893.10657 1474.549 2946.4468 18
903.53754 1463.1736 2923.7166 16
925.14893 1469.9911 2937.3394 16
941.21503 1467.9084 2933.178 16
960.46332 1470.7743 2938.9043 16
977.72418 1470.549 2938.4541 16
993.84985 1468.6538 2934.6672 16
1014.5495 1473.4669 2944.2847 16
1026.0352 1464.9617 2927.2896 16
1046.5076 1469.3571 2936.0725 14
1054.6036 1456.5157 2910.4128 15
1065.3721 1447.719 2892.8352 14
1075.1343 1437.8549 2873.1248 15
1037.2526 1365.574 2728.6929 16
1035.0885 1341.8129 2681.2134 16
1044.5944 1333.6696 2664.9414 16
1058.0326 1330.7146 2659.0369 16
1079.7987 1338.1667 2673.9277 16
1088.1736 1329.048 2655.7065 16
1130.3792 1360.9197 2719.3928 16
1130.0544 1341.4108 2680.4099 16
1132.303 1325.4548 2648.5266 16
1143.7526 1320.5582 2638.7424 16
1158.5963 1319.6599 2636.9473 16
1175.2393 1320.8075 2639.2405 16
1202.3998 1333.59 2664.7825 16
1211.48 1326.248 2650.1118 16
1225.2727 1324.187 2645.9934 16
1232.1836 1314.8345 2627.3052 16
1162.5787 1225.0857 2447.969 16
1281.5201 1333.7842 2665.1704 16
1176.2303 1209.3009 2416.4277 16
1172.1283 1190.5934 2379.0461 13
1176.3315 1180.6661 2359.2097 65550
1184.5763 1174.9808 2347.8494 65549
