# .PCD v0.7 - Point Cloud Data file format
VERSION 0.7
FIELDS x y z rgb
SIZE 4 4 4 4
TYPE F F F U
COUNT 1 1 1 1
WIDTH 1373
HEIGHT 1
VIEWPOINT 0 0 0 1 0 0 0
POINTS 1373
DATA ascii
2133.1611 1263.2959 4491.6631 10453869
2161.7117 1264.4312 4495.6997 10453612
2160.375 1248.27 4438.2383 9795683
2178.9912 1243.8877 4422.6567 9993319
2196.4827 1238.9749 4405.189 10519922
2252.9319 1255.8945 4465.3472 9927529
2273.2734 1252.5267 4453.373 9006682
2357.0239 1283.7726 4564.4683 8545875
2414.166 1299.9814 4622.0991 8019787
2438.9834 1298.6157 4617.2432 8743252
2453.7776 1292.0028 4593.731 8545873
2470.1687 1286.3665 4573.6909 8677459
2495.7666 1285.5951 4570.9478 8874580
2504.0918 1276.0382 4536.9688 9006422
2537.4773 1279.3192 4548.6338 9401181
2519.2466 1256.7811 4468.5 9664352
2527.5776 1247.8251 4436.6562 11374973
2553.1643 1247.4845 4435.4453 11573124
2588.1741 1251.7081 4450.4624 10519154
2622.0466 1255.3021 4463.2407 10914164
2660.6736 1261.0778 4483.7764 12164486
2677.6216 1256.5656 4467.7334 11440503
2762.0483 1283.4985 4563.4937 10453864
2747.4531 1264.3408 4495.3784 9664093
2767.6765 1261.4202 4484.9937 8545872
2869.8542 1295.552 4606.3501 9071963
2879.5508 1287.6849 4578.3784 8809305
2893.425 1281.8156 4557.5098 8743512
2944.8713 1292.5454 4595.6602 8546391
2974.4832 1293.5831 4599.3496 8020047
2981.7083 1284.9545 4568.6704 8217426
3053.3015 1303.9708 4636.2832 8612437
3093.8308 1309.4998 4655.9414 8414802
3163.9094 1327.3276 4719.3286 8677461
3151.5388 1310.557 4659.7007 9072219
3196.8271 1317.8467 4685.6191 9072220
3230.0015 1320.0599 4693.4883 8414289
3246.0073 1315.2788 4676.4888 9466975
3262.8599 1310.9188 4660.9868 10322284
3231.3892 1287.3801 4577.2949 11111801
3289.3489 1299.5656 4620.6201 11506814
3335.259 1306.8286 4646.4438 11441021
3330.3528 1294.2247 4601.6309 11045751
3363.4688 1296.4814 4609.6548 10387567
3373.0642 1289.7087 4585.5742 10058858
3418.0398 1296.464 4609.5923 10058602
3414.8052 1284.9708 4568.7285 10387311
3401.8948 1270.0463 4515.6641 6308920
3389.6267 1255.5924 4464.2734 4334877
3436.9187 1263.254 4491.5142 6506294
3409.8335 1243.6702 4421.8833 6571059
3277.2905 1186.2145 4217.5991 5188893
3360.0107 1206.9534 4291.3364 8412746
3383.0691 1206.1102 4288.3389 11109487
3309.5149 1171.093 4163.8345 13478286
3275.666 1150.5398 4090.7573 13481623
3315.2141 1155.8789 4109.7407 14007710
3356.8584 1161.8658 4131.0273 12751223
3446.3831 1184.2183 4210.5015 12356978
3461.7375 1180.9469 4198.8701 12357489
3521.6497 1192.8143 4241.0649 12489848
3589.1465 1207.0643 4291.731 12818812
3829.2468 1278.7539 4546.624 13543820
3872.9558 1284.3162 4566.4009 12426109
3956.5488 1302.9357 4632.6025 11044968
3997.218 1307.2606 4647.98 10914148
3959.6284 1286.1075 4572.77 9203533
3865.3762 1246.9628 4433.5903 9729110
3804.6106 1219.0763 4334.4395 4537377
3951.011 1257.4988 4471.0513 14275509
3915.0837 1237.7661 4400.8916 14011566
3917.5154 1230.3417 4374.4937 13549475
3975.792 1240.4382 4410.3921 12949892
4004.0042 1241.0842 4412.689 7553336
4049.2615 1246.9708 4433.6191 7622717
4021.7983 1230.5317 4375.1694 9333581
4055.4153 1232.8717 4383.4897 11374184
4110.0449 1241.5293 4414.272 12229492
4229.4229 1269.5125 4513.7661 12821372
4206.6152 1254.7334 4461.2192 13677196
4284.9561 1270.1207 4515.9287 10847849
4295.0996 1265.2279 4498.5322 10584687
0 0 0 0
0 0 0 0
0 0 0 0
0 0 0 0
0 0 0 0
-4448.583 1410.9707 4913.2319 16
-4488.8491 1433.119 4990.356 16
-4391.1499 1411.2217 4914.106 16
-4163.4536 1346.9751 4690.3887 16
-4137.6846 1347.6324 4692.6777 16
-4080.707 1338.0652 4659.3628 16
-4134.3521 1364.8879 4752.7642 16
-4021.5503 1336.7521 4654.7905 14
-3997.9353 1338.0778 4659.4067 14
-3989.7249 1344.6135 4682.1655 14
-3959.0796 1343.627 4678.73 14
-3920.1021 1339.7787 4665.3296 14
-3899.6709 1342.2595 4673.9683 14
-3851.9919 1335.33 4649.8384 14
-3834.9509 1338.998 4662.6113 14
-3824.8516 1345.1608 4684.0708 14
-3767.5227 1334.682 4647.582 14
-3737.9634 1333.959 4645.0645 14
-3709.8286 1333.7374 4644.293 14
-3681.5938 1333.4762 4643.3833 14
-3673.2832 1340.4821 4667.7788 14
-3629.0852 1334.3987 4646.5952 14
-3605.7485 1335.9513 4652.002 14
-3714.6572 1386.9031 4829.4243 14
-3684.3608 1386.2687 4827.2153 15
-3594.916 1363.1953 4746.8701 16
-3617.9512 1382.7469 4814.9521 16
-3587.991 1382.1941 4813.0269 16
-3440.9509 1336.1685 4652.7583 17
-3421.0862 1339.1825 4663.2534 17
-3373.9817 1331.4956 4636.4863 17
-3463.6777 1378.1121 4798.813 18
-3412.335 1368.9199 4766.8042 18
-3412.4983 1380.4094 4806.8125 18
-3241.5962 1322.3112 4604.5049 18
-3313.4019 1363.0725 4746.4424 18
-3093.5999 1283.5427 4469.5063 18
-3066.0283 1283.0852 4467.9136 18
-3040.981 1283.6852 4470.0029 19
-3014.2041 1283.5594 4469.5649 18
-2989.3787 1284.2697 4472.0381 18
-2962.8491 1284.2539 4471.9834 18
-3000.2158 1312.1838 4569.2397 19
-2976.8889 1313.8356 4574.9912 19
-2951.5881 1314.6384 4577.7871 19
-2919.8977 1312.5837 4570.6323 19
-2891.762 1312.1036 4568.9604 19
-2861.3689 1310.5803 4563.6562 19
-2834.0681 1310.458 4563.23 19
-2806.5078 1310.2122 4562.374 19
-2779.4526 1310.1996 4562.3301 19
-2750.1772 1309.1299 4558.6055 19
-2724.1572 1309.604 4560.2563 19
-2696.5107 1309.2979 4559.1904 19
-2673.2974 1311.1598 4565.6738 19
-2642.6289 1309.366 4559.4277 19
-2611.7192 1307.4144 4552.6318 19
-2580.2722 1305.1504 4544.748 19
-2567.8896 1312.5833 4570.6304 19
-2538.5344 1311.4066 4566.5332 19
-2502.9185 1306.9353 4550.9634 19
-2476.5586 1307.2527 4552.0684 19
-2444.3252 1304.4424 4542.2827 19
-2420.0972 1305.8893 4547.3213 19
-2396.0425 1307.4635 4552.8027 19
-2372.0442 1309.1045 4558.5171 19
-2346.3816 1309.8542 4561.1279 19
-2321.8254 1311.2465 4565.9756 19
-2295.7896 1311.8257 4567.9927 19
-2273.3879 1314.5204 4577.376 19
-2246.1128 1314.4281 4577.0547 20
-2222.8477 1316.7089 4584.9966 21
-2196.333 1317.0974 4586.3496 21
-2173.416 1319.6802 4595.3433 21
-2148.8918 1321.3402 4601.1235 21
-2125.9729 1324.0425 4610.5337 21
-2093.094 1320.5316 4598.3081 21
-2068.3601 1322.1344 4603.8892 21
-2054.7173 1330.9645 4634.6372 21
-2028.3177 1331.6584 4637.0537 21
-2002.7528 1332.9271 4641.4712 19
-1976.0636 1333.4723 4643.3696 19
-1948.006 1333.0963 4642.0605 19
-1923.3639 1335.0807 4648.9702 19
-1898.454 1336.9338 4655.4233 19
-1873.3293 1338.6884 4661.5327 19
-1847.5503 1340.0205 4666.1719 19
-1821.4814 1341.1802 4670.2095 19
-1788.577 1337.2645 4656.5747 18
-1762.3177 1338.2725 4660.0845 19
-1741.6793 1343.6488 4678.8057 19
-1714.8571 1344.3512 4681.2515 19
-1688.6548 1345.5708 4685.4985 19
-1661.1553 1345.7802 4686.2275 19
-1636.3055 1348.1798 4694.5835 19
-1608.4255 1348.1226 4694.3843 19
-1584.4447 1351.389 4705.7588 19
-1558.887 1353.4036 4712.7734 19
-1533.2529 1355.424 4719.8086 19
-1505.3331 1355.4611 4719.9385 19
-1478.0635 1356.0964 4722.1504 21
-1451.1547 1357.0935 4725.6226 21
-1424.7762 1358.6356 4730.9927 21
-1400.5145 1362.2987 4743.748 21
-1373.239 1363.12 4746.6079 21
-1345.5647 1363.5717 4748.1807 21
-1315.3308 1361.3934 4740.5957 21
-1286.6351 1360.7469 4738.3442 21
-1260.4619 1362.7987 4745.4893 20
-1224.8296 1354.4839 4716.5356 21
-1197.6548 1355.3519 4719.5581 21
-1170.3245 1356.0812 4722.0977 20
-1142.5306 1356.296 4722.8457 20
-1115.8083 1357.8256 4728.1719 19
-1091.0641 1361.9028 4742.3696 19
-1064.8689 1364.3367 4750.8447 19
-1037.4176 1365.2498 4754.0239 19
-1009.283 1365.2894 4754.1621 19
-979.56903 1363.1337 4746.6553 19
-953.49115 1366.0598 4756.8447 19
-928.98688 1371.4873 4775.7441 19
-900.31586 1370.9109 4773.7373 19
-872.68646 1371.9349 4777.3027 18
-849.05853 1379.5289 4803.7466 18
-825.81873 1388.3021 4834.2964 21
-797.1377 1388.2299 4834.0444 21
-768.94769 1389.0389 4836.8618 21
-742.07611 1392.3846 4848.5122 21
-678.49182 1324.3407 4611.5718 21
-677.56238 1378.0132 4798.4683 21
-657.09503 1394.9108 4857.3086 21
-631.76282 1402.5558 4883.9297 21
-604.22601 1405.8053 4895.2451 21
-577.08826 1410.3579 4911.0981 21
-548.77698 1412.3734 4918.1162 21
-526.76782 1431.7441 4985.5684 21
-506.21954 1457.6227 5075.6816 21
-476.17648 1457.7035 5075.9634 21
-430.96335 1408.2253 4903.6719 21
-405.65662 1421.3427 4949.3486 21
-374.20068 1413.2797 4921.272 21
-343.80994 1408.217 4903.6431 21
-315.33936 1410.8105 4912.6743 21
-286.91687 1414.1686 4924.3677 21
-258.82748 1420.1144 4945.0718 21
-229.73721 1421.3857 4949.4985 21
-204.02161 1446.9626 5038.5615 21
-173.70169 1443.0552 5024.9551 21
-141.92314 1422.9072 4954.7969 21
-114.6475 1449.1699 5046.2476 21
-84.657761 1447.5519 5040.6133 21
-55.094158 1455.4276 5068.0381 21
-24.431553 1418.3654 4938.9814 21
4.8221183 1416.6108 4932.8716 21
34.033295 1416.1003 4931.0938 21
63.148067 1413.9028 4923.4419 21
92.370094 1414.7367 4926.3457 19
121.33817 1412.2146 4917.563 19
150.28418 1410.4617 4911.4595 19
179.26672 1409.5649 4908.3369 19
208.32005 1409.3973 4907.7534 19
236.39151 1403.4417 4887.0142 19
264.76715 1400.3943 4876.4033 19
293.20114 1398.2249 4868.8486 19
321.31616 1395.059 4857.8247 19
350.0166 1394.7467 4856.7373 19
377.30661 1389.2882 4837.73 19
405.1937 1386.6439 4828.522 19
432.45511 1382.3483 4813.5635 19
459.17996 1376.9751 4794.8535 19
486.08841 1372.7466 4780.1289 19
512.37427 1367.322 4761.2397 19
538.88879 1363.0419 4746.3359 18
548.3562 1318.2064 4590.2114 18
571.74585 1309.4945 4559.875 18
597.11401 1305.8956 4547.3433 18
622.77679 1303.224 4538.04 18
648.42853 1300.7512 4529.4297 18
672.98389 1296.3632 4514.1494 18
702.18219 1300.9124 4529.9907 18
727.61261 1298.403 4521.2524 16
756.57147 1302.1445 4534.2812 16
782.95831 1301.3545 4531.5303 15
804.51819 1292.8601 4501.9512 65549
819.46008 1274.6168 4438.4253 262152
841.52655 1268.2452 4416.2383 327681
0 0 0 0
885.2489 1256.0386 4373.7324 7494224
921.27124 1269.9772 4422.269 9664876
953.52979 1278.0999 4450.5537 9467238
971.46777 1267.1069 4412.2744 9270116
998.24011 1267.911 4415.0742 9072224
1021.0299 1263.7448 4400.5669 9138271
1048.6952 1265.6702 4407.2715 9598566
1069.4088 1259.3158 4385.1445 9598822
1092.9637 1256.5294 4375.4419 9533029
1117.1202 1254.5477 4368.5415 9269857
1144.3381 1256.016 4373.6538 9072478
1170.4603 1256.243 4374.4448 8875099
1190.1469 1249.7028 4351.6704 9072222
1218.5918 1252.4415 4361.207 9006684
1242.5706 1250.5715 4354.6953 8677720
1266.1444 1248.3783 4347.0586 8743769
1296.301 1252.6338 4361.8765 8940891
1323.9249 1254.3231 4367.7593 9335648
1348.2673 1252.8983 4362.7979 9138268
1371.6456 1250.6481 4354.9624 8875097
1402.407 1255.0885 4370.4243 8546132
1429.7347 1256.3507 4374.8193 8677461
1464.7891 1264.2367 4402.2798 9138012
1472.7482 1248.8704 4348.7715 8875097
1507.4158 1256.2914 4374.6128 8940890
1536.2496 1258.6819 4382.937 9138012
1569.0298 1264.1724 4402.0562 8282960
1589.9463 1260.0812 4387.8096 8743511
1625.1296 1267.2465 4412.7607 8874840
1651.2883 1267.2592 4412.8047 9203807
1666.4635 1258.9738 4383.9536 9204064
1693.3738 1259.6719 4386.3848 9401443
1726.6171 1264.9889 4404.8994 9664614
1718.4144 1240.2349 4318.7017 9072221
1769.9299 1258.6753 4382.9141 8546392
1803.2234 1263.8112 4400.7983 8743770
1832.9604 1266.3439 4409.6172 8481366
1855.3729 1263.8158 4400.8145 9007195
1902.7972 1278.1592 4450.7603 7164993
1875.4902 1242.5975 4326.9287 1443587
1887.9645 1233.9963 4296.978 851968
1877.5364 1210.8539 4216.3921 4401952
1898.0045 1207.983 4206.3955 6967099
1909.0664 1199.2776 4176.0815 12099208
1930.8887 1197.4681 4169.7808 10519661
1958.2465 1199.0939 4175.4419 11046262
1982.1046 1198.563 4173.5933 11243385
2000.5031 1194.7843 4160.4351 11243643
2037.6487 1202.1578 4186.1113 11309435
2082.896 1214.0765 4227.6138 11111800
2098.949 1208.8973 4209.5791 10388076
2099.0671 1194.7698 4160.3848 10782835
2178.4724 1225.5759 4267.6567 9269852
2234.9312 1242.9139 4328.0308 9006681
2323.8394 1277.7002 4449.1621 7953992
2300.8496 1250.8719 4355.7417 7888713
2401.105 1290.8989 4495.1221 8612437
2415.8997 1284.6057 4473.208 7362627
2404.0691 1264.4452 4403.0059 8085836
2402.9597 1250.2958 4353.7354 8085323
2427.3345 1249.5659 4351.1938 8677204
2450.0237 1247.9928 4345.7158 9006171
2496.2576 1258.3209 4381.6802 11505793
2518.7988 1256.6163 4375.7446 9926763
2556.8811 1262.6207 4396.6528 7952719
2549.5151 1246.2875 4339.7778 9466725
2595.4026 1256.0525 4373.7812 8676693
2573.5068 1233.1449 4294.0132 11506303
2643.5791 1254.3225 4367.7573 12690318
2691.6499 1264.7517 4404.0732 13085586
2690.3667 1252.0127 4359.7139 11967103
2739.1667 1262.6016 4396.5859 11703932
2757.498 1259.0789 4384.3193 10322538
2824.469 1277.6235 4448.895 8941146
2878.0181 1289.8102 4491.3311 8415059
2836.7917 1259.6884 4386.4419 8612184
2963.5371 1304.0247 4540.8281 9006942
2954.0437 1288.1544 4485.5654 8415059
3015.1328 1303.0713 4537.5083 8546132
3011.7727 1290.1172 4492.3999 8019786
3042.7473 1291.9686 4498.8472 8085579
3078.8999 1295.9675 4512.772 8085580
3133.4102 1307.5582 4553.1328 8085579
3149.6182 1303.1041 4537.6226 7558980
3202.7229 1313.8615 4575.0815 6374704
3241.3682 1318.5564 4591.4302 6834741
3260.272 1315.2095 4579.7754 9005653
3245.6902 1298.5211 4521.6636 9927012
3247.5981 1288.6487 4487.2866 10650220
3299.355 1298.5563 4521.7866 11308405
3335.8928 1302.3628 4535.041 10583914
3339.2053 1293.2405 4503.2759 9795172
3333.0681 1280.6321 4459.3716 2494731
3278.9312 1249.9244 4352.4424 983040
3287.5132 1243.418 4329.7856 983296
3288.7776 1234.2659 4297.9165 4270108
3246.0649 1208.8768 4209.5078 4664094
3234.2942 1195.3102 4162.2666 3874061
3239.7812 1188.2787 4137.7817 3610632
3232.1631 1176.582 4097.0522 4202768
3208.8086 1159.3743 4037.1318 7888452
3271.8406 1173.4025 4085.98 14143656
3312.6062 1179.2976 4106.5078 14012068
3349.623 1183.7819 4122.123 13283724
3349.1599 1175.0515 4091.7224 13014141
3436.8442 1197.151 4168.6763 12620406
3477.1765 1202.5585 4187.5063 11634025
3508.199 1204.6927 4194.938 12686711
3557.1387 1212.9061 4223.5386 8872262
3668.6226 1242.182 4325.4819 7821375
3860.2996 1298.0167 4519.9072 7952962
3968.6726 1325.264 4614.7871 8940373
3915.7898 1298.6589 4522.1436 8414540
3817.2922 1257.3898 4378.438 5191715
3798.4055 1242.7242 4327.3701 7231811
3817.4929 1240.5959 4319.959 9930348
3848.3152 1242.2842 4325.8379 12825496
3902.293 1251.3756 4357.4956 14207406
3913.342 1246.6716 4341.1157 13875877
3933.0278 1244.7627 4334.4683 7555133
4061.8735 1277.2023 4447.4282 7296324
4074.7139 1272.9825 4432.7344 6901054
4004.8848 1243.1553 4328.8711 8282707
3941.9788 1215.843 4233.7651 8414036
3979.854 1219.7642 4247.4189 9137501
3983.1958 1213.1183 4224.2773 8939864
4028.2537 1219.1812 4245.3892 9466207
4093.2664 1231.1709 4287.1396 9663589
0 0 0 0
0 0 0 0
0 0 0 0
0 0 0 0
0 0 0 0
-3922.2747 1269.7034 4331.9512 16
-3896.8386 1269.7775 4332.2041 16
-3978.2124 1304.887 4451.9902 16
-3941.9309 1301.6158 4440.8296 16
-3969.0815 1319.3866 4501.4595 16
-3890.3567 1301.9648 4442.0205 16
-3777.3518 1272.7554 4342.3643 16
-3752.032 1272.8929 4342.8335 14
-3702.3088 1264.6963 4314.8682 14
-3694.2219 1270.7073 4335.3765 14
-3636.2515 1259.5237 4297.2207 14
-3626.7854 1265.1019 4316.2524 14
-3597.395 1263.76 4311.6738 14
-3574.6038 1264.7338 4314.9961 14
-3626.0945 1292.1926 4408.6797 270
-3524.9795 1265.2727 4316.835 270
-3501.6392 1266.0803 4319.5903 14
-3471.0723 1264.2677 4313.4062 14
-3456.9622 1268.4668 4327.7324 14
-3436.2234 1270.2781 4333.9121 14
-3417.5605 1272.8898 4342.8228 14
-3383.9917 1269.9473 4332.7832 13
-3367.3013 1273.3422 4344.3662 13
-3329.1953 1268.6288 4328.2852 17
-3300.6396 1267.5099 4324.4678 16
-3220.6602 1246.4711 4252.688 16
-3248.8098 1267.2791 4323.6802 16
-3222.271 1266.9156 4322.4404 15
-3195.6968 1266.5325 4321.1328 18
-3169.0474 1266.1129 4319.7017 18
-2863.2021 1153.2328 3934.5791 18
-2840.3965 1153.4373 3935.2766 18
-2805.5996 1148.7355 3919.2351 18
-2842.0945 1173.3887 4003.3469 18
-2767.447 1152.1846 3931.0029 18
-2750.969 1155.0439 3940.7583 18
-2729.4592 1155.8214 3943.4111 18
-2707.3762 1156.3676 3945.2744 18
-2959.0027 1274.8473 4349.5015 19
-2664.0317 1157.8457 3950.3174 19
-2651.8252 1162.7549 3967.0664 19
-2635.2781 1165.8315 3977.5632 19
-2613.0251 1166.4169 3979.5601 19
-2592.2207 1167.665 3983.8191 19
-2577.0332 1171.4899 3996.8682 19
-2553.1423 1171.3922 3996.5354 19
-2532.6704 1172.8763 4001.5986 19
-2498.3806 1167.929 3984.719 19
-2485.2524 1172.8739 4001.5903 19
-2672.7783 1273.5215 4344.978 19
-2448.3799 1177.9448 4018.8914 19
-2409.7539 1170.7461 3994.3308 19
-2385.083 1170.2518 3992.6443 19
-2364.3621 1171.705 3997.6021 19
-2326.9363 1164.8253 3974.1304 19
-2532.585 1280.7278 4369.5645 19
-2507.3528 1281.0621 4370.7051 19
-2461.4097 1270.7113 4335.3901 19
-2446.6248 1276.3971 4354.7891 19
-2421.5056 1276.7555 4356.0117 19
-2399.322 1278.686 4362.5981 19
-2372.8164 1278.3301 4361.3838 19
-2353.5496 1281.9091 4373.5947 19
-2327.512 1281.8389 4373.355 19
-2310.2449 1286.6517 4389.7754 19
-2283.3159 1286.132 4388.002 19
-2250.1506 1282.0468 4374.0645 19
-2224.4509 1282.1697 4374.4839 19
-2215.0593 1291.8063 4407.3618 19
-2187.2278 1290.7905 4403.896 19
-2162.8528 1291.8147 4407.3901 21
-2142.5764 1295.3417 4419.4238 21
-2118.377 1296.5548 4423.563 21
-2099.0127 1300.795 4438.0293 21
-2076.0208 1302.866 4445.0952 21
-2052.0352 1304.3585 4450.187 21
-2030.8625 1307.7012 4461.5918 21
-2009.5464 1311.0386 4472.978 21
-1986.1807 1313.11 4480.0454 21
-1962.5868 1315.0846 4486.7822 20
-1937.5514 1316.1344 4490.3638 19
-1913.3462 1317.785 4495.9956 19
-1891.1605 1320.8929 4506.5991 19
-1866.481 1322.323 4511.478 19
-1837.2133 1320.4968 4505.2476 19
-1813.7267 1322.8334 4513.2192 19
-1789.881 1324.9738 4520.522 19
-1765.3142 1326.6376 4526.1987 19
-1744.725 1331.3878 4542.4053 18
-1711.87 1326.7804 4526.6855 19
-1689.6793 1330.4231 4539.1138 19
-1662.9987 1330.5912 4539.6875 19
-1643.0327 1336.2257 4558.9111 19
-1618.5193 1338.2885 4565.9487 19
-1593.7577 1340.2125 4572.5132 19
-1573.4838 1346.0421 4592.4023 19
-1549.2294 1348.6118 4601.1699 19
-1525.9135 1352.1053 4613.0889 19
-1501.236 1354.4977 4621.251 19
-1473.3186 1354.0013 4619.5576 19
-1451.5804 1359.2726 4637.542 21
-1426.6128 1361.6647 4645.7031 21
-1399.0607 1361.6355 4645.6035 21
-1373.1447 1363.2295 4651.042 21
-1343.0251 1360.6301 4642.1738 21
-1316.5563 1361.6979 4645.8169 21
-1290.7408 1363.5017 4651.9707 21
-1265.4879 1365.9911 4660.4644 21
-1237.438 1365.5052 4658.8066 21
-1209.5233 1365.1501 4657.5947 21
-1175.8811 1358.1627 4633.7554 21
-1140.6337 1348.9429 4602.2993 19
-1067.2625 1293.0812 4411.7114 19
-1097.9607 1363.6694 4652.543 19
-1032.9321 1315.9387 4489.6963 19
-1047.8842 1370.2717 4675.0688 18
-970.19202 1303.1194 4445.9595 18
-942.83746 1301.717 4441.1748 18
-914.65204 1299.0542 4432.0898 18
-890.4433 1302.0488 4442.3071 19
-865.73651 1304.4753 4450.5859 19
-842.59937 1309.4938 4467.7075 19
-823.69128 1321.6233 4509.0908 19
-797.90302 1323.1566 4514.3223 19
-766.14087 1314.5461 4484.9453 21
-739.61877 1314.6311 4485.2349 21
-720.23779 1327.8882 4530.4653 21
-688.94489 1319.3597 4501.3682 21
-670.92188 1336.5801 4560.1201 21
-644.90796 1338.6584 4567.2109 21
-645.62903 1398.844 4772.5508 21
-625.79901 1417.9762 4837.8257 21
-617.04187 1465.2386 4999.0752 21
-586.94714 1464.0437 4994.9985 21
-559.57874 1469.8834 5014.9219 21
-525.83264 1458.6857 4976.7178 21
-499.61703 1468.2885 5009.4805 21
-469.75476 1467.7106 5007.5088 21
-434.94235 1450.5458 4948.9463 21
-409.60004 1464.7656 4997.4614 21
-376.93207 1452.963 4957.1934 21
-346.29037 1447.6365 4939.0205 21
-313.71246 1432.4855 4887.3286 21
-289.30759 1455.3684 4965.3999 21
-258.37546 1446.8789 4936.4355 21
-229.10733 1446.73 4935.9277 21
-200.6691 1452.5449 4955.7671 21
-171.22618 1451.8341 4953.3418 21
-141.54874 1448.4293 4941.7256 21
-112.46087 1450.8553 4950.0024 21
-83.430939 1456.0037 4967.5674 21
-54.312778 1464.3843 4996.1602 21
-24.648611 1460.4863 4982.8613 21
4.8720155 1460.795 4983.9146 21
33.552788 1424.9071 4861.4727 21
62.272995 1423.073 4855.2153 21
91.086365 1423.8544 4857.8809 19
119.89203 1424.1687 4858.9536 19
148.27446 1420.3075 4845.7798 19
176.90416 1419.6832 4843.6499 19
205.47375 1418.818 4840.6982 19
233.88687 1417.2167 4835.2349 19
261.51062 1411.7036 4816.4253 19
289.29709 1408.0671 4804.0186 19
316.85229 1404.0574 4790.3379 19
345.00333 1403.1301 4787.1743 19
372.80539 1401.0321 4780.0166 19
399.54227 1395.51 4761.1763 19
426.82828 1392.5076 4750.9326 19
438.62976 1342.4843 4580.2642 19
465.19543 1340.8446 4574.6699 19
505.86435 1377.798 4700.7466 19
514.32666 1327.7524 4530.002 18
537.38379 1318.479 4498.3633 18
563.87726 1318.1146 4497.1201 18
585.78802 1307.554 4461.0894 18
611.92554 1306.9325 4458.9692 18
637.97235 1306.1769 4456.3911 18
663.32147 1304.1095 4449.3374 18
690.02368 1304.7587 4451.5522 18
714.18427 1300.7311 4437.811 16
744.23169 1307.3303 4460.3262 16
770.3042 1306.7341 4458.292 16
794.80292 1303.5961 4447.5859 16
818.8656 1299.9674 4435.2056 65550
841.37567 1294.1759 4415.4463 196619
845.92963 1261.9471 4305.4888 327687
856.80231 1240.7554 4233.187 786690
0 0 0 0
902.90289 1235.2064 4214.2554 8020566
947.06653 1260.7626 4301.4473 9270115
959.69568 1244.0999 4244.5977 8875098
982.25543 1240.8328 4233.4512 9072220
1013.3109 1248.1934 4258.564 9335648
1041.2614 1251.4647 4269.7251 9467234
1057.8248 1241.2196 4234.771 9006684
1084.453 1242.9852 4240.7949 9138013
1107.2889 1240.4226 4232.0518 8414545
1126.3801 1233.8715 4209.7007 8019787
1147.0416 1229.2871 4194.0601 8611924
1185.2156 1243.2673 4241.7573 9072475
1208.2183 1241.0829 4234.3047 9269855
1231.5742 1239.343 4228.3687 8743511
1250.2003 1233.0077 4206.7534 9335648
1280.3389 1238.0522 4223.9644 9138012
1304.2427 1236.9899 4220.3403 9204062
1334.0967 1241.505 4235.7446 9269855
1356.026 1238.6147 4225.8838 9335904
1391.3004 1247.798 4257.2148 9138781
1404.9199 1237.5785 4222.3486 8941146
1432.8527 1240.1046 4230.9668 9007196
1459.0317 1241.052 4234.1992 9336161
1489.4036 1245.4736 4249.2847 9204318
1514.4688 1245.3843 4248.98 9138269
1547.016 1251.3501 4269.334 9401184
1573.1827 1252.0459 4271.708 9269854
1609.316 1260.5261 4300.6406 9006685
1636.4216 1261.7811 4304.9224 8940633
1665.0515 1264.1548 4313.021 9269855
1696.6815 1268.7002 4328.5288 9533027
1698.6692 1251.275 4269.0781 9138269
1734.0485 1258.5973 4294.0601 9269598
1752.1169 1253.3251 4276.0723 8611668
1776.8435 1252.8978 4274.6147 8480853
1809.8197 1258.2179 4292.7656 8809563
1811.1414 1241.6887 4236.3716 8612181
1834.3492 1240.4111 4232.0127 8612953
1836.9752 1225.4379 4180.9272 10783864
1842.126 1212.525 4136.8711 8283983
1878.2965 1220.1008 4162.7183 7691333
1867.5969 1197.4292 4085.3674 8480593
1923.2329 1217.3251 4153.248 11177590
1940.4148 1212.6859 4137.4204 10124644
1972.5132 1217.3687 4153.397 9926498
1981.4972 1207.8463 4120.9087 10058085
2005.8073 1207.7842 4120.6968 10453100
2037.9807 1212.4016 4136.4502 10519407
2042.8469 1200.8569 4097.0625 10059112
2082.2566 1209.651 4127.0659 7822407
2129.3145 1222.6326 4171.356 8217164
2171.8909 1232.7723 4205.9507 8875095
2247.6663 1261.3123 4303.3228 9006681
2310.2214 1281.8767 4373.4839 8414800
2302.8083 1263.5919 4311.1006 7888458
2321.5813 1259.9194 4298.5708 6112046
2356.9233 1265.2212 4316.6592 6440755
2377.2212 1262.4198 4307.1016 8611925
2403.2725 1262.701 4308.061 8546131
2407.9661 1251.8726 4271.1167 8809306
2384.3118 1226.6851 4185.1821 10388594
2385.5271 1214.679 4144.2202 11769992
2477.3193 1248.5685 4259.8438 9993069
2487.3186 1240.9664 4233.9072 10124397
2498.7043 1234.201 4210.8252 9860967
2505.6538 1225.3998 4180.7974 10584686
2585.5994 1252.1205 4271.9624 8874576
2634.8306 1263.5934 4311.1055 10584677
2650.0327 1258.6832 4294.353 12887691
2634.999 1239.642 4229.3882 13151377
2690.1223 1253.6539 4277.1943 12098945
2762.8337 1275.5247 4351.812 10388839
2826.3774 1292.7972 4410.7427 10454122
2643.9248 1198.2645 4088.2175 10585968
2830.0244 1270.9648 4336.2554 7757384
2882.6372 1282.9478 4377.1382 8151887
2918.7227 1287.4266 4392.4194 8678745
2936.9731 1284.0291 4380.8276 8547158
2963.7046 1284.3666 4381.979 8481108
2962.7998 1272.8254 4342.603 8349264
3018.8879 1285.7565 4386.7212 7230526
3043.0095 1284.9684 4384.0322 7362113
3090.8511 1294.1251 4415.2729 8019785
3141.1694 1304.1564 4449.4976 8151115
3189.5476 1313.2219 4480.4272 8217165
3127.6802 1277.1212 4357.2598 8677716
3153.1587 1276.9857 4356.7974 7164477
3174.0564 1275.0122 4350.064 6901052
3230.5381 1287.2494 4391.8145 7361603
3238.3147 1280.0388 4367.2139 5453868
3281.1733 1286.7001 4389.9404 4861472
3274.6611 1274.048 4346.7744 6243126
3267.9302 1261.509 4303.9941 7098432
3195.8264 1224.124 4176.4443 6966842
3208.8135 1219.6558 4161.1997 7558973
0 0 0 0
3206.7947 1200.4436 4095.6521 6242346
3240.0413 1203.781 4107.0386 3676678
3181.3413 1173.1624 4002.5742 2693131
3236.1655 1184.5504 4041.428 14339503
3294.3604 1196.996 4083.8894 14077346
3332.8513 1202.1528 4101.4834 13549972
3376.989 1209.2571 4125.7217 12027755
3424.8525 1217.5839 4154.1309 11107682
3450.8965 1218.0901 4155.8579 11699307
3468.4241 1215.6042 4147.377 12490108
3525.0068 1226.745 4185.3867 8609348
3616.4861 1249.7899 4264.0107 7691079
3650.6152 1252.8333 4274.394 7427397
3647.1421 1243.0192 4240.9106 7230271
3708.0847 1255.1432 4282.2754 7098426
3729.2275 1253.7223 4277.4277 7756871
3749.2261 1251.9387 4271.3423 8349776
3723.0044 1234.8485 4213.0342 8087117
3800.6125 1252.1949 4272.2163 10192236
3827.2405 1252.6263 4273.6885 12691856
3860.2676 1255.1328 4282.2397 14139304
3883.0645 1254.302 4279.4053 12690318
3967.6201 1273.3018 4344.2285 10715759
3982.7551 1269.9216 4332.6958 8676433
3929.813 1245.0167 4247.7261 8545104
4012.8713 1263.2417 4309.9053 8347470
3944.1113 1233.7462 4209.2734 8085070
4026.7224 1251.6738 4270.4385 8348501
3956.6445 1222.2118 4169.9204 8085330
4028.2917 1236.6227 4219.0874 8085328
0 0 0 0
0 0 0 0
0 0 0 0
0 0 0 0
0 0 0 0
0 0 0 0
-4069.5598 1352.8608 4524.2222 16
-3927.7239 1314.3663 4395.4893 16
-3822.2407 1287.6041 4305.9912 16
-3826.0293 1297.5402 4339.2192 16
-3801.0999 1297.8054 4340.1064 16
-3746.5281 1287.8846 4306.9297 16
-3733.7715 1292.3007 4321.6973 14
-3744.3423 1304.9071 4363.856 14
-3750.0129 1315.9694 4400.8501 14
-3614.636 1277.343 4271.6763 14
-3629.7754 1291.7365 4319.8105 14
-3666.906 1314.2161 4394.9868 14
-3514.3284 1268.5397 4242.2363 14
-3485.521 1267.2034 4237.7676 14
-3463.4238 1268.3051 4241.4517 13
-3465.6135 1278.3816 4275.1494 13
-3407.2 1266.0868 4234.0337 13
-3369.1333 1261.2267 4217.7803 14
-3336.9807 1258.5242 4208.7427 14
-3358.1348 1276.0367 4267.3081 14
-3285.4614 1257.8917 4206.6274 15
-3274.7737 1263.3828 4224.9907 15
-3233.1428 1256.929 4203.4077 16
-3234.2114 1267.1035 4237.4336 15
-3220.426 1271.5726 4252.3789 16
-3366.1824 1339.603 4479.8857 16
-3338.1553 1339.0065 4477.8906 16
-3310.071 1338.3772 4475.7861 17
-3282.085 1337.7778 4473.7817 17
-3317.7527 1363.3252 4559.2168 18
-3285.6848 1361.2297 4552.2095 18
-3253.7051 1359.1362 4545.2085 18
-3221.7341 1357.0117 4538.1035 19
-2773.3064 1177.9614 3939.3257 19
-3156.7625 1352.2133 4522.0566 19
-3083.4419 1332.111 4454.8306 19
-2679.6121 1167.6421 3904.8154 19
-2655.4067 1167.1707 3903.2393 19
-2642.7302 1171.8031 3918.7307 19
-2618.908 1171.5316 3917.823 19
-2591.4641 1169.6207 3911.4326 19
-2574.4609 1172.4302 3920.8281 19
-2553.2554 1173.3596 3923.936 19
-2534.3584 1175.3766 3930.6814 19
-2507.8555 1173.871 3925.6462 19
-2487.7695 1175.3689 3930.6555 19
-2441.46 1164.3884 3893.9348 19
-2412.0703 1161.345 3883.7568 19
-2395.3003 1164.3774 3893.8979 19
-2402.4553 1179.2122 3943.5083 19
-2378.6226 1178.979 3942.7285 19
-2567.7312 1285.3336 4298.3984 19
-2436.5637 1231.8917 4119.6787 19
-2319.9468 1184.7996 3962.1934 19
-2291.1533 1182.0546 3953.0137 19
-2274.0542 1185.3485 3964.0293 19
-2255.7996 1188.1027 3973.2397 19
-2420.7969 1288.4491 4308.8174 19
-2400.8787 1291.4659 4318.9062 19
-2373.7441 1290.624 4316.0908 19
-2358.9885 1296.5677 4335.9673 19
-2333.6272 1296.7487 4336.5728 19
-2306.7415 1296.0774 4334.3276 19
-2294.168 1303.5229 4359.2271 19
-2263.8835 1300.9603 4350.6572 19
-2243.542 1304.1184 4361.2183 19
-2214.3174 1302.1262 4354.5562 19
-2189.2769 1302.5765 4356.062 19
-2165.3303 1303.6963 4359.8066 19
-2140.5474 1304.3333 4361.937 20
-2117.6995 1306.1794 4368.1108 21
-2085.2393 1302.0691 4354.3652 21
-2071.0107 1309.3828 4378.8237 21
-2047.9949 1311.2557 4385.0869 21
-2018.3857 1308.9012 4377.2129 21
-1992.734 1309.0851 4377.8276 20
-1968.5741 1310.2667 4381.7793 20
-1945.0865 1311.9333 4387.353 18
-1917.9177 1311.1285 4384.6616 19
-1894.653 1313.0073 4390.9443 19
-1874.146 1316.8762 4403.8828 19
-1850.3412 1318.5043 4409.3271 19
-1826.3838 1320.0687 4414.5591 19
-1800.5464 1320.3 4415.3325 19
-1776.5771 1321.9281 4420.7773 19
-1754.0005 1324.6567 4429.9023 19
-1728.1359 1324.9475 4430.8745 19
-1714.2104 1334.542 4462.9604 18
-1687.7327 1334.5117 4462.8594 19
-1662.5375 1335.5109 4466.2007 19
-1640.2522 1338.9177 4477.5938 19
-1614.051 1339.1874 4478.4956 19
-1593.1118 1343.905 4494.2725 19
-1560.5869 1338.8436 4477.3457 19
-1535.3711 1339.986 4481.166 19
-1516.816 1347.084 4504.9033 19
-1494.1782 1350.7455 4517.1479 19
-1468.991 1352.1937 4521.9912 19
-1444.8046 1354.6342 4530.1523 19
-1418.4575 1355.1028 4531.7197 21
-1393.2626 1356.7115 4537.0996 21
-1369.0293 1359.3383 4545.8838 21
-1342.8997 1360.1498 4548.5977 21
-1320.6808 1365.0366 4564.9404 21
-1294.5961 1366.0486 4568.3247 21
-1267.6569 1366.1829 4568.7734 21
-1241.9828 1367.7162 4573.9014 21
-1215.0311 1367.8796 4574.4478 20
-1187.7332 1367.6517 4573.6855 21
-1102.843 1299.5487 4345.9365 19
-1073.1791 1294.822 4330.1294 19
-1055.7219 1304.9523 4364.0068 18
-1032.4868 1308.2699 4375.1016 18
-1002.9607 1303.5817 4359.4233 19
-978.45374 1305.3417 4365.3091 17
-949.33087 1300.8721 4350.3618 16
-921.62329 1298.1465 4341.2471 15
-895.83588 1298.0465 4340.9131 16
-874.31104 1304.2999 4361.8252 18
-850.64697 1307.6456 4373.0137 19
-826.37024 1310.23 4381.6562 19
-803.42285 1315.1578 4398.1362 19
-783.37598 1325.3236 4432.1323 19
-759.57111 1329.6157 4446.4863 20
-731.85577 1327.1255 4438.1582 21
-707.41931 1330.6168 4449.834 21
-681.37469 1331.2366 4451.9067 21
-714.26337 1451.6835 4854.7036 21
-677.47748 1434.6879 4797.8672 21
-664.93695 1469.7964 4915.2769 21
-635.59912 1469.291 4913.5869 21
-605.81104 1467.6465 4908.0869 21
-575.98303 1465.7343 4901.6924 21
-545.75061 1462.5352 4890.9941 21
-516.48938 1461.7262 4888.2886 21
-487.28354 1460.9872 4885.8169 21
-457.98471 1459.8583 4882.042 21
-428.82837 1459.0619 4879.3789 21
-400.38605 1460.7559 4885.0435 21
-370.78506 1458.1567 4876.3516 21
-341.6077 1456.9253 4872.2334 21
-311.60281 1451.6113 4854.4624 21
-283.53491 1455.1578 4866.3228 21
-254.42136 1453.5333 4860.8901 21
-225.60159 1453.3867 4860.3999 21
-196.34346 1449.96 4848.9399 21
-167.2552 1446.8282 4838.4668 21
-138.45601 1445.4186 4833.7529 21
-110.76874 1457.9089 4875.5229 21
-81.830864 1456.9443 4872.2969 21
-52.985584 1457.4755 4874.0732 21
-24.109673 1457.4271 4873.9116 21
4.7559009 1454.802 4865.1328 21
33.421261 1448.009 4842.4155 21
61.631847 1436.8888 4805.2275 21
89.496498 1427.2784 4773.0889 19
118.10319 1431.2756 4786.4561 19
146.43834 1431.0714 4785.7729 19
174.32953 1427.2987 4773.1562 19
202.49086 1426.4821 4770.4253 19
230.45689 1424.658 4764.3252 19
257.47833 1418.0298 4742.1597 19
285.0387 1415.3818 4733.3042 19
312.07501 1410.8392 4718.1128 19
339.6373 1409.2257 4712.7168 19
366.89264 1406.6803 4704.2046 19
393.81683 1403.3146 4692.9487 19
420.50781 1399.6162 4680.5811 19
445.60168 1391.3885 4653.0664 19
473.72394 1393.025 4658.5386 19
500.83954 1391.6838 4654.0537 19
524.52795 1381.4563 4619.8511 18
535.04523 1339.2748 4478.7876 18
552.91583 1318.6155 4409.6992 18
577.2309 1314.496 4395.9229 18
600.49738 1308.4473 4375.6948 18
624.71472 1304.8854 4363.7832 18
643.71649 1291.1453 4317.8335 18
677.40979 1306.7971 4370.1763 18
698.05066 1297.0438 4337.5596 17
723.89581 1297.3098 4338.4492 17
754.73303 1306.1974 4368.1709 16
783.28369 1310.6696 4383.1265 16
810.28644 1312.3475 4388.7383 14
832.94305 1307.1012 4371.1934 65550
851.02887 1295.2146 4331.4424 131086
864.59833 1277.3514 4271.7046 196620
884.15668 1269.1006 4244.1123 327685
883.72137 1233.4012 4124.7266 1181448
912.67053 1239.531 4145.2256 4600362
937.28375 1239.605 4145.4731 6835776
965.37689 1244.16 4160.7061 8940892
986.47986 1239.7037 4145.8037 8677976
1005.2142 1232.5597 4121.9126 8875100
1035.6774 1239.7949 4146.1084 9072478
1062.9658 1242.9825 4156.7686 9138270
1087.2773 1242.6235 4155.5679 9203806
1104.3097 1234.1454 4127.2153 9335391
1131.9307 1237.6119 4138.8081 8677717
1158.8317 1240.1608 4147.332 8875097
1183.7887 1240.5667 4148.6895 9401440
1206.8148 1238.9736 4143.3618 9204062
1226.5546 1234.1375 4127.189 9466977
1254.0337 1237.1252 4137.1807 9204062
1277.6431 1236.2544 4134.2681 9335647
1298.1748 1232.494 4121.6929 9269855
1317.8019 1228.0297 4106.7632 9335647
1346.9111 1232.4032 4121.3892 9072476
1371.2242 1232.3107 4121.0796 8940890
1395.1797 1231.9056 4119.7251 9204319
1415.2429 1228.1368 4107.1216 9467233
1446.1692 1233.7629 4125.9365 9598564
1474.9744 1237.4226 4138.1748 9532771
1500.2242 1238.0286 4140.2017 9401441
1529.1189 1241.5746 4152.0601 9269854
1553.0652 1241.054 4150.3188 8875099
1578.4576 1241.6874 4152.437 9006683
1600.4243 1239.6476 4145.6157 9269855
1630.7057 1244.0126 4160.2129 9401441
1645.4144 1236.5446 4135.2388 8874584
1672.928 1238.7776 4142.7061 8151374
1703.9058 1243.4741 4158.4121 8151374
1742.0536 1253.1945 4190.9189 8480596
1757.4169 1246.4816 4168.4697 8612437
1776.1239 1242.2935 4154.4639 8941403
1795.72 1238.833 4142.8916 8809816
1840.7312 1252.7628 4189.4756 8677973
1837.6385 1234.0192 4126.7935 8414800
1870.1344 1239.3527 4144.6294 8480336
1894.4426 1239.192 4144.0923 9006680
1924.688 1242.8694 4156.3901 9400925
1942.6689 1238.6343 4142.2271 9138009
1949.1632 1227.2723 4104.2305 7624256
1955.3301 1215.9867 4066.4893 8216907
1988.2036 1221.382 4084.5322 8809300
2019.1381 1225.4707 4098.2056 8677459
2053.3269 1231.4141 4118.0811 7953479
2046.8525 1213.1176 4056.8945 8085579
2098.877 1229.5143 4111.728 7822150
2135.104 1236.387 4134.7114 8151628
2180.6194 1248.4213 4174.9565 8349264
2205.3577 1248.4241 4174.9658 8415058
2233.0498 1250.0803 4180.5049 8612437
2255.5686 1248.8361 4176.3438 8613207
2274.2793 1245.5332 4165.2983 8678744
2267.8582 1228.6853 4108.9556 8810587
2266.1443 1214.7183 4062.2473 10784380
2281.4478 1210.0708 4046.7053 8612957
2307.6799 1211.2562 4050.6699 9994869
2333.1155 1212.0035 4053.1689 10191990
2341.6394 1204.0399 4026.5369 10520700
2369.0847 1205.8678 4032.6497 9665645
2404.3838 1211.6168 4051.8755 9862510
2436.7671 1215.7976 4065.8569 10125167
2514.8936 1242.496 4155.1411 9796201
2514.1687 1230.0975 4113.6787 9664868
2572.9875 1246.7902 4169.502 9928036
2597.6003 1246.7478 4169.3604 11835776
2632.3855 1251.5426 4185.395 12756877
2645.6204 1246.0977 4167.186 12823183
2674.115 1247.8743 4173.1274 13283736
2700.7805 1248.7727 4176.1318 12757132
2735.0747 1253.1501 4190.7705 11967874
2779.1555 1261.8923 4220.0063 10388845
2843.592 1279.639 4279.3545 7494210
2814.7361 1255.4604 4198.4971 7822663
2864.2576 1266.3584 4234.9414 8020043
2885.241 1264.5591 4228.9243 8414802
2924.4133 1270.6941 4249.4409 6967612
2978.4387 1283.123 4291.0059 7230782
2975.656 1271.0756 4250.7168 7691333
3054.3 1293.7207 4326.4463 8020042
3073.5229 1291.0289 4317.4448 7493441
3048.948 1270.1365 4247.5762 6638389
3111.5789 1285.6167 4299.3452 6836025
3109.436 1274.3004 4261.5015 6638133
3150.9204 1280.9017 4283.5771 7098685
3168.7922 1277.875 4273.4556 6309426
3209.0645 1283.8583 4293.4648 5191459
3213.7424 1275.619 4265.9111 4928031
3196.8748 1259.0232 4210.4111 7098943
3194.4573 1248.3311 4174.6548 6177836
3189.1809 1236.6946 4135.7402 7164728
3194.2568 1229.2194 4110.7417 7558967
3249.1431 1240.8804 4149.7383 6045464
3284.2966 1244.8866 4163.1362 6966565
3211.9585 1208.3931 4041.0947 4926216
3218.8879 1202.0406 4019.8508 6180403
3229.5369 1197.1603 4003.53 14471336
3345.5034 1231.1068 4117.0537 14136979
3353.8225 1225.2355 4097.4189 12554100
3370.4956 1222.4786 4088.1995 11567976
3407.5669 1227.1067 4103.6768 10910820
3448.5869 1233.0812 4123.6562 10779751
3489.6406 1238.9835 4143.395 7227700
3577.7117 1261.3802 4218.2939 7953221
3600.8381 1260.7277 4216.1113 7295294
3624.4343 1260.2476 4214.5059 6769463
3629.5742 1253.4005 4191.6079 5848615
3663.5847 1256.5486 4202.1357 6044969
3656.5657 1245.6766 4165.7778 6176811
3684.4312 1246.7548 4169.3833 6637106
3723.8323 1251.6963 4185.9087 5913385
3777.1814 1261.2296 4217.79 7887688
3785.7058 1255.7686 4199.5273 8348495
3795.6636 1250.8514 4183.0835 9730147
3849.9329 1260.506 4215.3701 10584943
3866.6355 1257.8156 4206.373 10453613
3870.7759 1251.0995 4183.9131 10058855
3897.7954 1251.8167 4186.3115 10387820
3893.0291 1242.3811 4154.7568 10321770
3885.7742 1232.2747 4120.959 8808535
3866.2407 1218.425 4074.6436 8479571
3951.0427 1237.4241 4138.1797 7492932
0 0 0 0
0 0 0 0
0 0 0 0
0 0 0 0
0 0 0 0
0 0 0 0
-4338.6338 1470.8849 4823.3579 16
-3838.0647 1309.8083 4295.1523 16
-3805.103 1307.2262 4286.6846 16
-3835.2085 1326.4214 4349.6299 16
-3711.627 1292.3634 4237.9463 16
-3715.5789 1302.5502 4271.3511 15
-3630.4209 1281.424 4202.0732 14
-3684.8462 1309.6144 4294.5161 14
-3575.9075 1279.7327 4196.5273 14
-3547.6245 1278.4996 4192.4839 13
-3527.5842 1280.2406 4198.1929 13
-3498.4451 1278.6805 4193.0771 13
-3482.2332 1281.8568 4203.4932 15
-3481.73 1290.9032 4233.1582 16
-3427.2024 1279.9053 4197.0933 16
-3386.1125 1273.8016 4177.0781 16
-3424.7837 1297.8337 4255.8848 16
-3393.0088 1295.3285 4247.6694 16
-3315.3269 1275.1294 4181.4321 16
-3278.1443 1270.3199 4165.6611 18
-3312.6223 1293.4176 4241.4033 17
-3519.9109 1384.8583 4541.2573 17
-3623.4912 1436.5906 4710.8994 18
-3648.0618 1457.5582 4779.6567 18
-3426.5757 1379.7747 4524.5874 18
-3530.3701 1432.7775 4698.395 18
-3363.7246 1375.9941 4512.1899 18
-3332.8242 1374.2749 4506.5522 18
-3303.6313 1373.2379 4503.1519 18
-3276.7673 1373.1598 4502.8955 18
-3222.5125 1361.5078 4464.686 18
-3220.6145 1371.9668 4498.9834 18
-3176.2417 1364.3552 4474.0234 19
-3107.2112 1345.9348 4413.6187 19
-3094.9934 1352.0198 4433.5728 19
-3070.304 1352.7141 4435.8496 19
-3203.2959 1423.4913 4667.9438 19
-3146.084 1410.2421 4624.4966 19
-3147.998 1423.496 4667.959 19
-3120.1399 1423.403 4667.6538 19
-3092.7163 1423.5082 4667.999 19
-3041.345 1412.4932 4631.8784 19
-3038.2866 1423.92 4669.3496 19
-3006.8579 1422.1385 4663.5078 19
-2972.6028 1418.975 4653.1338 19
-2948.7058 1420.7429 4658.9312 19
-2913.8772 1417.2274 4647.4028 19
-2883.8928 1416.0233 4643.4546 19
-2599.1777 1288.516 4225.3296 19
-2586.5974 1294.7487 4245.7681 19
-2549.073 1288.4952 4225.2617 19
-2559.0854 1306.3848 4283.9253 19
-2540.1838 1309.7244 4294.877 19
-2472.8501 1287.9073 4223.334 19
-2476.832 1303.1665 4273.3721 19
-2455.1392 1305.0927 4279.6885 19
-2431.8206 1306.1859 4283.2734 19
-2379.5156 1291.5687 4235.3403 19
-2346.9519 1287.4694 4221.8979 19
-2327.6743 1290.6488 4232.3237 19
-2314.0518 1297.067 4253.3706 19
-2289.0088 1297.1549 4253.6587 19
-2267.5295 1299.2866 4260.6489 19
-2243.9448 1300.2466 4263.7969 19
-2215.2637 1298.2413 4257.2212 19
-2193.6479 1300.3783 4264.229 19
-2169.5503 1301.0768 4266.5195 19
-2150.9265 1305.113 4279.7554 19
-2142.4958 1315.5042 4313.8301 19
-2119.1125 1316.8544 4318.2578 21
-2088.3728 1313.6104 4307.6196 21
-2064.5786 1314.7089 4311.2222 21
-2044.7825 1318.4127 4323.3677 21
-2021.7124 1320.0729 4328.812 21
-1994.4277 1318.9885 4325.2559 21
-1972.3137 1321.3398 4332.9663 21
-1947.6824 1322.0444 4335.2769 21
-1924.7832 1323.9595 4341.5566 21
-1903.5404 1327.0811 4351.793 20
-1881.7131 1329.8754 4360.9561 19
-1853.5142 1328.1815 4355.4019 19
-1835.6587 1333.9565 4374.3394 19
-1811.0719 1334.9351 4377.5483 19
-1785.047 1334.8669 4377.3247 19
-1762.173 1337.1876 4384.9346 19
-1738.5658 1339.0131 4390.9209 19
-1713.2783 1339.5801 4392.7803 19
-1689.1543 1341.0885 4397.7266 18
-1664.5157 1342.2291 4401.4673 19
-1645.5513 1348.0543 4420.5693 19
-1620.1165 1348.6819 4422.627 19
-1589.9153 1345.2969 4411.5269 19
-1570.0516 1350.6918 4429.2178 19
-1544.9713 1351.7062 4432.5444 19
-1518.5573 1351.5685 4432.0928 19
-1494.3217 1353.399 4438.0957 19
-1466.4025 1351.8992 4433.1772 19
-1441.5323 1353.2069 4437.4653 19
-1416.7642 1354.6605 4442.2324 19
-1391.5436 1355.7284 4445.7344 21
-1365.1835 1355.7062 4445.6611 21
-1340.6599 1357.5426 4451.6831 21
-1320.1556 1363.6041 4471.5605 21
-1294.6254 1364.6162 4474.8794 21
-1268.0652 1364.5625 4474.7031 21
-1241.0197 1363.973 4472.77 21
-1209.1588 1357.95 4453.019 21
-1162.5228 1334.6947 4376.7603 21
-1115.8621 1310.3495 4296.9268 19
-1083.0298 1301.4852 4267.8589 19
-1104.4717 1358.9783 4456.3911 19
-1084.3687 1366.9169 4482.4233 19
-1055.2241 1363.5703 4471.4497 18
-1025.6547 1359.4885 4458.0645 18
-997.16888 1356.665 4448.8057 16
-944.35425 1319.6899 4327.5562 16
-914.07721 1313.0254 4305.7017 16
-889.53387 1314.4508 4310.376 18
-865.4389 1316.6427 4317.5635 18
-841.93567 1319.8956 4328.2305 19
-823.51422 1331.5698 4366.5127 19
-832.94287 1390.4934 4559.7363 19
-810.54901 1398.4629 4585.8701 19
-786.31415 1403.6985 4603.0386 20
-760.27094 1405.9662 4610.4751 21
-732.54883 1405.1824 4607.9048 21
-707.47491 1409.6143 4622.438 21
-682.67346 1414.9679 4639.9937 21
-656.94373 1418.7659 4652.4482 21
-631.1521 1422.7571 4665.5361 21
-607.28455 1431.6498 4694.6973 21
-579.7337 1432.296 4696.8164 21
-560.80841 1455.3922 4772.5542 21
-530.34381 1449.4047 4752.9194 21
-501.61029 1447.7418 4747.4663 21
-475.62399 1454.2814 4768.9111 21
-449.51617 1461.2517 4791.7686 21
-418.9816 1453.8019 4767.3389 21
-389.63766 1449.7048 4753.9038 21
-363.69553 1458.6127 4783.1143 21
-330.70105 1438.3519 4716.6753 21
-301.22534 1431.0687 4692.792 21
-274.73337 1437.9208 4715.2612 21
-246.49374 1436.1418 4709.4277 21
-219.47731 1441.9448 4728.457 21
-191.98796 1445.8845 4741.376 21
-163.53445 1442.6687 4730.8306 21
-135.36864 1441.1855 4725.9673 21
-108.44074 1455.545 4773.0552 18
-80.091339 1454.2241 4768.7236 18
-51.821892 1453.7065 4767.0264 18
-23.452274 1445.7743 4741.0146 18
4.6232538 1442.2445 4729.4395 19
32.598984 1440.3649 4723.2759 20
59.977741 1426.028 4676.2622 21
88.278236 1435.7418 4708.1157 19
115.73634 1430.3798 4690.5327 19
143.46555 1429.7961 4688.6187 19
171.02502 1427.9846 4682.6782 19
198.5043 1426.1027 4676.5068 19
226.44327 1427.5797 4681.3506 19
253.87875 1425.9065 4675.8638 19
280.68823 1421.3923 4661.061 19
307.70248 1418.6311 4652.0063 19
334.76938 1416.5468 4645.1709 19
361.43747 1413.2194 4634.2598 19
387.87482 1409.5234 4622.1401 19
413.9093 1404.9474 4607.1343 19
440.91409 1404.0276 4604.1177 19
466.32126 1398.4236 4585.7412 19
493.4718 1398.3771 4585.5889 19
518.73389 1393.2632 4568.8188 18
542.81952 1385.6534 4543.8652 18
544.5639 1324.4268 4343.0894 18
568.85791 1321.0931 4332.1577 18
588.13373 1306.8965 4285.6035 18
611.76373 1303.1498 4273.3174 18
634.76892 1298.4227 4257.8164 18
660.36346 1299.1512 4260.2051 18
685.21295 1298.4143 4257.7886 17
712.05774 1301.3762 4267.5015 16
741.80951 1309.266 4293.3735 16
770.98749 1315.6533 4314.3188 16
802.93066 1326.198 4348.8975 15
820.06238 1312.3837 4303.5972 65551
840.26367 1304.1666 4276.6514 65551
853.7486 1286.3112 4218.0996 65551
869.67621 1273.047 4174.6035 65550
887.57971 1263.3286 4142.7349 131083
904.07977 1252.1896 4106.2075 393220
931.21808 1255.9827 4118.6455 786688
953.22589 1252.8387 4108.3359 4994604
946.07452 1212.4813 3975.9951 8020046
981.0661 1226.7827 4022.8926 8085837
1002.1924 1223.479 4012.0591 9204062
1034.4969 1233.6584 4045.4397 9204062
1061.1232 1236.7589 4055.6067 8809047
1080.8446 1231.8525 4039.5178 9467234
1099.0587 1225.4781 4018.6145 9532770
1131.3657 1234.7546 4049.0344 9401441
1150.9844 1230.0856 4033.7234 9466977
1178.5796 1233.9579 4046.4216 9532770
1201.1923 1232.5632 4041.8484 9664613
1225.4082 1232.8361 4042.7427 9664613
1251.2596 1234.7122 4048.895 9730406
1264.687 1224.4886 4015.3696 8875097
1276.8544 1213.4451 3979.1553 8875097
1318.7865 1230.5757 4035.3308 9138268
1342.1995 1230.1238 4033.8486 9269855
1361.3456 1225.8453 4019.8188 9598820
1381.8312 1222.8994 4010.1584 9533027
1408.0433 1225.0355 4017.1631 9401441
1433.8905 1226.7881 4022.9104 9335647
1461.3372 1229.8296 4032.884 9204062
1487.9229 1232.0603 4040.1992 9204062
1521.5785 1239.9819 4066.1758 9335648
1539.1705 1234.7699 4049.0845 8809303
1557.9358 1230.6447 4035.5566 8875353
1573.9479 1224.5021 4015.4141 8612438
1609.3634 1233.4132 4044.6357 8809817
1643.1597 1240.8401 4068.99 8743767
1652.7695 1230.0519 4033.613 8875097
1664.464 1221.1005 4004.2593 8875355
1709.3105 1236.3801 4054.3647 9007198
1734.4191 1237.1573 4056.9133 9138782
1755.1877 1234.86 4049.3799 9204574
1797.7117 1247.7241 4091.564 8875352
1804.4562 1235.7432 4052.2759 6572852
1850.0858 1250.3568 4100.1973 6967352
1842.5886 1229.1519 4030.6614 7362366
1856.0356 1222.2822 4008.1345 8348749
1890.4352 1229.21 4030.8523 8414799
1917.1179 1231.01 4036.7546 8085321
1931.8649 1225.1957 4017.6885 8020042
1952.9594 1223.4996 4012.1267 8480080
1982.452 1227.0425 4023.7446 8809045
2012.8809 1231.0737 4036.9639 8348494
2028.6368 1226.1417 4020.7908 8019786
2071.8477 1237.7258 4058.7776 7690821
2093.3271 1236.2107 4053.8091 8085835
2137.7888 1248.1481 4092.9543 8217678
2164.8389 1249.766 4098.2598 8283471
2182.3472 1245.9005 4085.5842 8349008
2205.3489 1245.2217 4083.3582 8086605
2221.5334 1240.7502 4068.6953 7757642
2247.7678 1241.9272 4072.5552 4861730
2217.584 1212.2386 3975.1992 7101001
2238.5286 1210.8292 3970.5776 8876127
2241.7388 1199.9564 3934.9236 8350297
2270.781 1202.9926 3944.8794 8613214
2287.1926 1199.3436 3932.9136 8876387
2312.4312 1200.3501 3936.2141 8613215
2345.2004 1205.2067 3952.1399 8613216
2368.988 1205.3971 3952.7644 8810594
2377.5789 1197.9269 3928.2678 8744801
2407.042 1201.0161 3938.3982 9204839
2445.1575 1208.3215 3962.3545 8810594
2466.3564 1207.2081 3958.7034 7297355
2473.3394 1199.2229 3932.5178 10257524
2524.9683 1212.8315 3977.1438 11902091
2551.1467 1214.0769 3981.2278 10323056
2566.334 1210.1168 3968.2415 9336159
2623.9575 1226.0571 4020.5132 11375227
2639.2588 1222.1132 4007.5803 12033411
2681.7422 1230.7142 4035.7849 11572860
2729.8728 1241.7318 4071.9141 9599070
2822.2036 1272.4857 4172.7627 6243887
2852.979 1275.1921 4181.6377 6507316
2852.959 1264.2058 4145.6113 7954506
2889.0496 1269.2717 4162.2236 8020299
2914.2769 1269.5199 4163.0371 8744023
2942.1492 1270.9062 4167.5835 8810072
2976.5754 1275.0771 4181.2607 7559492
3021.1213 1283.4783 4208.8101 3546386
3031.9758 1277.5458 4189.356 7033405
3068.304 1282.356 4205.1299 7427907
3089.366 1280.7598 4199.8955 7230782
3148.2737 1294.7535 4245.7842 6375476
3155.8423 1287.5792 4222.2578 5980974
3157.1021 1277.9639 4190.7271 7230784
3164.0955 1270.8014 4167.2397 7296321
3213.9746 1280.8407 4200.1606 7165245
3210.0178 1269.4358 4162.7617 7428160
3250.366 1275.5922 4182.9497 6374955
3253.8032 1267.2793 4155.6899 8020036
3255.9177 1258.5802 4127.1636 9138258
3230.4465 1239.4266 4064.355 10717543
3181.626 1211.6646 3973.3169 8744781
3338.1272 1261.929 4138.145 14274731
3337.2156 1252.3868 4106.854 13611403
3302.5132 1230.3936 4034.7334 10780515
3319.3381 1227.7755 4026.1484 10451808
3378.4375 1240.7201 4068.5967 9530709
3378.4343 1231.9299 4039.7715 9202515
3438.2085 1244.9075 4082.3276 9203031
3499.0256 1258.0787 4125.519 9400411
3507.791 1252.4818 4107.1655 9006423
3561.0146 1262.7268 4140.7612 8480336
3562.3435 1254.5557 4113.9663 7559749
3649.3501 1276.4639 4185.8081 7164991
3642.9971 1265.6415 4150.3193 8415317
3625.7102 1251.1912 4102.9336 7362627
3618.8557 1240.5095 4067.9058 7427906
3655.7634 1244.8711 4082.2085 7361599
3670.3218 1241.6149 4071.5308 7032633
3668.1399 1232.7751 4042.5435 7887686
3741.2485 1249.1893 4096.3691 8216138
3768.8823 1250.3062 4100.0312 8414288
3800.5474 1252.7373 4108.0034 8216395
3796.6785 1243.4991 4077.7097 8809044
3821.1433 1243.5994 4078.0381 9861733
3814.4478 1233.6207 4045.3159 11440764
3870.2778 1243.8617 4078.8982 11177849
3876.6338 1238.1737 4060.2461 9401439
0 0 0 0
0 0 0 0
0 0 0 0
0 0 0 0
0 0 0 0
0 0 0 0
-4272.4219 1476.5763 4749.7485 16
-3670.6987 1277.0276 4107.854 16
-3634.7058 1272.9449 4094.7214 16
-3617.8413 1275.5518 4103.1069 16
-3607.7065 1280.5826 4119.2896 16
