# .PCD v0.7 - Point Cloud Data file format
VERSION 0.7
FIELDS x y z rgb
SIZE 4 4 4 4
TYPE F F F U
COUNT 1 1 1 1
WIDTH 1404
HEIGHT 1
VIEWPOINT 0 0 0 1 0 0 0
POINTS 1404
DATA ascii
-2834.5393 1387.1714 3522.4043 18
-2815.6692 1388.1561 3524.9048 18
-2803.6836 1392.5751 3536.1257 18
-2728.4451 1365.4066 3467.1377 18
-2705.718 1364.3038 3464.3374 18
-2671.5933 1357.3932 3446.7896 18
-2620.5933 1341.7362 3407.0322 18
-2585.4456 1334.0155 3387.427 18
-2564.6345 1333.6289 3386.4456 18
-2555.2129 1339.2057 3400.6064 18
-2538.3826 1340.9573 3405.054 18
-2516.9924 1340.3088 3403.4075 18
-2500.5256 1342.2926 3408.4448 18
-2480.2725 1342.2598 3408.3616 18
-2485.771 1356.2769 3443.9546 18
-2471.4146 1359.6031 3452.4011 18
-2413.4856 1338.8143 3399.6125 18
-2432.3892 1360.6549 3455.0718 18
-2366.906 1335.2606 3390.5889 18
-2345.3298 1334.4131 3388.4368 18
-2320.4861 1331.6757 3381.4858 18
-2299.6255 1331.1964 3380.2686 18
-2278.9292 1330.8047 3379.2739 18
-2257.4717 1329.9575 3377.1228 18
-2237.6438 1330.064 3377.3931 18
-2215.1243 1328.5579 3373.5688 18
-2192.7471 1327.1106 3369.8938 18
-2169.5947 1325.1632 3364.9487 18
-2147.187 1323.6387 3361.0774 18
-2129.0696 1324.7551 3363.9124 18
-2110.9036 1325.8621 3366.7234 18
-2090.3596 1325.4827 3365.76 18
-2068.614 1324.3263 3362.8235 18
-2043.465 1320.9475 3354.2439 18
-2022.3103 1320.1097 3352.1167 18
-2001.1752 1319.2683 3349.98 18
-1983.692 1320.8416 3353.9749 18
-1964.4188 1321.2428 3354.9937 18
-1941.4241 1319.1235 3349.6125 18
-1922.1111 1319.488 3350.5378 18
-1902.5571 1319.6929 3351.0581 18
-1880.3531 1318.0446 3346.8726 18
-1857.6256 1315.9902 3341.656 18
-1837.3043 1315.6146 3340.7024 18
-1825.9957 1321.7546 3356.2935 18
-1807.4187 1322.7107 3358.7212 18
-1787.2291 1322.4949 3358.1731 18
-1763.6857 1319.7643 3351.2395 18
-1744.0221 1319.9081 3351.6045 18
-1725.1267 1320.6432 3353.4712 17
-1706.8514 1321.8757 3356.6011 16
-1686.3538 1321.3959 3355.3826 16
-1664.2913 1319.6637 3350.9839 16
-1647.4583 1322.0864 3357.136 16
-1628.8497 1323.1261 3359.7761 16
-1610.8585 1324.6993 3363.7708 18
-1592.1488 1325.7134 3366.3457 18
-1578.1626 1330.7363 3379.1003 18
-1559.0751 1331.5314 3381.1194 18
-1540.4315 1332.7314 3384.1665 18
-1522.2496 1334.3677 3388.3215 18
-1499.4337 1331.9313 3382.1348 18
-1478.545 1331.1642 3380.1868 17
-1457.6614 1330.3805 3378.1968 17
-1438.1692 1330.8627 3379.4211 15
-1421.7213 1334.2152 3387.9343 16
-1402.5551 1335.0763 3390.1208 16
-1385.0087 1337.5269 3396.3433 16
-1365.9045 1338.5231 3398.873 16
-1346.5135 1339.2637 3400.7537 16
-1328.0723 1340.986 3405.127 16
-1306.486 1339.5366 3401.4468 16
-1286.3314 1339.5328 3401.437 16
-1268.9075 1342.4177 3408.7627 16
-1252.3014 1346.2751 3418.5576 16
-1229.8228 1343.8424 3412.3804 16
-1211.0568 1345.453 3416.47 16
-1191.3104 1346.0107 3417.8862 16
-1171.5945 1346.6227 3419.4399 15
-1151.2677 1346.5416 3419.2344 16
-1132.1313 1347.875 3422.6201 16
-1112.7162 1348.9191 3425.2712 16
-1095.2238 1352.3761 3434.0496 16
-1075.5648 1353.2383 3436.2388 18
-1054.1692 1351.9062 3432.8567 18
-1035.6626 1354.2999 3438.9346 18
-1008.1284 1344.7474 3414.6785 18
-997.41589 1357.7019 3447.5735 18
-1001.7446 1392.1006 3534.9209 18
-942.40155 1337.5957 3396.5181 18
-927.51428 1345.1873 3415.7952 18
-907.98346 1346.2328 3418.45 18
-888.85767 1347.9401 3422.7852 18
-876.77344 1360.6549 3455.0718 18
-862.18182 1369.9933 3478.7847 18
-825.72607 1344.1967 3413.2798 18
-814.29871 1358.8712 3450.5422 18
-779.36267 1334.061 3387.5427 18
-752.16571 1321.5365 3355.7395 18
-731.84991 1320.7504 3353.7432 19
-713.41168 1323.4033 3360.4797 19
-695.59106 1327.387 3370.5955 19
-675.63715 1327.415 3370.6667 19
-657.0083 1330.1274 3377.5542 19
-641.68958 1339.922 3402.4253 18
-620.36865 1337.4122 3396.0522 18
-601.60449 1340.4309 3403.7175 18
-582.74207 1343.4325 3411.3394 18
-562.90717 1344.327 3413.6111 18
-543.91559 1347.3777 3421.3574 18
-523.84216 1347.8806 3422.6343 18
-504.72089 1350.9725 3430.4858 18
-510.79947 1424.6058 3617.4604 18
-500.74203 1457.7146 3701.5325 18
-477.21725 1452.8553 3689.1938 18
-456.45422 1456.3413 3698.0457 18
-435.84 1460.6776 3709.0564 19
-414.43652 1462.6887 3714.1631 19
-392.53302 1463.0616 3715.1101 19
-371.39468 1466.5 3723.8411 19
-350.34933 1470.7631 3734.6663 18
-328.39017 1471.5062 3736.5535 18
-306.89883 1474.6047 3744.4211 18
-288.62048 1494.8267 3795.7703 18
-266.48029 1496.7747 3800.7168 18
-244.69464 1501.2574 3812.0996 18
-221.60693 1497.8511 3803.4502 18
-198.48358 1493.4055 3792.1616 18
-174.7892 1482.9802 3765.6887 18
-153.38025 1491.7317 3787.9114 18
-130.77194 1489.8195 3783.0554 18
-109.10955 1500.1212 3809.2144 18
-86.674812 1502.4077 3815.0205 18
-64.003502 1500.7601 3810.8367 18
-41.394958 1499.5905 3807.8669 18
-18.904217 1504.9982 3821.5984 18
3.7569668 1513.5271 3843.2559 18
26.530111 1513.8025 3843.9551 18
49.235821 1511.7532 3838.7512 18
72.123413 1514.8188 3846.5356 18
95.081116 1517.5312 3853.4233 18
117.29128 1509.5724 3833.2136 18
140.23637 1512.1201 3839.6829 18
162.85704 1510.9465 3836.7029 18
185.52882 1510.4767 3835.5098 19
208.54033 1512.5735 3840.8342 19
231.09074 1511.2423 3837.4539 19
253.46106 1509.0773 3831.9563 18
276.42432 1510.5084 3835.5903 18
299.20215 1510.7855 3836.2942 18
322.3306 1512.6693 3841.0774 18
344.24667 1508.99 3831.7349 18
367.91776 1512.9832 3841.8745 18
390.75092 1513.266 3842.5925 18
413.4447 1513.0076 3841.9365 18
435.51825 1510.6249 3835.8862 18
457.82745 1509.2554 3832.4084 18
480.55698 1509.3353 3832.6116 18
502.31903 1506.5065 3825.4285 18
525.01135 1506.5916 3825.6445 18
547.40668 1505.8525 3823.7678 18
570.0213 1505.7515 3823.5115 18
592.41516 1505.0973 3821.8501 18
615.99451 1507.3922 3827.6777 18
635.54004 1500.0035 3808.9158 18
657.43219 1498.4702 3805.0225 18
680.60596 1499.8629 3808.5586 18
704.12366 1501.8999 3813.731 18
724.24127 1496.7832 3800.7383 18
745.32385 1493.9092 3793.4404 18
766.31226 1491.0203 3786.1047 18
786.23859 1486.2878 3774.0879 16
811.87909 1492.3204 3789.4062 16
834.73322 1493.0444 3791.2446 17
856.31183 1491.5089 3787.3457 17
877.05829 1488.6394 3780.0591 16
900.75916 1490.8025 3785.5518 16
921.88422 1488.7009 3780.2153 16
940.57135 1482.8555 3765.3721 16
965.51245 1486.9121 3775.6731 16
986.30817 1484.5457 3769.6641 16
1007.2097 1482.4398 3764.3167 16
1027.1565 1479.0504 3755.7102 16
1047.0144 1475.6794 3747.1501 16
1061.3149 1464.7783 3719.4695 16
1081.4453 1462.2031 3712.9304 15
1095.093 1451.1404 3684.8389 16
1104.9691 1435.6096 3645.4021 13
1083.4235 1380.6331 3505.8018 14
1097.5602 1372.3401 3484.7437 14
1115.5487 1369.0804 3476.4666 14
1115.2032 1343.8463 3412.3901 14
1127.5009 1334.4746 3388.593 14
1139.6359 1325.2417 3365.1482 14
1162.3865 1328.4586 3373.3167 14
1184.121 1330.4249 3378.3098 14
1197.5563 1323.1567 3359.8535 16
1188.0768 1291.2216 3278.7617 16
1197.4602 1280.4846 3251.4976 16
1196.251 1258.9401 3196.79 16
1203.4075 1246.7338 3165.7952 14
1208.968 1233.2742 3131.6174 65549
1216.8979 1222.6019 3104.5178 196618
0 0 0 0
1240.1946 1209.4492 3071.1194 1378055
1275.5388 1225.9324 3112.9746 4008224
1285.9115 1218.2875 3093.5623 6705219
1293.1166 1207.8986 3067.1819 8020816
1316.5559 1212.7518 3079.5056 8612694
1333.7212 1211.7721 3077.0178 8941146
1365.3654 1223.7961 3107.5503 9138525
1382.9639 1223.0787 3105.7285 9270366
1405.4398 1226.637 3114.7639 9335646
1425.1993 1227.7628 3117.6228 9335902
1440.2966 1224.895 3110.3406 9269852
1458.1495 1224.4135 3109.1177 8809302
1484.7389 1231.1885 3126.3213 9203803
1502.4548 1230.5291 3124.6467 9269853
1522.5482 1231.8093 3127.8977 9269852
1544.2456 1234.3407 3134.3257 9204059
1556.3542 1229.2385 3121.3699 9072473
1571.6177 1226.7188 3114.9714 8546130
1593.9268 1229.693 3122.5239 8677715
1616.0927 1232.4899 3129.626 8348495
1629.2408 1228.4242 3119.302 8348751
1649.5737 1229.8059 3122.8108 8611924
1672.4366 1233.0223 3130.978 8611925
1681.1364 1225.8407 3112.7419 8283472
1703.5581 1228.7122 3120.0334 8415058
1726.405 1231.8254 3127.9387 8678231
1748.6604 1234.4548 3134.6155 8809816
1773.7944 1239.0399 3146.2583 8809816
1787.6216 1235.7135 3137.8118 8809815
1825.3242 1248.79 3171.0166 6967611
1834.6925 1242.4127 3154.8228 8480850
1859.491 1246.5076 3165.2207 8546130
1880.4735 1247.9882 3168.9802 8349007
1907.6842 1253.5321 3183.0579 8283471
1919.8634 1249.187 3172.0244 8283215
1942.0447 1251.371 3177.5703 9138523
1958.3398 1249.7567 3173.4712 9204828
1976.6294 1249.4338 3172.6514 8875863
1994.7938 1249.0387 3171.6479 8810069
2022.1663 1254.3628 3185.1672 8480850
2041.7383 1254.7943 3186.2632 8283471
2069.7434 1260.3533 3200.3789 8020299
2077.7739 1253.7585 3183.6328 8151628
2102.6287 1257.3429 3192.7346 8218191
2126.9248 1260.5325 3200.8337 8546900
2142.53 1258.5604 3195.8262 8481620
2159.6499 1257.5049 3193.1458 8349777
2181.604 1259.2578 3197.5969 8481620
2205.3755 1262.0208 3204.6128 8547413
2232.4553 1266.6135 3216.2751 8612949
2250.4814 1266.0353 3214.8069 8546643
2264.3354 1263.1394 3207.4536 8612435
2283.2983 1263.1179 3207.3989 8546643
2299.6531 1261.666 3203.7122 8086092
2324.0945 1264.6381 3211.2588 8151887
2332.1316 1258.708 3196.2009 7757128
2357.8191 1262.3231 3205.3806 8085838
2386.5596 1267.502 3218.531 8480852
2398.7654 1263.8867 3209.3511 8875354
2420.4973 1265.308 3212.9602 8612438
2456.064 1273.8828 3234.7339 9073247
2461.377 1266.7548 3216.6338 8875869
2503.4443 1278.5065 3246.4749 8350037
2486.4795 1260.1614 3199.8914 7757899
2537.7134 1276.3958 3241.115 7231298
2572.4971 1284.1746 3260.8674 7099969
2549.47 1263.1937 3207.5913 7429188
2585.219 1271.4298 3228.5049 8152912
2612.9697 1275.64 3239.196 7561290
2573.9521 1247.4307 3167.5647 7363398
2574.1877 1238.5154 3144.9265 6968380
2584.4368 1234.5116 3134.7595 6441780
2600.0662 1233.1165 3131.217 7757639
2654.4478 1249.9896 3174.0625 7033659
2649.8538 1239.0491 3146.2815 7033146
2590.1025 1202.6503 3053.855 7625540
2653.0088 1223.3145 3106.3271 7362368
2705.9402 1239.1261 3146.4773 7691076
2733.5913 1243.2241 3156.8833 6966841
2757.564 1245.605 3162.9287 8414799
2778.6248 1246.6471 3165.575 7427904
2804.5227 1249.8311 3173.6599 7756611
2818.3779 1247.6414 3168.0996 7625281
2843.2485 1250.3247 3174.9136 10060129
2900.467 1267.1045 3217.522 12428165
2937.0049 1274.6895 3236.7822 13085837
2947.363 1270.8875 3227.1279 13612182
2969.5823 1272.2161 3230.5015 12691081
2970.2856 1264.3688 3210.5752 11507066
2978.6255 1259.8516 3199.1045 7954502
2998.1853 1260.1068 3199.7529 8744536
3033.6233 1266.9905 3217.2324 6574392
3012.4431 1250.2893 3174.8235 7692873
3035.3582 1251.9832 3179.1248 11574404
0 0 0 0
0 0 0 0
0 0 0 0
0 0 0 0
0 0 0 0
0 0 0 0
0 0 0 0
-2817.811 1260.5311 3153.3931 18
-2798.3386 1260.1749 3152.5022 18
-2779.6135 1260.1527 3152.4465 18
-2853.5081 1302.4038 3258.1436 18
-2822.7505 1297.1396 3244.9746 18
-2802.2295 1296.5396 3243.4734 18
-2781.4397 1295.8059 3241.6379 18
-2761.0857 1295.2666 3240.2888 18
-2755.1431 1301.5275 3255.9514 18
-2734.8003 1301.0262 3254.6973 18
-2724.6409 1305.3967 3265.6306 18
-2920.4746 1409.2285 3525.3801 18
-2877.7844 1398.631 3498.8689 18
-2866.1978 1403.106 3510.064 18
-2855.6643 1408.1659 3522.7219 18
-2817.9509 1399.7987 3501.7903 18
-2736.3845 1369.3622 3425.6492 18
-2761.4216 1392.2168 3482.823 18
-2751.8005 1397.8104 3496.8164 18
-2716.333 1390.2604 3477.929 18
-2702.8752 1393.9459 3487.1487 18
-2676.5784 1391.0157 3479.8184 18
-2658.5435 1392.3671 3483.1992 18
-2636.7969 1391.7804 3481.7314 18
-2601.0151 1383.7181 3461.5625 18
-2573.2368 1379.8191 3451.8083 18
-2604.6318 1407.8417 3521.9109 18
-2568.2737 1399.3997 3500.792 18
-2525.373 1387.2261 3470.3381 18
-2474.0884 1370.2095 3427.7688 18
-2452.9158 1369.7262 3426.5598 18
-2432.6328 1369.7356 3426.5833 18
-2410.7766 1368.8519 3424.3726 18
-2422.7241 1387.3101 3470.5481 18
-2306.356 1331.9786 3332.1289 18
-2284.8257 1330.9358 3329.5203 18
-2264.1721 1330.39 3328.155 18
-2243.9951 1330.1173 3327.4727 18
-2220.8445 1328.0615 3322.3296 18
-2197.4133 1325.7997 3316.6714 18
-2176.761 1325.1886 3315.1428 18
-2150.4041 1321.0618 3304.8191 18
-2125.8945 1318.0048 3297.1714 18
-2112.2922 1321.7159 3306.4556 18
-2095.2815 1323.3438 3310.5276 18
-2075.2786 1323.0947 3309.9048 18
-2054.2002 1322.1487 3307.5381 18
-2033.7273 1321.578 3306.1104 18
-2010.6361 1319.2782 3300.3572 18
-1988.3625 1317.4749 3295.8459 18
-1974.6144 1321.3408 3305.5171 18
-1956.6188 1322.4135 3308.2004 18
-1937.3741 1322.655 3308.8047 18
-1915.3052 1320.9537 3304.5486 18
-1898.9506 1323.199 3310.1655 18
-1879.7469 1323.4852 3310.8816 18
-1852.5963 1318.1232 3297.4675 18
-1823.5638 1311.2937 3280.3828 18
-1795.3594 1304.9188 3264.4351 18
-1796.5116 1319.9749 3302.0999 18
-1781.0355 1323.0103 3309.6934 18
-1761.1349 1322.7902 3309.1426 18
-1734.5394 1317.4797 3295.8579 17
-1715.8453 1318.1183 3297.4556 15
-1698.2017 1319.5879 3301.1318 16
-1678.5106 1319.4822 3300.8674 16
-1656.9407 1317.8798 3296.8586 13
-1639.252 1319.3627 3300.5684 13
-1620.8033 1320.2625 3302.8196 14
-1606.3602 1324.4872 3313.3879 16
-1589.5336 1326.8264 3319.24 16
-1564.6215 1322.3907 3308.1436 15
-1546.8215 1323.9299 3311.9941 18
-1531.0386 1327.2572 3320.3176 18
-1511.8286 1327.6614 3321.3289 18
-1493.4014 1328.7727 3324.1091 18
-1470.6017 1325.9714 3317.1011 18
-1448.8079 1324.0134 3312.2029 18
-1432.7859 1327.3488 3320.5466 17
-1413.4156 1327.632 3321.2551 15
-1397.3871 1331.1062 3329.9465 16
-1375.728 1329.2396 3325.2771 16
-1356.4259 1329.6294 3326.2522 16
-1337.891 1330.7938 3329.165 16
-1321.2614 1333.9165 3336.9771 16
-1302.4623 1334.9106 3339.4639 16
-1283.6415 1335.9127 3341.9707 16
-1264.6415 1336.757 3344.0825 16
-1249.2227 1341.4735 3355.8816 16
-1230.2578 1342.4733 3358.3828 16
-1210.8601 1343.0258 3359.7649 16
-1188.0254 1339.7209 3351.4973 16
-1168.2329 1339.7926 3351.6765 16
-1150.1639 1341.8776 3356.8923 16
-1131.0109 1342.7489 3359.0723 16
-1111.5725 1343.3068 3360.4678 16
-1095.9396 1348.5674 3373.6279 17
-1075.304 1347.7532 3371.5913 18
-1058.1251 1351.3231 3380.522 18
-1038.6224 1352.0056 3382.2292 18
-1012.8395 1344.3788 3363.1499 18
-996.60046 1349.3683 3375.6316 18
-976.39813 1349.0861 3374.9255 18
-952.09766 1343.0111 3359.7283 18
-933.05048 1344.2452 3362.8157 18
-904.94556 1332.199 3332.6802 18
-889.82422 1339.1553 3350.0825 18
-888.79956 1368.1279 3422.5615 18
-869.65356 1369.9081 3427.0146 18
-842.63806 1359.0806 3399.9282 18
-825.98309 1364.8424 3414.3423 18
-814.42188 1379.5216 3451.0645 18
-796.04529 1383.1154 3460.0547 18
-747.88129 1333.7759 3336.625 18
-724.13 1326.4772 3318.3662 19
-705.73096 1328.8491 3324.3 19
-686.83575 1330.3962 3328.1704 19
-675.82886 1347.7659 3371.623 19
-651.35602 1338.5214 3348.4966 19
-630.76813 1336.9304 3344.5166 18
-611.17371 1337.4102 3345.7168 18
-592.74915 1340.568 3353.6165 18
-579.19745 1355.3474 3390.5891 18
-560.94922 1359.8038 3401.7375 18
-545.6759 1372.0728 3432.4299 18
-525.80145 1373.2743 3435.4358 18
-494.4436 1343.3729 3360.6333 18
-488.21094 1382.09 3457.4895 18
-484.27704 1430.9907 3579.8215 18
-464.59885 1435.7172 3591.6453 18
-443.96512 1437.8029 3596.863 18
-430.99408 1466.1659 3667.8169 18
-409.52261 1467.0884 3670.1248 19
-387.83954 1467.3137 3670.6885 19
-366.0047 1466.9578 3669.7979 18
-344.84677 1469.4409 3676.01 18
-326.78918 1486.3606 3718.3369 18
-309.69122 1510.4064 3778.4907 18
-288.89828 1518.7743 3799.4241 18
-265.73935 1515.0668 3790.1492 18
-242.40811 1509.6018 3776.478 18
-219.575 1506.4431 3768.5759 18
-196.61151 1501.5735 3756.394 19
-172.73216 1487.5737 3721.3716 18
-150.04733 1481.2697 3705.6011 18
-128.53584 1486.373 3718.3682 18
-107.07098 1494.2384 3738.0444 18
-85.125214 1497.7441 3746.8145 18
-63.065834 1501.019 3755.0071 18
-40.781487 1499.5908 3751.4343 18
-18.584188 1501.7769 3756.9026 18
3.683316 1506.1782 3767.9133 18
26.102085 1511.7845 3781.9385 18
48.421818 1509.1252 3775.2859 18
70.620285 1505.5612 3766.3699 18
93.360191 1512.4801 3783.6785 18
115.86614 1513.6635 3786.6387 18
138.16541 1512.2007 3782.9795 18
160.19823 1508.6372 3774.0649 19
182.25182 1506.118 3767.7629 19
205.92004 1516.036 3792.5742 18
228.12788 1514.3087 3788.2529 18
250.50508 1513.9143 3787.2664 18
272.92987 1513.8486 3787.1021 18
295.13766 1512.6809 3784.1807 18
318.63675 1517.829 3797.0593 18
340.78879 1516.3047 3793.2461 18
362.22842 1511.9951 3782.4651 18
384.73636 1512.3873 3783.4463 18
408.94189 1519.0421 3800.0942 18
429.91766 1513.6313 3786.5583 18
451.36133 1510.3228 3778.2815 18
472.99338 1507.9274 3772.2891 18
494.41397 1505.1046 3765.2275 18
517.45428 1507.2432 3770.5774 18
540.38226 1508.8912 3774.7004 18
562.3396 1507.8058 3771.9849 18
583.56757 1504.9224 3764.7717 18
604.86139 1502.4149 3758.4988 18
626.89569 1501.8591 3757.1086 18
648.23328 1499.7299 3751.782 18
670.6568 1500.1708 3752.885 18
691.76044 1497.7258 3746.7686 18
713.23303 1496.2068 3742.9683 18
733.94525 1493.2323 3735.5273 18
752.44989 1486.072 3717.615 18
773.52618 1484.2537 3713.0659 16
795.73816 1484.6547 3714.0691 16
814.78967 1479.296 3700.6638 16
836.81873 1479.4824 3701.1304 16
863.04749 1486.895 3719.6736 16
885.63635 1487.8234 3721.9963 16
905.88965 1484.8785 3714.6292 16
928.3067 1485.5358 3716.2734 16
947.30231 1480.8141 3704.4617 16
969.52057 1481.2301 3705.5022 16
989.91504 1478.903 3699.6804 16
1009.1122 1474.9264 3689.7327 16
1031.459 1475.6245 3691.479 16
1054.8448 1477.7494 3696.7947 14
1072.538 1471.9747 3682.3486 14
1085.1842 1459.6422 3651.4971 14
1088.906 1436.0222 3592.4084 14
1121.7263 1450.9465 3629.7439 14
1119.1234 1420.3518 3553.2068 14
1104.2505 1375.6013 3441.2573 14
1115.0074 1363.8226 3411.791 14
1120.3518 1345.9609 3367.1074 14
1128.8289 1332.4216 3333.2371 14
1152.4287 1336.8912 3344.4187 14
1176.8826 1342.1838 3357.6587 14
1194.2727 1339.3785 3350.6409 14
1204.8597 1329.16 3325.0779 13
1206.1764 1309.2081 3275.1653 16
1195.7578 1277.3516 3195.4719 16
1246.0194 1310.2988 3277.894 14
1216.5223 1259.6488 3151.1858 65550
1209.6528 1233.6051 3086.0342 65550
1219.8744 1225.5072 3065.7759 65549
1227.8866 1215.4597 3040.6409 196616
1239.8112 1209.5195 3025.7808 327682
1271.3148 1222.5774 3058.4465 2890774
1281.5211 1215.075 3039.6782 6113595
1297.5219 1213.1984 3034.9839 7033923
1306.9933 1205.3514 3015.3538 9138526
1334.7462 1214.3489 3037.8618 8677974
1357.2716 1218.4139 3048.0312 8743765
1374.5447 1217.7194 3046.2935 8809558
1390.5476 1215.932 3041.8223 8875095
1413.2111 1219.9399 3051.8489 8677716
1429.7704 1218.6439 3048.6067 8611923
1445.2034 1216.4323 3043.0737 9335645
1472.7197 1224.3203 3062.8069 9335389
1492.3945 1225.5768 3065.9502 9007194
1510.9624 1225.905 3066.7712 8875608
1524.1575 1221.9181 3056.7971 8678229
1543.8138 1223.1439 3059.8638 8546643
1568.5222 1228.2974 3072.7561 8612179
1578.722 1222.1016 3057.2563 8612435
1593.9757 1219.9141 3051.7839 8480593
1611.7476 1219.6813 3051.2017 8414800
1638.5791 1226.2336 3067.5933 8283214
1654.8439 1224.821 3064.0596 7822664
1668.6534 1221.642 3056.1064 7954506
1691.1244 1224.8038 3064.0164 8085837
1710.6598 1225.7952 3066.4963 8151629
1746.1437 1238.0737 3097.2126 7362369
1745.2406 1224.5657 3063.4204 8415057
1789.3418 1242.5883 3108.5066 8744022
1805.3352 1240.9233 3104.3416 8283471
1820.1941 1238.5201 3098.3296 8415057
1839.4375 1239.1184 3099.8262 8217676
1865.2972 1244.1179 3112.3333 8151627
1889.3722 1247.8408 3121.6465 8085834
1897.7371 1241.2162 3105.0742 7493440
1909.7703 1237.0951 3094.7646 8810070
1945.4438 1248.2205 3122.5962 8744277
1959.9769 1245.6998 3116.2905 8612691
1982.1383 1248.0293 3122.1182 8480848
2000.6027 1248.0095 3122.0686 8283471
2028.7704 1253.9877 3137.0237 8086092
2053.9133 1258.0048 3147.073 7889483
2057.6931 1248.9824 3124.5024 7823691
2084.4941 1253.9698 3136.9792 7889484
2101.6831 1253.1379 3134.8982 7165505
2131.0444 1259.5149 3150.8511 8086864
2146.2222 1257.4709 3145.7375 8350037
2161.6184 1255.5891 3141.03 8481621
2179.5198 1255.1819 3140.0115 8613206
2204.7778 1258.9827 3149.5195 8745049
2219.2893 1256.6345 3143.6453 8809815
2239.168 1257.3392 3145.4082 8415057
2262.2612 1259.8224 3151.6204 8678229
2283.1733 1261.0603 3154.717 8744024
2293.6726 1256.5735 3143.4924 8744024
2308.8054 1254.6769 3138.748 8085837
2312.6699 1246.736 3118.8828 7428163
2320.7898 1241.1969 3105.0259 7954250
2368.3552 1256.6752 3143.7471 7559747
2377.5989 1251.7365 3131.3921 7164477
2413.0298 1260.5544 3153.4514 7362112
2422.2566 1255.6532 3141.1902 7691848
2442.3521 1256.4178 3143.1033 7889484
2459.345 1255.5869 3141.0244 8152399
2505.2048 1269.3955 3175.5686 7232065
2500.3486 1257.4918 3145.7898 7495238
2504.814 1250.4174 3128.0923 7297858
2474.3599 1226.1432 3067.3669 6179376
2487.457 1223.6469 3061.1218 6639928
2440.0735 1191.6498 2981.0769 4995108
2439.8496 1182.9784 2959.3843 5981745
2447.1655 1178.0603 2947.0811 6902846
2463.3433 1177.4479 2945.5488 5521191
2450.7944 1163.2096 2909.9299 11705219
2458.3513 1158.6462 2898.5142 10520175
2553.7095 1195.2408 2990.0605 7033403
2570.0774 1194.6154 2988.4956 7757128
2673.6213 1234.2419 3087.627 8349266
2688.563 1232.7059 3083.7847 8151884
2725.1418 1241.0442 3104.644 8217677
2733.6729 1236.5833 3093.4844 8086090
2769.6389 1244.5095 3113.313 7888709
2781.3787 1241.517 3105.8267 6967349
2832.4539 1256.0063 3142.074 8743503
2850.3706 1255.6991 3141.3052 10519914
2853.9871 1249.1368 3124.8887 12033150
2908.5645 1264.8199 3164.1223 11704186
2938.3528 1269.5916 3176.0591 12099199
2939.2654 1261.9053 3156.8308 12428165
2942.8191 1255.443 3140.6643 11967616
2969.385 1258.8174 3149.106 10980980
2936.2722 1237.0079 3094.5466 10257003
2928.8562 1226.2278 3067.5784 9072730
0 0 0 0
0 0 0 0
0 0 0 0
0 0 0 0
0 0 0 0
0 0 0 0
0 0 0 0
-2777.4858 1260.9059 3108.2654 17
-2757.0134 1259.9653 3105.9468 18
-2738.0894 1259.7242 3105.3525 18
-2800.7195 1297.2549 3197.8694 18
-2780.6641 1296.7371 3196.5928 18
-2759.4734 1295.679 3193.9846 18
-2738.7507 1294.8276 3191.886 18
-2719.0837 1294.467 3190.9971 18
-2709.7078 1299.0348 3202.2571 18
-2676.5356 1292.1787 3185.3562 18
-2873.1956 1396.9716 3443.6814 18
-2830.0774 1385.8473 3416.259 18
-2729.1824 1346.0667 3318.1956 18
-2738.6699 1360.5457 3353.8879 18
-2640.3794 1321.3021 3257.1484 18
-2637.7012 1329.6792 3277.7988 18
-2743.3027 1393.1699 3434.3101 18
-2590.9097 1325.6093 3267.7661 18
-2615.9399 1348.4916 3324.1733 18
-2511.4238 1304.4344 3215.5679 18
-2644.094 1383.8402 3411.3113 18
-2556.6416 1348.3761 3323.8887 18
-2488.2468 1322.4906 3260.0781 18
-2458.7639 1317.0432 3246.6497 18
-2447.927 1321.5765 3257.825 18
-2536.4331 1380.2411 3402.439 18
-2517.4077 1380.8617 3403.969 18
-2513.4592 1389.8291 3426.0747 18
-2520.4075 1405.0171 3463.5146 18
-2511.6353 1411.619 3479.7891 18
-2489.8457 1410.9535 3478.1482 18
-2427.4692 1387.085 3419.3098 18
-2414.4792 1391.2721 3429.6316 18
-2384.8647 1385.8698 3416.3145 18
-2357.3228 1381.5896 3405.7634 18
-2211.0154 1307.0281 3221.9614 18
-2198.9849 1311.2362 3232.335 18
-2201.123 1324.0411 3263.9004 18
-2176.5095 1320.8385 3256.0056 18
-2151.9121 1317.5884 3247.9937 18
-2101.9802 1298.6277 3201.2537 18
-2055.1296 1281.2429 3158.3982 18
-2080.0027 1308.6644 3225.9951 18
-2048.696 1300.9204 3206.9055 18
-2000.0897 1281.9435 3160.1252 18
-2038.1597 1318.6874 3250.7029 18
-1994.592 1302.8091 3211.561 18
-1994.3849 1315.2194 3242.1538 18
-1952.5151 1300.129 3204.9546 18
-1944.9858 1307.8333 3223.946 18
-1934.9746 1314.0049 3239.1599 18
-1918.8965 1316.1389 3244.4204 18
-1895.9207 1313.5372 3238.0071 18
-1866.9431 1306.6818 3221.1077 18
-1855.6805 1312.2115 3234.7393 18
-1825.6851 1304.4718 3215.6599 18
-1793.8633 1295.2502 3192.9277 18
-1760.8475 1284.9608 3167.5632 18
-1781.8713 1314.3094 3239.9106 18
-1722.616 1284.4382 3166.2751 16
-1738.3474 1310.4376 3230.3662 16
-1724.0394 1314.1188 3239.4407 16
-1683.667 1297.7919 3199.1934 16
-1690.1973 1317.6582 3248.1658 16
-1672.0753 1318.5421 3250.3447 16
-1650.8208 1316.9478 3246.4143 16
-1629.7452 1315.4601 3242.7471 14
-1612.771 1317.2867 3247.2502 14
-1597.3065 1320.4056 3254.9385 15
-1577.0532 1319.5939 3252.9373 15
-1562.6041 1323.6785 3263.0063 16
-1541.1205 1321.8319 3258.4546 16
-1545.4353 1342.3468 3309.0259 18
-1517.4657 1334.9868 3290.8826 18
-1497.5931 1334.6511 3290.0549 18
-1477.9792 1334.5403 3289.7817 18
-1457.9767 1334.0706 3288.624 18
-1438.1033 1333.7081 3287.7307 18
-1418.35 1333.4486 3287.0908 18
-1435.5797 1368.4351 3373.3362 18
-1417.7135 1370.4828 3378.384 18
-1396.4216 1369.2301 3375.2959 16
-1381.0707 1373.8508 3386.6865 16
-1360.1986 1373.0345 3384.6743 16
-1337.5066 1370.3295 3378.0059 16
-1317.9556 1370.809 3379.188 15
-1316.8917 1390.8285 3428.5381 17
-1297.3481 1391.6521 3430.5686 18
-1233.2559 1343.9545 3312.989 18
-1214.3601 1344.7642 3314.9849 18
-1221.5656 1374.9797 3389.4692 18
-1202.1031 1375.6864 3391.2114 18
-1151.2245 1339.8533 3302.8789 18
-1131.9408 1340.1888 3303.7061 16
-1112.8647 1340.786 3305.1785 16
-1093.7648 1341.3757 3306.6318 16
-1075.3323 1342.8203 3310.1929 15
-1056.8534 1344.2593 3313.7402 18
-1041.2991 1349.5433 3326.7659 18
-1007.0245 1330.3011 3279.332 18
-995.76166 1341.299 3306.4426 18
-980.86273 1347.7421 3322.3257 18
-949.93726 1331.9771 3283.4634 18
-932.8418 1335.3505 3291.7791 18
-911.99493 1333.3831 3286.9292 18
-903.9007 1350.3816 3328.8323 18
-894.64044 1366.3577 3368.2148 18
-873.59113 1364.6467 3363.9973 18
-855.32043 1367.2979 3370.5327 18
-803.86078 1315.7522 3243.467 18
-779.92395 1307.8344 3223.949 18
-778.03186 1337.4132 3296.864 18
-770.22015 1358.0776 3347.804 18
-729.88617 1320.9746 3256.3411 18
-703.83746 1308.4127 3225.3748 19
-691.0484 1320.4869 3255.1389 19
-668.32471 1313.726 3238.4724 19
-659.2771 1334.2428 3289.0486 19
-652.7868 1361.3425 3355.8523 19
-620.89697 1335.512 3292.177 18
-609.63275 1353.809 3337.2812 18
-589.51685 1353.017 3335.3289 18
-564.15668 1339.7163 3302.5413 18
-544.99445 1340.7072 3304.9839 18
-522.05701 1332.1387 3283.8616 18
-505.62637 1340.1528 3303.6174 18
-487.67294 1344.6139 3314.6145 18
-485.21158 1393.9562 3436.2483 18
-478.36887 1434.4817 3536.1479 18
-448.91473 1407.8092 3470.3972 18
-443.34021 1457.0577 3591.8 19
-418.72162 1445.5273 3563.3767 19
-397.78107 1446.1443 3564.8975 18
-377.2876 1448.5469 3570.8201 18
-362.95239 1476.2833 3639.1934 18
-338.61929 1464.2892 3609.6265 18
-321.56119 1484.2576 3658.8508 16
-304.26245 1505.9218 3712.2551 16
-281.64377 1502.5796 3704.0164 16
-261.28336 1511.7388 3726.5947 16
-239.82706 1515.6626 3736.2673 16
-215.34515 1499.3191 3695.979 17
-192.74028 1493.8236 3682.4319 18
-170.79677 1492.7053 3679.6753 18
-148.50006 1487.7214 3667.3894 18
-127.09369 1491.4775 3676.6487 18
-105.96259 1500.686 3699.3486 18
-83.879959 1497.7065 3692.0039 18
-62.330654 1505.5073 3711.2336 18
-40.395203 1507.4006 3715.9009 18
-18.433767 1511.6979 3726.4939 18
3.6453557 1512.7474 3729.0811 18
25.719076 1511.6777 3726.4441 18
47.806561 1512.0315 3727.3162 18
69.878677 1511.8293 3726.8179 18
92.079712 1513.8435 3731.7832 18
114.35085 1516.0073 3737.1172 18
136.43837 1515.4297 3735.6931 18
158.06097 1510.5702 3723.7139 18
180.46013 1513.4133 3730.7229 18
202.51357 1513.0532 3729.835 18
224.87819 1514.8602 3734.2893 18
246.42914 1511.3531 3725.644 18
268.48767 1511.2798 3725.4634 18
290.2168 1509.5043 3721.0864 18
313.29126 1514.483 3733.3596 18
335.52133 1514.9923 3734.615 18
357.50629 1514.4003 3733.1555 18
379.03922 1512.0741 3727.4214 18
401.12079 1512.0721 3727.4165 18
424.29712 1515.9819 3737.0544 18
444.95999 1510.9688 3724.6965 18
468.42944 1515.5095 3735.8901 18
489.33188 1511.7103 3726.5244 18
509.68906 1506.6272 3713.9941 18
534.25342 1513.8865 3731.8892 18
556.11523 1513.215 3730.2339 18
576.84601 1509.6349 3721.4084 18
596.14069 1502.6985 3704.3096 18
617.46161 1501.1809 3700.5684 18
638.73621 1499.6584 3696.8154 18
660.146 1498.5439 3694.0681 18
682.40826 1499.3741 3696.1145 18
703.0849 1496.7767 3689.7119 18
724.83179 1496.5459 3689.1428 18
744.74133 1492.6462 3679.5295 18
764.4657 1488.6075 3669.5737 16
788.93671 1493.7797 3682.3237 16
807.81952 1488.3773 3669.0063 15
827.5957 1484.861 3660.3381 15
848.73712 1483.9113 3657.9971 16
870.33606 1483.7887 3657.6948 18
891.13794 1482.3463 3654.1392 17
908.61749 1475.5769 3637.4519 17
928.92969 1473.6147 3632.615 16
954.20709 1479.4397 3646.9741 16
975.93335 1479.6227 3647.4253 16
992.82953 1472.6337 3630.1965 16
1012.7352 1470.3101 3624.4685 16
1034.1702 1470.2572 3624.3384 14
1053.6752 1467.5186 3617.5872 14
1075.9878 1468.7213 3620.5522 13
1095.6871 1466.3798 3614.78 14
1110.1812 1457.2952 3592.3855 14
1125.1965 1449.2239 3572.4888 14
1093.9197 1382.928 3409.0625 14
1106.5409 1373.5255 3385.8845 14
1098.2054 1338.9078 3300.5483 14
1113.9576 1334.3549 3289.3247 14
1131.533 1332.1046 3283.7778 14
1155.2212 1337.0055 3295.8589 14
1176.1854 1338.6429 3299.8955 14
1191.1527 1333.5133 3287.2502 15
1204.1702 1326.4009 3269.7175 17
1215.2361 1317.3982 3247.5247 16
1226.735 1309.1381 3227.1626 16
1217.634 1279.4852 3154.0654 16
1209.1404 1251.3573 3084.7271 16
1287.6388 1312.7557 3236.0808 14
1228.2001 1233.7881 3041.417 65550
1231.792 1219.5059 3006.21 196619
1243.6578 1213.7054 2991.9111 393221
1244.5354 1197.495 2951.9509 1444106
1237.5487 1174.2716 2894.7029 4731948
1283.0758 1200.8309 2960.1743 7692109
1293.0172 1193.8184 2942.8875 9204573
1321.4399 1203.8287 2967.564 9599332
1334.2638 1199.5521 2957.022 9533793
1366.0863 1212.2457 2988.313 8282701
1384.7876 1213.1199 2990.468 8875095
1403.0947 1213.6311 2991.728 9006681
1420.3352 1213.2183 2990.7104 9006937
1435.6567 1211.1969 2985.7273 9007194
1444.9332 1204.1866 2968.4465 8151885
1464.3649 1205.7065 2972.1931 9138780
1488.1837 1210.7595 2984.6494 9204574
1508.618 1212.9728 2990.1052 9336159
1536.5228 1221.0713 3010.0691 8941144
1557.4976 1223.54 3016.1545 8809815
1575.5839 1223.7092 3016.5718 8875351
1590.5717 1221.4951 3011.1135 8809815
1604.1667 1218.2725 3003.1694 8875607
1619.6177 1216.5145 2998.8359 8349007
1632.8854 1213.1726 2990.5977 7757127
1664.7385 1223.5625 3016.21 8020298
1681.457 1222.7262 3014.1482 8612179
1706.3484 1227.788 3026.6262 8612437
1723.2441 1227.0511 3024.8098 7691334
1753.2618 1235.577 3045.8269 8217678
1764.201 1230.621 3033.6099 8415057
1784.4841 1232.217 3037.5442 8349264
1819.323 1243.7318 3065.9294 8612179
1829.4846 1238.3157 3052.5781 8283727
1847.5671 1238.3146 3052.5754 7625541
1865.7588 1238.386 3052.7515 7098428
1889.1367 1241.8652 3061.3281 6967098
1900.3981 1237.389 3050.2939 5849131
1934.7065 1247.8623 3076.1116 8480849
1947.967 1244.691 3068.2939 8217678
1979.3873 1253.0747 3088.9604 8349264
1997.6887 1253.0757 3088.9631 8217678
2002.6879 1244.8085 3068.5835 8152398
2020.9327 1244.849 3068.6836 8152398
2040.6545 1245.7906 3071.0046 8086862
2058.9661 1245.8621 3071.1809 8152655
2088.241 1252.5083 3087.5642 7889483
2119.6687 1260.3187 3106.8179 7231553
2142.4143 1262.8771 3113.1245 7823690
2162.7388 1263.9768 3115.8354 7757899
2174.7754 1260.255 3106.6609 8481622
2182.5386 1254.1403 3091.5874 8744537
2195.7783 1251.248 3084.4578 8480849
2212.2883 1250.2518 3082.002 8875608
2224.0156 1246.5909 3072.9775 8941401
2239.8372 1245.2657 3069.7109 9007193
2259.2458 1245.9403 3071.3735 8809816
2265.1541 1239.2181 3054.8027 8941146
2285.4321 1240.4017 3057.7205 8875610
2303.6357 1240.4497 3057.8386 8809817
2337.261 1248.7363 3078.2659 8217680
2353.3152 1247.5793 3075.4141 7954251
2372.7151 1248.2002 3076.9446 7625542
2404.1946 1255.118 3093.9978 6243632
2450.8428 1269.79 3130.1658 5323043
2440.1033 1254.7322 3093.0464 6113071
2439.8496 1245.2506 3069.6733 7626823
2443.8101 1238.0442 3051.9087 5192483
2432.2817 1223.1544 3015.2041 4403483
2398.8232 1197.5341 2952.0471 4534813
2403.9939 1191.4292 2936.998 6245688
2396.4087 1179.1357 2906.6934 5193767
2417.7021 1181.1257 2911.5989 5588527
2431.0381 1179.2277 2906.9199 11113082
2408.9043 1160.2719 2860.1919 10784118
2411.4026 1153.3624 2843.1594 9402720
2430.6707 1154.5139 2845.998 9928039
2458.0452 1159.4736 2858.2241 10257261
2528.3362 1184.4708 2919.845 9072733
2552.2771 1187.5618 2927.4644 7757129
2658.3982 1228.5909 3028.6057 7296322
2690.9329 1235.2898 3045.1191 7428164
2708.2175 1234.9454 3044.27 7954249
2748.8062 1245.1619 3069.4546 7165245
2793.7236 1257.192 3099.1101 8546384
2803.7427 1253.463 3089.918 8612175
2812.9624 1249.4276 3079.97 9928034
2823.9504 1246.2244 3072.0737 10257000
2856.0278 1252.3094 3087.0742 11375478
2903.4741 1265.0132 3118.3901 12230786
2901.3022 1256.0748 3096.3562 12823180
2910.8044 1252.2712 3086.98 13745054
2901.3828 1240.4244 3057.7766 13745568
2897.7432 1231.1815 3034.9917 13218457
0 0 0 0
0 0 0 0
0 0 0 0
0 0 0 0
0 0 0 0
0 0 0 0
0 0 0 0
-2734.3635 1259.4578 3060.0076 18
-2715.5693 1259.1489 3059.2573 18
-2727.0981 1272.9905 3092.8872 18
-2757.0728 1295.688 3148.0334 18
-2736.2134 1294.6426 3145.4934 18
-2716.4595 1294.1093 3144.1978 18
-2693.8979 1292.2218 3139.6121 18
-2674.2954 1291.7377 3138.4355 18
-2666.6807 1297.0773 3151.4089 18
-2627.6216 1287.0898 3127.1433 18
-2736.6555 1350.0162 3280.0308 18
-2643.3972 1313.3364 3190.9126 18
-2784.3508 1393.3315 3385.2705 18
-2763.5388 1392.95 3384.3435 19
-2680.4573 1360.9469 3306.5879 19
-2658.4861 1359.7284 3303.6277 20
-2632.2163 1356.2771 3295.2422 19
-2603.3013 1351.4009 3283.3948 18
-2584.7744 1351.8846 3284.5701 18
-2564.0637 1351.2247 3282.9668 18
-2516.6814 1336.3917 3246.9282 18
-2484.1831 1329.2947 3229.6853 18
-2459.2063 1326.1437 3222.0293 18
-2443.4409 1327.9493 3226.4165 18
-2426.8618 1329.338 3229.7903 18
-2408.1331 1329.5618 3230.334 18
-2389.0344 1329.5831 3230.386 18
-2369.4839 1329.3516 3229.8232 18
-2350.7788 1329.5942 3230.4128 18
-2335.2551 1331.655 3235.4199 18
-2307.3718 1326.6437 3223.2444 18
-2293.9551 1329.9358 3231.2429 18
-2274.3098 1329.6421 3230.5291 18
-2261.3718 1333.2979 3239.4114 18
-2239.5398 1331.7272 3235.5952 18
-2213.6758 1327.7114 3225.8384 18
-2193.0312 1326.7833 3223.5835 18
-2173.2629 1326.3739 3222.5886 18
-2150.3845 1324.042 3216.9231 18
-2125.8589 1320.6454 3208.6704 18
-2106.925 1320.6923 3208.7844 18
-2085.6733 1319.274 3205.3386 18
-2069.2297 1320.8989 3209.2866 18
-2049.6763 1320.5505 3208.4402 18
-2026.4331 1317.796 3201.7476 18
-2015.3776 1322.9901 3214.3672 18
-1998.9882 1324.7484 3218.6394 18
-1980.245 1324.9658 3219.1675 18
-1960.312 1324.3834 3217.7527 18
-1933.6821 1319.2208 3205.2092 18
-1916.9354 1320.7654 3208.9619 18
-1897.3093 1320.337 3207.9214 18
-1876.4717 1319.0485 3204.7905 18
-1859.7378 1320.6475 3208.6758 18
-1835.4001 1316.8245 3199.3872 18
-1823.6851 1322.0723 3212.1375 18
-1800.9961 1319.3912 3205.6235 18
-1779.754 1317.7245 3201.5737 18
-1758.9775 1316.3702 3198.2834 18
-1743.9985 1319.3723 3205.5774 18
-1723.9218 1318.5414 3203.5588 18
-1709.4003 1321.9886 3211.9341 17
-1688.8713 1320.8149 3209.0825 16
-1672.2217 1322.683 3213.6211 16
-1647.1672 1317.8694 3201.926 16
-1625.7603 1315.896 3197.1313 16
-1610.5465 1318.9481 3204.5466 16
-1594.2317 1321.1604 3209.9219 16
-1573.8799 1320.0404 3207.2007 16
-1555.3452 1320.4357 3208.1609 16
-1536.8341 1320.8607 3209.1938 16
-1517.5698 1320.6412 3208.6604 16
-1502.001 1323.6729 3216.0261 18
-1485.0631 1325.5603 3220.6118 18
-1466.8556 1326.3489 3222.5278 18
-1447.9777 1326.5439 3223.002 18
-1428.9972 1326.6492 3223.2576 18
-1408.9027 1325.7091 3220.9734 18
-1436.6909 1370.4169 3329.5967 18
-1420.8193 1374.144 3338.6521 18
-1405.5472 1378.5645 3349.3921 18
-1333.5603 1326.6887 3223.3535 16
-1315.2181 1327.4493 3225.2017 16
-1311.0752 1342.775 3262.4373 16
-1279.3027 1329.8384 3231.0061 16
-1295.9742 1367.6315 3322.8289 18
-1260.0658 1350.2469 3280.5913 18
-1259.8738 1371.1902 3331.4753 18
-1240.2253 1371.2874 3331.7114 18
-1225.4664 1376.8815 3345.303 18
-1151.7511 1315.3297 3195.7556 18
-1149.5453 1334.7511 3242.9421 15
-1135.0033 1340.2657 3256.3406 16
-1115.476 1339.9819 3255.6511 16
-1097.1295 1341.132 3258.4453 16
-1078.6547 1342.1636 3260.9517 18
-1050.5024 1330.9714 3233.759 18
-1014.3539 1309.0442 3180.4839 18
-1003.2111 1319.1681 3205.0813 18
-973.74231 1305.1201 3170.95 18
-950.19452 1298.6115 3155.1365 19
-918.08807 1279.9099 3109.6987 18
-902.93866 1284.5664 3121.0122 18
-895.84167 1301.1129 3161.2141 18
-879.27264 1304.3152 3168.9944 18
-862.02045 1306.6217 3174.5984 18
-870.09888 1348.2827 3275.8188 18
-855.52667 1355.9449 3294.4353 18
-826.44977 1340.4396 3256.7629 18
-786.22583 1305.6809 3172.3125 18
-766.53369 1304.1521 3168.5979 18
-749.47437 1307.1382 3175.8533 18
-731.1579 1308.0292 3178.0178 18
-713.13556 1309.5072 3181.6091 18
-695.91254 1312.5731 3189.0581 19
-678.40076 1315.2505 3195.563 19
-660.79034 1317.8846 3201.9631 19
-652.17249 1339.1396 3253.6045 19
-634.33301 1342.1772 3260.9849 19
-618.25879 1349.2579 3278.1885 19
-595.2287 1341.1257 3258.4299 19
-573.6001 1335.7119 3245.2764 19
-553.4259 1333.4265 3239.7239 18
-535.26276 1335.9966 3245.9683 18
-516.12653 1336.2391 3246.5574 18
-497.95038 1339.0822 3253.4648 18
-486.36258 1360.5848 3305.7083 18
-461.25513 1344.4841 3266.5896 18
-476.49854 1449.7402 3522.3223 18
-452.04245 1438.3204 3494.5764 18
-409.04846 1363.9891 3313.9795 18
-414.09827 1450.4436 3524.0312 18
-393.44308 1451.2625 3526.0208 18
-371.10843 1445.6307 3512.3379 17
-355.6514 1467.7128 3565.989 16
-336.82962 1477.8212 3590.5486 16
-318.65833 1492.3387 3625.8208 16
-298.23633 1497.6526 3638.7314 16
-277.32501 1501.146 3647.219 16
-256.31561 1504.6537 3655.7415 16
-235.09033 1507.4247 3662.4739 16
-212.33868 1499.9771 3644.3789 16
-189.95523 1493.7385 3629.2217 18
-168.89934 1497.6794 3638.7966 18
-147.10362 1495.2534 3632.9023 18
-125.63047 1495.8369 3634.3198 18
-104.62257 1503.3468 3652.5659 18
-83.065796 1504.8295 3656.1685 18
-61.614254 1509.9374 3668.5786 18
-39.788349 1506.4382 3660.0771 18
-18.124451 1508.0381 3663.9641 18
3.5835614 1508.8215 3665.8677 18
25.302841 1508.932 3666.136 18
47.02631 1509.0746 3666.4827 18
68.717644 1508.4219 3664.8967 18
90.63356 1511.8287 3673.1741 18
112.48125 1512.9987 3676.0164 18
133.88405 1508.7754 3665.7556 18
155.71384 1509.8715 3668.4185 18
177.93883 1514.0616 3678.5991 18
199.2253 1510.223 3669.2727 18
221.20639 1511.8872 3673.3159 18
242.67125 1510.0409 3668.8303 18
264.11703 1508.3894 3664.8176 18
285.79556 1508.2169 3664.3987 18
307.50546 1508.2225 3664.4124 18
329.48434 1509.4598 3667.4187 18
351.68143 1511.4819 3672.3313 18
373.14832 1510.3127 3669.491 18
394.92157 1510.4442 3669.8103 18
417.08456 1511.9747 3673.5288 18
438.26682 1509.9745 3668.6689 18
458.29532 1504.3761 3655.0669 18
481.46109 1509.1165 3666.5842 18
504.57626 1513.2957 3676.738 18
523.55963 1505.2501 3657.1904 18
545.245 1505.3035 3657.3201 18
567.43054 1506.6809 3660.6667 18
587.08362 1501.4801 3648.0308 18
608.90924 1502.0076 3649.3123 18
630.65173 1502.3008 3650.0249 18
653.2912 1504.6406 3655.7097 18
672.06091 1498.2037 3640.0703 18
692.55359 1495.8883 3634.4448 18
713.28448 1494.2115 3630.3711 18
736.83496 1498.3668 3640.4666 18
756.42511 1494.4612 3630.9775 18
778.40753 1495.3673 3633.179 18
805.53741 1505.8473 3658.6414 18
815.06958 1483.7433 3604.937 18
837.83136 1486.2363 3610.9941 17
857.97662 1484.0791 3605.7529 17
877.73419 1481.3724 3599.1768 18
899.72742 1482.4778 3601.8623 17
919.33301 1479.689 3595.0867 17
939.22693 1477.4802 3589.72 18
959.58105 1476.077 3586.311 17
978.8858 1473.1554 3579.2124 18
1000.8612 1474.2915 3581.9729 16
1021.6747 1473.7046 3580.5469 16
1039.2286 1468.5354 3567.9875 13
1057.8342 1465.0288 3559.4678 13
1078.2349 1464.0968 3557.2034 14
1096.0173 1459.7134 3546.5535 14
1113.9191 1455.6509 3536.6831 15
1087.0288 1394.2854 3387.5881 15
1102.4304 1388.4076 3373.3071 15
1087.3463 1345.0284 3267.9124 13
1103.0189 1340.5472 3257.0247 13
1118.1482 1335.5712 3244.9346 14
1132.5823 1329.9469 3231.2695 14
1149.5991 1327.4921 3225.3052 13
1168.7213 1327.5087 3225.3457 13
1180.1892 1318.9706 3204.6013 15
1202.8762 1323.0427 3214.4951 16
1219.0125 1319.8949 3206.8472 16
1224.4913 1305.4814 3171.8279 16
1245.0941 1307.3844 3176.4512 16
1260.6533 1304.0134 3168.261 16
1223.8788 1247.4019 3030.7163 65552
1229.5481 1235.0614 3000.7336 16
1228.4703 1216.392 2955.374 131087
1236.0419 1206.6912 2931.8047 196619
1248.0243 1201.5057 2919.2061 393222
1270.9775 1206.8795 2932.2622 1772042
1281.0927 1200.082 2915.7471 5652280
1298.6478 1200.3424 2916.3796 9139558
1323.1012 1206.8882 2932.2834 9073247
1339.5555 1206.0624 2930.2771 9006938
1360.9962 1209.6897 2939.0901 8941403
1378.7015 1209.9473 2939.7158 8875609
1397.3346 1211.0024 2942.2795 9072732
1409.9952 1206.9194 2932.3594 9007195
1424.442 1204.446 2926.3499 8480852
1439.6692 1202.6841 2922.0688 8941145
1451.3654 1198.0492 2910.8079 8612436
1465.1521 1195.2286 2903.9551 8809815
1486.7258 1198.7521 2912.5159 8678229
1495.3373 1191.8633 2895.7786 9072987
1531.7256 1207.0192 2932.6016 8612179
1555.0498 1211.6559 2943.8672 8875608
1568.3345 1208.454 2936.0879 8744022
1566.7268 1193.9731 2900.9045 8612435
1600.0405 1206.1307 2930.4431 8875608
1626.1123 1212.6268 2946.2261 8480850
1643.4363 1212.5308 2945.9927 8349264
1658.2161 1210.5795 2941.2517 8941403
1692.1869 1222.5334 2970.2954 9072730
1698.627 1214.556 2950.9133 8875608
1717.8081 1215.7587 2953.8354 8546643
1756.7842 1230.8054 2990.3933 8809558
1770.7927 1228.234 2984.1458 8744022
1810.196 1243.1534 3020.3943 8810328
1848.6031 1257.1033 3054.2874 8086349
1854.8301 1249.1113 3034.8699 9007194
1870.0348 1247.2609 3030.3738 8020042
1892.3134 1250.1188 3037.3174 8480592
1909.694 1249.7174 3036.3423 7888456
1923.4358 1246.9646 3029.6541 8546642
1950.0798 1252.55 3043.2244 8480849
1973.3171 1255.8647 3051.2781 8480593
1975.0343 1245.5479 3026.2119 8284241
2000.8878 1250.5011 3038.2463 8350033
2011.1779 1245.7261 3026.6448 8349777
2029.4022 1245.9065 3027.083 7823690
2043.958 1243.8512 3022.0896 8087119
2070.895 1249.3008 3035.3301 7823689
2080.8103 1244.4762 3023.6082 7823690
2113.7483 1253.3857 3045.2551 8152656
2091.2837 1229.5708 2987.3936 7231554
2125.0818 1238.9574 3010.1995 7560006
2159.55 1248.5752 3033.5671 8743764
2176.8479 1248.189 3032.6287 8678229
2183.6108 1241.8177 3017.1489 8020556
2194.7495 1238.0182 3007.9177 7955019
2230.7798 1248.2079 3032.6748 8876122
2236.1887 1241.2377 3015.7397 9007453
2263.499 1246.4385 3028.3757 8481365
2263.2271 1236.4882 3004.2002 8612694
2280.8901 1236.4153 3004.0232 8546644
2297.8337 1235.9565 3002.9084 8546901
2337.436 1247.5988 3031.1948 8152400
2362.6851 1251.4609 3040.5784 7428933
2381.5452 1251.9062 3041.6602 6639675
2390.7766 1247.3213 3030.5208 5060385
2402.6189 1244.1567 3022.832 6377272
2393.2783 1230.1509 2988.803 6640443
2384.6135 1216.6957 2956.1118 7298118
2378.293 1204.6239 2926.7822 5850931
2373.8245 1193.6583 2900.1396 4600609
2361.897 1179.1265 2864.8328 2693387
2372.8608 1176.1484 2857.5974 8219734
2409.5715 1185.8842 2881.2515 11837061
2407.2319 1176.399 2858.2063 11507840
2401.8228 1165.557 2831.8643 11047032
2412.47 1162.6033 2824.6877 10257003
2424.6787 1160.4374 2819.4253 10585713
2455.6572 1167.2228 2835.9116 11243900
2456.3872 1159.6361 2817.4788 9796455
2483.9075 1164.7137 2829.8157 10322798
2553.6841 1189.4048 2889.8054 8020300
2658.0796 1229.7836 2987.9106 7888712
2661.2693 1223.1141 2971.7065 7691333
2700.6311 1233.0479 2995.8416 7690821
2761.3755 1252.5509 3043.2266 8348750
2803.9797 1263.6259 3070.1348 8480591
2801.3767 1254.3167 3047.5166 8414798
2821.3474 1255.1692 3049.5881 8611920
2843.3323 1256.9015 3053.7969 10519404
2841.2627 1248.0455 3032.2803 9993570
2849.0342 1243.5966 3021.4709 10190949
2843.5125 1233.437 2996.7869 11309429
2858.5469 1232.2648 2993.939 13086099
0 0 0 0
0 0 0 0
0 0 0 0
0 0 0 0
0 0 0 0
0 0 0 0
0 0 0 0
-2696.4517 1259.8722 3017.5808 18
-2677.0828 1259.1704 3015.8997 18
-2692.8201 1275.0823 3054.0112 18
-2725.6829 1299.3735 3112.1924 18
-2705.7776 1298.6691 3110.5049 18
-2685.519 1297.7841 3108.3853 18
-2665.6921 1297.097 3106.7397 18
-2637.7031 1292.4011 3095.4924 18
-2626.5823 1295.9623 3104.0217 18
-2627.3669 1305.4893 3126.8403 18
-2788.2363 1395.2595 3341.8533 18
-2755.2595 1388.6174 3325.9446 18
-2744.5923 1393.2045 3336.9312 18
-2659.4106 1359.7589 3256.824 19
-2640.3047 1359.8558 3257.0562 18
-2617.802 1358.1918 3253.0706 18
-2593.3911 1355.5057 3246.6372 18
-2562.2461 1349.2336 3231.6145 18
-2543.6755 1349.5383 3232.3442 18
-2500.6121 1336.7543 3201.7246 18
-2507.1223 1350.4781 3234.5955 18
-2439.0168 1323.9117 3170.9648 18
-2415.8508 1321.5154 3165.2253 18
-2404.8518 1325.7894 3175.4622 18
-2388.0637 1326.9141 3178.156 18
-2370.2051 1327.457 3179.4563 18
-2386.1855 1347.1124 3226.5339 18
-2340.5022 1331.9921 3190.3186 18
-2358.312 1353.0541 3240.7651 18
-2338.1953 1352.5232 3239.4934 18
-2289.135 1335.1027 3197.7686 18
-2259.6001 1328.8743 3182.8508 18
-2240.2285 1328.5686 3182.1187 18
-2221.0754 1328.3882 3181.6868 18
-2211.4883 1333.975 3195.0679 18
-2185.0112 1329.3823 3184.0676 18
-2159.5205 1325.3148 3174.3254 18
-2140.969 1325.4722 3174.7021 18
-2112.7739 1319.6088 3160.6587 18
-2102.1899 1324.7386 3172.9453 18
-2085.0767 1325.8093 3175.51 18
-2060.8884 1322.3601 3167.2485 18
-2041.2904 1321.8197 3165.9541 18
-2025.6376 1323.8475 3170.8113 18
-2005.5101 1322.9618 3168.6897 18
-1992.4125 1326.7404 3177.7397 18
-1953.6123 1313.3125 3145.5781 18
-1940.8345 1317.288 3155.1001 18
-1921.2875 1316.7017 3153.6958 18
-1902.5542 1316.6671 3153.6128 18
-1885.5122 1317.8137 3156.3594 18
-1865.1252 1316.6223 3153.5054 18
-1846.0254 1316.3243 3152.792 18
-1827.3602 1316.3335 3152.8137 18
-1807.3987 1315.3994 3150.5764 18
-1787.3092 1314.3516 3148.0669 18
-1773.5282 1317.9697 3156.7329 18
-1754.4327 1317.6737 3156.0239 18
-1740.8119 1321.5271 3165.2534 18
-1722.2172 1321.6477 3165.542 18
-1705.8234 1323.4784 3169.9268 18
-1680.8248 1318.5994 3158.241 16
-1663.274 1319.5193 3160.4443 16
-1643.4398 1318.6277 3158.3088 16
-1625.0726 1318.9064 3158.9763 16
-1606.1505 1318.736 3158.5681 16
-1587.2704 1318.5963 3158.2336 16
-1569.3203 1319.2352 3159.7639 16
-1551.2151 1319.7576 3161.0149 16
-1532.7531 1319.9854 3161.5605 16
-1516.1069 1321.802 3165.9116 16
-1498.1552 1322.5116 3167.6113 16
-1482.7122 1325.4818 3174.7256 18
-1463.4481 1325.0687 3173.7361 18
-1445.2654 1325.6367 3175.0964 18
-1427.2695 1326.3933 3176.9087 18
-1409.4197 1327.3077 3179.0986 18
-1391.0587 1327.7588 3180.1792 18
-1373.3234 1328.8278 3182.7395 18
-1354.4554 1328.8154 3182.71 18
-1336.3258 1329.5371 3184.4385 18
-1317.1527 1329.2266 3183.6948 17
-1300.6243 1331.6146 3189.4143 17
-1281.969 1331.8636 3190.0107 17
-1264.6144 1333.4913 3193.9094 18
-1246.855 1334.7352 3196.8887 18
-1232.199 1339.3909 3208.0398 18
-1210.6484 1336.5808 3201.3091 18
-1192.3256 1337.3013 3203.0347 18
-1175.8976 1340.2048 3209.9893 16
-1153.3228 1336.0829 3200.1165 16
-1136.8904 1339.0579 3207.2419 16
-1106.0704 1324.8999 3173.3315 16
-1101.2129 1341.889 3214.0232 16
-1082.2924 1342.0378 3214.3796 18
-1064.6689 1343.8292 3218.6702 18
-1044.3713 1342.249 3214.8855 18
-1030.1229 1348.5292 3229.9272 18
-1005.7338 1341.5206 3213.1409 18
-979.51941 1331.76 3189.7627 19
-961.32501 1332.734 3192.0955 19
-944.55847 1335.766 3199.3577 18
-930.83118 1343.3086 3217.4231 18
-922.81073 1359.5741 3256.3816 18
-905.05664 1361.8876 3261.9226 18
-856.2337 1316.5311 3153.2871 18
-847.87885 1332.7622 3192.1631 18
-835.01013 1342.4769 3215.4312 18
-833.73773 1371.724 3285.4824 18
-780.4361 1314.7212 3148.9519 18
-759.65009 1311.0433 3140.1433 18
-740.17963 1309.5087 3136.4673 18
-723.69427 1313.3119 3145.5767 18
-706.21814 1315.4707 3150.7473 18
-685.92297 1312.3531 3143.2805 19
-669.38843 1316.4575 3153.1108 19
-653.07642 1321.2478 3164.5842 19
-638.09961 1329.1022 3183.3967 19
-623.60907 1338.4789 3205.8552 18
-603.94476 1336.9908 3202.2913 18
-587.43768 1342.6226 3215.78 18
-567.16669 1339.7407 3208.8777 18
-548.36377 1340.2472 3210.0908 18
-529.34839 1340.252 3210.1021 18
-510.18167 1339.8599 3209.1628 18
-492.271 1342.8635 3216.3572 18
-475.50058 1349.3448 3231.8811 18
-456.09506 1348.579 3230.0464 18
-437.3735 1349.8564 3233.1062 18
-417.97278 1349.0588 3231.196 18
-397.66489 1345.1165 3221.7534 18
-410.42789 1458.2798 3492.7961 18
-391.90692 1466.4033 3512.2534 18
-370.63116 1464.5527 3507.8208 18
-349.72842 1464.0436 3506.6013 17
-329.88022 1468.1635 3516.469 16
-312.70441 1485.5343 3558.0747 16
-293.53427 1495.2571 3581.3623 16
-273.97037 1504.3329 3603.1003 16
