# .PCD v0.7 - Point Cloud Data file format
VERSION 0.7
FIELDS x y z rgb
SIZE 4 4 4 4
TYPE F F F U
COUNT 1 1 1 1
WIDTH 1393
HEIGHT 1
VIEWPOINT 0 0 0 1 0 0 0
POINTS 1393
DATA ascii
-1390.1464 1060.8113 3619.2571 21
0 0 0 0
-1386.9308 1092.0444 3725.8176 21
-1334.2045 1067.5179 3642.1387 21
-1312.7423 1067.6111 3642.4565 21
-1293.2913 1069.3704 3648.459 21
-1267.3822 1065.7589 3636.1375 21
-1277.6079 1092.9341 3728.853 21
-1252.5592 1090.359 3720.0676 21
-1200.4309 1063.6967 3629.1013 21
-1211.6591 1093.2255 3729.8469 21
-1198.2872 1101.2435 3757.2029 21
-1175.6787 1100.9158 3756.0847 19
-1156.2744 1103.6338 3765.3579 19
-1139.271 1108.7952 3782.9678 18
-1117.4177 1109.3491 3784.8577 18
-1100.3773 1114.8016 3803.4604 19
-1078.8215 1115.8118 3806.907 19
-1059.2595 1118.9713 3817.6868 19
-1033.0468 1115.0898 3804.4438 19
-1017.6586 1122.9801 3831.3635 19
-994.604 1122.5775 3829.99 19
-975.2124 1126.387 3842.9871 19
-954.00854 1128.2352 3849.2927 19
-931.29333 1128.3429 3849.6604 21
-902.8241 1121.3094 3825.6638 21
-887.74103 1130.9675 3858.615 21
-869.9903 1137.6478 3881.4065 21
-848.21228 1139.2815 3886.9802 21
-817.48193 1128.6465 3850.6958 21
-804.44299 1142.5275 3898.0549 21
-785.27856 1148.2719 3917.6536 21
-761.21326 1146.9817 3913.2517 21
-730.07086 1134.6119 3871.0488 21
-711.09314 1140.9583 3892.7009 21
-687.94104 1140.8075 3892.1868 21
-665.50787 1141.8799 3895.8455 23
-643.81305 1144.3417 3904.2446 23
-684.49866 1261.9966 4305.6577 23
-654.53101 1253.4557 4276.5176 23
-633.60742 1262.244 4306.5015 23
-610.07758 1266.3599 4320.5439 21
-588.21289 1274.444 4348.1255 21
-549.09576 1244.1769 4244.8604 21
-526.84503 1251.0555 4268.3291 21
-470.14456 1172.6987 4000.9927 21
-470.99933 1237.2056 4221.0762 21
-445.2254 1235.0773 4213.8145 21
-422.80905 1242.563 4239.3545 21
-399.24365 1247.4043 4255.8721 21
-374.81625 1250.0236 4264.8081 21
-347.72314 1243.4884 4242.5117 21
-327.54276 1262.5818 4307.6538 21
-302.681 1265.3314 4317.0352 21
-277.53903 1267.3091 4323.7827 21
-252.44521 1269.9313 4332.729 21
-229.27878 1283.9402 4380.5244 21
-203.55745 1285.3918 4385.4771 21
-177.90559 1287.7712 4393.5947 21
-151.31294 1282.9889 4377.2788 21
-123.42703 1262.995 4309.064 21
-96.14415 1240.3536 4231.8164 21
-70.51429 1230.5874 4198.4961 21
-45.539101 1227.8279 4189.0811 21
-20.773611 1230.8838 4199.5073 21
4.1211362 1235.656 4215.7891 21
29.140785 1237.5399 4222.2168 21
54.324291 1241.428 4235.4819 21
79.254555 1238.9004 4226.8584 21
104.60143 1242.5355 4239.2607 21
129.59688 1241.3966 4235.375 21
154.00186 1235.8887 4216.583 21
179.04308 1236.3114 4218.0254 21
204.25378 1237.6576 4222.6182 21
229.42773 1238.5117 4225.5322 21
252.96956 1231.2537 4200.7695 21
279.4079 1238.1312 4224.2339 18
302.24106 1229.2158 4193.8164 19
323.32602 1215.0847 4145.6045 19
346.57272 1210.4995 4129.9604 19
371.30563 1211.3676 4132.9224 19
396.7619 1214.3423 4143.0713 19
417.92694 1204.6014 4109.8379 19
419.21625 1141.7987 3895.5686 19
441.95081 1140.9115 3892.5415 18
463.17685 1136.4111 3877.1873 18
480.44638 1123.0873 3831.7295 18
506.05746 1129.5852 3853.8987 18
525.65643 1122.6815 3830.3447 18
545.59589 1117.0464 3811.1189 18
565.57684 1111.9406 3793.6992 18
584.96954 1106.1128 3773.8162 18
616.00513 1121.9192 3827.7437 18
638.94379 1122.3798 3829.3152 18
663.1922 1125.0306 3838.3596 18
682.02618 1118.6254 3816.5061 18
702.23682 1114.8165 3803.5112 65552
722.62622 1111.5195 3792.2627 65552
740.80188 1105.1189 3770.425 65551
758.20844 1097.9792 3746.0662 131084
747.83057 1052.1547 3589.7224 262150
771.0036 1054.7631 3598.6218 1181449
790.73102 1052.6442 3591.3926 4469036
801.93207 1039.5834 3546.8318 8283994
826.25555 1043.7662 3561.103 9007200
847.48779 1043.933 3561.6721 8152148
874.43243 1050.9574 3585.6377 8677978
888.87646 1042.9807 3558.4231 8677722
905.89752 1038.3273 3542.5466 8612955
926.75781 1038.1857 3542.0632 8547161
953.24963 1044.219 3562.6479 8547162
975.59796 1045.5505 3567.1907 8481369
988.21344 1036.616 3536.7078 8744283
1007.5926 1035.0001 3531.1948 8612953
1031.7303 1038.2385 3542.2437 8020816
1044.6488 1030.283 3515.1008 8810332
1069.4933 1034.1703 3528.364 9139298
1085.0182 1029.0697 3510.9617 8547161
1104.4558 1027.8021 3506.6372 9007712
1127.715 1030.072 3514.3813 8810333
1151.5968 1032.818 3523.7502 8875869
1170.623 1031.1891 3518.1924 8876126
1190.6382 1030.473 3515.7495 9007711
1209.213 1028.5564 3509.2104 9007712
1221.1973 1021.1934 3484.0894 8678747
1248.0829 1026.3287 3501.6104 8678490
1270.8671 1027.9788 3507.2397 8349782
1289.9324 1026.616 3502.5898 9073505
1317.3618 1031.8477 3520.4395 9073504
1334.6876 1029.1257 3511.1528 9007712
1351.4211 1026.0377 3500.6172 8744540
1386.4768 1036.7435 3537.1431 8612697
1396.6968 1028.8359 3510.1641 8876125
1433.1191 1040.1785 3548.8623 8679259
1450.4684 1037.5497 3539.8936 7889744
1478.387 1042.4485 3556.6072 8087123
1504.0671 1045.6536 3567.542 8086866
1507.9087 1033.7974 3527.0916 8416087
1544.6495 1044.5123 3563.6487 8416087
1537.8911 1025.9202 3500.2163 8350295
1567.6135 1031.8352 3520.3972 8745053
1577.2333 1024.5366 3495.4958 8744796
1593.7856 1021.8722 3486.4053 8284502
1613.2988 1021.1499 3483.9409 8613467
1658.7489 1036.6554 3536.8428 9008227
1660.2964 1024.6791 3495.9817 8744283
1682.5856 1025.641 3499.2637 8480853
1687.0928 1015.8723 3465.9353 6243889
1713.1217 1019.1418 3477.0898 6769976
1735.0244 1019.9082 3479.7048 7164991
1754.7363 1019.3839 3477.9155 7888715
1791.0056 1028.3788 3508.6042 7757642
1815.6337 1030.5597 3516.0452 8152399
1839.7189 1032.3864 3522.2776 8021070
1870.882 1038.0996 3541.7695 8218450
1864.8105 1023.2548 3491.1223 7889485
1883.0781 1021.9443 3486.6514 7231555
1897.7942 1018.7559 3475.7732 7297348
1923.0599 1021.2381 3484.2422 7955021
1947.4943 1023.2311 3491.0415 7691595
1954.8873 1016.3224 3467.4707 7494730
1992.5167 1025.1135 3497.4641 7560777
2024.144 1030.6675 3516.4131 7823693
2042.4413 1029.3899 3512.0544 7955279
2069.7954 1032.6569 3523.2004 7824461
2099.4797 1037.0094 3538.0503 7627086
2128.3005 1040.8536 3551.1663 4665893
2097.0818 1015.5475 3464.8271 5257775
2093.7422 1004.1021 3425.7776 5323570
2072.3816 984.31683 3358.2747 3154972
2098.1533 987.08142 3367.707 7101266
2133.5698 994.2887 3392.2966 7957344
2167.6174 1000.7296 3414.2712 7298644
2148.0625 982.53302 3352.1887 7495764
2170.7949 983.83533 3356.6318 8350560
2189.4583 983.2865 3354.7593 7561044
2188.771 974.13531 3323.5376 7495251
2207.1226 973.54523 3321.5242 7363665
2224.7966 972.66925 3318.5356 7429968
2260.8198 979.76074 3342.7302 7627349
2265.3784 973.21161 3320.386 7561557
2248.8777 957.80603 3267.8257 8548450
2301.6936 971.93372 3316.0261 9864565
2321.3787 971.9505 3316.0835 10851458
2318.8757 962.755 3284.7102 11508613
2355.3574 969.76355 3308.6221 10783860
2363.7847 965.20105 3293.0557 10653042
2374.8413 961.77802 3281.3772 8678742
2438.3267 979.47101 3341.7417 10061173
2478.8145 987.71552 3369.8704 9534830
2526.0098 998.47943 3406.5945 8415578
2529.1814 991.80914 3383.8369 8087125
2564.6243 997.79926 3404.2739 11376517
2564.7424 990.05963 3377.8679 12758169
2604.5312 997.63525 3403.7141 11508102
2648.4937 1006.6807 3434.5754 9008224
2700.6306 1018.6717 3475.4861 8086865
2764.5483 1034.8914 3530.824 7889231
2793.9119 1038.0293 3541.53 7560522
2777.7334 1024.3264 3494.7786 7099972
2830.9871 1036.2407 3535.4277 7166021
2829.6956 1028.1613 3507.8625 6902848
2825.2273 1019.0538 3476.7896 6639678
2780.5303 995.67279 3397.0186 6244921
2806.842 997.87231 3404.5229 5652783
2866.4995 1011.8108 3452.0781 6574141
2869.9612 1005.8565 3431.7634 7100741
2889.8313 1005.6963 3431.2166 7364170
2906.27 1004.3525 3426.6318 7429961
2939.6169 1008.8299 3441.908 7494726
2982.2083 1016.3964 3467.7229 6837052
2990.7944 1012.3489 3453.9141 6771004
3052.6938 1026.2798 3501.4429 7231555
3052.5913 1019.3188 3477.6941 7296835
3017.5322 1000.857 3414.7061 7427650
3059.3726 1007.9771 3438.9983 7361600
3073.842 1006.0448 3432.4058 7690821
3130.6633 1017.9083 3472.8813 10257001
3170.2598 1024.0529 3493.8452 12099461
3153.2871 1011.9633 3452.5984 12625548
3165.4414 1009.3169 3443.5696 12493705
3157.9814 1000.4904 3413.4553 11967619
3166.9434 996.94574 3401.3616 10322286
3223.7163 1008.4014 3440.446 9007196
3233.405 1005.0775 3429.1055 8743768
3208.4629 991.0976 3381.4092 8152145
3261.615 1001.2649 3416.0977 8152146
0 0 0 0
0 0 0 0
0 0 0 0
0 0 0 0
0 0 0 0
0 0 0 0
0 0 0 0
0 0 0 0
-3509.8235 1182.3596 3954.0337 17
-3505.4653 1188.8258 3975.658 18
-3461.9685 1182.0162 3952.8855 18
-3421.2461 1176.0676 3932.9924 18
-3396.9309 1175.7164 3931.8176 18
-3380.4883 1178.1035 3939.801 18
-3348.8752 1175.2004 3930.0923 18
-3334.0491 1178.189 3940.0864 18
-3289.3101 1170.5742 3914.6213 18
-3254.6663 1166.4697 3900.895 19
-3222.0879 1163.0518 3889.4648 19
-3181.6145 1156.7145 3868.2717 19
-3168.8745 1160.4413 3880.7346 19
-3133.8513 1156.0026 3865.8906 19
-3011.2244 1118.9457 3741.9658 19
-3103.9294 1161.9482 3885.7744 19
-3070.2886 1157.9427 3872.3792 19
-3044.1567 1156.7302 3868.3242 19
-3015.5693 1154.5591 3861.0637 19
-2990.0186 1153.5264 3857.6101 19
-2966.4817 1153.2606 3856.7214 19
-2932.9578 1149.0781 3842.7341 18
-2907.3345 1147.9496 3838.9602 20
-2883.5918 1147.5516 3837.6296 20
-2850.2659 1143.3035 3823.4229 20
-2818.8845 1139.7734 3811.6177 20
-2791.7959 1137.936 3805.4729 20
-2773.8015 1139.8057 3811.7256 21
-2745.0569 1137.2524 3803.187 21
0 0 0 0
-2704.4192 1139.116 3809.4189 21
-2773.4553 1178.0247 3939.5369 21
-2750.0491 1177.9958 3939.4404 21
-2720.2632 1175.2102 3930.125 21
-2679.5332 1167.6075 3904.7004 21
-2572.9692 1130.9357 3782.0625 21
-2577.7468 1142.989 3822.3711 21
-2551.9346 1141.572 3817.6323 21
-2544.3989 1148.3785 3840.3945 21
-2513.0422 1144.4596 3827.2891 21
-2480.7471 1140.038 3812.5022 21
-2453.3408 1137.8025 3805.0266 21
-2434.9702 1139.755 3811.5559 21
-2403.4292 1135.5215 3797.3984 21
-2376.7847 1133.5433 3790.783 21
-2351.7734 1132.3137 3786.6711 21
-2329.2957 1132.292 3786.5984 21
-2309.2979 1133.4871 3790.595 21
-2283.7405 1131.9502 3785.4551 21
-2259.3997 1130.9916 3782.2493 21
-2236.5632 1130.7743 3781.5229 21
-2207.25 1127.2451 3769.7207 21
-2060.6787 1063.1477 3555.3667 21
-2163.5317 1127.7388 3771.3713 21
-2011.5403 1059.4542 3543.0151 21
-1981.0642 1054.405 3526.1299 21
-1958.7003 1053.6119 3523.4775 21
-1936.1882 1052.7213 3520.499 21
-1917.0168 1053.6475 3523.5959 21
-1915.7565 1064.5466 3560.0449 21
-1898.4283 1066.6605 3567.1143 21
-1866.2255 1060.3704 3546.0791 21
-1843.046 1059.1224 3541.9055 21
-1820.9878 1058.4974 3539.8154 21
-1801.3071 1059.256 3542.3523 21
-1792.401 1066.4431 3566.3872 21
-1780.6356 1072.0802 3585.2388 20
-1757.1123 1070.6888 3580.5857 21
-1734.9094 1070.0778 3578.542 21
-1713.5249 1069.9625 3578.157 21
-1691.1642 1069.2273 3575.6982 21
-1668.3796 1068.202 3572.2695 21
-1647.3459 1068.2858 3572.5496 21
-1625.1844 1067.6309 3570.3596 21
-1607.0648 1069.649 3577.1084 21
-1583.3474 1067.9454 3571.4114 21
-1554.9548 1062.9996 3554.8716 21
-1543.7494 1069.8289 3577.7097 21
-1526.3888 1072.5232 3586.7202 21
-1521.0974 1083.8938 3624.7456 21
-1478.7273 1068.7905 3574.2373 21
-1507.4902 1105.4084 3696.6948 21
-1484.7655 1104.7949 3694.6428 21
-1436.5459 1084.9087 3628.1394 21
-1406.6794 1078.4895 3606.6724 21
-1412.1436 1099.3777 3676.5269 21
-1375.1747 1087.3682 3636.3645 21
-1355.1892 1088.619 3640.5476 20
-1333.1659 1088.2469 3639.3035 20
-1333.5211 1106.4302 3700.1116 20
-1312.4858 1107.1768 3702.6082 21
-1273.2616 1092.3442 3653.0054 21
-1255.391 1095.6349 3664.0103 21
-1233.1182 1095.132 3662.3281 21
-1211.801 1095.4749 3663.4749 21
-1214.0419 1117.5153 3737.1821 21
-1195.2249 1120.6307 3747.6008 20
-1174.788 1122.3167 3753.239 18
-1154.0211 1123.7463 3758.02 19
-1118.7762 1110.8567 3714.9146 19
-1113.5065 1127.8099 3771.6094 19
-1094.093 1130.8387 3781.7385 19
-1074.6252 1133.9369 3792.0991 19
-1052.2423 1134.0256 3792.396 19
-1030.1689 1134.4591 3793.8455 19
-1009.0817 1136.0221 3799.0728 21
-976.31122 1124.2034 3759.5486 21
-957.02527 1127.7225 3771.3174 21
-936.83667 1130.321 3780.0068 21
-916.51953 1132.8876 3788.5901 21
-894.00525 1132.7992 3788.2944 21
-871.87115 1133.2002 3789.6355 21
-850.61438 1134.7931 3794.9622 21
-829.56989 1136.7631 3801.5505 21
-809.49121 1140.2035 3813.0559 21
-788.52026 1142.5487 3820.8987 21
-768.05042 1145.7799 3831.7043 21
-745.32507 1145.741 3831.574 21
-724.99933 1149.5039 3844.1582 21
-743.10651 1216.4235 4067.95 21
-683.76324 1156.7976 3868.5498 21
-723.80566 1267.009 4237.1177 23
-700.28265 1269.8717 4246.6909 20
-682.53186 1283.8049 4293.2861 20
-652.58362 1274.986 4263.7939 20
-622.52277 1265.2279 4231.1611 21
-602.15912 1275.1869 4264.4658 21
-575.54901 1272.2107 4254.5127 21
-549.94025 1271.2766 4251.3892 21
-526.91071 1276.5012 4268.8613 21
-501.09155 1275.1541 4264.356 21
-477.67508 1280.1024 4280.9043 21
-445.68448 1261.34 4218.1592 21
-425.74823 1276.4904 4268.8247 21
-403.14813 1285.0629 4297.4932 21
-376.1286 1279.7543 4279.7402 21
-350.40738 1278.4152 4275.2617 21
-323.88593 1273.7202 4259.561 21
-297.86664 1270.3735 4248.3691 21
-272.50757 1269.485 4245.3975 21
-248.01135 1272.8439 4256.6304 21
-224.31175 1281.5143 4285.626 21
-198.88139 1281.2479 4284.7354 21
-173.61275 1282.0979 4287.5776 21
-148.66975 1286.0562 4300.8149 21
-122.89551 1282.974 4290.5073 21
-96.033424 1263.9666 4226.9429 21
-69.932251 1245.0974 4163.8408 21
-45.49905 1251.5432 4185.397 21
-20.823391 1258.7717 4209.5703 21
4.1005063 1254.3208 4194.6855 21
28.901077 1252.1677 4187.4854 21
53.817429 1254.7029 4195.9634 21
78.806221 1256.7914 4202.9478 21
103.75792 1257.4274 4205.0747 21
128.15025 1252.3507 4188.0972 21
153.16965 1254.0551 4193.7969 21
178.04927 1254.2988 4194.6123 21
203.11737 1255.6483 4199.125 21
226.85851 1249.395 4178.2129 21
250.26112 1242.6912 4155.7939 21
275.48959 1245.4425 4164.9951 18
300.48615 1246.7794 4169.4658 19
324.52802 1244.2527 4161.0161 19
348.31879 1241.1881 4150.7676 19
368.79593 1227.4987 4104.9873 19
394.18588 1230.843 4116.1719 19
415.88785 1222.9531 4089.7861 19
438.0621 1217.244 4070.6938 19
459.57748 1210.3955 4047.7913 19
454.93161 1138.7418 3808.1677 18
476.284 1135.8608 3798.533 18
497.27423 1132.4149 3787.0095 18
514.14276 1120.2858 3746.4473 19
533.82581 1115.0393 3728.9021 19
556.44324 1116.0955 3732.4341 19
574.78241 1108.8176 3708.0957 18
599.17444 1113.3225 3723.1609 18
622.11658 1114.9091 3728.4668 17
647.38678 1120.416 3746.8828 17
667.72607 1117.3069 3736.4851 17
696.68512 1128.3578 3773.4417 18
714.35321 1121.0033 3748.8467 18
732.37585 1114.6318 3727.5396 18
749.05518 1106.6488 3700.8428 18
764.02307 1096.6633 3667.4492 65551
778.98706 1087.2246 3635.8843 196620
769.29755 1044.8109 3494.0449 262149
777.22528 1027.9194 3437.5569 1050376
769.19983 991.33057 3315.1968 3679519
814.49207 1023.5676 3423.0037 6047546
845.48199 1036.7014 3466.9255 8152918
864.32184 1034.6676 3460.1238 8350039
882.5321 1031.9917 3451.1753 8284245
900.79083 1029.4926 3442.8174 8481368
922.73358 1031.2211 3448.5981 8810076
949.73315 1038.4037 3472.6182 8481113
963.71832 1031.354 3449.0427 9073250
988.53845 1035.9517 3464.418 9270886
1011.6932 1038.6525 3473.4502 8876128
1022.993 1029.3175 3442.2319 8941664
1040.0311 1026.0083 3431.1655 8349781
1067.3021 1032.7273 3453.6353 8678747
1088.3375 1033.2733 3455.4614 9336677
1103.1583 1028.0082 3437.8538 9073504
1122.7902 1027.3359 3435.6055 9270883
1144.4971 1028.5524 3439.6733 9270884
1167.865 1031.193 3448.5039 8283732
1192.1956 1034.5781 3459.8245 9270627
1208.5023 1031.0034 3447.8704 8810333
1220.9966 1024.3492 3425.6174 8810333
1240.27 1023.5068 3422.8003 8678747
1256.0779 1019.8777 3410.6638 9205091
1274.3669 1018.3464 3405.5425 9205090
1297.1658 1020.4102 3412.4446 9007712
1319.298 1021.8943 3417.4077 9007712
1362.8278 1039.6572 3476.8101 8810076
1377.3721 1035.1082 3461.5974 8481113
1397.8793 1035.1082 3461.5974 8547674
1430.6451 1044.0542 3491.5146 8613467
1445.1798 1039.6301 3476.7197 8021330
1470.157 1042.7369 3487.1094 8679260
1473.1924 1030.4106 3445.8879 7494473
1496.2245 1032.2167 3451.9277 7757902
1521.3878 1035.4246 3462.6553 7823693
1531.7095 1028.5803 3439.7671 5915953
1541.2557 1021.4022 3415.7617 6902591
1566.848 1024.906 3427.4795 8152915
1584.5769 1023.2424 3421.9158 8942431
1621.1833 1033.657 3456.7441 8876382
1631.3018 1027.1338 3434.9294 8152916
1644.1614 1022.4762 3419.3535 8547674
1668.8422 1025.1937 3428.4414 9139810
1683.3893 1021.6955 3416.7427 7823694
1693.8041 1015.8022 3397.0347 7823435
1720.653 1019.7874 3410.3618 8218450
1744.3086 1021.8096 3417.1243 7428934
1758.5883 1018.3558 3405.5742 7165762
1794.4119 1027.3146 3435.5339 7494727
1808.478 1023.7556 3423.6323 8087121
1831.9579 1025.5458 3429.6187 8547413
1843.9749 1020.9498 3414.249 7428932
1868.0044 1023.0324 3421.2136 7626311
1924.3856 1042.5979 3486.6443 7559747
1910.2938 1023.9722 3424.3567 7033916
1910.8676 1013.5165 3389.3909 6770744
1937.568 1016.9918 3401.0125 6770747
1964.6887 1020.6138 3413.1252 7494727
2001.7332 1029.2646 3442.0552 7428934
2023.0155 1029.7181 3443.5718 7363400
2051.8843 1033.9854 3457.8423 7560781
2080.3264 1037.9554 3471.1191 7626573
2069.3826 1022.389 3419.062 6573628
2071.5208 1013.5248 3389.4187 7363142
2102.8208 1018.962 3407.6013 6179639
2105.5212 1010.569 3379.5334 5915962
2096.4375 996.73132 3333.2578 6181451
2126.2256 1001.4608 3349.0737 10653829
2133.2014 995.45728 3328.9971 9206895
2145.29 991.92798 3317.1946 7956057
2157.7378 988.6272 3306.1562 8021851
2176.5251 988.2644 3304.9429 8022108
2193.8279 987.23993 3301.5168 7890778
2202.8174 982.52563 3285.7512 6903625
2188.1467 967.43317 3235.2793 7825497
2213.3271 970.06891 3244.0938 8219998
2236.2642 971.68463 3249.4971 10654596
2265.8318 976.12921 3264.3604 9010027
2273.2515 971.0379 3247.334 8877411
2315.5017 980.78516 3279.9309 8877150
2307.6965 969.34467 3241.6716 10126700
2340.2502 974.90576 3260.269 10916217
2366.9692 977.96509 3270.5 8613205
2389.5183 979.26581 3274.8499 7232325
2417.3784 982.70453 3286.3496 8285269
2480.447 1000.2869 3345.1484 8614496
2467.5242 987.18842 3301.3447 9010027
2449.3274 972.20264 3251.2292 12036505
2463.656 970.26007 3244.7329 10258037
2542.7566 993.65918 3322.9841 12363409
2598.2041 1007.5267 3369.3596 13218714
2625.251 1010.2537 3378.479 13152406
2709.7036 1034.863 3460.7773 11243897
2722.6438 1031.9966 3451.1917 8875354
2740.2053 1030.9115 3447.563 6902591
2752.0454 1027.7059 3436.843 7363144
2742.0095 1016.4382 3399.1614 7494987
2750.2385 1012.0561 3384.5068 7560524
2757.0745 1007.2285 3368.3621 6837058
2806.2424 1017.8241 3403.7959 3876376
2802.0464 1009.0513 3374.4583 5390383
2858.1174 1021.9521 3417.6011 7692877
2838.6179 1007.8404 3370.4087 6903618
2842.9082 1002.3134 3351.9253 7626572
2867.7 1004.0409 3357.7026 6508606
2908.2803 1011.2344 3381.759 6837056
2927.8279 1011.0665 3381.1973 6376505
2965.9773 1017.2808 3401.979 6837055
2956.937 1007.3351 3368.719 6968642
2970.1978 1005.0692 3361.1414 7166021
2981.8186 1002.2822 3351.821 7692365
2968.6448 991.25299 3314.9373 8021330
2994.1064 993.18457 3321.397 8218708
3036.9866 1000.8313 3346.9688 8350034
3100.6936 1015.1976 3395.0127 8350290
3112.9014 1012.6262 3386.4131 10455409
3115.1799 1006.8782 3367.1912 11573632
3133.8313 1006.4619 3365.7986 12165513
3144.4202 1003.4777 3355.8191 12297354
3211.5242 1018.4534 3405.9004 10915701
3198.4253 1007.9666 3370.8306 9928292
3233.593 1012.7265 3386.7485 10059881
0 0 0 0
0 0 0 0
0 0 0 0
0 0 0 0
0 0 0 0
0 0 0 0
0 0 0 0
0 0 0 0
-3422.3918 1175.7474 3855.5366 18
-3401.252 1176.3358 3857.4661 18
-3376.9211 1175.821 3855.7781 18
-3356.8269 1176.7845 3858.9375 18
-3328.0679 1174.7026 3852.1108 18
-3321.9751 1180.6481 3871.6067 18
-3281.8811 1174.5077 3851.4712 18
-3255.4761 1173.2145 3847.2307 18
-3219.6211 1168.4736 3831.6843 19
-3198.1328 1168.9166 3833.1367 19
-3158.2903 1162.6091 3812.4534 18
-3130.6614 1160.7394 3806.322 18
-3109.2942 1161.181 3807.77 18
-3079.3879 1158.4167 3798.7053 19
-3061.1609 1160.0376 3804.0205 19
-3034.1313 1158.322 3798.395 20
-3002.4639 1154.7971 3786.8359 20
-2991.6211 1159.2888 3801.5654 21
-2959.9956 1155.734 3789.9084 21
-2939.249 1156.4053 3792.1094 21
-2910.5603 1153.9379 3784.0181 20
-2879.6533 1150.5458 3772.895 20
-2857.7222 1150.7151 3773.4502 20
-2829.8145 1148.4615 3766.0601 21
-2818.0374 1152.7705 3780.1904 21
-2788.2598 1149.7262 3770.2075 21
-2759.7803 1147.1724 3761.8328 21
-2728.4026 1143.3624 3749.3391 21
-2697.2283 1139.5759 3736.9221 21
0 0 0 0
-2671.406 1147.5029 3762.9167 21
-2645.4919 1145.9342 3757.7725 21
-2681.1548 1171.238 3840.7495 21
-2607.3516 1148.7466 3766.9949 21
-2584.3894 1148.4597 3766.0542 21
-2561.8198 1148.3436 3765.6738 18
-2562.0518 1158.5364 3799.0979 19
-2521.7109 1150.4005 3772.4185 18
-2494.1907 1148.0201 3764.6128 19
-2468.9404 1146.6511 3760.1233 21
0 0 0 0
-2416.6384 1142.9855 3748.103 21
-2391.8625 1141.7581 3744.0781 21
-2360.687 1137.4241 3729.8662 21
-2337.6594 1136.9713 3728.3811 21
-2312.0933 1135.2634 3722.7808 21
-2292.4487 1136.4583 3726.6987 21
-2266.9194 1134.7305 3721.033 21
-2245.5156 1135.0542 3722.0945 21
-2212.1702 1129.2882 3703.1868 21
-2176.1196 1122.0122 3679.3269 21
-2151.4133 1120.4969 3674.3582 21
-2163.345 1138.2277 3732.5012 21
-2142.2954 1138.7925 3734.3533 21
-2018.7126 1084.2963 3555.6482 21
-1994.1993 1082.4243 3549.5093 21
-1972.2291 1081.9075 3547.8147 21
-1944.4708 1078.1702 3535.5591 21
-1925.6361 1079.3531 3539.4385 21
-1901.0137 1077.2825 3532.6484 21
-1870.3129 1071.6829 3514.2859 21
-1869.6249 1083.348 3552.5383 21
-1844.9137 1081.2 3545.4946 21
-1825.2869 1082.0166 3548.1724 21
-1790.0457 1073.4883 3520.2063 21
-1777.0795 1078.2747 3535.9016 21
-1761.6448 1081.6594 3547.0015 21
-1737.8662 1079.941 3541.3665 21
-1716.0192 1079.3956 3539.5776 21
-1692.3733 1077.6912 3533.9885 21
-1675.7726 1080.4865 3543.155 21
-1651.9662 1078.6478 3537.1257 21
-1628.8173 1077.1968 3532.3672 21
-1620.8718 1085.8933 3560.8853 21
-1589.2432 1078.7437 3537.4397 21
-1579.6692 1086.5731 3563.1145 21
-1561.5656 1088.6682 3569.9846 21
-1540.5776 1088.7823 3570.3589 21
-1509.3453 1081.5588 3546.6714 21
-1483.0891 1077.7473 3534.1726 20
-1463.2854 1078.5829 3536.9126 20
-1443.8584 1079.7244 3540.6558 20
-1424.264 1080.7726 3544.093 20
-1428.8992 1100.5132 3608.8269 21
-1431.1873 1119.0184 3669.5098 21
-1410.4553 1119.818 3672.1316 21
0 0 0 0
-1362.6298 1116.282 3660.5361 21
-1325.0803 1103.0762 3617.2312 20
-1309.0936 1107.6813 3632.3328 19
-1289.9966 1109.7646 3639.1646 19
-1269.9054 1111.0491 3643.3765 19
-1246.3676 1109.3103 3637.6746 20
-1226.7966 1111.103 3643.5535 20
-1203.9066 1109.9001 3639.6089 19
-1208.4293 1134.3865 3719.905 19
-1186.0334 1134.0439 3718.7815 19
-1167.6354 1137.5831 3730.3877 19
-1146.6353 1138.6752 3733.9685 19
-1128.5491 1142.7606 3747.3655 19
-1109.9955 1146.5272 3759.717 19
-1088.0333 1146.8555 3760.7932 19
-1069.0057 1150.3551 3772.2693 19
-1048.9996 1152.9287 3780.7087 19
-1024.6873 1150.7784 3773.658 19
-1006.2145 1155.2369 3788.2783 21
-983.50476 1154.9233 3787.2495 21
-963.66925 1158.0488 3797.4993 21
-943.42108 1160.8162 3806.5737 21
-907.39264 1143.8269 3750.8623 21
-886.68494 1145.7825 3757.2749 21
-866.20258 1148.1372 3764.9968 21
-842.16272 1145.7766 3757.2556 21
-823.25696 1150.4623 3772.6213 21
-803.11719 1153.637 3783.0317 21
-780.37427 1153.1473 3781.4258 21
-763.28943 1161.2367 3807.9526 21
-809.01318 1268.2832 4158.9819 21
-741.66125 1199.2189 3932.5044 21
-768.53638 1282.9749 4207.1592 21
-744.22089 1284.025 4210.603 21
-725.54755 1295.2202 4247.3145 23
-692.9303 1281.4332 4202.104 21
-666.07703 1277.6754 4189.7812 21
-643.32245 1281.7932 4203.2842 21
-614.25293 1273.1536 4174.9531 21
-589.58923 1273.3041 4175.4463 21
-563.09064 1269.3313 4162.4189 21
-540.39716 1273.9652 4177.6147 21
-520.31842 1285.504 4215.4531 21
-494.97513 1284.5438 4212.3042 21
-469.5592 1283.2832 4208.1704 21
-446.70685 1289.2802 4227.8354 21
-419.99747 1284.196 4211.1636 21
-398.70422 1296.0763 4250.1216 21
-371.35001 1288.5276 4225.3677 21
-345.20953 1284.4034 4211.8438 21
-318.77383 1278.4528 4192.3301 21
-294.52509 1281.0082 4200.71 21
-269.06308 1278.2715 4191.7358 21
-244.0779 1277.4739 4189.1201 21
-220.08636 1282.285 4204.897 21
-195.59691 1285.0529 4213.9736 21
-171.317 1290.2089 4230.8813 21
-145.92184 1287.2937 4221.3218 21
-120.67922 1284.7965 4213.1328 21
-95.319466 1279.4248 4195.5176 21
-69.558968 1262.9872 4141.6152 21
-44.887722 1259.1895 4129.1616 21
-20.506191 1264.1556 4145.4468 21
4.0467477 1262.4009 4139.6924 21
28.486629 1258.6632 4127.436 21
52.991863 1259.932 4131.5967 21
77.207146 1255.6835 4117.6646 21
101.63979 1256.1613 4119.2314 21
125.70852 1252.8273 4108.2988 21
149.87323 1251.3763 4103.5405 21
174.07043 1250.5638 4100.8765 21
198.4545 1251.1284 4102.7275 21
222.6638 1250.5881 4100.9561 21
248.04895 1256.1086 4119.0591 20
272.02634 1254.1499 4112.6357 19
295.76187 1251.4899 4103.9131 19
317.95236 1243.1929 4076.7051 19
342.69095 1245.3268 4083.7029 19
366.03397 1242.4425 4074.2446 19
391.66254 1247.1929 4089.8223 19
415.75989 1246.7981 4088.5276 19
438.37399 1242.2435 4073.592 19
435.99048 1171.0234 3840.0454 18
447.5834 1142.5444 3746.6567 18
466.55682 1134.7068 3720.9553 18
484.27322 1124.6571 3688.0002 18
505.0596 1122.2968 3680.26 18
523.57721 1115.2991 3657.3132 18
544.98828 1114.7761 3655.5981 18
566.12122 1113.7458 3652.2197 18
590.22717 1118.4252 3667.5642 18
613.50903 1121.266 3676.8799 18
639.12549 1128.0325 3699.0686 18
658.11627 1123.0439 3682.7102 18
680.77295 1124.4305 3687.2571 18
699.14417 1118.8726 3669.0312 18
719.05676 1116.0422 3659.75 18
738.85608 1113.2069 3650.4524 18
751.57263 1100.165 3607.6851 65552
761.58246 1083.9917 3554.6492 65552
785.83862 1088.4204 3569.1721 14
804.93964 1085.6642 3560.1338 196619
810.92163 1065.806 3495.0146 327685
797.74573 1022.3843 3352.6252 458752
813.30249 1017.0012 3334.9724 3745051
835.18475 1019.5955 3343.48 6837059
858.92969 1024.2909 3358.8772 7428423
887.75909 1034.6998 3393.0103 7494727
908.25006 1035.1444 3394.468 8876125
924.73053 1031.0978 3381.1982 8876126
951.86975 1038.8556 3406.6379 8810334
959.55908 1025.5046 3362.8572 8941921
983.54114 1029.7552 3376.7957 9139300
998.26343 1024.3346 3359.0203 9402472
1016.2311 1022.3909 3352.6467 9402213
1039.6791 1025.9297 3364.251 9468263
1049.4225 1016.0662 3331.9065 9336677
1074.4824 1021.123 3348.489 9534056
1095.7407 1022.449 3352.8374 9139297
1121.7694 1028.1 3371.3677 8744540
1146.0465 1031.9758 3384.0776 8744540
1160.3917 1026.929 3367.5278 8415574
1173.8392 1021.2716 3348.9761 8415575
1201.2405 1027.7407 3370.1897 8481111
1218.0745 1025.1051 3361.5469 8678490
1230.6237 1019.0062 3341.5474 9073506
1250.974 1019.458 3343.0288 9270628
1275.2566 1023.05 3354.8079 9468263
1296.0758 1023.7962 3357.2546 9270884
1329.9359 1034.6654 3392.8972 8678747
1336.1398 1024.0151 3357.9729 8612956
1360.9463 1027.7253 3370.1394 8481625
1384.241 1030.203 3378.2644 8415831
1411.4087 1035.4514 3395.4751 8416087
1433.6151 1036.9639 3400.4346 8350295
1437.8488 1025.6144 3363.217 8481624
1467.4213 1032.4022 3385.4758 8350295
1476.1516 1024.5414 3359.6982 7758158
1489.9381 1020.3521 3345.9609 8547674
1509.049 1019.8714 3344.3845 9008225
1525.2296 1017.4484 3336.439 8547673
1542.9943 1016.1305 3332.1174 8745052
1582.8773 1029.2279 3375.0667 8745053
1601.0834 1028.0795 3371.3008 8679003
1608.0616 1019.8385 3344.2769 8415831
1627.3898 1019.5353 3343.2822 8876382
1655.3184 1024.5625 3359.7678 8218450
1665.0863 1018.3634 3339.4395 8283986
1679.9089 1015.3648 3329.6064 7692106
1716.5344 1025.4609 3362.7141 7691849
1733.0961 1023.4769 3356.2078 7757899
1747.6328 1020.3555 3345.9722 7560519
1765.0228 1018.9514 3341.3674 6968127
1791.8959 1022.9921 3354.6182 7626313
1819.4078 1027.3051 3368.7612 6836796
1827.6216 1020.7462 3347.2534 8284243
1834.1643 1013.4049 3323.1794 7100225
1865.2463 1019.6338 3343.6052 6310452
1879.9902 1016.8943 3334.6223 4731163
1926.2601 1031.0873 3381.1638 5520679
1930.5221 1022.7334 3353.7698 7494727
1940.5073 1017.5509 3336.7751 7823437
1989.3835 1032.6605 3386.3232 7626572
2000.6814 1028.1571 3371.5552 6705470
2016.3384 1025.9604 3364.3521 7494986
2028.0361 1021.8122 3350.7488 7561293
2053.3435 1024.5349 3359.6772 7561549
2077.2866 1026.5311 3366.2234 7692878
2063.9802 1010.2569 3312.8567 7232583
2097.8738 1017.1747 3335.5415 7232328
2100.2068 1008.8035 3308.0906 7496014
2128.8252 1013.0964 3322.1677 6508864
2142.6355 1010.328 3313.0896 6311231
2148.8105 1004.0423 3292.4775 6969419
2145.5828 993.51569 3257.9583 7429713
2182.0264 1001.3829 3283.7566 8548452
2173.4912 988.65161 3242.0081 7891291
2203.5945 993.56488 3258.1196 8022879
2215.0771 990.06995 3246.6589 8219232
2210.3521 979.45319 3211.8442 4865851
2245.0132 986.32153 3234.3672 9734016
2250.1296 980.20343 3214.3044 7562325
2273.8171 982.21008 3220.8845 8615009
2298.8105 984.74255 3229.1895 6968894
2292.7744 974.0509 3194.1292 9468771
2340.845 986.33264 3234.4036 10324080
2336.519 976.51648 3202.2141 7626567
2414.396 1000.9372 3282.2952 8679257
2387.9204 982.05206 3220.3665 9666153
2429.7551 991.33661 3250.8127 7956562
2424.0186 981.21887 3217.6343 9863789
2471.8413 992.77008 3255.5134 10192241
2518.957 1003.8607 3291.8818 9271138
2569.5312 1016.1486 3332.1768 11968392
2581.8794 1013.2476 3322.6633 13415836
2588.9827 1008.3475 3306.595 13218201
2615.5278 1011.0365 3315.4128 12362380
2646.4126 1015.3502 3329.5586 11770500
2656.5979 1011.717 3317.6448 9534308
2673.6313 1010.7263 3314.3958 7494471
2704.6963 1015.0156 3328.4614 7099969
2695.1333 1004.1064 3292.6877 6837311
2649 979.82715 3213.0706 6048310
2707.1687 994.19891 3260.1987 6377022
2731.2515 995.93781 3265.9009 9798254
2783.6809 1007.9159 3305.1799 11311236
2770.5 996.13654 3266.5525 10390131
2817.9446 1006.1672 3299.4453 12758425
2845.9099 1009.1525 3309.2349 11310210
2841.5212 1000.7027 3281.5261 8744286
2821.7854 986.99969 3236.5908 8547676
2847.4438 989.25232 3243.9778 8152916
2873.3887 991.57367 3251.5901 8153172
2878.0757 986.57703 3235.2051 7955539
2923.79 995.61743 3264.8503 7626572
2947.5862 997.12427 3269.7917 7429451
2961.8564 995.41003 3264.1704 7955025
2984.4795 996.50708 3267.7676 8152402
3038.4473 1007.9882 3305.417 8218196
3071.2664 1012.3514 3319.7249 8086093
3069.0273 1005.1768 3296.1978 8677972
3136.6387 1020.8258 3347.5144 9665123
3156.4856 1020.8307 3347.5305 9205343
3156.2085 1014.3682 3326.3381 9336672
3164.9341 1010.8611 3314.8379 10192750
0 0 0 0
0 0 0 0
0 0 0 0
0 0 0 0
0 0 0 0
0 0 0 0
0 0 0 0
0 0 0 0
-3374.9285 1181.9659 3802.0664 19
-3339.0098 1177.2434 3786.8755 19
-3320.0859 1178.4896 3790.8838 19
-3289.991 1175.7603 3782.1045 19
-3278.8345 1179.8082 3795.1255 19
-3258.5803 1180.6157 3797.7231 19
-3222.405 1175.6261 3781.6726 19
-3201.5515 1176.1956 3783.5044 19
-3162.4478 1170.021 3763.6426 19
-3137.9319 1169.1941 3760.9827 20
-3127.7078 1173.7184 3775.5364 20
-3093.2007 1169.13 3760.7766 20
-3061.0813 1165.384 3748.7266 21
-3036.7092 1164.5541 3746.0571 21
-3036.8457 1173.1802 3773.8049 21
-3006.2717 1169.9822 3763.5178 21
-2981.2161 1168.9001 3760.0371 19
-2938.9873 1161.0177 3734.6816 19
-2918.272 1161.5789 3736.4866 19
-2890.7529 1159.4198 3729.5413 19
-2874.3086 1161.7034 3736.8872 19
-2846.7749 1159.5057 3729.8181 18
-2815.7693 1155.8485 3718.0537 20
-2783.3118 1151.5331 3704.1719 20
-2765.4355 1153.2296 3709.6292 21
-2737.1089 1150.5604 3701.043 21
-2705.3638 1146.3993 3687.6582 21
-2682.8 1146.0929 3686.6724 21
-2658.9204 1145.2148 3683.8479 20
0 0 0 0
-2613.9431 1144.6326 3681.9751 21
-2600.0701 1148.1387 3693.2532 21
-2569.2805 1144.1709 3680.4897 21
-2545.0452 1143.0789 3676.9771 21
-2537.084 1149.3405 3697.1189 21
-2522.9355 1152.8839 3708.5171 21
-2490.4736 1148.0474 3692.9595 21
-2484.3193 1155.3597 3716.4814 21
-2458.646 1153.6443 3710.9631 21
-2434.3313 1152.5411 3707.4148 21
-2400.7427 1146.9872 3689.5488 21
-2382.4583 1148.71 3695.0908 21
-2357.6638 1147.2969 3690.5452 21
-2331.2368 1145.0554 3683.335 21
-2303.9968 1142.3687 3674.6924 21
-2289.4534 1145.9857 3686.3274 21
0 0 0 0
-2243.4856 1144.8168 3682.5676 21
-2131.377 1098.2897 3532.9021 21
-2190.542 1139.9713 3666.981 21
-2151.0452 1130.6296 3636.9314 21
-2125.0229 1128.2532 3629.2866 21
-2104.7537 1128.9136 3631.4109 21
-2079.6714 1126.9795 3625.1897 21
-2054.6965 1125.0638 3619.0278 21
-1976.6912 1093.7645 3518.3462 21
-1945.3557 1087.8971 3499.4724 21
-1921.8713 1086.3412 3494.4673 21
-1905.3256 1088.7161 3502.1067 21
-1888.3291 1090.8829 3509.0769 20
-1855.5103 1083.8557 3486.4722 19
-1831.9283 1082.1266 3480.9099 19
-1823.5868 1089.4631 3504.5095 19
-1801.5886 1088.7157 3502.1055 19
-1781.3501 1089.0267 3503.106 19
-1762.2777 1090.0664 3506.4502 18
-1741.4237 1090.0157 3506.2871 18
-1722.5867 1091.2416 3510.2305 19
-1700.2673 1090.2643 3507.0869 19
-1684.3199 1093.3994 3517.1714 19
-1664.7607 1094.2389 3519.8723 19
-1630.2489 1085.1469 3490.6255 19
-1606.9587 1083.3867 3484.9634 19
-1587.1049 1083.9275 3486.7029 19
-1565.421 1083.2162 3484.415 19
-1545.0088 1083.3776 3484.9343 19
-1525.6271 1084.2758 3487.8235 21
-1507.098 1085.8131 3492.7686 21
-1489.1998 1087.8539 3499.3333 21
-1463.8695 1084.4465 3488.3728 21
-1442.8468 1084.1783 3487.5103 21
-1422.8353 1084.6735 3489.1025 21
-1400.9803 1083.757 3486.1545 21
-1380.2303 1083.6807 3485.9092 21
-1359.5376 1083.6476 3485.8025 21
-1389.6644 1124.7451 3618.0024 21
-1366.6041 1123.4082 3613.7017 21
-1341.8894 1120.6469 3604.8196 21
-1321.2488 1121.2538 3606.7717 21
-1302.8239 1123.7919 3614.9358 21
-1284.584 1126.577 3623.8953 21
-1264.1626 1127.5112 3626.9001 21
-1247.6586 1132.0321 3641.4424 21
-1223.8419 1129.9602 3634.7781 19
-1201.8436 1129.5232 3633.3721 19
-1181.8912 1131.0281 3638.2129 19
-1164.8479 1135.4244 3652.3547 19
-1142.9114 1135.1273 3651.3989 19
-1123.4065 1137.2803 3658.3247 19
-1106.0443 1141.73 3672.6382 19
-1085.6229 1143.1368 3677.1636 19
-1061.639 1140.7733 3669.561 19
-1046.8148 1148.3594 3693.9631 19
-1021.9234 1144.9895 3683.1233 19
-1000.8716 1145.8687 3685.9512 19
-984.96075 1152.8038 3708.26 21
-958.78772 1147.7708 3692.0698 21
-932.82245 1142.7572 3675.9424 21
-912.7547 1144.9012 3682.8391 21
-896.41736 1151.9441 3705.4941 21
-876.11798 1154.1215 3712.498 21
-858.2594 1159.709 3730.4714 21
-835.32379 1158.5502 3726.7441 21
-814.01349 1159.6439 3730.2627 21
-791.69543 1159.3231 3729.2305 21
-770.90106 1161.2789 3735.522 21
-753.22058 1168.1799 3757.7205 21
-776.9444 1241.6714 3994.1228 21
-755.95514 1246.0771 4008.2949 21
-723.79535 1231.7585 3962.2358 21
-707.15552 1243.7775 4000.8972 21
-686.77734 1249.8267 4020.356 23
-678.15204 1278.4672 4112.4849 21
-654.62457 1280.1017 4117.7427 21
-627.45117 1274.4573 4099.5859 21
-597.3573 1262.1873 4060.1167 21
-578.25214 1273.0804 4095.1572 21
-553.76227 1272.5538 4093.4631 21
-531.30023 1276.8521 4107.2896 21
-510.90115 1286.759 4139.1572 21
-487.98679 1291.0103 4152.8325 21
-465.09128 1295.7655 4168.1289 21
-438.50827 1290.2043 4150.2402 21
-414.30432 1291.3982 4154.0806 21
-389.46298 1290.6307 4151.6118 21
-363.84833 1287.0243 4140.0107 21
-338.69147 1284.6327 4132.3179 21
-313.3472 1281.1024 4120.9619 21
-287.19104 1273.3759 4096.1074 21
-264.36282 1280.3405 4118.5107 21
-240.66142 1284.0624 4130.4829 21
-215.88605 1282.248 4124.647 21
-191.27983 1281.1036 4120.9658 21
-166.64435 1279.3997 4115.4844 21
-142.31311 1279.8477 4116.9258 21
-117.65585 1276.9429 4107.5815 21
-93.620911 1281.0383 4120.7554 21
-68.184586 1262.0835 4059.783 21
-44.488209 1272.2267 4092.4109 21
-20.139801 1265.6882 4071.3787 21
3.9758637 1264.3831 4067.1802 21
27.972189 1259.9432 4052.8984 21
52.04063 1261.3528 4057.4324 21
76.409973 1266.8605 4075.1494 21
100.65879 1268.2051 4079.4744 21
124.18973 1261.7354 4058.6631 21
148.11902 1260.7552 4055.5103 21
172.22327 1261.33 4057.3591 19
195.29834 1255.1498 4037.4792 19
219.37178 1256.0344 4040.3247 19
242.13298 1249.9707 4020.8196 19
266.14999 1250.8955 4023.7942 19
289.64911 1249.4343 4019.094 19
313.53955 1249.7549 4020.125 19
336.82111 1247.7744 4013.7544 19
360.64911 1247.9462 4014.3071 19
384.17657 1247.121 4011.6526 19
406.38971 1242.3738 3996.3823 19
429.91516 1241.9406 3994.9885 19
453.61917 1242.0413 3995.3125 19
444.30518 1156.2097 3719.2153 19
461.82663 1145.0228 3683.2302 19
479.61676 1135.4814 3652.5383 19
497.2218 1126.3447 3623.1477 19
517.3111 1123.3588 3613.543 19
537.66974 1121.1719 3606.5081 19
560.34467 1123.7972 3614.9534 18
581.68597 1123.6534 3614.4907 18
604.20251 1125.7095 3621.1042 18
629.23431 1132.1499 3641.8215 18
649.9389 1130.6357 3636.9509 18
669.69525 1127.6221 3627.2568 18
686.74438 1120.3793 3603.9587 18
705.42731 1116.1583 3590.3809 18
725.04645 1113.6223 3582.2234 18
738.25653 1101.6666 3543.7651 16
757.8678 1099.6603 3537.311 14
778.12018 1098.667 3534.116 13
790.75812 1087.2563 3497.4111 11
814.34296 1091.0953 3509.7603 65544
828.76678 1082.7748 3482.9949 262148
814.52252 1038.3136 3339.9753 590337
826.01727 1027.9939 3306.78 3811615
847.21478 1029.9481 3313.0659 7034437
870.49774 1034.2916 3327.0376 8020817
889.12854 1033.0375 3323.0037 8283987
904.68311 1028.3412 3307.8967 8678746
924.54779 1028.6393 3308.8555 8744541
946.43524 1031.1288 3316.8638 9205092
964.62909 1029.5747 3311.8647 9007714
985.43457 1030.8146 3315.853 9139300
1003.6351 1029.3342 3311.0913 9468262
1026.6896 1032.7935 3322.2188 9205091
1035.4672 1022.031 3287.5989 9402470
1058.8926 1025.8568 3299.9053 9205091
1082.1104 1029.3462 3311.1299 9007712
1100.2756 1027.991 3306.7703 9139041
1116.7589 1025.139 3297.5964 9073505
1137.5503 1026.2719 3301.2405 8810333
1164.9442 1033.2224 3323.5986 8612697
1175.9592 1025.6565 3299.261 8218197
1193.8466 1024.2339 3294.6846 7889233
1215.1012 1025.6995 3299.3989 8349784
1224.6262 1017.374 3272.6184 8744542
1249.5302 1021.8851 3287.1296 8349783
1263.519 1017.4686 3272.9224 9205091
1294.994 1027.0533 3303.7544 9336678
1319.7822 1031.1287 3316.8633 9073507
1329.9563 1023.8339 3293.3982 8942434
1346.8011 1021.8112 3286.8916 9139813
1368.9845 1023.8387 3293.4138 8942434
1389.7092 1024.7339 3296.293 9007971
1409.5206 1024.9399 3296.9558 9205604
1431.0748 1026.3904 3301.6216 8547417
1446.368 1023.3716 3291.9114 8152916
1467.5724 1024.5602 3295.7341 8284501
1487.6271 1024.9253 3296.9089 7692365
1502.6807 1021.8801 3287.113 8350039
1525.1995 1023.9244 3293.6892 8745053
1541.6171 1021.8729 3287.0901 8284502
1541.5095 1009.0554 3245.8596 6704444
1593.3304 1030.1267 3313.6404 8217680
1611.0968 1028.936 3309.8103 8086608
1634.4131 1031.2759 3317.3369 8152658
1645.7277 1026.0771 3300.614 8021328
1659.1851 1022.3209 3288.5315 7823949
1683.9738 1025.5529 3298.9272 7823692
1698.9357 1022.7946 3290.0549 7494727
1707.3593 1016.2072 3268.8652 7560519
1736.2714 1021.8256 3286.9377 7099969
1741.0288 1013.2615 3259.3896 6705468
1771.5614 1019.7217 3280.1702 7626313
1782.9409 1015.1366 3265.4214 8481623
1809.4302 1019.1606 3278.3652 8284244
1816.2959 1012.1636 3255.8579 7692362
1808.7917 997.38977 3208.3345 8086864
1864.2909 1017.3027 3272.3892 5256995
1887.6432 1019.4448 3279.2793 5520422
1905.0895 1018.3858 3275.873 5783339
1929.8251 1021.2054 3284.9431 6770235
1961.0004 1027.3425 3304.6846 6639419
1975.1796 1024.5424 3295.677 8021072
1986.6765 1020.4192 3282.4138 8152659
2014.4813 1024.671 3296.0911 8284247
2027.2301 1021.2565 3285.1072 8482397
2051.2542 1023.5329 3292.4299 8811361
2071.9312 1024.1122 3294.2935 8416606
2089.3704 1023.0952 3291.022 7758675
2098.1304 1017.8864 3274.2666 7298123
2130.481 1024.1129 3294.2957 6179897
2135.825 1017.3623 3272.5806 6705472
2147.0452 1013.5069 3260.179 6377021
2131.3586 997.13232 3207.5063 6837573
2145.3494 994.80847 3200.0312 7363405
2151.5386 988.93958 3181.1526 6968903
2173.5259 990.37097 3185.7568 7034441
2205.0508 996.08618 3204.1411 5916219
2212.9656 991.12946 3188.1968 8747629
2252.9094 1000.4802 3218.2754 8417894
2270.2319 999.71246 3215.8059 8942954
2310.1421 1008.8214 3245.1069 8153681
2332.8982 1010.3508 3250.0266 6574134
2332.0698 1001.7246 3222.2786 5520936
2324.8687 990.52332 3186.2468 7231039
2393.9692 1011.7495 3254.5259 7823435
2402.2852 1007.1525 3239.7388 7428933
2399.2483 997.90668 3209.9971 8021071
2430.1389 1002.8064 3225.7583 8613467
2477.1184 1014.2171 3262.4634 6705472
2491.9976 1012.4098 3256.6499 8350039
2528.4512 1019.328 3278.9038 8284243
2539.2727 1015.8859 3267.8318 10784120
2534.8584 1006.4469 3237.4688 11771012
2577.9084 1015.8534 3267.7268 13612958
2606.5698 1019.4918 3279.4307 13152407
2611.3301 1013.7973 3261.113 12165513
2613.3518 1007.131 3239.6694 10783091
2643.3616 1011.2695 3252.9817 7494468
2689.2092 1021.3631 3285.4502 8021070
2718.627 1025.1165 3297.5237 6771005
2721.9751 1019.0563 3278.03 7034177
2718.677 1010.6115 3250.865 11771274
2747.4231 1014.1132 3262.1294 9468262
2728.2681 1000.0087 3216.759 9205090
2751.5273 1001.5384 3221.6794 8283218
2795.4258 1010.5078 3250.5315 8875100
2815.3328 1010.7411 3251.2822 9862252
2786.2859 993.51569 3195.8726 9796715
2784.7961 986.28259 3172.6057 7560266
2822.7908 993.03687 3194.3323 7955280
2849.9705 995.92188 3203.6125 8415833
2885.7397 1001.7504 3222.3613 8613212
2860.2888 986.39014 3172.9517 7955282
2898.2776 992.96527 3194.1021 6705215
2915.3945 992.35065 3192.125 5915187
2997.3108 1013.6583 3260.6663 6244409
2978.1616 1000.7329 3219.0884 6836289
3016.7158 1007.2382 3240.0142 6902595
3081.2329 1022.275 3288.3838 6177843
3034.7617 1000.5312 3218.4397 4927778
3039.8247 995.94305 3203.6809 5981493
3091.8213 1006.6935 3238.262 5652528
0 0 0 0
0 0 0 0
0 0 0 0
0 0 0 0
0 0 0 0
0 0 0 0
0 0 0 0
0 0 0 0
-3322.9233 1185.9299 3743.4792 19
-3285.7034 1180.5251 3726.4187 19
-3262.4858 1180.1123 3725.1157 19
-3252.125 1184.3761 3738.5747 19
-3220.6494 1180.9558 3727.7781 19
-3198.575 1180.9595 3727.7896 19
-3171.8577 1179.2369 3722.3525 19
-3152.4529 1180.228 3725.481 19
-3109.0103 1172.1704 3700.0461 19
-3087.6804 1172.3944 3700.7534 19
-3062.9106 1171.3062 3697.3184 20
-3042.8347 1172.0101 3699.5405 20
-3018.5344 1171.0854 3696.6218 20
-2980.6465 1164.8373 3676.8987 20
-2973.1362 1170.4561 3694.6348 19
-2950.1357 1170.0146 3693.2417 19
-2933.7588 1172.2134 3700.1821 19
-2909.9265 1171.444 3697.7529 19
-2882.6484 1169.2649 3690.875 19
-2859.9153 1168.9103 3689.7556 19
-2832.1726 1166.4871 3682.1064 19
-2805.1167 1164.3112 3675.238 20
-2774.3398 1160.5447 3663.3486 21
-2746.8816 1158.118 3655.6887 20
-2724.2869 1157.7196 3654.4312 21
-2695.2263 1154.545 3644.4104 21
-2672.0149 1153.8448 3642.2004 21
-2649.5356 1153.4523 3640.9609 21
-2626.1733 1152.6656 3638.4778 21
0 0 0 0
-2588.9866 1155.3088 3646.8215 21
-2567.3374 1155.2888 3646.7583 21
-2542.1902 1153.6809 3641.6829 21
-2517.5613 1152.2828 3637.2695 21
-2480.3662 1145.0593 3614.468 21
-2526.4412 1176.4865 3713.6702 21
-2498.7424 1173.8096 3705.2207 21
-2455.7048 1163.816 3673.675 21
-2413.1956 1153.8962 3642.3625 21
-2352.7354 1135.1366 3583.1465 21
-2290.8176 1115.3258 3520.6118 21
-2348.4468 1153.8893 3642.3406 21
-2330.48 1155.6801 3647.9932 21
-2291.0435 1146.7581 3619.8301 21
-2193.7739 1108.446 3498.8955 21
-2268.2434 1157.0052 3652.1765 21
-2225.0767 1145.9171 3617.1755 21
-2225.718 1157.3939 3653.4033 21
-2203.1948 1156.9319 3651.9448 21
-2155.1289 1142.915 3607.6995 21
-2120.6494 1135.8945 3585.5388 21
-2026.9747 1096.7045 3461.832 21
-2089.6516 1142.1724 3605.355 21
-2068.8975 1142.5062 3606.4092 21
-2046.5621 1141.965 3604.7004 21
-1942.5159 1095.3374 3457.5171 21
-1909.9528 1088.4531 3435.7864 19
-1894.1191 1091.0573 3444.0063 18
-1883.1122 1096.5286 3461.2769 18
-1861.825 1096.0682 3459.824 19
-1841.3097 1096.0574 3459.7896 19
-1816.1465 1093.2482 3450.9224 19
-1788.2816 1088.7303 3436.6611 19
-1760.9631 1084.4449 3423.1338 19
-1750.406 1090.5017 3442.2529 19
-1733.9285 1092.9696 3450.043 19
-1713.2798 1092.8357 3449.6204 19
-1695.4899 1094.5443 3455.0134 19
-1656.7717 1082.6189 3417.3699 19
-1647.6074 1089.9495 3440.5093 19
-1616.3622 1082.6732 3417.5413 19
-1613.1462 1094.2251 3454.0061 19
-1579.1481 1084.9255 3424.6509 19
-1557.3914 1083.9037 3421.4255 19
-1550.6693 1093.4565 3451.5798 19
-1529.0365 1092.6099 3448.9072 19
-1508.2875 1092.3802 3448.1826 20
-1495.8627 1098.2561 3466.73 20
-1476.8745 1099.4095 3470.3711 19
-1451.8619 1096.0477 3459.759 21
-1424.9648 1091.1464 3444.2878 21
-1409.9926 1095.3667 3457.6094 21
-1389.6322 1095.4639 3457.9163 21
-1368.6931 1095.1008 3456.7703 21
-1349.9474 1096.5085 3461.2139 21
-1320.6157 1089.2284 3438.2336 21
-1307.6819 1095.4568 3457.8938 21
-1287.3954 1095.626 3458.428 21
-1312.7428 1135.2651 3583.552 21
-1248.2908 1097.2719 3463.6233 18
-1226.6842 1096.3003 3460.5564 18
-1206.9197 1096.9697 3462.6694 18
-1237.181 1143.917 3610.8623 19
-1214.0068 1142.2397 3605.5679 19
-1195.335 1144.8145 3613.6953 19
-1174.1063 1144.9897 3614.2483 19
-1154.0249 1146.3112 3618.4194 19
-1134.415 1148.1597 3624.2546 19
-1113.0215 1148.2395 3624.5066 19
-1098.1453 1155.1782 3646.4092 19
-1072.8293 1151.1931 3633.8301 19
-1058.1191 1158.6584 3657.3948 19
-1034.998 1157.0331 3652.2642 19
-1016.8931 1161.0657 3664.9934 19
-1002.3886 1169.475 3691.5381 19
-976.29645 1164.4386 3675.6401 21
-947.97229 1156.4495 3650.4221 21
-928.92822 1159.6726 3660.5962 21
-903.94464 1155.4579 3647.292 21
-887.68616 1162.4624 3669.4023 21
-870.74231 1168.8987 3689.719 21
-849.26123 1169.4187 3691.3604 21
-827.18811 1169.1295 3690.4475 21
-808.11554 1173.1805 3703.2349 21
-785.72052 1172.4998 3701.0857 21
-766.57977 1176.7754 3714.5825 21
-744.5108 1176.676 3714.2686 21
-718.69885 1170.4746 3694.6934 21
-698.82904 1173.8651 3705.3955 21
-680.30707 1179.8127 3724.1702 21
-697.29932 1249.8137 3945.1335 21
-698.75555 1295.8579 4090.4756 21
-669.14221 1285.5212 4057.8472 21
-650.80542 1296.8855 4093.7192 21
-628.44269 1300.7964 4106.064 21
-602.37091 1297.0358 4094.1934 21
-566.28473 1270.4915 4010.4045 21
-550.75513 1289.7622 4071.2339 21
-526.03027 1288.2783 4066.5496 21
-503.2753 1291.7078 4077.375 21
-481.90576 1299.2181 4101.082 21
-455.78201 1294.0281 4084.6995 21
-427.05365 1280.4467 4041.8286 21
-404.26929 1284.1324 4053.4629 21
-381.59973 1288.6714 4067.7905 21
-355.94009 1283.0441 4050.0273 21
-334.3324 1292.2648 4079.1335 21
-310.0621 1291.8291 4077.7583 21
-284.38882 1284.9805 4056.1399 21
-262.14651 1293.8009 4083.9824 21
-236.40526 1285.3905 4057.4343 21
-212.68527 1287.3103 4063.4941 21
-189.6246 1294.22 4085.3052 21
-165.1377 1291.9932 4078.2759 21
-141.80536 1299.5841 4102.2373 21
-117.13422 1295.5078 4089.3704 21
-92.498055 1289.7933 4071.3323 20
-68.560532 1293.226 4082.1672 20
-44.313034 1291.3662 4076.2971 20
-20.01088 1281.5516 4045.3164 20
3.9357622 1275.4821 4026.1577 21
27.95393 1283.1154 4050.2527 21
51.833126 1280.2645 4041.2539 21
75.820999 1281.0514 4043.7375 21
98.832169 1268.9204 4005.4451 21
123.49672 1278.6049 4036.0149 21
147.33228 1277.9568 4033.9692 21
169.68695 1266.4374 3997.6072 19
193.09497 1264.6381 3991.9277 19
216.96997 1265.9563 3996.0886 19
240.46335 1265.0076 3993.0938 19
263.70288 1263.0129 3986.7976 19
287.3017 1262.9255 3986.5217 19
310.68887 1261.9917 3983.5742 19
333.92645 1260.6251 3979.2605 19
358.50424 1264.1646 3990.4329 19
381.884 1263.3029 3987.7129 19
404.75336 1260.9517 3980.291 19
427.5827 1258.7412 3973.314 19
449.62518 1254.5662 3960.1348 19
473.02655 1254.4087 3959.6379 19
493.21609 1246.1511 3933.5723 19
521.91589 1259.1707 3974.6694 19
544.61353 1257.2102 3968.481 18
518.99359 1148.4895 3625.2957 19
537.57825 1142.343 3605.8938 19
556.02179 1136.3782 3587.0657 19
575.28351 1132.463 3574.707 18
598.21472 1135.793 3585.218 18
619.7818 1136.3933 3587.1133 18
645.72375 1144.7095 3613.3638 18
662.20203 1136.2535 3586.6719 18
679.70197 1130.0217 3567.0007 18
699.58551 1128.0092 3560.6479 18
714.82678 1118.8484 3531.7314 18
732.98114 1114.6385 3518.4424 16
757.88879 1120.6471 3537.4089 14
772.04816 1110.8671 3506.5376 14
790.35675 1107.4135 3495.6357 12
808.29218 1103.6265 3483.6819 65547
827.41144 1101.6042 3477.2988 131083
816.09521 1060.1433 3346.4243 262149
824.34082 1045.4579 3300.0686 524288
842.19196 1043.3529 3293.4238 2297867
867.90387 1050.861 3317.1238 4139804
885.14264 1048.0045 3308.1069 5454889
896.50208 1038.4613 3277.9832 7560517
916.84717 1039.5107 3281.2959 7428674
