# .PCD v0.7 - Point Cloud Data file format
VERSION 0.7
FIELDS x y z rgb
SIZE 4 4 4 4
TYPE F F F U
COUNT 1 1 1 1
WIDTH 1421
HEIGHT 1
VIEWPOINT 0 0 0 1 0 0 0
POINTS 1421
DATA ascii
-1756.0406 799.46417 2231.4668 19
-1737.8837 797.19934 2225.1453 19
-1718.0112 794.10687 2216.5137 19
-1690.9913 787.63776 2198.457 19
-1676.0643 786.74457 2195.9639 19
-1654.5251 782.70941 2184.7009 19
-1648.4994 786.00739 2193.9062 19
-1632.7371 784.67847 2190.197 19
-1608.9136 779.42316 2175.5283 19
-1597.8925 780.33502 2178.0735 19
-1579.2726 777.52063 2170.218 19
-1563.6036 776.12476 2166.322 19
-1544.0125 772.74286 2156.8823 19
-1481.0161 747.3999 2086.145 19
-1463.7518 744.9035 2079.177 19
-1444.6642 741.42889 2069.4788 19
-1478.9574 765.52539 2136.7371 19
-1493.5244 779.73944 2176.4111 19
-1501.757 790.86493 2207.4648 19
-1382.356 734.38031 2049.8047 19
-1463.375 784.31183 2189.1736 19
-1375.0271 743.55042 2075.4004 19
-1360.991 742.60059 2072.749 19
-1345.8679 741.03485 2068.3789 19
-1331.2953 739.74622 2064.782 19
-1316.9285 738.54913 2061.4407 19
-1301.6558 736.81677 2056.6055 19
-1286.1099 734.89569 2051.2432 19
-1268.9462 732.00464 2043.1737 19
-1259.0745 733.30487 2046.803 19
-1239.2974 728.80536 2034.2438 19
-1223.3304 726.47998 2027.7532 19
-1217.7562 730.34155 2038.5316 19
-1203.8502 729.23346 2035.4388 19
-1187.0048 726.30438 2027.2631 19
-1177.2836 727.71912 2031.212 19
-1152.6266 719.83545 2009.207 19
-1140.0242 719.3941 2007.9752 19
-1133.7583 722.98413 2017.9957 19
-1122.8677 723.67017 2019.9105 19
-1107.7786 721.63599 2014.2327 18
-1097.8826 722.97717 2017.9762 19
-1089.4806 725.34265 2024.5787 19
-1080.5682 727.41724 2030.3693 19
-1063.7733 724.1723 2021.3121 19
-1052.2416 724.47729 2022.1633 19
-1040.5262 724.6615 2022.6775 19
-1034.1886 728.63873 2033.7788 19
-1023.034 729.27606 2035.5576 19
-1011.232 729.46149 2036.0753 19
-1000.4474 730.39423 2038.6787 19
-986.76654 729.20947 2035.3717 19
-968.43695 724.51746 2022.2755 19
-968.15076 733.37592 2047.0011 19
-954.45258 732.17053 2043.6367 19
-943.86615 733.35199 2046.9343 19
-934.86469 735.81152 2053.7996 19
-924.06726 736.90393 2056.8486 19
-912.97314 737.78558 2059.3096 19
-900.67365 737.70398 2059.0818 19
-889.91376 738.8985 2062.4158 19
-874.77032 736.43579 2055.542 19
-862.31049 736.19476 2054.8691 19
-849.89374 735.98413 2054.2812 19
-849.008 745.89801 2081.9529 19
-829.77887 739.75092 2064.7952 19
-813.17719 735.7973 2053.7598 19
-806.505 740.84473 2067.8481 19
-789.2243 736.15271 2054.7517 19
-785.7901 744.43134 2077.8591 19
-781.22321 751.88336 2098.6592 19
-765.99371 749.14832 2091.0251 19
-759.79034 755.29608 2108.1848 19
-749.6145 757.63434 2114.7114 19
-737.50867 758.0683 2115.9226 19
-722.45984 755.44 2108.5864 19
-708.49084 753.86804 2104.199 19
-703.2738 761.71918 2126.113 19
-716.90192 790.6402 2206.8374 19
-678.97314 762.71954 2128.9053 19
-692.54126 792.68555 2212.5464 19
-655.80646 765.12 2135.6055 19
-648.56866 771.56073 2153.5828 19
-635.42877 771.09766 2152.2903 19
-638.50757 790.7002 2207.0049 19
-627.26489 793.01636 2213.47 19
-582.45337 752.08618 2099.2253 19
-615.5022 812.09967 2266.7354 19
-606.62408 818.23767 2283.8677 18
-583.26245 804.67407 2246.0088 18
-579.02655 817.47919 2281.7505 18
-567.65845 820.58643 2290.4233 18
-558.97766 827.82562 2310.6296 18
-543.08044 824.47278 2301.2712 16
-536.3678 835.24969 2331.3518 15
-525.396 839.78857 2344.0208 14
-513.95654 843.80621 2355.2346 14
-478.55188 807.60431 2254.1877 14
-492.57309 855.12946 2386.8401 16
-454.58151 812.49854 2267.8486 18
-443.13528 816.16187 2278.0737 19
-434.65283 825.68561 2304.6562 19
-419.189 822.1347 2294.7449 19
-405.80148 822.55438 2295.9165 19
-397.48782 833.64453 2326.8713 19
-384.28265 834.90405 2330.387 19
-372.50879 839.48315 2343.168 19
-356.41013 834.29303 2328.6814 19
-346.81158 844.51324 2357.2083 19
-338.87869 859.81732 2399.9248 19
-338.14999 895.54095 2499.6367 19
-325.27057 900.88354 2514.5491 19
-296.75015 861.33972 2404.1743 21
-283.30951 863.78571 2411.0015 21
-272.00479 873.34937 2437.6956 21
-258.12158 875.24231 2442.9792 21
-244.79149 879.34705 2454.4363 21
-231.19557 882.95502 2464.5068 21
-217.3578 886.06354 2473.1833 21
-202.96344 887.18835 2476.323 21
-194.6981 917.36682 2560.5571 21
-186.89093 954.98639 2665.561 21
-171.34711 956.36823 2669.418 21
-156.06174 959.62006 2678.4946 21
-140.51241 961.80157 2684.5835 21
-124.99471 964.78387 2692.9077 21
-109.51283 968.95569 2704.5522 21
-93.519783 969.2597 2705.4009 21
-77.549248 969.97107 2707.3865 21
-61.693844 972.86896 2715.4749 21
-43.284725 923.33612 2577.2188 21
-29.608707 975.80334 2723.6655 21
-12.734118 922.28204 2574.2766 19
2.5254216 925.55957 2583.4248 18
17.893095 928.82373 2592.5356 18
33.490883 935.50024 2611.1711 18
49.242538 940.89783 2626.2371 19
65.193222 946.59344 2642.1345 19
85.81884 1004.8205 2804.6582 19
102.88235 1009.2159 2816.9268 19
119.493 1008.5621 2815.1018 19
136.4716 1010.7938 2821.3308 19
154.51953 1019.5943 2845.895 19
171.03394 1017.5399 2840.1606 19
188.53368 1021.1906 2850.3503 19
206.53459 1026.7324 2865.8188 19
223.58696 1027.0752 2866.7756 19
242.23326 1034.1744 2886.5913 19
260.13757 1037.3787 2895.5347 18
282.17294 1055.6414 2946.5093 18
296.09003 1043.1737 2911.71 18
314.67825 1047.6302 2924.1489 18
332.49506 1049.1874 2928.4954 18
352.15561 1056.1196 2947.8445 18
367.14026 1049.0361 2928.073 18
390.48969 1065.4144 2973.7881 18
402.87405 1051.7529 2935.6562 18
425.42715 1064.6704 2971.7114 19
441.96173 1062.0977 2964.5305 19
460.52588 1064.4127 2970.9924 19
473.11682 1053.2595 2939.8616 19
497.23267 1067.6444 2980.0127 19
518.7887 1075.735 3002.595 19
532.55432 1067.6708 2980.0859 19
550.64807 1068.5228 2982.4644 19
566.80768 1065.6853 2974.5442 19
583.3833 1063.7775 2969.2192 19
598.33197 1059.1016 2956.1677 19
616.49963 1060.2273 2959.3098 19
635.94031 1063.4197 2968.2202 19
651.47424 1060.0831 2958.9075 19
695.74939 1102.464 3077.2009 19
699.71088 1080.4316 3015.7043 18
712.14282 1072.2501 2992.8682 18
744.58966 1093.87 3053.2134 18
771.14233 1106.0105 3087.1001 18
788.86615 1105.2192 3084.8914 18
803.45178 1100.1665 3070.7883 18
823.23602 1102.2983 3076.7388 18
841.72168 1102.6368 3077.6833 18
856.69165 1098.4531 3066.0059 18
873.047 1096.1825 3059.6682 18
886.23083 1090.1033 3042.6997 18
906.62848 1092.9628 3050.6812 18
920.17352 1087.611 3035.7432 18
943.79572 1094.147 3053.9863 18
961.25336 1093.4247 3051.9707 19
981.0365 1095.3257 3057.2764 19
999.06976 1095.2394 3057.0356 18
1019.3875 1097.6158 3063.6689 18
1036.1631 1096.162 3059.6108 18
1042.1124 1083.502 3024.2739 18
1020.8378 1043.443 2912.4614 18
1035.9819 1041.3221 2906.5417 18
1051.3389 1039.4811 2901.4031 18
1067.9962 1038.9644 2899.9604 18
1084.4572 1038.2759 2898.0391 18
1104.5046 1040.9893 2905.6123 17
1120.5155 1039.8729 2902.4968 17
1138.1249 1040.2517 2903.554 17
1154.8486 1039.8218 2902.3538 17
1172.9387 1040.6166 2904.5723 16
1179.573 1031.3718 2878.7686 65550
1180.5524 1017.5167 2840.0959 131084
1182.0778 1004.515 2803.8057 262152
1135.665 951.70093 2656.3906 262146
1167.7106 965.18085 2694.0159 2231822
1181.5159 963.42395 2689.1121 5324087
1190.7654 958.04828 2674.1074 7691860
1209.2834 960.17303 2680.0381 7954771
1222.7268 958.26562 2674.7141 8809308
1237.085 957.11493 2671.5022 9138531
1253.5764 957.62274 2672.9197 8611926
1282.5447 967.53021 2700.5735 9467236
1284.4662 957.04144 2671.2971 10190701
1296.2677 954.0799 2663.0308 9335392
1318.7544 958.95929 2676.6504 9532514
1331.3772 956.63544 2670.1638 9532771
1346.7375 956.31 2669.2556 8545877
1362.5509 956.31 2669.2556 8940892
1377.8663 955.9646 2668.2915 8809306
1388.6433 952.51392 2658.6599 9598567
1409.6003 956.04523 2668.5166 8940381
1433.3823 961.39294 2683.4431 8611673
1449.8531 961.77332 2684.5049 8611673
1468.3468 963.47284 2689.2485 8479830
1479.6785 960.48682 2680.9141 8348501
1502.4529 964.91315 2693.2688 8414038
1521.8531 967.10217 2699.3787 7690568
1528.8999 961.47693 2683.6775 8414548
1548.5702 963.8244 2690.2297 8151376
1560.687 961.47064 2683.6599 8282704
1574.0632 959.93237 2679.3662 8085580
1584.1495 956.43854 2669.6143 8217167
1602.396 957.89172 2673.6707 8874841
1620.7769 959.39612 2677.8696 8085584
1629.828 955.40216 2666.7217 6638137
1640.2222 952.26483 2657.9646 7493703
1667.3868 958.83081 2676.2917 7888204
1678.6671 956.22504 2669.0183 7954509
1703.881 961.5307 2683.8276 7888459
1735.1997 970.15155 2707.8901 7954254
1763.3674 976.8689 2726.6396 7559749
1751.244 961.34644 2683.3132 7757129
1790.2351 973.9101 2718.3811 7888458
1791.3903 965.8501 2695.884 7757129
1811.9696 968.31274 2702.7576 7691335
1827.4241 968.01758 2701.9336 7296064
1829.6968 960.80554 2681.8035 7296834
1837.4515 956.57159 2669.9856 7164991
1864.7572 962.50116 2686.5364 7888201
1877.6515 960.95496 2682.2205 7691336
1892.4509 960.40143 2680.6755 6638651
1899.1462 955.77856 2667.7722 7164738
1929.6145 963.0976 2688.2009 7822923
1936.924 958.83221 2676.2957 8349011
1953.2354 959.0564 2676.9214 7625546
1967.4209 958.24146 2674.6467 7626059
1975.4418 954.46106 2664.0947 7560266
1975.6682 947.00439 2643.2817 7823694
1996.2861 949.36255 2649.8638 7888974
1999.0596 943.26379 2632.8411 7625802
2007.3556 939.84528 2623.2991 8086867
2038.1868 946.94904 2643.1272 7889486
2059.1501 949.39502 2649.9543 7758156
2075.5999 949.73853 2650.9133 7955534
2103.4688 955.26276 2666.3325 8481880
2116.9558 954.22198 2663.4275 9205604
2136.3818 955.85388 2667.9824 8416344
2145.8589 953.04315 2660.137 8415831
2153.6245 949.5188 2650.2998 7297350
2177.7957 953.22626 2660.6482 3744273
2180.1086 947.38159 2644.3347 7034177
2189.7024 944.7619 2637.0225 7823692
2207.8308 945.83557 2640.0193 7494726
2208.5183 939.47491 2622.2654 6244919
2211.4463 934.1496 2607.4014 6705213
2195.7046 921.06641 2570.8835 7954767
2246.1033 935.71735 2611.7773 6902339
2234.0703 924.33704 2580.0125 2956563
2244.228 922.2301 2574.1318 1180930
2238.1777 913.53632 2549.8655 917504
2241.1438 908.61462 2536.1279 983040
2270.6995 914.46655 2552.4619 1310720
2271.5347 908.75134 2536.5095 1048576
2255.4924 896.40344 2502.0442 4466205
2259.0762 891.96588 2489.658 5913903
2265.9802 888.88843 2481.0681 6901050
2238.8604 872.58984 2435.5754 9861733
2281.4785 883.50604 2466.0449 11375229
2282.9543 878.45251 2451.9395 11440510
2295.5244 877.70465 2449.8521 10519663
2301.2686 874.37274 2440.552 9598561
2299.6794 868.31354 2423.6396 10388077
2313.3853 868.06873 2422.9563 10716787
0 0 0 0
0 0 0 0
0 0 0 0
0 0 0 0
0 0 0 0
0 0 0 0
0 0 0 0
0 0 0 0
0 0 0 0
0 0 0 0
0 0 0 0
-1986.379 831.63373 2283.4995 16
-1973.0934 831.7359 2283.78 16
-1973.172 837.51196 2299.6399 17
-1941.6161 829.84766 2278.5952 18
-1927.9606 829.78027 2278.4102 18
-1912.0854 828.74982 2275.5808 18
-1867.4427 815.14764 2238.2319 19
-1871.7094 822.85272 2259.3884 19
-1833.54 811.87848 2229.2554 18
-1823.2671 813.18689 2232.8481 19
-1807.2822 811.94824 2229.447 19
-1800.765 814.9762 2237.7612 19
-1788.4493 815.4054 2238.9397 19
-1780.4106 817.80554 2245.53 19
-1770.5879 819.4162 2249.9526 19
-1750.9923 816.4942 2241.9292 19
-1737.0942 816.20453 2241.134 19
-1722.0806 815.38226 2238.8762 19
-1713.5702 817.65033 2245.1038 19
-1697.5394 816.33734 2241.4988 19
-1657.606 803.4184 2206.0256 19
-1662.3436 812.11768 2229.9121 19
0 0 0 0
-1626.391 807.38586 2216.9197 19
-1605.9822 803.74487 2206.9221 19
-1586.1858 800.35309 2197.6089 19
-1556.3245 791.78442 2174.0813 19
-1505.3591 772.24664 2120.4343 19
-1481.4539 766.37854 2104.3218 19
-1474.089 769.0401 2111.6299 19
-1528.902 804.46338 2208.895 19
-1449.7103 769.38019 2112.5637 19
-1507.356 806.93976 2215.6948 19
-1412.6306 762.87323 2094.697 19
-1470.0669 800.92688 2199.1846 19
-1387.5376 762.72253 2094.2832 19
-1373.5468 761.84412 2091.8711 19
-1354.2225 757.96448 2081.2185 19
-1339.1216 756.39917 2076.9204 19
-1326.3488 756.1319 2076.1865 19
-1305.0731 750.96704 2062.0049 19
-1294.0656 751.66882 2063.9319 19
-1284.7285 753.36365 2068.5854 19
-1272.4244 753.33447 2068.5054 19
-1260.3628 753.44965 2068.8215 19
-1246.678 752.58716 2066.4534 19
-1231.6895 750.91278 2061.856 19
-1216.8734 749.3111 2057.458 19
-1207.4218 751.01367 2062.1328 19
-1191.2062 748.50079 2055.2332 19
-1179.7166 748.93634 2056.429 19
-1165.9333 747.90973 2053.6101 19
-1152.546 747.11798 2051.4363 19
-1150.5339 753.7619 2069.679 19
-1144.2751 757.73669 2080.593 19
-1125.9208 753.70117 2069.5122 18
-1114.2975 754.13232 2070.696 19
-1100.9012 753.35974 2068.5747 19
-1088.5826 753.31555 2068.4534 19
-1076.1737 753.20697 2068.1553 19
-1063.3752 752.82025 2067.0935 19
-1051.2689 752.92035 2067.3682 19
-1039.1505 753.01392 2067.6252 19
-1025.608 752.06537 2065.0208 19
-1017.2131 754.91437 2072.8435 19
-1002.8964 753.38428 2068.6421 19
-990.87866 753.56488 2069.1379 19
-980.72198 755.18292 2073.5808 19
-967.9798 754.82593 2072.6006 19
-961.66632 759.53723 2085.5369 19
-949.76215 759.89813 2086.5278 19
-938.67798 760.93329 2089.3701 19
-927.67181 762.06006 2092.4641 19
-916.43597 763.02625 2095.1169 19
-905.96606 764.66534 2099.6177 19
-894.96332 765.89417 2102.9917 19
-886.00146 768.92877 2111.3242 19
-873.00482 768.49866 2110.1431 19
-858.22961 766.46753 2104.5662 19
-852.91925 772.9541 2122.377 19
-833.17151 766.35516 2104.2576 19
-826.93378 772.17108 2120.2268 19
-815.88861 773.60797 2124.1724 19
-804.94116 775.18414 2128.5002 18
-792.17523 775.03131 2128.0806 18
-779.56616 775.02942 2128.0754 18
-767.26721 775.341 2128.9309 18
-753.68225 774.34161 2126.1868 19
-738.81708 771.97058 2119.6765 19
-725.66351 771.33704 2117.9368 18
-718.20874 776.84509 2133.0608 19
-713.56976 785.65082 2157.2395 19
-697.96759 782.48682 2148.5518 19
-691.83466 790.01843 2169.2322 19
-705.92334 821.36359 2255.2998 19
-696.55035 826.0932 2268.2861 19
-685.95618 829.5321 2277.7288 19
-669.5022 825.88043 2267.7021 19
-662.16565 833.55652 2288.7791 19
-650.802 836.37817 2296.5269 19
-642.53424 843.38403 2315.7634 19
-613.40552 822.71619 2259.0137 19
-602.47003 826.07196 2268.228 19
-599.82446 841.20691 2309.7854 19
-598.87354 859.48047 2359.9609 19
-568.09875 834.80243 2292.2002 19
-558.29877 840.49231 2307.8232 19
-557.01282 859.60718 2360.3088 17
-541.57996 857.31201 2354.0068 16
-506.05487 822.24927 2257.7317 14
-515.82983 860.88562 2363.8191 14
-506.07828 868.18036 2383.8491 14
-495.27625 874.04004 2399.9387 16
-466.19931 847.04236 2325.8083 18
-463.06293 866.96716 2380.5181 19
-458.82822 886.02283 2432.8411 19
-421.6337 840.60327 2308.1279 19
-432.06427 890.27057 2444.5044 19
-395.06702 842.26843 2312.7002 19
-407.60443 900.21729 2471.8162 19
-371.45258 850.94495 2336.5242 19
-359.14294 854.59149 2346.5369 19
-346.74997 858.32544 2356.7896 19
-352.94046 910.30298 2499.5095 19
-319.28357 859.55811 2360.1743 19
-306.30133 862.37354 2367.9048 19
-294.95541 870.28717 2389.634 21
-279.1788 865.26672 2375.8489 21
-272.66287 889.93872 2443.5933 21
-254.22581 876.2868 2406.1079 21
-241.77679 882.87909 2424.209 21
-228.14938 885.72919 2432.0349 21
-218.4328 905.16992 2485.415 21
-202.32129 899.00525 2468.488 21
-199.01425 953.20905 2617.3208 21
-184.69954 959.39496 2634.3062 21
-161.80521 918.04401 2520.7646 21
-154.62814 966.52734 2653.8901 21
-140.13506 975.07996 2677.374 21
-117.96351 925.56879 2541.4263 21
-108.02959 971.63751 2667.9219 21
-92.481682 974.35016 2675.3701 21
-73.915237 939.80511 2580.5164 21
-61.121048 979.77399 2690.2629 21
-45.908718 995.50391 2733.4541 21
-29.775425 997.52429 2739.0015 20
-13.606704 1001.7756 2750.6748 19
2.6924279 1003.0838 2754.2668 19
19.095024 1007.6058 2766.6836 19
35.200539 999.51483 2744.4673 19
49.440365 960.29865 2636.7876 19
63.893684 943.06488 2589.467 19
79.873032 950.6676 2610.3425 19
96.711777 964.37341 2647.9761 19
113.85506 976.86633 2682.2791 19
131.56567 990.57074 2719.9084 19
153.44273 1029.2313 2826.063 19
170.90591 1033.5914 2838.0347 19
188.3087 1036.8379 2846.949 19
205.3356 1037.6512 2849.1821 19
223.28818 1042.6633 2862.9446 19
242.19254 1051.0986 2886.106 19
259.34918 1051.3365 2886.7593 17
279.0983 1061.4041 2914.4028 18
294.86157 1056.0238 2899.6294 18
311.94754 1055.7122 2898.7737 18
330.84958 1061.2584 2914.0027 18
347.30899 1058.8079 2907.2742 18
363.43893 1055.632 2898.5537 18
383.00833 1062.2822 2916.8137 18
407.64905 1081.8163 2970.4507 19
423.29523 1076.8518 2956.8191 19
437.80475 1069.5054 2936.6472 19
454.91336 1068.8269 2934.7842 19
473.315 1071.1245 2941.093 19
490.66104 1070.9551 2940.6277 19
512.44965 1080.1614 2965.9065 19
535.00769 1090.3254 2993.8149 19
552.45392 1089.7538 2992.2451 19
573.88983 1096.8428 3011.7104 19
592.02838 1097.3923 3013.2195 19
604.15002 1087.0833 2984.9126 19
633.38367 1107.2755 3040.3564 19
645.41132 1097.1034 3012.4258 19
657.38025 1087.3816 2985.7317 19
685.01343 1103.4008 3029.717 19
697.22321 1094.3926 3004.9827 18
709.45795 1085.8712 2981.5847 18
736.49738 1099.873 3020.0308 18
754.86523 1100.5677 3021.9382 18
767.24402 1092.7007 3000.3369 18
795.21277 1106.8903 3039.2988 18
818.06781 1113.491 3057.4231 18
832.04907 1107.9894 3042.3164 18
850.2915 1108.2748 3043.1003 18
869.81024 1110.1776 3048.325 18
890.44525 1113.3986 3057.1692 18
903.62787 1107.3586 3040.5847 18
919.87805 1105.2404 3034.7683 18
935.61926 1102.6036 3027.5286 18
952.26141 1101.1079 3023.4214 18
971.62158 1102.7521 3027.936 18
990.72113 1104.0463 3031.4897 18
1008.405 1103.745 3030.6624 18
1021.1338 1098.1254 3015.2322 18
1035.2739 1094.1907 3004.4282 18
1030.3657 1070.5969 2939.6445 18
1031.0343 1053.4858 2892.6606 18
1045.78 1051.0826 2886.0623 18
1056.0234 1044.3043 2867.4504 18
1074.8545 1046.0986 2872.3772 18
1089.8917 1044.2024 2867.1702 15
1105.7667 1043.1545 2864.293 16
1125.1134 1045.3638 2870.3594 16
1135.3607 1039.1788 2853.377 16
1159.5167 1045.7192 2871.3352 16
1173.6445 1043.157 2864.3 65550
1185.5995 1038.7642 2852.238 65550
1190.6901 1028.5651 2824.2334 65550
1185.674 1010.039 2773.3645 196620
1156.7898 971.96484 2668.8206 196614
1165.4138 966.00787 2652.4639 656133
1196.5276 978.60315 2687.0479 1838092
1202.8323 970.84332 2665.741 4007460
1213.6559 966.8847 2654.8716 5454387
1228.9038 966.50714 2653.8347 7954001
1249.4119 970.22388 2664.04 8809565
1253.7411 961.44086 2639.9236 8677979
1272.09 963.49292 2645.5583 8282708
1269.8479 950.08911 2608.7542 8677466
1290.0748 953.61658 2618.4399 8545880
1314.3542 960.02032 2636.0232 8216915
1317.5649 951.06537 2611.4348 9269604
1339.714 955.83014 2624.5178 8480085
1354.8169 955.51593 2623.6553 8480341
1357.577 946.60278 2599.1814 9006684
1387.1886 956.40228 2626.0889 8743513
1405.3669 958.18915 2630.9954 8479830
1405.1647 947.5423 2601.7612 8414294
1434.1057 956.56537 2626.5366 8545880
1455.7124 960.55518 2637.4917 8414294
1469.0377 959.05371 2633.3691 7230530
1479.9318 956.01343 2625.021 8020044
1498.9891 958.2547 2631.1753 6638135
1499.0022 948.40076 2604.1184 7625289
1510.6417 946.02875 2597.6052 8546391
1546.9313 958.98572 2633.1824 8283219
1556.7993 955.46802 2623.5234 8216912
1578.4647 959.18878 2633.74 8282961
1592.9111 958.49298 2631.8293 7691080
1589.7292 947.30597 2601.1123 6638648
1621.6559 957.05396 2627.8782 7756874
1620.1898 947.09644 2600.5369 7164738
1652.4683 956.86633 2627.363 7756618
1663.2595 954.12775 2619.8435 7756618
1679.8035 954.70941 2621.4407 8282962
1715.0907 965.83557 2651.9907 8151887
1716.0181 957.58594 2629.3389 8151887
1736.5693 960.33679 2636.8923 8283473
1752.7075 960.61993 2637.6697 8086094
1769.0995 961.03595 2638.812 7757129
1792.4767 965.20605 2650.2622 7757899
1797.0566 959.26978 2633.9624 7889485
1811.0283 958.40588 2631.5903 8021071
1821.7292 955.84052 2624.5464 7494727
1848.3097 961.57996 2640.3057 8021071
1865.7778 962.52216 2642.8928 8151888
1878.3679 960.95312 2638.5845 6901821
1890.5247 959.19006 2633.7437 8349011
1907.8987 960.08142 2636.1909 7756618
1924.7281 960.68634 2637.8521 7361860
1940.1852 960.60211 2637.6206 6770237
1949.0396 957.27618 2628.4885 6769980
1939.3688 944.97656 2594.7161 6836286
1944.7139 940.12933 2581.4067 7034178
1974.4584 947.06122 2600.4402 7428680
1975.715 940.32715 2581.9497 7099715
2005.6409 947.23657 2600.9216 7560779
2017.9536 945.78571 2596.9377 8284501
2017.3702 938.35828 2576.5437 7823951
2053.1182 947.81458 2602.5088 7955280
2063.8606 945.6723 2596.6265 8284502
2112.2471 960.68274 2637.842 7823440
2091.3569 944.19604 2592.573 7692110
2112.8708 946.95459 2600.1475 7560779
2120.1838 943.35461 2590.2627 8283733
2129.7224 940.78961 2583.2197 7823692
2135.3135 936.52972 2571.5229 7231301
2142.3428 932.9566 2561.7117 6441528
2151.3342 930.28229 2554.3684 3941652
2176.6416 934.65131 2566.365 7362886
2178.9868 929.16803 2551.3091 7691595
2219.082 939.74707 2580.3569 7362884
2196.9348 924.00287 2537.1265 6902846
2191.8848 915.6145 2514.094 7099716
2182.1489 905.39545 2486.0342 6310201
2209.6609 910.66412 2500.501 4862758
2232.9927 914.15137 2510.0762 3745822
2235.2473 909.02087 2495.989 3744794
2217.6663 895.94415 2460.083 3350037
2213.9299 888.59503 2439.9038 2427655
2214.4402 883.03455 2424.6357 3151374
2216.6729 878.22821 2411.4385 2427650
2212.7524 871.06122 2391.7593 2822662
2265.3586 886.09576 2433.0413 10520437
2274.2551 883.95123 2427.1528 11704449
2279.3069 880.34882 2417.2612 10914163
2285.4453 877.20831 2408.6382 11177591
2298.8342 876.8725 2407.7161 11308923
0 0 0 0
0 0 0 0
0 0 0 0
0 0 0 0
0 0 0 0
0 0 0 0
0 0 0 0
0 0 0 0
0 0 0 0
0 0 0 0
0 0 0 0
-2056.9324 875.18066 2364.6062 16
-2038.1733 873.14563 2359.1077 17
-2018.538 870.70428 2352.5117 18
-1996.1761 867.04486 2342.6245 18
-1947.8143 851.96198 2301.8728 19
-1952.0322 859.82654 2323.1216 19
-1926.9901 854.823 2309.6028 20
-1868.4647 834.78821 2255.4717 19
-1851.7059 833.25964 2251.3418 19
-1804.3771 817.85266 2209.7146 19
-1806.7665 824.92053 2228.8108 19
-1783.1327 820.12347 2215.8501 19
-1786.6289 827.82581 2236.6606 19
-1750.0475 816.93488 2207.2349 19
-1732.7896 814.96802 2201.9207 19
-1716.5499 813.45404 2197.8301 19
-1710.0338 816.55988 2206.2217 19
-1697.8059 816.96515 2207.3167 19
-1678.2467 813.82159 2198.8232 19
-1640.8199 801.89667 2166.604 19
-1634.8756 805.29102 2175.7749 19
-1618.1082 803.36591 2170.5735 19
0 0 0 0
-1638.8656 826.81287 2233.9236 19
-1628.6075 828.3266 2238.0137 19
-1589.9875 815.32166 2202.876 19
-1593.0707 823.66302 2225.4133 19
-1504.8428 784.53937 2119.707 19
-1490.0762 783.37805 2116.5693 19
-1473.3846 781.17645 2110.6208 19
-1450.5452 775.6496 2095.6882 19
-1424.2399 768.15808 2075.4473 19
-1511.7206 822.44061 2222.1106 19
-1495.0055 820.49182 2216.8452 19
-1411.631 781.6001 2111.7656 19
-1393.2823 778.33881 2102.9541 19
-1383.3209 779.74628 2106.7568 19
-1371.7914 780.28741 2108.219 19
-1363.683 782.80237 2115.0139 19
-1346.345 780.01678 2107.4875 19
-1328.603 776.94263 2099.1819 19
-1309.8989 773.24255 2089.1848 19
-1298.2234 773.66046 2090.314 19
-1282.1024 771.4118 2084.2383 19
-1266.0107 769.13708 2078.0923 19
-1253.1503 768.79999 2077.1816 19
-1241.2545 769.05402 2077.8679 19
-1224.4926 766.26794 2070.3403 19
-1209.3247 764.43304 2065.3828 19
-1191.4932 760.85974 2055.7283 19
-1179.0565 760.6933 2055.2786 19
-1162.432 757.79321 2047.4429 19
-1149.8566 757.49945 2046.6493 19
-1143.8491 761.57245 2057.6538 19
-1127.5315 758.79468 2050.1487 19
-1108.9526 754.41803 2038.3236 18
-1097.3289 754.72876 2039.1632 19
-1090.5372 758.4068 2049.1008 19
-1078.3459 758.3703 2049.0022 19
-1060.4642 754.28546 2037.9655 19
-1049.1215 754.81104 2039.3856 19
-1038.1503 755.61945 2041.5698 19
-1024.9286 754.78949 2039.3273 19
-1019.2895 759.59045 2052.2988 19
-1002.1149 755.80707 2042.0768 19
-996.89221 761.0556 2056.2576 19
-982.43109 759.29395 2051.4978 19
-977.24683 764.74786 2066.2334 19
-961.7583 762.17413 2059.2795 19
-955.87018 767.24011 2072.967 19
-944.81226 768.23438 2075.6533 19
-933.73505 769.23895 2078.3677 19
-914.21881 763.22522 2062.1194 19
-907.02234 767.47284 2073.5959 19
-895.31769 767.97015 2074.9395 19
-883.53241 768.41125 2076.1313 19
-873.71338 770.599 2082.0422 19
-854.62878 764.56018 2065.7263 19
-752.93091 683.3656 1846.3508 19
-842.76147 776.1723 2097.1006 19
-823.73914 770.00415 2080.4351 19
-812.50867 771.04279 2083.2412 19
-810.94135 781.42487 2111.2922 18
-799.82849 782.79004 2114.9807 18
-786.91699 782.41046 2113.9551 18
-774.5636 782.58234 2114.4194 18
-761.84222 782.38202 2113.8782 18
-743.3576 776.15741 2097.0603 18
-736.44519 782.00946 2112.8716 18
-727.81744 786.21082 2124.2231 19
-721.24731 792.82196 2142.0854 19
-706.97778 791.05481 2137.3108 19
-682.69629 777.81628 2101.5422 19
-683.11694 792.75256 2141.8979 19
-675.04932 798.21729 2156.6626 19
-663.41547 799.59448 2160.3838 19
-655.34131 805.40076 2176.0715 19
-669.89032 839.80139 2269.0166 19
-660.11926 844.4978 2281.7058 19
-651.23596 850.55023 2298.0583 19
-605.98022 808.34222 2184.0188 19
-613.33008 835.99628 2258.7358 19
-604.94952 842.96454 2277.563 19
-592.91895 845.04858 2283.1938 19
-583.84283 851.53894 2300.7297 19
-573.08728 855.83167 2312.3281 19
-562.46674 860.54108 2325.0522 19
-546.06323 856.41742 2313.9106 17
-539.81506 868.41846 2346.3357 16
-526.06757 868.67065 2347.0171 14
-509.65549 864.41718 2335.5249 14
-493.57764 860.50903 2324.9656 14
-479.4491 859.87256 2323.2458 16
-471.27469 870.19238 2351.1287 18
-466.70587 888.00134 2399.2456 19
-450.80209 884.68451 2390.2842 19
-445.1022 901.82684 2436.6001 19
-431.41632 903.39551 2440.8384 19
-411.04596 890.59003 2406.24 19
-396.8894 890.81128 2406.8376 19
-382.63376 890.81824 2406.8564 19
-369.03378 892.41125 2411.1606 19
-347.76346 874.83704 2363.6777 19
-333.63492 874.508 2362.7886 19
-319.47964 874.07684 2361.6238 19
-308.21832 881.88654 2382.7244 19
-294.39398 882.76056 2385.0857 21
-281.23196 885.80872 2393.3215 21
-268.43027 890.37573 2405.6609 21
-254.32066 890.87341 2407.0056 21
-241.72084 897.03302 2423.6479 21
-228.01942 899.62451 2430.6497 21
-217.74918 917.01508 2477.6365 21
-201.37921 909.375 2456.9941 21
-187.69507 913.6178 2468.4575 21
-173.40892 915.3996 2473.2717 21
-162.14468 934.93494 2526.0532 21
-153.46179 974.84039 2633.8718 21
-138.18446 977.14801 2640.1064 21
-116.28982 927.27899 2505.3679 21
-107.70852 984.50818 2659.9927 21
-92.23394 987.54706 2668.2031 21
-76.455704 987.91925 2669.2087 21
-60.514156 985.82501 2663.5505 20
-45.283741 997.9248 2696.2422 19
-27.728558 944.06201 2550.7131 18
-12.552828 939.21887 2537.6277 18
2.5297575 957.81085 2587.8604 19
17.546238 940.94049 2542.2793 19
34.87328 1006.33 2718.9519 19
51.768661 1021.8786 2760.9619 19
64.68557 970.28387 2621.5605 19
82.169609 993.91089 2685.3972 19
94.688667 959.55878 2592.583 19
115.82861 1009.9651 2728.7734 19
132.84116 1016.4435 2746.2771 19
142.39459 970.66168 2622.5815 19
167.82414 1031.4637 2786.8594 19
184.895 1034.6023 2795.3391 19
200.33533 1028.8507 2779.7996 19
219.2446 1040.4352 2811.0989 19
237.97733 1049.6053 2835.8752 19
255.63129 1053.1217 2845.3762 18
272.53198 1053.2921 2845.8364 18
289.58514 1053.9974 2847.7419 18
306.81088 1055.2186 2851.0415 18
323.59897 1054.8856 2850.1418 18
341.66098 1058.5326 2859.9954 18
359.37943 1060.8208 2866.1777 18
377.31308 1063.5092 2873.4414 18
394.22797 1063.2178 2872.6541 19
414.97894 1072.8682 2898.728 19
433.61893 1076.5109 2908.5701 19
448.11435 1069.979 2890.9216 19
468.01205 1076.3523 2908.1416 19
485.49036 1076.9064 2909.6387 19
502.69803 1076.8429 2909.467 19
518.95044 1074.8051 2903.9612 19
545.48627 1093.5127 2954.5063 19
563.79736 1095.082 2958.7463 19
581.71063 1095.8071 2960.7056 19
602.32257 1101.4248 2975.8838 19
613.3689 1089.7284 2944.2817 19
632.05426 1091.8754 2950.0825 19
651.28265 1094.8196 2958.0374 19
678.39758 1110.5195 3000.4563 19
697.38666 1112.4556 3005.687 18
698.92413 1087.1499 2937.3149 18
710.7287 1078.6559 2914.3655 18
739.92157 1096.3286 2962.1145 18
755.02356 1092.7881 2952.5486 18
776.4137 1098.303 2967.449 18
800.47266 1107.2651 2991.6636 18
813.4295 1100.8148 2974.2356 18
839.76099 1112.354 3005.4128 18
860.3501 1115.9657 3015.1709 18
877.36548 1114.8892 3012.2625 18
888.93365 1107.0717 2991.1406 18
910.83856 1112.1815 3004.9465 18
927.20508 1110.4623 3000.3015 18
944.31531 1109.6816 2998.1924 18
961.27893 1108.7609 2995.7046 18
974.93518 1104.1277 2983.1865 18
992.51868 1104.0281 2982.9172 18
1007.8795 1101.5028 2976.0945 18
1024.8394 1100.7819 2974.1465 18
1047.8097 1106.4321 2989.4126 18
1061.0796 1101.8215 2976.9556 17
1024.1072 1046.0432 2826.251 17
1042.6423 1047.844 2831.1165 16
1059.6804 1048.1069 2831.8269 15
1076.911 1048.5493 2833.022 16
1093.3196 1048.1898 2832.0508 16
1108.7174 1046.8867 2828.5303 16
1120.6904 1042.4371 2816.5078 16
1138.8711 1043.8073 2820.2097 15
1160.3282 1048.0975 2831.8015 14
1178.2621 1049.1282 2834.5862 15
1197.2644 1051.0681 2839.8274 16
1205.1293 1043.312 2818.8718 16
1199.8286 1024.5261 2768.1152 65549
1206.8907 1016.661 2746.8647 65549
1176.4307 977.81769 2641.916 196618
1181.91 969.47406 2619.3728 327685
1188.2709 962.06036 2599.342 852227
1217.8285 973.37683 2629.9175 3284764
1220.0669 962.84772 2601.4695 5784123
1231.7571 959.94745 2593.6333 7757138
1247.0433 959.88666 2593.469 8744028
1259.6683 957.80383 2587.8416 8414806
1274.2428 957.23553 2586.3062 8414547
1285.7625 954.41315 2578.6804 10454131
1291.4137 947.35211 2559.6025 8480341
1313.6951 952.51294 2573.5464 8611670
1334.411 956.43329 2584.1384 8677467
1342.5359 951.34253 2570.384 8479831
1357.5997 951.22784 2570.0742 8611417
1374.6978 952.52515 2573.5793 8809051
1388.5476 951.56812 2570.9934 8414037
1407.0813 953.8067 2577.042 8677466
1420.994 952.89862 2574.5884 8545879
1426.5358 946.45587 2557.1809 8743257
1450.9022 952.5069 2573.53 8217168
1465.2545 951.92615 2571.9609 8151376
1495.7966 961.76703 2598.5496 7822411
1500.3656 954.8775 2579.9351 7230274
1506.4849 949.10345 2564.3345 8349012
1526.7671 952.27856 2572.9131 8677977
1539.2333 950.56403 2568.2808 7625289
1562.0304 955.20056 2580.8079 7690825
1579.7155 956.65137 2584.7278 7756618
1594.8082 956.51953 2584.3716 7427909
1607.0996 954.72607 2579.5259 7362371
1615.4938 950.67297 2568.575 7164991
1636.1658 953.85327 2577.1677 7230785
1652.5394 954.49207 2578.8936 7954251
1673.5616 957.77954 2587.7759 8086094
1681.4951 953.58453 2576.4417 8086094
1698.5331 954.58185 2579.1362 8678231
1713.4691 954.39056 2578.6194 8217680
1727.0604 953.46033 2576.106 7691336
1740.5704 952.50183 2573.5164 7296577
1747.9177 948.21692 2561.9392 7822664
1770.4386 952.16626 2572.6096 7428162
1797.4365 958.43549 2589.5481 7625542
1813.6311 958.88684 2590.7676 7296834
1821.7738 955.10901 2580.5605 7494727
1836.9558 955.05396 2580.4119 7494726
1852.5756 955.22559 2580.8755 8415315
1872.7577 957.72772 2587.6357 7757642
1883.6702 955.487 2581.5818 7823438
1893.8885 952.93317 2574.6816 7889231
1918.4525 957.58075 2587.2388 7231301
1921.2854 951.39362 2570.522 8086610
1920.8914 943.71838 2549.7849 8218196
1944.7052 947.96338 2561.2542 7889231
1949.3228 942.85767 2547.4592 8020817
1971.9468 946.47296 2557.2273 7823438
1976.9814 941.65509 2544.2102 7297094
1988.949 940.18738 2540.2446 7165508
2022.8779 949.04504 2564.1765 8283989
2039.6421 949.77771 2566.156 8481368
2062.4756 953.30493 2575.686 8349782
2076.6116 952.78967 2574.2939 8415575
2087.8025 950.94049 2569.2979 8415575
2104.6199 951.66235 2571.248 8283732
2103.8557 944.48077 2551.8447 7955024
2124.5469 946.96497 2558.5566 7955024
2119.519 938.03174 2534.4202 7099715
2139.4075 940.17358 2540.2073 5257254
2161.126 943.08417 2548.071 7494730
2160.1863 936.13519 2529.2961 7626572
2188.1494 941.72113 2544.3884 8020816
2181.386 932.38733 2519.1699 7428937
2189.5476 929.51648 2511.4133 6836801
2192.4231 924.45544 2497.739 7166023
2235.7375 936.39941 2530.01 7297608
2232.1948 928.6897 2509.1794 4994854
2242.6052 926.84863 2504.2051 7494989
2253.77 925.34155 2500.1333 5586736
2247.6755 916.81409 2477.0935 6507838
2229.197 903.37878 2440.7932 6836291
2244.4504 903.6983 2441.6565 6771011
2235.595 894.3689 2416.4497 5652270
2247.2253 893.30139 2413.5657 854279
2276.9197 899.38281 2429.9966 10323827
2278.0015 894.1568 2415.8767 11834235
2287.5972 892.31708 2410.906 10189157
2289.1826 887.39502 2397.6074 9663583
0 0 0 0
0 0 0 0
0 0 0 0
0 0 0 0
0 0 0 0
0 0 0 0
0 0 0 0
0 0 0 0
0 0 0 0
0 0 0 0
-2012.7438 864.20142 2298.1567 15
-2009.4489 868.66254 2310.02 16
-1931.6216 840.74432 2235.7778 18
-1952.0315 855.49408 2275.0015 18
-1954.5925 862.57208 2293.8237 18
-1892.9221 841.20496 2237.0027 18
-1885.6675 843.88916 2244.1409 18
-1913.1311 862.25928 2292.9919 18
-1845.0739 837.53229 2227.2361 17
-1834.0814 838.53912 2229.9136 19
-1844.897 849.60358 2259.3369 19
-1825.318 846.73022 2251.6958 19
-1785.1948 834.21436 2218.4126 19
-1777.5923 836.82233 2225.3479 19
-1787.8402 847.93536 2254.9006 19
-1748.1624 835.35858 2221.4556 19
-1737.3491 836.48883 2224.4609 19
-1712.9899 831.06415 2210.0354 19
-1653.01 808.14154 2149.0776 19
-1679.2502 827.34247 2200.1382 19
-1659.4749 823.99506 2191.2366 19
-1663.9845 832.7486 2214.5146 19
-1655.156 834.91296 2220.2705 19
-1627.3881 827.48187 2200.509 19
0 0 0 0
-1646.5906 850.87781 2262.7256 19
-1634.2155 851.41437 2264.1523 19
-1595.6921 838.22406 2229.0754 19
-1581.3896 837.64294 2227.5303 19
-1570.9524 839.11676 2231.4495 19
-1555.812 838.08197 2228.6978 19
-1545.8293 839.83185 2233.3511 21
-1512.5287 828.83398 2204.1047 21
-1526.6125 843.83643 2244.0005 19
-1498.7881 835.73413 2222.4541 19
-1386.0199 779.70325 2073.4521 19
-1366.9886 775.87341 2063.2676 19
-1395.5491 799.23022 2125.3799 19
-1383.6332 799.62061 2126.418 19
-1369.7693 798.8819 2124.4536 19
-1352.6875 796.23535 2117.4158 19
-1339.7382 795.99457 2116.7754 19
-1325.1152 794.74542 2113.4536 19
-1305.9425 790.71777 2102.7429 19
-1295.515 791.95844 2106.0422 19
-1281.6138 791.07916 2103.7039 19
-1247.8883 777.82593 2068.4597 19
-1251.3911 787.74475 2094.8367 19
-1240.4116 788.65436 2097.2559 19
-1221.9714 784.79102 2086.9819 19
-1205.271 781.97742 2079.4998 19
-1196.7164 784.44513 2086.0623 19
-1178.7299 780.71741 2076.1492 19
-1163.0647 778.46478 2070.1587 19
-1155.1017 781.37427 2077.8958 19
-1134.4401 775.66388 2062.7102 19
-1129.8123 780.91144 2076.665 18
-1158.7213 809.71008 2153.2488 19
-1106.8479 782.07092 2079.7483 19
-1098.4259 784.85675 2087.1567 19
-1119.8595 809.28162 2152.1094 19
-1063.6047 777.47998 2067.5398 19
-1053.5829 779.12665 2071.9187 19
-1044.5076 781.52032 2078.2842 19
-1031.6707 781.12305 2077.2278 19
-1025.4889 785.81592 2089.7075 19
-1012.9965 785.72864 2089.4753 19
-990.20636 777.55304 2067.7341 19
-986.10345 784.03046 2084.9592 19
-971.74969 782.41846 2080.6726 19
-963.89911 786.06848 2090.3792 19
-948.27228 783.3894 2083.2546 19
-940.41345 787.14166 2093.2329 19
-931.50897 790.10718 2101.1191 19
-916.32452 787.75427 2094.8621 19
-897.71735 782.35388 2080.501 19
-894.22351 790.15765 2101.2534 19
-884.03815 792.18542 2106.6458 19
-853.46698 775.74207 2062.9182 19
-850.09174 783.89917 2084.6104 19
-835.43182 781.73737 2078.8616 19
-831.25012 789.46246 2099.4048 19
-810.11621 781.07764 2077.1072 19
-809.63837 792.65704 2107.8999 18
-789.32745 784.87787 2087.2129 18
-775.99139 783.89703 2084.6047 18
-774.01831 794.54889 2112.9309 18
-760.96649 793.99139 2111.4482 18
-747.69843 793.18579 2109.3059 19
-740.76959 799.19202 2125.2783 19
-728.24084 799.25995 2125.459 19
-713.71277 797.09735 2119.708 19
-694.18323 789.17139 2098.6306 19
-694.27222 803.6662 2137.1765 19
-684.57922 807.16583 2146.4829 19
-669.71173 804.58136 2139.6101 19
-665.79187 815.30322 2168.1226 19
-657.6864 821.22052 2183.8584 19
-664.47052 846.34033 2250.6589 19
-633.23413 823.07025 2188.7773 19
-620.40302 823.25031 2189.2561 19
-603.85724 818.4035 2176.3672 19
-590.30157 817.48627 2173.928 19
-585.64398 829.12543 2204.8799 19
-599.3775 867.927 2308.0642 19
-583.30585 864.37329 2298.6138 19
-570.50275 865.60895 2301.8999 19
-556.71875 865.38043 2301.292 19
-547.72998 872.78143 2320.9734 17
-536.2984 876.57074 2331.0503 16
-523.42804 878.14661 2335.241 14
-510.62595 879.92572 2339.9722 14
-485.69357 860.31744 2287.8281 14
-490.03931 892.93304 2374.5623 16
-478.55423 897.77759 2387.4453 18
-462.92334 894.90289 2379.8005 19
-427.51828 852.41998 2266.8267 19
-412.93283 850.03979 2260.4971 19
-400.44318 851.95898 2265.6006 19
-390.82187 860.32532 2287.8491 19
-392.69757 895.51074 2381.4172 19
-376.23926 889.95154 2366.6335 19
-362.61963 890.93634 2369.2524 19
-347.96741 889.36139 2365.0642 19
-330.62082 880.47876 2341.4429 19
-318.65274 885.76904 2355.5112 19
-307.39212 893.60046 2376.3372 19
-293.20529 893.26892 2375.4553 20
-280.56616 897.85657 2387.6553 21
-269.89679 909.56958 2418.8037 21
-251.83363 896.28168 2383.4673 21
-240.33183 906.15411 2409.7209 21
-226.19711 906.71942 2411.2241 21
-220.41559 943.10199 2507.9758 21
-208.78522 957.90961 2547.3535 21
-194.39198 961.36084 2556.5312 21
-179.34427 961.88513 2557.9255 21
-165.08801 967.14288 2571.9072 21
-150.41913 970.80676 2581.6506 21
-136.04393 977.40985 2599.2102 21
-120.80434 978.69586 2602.6299 21
-100.23666 930.87701 2475.4661 21
-90.722862 986.91602 2624.4897 21
-72.098572 946.53058 2517.0933 21
-56.61182 937.01471 2491.7878 20
-42.052845 941.55859 2503.8713 19
-27.291969 944.07074 2510.552 19
-13.161471 1000.5208 2660.6685 19
2.6135769 1005.3853 2673.6047 19
17.646885 961.48535 2556.8623 19
34.569653 1013.5358 2695.2793 19
50.704746 1016.8981 2704.2205 19
67.105278 1022.6911 2719.6257 19
83.45079 1025.5648 2727.2678 19
99.887444 1028.4447 2734.926 19
116.86732 1035.333 2753.2444 19
130.0119 1010.7184 2687.7869 19
145.64832 1008.7331 2682.5076 19
162.498 1014.7148 2698.4146 19
183.30463 1042.1207 2771.2947 19
200.27298 1044.9937 2778.9346 19
217.95349 1050.8636 2794.5444 19
235.46515 1055.1483 2805.9387 19
252.98441 1058.8997 2815.9146 19
271.48138 1066.026 2834.8655 18
288.08853 1065.3336 2833.0244 18
305.44354 1067.3308 2838.3354 18
322.67575 1068.7128 2842.0105 18
340.27844 1071.1239 2848.4224 18
358.24973 1074.4126 2857.168 19
374.71503 1073.0918 2853.6555 18
392.74362 1076.1687 2861.8379 19
412.15341 1082.619 2878.9912 19
427.55887 1078.4562 2867.9211 19
446.31653 1082.744 2879.3235 19
461.26041 1077.8044 2866.188 19
480.32068 1082.4929 2878.6558 19
499.29422 1086.671 2889.7666 19
517.91376 1089.8273 2898.1602 19
544.23431 1108.4659 2947.7256 19
565.73212 1116.4283 2968.8997 19
582.41089 1114.6874 2964.27 19
600.58875 1115.8334 2967.3176 19
612.01147 1104.7208 2937.7661 19
631.93915 1109.1503 2949.5452 19
646.68304 1104.4878 2937.1465 19
662.35236 1101.6088 2929.4902 19
683.31439 1107.4548 2945.0366 18
697.00464 1101.5177 2929.248 18
721.93073 1113.1943 2960.2996 18
735.84631 1107.7419 2945.8003 18
753.52161 1108.0709 2946.675 18
773.2616 1111.3524 2955.4014 18
800.27631 1124.7126 2990.9299 18
806.67957 1109.1539 2949.5549 18
826.92273 1112.8809 2959.4661 18
857.49664 1130.0679 3005.1709 18
866.87 1119.1842 2976.2283 18
880.47357 1114.087 2962.6736 18
905.38507 1123.2179 2986.9548 18
918.93469 1118.1731 2973.5396 18
929.89294 1110.2244 2952.4016 18
949.05005 1112.1772 2957.5947 18
962.53107 1107.5281 2945.2314 18
981.46973 1109.2125 2949.7107 18
998.37543 1108.5807 2948.0305 18
1016.3638 1109.152 2949.5498 18
1033.3336 1108.6113 2948.1121 18
1049.7549 1107.5099 2945.1829 18
1053.3885 1093.1738 2907.0593 17
1037.5397 1059.406 2817.261 16
1052.3691 1057.5363 2812.2888 16
1066.0317 1054.5704 2804.4019 16
1080.2245 1052.2122 2798.1304 16
1094.2317 1049.7469 2791.575 16
1108.1597 1047.2804 2785.0156 16
1132.9542 1055.0051 2805.5579 16
1149.9771 1055.3741 2806.5393 16
1170.6798 1059.0616 2816.3452 16
1182.1241 1054.3876 2803.9158 16
1197.6663 1053.4474 2801.4155 16
1206.8962 1047.0568 2784.4209 14
1200.6533 1027.5957 2732.6685 65550
1182.4606 998.5611 2655.4573 65550
1225.9294 1021.6771 2716.9292 12
1196.3074 984.07019 2616.9219 196619
1196.2491 971.43323 2583.3167 327683
1195.3656 958.45392 2548.8008 1312006
1228.7096 972.89978 2587.2166 4468264
1216.436 951.31445 2529.8152 5980984
1222.4227 944.36139 2511.3247 7427654
1245.0815 950.30023 2527.1179 7822924
1278.2201 964.00159 2563.5537 8414806
1274.7598 950.10345 2526.5945 8612185
1292.1353 951.87671 2531.3103 8546134
1302.08 948.1983 2521.5283 8940892
1304.7837 939.39014 2498.1047 9203807
1341.0679 954.68481 2538.7778 8545877
1348.1925 949.11224 2523.9587 8480087
1367.5846 952.20337 2532.179 8545623
1387.7025 955.72729 2541.55 8677465
1390.5007 947.37531 2519.3398 8677466
1414.5846 953.54913 2535.7576 8874588
1430.0521 953.84595 2536.5471 8546134
1443.1251 952.55627 2533.1172 8874842
1452.6453 948.97198 2523.5857 8874842
1473.6432 952.88245 2533.9849 8414548
1493.2712 955.83716 2541.8423 8282962
1500.8577 951.10211 2529.2505 8349012
1530.7601 960.46271 2554.1428 8020047
1536.2946 954.50012 2538.2866 7822412
1542.9209 949.32507 2524.5247 7427909
1546.8066 942.57922 2506.5854 8283475
1559.1266 941.05243 2502.5254 8283473
1593.2368 952.58252 2533.1873 8349266
1599.2516 947.25616 2519.0229 8415059
1628.3451 955.57184 2541.1367 7954508
1638.0508 952.46191 2532.8665 8020301
1653.4127 952.66742 2533.4128 8151887
1673.3024 955.45447 2540.8245 8678231
1683.9913 952.98517 2534.2581 8480852
1690.41 948.16425 2521.4377 8283216
1700.713 945.58752 2514.5854 8020044
1720.6654 948.37384 2521.9951 8546645
1727.0225 943.68341 2509.522 7757129
1763.0977 955.17328 2540.0767 6770234
1775.3662 953.68018 2536.1062 7033919
1781.7395 949.07208 2523.8518 7494984
1812.8538 957.6095 2546.5554 7889485
1802.9866 944.53699 2511.7917 8086607
1833.8961 952.86542 2533.9395 8152400
1838.1533 947.323 2519.2007 8217682
1861.5178 951.63782 2530.6748 7889231
1879.9797 953.39728 2535.354 7560266
1879.328 945.5127 2514.3865 8086610
1882.6334 939.72723 2499.0015 8349525
1914.3652 948.11066 2521.2952 8349782
1918.9385 943.01776 2507.7517 8283989
1938.3395 945.23389 2513.645 8152402
1951.4729 944.38312 2511.3826 8349525
1962.4474 942.50836 2506.3972 8217939
1984.4736 945.92975 2515.4956 7955024
1999.6196 946.04504 2515.8022 7757388
2030.8738 953.72321 2536.2207 7888461
2050.3909 955.81714 2541.7891 7823181
2059.5237 953.0752 2534.4973 8217940
2072.103 951.95612 2531.5215 8349783
2079.0664 948.29175 2521.7769 8020816
2101.6123 951.73651 2530.9373 7757388
2097.7954 943.27808 2508.4441 6968129
2113.4163 943.61761 2509.3469 6573371
2134.3389 946.30286 2516.4878 6639164
2147.0061 945.31622 2513.864 7494216
2152.4585 941.18829 2502.8867 7428423
2160.3389 938.17133 2494.8638 7494986
2179.1533 939.91138 2499.491 7692109
2186.999 936.92889 2491.5598 7626319
2188.3347 931.21619 2476.3679 7231560
2201.8762 930.73883 2475.0986 5389103
2217.5852 931.17804 2476.2666 6770755
2229.6597 930.0954 2473.3875 6902597
2244.0159 929.97235 2473.0603 6836802
2228.3645 917.49573 2439.8816 7099718
2238.4285 915.69989 2435.1057 7033922
2230.3123 906.53723 2410.7397 7756874
2236.8567 903.41217 2402.4294 7690822
2249.2275 902.66516 2400.4429 8151116
2276.0044 907.67255 2413.7588 12163975
2280.5469 903.8056 2403.4756 10452842
2294.813 903.81635 2403.5042 9598050
0 0 0 0
0 0 0 0
0 0 0 0
0 0 0 0
0 0 0 0
0 0 0 0
0 0 0 0
0 0 0 0
0 0 0 0
0 0 0 0
-2019.6093 880.81036 2305.9956 18
-2027.1851 890.13556 2330.4092 18
-2008.3364 887.90607 2324.5725 18
-1982.3615 882.47351 2310.3496 18
-1968.5321 882.40973 2310.1826 18
-1942.4313 876.80579 2295.5112 18
-1938.7582 881.31787 2307.3242 18
-1919.1982 878.62097 2300.2637 18
-1889.5823 871.2489 2280.9634 18
-1868.3652 867.67114 2271.5967 18
-1856.469 868.40149 2273.5085 18
-1837.3142 865.72217 2266.4941 19
-1813.2397 860.66846 2253.2632 19
-1792.6104 857.18701 2244.1487 19
-1799.1307 866.73309 2269.1406 19
-1767.8711 858.08521 2246.5002 19
-1748.9924 855.36115 2239.3687 19
-1728.4458 851.77356 2229.9761 19
-1718.4762 853.38324 2234.1902 19
-1704.3254 852.92529 2232.9915 19
-1719.4867 867.24414 2270.4788 19
-1699.7781 864.06311 2262.1506 19
-1648.578 844.69592 2211.4465 19
-1678.2493 866.78705 2269.282 19
-1653.5181 860.91022 2253.8962 19
-1656.2252 869.33984 2275.9653 19
-1641.5929 868.73187 2274.3735 19
-1607.8966 857.94165 2246.1243 19
-1611.6139 867.10095 2270.1038 19
-1594.1171 864.90454 2264.3535 20
-1573.588 861.01166 2254.1619 21
-1492.0488 823.38403 2155.6511 20
-1521.2545 846.74854 2216.8203 21
-1459.3439 819.36176 2145.1208 21
-1500.8429 850.06433 2225.5012 20
-1482.2596 846.97931 2217.4246 18
-1421.2269 819.36621 2145.1323 19
-1408.4113 819.30371 2144.9688 19
-1384.5485 812.75513 2127.8245 19
-1388.8615 822.77802 2154.0647 19
-1360.5874 813.50281 2129.7817 19
-1352.8721 816.46112 2137.5269 19
-1338.6949 815.53888 2135.1123 19
-1323.5679 814.01477 2131.1221 19
-1309.3199 813.00714 2128.4841 19
-1294.6655 811.7251 2125.1277 19
-1281.4834 811.3501 2124.1458 19
-1265.8466 809.39795 2119.0352 19
-1251.0615 807.95691 2115.2625 19
-1236.1342 806.3938 2111.1702 19
-1222.0225 805.33636 2108.4016 19
-1207.9102 804.25659 2105.5747 19
-1203.5419 809.70984 2119.8516 19
-1185.9022 806.25525 2110.8074 19
-1172.3099 805.50818 2108.8516 19
-1157.3474 803.79327 2104.3618 20
-1144.6564 803.63574 2103.9495 19
-1135.8286 806.21692 2110.707 19
-1116.7969 801.53229 2098.4424 19
-1103.9176 801.20734 2097.5918 19
-1085.625 796.90137 2086.3186 19
-1061.7375 788.34216 2063.9102 19
-1049.9016 788.63586 2064.6792 19
-1048.2252 796.6579 2085.6812 19
-1040.4408 800.17395 2094.8862 19
-1029.4989 801.31702 2097.8789 19
-1020.72 804.19232 2105.4065 19
-1012.5975 807.66223 2114.491 19
-999.68689 807.35217 2113.6792 19
-985.41608 805.92181 2109.9346 19
-955.70416 791.664 2072.6069 19
-972.06989 815.70062 2135.5356 19
-948.83466 806.70209 2111.9773 19
-928.56256 800.01624 2094.4734 19
-927.04517 809.52625 2119.3711 19
-911.73053 807.08398 2112.9771 19
-902.94196 810.43109 2121.74 19
-880.39087 801.34583 2097.9543 19
-860.03528 794.0274 2078.7944 17
-868.82635 813.79688 2130.5518 18
-851.14301 808.98615 2117.957 18
-838.86377 809.24469 2118.6338 18
-821.83984 804.86444 2107.1663 18
-818.68115 814.13727 2131.4429 18
-808.00317 816.10602 2136.5972 18
-789.65851 810.27069 2121.3198 19
-778.76733 812.01813 2125.8948 19
-769.10657 815.12714 2134.0344 19
-760.5321 819.51074 2145.5107 19
-743.02014 814.2489 2131.7351 19
-737.63312 822.3222 2152.8713 19
-725.01135 822.47235 2153.2644 19
-700.33643 808.70953 2117.2329 19
-698.85663 821.71765 2151.2886 19
-683.53406 818.63031 2143.2058 19
-673.29285 821.62695 2151.051 19
-671.98248 835.8479 2188.282 19
-657.64307 834.10327 2183.7146 19
-635.19019 821.79163 2151.4822 19
-627.4726 828.4303 2168.8625 19
-626.74493 844.76801 2211.6353 19
-609.27295 838.75244 2195.8862 19
-598.66724 842.13293 2204.7366 19
-600.82904 864.02472 2262.05 19
-597.06677 878.20184 2299.1663 19
-579.3797 872.08112 2283.1421 19
-551.61841 850.14185 2225.7041 19
-566.09644 893.82043 2340.0564 19
-528.23834 854.98303 2238.3787 17
-527.84442 876.34485 2294.3047 16
-498.91312 850.2049 2225.8691 14
-489.85214 857.42621 2244.7749 14
-509.07877 915.94629 2397.9827 14
-491.12289 909.00604 2379.813 16
-476.87567 908.72278 2379.0713 18
-461.52277 906.2511 2372.6003 19
-440.32333 891.7832 2334.7229 19
-447.82449 936.38904 2451.5027 19
-433.89328 937.66846 2454.8523 19
-419.45596 937.90497 2455.4714 19
-408.14615 945.40295 2475.1013 19
-391.22504 939.97754 2460.8975 19
-379.42551 946.914 2479.0574 19
-347.78873 902.90863 2363.8496 19
-334.10541 903.77606 2366.1206 19
-339.59515 958.85498 2510.3193 19
-311.45825 919.68506 2407.771 19
-292.47382 905.07794 2369.5291 20
-279.5661 908.75085 2379.1448 21
-264.81436 906.50128 2373.2554 21
-250.32031 904.93109 2369.1445 21
-238.27574 912.55542 2389.1052 19
-225.02408 916.22778 2398.7197 19
-212.76277 924.69958 2420.8992 19
-198.48071 924.9787 2421.6299 19
-185.13377 929.99872 2434.7727 19
-181.49796 988.77197 2588.6431 19
-165.78787 986.54407 2582.8105 20
-141.50221 927.64453 2428.6091 21
-127.95045 933.74445 2444.5789 21
-113.41096 933.27319 2443.3452 21
-100.36359 946.73956 2478.6008 21
-91.409492 1010.0512 2644.353 21
-75.797729 1010.7711 2646.2378 20
-59.577831 1001.6422 2622.3379 19
-44.624161 1014.8705 2656.9702 19
-29.117619 1023.0908 2678.491 19
-13.216362 1020.5215 2671.7649 19
2.6199665 1023.721 2680.1411 19
17.560186 971.83453 2544.3003 19
32.509323 968.14539 2534.6421 19
50.454918 1027.8291 2690.8962 19
66.418648 1028.1736 2691.7981 19
82.556786 1030.5619 2698.0508 19
93.867729 981.69128 2570.1057 19
109.66687 986.84973 2583.6108 19
