# .PCD v0.7 - Point Cloud Data file format
VERSION 0.7
FIELDS x y z rgb
SIZE 4 4 4 4
TYPE F F F U
COUNT 1 1 1 1
WIDTH 1451
HEIGHT 1
VIEWPOINT 0 0 0 1 0 0 0
POINTS 1451
DATA ascii
1663.307 1029.5605 2243.1477 6573886
1679.0262 1031.0529 2246.3992 6968385
1701.9827 1036.931 2259.2061 8020817
1700.7977 1028.1241 2240.0183 7888974
1719.8286 1031.5795 2247.5464 7691595
1733.6598 1031.8867 2248.2158 8547163
1760.2354 1039.717 2265.2759 7626060
1772.6523 1039.129 2263.9949 7494475
1791.4023 1042.2344 2270.7607 6902337
1806.1794 1042.9993 2272.4272 7560010
1818.4249 1042.3019 2270.9077 7099715
1836.1775 1044.7479 2276.2371 7099974
1849.111 1044.4365 2275.5586 7034437
1862.0319 1044.1224 2274.8743 6837058
1866.5953 1039.1603 2264.063 7692367
1897.6743 1048.9249 2285.3379 6771265
1903.6201 1044.7578 2276.2585 7363402
1920.5409 1046.6301 2280.3379 7494731
1939.2212 1049.4285 2286.4348 7100230
1945.4581 1045.501 2277.8777 6507836
1961.8557 1047.0503 2281.2532 6770752
1968.3384 1043.3229 2273.1323 5915700
1979.3641 1042.038 2270.3328 6902082
1987.5005 1039.2594 2264.2791 6639422
2006.894 1042.3652 2271.0457 6836802
2026.0393 1045.3014 2277.4429 7231816
2043.5648 1047.3685 2281.9468 7165766
2063.0667 1050.4148 2288.5837 7494988
2076.012 1050.1049 2287.9084 7955538
2088.7578 1049.6986 2287.0234 7626315
2095.4302 1046.2651 2279.5427 7823952
2100.4639 1042.0627 2270.3867 7889489
2115.8433 1043.0137 2272.4585 7626318
2136.7104 1046.6407 2280.3611 7363148
2154.9272 1048.9323 2285.3535 7692114
2164.9814 1047.2466 2281.6809 8021078
2187.5024 1051.5748 2291.1111 3613724
0 0 0 0
0 0 0 0
0 0 0 0
0 0 0 0
0 0 0 0
0 0 0 0
0 0 0 0
0 0 0 0
0 0 0 0
0 0 0 0
0 0 0 0
0 0 0 0
0 0 0 0
-1432.5413 776.18591 1669.5599 19
-1422.0269 775.8457 1668.8281 19
-1417.7732 778.94049 1675.4849 19
0 0 0 0
-1206.7954 672.44257 1446.4102 19
-1195.184 670.73505 1442.7373 19
-1182.5902 668.44775 1437.8174 19
-1170.3896 666.35107 1433.3075 19
-1157.4724 663.81281 1427.8477 19
-1145.7434 661.92358 1423.7839 19
-1134.2985 660.17163 1420.0155 19
-1137.1217 666.75977 1434.1865 19
-1125.0115 664.62488 1429.5944 19
-1120.7643 667.13806 1435.0001 19
-1112.1057 667.0437 1434.7972 19
-1103.5564 667.01392 1434.7332 19
-1095.0566 667.01392 1434.7332 19
-1089.1302 668.59357 1438.131 19
-1076.9948 666.35645 1433.319 19
-1065.8666 664.71204 1429.7819 19
-1052.9174 661.89648 1423.7257 19
-1034.338 655.46765 1409.8973 19
-1021.3851 652.52863 1403.5756 19
-1020.4493 657.28168 1413.7993 19
-1008.572 655.00757 1408.9077 19
-995.44904 651.87976 1402.1799 19
-975.85974 644.42914 1386.1538 19
-961.87109 640.58197 1377.8785 19
-950.5423 638.45551 1373.3046 19
-937.03876 634.81897 1365.4825 19
-926.61017 633.22046 1362.0442 19
-915.66333 631.23657 1357.7769 19
-901.54163 627.00946 1348.6844 19
-888.83093 623.69684 1341.5591 19
-879.32806 622.59576 1339.1907 19
-871.39441 622.59576 1339.1907 19
-862.98053 622.24951 1338.4459 19
-854.61768 621.93402 1337.7672 19
-1084.8451 796.86786 1714.0464 19
-1066.3787 790.70465 1700.7894 19
-1046.3046 783.2204 1684.6908 19
-1030.2159 778.60413 1674.7614 19
-1007.4569 768.80762 1653.6893 18
-988.37616 761.65326 1638.3005 18
-980.1474 762.80273 1640.7729 18
-780.17126 613.25244 1319.0934 18
-968.84076 769.26111 1654.6648 18
-953.12024 764.51428 1644.4545 18
-929.03955 752.89429 1619.4601 18
-908.04071 743.55536 1599.3722 18
-888.59949 735.30847 1581.6334 18
-866.64569 724.78448 1558.9965 18
-850.09888 718.60437 1545.7032 19
-830.12451 709.36078 1525.8204 19
-815.97968 704.94995 1516.3328 19
-802.00256 700.58746 1506.9492 18
-788.93311 696.92853 1499.0789 19
-776.37457 693.64276 1492.0112 19
-763.80121 690.26794 1484.7521 19
-748.70227 684.50543 1472.3571 18
-736.68542 681.45813 1465.8024 19
-728.05634 681.50934 1465.9125 18
-715.55823 677.8963 1458.141 18
-704.6311 675.70154 1453.42 18
-694.11877 673.8551 1449.4484 18
-683.58331 671.9397 1445.3284 18
-612.86816 610.07074 1312.2495 18
-606.19824 611.18396 1314.644 18
-599.00604 611.79272 1315.9535 18
-591.72583 612.32648 1317.1016 19
-583.66687 612.0578 1316.5238 19
-576.46649 612.69452 1317.8932 19
-569.08795 613.15656 1318.8872 19
-561.45801 613.35706 1319.3184 19
-553.74481 613.47083 1319.5631 19
-546.00665 613.55994 1319.7548 19
-538.09882 613.45807 1319.5356 19
-530.26733 613.44159 1319.5002 19
-522.57434 613.58722 1319.8135 19
-514.86493 613.71771 1320.0941 19
-507.05579 613.73151 1320.1238 19
-499.15762 613.63629 1319.9189 19
-491.31558 613.60809 1319.8584 19
-483.61496 613.75848 1320.1819 19
-475.78946 613.75287 1320.1697 19
-467.90381 613.66797 1319.9872 19
-460.16098 613.77081 1320.2084 19
-453.50974 615.35834 1323.623 19
-445.80118 615.54181 1324.0177 19
-439.86588 618.22412 1329.7874 19
-433.39639 620.23981 1334.123 19
-426.04498 621.0448 1335.8546 19
-418.23569 621.2002 1336.1888 18
-410.203 621.02332 1335.8083 18
-402.58884 621.48566 1336.8027 18
-394.54147 621.2843 1336.3698 18
-385.72983 619.84662 1333.2772 18
-377.84958 619.87677 1333.3422 18
-369.90997 619.80878 1333.1958 18
-361.9028 619.62213 1332.7944 18
-351.84506 615.83801 1324.6548 18
-344.3038 616.38635 1325.8344 18
-373.45758 684.18683 1471.6718 18
-336.31128 630.86127 1356.9696 18
-331.20792 636.50287 1369.1045 16
-323.09702 636.50287 1369.1045 13
-346.44217 700.06708 1505.8298 12
-337.81293 700.672 1507.131 12
-291.68967 621.43054 1336.6843 12
-304.97437 667.8642 1436.5621 14
-316.4946 712.98883 1533.6243 16
-316.83832 734.85852 1580.6655 16
-307.26611 734.36151 1579.5964 18
-303.57645 748.33398 1609.6509 18
-300.00366 763.51019 1642.2947 18
-292.5094 769.3891 1654.9401 18
-285.23053 776.2619 1669.7234 19
-275.32602 776.2262 1669.6465 19
-266.36438 778.94501 1675.4948 19
-263.22629 799.56366 1719.845 19
-254.6151 804.54852 1730.5673 19
-245.80908 809.3103 1740.8097 19
-233.75699 803.3335 1727.9537 19
-226.46507 813.91742 1750.7195 19
-217.90466 820.73944 1765.3937 19
-211.10738 835.22498 1796.5518 19
-200.30058 834.54346 1795.0857 19
-191.81747 844.00952 1815.4471 19
-179.69597 837.64026 1801.7469 19
-170.70212 845.96655 1819.6566 19
-162.64009 860.34454 1850.5834 19
-152.03156 862.35675 1854.9116 19
-143.26186 875.92535 1884.0974 19
-131.17978 869.8233 1870.9719 19
-122.54147 887.53729 1909.0745 19
-111.51041 889.76129 1913.8582 19
-100.65305 894.03174 1923.0438 19
-89.593994 897.37189 1930.2285 19
-78.557869 901.95282 1940.0819 19
-67.4496 907.13373 1951.2258 19
-56.151371 911.37427 1960.3473 19
-44.750622 915.72864 1969.7134 19
-33.415363 924.96765 1989.5864 19
-21.626696 924.88611 1989.4109 19
-9.8706388 927.67395 1995.4075 19
1.9565884 930.5188 2001.5267 19
13.759986 926.87463 1993.6882 19
25.962814 941.07507 2024.2332 19
37.702835 934.82697 2010.7935 19
49.975014 941.6059 2025.3748 19
62.471291 949.16461 2041.6335 19
73.490509 935.4696 2012.1758 19
87.021652 953.10944 2050.1187 19
100.46428 965.57751 2076.9373 19
113.55621 972.32196 2091.4446 19
126.1709 974.05518 2095.1726 19
138.23816 971.63013 2089.9563 19
149.67433 965.53278 2076.8411 19
164.30304 979.39209 2106.6521 19
175.60945 972.88873 2092.6636 19
188.4503 975.18335 2097.5994 19
201.90388 980.16876 2108.3228 19
215.67458 986.02301 2120.9153 19
229.431 991.17108 2131.9885 19
243.25601 996.06274 2142.5105 19
259.86414 1011.3001 2175.2856 19
280.01974 1038.251 2233.2563 19
295.46182 1046.0817 2250.1001 19
306.85089 1039.5061 2235.9563 19
314.8638 1022.5108 2199.3997 19
331.3963 1033.4338 2222.8948 19
350.95682 1052.6039 2264.1292 19
367.18103 1060.7242 2281.5959 19
380.81229 1061.0436 2282.2827 19
391.26752 1052.795 2264.5403 19
405.02277 1053.6785 2266.4407 19
418.91055 1054.839 2268.9368 19
432.42944 1055.0273 2269.342 19
445.27661 1053.6149 2266.3037 19
468.98166 1077.225 2317.0889 19
481.84708 1075.3024 2312.9534 19
501.68219 1088.6099 2341.5771 19
523.47223 1105.3289 2377.5396 19
545.27783 1121.2037 2411.6863 19
552.20868 1106.4636 2379.9802 19
569.10962 1111.9369 2391.7534 19
594.43579 1133.2059 2437.5027 19
621.5993 1156.8856 2488.4373 18
635.96771 1156.2063 2486.9761 20
638.01202 1133.6595 2438.4783 18
655.70361 1139.2987 2450.6079 18
673.11029 1144.2091 2461.1702 19
687.35425 1143.6492 2459.9658 19
702.92322 1145.2712 2463.4548 19
718.26343 1146.4622 2466.0166 19
823.00165 1287.4546 2769.2883 19
848.84619 1301.9314 2800.4275 19
875.84924 1317.5958 2834.1216 18
897.56812 1324.8712 2849.7705 18
913.70251 1323.787 2847.4385 18
821.9516 1169.2695 2515.0747 18
836.21667 1168.3827 2513.167 18
844.99536 1159.9951 2495.1255 18
864.53833 1166.4189 2508.9431 18
883.01294 1171.2086 2519.2456 18
896.32245 1169.1019 2514.7144 20
972.10944 1247.2234 2682.7517 18
986.05988 1244.7709 2677.4763 18
1000.6632 1243.2072 2674.1128 18
1015.4443 1241.9095 2671.3218 18
1027.996 1237.967 2662.8416 18
998.49945 1184.2722 2547.3452 18
1003.1087 1172.0254 2521.0024 18
1013.1935 1166.4417 2508.9919 18
1030.7201 1169.4628 2515.4905 18
1039.2305 1162.3138 2500.113 18
1055.9557 1164.4246 2504.6531 16
1070.1648 1163.7404 2503.1816 16
1084.9473 1163.6901 2503.0732 16
1101.7955 1165.8269 2507.6697 16
1118.4154 1167.6685 2511.6309 16
1133.2109 1167.5819 2511.4446 16
1140.3643 1159.7258 2494.5464 16
1110.8641 1115.2717 2398.9265 16
1126.2015 1116.3875 2401.3264 16
1136.7017 1112.7402 2393.4812 16
1149.6415 1111.5415 2390.9028 16
1164.7081 1112.4034 2392.7568 16
1179.9902 1113.4479 2395.0034 16
1195.2521 1114.4486 2397.156 16
1215.4036 1119.9315 2408.9495 16
1223.1724 1114.0094 2396.2112 16
1232.9238 1110.0082 2387.6047 13
1244.2178 1107.4708 2382.1467 14
1258.1956 1107.3522 2381.8918 14
1271.0604 1106.2679 2379.5593 12
1266.1119 1089.8734 2344.2952 65548
1245.418 1060.428 2280.9587 65549
1258.6279 1060.1727 2280.4097 65550
1272.892 1060.8015 2281.7622 196622
1264.0548 1042.3672 2242.1104 196618
1264.0371 1031.5133 2218.7639 393222
1263.0812 1020.1252 2194.2683 1180423
1265.2949 1011.5031 2175.7222 3745056
1279.5902 1012.6155 2178.115 6244929
1293.1191 1013.1055 2179.1689 6968391
1300.3552 1008.7042 2169.7019 8481373
1309.5291 1005.8774 2163.6216 8612958
1338.3263 1018.0327 2189.7673 8020820
1358.1362 1023.1837 2200.8469 7823440
1355.0205 1011.1293 2174.9185 7625548
1379.0901 1019.397 2192.7019 7625291
1399.0297 1024.486 2203.6482 8020048
1411.2938 1023.9124 2202.4143 7954256
1418.9091 1020.0072 2194.0144 7625291
1437.0173 1023.6475 2201.8447 7625804
1459.2992 1030.1687 2215.8716 8283991
1469.1145 1027.8514 2210.8875 8876129
1482.2783 1027.8973 2210.9858 8744543
1493.2736 1026.4517 2207.8762 8744544
1511.0875 1029.6775 2214.8149 8481115
1522.5149 1028.5332 2212.3538 8349783
1540.0287 1031.4852 2218.7034 8283734
1551.8236 1030.5892 2216.7761 8086355
1566.4709 1031.5867 2218.9216 7560268
1583.1558 1033.8981 2223.8936 7297096
1594.9387 1032.9966 2221.9543 6442043
1608.4933 1033.248 2222.4951 8087125
1622.0652 1033.5062 2223.0505 7428938
1637.4373 1034.8981 2226.0444 7692367
1657.0399 1038.9202 2234.6958 7889489
1661.2749 1033.3197 2222.6492 8152149
1667.3857 1028.9648 2213.2822 7231302
1689.7593 1034.6357 2225.4802 7362889
1702.9375 1034.6322 2225.4724 7494475
1722.1038 1038.2386 2233.2297 7691854
1736.1411 1038.7216 2234.2688 8744542
1741.5663 1034.0836 2224.2925 8217942
1757.5129 1035.7156 2227.803 8218198
1772.7605 1036.9144 2230.3816 6902337
1788.5942 1038.4359 2233.6541 7560266
1828.4376 1053.7722 2266.6423 7033924
1828.8505 1046.3259 2250.6255 7362889
1819.6239 1033.5123 2223.0637 6704703
1859.6035 1048.6304 2255.5823 7033667
1871.4855 1047.8013 2253.7991 6902595
1876.2177 1043.0095 2243.4919 6836801
1889.3081 1042.8988 2243.2539 8350296
1910.0957 1047.0089 2252.0945 7428938
1926.6851 1048.7765 2255.8967 7166023
1920.022 1037.9498 2232.6086 7494988
1934.5602 1038.6542 2234.1235 7429194
1940.3835 1034.7015 2225.6218 6968643
1961.3076 1038.8007 2234.4387 7626574
1973.3707 1038.1827 2233.1099 7428938
1998.5964 1044.452 2246.5947 7428938
1998.0023 1037.2341 2231.0693 7494988
2031.6393 1047.7651 2253.7212 7494733
2049.1929 1049.9181 2258.3521 7297355
2044.6982 1040.8197 2238.7817 7692112
2063.4216 1043.5813 2244.7219 7823696
2070.0935 1040.2516 2237.5596 7692367
2082.9006 1040.0275 2237.0776 8087124
2090.8215 1037.382 2231.3872 8021078
2111.0859 1040.8555 2238.8586 7626065
2126.6257 1041.9708 2241.2578 6968133
2139.9937 1042.0146 2241.3521 7428684
0 0 0 0
0 0 0 0
0 0 0 0
0 0 0 0
0 0 0 0
0 0 0 0
0 0 0 0
0 0 0 0
0 0 0 0
0 0 0 0
0 0 0 0
0 0 0 0
-1480.2207 806.67023 1713.2987 19
-1479.4808 811.83386 1724.2657 19
0 0 0 0
-1437.0864 799.61255 1698.3087 19
0 0 0 0
-1213.7457 684.93365 1454.7405 19
-1201.6866 682.97797 1450.5868 19
-1188.5867 680.39832 1445.1079 19
-1174.6709 677.31091 1438.5505 19
-1162.353 675.10632 1433.8682 19
-1151.491 673.72119 1430.9263 19
-1150.4227 678.08813 1440.2013 19
-1141.3719 677.78009 1439.547 19
-1130.9082 676.62207 1437.0875 19
-1126.5986 679.15649 1442.4703 19
-1115.5876 677.65881 1439.2894 19
-1105.5073 676.70782 1437.2695 19
-1110.4967 685.03815 1454.9625 19
-1095.8431 681.2868 1446.995 19
-1080.9242 677.31 1438.5486 19
-1069.8656 675.70807 1435.1462 19
-1057.5815 673.30042 1430.0325 19
-1035.2173 664.38452 1411.0959 19
-1022.547 661.5954 1405.1721 19
-1009.0168 658.19971 1397.96 19
-1009.7994 664.16156 1410.6224 19
-998.90173 662.47644 1407.0433 19
-975.81293 652.60968 1386.0873 19
-967.92749 652.82965 1386.5544 19
-954.24176 649.10779 1378.6495 19
-938.57385 643.96167 1367.7196 19
-927.68829 642.03564 1363.6289 19
-917.25885 640.39435 1360.1428 19
-905.86267 638.04291 1355.1487 19
-890.47089 632.81 1344.0344 19
-1188.4253 852.17017 1809.9366 19
-1164.6412 842.71893 1789.863 19
-1131.8452 826.51324 1755.4436 19
-1102.3726 812.45624 1725.5876 19
-1089.8936 810.77795 1722.0231 19
-1066.5068 800.87677 1700.9939 19
-1045.3008 792.43988 1683.0746 19
-1023.5828 783.44873 1663.9781 19
-1002.0772 774.44684 1644.8589 18
-803.39551 626.99445 1331.6826 18
-792.18451 624.37622 1326.1218 18
-983.2077 782.6972 1662.3821 18
-967.78412 778.21405 1652.8601 17
-951.43506 772.88745 1641.547 16
-923.35175 757.82019 1609.5454 17
-907.34717 752.45526 1598.1508 16
-887.61005 743.84924 1579.8722 17
-862.32965 730.36475 1551.2323 16
-723.07623 619.01855 1314.7426 16
-714.53632 618.36865 1313.3622 17
-705.99048 617.6991 1311.9402 15
-697.3905 616.96686 1310.3849 15
-689.14343 616.53375 1309.4651 18
-681.18921 616.35583 1309.0872 18
-673.60919 616.5163 1309.428 18
-665.96783 616.62372 1309.656 18
-658.54376 616.93713 1310.3218 19
-650.99286 617.13788 1310.7482 18
-643.68243 617.57422 1311.6748 18
-636.35242 618.00214 1312.5837 18
-629.11993 618.5365 1313.7188 18
-621.89258 619.08942 1314.8931 18
-614.69916 619.69061 1316.1699 18
-607.45667 620.25708 1317.373 18
-600.26392 620.88971 1318.7168 18
-593.05139 621.51837 1320.052 19
-585.78845 622.11035 1321.3092 19
-578.51752 622.70966 1322.582 19
-571.16907 623.24091 1323.7104 19
-563.64722 623.59503 1324.4625 19
-556.03448 623.85724 1325.0194 19
-548.33691 624.03033 1325.3872 19
-540.44196 623.98065 1325.2816 19
-532.57007 623.95642 1325.2302 19
-524.88281 624.15118 1325.6438 19
-517.2334 624.3974 1326.1667 19
-509.56 624.62189 1326.6436 19
-501.7944 624.73859 1326.8914 19
-493.89236 624.6864 1326.7806 18
-485.88727 624.50012 1326.3849 18
-477.81418 624.21881 1325.7875 18
-469.74246 623.92999 1325.1741 18
-461.70831 623.68213 1324.6476 18
-454.34848 624.35236 1326.071 18
-448.91281 627.73669 1333.2592 18
-442.37085 629.66766 1337.3604 18
-435.59442 631.32916 1340.8892 18
-428.01474 631.86658 1342.0306 18
-420.10904 631.93402 1342.1738 18
-412.05835 631.78168 1341.8502 18
-403.81497 631.32208 1340.8741 18
-395.5592 630.82428 1339.8169 18
-388.50589 632.26312 1342.8728 18
-380.66379 632.45142 1343.2728 18
-371.40521 630.2442 1338.5848 18
-363.32614 629.9859 1338.0363 18
-354.27515 627.99316 1333.8038 18
-348.86517 632.51093 1343.3992 18
-373.46121 692.91211 1471.686 18
-340.25082 646.38434 1372.8651 18
-333.84708 649.75018 1380.0139 16
-325.67157 649.75018 1380.0139 14
-347.44714 711.04462 1510.198 12
-338.24905 710.51666 1509.0767 12
-292.4736 631.04083 1340.2767 12
-305.13065 676.72131 1437.2982 14
-314.91962 718.48102 1525.9923 16
-310.94556 730.38123 1551.2673 18
-302.96814 733.31635 1557.5013 18
-302.96161 756.33502 1606.3909 18
-300.44858 774.38623 1644.7302 18
-293.28574 781.26141 1659.3324 18
-285.24402 786.19092 1669.8024 18
-275.46112 786.50323 1670.4657 18
-268.70688 795.80865 1690.2295 19
-263.11185 809.40039 1719.0973 18
-249.90344 799.72296 1698.5432 19
-242.45305 808.43286 1717.0424 19
-233.1944 811.61212 1723.7949 19
-223.71135 814.26599 1729.4314 19
-217.95363 831.38489 1765.7904 19
-207.14946 830.00958 1762.8694 19
-200.2982 845.16779 1795.0642 19
-191.77994 854.59747 1815.092 19
-180.17216 850.56226 1806.5216 19
-173.83191 872.4549 1853.0197 19
-163.63629 876.64478 1861.9186 19
-152.12398 873.87659 1856.0392 19
-131.91777 816.84387 1734.9066 19
-131.26115 881.45386 1872.1327 19
-121.8189 893.54706 1897.8176 19
-110.06981 889.45813 1889.1332 19
-99.365067 893.8382 1898.4359 19
-88.484032 897.54803 1906.3154 19
-78.32531 910.74225 1934.3386 19
-67.526344 919.73846 1953.4459 19
-55.718163 915.86694 1945.2231 19
-44.530735 922.84082 1960.035 20
-33.165054 929.7373 1974.6826 20
-21.288063 922.00531 1958.2605 20
-9.7016106 923.40692 1961.2374 19
1.9413699 935.04645 1985.9587 19
13.680062 933.23334 1982.108 19
25.563023 938.39111 1993.0626 19
37.561817 943.1983 2003.2726 19
49.495575 944.45605 2005.9441 19
61.745132 950.08624 2017.9019 19
74.77813 963.98938 2047.431 19
89.883469 996.99829 2117.5393 19
102.12273 994.02454 2111.2231 19
114.10771 989.49463 2101.6021 19
126.21043 986.77655 2095.8291 19
138.22812 983.94012 2089.8047 19
150.62814 984.06775 2090.0759 19
163.81746 988.94092 2100.426 19
174.64012 979.8476 2081.1125 19
187.50386 982.65002 2087.0647 19
201.0461 988.44159 2099.3655 19
213.97398 990.71393 2104.1917 19
227.74541 996.42664 2116.325 19
244.12845 1012.3734 2150.1946 19
254.0845 1001.4081 2126.9053 19
270.68854 1016.4424 2158.8367 19
288.1936 1033.3507 2194.7485 19
306.62985 1051.994 2234.3455 19
318.19427 1046.494 2222.6638 19
332.18726 1049.1008 2228.2004 19
349.30969 1061.0139 2253.5029 19
366.09552 1071.0651 2274.8508 19
380.81229 1074.5643 2282.2827 19
394.33307 1074.5643 2282.2827 19
403.31638 1062.6095 2256.8918 19
426.25766 1087.0168 2308.731 19
430.72443 1064.2585 2260.3943 19
442.99393 1061.5709 2254.6858 19
473.47629 1101.4075 2339.2954 19
487.77783 1102.4088 2341.4221 19
493.17169 1083.7794 2301.855 19
515.48334 1102.3302 2341.2551 19
538.59149 1121.5676 2382.1138 19
551.76025 1119.6531 2378.0476 19
572.11603 1132.0552 2404.3884 19
584.28033 1128.0397 2395.8599 19
597.92255 1127.0002 2393.6523 19
621.39337 1144.1056 2429.9827 20
626.13812 1126.7386 2393.0964 19
648.76611 1141.609 2424.6799 19
666.66534 1147.6945 2437.605 19
684.52667 1153.458 2449.8462 19
694.22888 1145.5192 2432.9849 19
709.27063 1146.5347 2435.1416 19
728.62921 1154.3488 2451.738 19
741.4881 1151.7612 2446.2424 19
879.60876 1340.1135 2846.2866 19
897.43292 1341.5518 2849.3413 19
793.89954 1164.8716 2474.0879 19
804.69238 1159.3046 2462.2637 19
902.48486 1277.0427 2712.3296 18
841.12305 1169.3933 2483.6914 18
856.00061 1169.6168 2484.1663 18
871.20544 1170.2723 2485.5586 18
956.99518 1264.1456 2684.9373 19
893.06665 1160.4119 2464.6157 18
922.65723 1179.5753 2505.3174 18
999.58264 1257.6896 2671.2253 18
951.5722 1178.6227 2503.2939 18
966.67682 1178.9576 2504.0051 18
989.25665 1188.2612 2523.7654 18
997.69012 1180.5488 2507.3848 18
1008.4992 1175.8322 2497.3672 18
1022.134 1174.4991 2494.5359 18
1035.6018 1173.0149 2491.3833 18
1046.2837 1168.4612 2481.7117 18
1064.8649 1172.733 2490.7847 18
1071.3129 1163.7086 2471.6177 16
1092.8601 1171.1077 2487.3328 16
1101.1249 1164.266 2472.8015 16
1119.1536 1167.7921 2480.2905 16
1127.5591 1161.3156 2466.5349 16
1142.9126 1162.0691 2468.1355 16
1152.1027 1156.6162 2456.554 16
1160.2583 1150.2737 2443.083 16
1142.5414 1118.7535 2376.137 16
1161.3002 1123.2822 2385.7556 16
1169.449 1117.5629 2373.6082 16
1180.0234 1114.2699 2366.614 16
1196.8134 1116.8544 2372.1033 16
1207.4728 1113.7245 2365.4556 16
1218.4307 1110.9384 2359.5381 14
1232.3279 1110.8652 2359.3828 14
1248.8884 1113.1675 2364.2727 14
1262.2567 1112.605 2363.0779 14
1269.4215 1106.6467 2350.4231 14
1275.3838 1099.7809 2335.8406 12
1284.791 1096.0011 2327.8127 12
1290.618 1089.28 2313.5376 65548
1265.5802 1056.9238 2244.8159 65547
1268.9801 1048.7429 2227.4404 196619
1276.5248 1044.1206 2217.623 327686
1268.3549 1026.8698 2180.9836 524290
1268.1746 1016.3702 2158.6833 1574920
1286.4541 1020.7269 2167.9368 3283477
1294.1958 1016.7191 2159.4246 5454383
1289.0463 1002.7615 2129.7798 7362635
1309.701 1008.9533 2142.9307 8086614
1327.1937 1012.6136 2150.7048 8481371
1342.1904 1014.3182 2154.3252 8283993
1356.1608 1015.2222 2156.2451 8546393
1370.4407 1016.3389 2158.6169 8085842
1383.033 1016.1949 2158.3113 7756877
1398.0652 1017.8301 2161.7842 6506810
1411.3678 1018.1877 2162.5437 7230532
1425.5339 1019.1563 2164.6008 8020308
1426.3971 1010.6816 2146.6013 7626063
1450.7148 1018.8288 2163.9053 8941922
1468.0328 1021.9604 2170.5566 8678236
1489.8748 1028.1595 2183.7231 8612188
1490.434 1019.6913 2165.7373 8414806
1511.0444 1024.9688 2176.946 7757390
1522.3215 1023.8794 2174.6323 7560011
1551.3561 1034.6514 2197.5112 7757647
1562.6085 1033.4833 2195.0303 7297096
1578.0017 1035.0505 2198.3589 7428682
1595.9124 1038.2299 2205.1116 6573116
1604.7218 1035.4847 2199.2812 7757647
1619.8903 1036.8542 2202.1897 7889489
1618.3447 1027.589 2182.5112 7955282
1633.7744 1029.1638 2185.856 8283990
1660.708 1037.9034 2204.4182 7494475
1664.4827 1032.146 2192.1899 7757647
1679.748 1033.548 2195.1675 8086612
1695.8768 1035.4553 2199.2188 7165509
1708.1368 1034.9896 2198.2295 7888976
1726.41 1038.1469 2204.9353 8020819
1742.689 1040.0664 2209.0122 7691854
1756.168 1040.2988 2209.5059 7494475
1769.9629 1040.7135 2210.3867 7823440
1778.027 1037.7772 2204.1501 7823696
1797.0385 1041.2268 2211.4768 6573886
1813.9221 1043.4026 2216.0979 6705472
1838.3625 1049.8625 2229.8184 6573885
1854.7023 1051.6371 2233.5874 6639677
1860.2593 1047.316 2224.4097 7429194
1846.9027 1032.4824 2192.9043 7560781
1870.3304 1038.2759 2205.2092 7823953
1898.1987 1046.4371 2222.543 7560781
1903.976 1042.3915 2213.9504 7692367
1913.8898 1040.6503 2210.2524 7560524
1933.2924 1044.0573 2217.4883 7166022
1941.0198 1041.1555 2211.3254 7560782
1948.1036 1037.95 2204.5171 7955539
1963.2976 1039.0793 2206.9158 8021331
1991.113 1046.8295 2223.3765 7889746
2002.359 1045.8237 2221.2402 7626574
2020.5406 1048.4298 2226.7754 7626574
2032.9279 1048.015 2225.8943 6442042
2042.0547 1045.9354 2221.4775 6178616
2051.834 1044.2147 2217.823 7494475
2071.2197 1047.3735 2224.532 8021076
2083.7456 1047.0457 2223.8354 8021332
2091.98 1044.579 2218.5964 7889747
2107.7009 1045.8579 2221.3127 7757649
2117.7988 1044.3481 2218.1062 8086871
0 0 0 0
0 0 0 0
0 0 0 0
0 0 0 0
0 0 0 0
0 0 0 0
0 0 0 0
0 0 0 0
0 0 0 0
0 0 0 0
0 0 0 0
0 0 0 0
-1526.3351 842.26721 1766.6743 19
0 0 0 0
0 0 0 0
-1451.657 817.88293 1715.5278 19
-1245.9774 706.94971 1482.8429 19
-1222.8242 698.73944 1465.6216 19
-1208.7142 695.61597 1459.0701 19
-1194.8014 692.56183 1452.6639 19
-1180.1093 689.00836 1445.2104 19
-1178.0471 692.83087 1453.2283 19
-1167.8892 691.91339 1451.3038 19
-1154.9377 689.315 1445.8536 19
-1143.8601 687.80444 1442.6852 19
-1141.0519 691.28107 1449.9775 19
-1132.3801 691.23114 1449.8728 19
-1117.9897 687.66296 1442.3885 19
-1112.6047 689.6217 1446.4969 19
-1137.7837 710.70221 1490.7137 19
-1098.2178 691.354 1450.1305 19
-1085.1122 688.4895 1444.1222 19
-1071.5573 685.29205 1437.4154 19
-1058.0977 682.10492 1430.7303 19
-1036.1526 673.35193 1412.3707 19
-1021.3028 669.10486 1403.4624 19
-1008.0194 665.82275 1396.5781 19
-997.65472 664.43005 1393.657 19
-1000.2795 671.73737 1408.9841 19
-976.81921 661.50269 1387.5167 19
-968.10126 661.16254 1386.8032 19
-957.34589 659.41333 1383.1342 19
-940.35242 653.29999 1370.3113 19
-929.04492 651.06482 1365.623 19
-918.80786 649.54718 1362.4397 19
-907.77344 647.4339 1358.0071 19
-1221.5546 879.01624 1843.7562 19
-1193.8481 866.83002 1818.1954 18
-1156.2982 847.20959 1777.0411 18
-1131.4612 836.62897 1754.8479 18
-856.46716 639.16467 1340.6622 18
-1088.5073 819.9353 1719.8326 18
-1065.0936 809.87933 1698.74 18
-831.25598 638.10223 1338.4337 18
-1021.4094 791.62207 1660.4449 18
-814.20874 637.17181 1336.4822 18
-805.15271 636.27222 1334.5952 18
-795.6496 634.99799 1331.9225 18
-984.15869 793.31213 1663.9899 18
-775.9267 631.78851 1325.1906 18
-946.22437 778.32623 1632.5566 18
-758.2132 630.11639 1321.6832 18
-749.7298 629.56769 1320.5323 18
-741.51892 629.23865 1319.8422 18
-733.01288 628.64948 1318.6063 17
-724.67035 628.18933 1317.6412 16
-716.36975 627.75592 1316.7321 17
-708.05615 627.30145 1315.7788 18
-700.6601 627.65875 1316.5283 18
-691.67133 626.58136 1314.2684 18
-683.83417 626.53448 1314.1702 18
-677.12366 627.5307 1316.2596 18
-668.29889 626.56787 1314.2401 19
-660.69818 626.74353 1314.6085 19
-653.03442 626.86285 1314.8589 18
-645.6593 627.26538 1315.7032 18
-638.52502 627.91473 1317.0652 18
-631.25146 628.44135 1318.1698 19
-623.7215 628.72272 1318.76 18
-616.41956 629.24414 1319.8536 18
-609.22284 629.88763 1321.2034 18
-602.45795 631.00012 1323.5369 18
-594.96552 631.37 1324.3126 19
-587.86847 632.1748 1326.0009 19
-580.94049 633.18585 1328.1215 19
-573.73523 633.91815 1329.6575 19
-566.24469 634.35132 1330.5662 19
-558.76172 634.80536 1331.5184 19
-550.888 634.82202 1331.5535 19
-543.96173 635.9469 1333.9128 19
-535.1507 634.86896 1331.6519 19
-527.51929 635.17914 1332.3025 19
-519.9538 635.57928 1333.1417 19
-512.21515 635.77686 1333.5562 18
-505.41989 637.16998 1336.4783 18
-496.68536 636.12372 1334.2837 18
-488.92694 636.3139 1334.6827 18
-481.01556 636.30804 1334.6704 18
-474.14932 637.70776 1337.6062 18
-464.92059 635.92346 1333.8636 18
-457.87592 637.11658 1336.3662 18
-450.00381 637.17999 1336.4994 20
-443.48886 639.2019 1340.7402 19
-438.40756 643.40137 1349.5488 19
-430.21286 643.10297 1348.9229 18
-422.26367 643.16711 1349.0574 18
-414.21292 643.07605 1348.8665 18
-406.03949 642.78723 1348.2606 18
-397.89111 642.52734 1347.7156 18
-389.92743 642.56104 1347.7863 18
-383.289 644.82581 1352.5366 18
-373.54712 641.85468 1346.3046 18
-364.45691 639.89801 1342.2004 18
-358.19559 642.93176 1348.5638 18
-354.09641 650.07336 1363.5435 18
-350.82513 659.1037 1382.4849 18
-341.62933 657.16919 1378.4271 18
-334.70245 659.61145 1383.5498 16
-326.50601 659.61145 1383.5498 14
-315.2562 653.28424 1370.2783 12
-300.90152 640.01843 1342.453 12
-294.02036 642.36017 1347.3647 12
-356.47122 800.53235 1679.1346 14
-314.80417 727.2547 1525.433 16
-337.50946 802.75244 1683.7913 18
-304.63333 746.62457 1566.0618 18
-318.55551 805.27112 1689.0742 18
-310.42078 810.15607 1699.3206 18
-309.4433 834.67407 1750.7476 18
-291.85049 814.52112 1708.4763 18
-277.3183 801.76898 1681.7283 18
-271.99597 815.68549 1710.9187 19
-269.30502 838.87628 1759.5618 19
-255.97379 829.45575 1739.802 19
-242.4306 818.52924 1716.8834 19
-235.31911 829.31226 1739.5011 19
-226.35925 834.27063 1749.9014 19
-221.10309 854.01062 1791.3064 19
-210.64062 854.61768 1792.5797 19
-202.10791 863.53436 1811.2827 19
-192.45235 868.38446 1821.4559 19
-182.16142 870.77368 1826.4673 19
-167.48431 851.17346 1785.3553 19
-163.26375 885.65436 1857.6797 19
-152.75368 888.53497 1863.722 19
-140.00304 877.81628 1841.2394 19
-130.03539 884.2099 1854.65 19
-119.48145 887.42908 1861.4023 19
-109.65053 897.21906 1881.9371 19
-99.067169 902.37158 1892.7445 19
-85.546021 878.66437 1843.0183 19
-77.505852 912.55334 1914.1012 19
-65.942741 909.47034 1907.6344 19
-54.824802 912.52155 1914.0344 20
-44.39138 931.52832 1953.9014 20
-32.947388 935.25702 1961.7227 19
-21.44791 940.6167 1972.9646 18
-9.814435 945.89966 1984.0457 19
1.9465101 949.31854 1991.2169 19
13.765815 950.89941 1994.5328 19
25.496033 947.70837 1987.8396 19
37.427128 951.64142 1996.0892 19
49.370766 953.92828 2000.8859 19
62.150967 968.36395 2031.165 19
72.870468 951.2171 1995.1992 19
86.64962 973.2215 2041.3539 19
100.06496 986.25031 2068.6821 19
112.42082 987.13287 2070.5334 19
118.83402 940.79456 1973.3376 19
130.67171 941.85553 1975.563 19
144.35628 954.95972 2003.0493 19
160.70418 982.35345 2060.5083 19
166.27232 944.63684 1981.3969 19
185.94336 986.73322 2069.6951 19
199.01328 990.75861 2078.1384 19
210.18907 985.43475 2066.9714 19
225.30344 998.14575 2093.6331 19
243.45673 1022.2909 2144.2781 19
256.87363 1025.1392 2150.2524 19
272.60834 1036.5314 2174.1477 19
287.77759 1044.8424 2191.5803 19
305.43271 1061.072 2225.6223 19
321.80417 1071.6832 2247.8796 19
329.57056 1053.9332 2210.6484 19
341.52011 1050.406 2203.25 19
364.85358 1080.8628 2267.1338 19
380.53668 1087.2975 2280.6309 19
395.25534 1090.6299 2287.6206 19
402.9118 1074.9006 2254.6282 19
421.63727 1088.7634 2283.7056 19
438.71094 1097.6315 2302.3066 19
451.51968 1095.6158 2298.0789 19
464.22552 1093.476 2293.5903 19
468.98111 1073.2635 2251.1943 19
499.38367 1111.239 2330.8489 18
515.19714 1115.5806 2339.9553 18
530.42279 1118.4551 2345.9846 18
542.7392 1115.2051 2339.1675 18
556.80524 1115.6224 2340.043 19
572.60925 1119.417 2348.0022 19
589.59912 1125.295 2360.3315 19
604.66187 1127.3077 2364.5532 19
616.26532 1122.926 2355.3625 19
637.10608 1135.1975 2381.1021 19
654.02222 1140.0958 2391.3765 19
674.05243 1150.0999 2412.3601 19
682.90472 1141.0121 2393.2983 19
694.9447 1137.5117 2385.9563 19
712.43616 1142.8962 2397.2505 19
723.63397 1138.1714 2387.3398 19
753.53845 1162.4863 2438.3413 19
753.91803 1141.1953 2393.6829 19
780.29156 1159.3108 2431.6804 19
787.78528 1149.2273 2410.53 19
809.03735 1159.2163 2431.4822 19
823.5506 1159.3693 2431.803 19
843.79974 1167.4529 2448.7585 18
854.69153 1162.5355 2438.4443 18
871.79071 1166.0845 2445.8882 19
880.77905 1158.8459 2430.7053 18
903.16791 1169.1877 2452.3975 18
920.3606 1172.5819 2459.5168 18
936.94159 1175.1031 2464.8052 18
959.50122 1184.9304 2485.418 18
969.63977 1179.3529 2473.7192 18
985.26874 1180.52 2476.1672 18
1004.452 1185.8492 2487.3452 18
1009.9137 1175.0587 2464.7119 17
1015.6603 1164.9028 2443.4097 16
1026.4104 1160.6902 2434.5737 18
1039.621 1159.3383 2431.7378 18
1053.0417 1158.2544 2429.4644 18
1071.9996 1163.2079 2439.8547 18
1084.9099 1161.5549 2436.3875 18
1098.7964 1160.9766 2435.1743 18
1111.5818 1159.2651 2431.5847 18
1128.7067 1162.0651 2437.4575 18
1139.7 1158.5614 2430.1084 16
1153.1416 1157.6029 2428.0979 16
1165.6367 1155.7294 2424.1682 16
1172.9752 1148.8511 2409.7407 16
1178.8201 1140.6926 2392.6284 16
1168.5754 1117.3441 2343.6543 16
1182.7728 1117.6399 2344.2747 16
1195.7593 1116.798 2342.5085 16
1204.1675 1111.7483 2331.917 14
1220.8918 1114.4041 2337.4875 14
1230.2039 1110.3103 2328.9009 14
1240.1058 1106.834 2321.6089 14
1253.6195 1106.6221 2321.1646 14
1265.4445 1104.9401 2317.6367 12
1279.8458 1105.5199 2318.8528 12
1284.0081 1097.3369 2301.6887 65548
1297.0435 1096.8292 2300.6238 65548
1307.3416 1094.0414 2294.7764 131084
1272.3342 1053.7876 2210.343 196620
1281.6167 1050.6624 2203.7878 196618
1279.1553 1038.0698 2177.3748 393221
1275.4596 1024.7371 2149.4089 589825
1280.5034 1018.62 2136.5781 2034957
1293.7452 1019.0801 2137.5435 2823182
1309.728 1021.6696 2142.9749 4072989
1299.7615 1004.1616 2106.2512 6902083
1313.764 1005.3282 2108.6985 8481112
1337.0884 1013.5391 2125.9209 8020819
1347.704 1012.053 2122.804 7823440
1352.4688 1006.2415 2110.614 7560524
1375.3872 1013.9191 2126.718 7033154
1376.6882 1005.6658 2109.4065 6704189
1396.0116 1010.6079 2119.7727 7098946
1403.9187 1007.271 2112.7734 8152405
1423.2249 1012.0992 2122.9009 8021076
1435.3706 1011.7957 2122.2639 8086612
1440.0779 1006.2993 2110.7354 9269859
1476.0088 1022.5284 2144.7761 8612186
1491.2289 1024.2551 2148.3979 7625291
1507.8293 1026.8927 2153.9304 7625546
1518.3639 1025.3896 2150.7776 7756875
1542.0999 1032.7524 2166.2214 7164994
1561.5624 1037.1555 2175.4568 6638906
1575.5375 1037.8717 2176.959 6770493
1593.1737 1040.9683 2183.4543 7033923
1597.2853 1035.2495 2171.459 7494474
1608.5109 1034.1959 2169.2493 7625804
1621.0103 1033.9716 2168.7786 7757390
1632.2728 1032.9681 2166.6736 8020819
1660.6356 1042.7174 2187.123 8218197
1676.6427 1044.6178 2191.1091 7033923
1674.8691 1035.4958 2171.9758 5717808
1689.9482 1036.853 2174.8223 8218200
1699.6774 1034.9319 2170.7927 8218200
1718.1407 1038.318 2177.8953 7494476
1731.4277 1038.5487 2178.3792 7494475
1728.6187 1029.1926 2158.7546 7691597
1750.2769 1034.4346 2169.7495 7625804
1781.3365 1045.1158 2192.1538 7297608
1790.5377 1042.9108 2187.5288 7034437
1796.6869 1038.9727 2179.2683 7692367
1810.3308 1039.3938 2180.1516 8021332
1818.1442 1036.485 2174.0503 7494731
1834.2961 1038.3375 2177.936 7494988
1848.7206 1039.1929 2179.7302 7166023
1859.5985 1038.0568 2177.3472 7363402
1875.4977 1039.7198 2180.8357 7692110
1892.6315 1042.0399 2185.7021 7560781
1907.8806 1043.2981 2188.3411 7560781
1929.3096 1047.8956 2197.9846 7099976
1925.7692 1038.9606 2179.2429 7823953
1941.6659 1040.5609 2182.5999 7626574
1956.2968 1041.4663 2184.4988 7955538
1967.2184 1040.3981 2182.2583 7889746
1980.9055 1040.7969 2183.0947 7758160
2000.6833 1044.3699 2190.5891 7626574
2033.9629 1054.8993 2212.6748 7560781
2039.8412 1051.1735 2204.8599 7560525
2063.5088 1056.604 2216.2505 7034182
2038.7356 1037.3188 2175.7996 8086871
2074.5999 1048.9348 2200.1643 7626320
2081.6621 1045.9342 2193.8704 7823443
2097.5044 1047.3549 2196.8503 8020821
0 0 0 0
0 0 0 0
0 0 0 0
0 0 0 0
0 0 0 0
0 0 0 0
0 0 0 0
0 0 0 0
0 0 0 0
0 0 0 0
0 0 0 0
0 0 0 0
-1526.3351 852.7334 1766.6743 19
0 0 0 0
0 0 0 0
-1286.054 733.58368 1519.8226 20
-1257.735 722.48846 1496.8357 21
-1233.16 713.40155 1478.0096 19
-1213.5441 707.07397 1464.9003 19
-1200.1017 704.2782 1459.1082 19
-1196.632 707.33679 1465.4448 19
-1186.5743 706.51746 1463.7474 19
-1175.6285 705.15338 1460.9213 19
-1164.0341 703.37708 1457.2412 19
-1156.1837 703.85358 1458.2284 19
-1147.0953 703.57782 1457.6571 19
-1137.792 703.16504 1456.802 19
-1130.98 704.29749 1459.1481 19
-1112.4779 698.11151 1446.3322 19
-1108.1797 700.81201 1451.9269 19
-1098.2178 699.94495 1450.1305 19
-1082.4342 695.32458 1440.5582 19
-1070.6343 693.21008 1436.1775 19
-1057.238 690.01984 1429.568 19
-1037.1786 682.39417 1413.7693 19
-1022.5197 678.22644 1405.1346 19
-1009.3023 674.95428 1398.3555 19
-996.40356 671.84283 1391.9093 19
-986.16583 670.48871 1389.1038 19
-980.36139 672.15125 1392.5482 19
0 0 0 0
-957.93195 668.01599 1383.9808 19
-943.52826 663.65186 1374.9393 19
-931.10815 660.6189 1368.6558 19
-920.3045 658.6897 1364.6589 19
-908.90314 656.29474 1359.697 18
-1145.0453 834.19983 1728.2769 18
-1185.2159 871.25598 1805.049 18
-1152.8569 855.18457 1771.7526 18
-1129.1561 845.29944 1751.2728 18
-1103.5316 833.77753 1727.4021 18
-848.15723 646.82678 1340.0815 18
-840.23492 646.83966 1340.1082 18
-1037.1917 806.07947 1670.0178 18
-823.8689 646.45685 1339.3151 18
-814.95471 645.68054 1337.7068 18
-806.2619 645.06616 1336.4338 18
-979.48553 791.42883 1639.665 18
-981.47852 800.98267 1659.4584 18
-963.22845 794.04248 1645.0797 18
-943.33435 785.59106 1627.5704 18
-924.42737 777.79584 1611.4204 18
-751.58594 638.96887 1323.8016 18
-743.03448 638.35974 1322.5397 18
-734.71124 637.93585 1321.6615 18
-726.28369 637.41132 1320.5747 18
-717.92285 636.93445 1319.5868 18
-709.72186 636.59045 1318.8741 18
-701.59888 636.30969 1318.2924 18
-693.68323 636.21259 1318.0913 18
-685.86945 636.20782 1318.0814 18
-678.0611 636.20813 1318.082 18
-670.23041 636.18713 1318.0386 18
-662.79895 636.54913 1318.7886 18
-655.24884 636.80438 1319.3174 18
-647.82336 637.18842 1320.113 18
-640.3006 637.48505 1320.7275 18
-633.05811 638.07141 1321.9424 18
-625.49231 638.34259 1322.5042 18
-618.3429 639.0509 1323.9717 18
-611.33411 639.92468 1325.782 18
-604.59674 641.10907 1328.2357 18
-598.19916 642.68964 1331.5103 19
-590.78845 643.20947 1332.5873 19
-583.66809 644.06378 1334.3572 18
-576.19061 644.54205 1335.348 18
-568.54315 644.84082 1335.967 18
-560.88983 645.1413 1336.5896 19
-553.08997 645.27948 1336.8759 18
-545.16107 645.2688 1336.8538 19
-537.33429 645.38062 1337.0854 19
-529.66425 645.68677 1337.7197 19
-522.13397 646.17517 1338.7316 19
-514.42822 646.45819 1339.3179 19
-506.68192 646.69824 1339.8153 19
-498.82767 646.80609 1340.0387 19
-490.96567 646.9071 1340.248 18
-482.98462 646.85211 1340.134 18
-475.01733 646.81384 1340.0548 18
-467.07693 646.81171 1340.0503 18
-459.00858 646.62915 1339.6721 18
-450.80917 646.2522 1338.8912 18
-442.97635 646.39679 1339.1907 18
-439.49063 653.00568 1352.8829 18
-432.2327 654.15112 1355.256 18
-424.2897 654.28351 1355.5303 18
-416.06888 653.98431 1354.9104 18
-407.12839 652.5199 1351.8765 18
-399.09183 652.47455 1351.7825 18
-390.44815 651.41443 1349.5862 18
-383.5083 653.2121 1353.3104 18
-376.87515 655.61993 1358.2991 18
-369.03647 655.99011 1359.0659 18
-362.6958 659.09888 1365.5066 18
-355.96811 661.63019 1370.7509 18
-351.71002 668.97699 1385.9719 18
-343.22156 668.43622 1384.8516 18
-335.3465 669.09296 1386.212 16
-325.82962 666.42456 1380.6837 14
-317.0824 665.2334 1378.2159 12
-348.72751 750.96149 1555.8256 11
-296.71603 656.30481 1359.7179 12
-310.73834 706.50079 1463.7129 13
-314.4227 735.39948 1523.5845 15
-324.51163 781.42859 1618.9467 18
-304.84167 756.41919 1567.1327 18
-302.46585 774.09943 1603.7622 18
-308.35922 814.77594 1688.035 18
-293.27823 800.90143 1659.2899 18
-289.79633 818.83832 1696.4513 19
-280.87064 822.12976 1703.2705 19
-274.68051 833.97211 1727.8052 19
-263.91962 832.31647 1724.375 18
-254.59947 835.25415 1730.4612 19
-245.8148 840.26868 1740.8501 19
-237.2482 846.50049 1753.7611 19
-226.46179 845.02008 1750.6941 19
-221.63159 866.68939 1795.588 19
-210.89182 866.26904 1794.7173 19
-200.35478 866.68134 1795.5714 19
-192.11481 877.6333 1818.2614 19
-182.38335 882.66803 1828.6923 19
-172.36761 886.8761 1837.4104 19
-162.09038 890.21527 1844.3285 19
-152.27362 896.74902 1857.8649 19
-138.90691 881.76611 1826.8236 19
-134.77116 927.79956 1922.1947 19
-123.91946 931.82867 1930.5422 19
-113.19707 937.74847 1942.8066 19
-98.560104 908.90839 1883.0565 19
-87.902336 914.08588 1893.7831 19
-79.149902 943.49054 1954.7029 19
-67.135162 937.42163 1942.1295 19
-54.925156 925.55188 1917.538 20
-43.435482 922.79535 1911.8271 19
-32.100517 922.54041 1911.2991 19
-21.072508 935.63684 1938.4319 19
-9.6313848 939.79224 1947.0409 19
1.9438229 959.78815 1988.468 19
13.683732 956.97491 1982.6396 19
25.150127 946.46753 1960.8707 19
37.282291 959.73834 1988.3649 19
49.3414 965.20752 1999.6957 19
59.996235 946.40729 1960.7458 19
71.905594 950.28558 1968.7809 19
86.564934 984.35193 2039.3588 19
98.831505 986.19751 2043.1824 19
113.38186 1007.9426 2088.2334 19
125.59241 1006.6552 2085.5662 19
136.14023 993.4649 2058.2388 19
152.04535 1018.3237 2109.7407 19
160.1579 991.17963 2053.5042 19
170.52853 980.85626 2032.1165 19
185.89641 998.74243 2069.1726 19
198.69617 1001.4717 2074.8271 19
211.5321 1004.0548 2080.1787 19
221.25349 992.38379 2055.999 19
245.38438 1043.1891 2161.2563 19
256.81787 1037.6526 2149.7859 19
272.47131 1048.884 2173.0549 19
288.61029 1060.8867 2197.9219 19
301.21686 1059.4292 2194.9021 19
311.19177 1049.2192 2173.7495 19
325.20013 1052.8798 2181.3333 19
326.85837 1017.8033 2108.6626 19
352.27667 1056.5723 2188.9832 19
375.15164 1085.2307 2248.3572 19
393.90903 1100.4213 2279.8286 19
404.97327 1093.8254 2266.1636 19
416.37494 1088.5352 2255.2034 19
426.35352 1079.969 2237.4561 19
447.27997 1098.8147 2276.5002 19
462.23947 1102.3274 2283.7778 19
472.94821 1095.7916 2270.2371 19
490.87384 1105.876 2291.1296 18
504.93561 1106.9471 2293.3489 18
518.33002 1106.5375 2292.5 18
534.54346 1112.0132 2303.8445 18
553.32391 1122.4233 2325.4121 19
565.13483 1118.5334 2317.353 19
580.96686 1122.5981 2325.7742 19
594.22662 1121.6191 2323.7458 19
611.79346 1128.6301 2338.2712 18
632.80377 1141.5425 2365.0227 19
645.39624 1139.0392 2359.8364 19
640.71143 1106.7963 2293.0361 19
667.27325 1128.7485 2338.5166 19
685.16724 1135.4437 2352.3875 19
695.9989 1130.4017 2341.9414 19
713.83044 1136.7034 2354.9971 19
740.98944 1157.3318 2397.7346 19
746.84991 1144.5442 2371.2417 19
761.22052 1145.0299 2372.2478 19
774.23419 1143.4937 2369.0652 19
786.38251 1140.7571 2363.3955 19
804.35559 1146.418 2375.1235 19
824.91418 1155.5057 2393.9514 19
836.22858 1151.5564 2385.7693 19
850.34436 1151.5319 2385.7185 19
867.68567 1155.8049 2394.5713 18
886.55353 1161.941 2407.2839 18
898.47559 1158.9237 2401.0327 18
915.89966 1162.9867 2409.4504 18
934.56305 1168.4746 2420.8201 18
958.68707 1180.5209 2445.7771 18
969.15253 1175.6395 2435.6643 18
975.10864 1165.5117 2414.6816 18
987.8822 1163.7076 2410.9438 18
1006.2333 1168.4314 2420.7307 16
1018.8689 1166.479 2416.6855 18
1030.7692 1163.7505 2411.0327 18
1038.5923 1156.5564 2396.1282 18
1053.402 1157.2314 2397.5266 18
1072.9353 1163.0087 2409.4958 18
1091.8748 1167.999 2419.8347 18
1100.4569 1161.9241 2407.2488 18
1119.9987 1167.4283 2418.6526 17
1131.8373 1164.8657 2413.3433 16
1144.8583 1163.5687 2410.656 17
1156.8256 1161.2457 2405.8435 17
1168.2269 1158.4183 2399.9856 16
1175.9803 1152.0851 2386.8647 16
1181.6161 1143.8523 2369.8081 16
1186.9807 1135.5536 2352.615 16
1178.9109 1114.744 2309.5022 16
1187.3523 1109.8456 2299.3538 15
1198.7632 1107.8024 2295.1206 14
1213.2971 1108.6586 2296.8945 14
1223.0138 1105.1429 2289.6108 14
1239.9119 1108.1226 2295.7839 14
1254.0883 1108.6313 2296.8381 14
1264.3594 1105.7141 2290.7942 12
1274.854 1103.052 2285.2791 12
1277.3096 1093.5635 2265.6208 11
1296.0449 1098.0652 2274.9473 11
1293.6572 1084.762 2247.386 11
1282.2578 1064.2504 2204.8904 196619
1275.3064 1047.8069 2170.8232 196620
1281.1193 1042.0742 2158.9465 196617
1280.6794 1031.4193 2136.8718 196612
1279.5219 1020.4004 2114.0432 458753
1283.4536 1013.6146 2099.9846 983297
1292.6973 1011.114 2094.8037 2363146
1305.2478 1011.2228 2095.0291 4204832
1315.0736 1009.2385 2090.9182 6836290
1331.1384 1012.0345 2096.7109 7691856
1345.6329 1013.5961 2099.9463 7559755
1352.3363 1009.3143 2091.0752 6112052
1362.4252 1007.6139 2087.5522 5848880
1364.1053 999.78119 2071.3247 5717294
1393.7499 1012.401 2097.4702 8217170
1385.1494 997.2627 2066.1069 7954769
1424.3208 1016.4825 2105.9263 7691853
1432.4102 1013.3793 2099.4968 8283991
1455.9364 1021.1563 2115.6091 8020818
1463.009 1017.3589 2107.7419 8086612
1484.2823 1023.4174 2120.2937 7823439
1493.5031 1021.1334 2115.5618 7626061
1499.08 1016.4169 2105.7903 8415320
1530.5396 1029.1827 2132.238 6704959
1557.0808 1038.4592 2151.457 7099716
1576.6299 1042.9597 2160.781 6967617
1572.6968 1031.9791 2138.0317 7099204
1588.4163 1033.9667 2142.1494 7033667
1604.4609 1036.1327 2146.637 6968131
1619.6836 1037.7379 2149.9626 7560268
1632.8075 1037.984 2150.4724 7362889
1650.9584 1041.3971 2157.5437 7889233
1661.1639 1039.7845 2154.2029 7560268
1683.5448 1045.7595 2166.5815 7823185
1683.467 1037.7991 2150.0894 7955028
1703.5706 1042.3057 2159.426 7757906
1715.5004 1041.7816 2158.3403 7691855
1720.6506 1037.1786 2148.804 8613212
1730.6416 1035.5398 2145.4084 7363145
1737.5774 1032.1099 2138.3027 7297610
1763.5055 1039.9296 2154.5032 7231816
1774.8286 1039.0861 2152.7556 7692366
1779.924 1034.6345 2143.5332 8021332
1782.0343 1028.5233 2130.8721 7823953
1804.6521 1034.2509 2142.7383 8087125
1828.4712 1040.5822 2155.8552 7363402
1847.2102 1043.9545 2162.842 7429195
1845.0386 1035.5442 2145.4177 6968644
1861.147 1037.4386 2149.3425 7100230
1879.405 1040.4973 2155.6794 8087124
1875.7687 1031.4751 2136.9875 7889236
1908.5146 1042.4463 2159.7173 8086869
1912.8273 1037.8442 2150.1829 7889235
1927.1519 1038.6992 2151.9543 7757906
1942.5052 1040.0939 2154.8438 7889236
1955.3209 1040.1204 2154.8987 8087127
1966.8846 1039.4849 2153.582 8284505
1975.2035 1037.1539 2148.7527 7955283
1999.2251 1043.045 2160.958 7823953
2012.316 1043.1948 2161.2683 7889235
2024.3643 1042.8057 2160.4619 7757906
2044.2417 1046.4291 2167.9688 6507839
2071.0444 1053.53 2182.6804 5125673
2069.7144 1046.3207 2167.7441 4073242
0 0 0 0
0 0 0 0
0 0 0 0
0 0 0 0
0 0 0 0
0 0 0 0
0 0 0 0
0 0 0 0
0 0 0 0
0 0 0 0
0 0 0 0
0 0 0 0
0 0 0 0
-1398.6409 796.44501 1630.0505 19
-1367.6733 784.22546 1605.0413 19
-1317.3079 760.63403 1556.7578 19
-1298.4564 755.03497 1545.2985 19
-1265.3514 741.00928 1516.5927 19
-1251.8708 738.3576 1511.1655 19
-1231.2938 731.45203 1497.0322 19
-1217.9286 728.76147 1491.5255 19
-1207.8058 727.98602 1489.9384 19
-1193.7786 724.82837 1483.4758 19
-1180.2325 721.91827 1477.5199 19
-1167.5551 719.49994 1472.5703 19
-1156.4769 718.03815 1469.5786 19
-1149.6902 719.23895 1472.0363 19
0 0 0 0
-1172.4695 744.78839 1524.3271 19
-1113.1575 712.60004 1458.4486 19
-1100.0476 709.71637 1452.5468 19
-1089.7515 708.61676 1450.2963 19
-1072.9558 703.23987 1439.2915 19
-1060.9996 700.97406 1434.6542 19
-1038.3494 691.54932 1415.365 19
-1023.4633 687.18439 1406.4314 19
-1010.6117 684.12488 1400.1697 19
-997.15814 680.60388 1392.9634 19
-984.61285 677.64923 1386.9163 19
-980.36139 680.40106 1392.5482 19
0 0 0 0
-958.74744 676.79071 1385.1591 19
-946.87695 674.18158 1379.8191 19
-933.48053 670.43103 1372.1431 19
-1239.9344 898.35095 1838.6172 19
-1236.4762 903.78479 1849.7384 18
-1208.0144 890.87646 1823.3193 18
-1182.0045 879.55969 1800.158 15
-1151.5248 864.68054 1769.7053 15
-1125.7734 853.11096 1746.0264 16
-1100.8154 841.93372 1723.1504 16
-1077.9293 832.14661 1703.1196 17
-1060.2384 826.22314 1690.9962 17
-1038.7871 817.22821 1672.5868 16
-1015.5379 806.63208 1650.9 17
-1003.3889 804.73224 1647.0118 18
-998.87665 808.98022 1655.7059 18
-979.15466 800.87201 1639.1111 18
-980.14185 809.70953 1657.1985 18
-964.51263 804.8598 1647.2728 18
-941.24567 793.47247 1623.9668 18
-922.54132 785.73584 1608.1327 18
-903.25513 777.3371 1590.9432 18
-884.43597 769.16742 1574.2227 18
-737.34717 648.08252 1326.4032 18
-729.03937 647.6828 1325.5852 18
-720.72278 647.26654 1324.7333 18
-711.6358 646.14154 1322.4308 17
-704.15808 646.46899 1323.101 16
-695.40228 645.61725 1321.3578 17
-687.55505 645.59924 1321.3208 17
-679.93396 645.79553 1321.7227 18
-672.28387 645.96857 1322.0768 18
-665.53613 647.02295 1324.2347 18
-658.10492 647.43005 1325.068 18
-650.44916 647.62347 1325.4639 18
-642.97906 648.00879 1326.2523 18
-635.63831 648.53546 1327.3303 18
-628.59393 649.38165 1329.0621 18
-621.74628 650.45502 1331.2589 18
-614.19263 650.80792 1331.9812 18
-607.37836 651.96362 1334.3466 18
-600.32739 652.89233 1336.2474 18
-593.15454 653.71167 1337.9242 18
-585.82593 654.37921 1339.2904 18
-578.2569 654.79272 1340.1368 18
-570.72449 655.25983 1341.0928 18
-563.10297 655.63641 1341.8635 19
-555.29669 655.80554 1342.2097 19
-547.3515 655.81317 1342.2252 19
-539.53717 655.9801 1342.567 19
-531.96753 656.45404 1343.5369 19
-524.93048 657.6095 1345.9017 19
-516.61725 657.17725 1345.0171 19
-541.95898 700.21387 1433.0984 19
-533.25555 699.93365 1432.5249 17
-524.61261 699.72522 1432.0983 18
-516.15509 699.76117 1432.1719 18
-508.01157 700.2312 1433.1338 18
-500.71329 701.90204 1436.5535 18
-493.63596 703.94574 1440.7362 18
-484.28424 702.76099 1438.3114 18
-473.83286 699.90936 1432.4751 18
-465.32947 699.88367 1432.4225 18
-456.66092 699.60406 1431.8502 18
-447.97968 699.29388 1431.2155 18
-439.76041 699.70691 1432.0608 18
-431.28641 699.7229 1432.0935 18
-422.91708 699.91278 1432.4821 18
-414.64743 700.27875 1433.2311 18
-386.21393 665.89429 1362.8579 18
-381.22284 671.323 1373.9686 18
-374.72995 674.28625 1380.0334 18
-383.53049 705.51447 1443.9468 18
-361.54947 680.25208 1392.2434 18
-352.46799 678.64722 1388.9589 18
0 0 0 0
-358.10944 723.27985 1480.3065 16
-350.11322 724.88129 1483.5841 14
-318.77039 676.98309 1385.5529 12
-346.10056 754.45215 1544.1056 12
-297.66132 666.47662 1364.0497 12
-310.66574 715.00507 1463.3708 14
-318.00107 752.89758 1540.924 16
-319.18484 778.03522 1592.3721 18
-311.41708 782.21948 1600.9357 18
-315.16336 816.49591 1671.088 18
-309.78369 828.58643 1695.833 18
-300.51953 830.74908 1700.2592 18
-292.55927 836.79114 1712.6254 18
-282.94745 838.3739 1715.8647 18
-268.87589 826.36792 1691.2926 18
-265.91714 848.90887 1737.4261 18
-254.89078 846.47314 1732.441 19
