# .PCD v0.7 - Point Cloud Data file format
VERSION 0.7
FIELDS x y z rgb
SIZE 4 4 4 4
TYPE F F F U
COUNT 1 1 1 1
WIDTH 1499
HEIGHT 1
VIEWPOINT 0 0 0 1 0 0 0
POINTS 1499
DATA ascii
1140.9801 1011.968 3255.2288 2891297
1145.1542 998.78864 3212.8342 6113861
1154.1052 990.13855 3185.0093 8415581
1166.0808 984.32001 3166.2925 9730156
1198.8588 995.96729 3203.7588 9664106
1216.5695 994.92944 3200.4204 9598570
1236.772 995.92999 3203.6387 10190707
1259.3813 998.8092 3212.9004 9861485
1282.5637 1002.0502 3223.3259 9335141
1305.4176 1004.9434 3232.6326 9598313
1323.4702 1004.1102 3229.9521 9993328
1339.8256 1002.0314 3223.2654 8743260
1363.9675 1005.7526 3235.2354 9138019
1389.2936 1010.2318 3249.6436 9269861
1423.1437 1020.7021 3283.3237 9664106
1442.2537 1020.4606 3282.5471 8677468
1457.196 1017.316 3272.4319 9401191
1487.4773 1024.8221 3296.5769 9401190
1515.3899 1030.5228 3314.9148 9335911
1536.8643 1031.7555 3318.8796 8874590
1556.2737 1031.5881 3318.3413 9335398
1577.1731 1032.4004 3320.9541 9006434
1603.3633 1036.6132 3334.5056 9138277
1630.5753 1041.3761 3349.8264 8940898
1650.0016 1041.1118 3348.9766 8940898
1675.1675 1044.4323 3359.6577 9466985
1693.1265 1043.2343 3355.804 9073254
1727.6868 1052.1742 3384.5615 8810338
1726.7755 1039.5547 3343.9678 9008230
1757.717 1046.1798 3365.2791 8547424
1766.1848 1039.4302 3343.5671 8481632
1803.947 1049.8794 3377.1794 8679009
1811.0939 1042.4769 3353.3677 8876901
1814.1796 1032.9226 3322.6343 9863539
1850.6451 1042.3749 3353.0396 9994867
1886.646 1051.3673 3381.9658 10455162
1911.8086 1054.1945 3391.0601 9862768
1927.6786 1051.8921 3383.6538 9204325
1957.6884 1057.2733 3400.9639 9203812
1966.4758 1051.2004 3381.429 9203811
2010.2996 1063.79 3421.9265 8940640
2045.4216 1071.5698 3446.9517 9006176
2060.3057 1068.6979 3437.7136 9006433
2078.1465 1067.4009 3433.5415 8874334
2099.3757 1067.8527 3434.9949 8216658
2136.7429 1076.4257 3462.5718 7427140
2127.8396 1061.7476 3415.3562 8677202
2105.9412 1040.9226 3348.3682 5781540
2132.9929 1044.4557 3359.7329 5386781
2166.1953 1050.9073 3380.4863 6439469
2171.0688 1043.6234 3357.0554 6110761
2171.8894 1034.5409 3327.8396 7293750
2208.0513 1042.3047 3352.8137 6108962
2205.2156 1031.6855 3318.6545 7027498
2210.3081 1024.9302 3296.9246 8278845
2215.7417 1018.4501 3276.0798 10581342
2233.553 1017.7225 3273.7393 9989463
2257.3223 1019.6987 3280.0962 10186841
2284.4995 1023.1677 3291.2549 10318683
2295.012 1019.1771 3278.4187 10121049
2312.6357 1018.3853 3275.8713 10121305
2329.9568 1017.4744 3272.9412 9923413
2345.6228 1015.8617 3267.7537 10120792
2391.4668 1027.2383 3304.3489 10054743
2384.1121 1015.7644 3267.4407 10120538
2400.7551 1014.6173 3263.751 9988953
2423.9653 1016.2419 3268.9768 9528917
2442.5991 1015.9373 3267.9971 9594709
2457.1111 1013.9366 3261.5613 10582117
2476.6228 1014.0142 3261.8108 11108718
2499.5811 1015.4908 3266.5605 12096385
2523.5979 1017.3715 3272.6104 11635837
2530.8552 1012.5184 3256.9993 9926763
2788.1809 1107.0267 3561.0071 2363149
2722.4753 1072.8214 3450.978 917504
2698.5627 1055.4724 3395.1709 1114112
2697.2339 1047.1478 3368.3926 1245184
2675.1372 1030.9418 3316.2625 1245184
2696.2954 1031.5204 3318.1233 1378311
2705.4067 1027.5149 3305.239 11047548
2743.5093 1034.4989 3327.7043 9925990
2770.7478 1037.3159 3336.7661 9926504
2801.894 1041.5455 3350.3718 10648945
2802.209 1034.3354 3327.179 11109238
2828.2297 1036.6482 3334.6184 11372154
2841.7959 1034.3956 3327.3723 11108725
2845.3721 1028.5626 3308.6091 10253670
2838.0671 1018.9031 3277.5371 9595997
2853.0657 1017.3276 3272.4692 10583148
2892.9802 1024.5978 3295.8555 12097156
2959.1121 1040.9938 3348.5967 12097155
3005.4932 1050.2693 3378.4336 11504761
3098.4097 1075.5762 3459.8394 11899519
3148.3374 1085.7257 3492.4875 11965569
3154.3586 1080.7001 3476.3213 12097155
3207.4976 1091.7775 3511.9543 12689549
3207.4976 1084.7413 3489.321 12294793
3264.5649 1096.9712 3528.6611 11570044
3261.8364 1089.0804 3503.2786 10518641
3287.8608 1090.8289 3508.9031 10650481
3260.2114 1074.8596 3457.5344 11439996
3279.8623 1074.587 3456.6575 11571582
3316.6169 1079.8867 3473.7048 11900802
0 0 0 0
0 0 0 0
0 0 0 0
0 0 0 0
0 0 0 0
0 0 0 0
0 0 0 0
0 0 0 0
0 0 0 0
0 0 0 0
0 0 0 0
0 0 0 0
0 0 0 0
0 0 0 0
0 0 0 0
0 0 0 0
0 0 0 0
0 0 0 0
0 0 0 0
0 0 0 0
0 0 0 0
0 0 0 0
0 0 0 0
0 0 0 0
-730.70428 291.96039 921.59552 19
-784.98157 316.00861 997.50555 19
-748.01282 303.41031 957.73804 19
-736.55054 301.04443 950.26996 19
-739.12769 304.42459 960.93964 19
-730.44873 303.18509 957.02716 18
-747.07208 312.51056 986.46368 19
-731.47949 308.40048 973.48987 18
-711.38184 302.31055 954.26654 18
-704.47003 301.77142 952.56482 18
-698.59351 301.67068 952.24683 18
-692.49579 301.47202 951.61963 18
-686.59125 301.35483 951.24982 19
-680.93762 301.34677 951.22437 19
-675.60388 301.48135 951.64911 19
-670.18341 301.57916 951.95782 19
-665.93329 302.20972 953.94824 19
-658.38556 301.34177 951.2085 19
-652.39349 301.17703 950.68848 19
-646.53461 301.07138 950.35504 19
-640.86548 301.05307 950.29724 19
-635.44037 301.15005 950.60339 19
-630.24304 301.3577 951.25885 19
-625.04535 301.56894 951.9256 19
-619.44208 301.58652 951.98114 19
-613.36511 301.3717 951.30304 19
-606.42206 300.72339 949.25659 19
-607.94153 304.29883 960.54272 19
-598.04053 302.17136 953.82721 19
-586.86023 299.35077 944.92383 19
-580.98645 299.20871 944.4754 19
-577.34302 300.22369 947.6792 19
-571.50824 300.10791 947.31372 19
-567.63007 301.02744 950.21631 19
-556.65588 298.16455 941.17938 19
-548.36469 296.69531 936.54169 19
-544.97168 297.87335 940.26025 19
-540.5769 298.52252 942.30939 19
-537.12061 299.70892 946.05432 19
-532.35669 300.18295 947.55066 19
-522.09338 297.53314 939.18628 19
-517.67999 298.19589 941.27832 19
-513.74603 299.15225 944.29712 19
-502.41367 295.77417 933.63397 19
-502.57214 299.16092 944.32452 19
-493.53659 297.08948 937.78583 19
-488.88339 297.63889 939.52014 19
-485.15619 298.77121 943.09436 19
-479.73639 298.87546 943.4234 19
-474.39227 299.02985 943.91077 19
-469.02255 299.17163 944.35828 19
-461.66824 298.03558 940.77228 21
-458.7948 299.79984 946.34131 21
-456.19662 301.78986 952.62292 21
-451.07758 302.14117 953.73187 21
-445.84467 302.42419 954.62531 21
-440.44168 302.5976 955.17267 18
-434.84796 302.64279 955.31537 19
-429.00748 302.5152 954.91254 19
-419.97626 300.10416 947.30188 19
-415.67297 301.05197 950.29382 19
-410.3176 301.25348 950.92981 19
-403.38171 300.28397 947.86951 19
-397.16388 299.82913 946.43384 19
-391.21317 299.56589 945.60284 19
-384.86752 298.98813 943.77911 19
-378.23758 298.16925 941.19421 19
-371.07645 296.90085 937.19049 19
-365.58069 296.94666 937.33502 19
-360.49762 297.33423 938.55841 19
-354.79105 297.21164 938.17145 19
-349.17142 297.15915 938.00574 19
-343.90723 297.41232 938.80493 19
-337.85593 296.98193 937.44641 19
-332.28387 296.96552 937.39453 19
-326.67307 296.91327 937.22961 19
-320.81186 296.62769 936.32819 19
-314.85242 296.23965 935.10333 19
-308.23065 295.20337 931.83221 19
-302.44226 294.94199 931.0072 19
-298.254 296.26041 935.16876 19
-292.07059 295.60934 933.11371 19
-286.90317 295.98129 934.28778 19
-279.82471 294.35757 929.16241 19
-273.54297 293.52365 926.53009 19
-267.88754 293.3414 925.95471 19
-263.25305 294.29282 928.95795 19
-257.61047 294.13385 928.45618 19
-252.7486 294.87881 930.80768 19
-245.78004 293.14432 925.33264 19
-239.36697 292.00836 921.74689 19
-232.87305 290.71838 917.67505 19
-226.77856 289.87738 915.02026 19
-220.9471 289.33954 913.32257 19
-215.18553 288.86859 911.83594 18
-209.92517 289.06348 912.45117 16
-203.72072 287.93436 908.88702 14
-197.8773 287.2681 906.78387 11
-192.57117 287.36636 907.09406 12
-186.7166 286.62839 904.76459 11
-180.72363 285.62802 901.60693 11
-176.3205 287.15598 906.42999 10
-162.90677 273.64426 863.77924 18
0 0 0 0
0 0 0 0
-144.43611 267.86005 845.52087 663128
-139.99792 268.95676 848.98273 663384
-135.33813 269.69363 851.30872 729176
-130.67551 270.48169 853.79626 532054
-125.90016 271.09045 855.71796 267848
-121.34722 272.24933 859.37598 1579
-116.43804 272.67542 860.72101 30
-114.78793 281.12219 887.38391 19
0 0 0 0
0 0 0 0
0 0 0 0
0 0 0 0
0 0 0 0
-95.186981 321.4487 1014.6776 16
0 0 0 0
0 0 0 0
-78.309891 326.26688 1029.8866 16
-72.208611 326.26688 1029.8866 14
0 0 0 0
-91.83886 499.34933 1576.2346 12
-84.062675 508.80228 1606.0736 12
-74.399757 507.79099 1602.8813 13
-65.76416 514.52118 1624.1257 15
-55.898888 512.28888 1617.0792 17
-46.004181 508.80753 1606.0902 19
-36.376926 507.24008 1601.1425 19
-27.196972 513.00397 1619.3367 19
-18.177816 529.73621 1672.1532 19
-7.2971101 467.32693 1475.1536 19
1.4568987 472.14444 1490.3604 19
10.4848 481.26358 1519.1456 19
19.704519 486.69647 1536.2949 18
29.158405 492.65265 1555.0961 19
38.652157 496.26059 1566.4849 19
48.334251 500.42142 1579.6189 19
58.30904 505.77127 1596.5061 19
68.650314 512.36298 1617.3134 19
78.695343 515.39996 1626.8997 19
88.772598 517.96216 1634.9874 19
99.308907 522.43518 1649.1069 19
110.44012 528.9563 1669.6913 19
126.41464 555.69556 1754.0959 19
143.52132 582.97137 1840.1942 19
157.93062 596.21301 1881.9923 19
171.88434 606.10187 1913.2073 19
188.16573 622.46729 1964.8661 19
190.12086 592.29449 1869.6233 19
201.06886 591.91748 1868.4332 19
213.05 594.46252 1876.4668 19
225.79532 598.78162 1890.1005 19
237.84125 600.92554 1896.8679 19
249.11174 601.00525 1897.1194 19
326.85287 754.52179 2381.7063 19
353.62286 782.5379 2470.1411 19
376.94699 801.00482 2528.4336 19
403.99475 825.67053 2606.2927 19
303.5379 597.5235 1886.1292 19
456.09747 865.96387 2733.4817 19
497.36005 911.92834 2878.5723 19
0 0 0 0
343.72131 589.78156 1861.6909 19
359.14255 597.08356 1884.7404 19
0 0 0 0
0 0 0 0
397.38284 604.29688 1907.5096 19
416.14505 615.33008 1942.3368 19
445.49631 641.00562 2023.3837 19
475.06647 665.6424 2101.1516 19
468.17587 639.23828 2017.8049 19
568.60266 757.02985 2389.623 19
609.80615 792.16473 2500.5293 19
631.13739 800.43054 2526.6208 19
632.98468 784.1756 2475.3108 18
661.01294 800.35669 2526.3877 18
681.72882 807.16351 2547.8738 18
724.08502 838.74243 2647.5552 18
717.82892 813.86615 2569.0312 19
0 0 0 0
0 0 0 0
997.80066 1063.6405 3357.4631 19
1002.8539 1048.1334 3308.5142 19
1052.459 1078.8917 3405.605 19
1108.1836 1114.6482 3518.4729 19
1105.5431 1091.4625 3445.2856 19
1125.22 1090.7512 3443.0403 18
1134.3145 1079.9896 3409.0706 18
1089.9329 1019.5803 3218.3838 16
1106.1851 1016.9929 3210.2168 65549
1135.4669 1026.2698 3239.4995 262151
1148.6571 1020.9356 3222.6621 2102297
1150.9323 1006.2333 3176.2529 5258557
1162.4249 999.93292 3156.3655 7297106
1186.6713 1004.6293 3171.1897 8808798
1210.8374 1009.1123 3185.3411 9795949
1227.3936 1007.2131 3179.3457 8611675
1242.0787 1003.8589 3168.7583 9401191
1265.7655 1007.7716 3181.1089 9269605
1288.9691 1011.1906 3191.9009 9203812
1310.4417 1013.1721 3198.1558 9861741
1326.4844 1010.9589 3191.1697 9138019
1351.4772 1015.5333 3205.6091 8809054
1372.606 1017.1176 3210.6101 9532777
1408.8578 1029.7117 3250.3645 9532777
1429.1111 1030.4309 3252.6348 9335398
1448.5278 1030.5358 3252.9658 8874848
1457.0659 1023.0001 3229.1787 8940641
1487.3057 1030.6989 3253.4805 8875104
1502.3085 1027.7765 3244.2559 9203812
1539.2242 1039.73 3281.988 9203555
1546.8558 1031.851 3257.1169 9467241
1586.5516 1045.2913 3299.5427 9335656
1600.2803 1041.5044 3287.5891 9269606
1621.7816 1042.8064 3291.6987 10190964
1652.5642 1049.9744 3314.3252 9138277
1679.594 1054.6178 3328.9824 9073254
1698.7804 1054.2855 3327.9336 9533805
1717.3409 1053.577 3325.6973 8810595
1730.5935 1049.6652 3313.3489 9271146
1762.9105 1057.2745 3337.3687 9731698
1783.4108 1057.7068 3338.7332 9073510
1781.2463 1044.8351 3298.1028 8810338
1828.1108 1060.6898 3348.1494 9007717
1830.353 1050.5917 3316.2739 8482399
1835.1396 1042.1531 3289.6365 10653055
1880.8077 1056.8639 3336.0725 10389626
1893.9425 1053.1777 3324.4368 10191990
1916.032 1054.4957 3328.5969 9665389
1962.2007 1068.9039 3374.0776 9467497
1967.1649 1060.8018 3348.5027 9466726
2022.3995 1079.6993 3408.1545 9072224
2034.0922 1075.2074 3393.9751 8874588
2052.658 1074.4009 3391.4292 9137760
2084.7493 1080.6208 3411.0632 8873817
2105.7793 1081.0428 3412.3953 9399904
2117.9673 1076.9608 3399.51 8413008
2110.0496 1062.8286 3354.9004 9070935
2127.1174 1061.4277 3350.4783 9136726
2148.2927 1062.0834 3352.5481 8082496
2162.158 1059.1462 3343.2769 6765867
2199.8293 1067.8181 3370.6501 6107422
2197.0901 1056.8947 3336.1694 5910557
2195.3081 1046.6226 3303.7446 6306085
2207.8342 1043.2928 3293.2344 6634788
2210.7158 1035.5042 3268.6487 9201484
2236.708 1038.5818 3278.3635 9661010
2252.7244 1037.0143 3273.4153 10450527
2270.1702 1036.1257 3270.6106 10845028
2284.5132 1033.8481 3263.4214 10844773
2297.6362 1031.0613 3254.6243 10121304
2316.7747 1030.9978 3254.4241 9857877
2333.001 1029.65 3250.1699 9660755
2364.3953 1034.9639 3266.9434 9002569
2372.0679 1029.8921 3250.9338 9791316
2377.8892 1024.1047 3232.6655 10055002
2377.9282 1015.9393 3206.8906 10515807
2415.4272 1023.7808 3231.6431 10384734
2440.0222 1026.0726 3238.8774 10976101
2451.187 1022.7251 3228.3108 9528659
2473.1641 1023.9059 3232.0378 9858135
2477.459 1017.8041 3212.7771 10450784
2496.7502 1017.9092 3213.1089 10583143
2517.6143 1018.6492 3215.4448 9398877
2627.4731 1055.1158 3330.5544 7953238
2634.0388 1049.8684 3313.9907 5453621
2675.9678 1058.6895 3341.8347 1969419
2692.8042 1057.5264 3338.1636 786432
2689.6338 1048.5804 3309.925 1048576
2706.9575 1047.6962 3307.1338 4206891
2752.927 1057.8318 3339.1277 10914167
2766.0559 1055.2936 3331.1155 10782067
2776.7476 1051.8682 3320.303 10254698
2792.6882 1050.4652 3315.8745 10846320
2804.0891 1047.3864 3306.1558 11043700
2855.2781 1059.1085 3343.158 10648685
2832.4907 1043.4185 3293.6309 10583147
2826.6895 1034.1575 3264.3977 9793632
2865.0193 1041.0581 3286.1802 11438457
2888.9521 1042.6694 3291.2666 11240818
2888.6392 1035.5673 3268.8479 11503992
2950.5034 1050.7015 3316.6204 11503991
3020.8586 1068.6392 3373.2419 8740944
3100.0454 1089.4447 3438.9165 10254440
3110.2102 1085.8807 3427.6663 11241078
3164.4229 1097.6418 3464.791 11833728
3187.3411 1098.4663 3467.3936 11505788
3191.6492 1092.9075 3449.8467 12820622
3217.6838 1094.8118 3455.8579 12360840
3212.8274 1086.2479 3428.8254 11374202
3225.6411 1083.7284 3420.8721 11373946
3253.6787 1086.323 3429.0625 10979186
3264.3071 1083.1091 3418.9175 10847600
0 0 0 0
0 0 0 0
0 0 0 0
0 0 0 0
0 0 0 0
0 0 0 0
0 0 0 0
0 0 0 0
0 0 0 0
0 0 0 0
0 0 0 0
0 0 0 0
0 0 0 0
0 0 0 0
0 0 0 0
0 0 0 0
0 0 0 0
0 0 0 0
0 0 0 0
0 0 0 0
0 0 0 0
0 0 0 0
0 0 0 0
0 0 0 0
-802.98712 326.84158 1012.7617 19
-797.57111 327.08096 1013.5035 19
-791.61243 327.09982 1013.5619 19
-783.38684 326.17502 1010.6964 19
-776.69617 325.88004 1009.7823 18
-761.95087 322.17477 998.30103 18
-756.33911 322.30365 998.70032 18
-741.79938 318.59998 987.22406 19
-720.71552 312.00446 966.78699 19
-709.68262 309.68933 959.61316 19
-701.43365 308.5614 956.11823 19
-693.15106 307.40024 952.52014 19
-683.68439 305.69055 947.22247 18
-680.58105 306.82129 950.72626 19
-674.94873 306.82129 950.72626 19
-654.08929 299.84103 929.09698 19
-640.65448 296.17471 917.73639 19
0 0 0 0
-607.70789 285.79422 885.57111 19
-596.51495 282.97333 876.83014 19
-587.69 281.23599 871.44684 19
-577.3407 278.73196 863.68768 19
-565.59882 275.50479 853.68793 19
-566.15283 278.26282 862.23407 19
-561.42975 278.45377 862.82568 19
-591.02002 295.82306 916.64679 19
-606.15198 306.21057 948.83386 19
-599.86139 305.86923 947.77612 19
-593.90662 305.69427 947.23395 19
-587.94104 305.51031 946.664 19
-585.82892 307.34451 952.34747 19
-583.19965 308.9404 957.29254 19
-578.55951 309.49197 959.00171 19
-573.2998 309.71976 959.70752 19
-555.05634 302.86749 938.47479 19
-552.63074 304.59494 943.82751 19
-548.76959 305.55841 946.81299 19
-550.30566 309.57797 959.26813 19
-542.67914 308.47314 955.84473 19
-533.35992 306.37277 949.33643 19
-526.82037 305.84131 947.68958 19
-521.17401 305.82251 947.63141 19
-515.55377 305.81879 947.61981 19
-508.43872 304.91855 944.83026 19
-503.21646 305.14603 945.53516 19
-498.71423 305.82013 947.62402 19
-494.56497 306.72852 950.43878 19
-489.95596 307.36945 952.42468 19
-485.49039 308.11627 954.73889 19
-480.0206 308.23593 955.10968 19
-471.65875 306.47919 949.66614 19
-465.89389 306.38785 949.38318 21
-460.23947 306.36786 949.32123 21
-461.87573 311.26059 964.48193 21
-456.29724 311.35291 964.76807 21
-450.52957 311.31686 964.65637 21
-444.62021 311.18073 964.2345 19
-438.52405 310.9086 963.3913 19
-432.2392 310.49374 962.10583 19
-425.04175 309.40353 958.72766 19
-419.07501 309.19177 958.07147 19
-413.7861 309.48117 958.9682 19
-406.13611 307.9881 954.34174 19
-399.55765 307.27695 952.13812 19
-393.38699 306.86356 950.85718 19
-387.44254 306.61716 950.09363 19
-381.43262 306.31088 949.14465 19
-375.41254 305.98721 948.14172 18
-369.44498 305.69714 947.24286 18
-363.58832 305.4913 946.6051 18
-357.61026 305.17542 945.62622 18
-352.3573 305.47809 946.56415 18
-346.83176 305.55048 946.78839 19
-340.83887 305.20667 945.72314 19
-335.20544 305.17871 945.63647 19
-329.79425 305.35553 946.18433 19
-322.62399 303.88156 941.61713 19
-316.57932 303.4346 940.23212 19
-310.47827 302.91666 938.6272 19
-304.78815 302.78802 938.22858 19
-299.2916 302.85049 938.42218 19
-294.08432 303.21359 939.54724 19
-288.76056 303.4682 940.3363 19
-282.49121 302.71964 938.01666 19
-276.53348 302.28162 936.65942 19
-270.58069 301.83115 935.26367 19
-265.86905 302.7753 938.18921 19
-257.06131 298.99548 926.47693 19
-254.36554 302.31485 936.76245 19
-247.81381 301.09726 932.98956 19
-241.45494 300.06375 929.78711 19
-235.24234 299.16806 927.01166 19
-228.93658 298.10818 923.72748 19
-211.53748 282.19754 874.42633 19
-216.78857 296.46268 918.62872 18
-210.93652 295.88773 916.84711 16
-205.16959 295.40494 915.35114 14
-199.68745 295.31708 915.07892 12
-194.31897 295.39716 915.32703 11
-188.82594 295.28699 914.98572 11
-182.40677 293.67926 910.00391 11
-177.76706 294.92581 913.86646 10
-163.47101 279.72699 866.771 16
-158.25174 279.57803 866.30939 24
0 0 0 0
-143.44359 270.99402 839.71069 66852
-139.73111 273.46414 847.36469 545
-135.80696 275.68869 854.25775 27
-130.86531 275.93997 855.03638 22
-125.96951 276.31204 856.18927 19
-121.1787 276.95529 858.1825 17
-116.85268 278.76367 863.78601 15
-112.73933 281.26831 871.54694 13
-115.58229 302.20132 936.41064 11
0 0 0 0
0 0 0 0
-139.90807 427.33475 1324.1531 11
-134.21967 434.3118 1345.7723 14
-127.55511 438.81192 1359.7166 13
0 0 0 0
0 0 0 0
-105.44921 447.55475 1386.8074 11
0 0 0 0
-90.761543 456.32227 1413.9747 11
-91.428001 506.41156 1569.183 11
-82.812019 510.60562 1582.179 11
-74.019569 514.64343 1594.6904 12
-65.173637 519.43634 1609.542 13
-55.805683 520.99866 1614.3831 15
-46.16325 520.11462 1611.6437 18
-36.623997 520.23517 1612.0173 18
-27.288416 524.35443 1624.7814 19
-18.060726 536.16632 1661.3821 19
-7.3933239 482.34311 1494.6036 19
1.4729868 486.28494 1506.818 19
10.594643 495.39954 1535.0608 19
19.871681 500.00391 1549.328 19
29.42238 506.40887 1569.1747 19
39.436474 515.79907 1598.2714 19
49.401138 521.03186 1614.486 19
59.796814 528.37561 1637.2415 19
69.834122 530.94476 1645.2023 19
80.451843 536.75702 1663.2124 19
90.715294 539.19519 1670.7675 19
101.16975 542.17725 1680.0078 19
112.53747 549.08105 1701.4 19
126.82285 567.91516 1759.76 19
142.68857 590.42725 1829.5167 19
157.67464 606.37793 1878.9419 19
171.53212 616.1709 1909.2867 19
187.21402 630.90045 1954.9281 19
202.78809 643.57153 1994.1912 19
200.24802 600.52484 1860.8054 19
212.13789 602.98651 1868.4332 19
224.46428 606.3833 1878.9586 19
237.0591 610.1499 1890.6299 19
248.53598 610.82916 1892.7346 19
322.17328 757.62701 2347.6072 19
346.47827 781.06543 2420.2344 19
373.17493 807.81842 2503.1318 19
395.08844 822.56799 2548.8354 19
423.96591 850.19684 2634.447 19
317.18658 613.48413 1900.9614 19
0 0 0 0
0 0 0 0
378.75031 662.03986 2051.4177 19
403.85242 683.97058 2119.373 19
459.73264 755.1333 2339.8801 19
389.52853 621.09222 1924.5361 19
385.14877 596.64526 1848.7839 19
426.04739 641.75275 1988.5554 19
434.38474 636.70569 1972.9164 19
473.11301 675.30182 2092.5117 19
496.45096 690.52039 2139.6685 19
518.21265 702.84332 2177.8528 19
599.96655 793.9574 2460.1816 19
616.60956 796.62952 2468.4617 19
614.51062 775.52527 2403.0674 18
635.24207 783.53668 2427.8916 18
653.60406 788.33539 2442.7612 18
670.64905 791.37213 2452.1709 18
688.32281 795.00635 2463.4321 18
0 0 0 0
952.24683 1055.0956 3269.3528 18
961.62976 1044.2522 3235.7532 19
1016.6821 1082.4565 3354.1345 19
1043.4614 1089.6713 3376.49 19
1076.4607 1102.9877 3417.7529 19
1086.2654 1092.4851 3385.209 19
1122.7422 1108.7018 3435.4587 19
1135.1515 1100.9977 3411.5864 17
1061.1146 1011.1845 3133.2886 17
1108.7679 1038.4302 3217.7126 65552
1124.5922 1035.4485 3208.4736 65550
1138.4026 1030.7427 3193.8921 196618
1138.0671 1013.5922 3140.749 524293
1139.6733 998.69489 3094.5876 3482918
1147.0787 989.27045 3065.385 6836811
1180.608 1002.3188 3105.8169 8875360
1207.2587 1009.2163 3127.1897 10125427
1231.6228 1014.0229 3142.0835 9532777
1246.3291 1010.853 3132.2615 9072226
1267.213 1012.7133 3138.0256 9466984
1295.5703 1020.4059 3161.8621 8809054
1310.0127 1017.0757 3151.5432 9664362
1326.3879 1015.3188 3146.0991 9269605
1342.3336 1013.2863 3139.8013 8282710
1359.2412 1012.0256 3135.8948 9269604
1393.9476 1023.8723 3172.6033 9335398
1425.635 1033.2158 3201.5554 9203555
1430.6667 1023.2491 3170.6724 9269349
1460.4434 1031.0095 3194.719 9072227
1485.5029 1035.2841 3207.9641 9335399
1511.2192 1039.9023 3222.2747 9071970
1524.8258 1036.1766 3210.7297 8743262
1534.2292 1029.7216 3190.728 8874848
1570.0474 1040.9365 3225.479 8940641
1599.958 1048.0121 3247.4038 9006691
1619.0688 1047.9296 3247.1482 9138278
1638.9215 1048.3235 3248.3687 9467243
1638.9181 1036.1549 3210.6628 9862772
1688.4608 1055.2301 3269.7695 9402221
1698.2705 1049.3225 3251.4641 9205097
1731.3044 1057.7362 3277.5352 8876132
1749.2583 1056.8523 3274.7964 8810338
1754.5059 1048.3953 3248.5908 9205352
1781.8859 1053.2032 3263.489 8942180
1802.4017 1053.8945 3265.6313 9599853
1845.1195 1067.415 3307.5264 9928818
1847.0673 1057.3136 3276.2256 9994611
1861.1451 1054.2936 3266.8677 9335911
1873.0326 1050.1077 3253.897 9467496
1897.5254 1053.0022 3262.8662 9138019
1943.8322 1067.8215 3308.7859 9006433
1955.6866 1063.608 3295.7297 9203811
1982.8043 1067.6968 3308.3992 8742747
2008.5452 1070.9713 3318.5457 7887439
2040.7998 1077.6218 3339.1533 8940127
2080.2451 1087.9052 3371.0173 8874331
2090.9517 1083.1064 3356.1482 9004890
2092.3267 1073.6097 3326.7214 8476490
2118.302 1076.7957 3336.593 7949888
2141.1392 1078.342 3341.3848 6303523
2171.8027 1083.7655 3358.1902 7490361
2198.2827 1087.0217 3368.2803 8939090
2193.1829 1074.7441 3330.2366 8741197
2195.1011 1066.094 3303.4329 7227955
2217.1001 1067.2632 3307.0559 5451286
2224.9583 1061.6643 3289.7068 6635558
2229.4888 1054.5889 3267.7825 6833195
2241.5273 1051.1558 3257.1448 4727823
2235.2534 1039.2673 3220.3066 11372911
2269.0513 1046.0533 3241.334 10581857
2281.2871 1042.8685 3231.4658 10252634
2297.5994 1041.5848 3227.488 9660755
2317.6741 1042.0139 3228.8176 9923927
2334.9768 1041.1998 3226.2952 9989720
2339.55 1034.7689 3206.3679 10121049
2360.2815 1035.5306 3208.7283 9726804
2366.8564 1030.119 3191.9595 11437165
2378.6826 1027.0602 3182.4817 12094835
2396.3987 1026.573 3180.9717 10317654
2420.8997 1028.9771 3188.4211 9199173
2474.7861 1043.7372 3234.1575 9330505
2478.7373 1037.3723 3214.4348 10713191
2486.5376 1032.703 3199.9663 10977390
2541.9663 1047.7355 3246.5466 8019535
2635.2361 1078.0223 3340.3945 8480341
2635.1074 1069.9352 3315.3352 8611674
2738.3267 1103.6195 3419.7104 9533290
2669.2002 1067.8593 3308.9028 8809053
2663.8589 1057.9528 3278.2061 7954004
2690.3621 1060.7451 3286.8586 5914676
2733.2561 1069.9135 3315.2681 5585452
2762.4373 1073.6215 3326.7578 9730153
2766.2432 1067.4847 3307.7422 11769733
2784.115 1066.8241 3305.6953 10716274
2807.6953 1068.3448 3310.4075 10847859
2827.519 1068.425 3310.656 11175795
2807.158 1053.4242 3264.1738 10583144
2826.2322 1053.326 3263.8696 9464663
2841.8489 1051.9493 3259.6035 10385765
2843.0789 1045.3016 3239.0049 11043441
2892.4241 1056.3148 3273.1309 11175283
2903.3938 1053.26 3263.665 11240822
2934.6233 1057.5465 3276.9473 13017490
2980.7998 1067.1277 3306.636 7096636
3006.9792 1069.4717 3313.8989 7820614
3052.3657 1078.572 3342.0977 8017737
3088.0945 1084.1646 3359.4268 7820869
3113.0249 1085.9186 3364.8618 7425855
3127.6882 1084.0917 3359.2009 9597535
3138.9617 1081.1202 3349.9937 11571324
3177.511 1087.5214 3369.8286 11374203
3186.407 1083.7571 3358.1643 11373944
3195.1274 1079.9802 3346.4612 11505530
0 0 0 0
0 0 0 0
0 0 0 0
0 0 0 0
0 0 0 0
0 0 0 0
0 0 0 0
0 0 0 0
0 0 0 0
0 0 0 0
0 0 0 0
0 0 0 0
0 0 0 0
0 0 0 0
0 0 0 0
0 0 0 0
0 0 0 0
0 0 0 0
0 0 0 0
0 0 0 0
0 0 0 0
0 0 0 0
0 0 0 0
0 0 0 0
-809.65704 335.60611 1021.1741 19
-810.87775 338.6424 1030.4128 19
-809.64246 340.69125 1036.6471 19
-800.76709 339.53201 1033.1198 19
-745.0874 318.35663 968.68781 18
-737.53687 317.57648 966.31396 18
-769.94971 334.12659 1016.6722 18
-756.76843 330.9957 1007.1457 18
-732.47961 322.91821 982.56769 18
-718.74719 319.40247 971.87 18
-708.48956 317.38654 965.73602 18
-699.1012 315.73038 960.69672 18
-686.60229 312.63071 951.26508 18
-680.61139 312.46756 950.76868 19
-669.33203 309.85352 942.8147 19
-658.68445 307.49036 935.62415 19
-645.48572 303.88605 924.6571 19
-634.83502 301.42996 917.18372 19
-613.03015 293.58948 893.3269 19
-600.08514 289.89255 882.078 19
-591.32043 288.16785 876.83014 19
-579.00446 284.66663 866.1767 19
-567.57312 281.5416 856.66791 19
-568.63074 284.61111 866.00781 19
-563.72351 284.72385 866.35077 19
-601.39612 306.54236 932.73962 19
-606.52948 312.02591 949.42487 19
-599.09009 311.08359 946.5575 19
-597.92261 313.41095 953.63916 19
-596.16779 315.47189 959.91022 19
-593.82587 317.25891 965.34766 19
-587.76086 317.0722 964.7796 19
-586.32025 319.40103 971.86566 19
-575.78973 316.77515 963.87567 19
-574.72644 319.3573 971.7326 19
-563.52905 316.3035 962.44061 19
-561.75989 318.53339 969.22559 19
-555.00244 317.9516 967.45538 19
-544.20898 315.02139 958.53937 19
-537.4151 314.36899 956.55426 19
-531.75403 314.37241 956.5647 19
-526.50604 314.62271 957.32635 19
-521.05255 314.75436 957.72693 19
-514.23535 314.05609 955.60223 19
-509.63333 314.71014 957.59235 19
-504.47333 315.03049 958.56708 19
-499.80573 315.66913 960.51031 19
-495.06476 316.2756 962.35571 19
-491.87433 317.89835 967.29327 19
-484.19464 316.62369 963.41479 19
-475.81488 314.85538 958.0343 19
-469.85507 314.66504 957.45514 21
-464.13211 314.63065 957.3504 20
-469.4505 322.17279 980.29944 19
-459.69983 319.43277 971.96228 21
-455.2886 320.38055 974.84619 21
-449.23181 320.1799 974.2356 19
-442.56451 319.53317 972.26776 19
-435.68991 318.7178 969.78674 19
-427.60492 316.98331 964.50909 19
-421.79456 316.91089 964.2887 19
-416.63742 317.33401 965.57623 19
-408.85107 315.73853 960.72144 19
-402.92477 315.55466 960.16199 19
-396.99222 315.3605 959.57129 19
-390.79733 314.94937 958.32025 19
-384.60342 314.52692 957.03485 19
-378.44379 314.12024 955.79742 19
-372.42227 313.8176 954.87653 19
-366.43469 313.53467 954.01569 19
-360.5705 313.35007 953.45398 19
-354.59286 313.05951 952.56982 19
-349.13403 313.22491 953.07312 19
-342.52646 312.34827 950.40576 19
-336.67917 312.14722 949.79388 19
-330.75607 311.86783 948.94385 19
-324.96411 311.70456 948.44702 19
-319.2955 311.65594 948.29913 19
-313.35751 311.33798 947.33167 19
-307.53769 311.12793 946.6925 19
-302.11639 311.32077 947.27924 19
-296.43518 311.24799 947.05774 19
-291.24152 311.69415 948.41541 19
-284.9191 310.92618 946.07855 19
-279.39142 311.01196 946.33966 19
-271.40018 308.30276 938.09619 19
-265.43552 307.8306 936.65942 19
-261.63464 309.90118 942.95978 19
-256.04834 309.90118 942.95978 19
-249.66599 308.91623 939.96277 19
-244.29973 309.17224 940.74176 19
-237.90497 308.10818 937.50409 19
-231.41208 306.86319 933.71582 19
-224.53195 305.0311 928.14117 19
-218.76241 304.65366 926.99274 18
-212.86606 304.07565 925.23401 16
-206.686 303.05112 922.11652 14
-201.47502 303.43039 923.27063 12
-196.25818 303.82178 924.46149 11
-190.42902 303.26053 922.75372 11
-184.0174 301.71106 918.03906 11
-179.27017 302.87927 921.59369 11
-173.96002 303.13992 922.38678 12
-167.89415 302.05786 919.09436 12
-162.33963 301.8541 918.47424 14
-159.5262 306.9097 933.85736 15
0 0 0 0
0 0 0 0
-137.19565 294.59845 896.39697 18
-137.58269 307.32526 935.12177 15
-125.61367 292.3616 889.59076 13
0 0 0 0
-115.36024 293.09039 891.80835 14
-107.85236 287.16714 873.78522 11
0 0 0 0
0 0 0 0
0 0 0 0
0 0 0 0
0 0 0 0
0 0 0 0
0 0 0 0
0 0 0 0
-109.95513 515.40192 1568.2523 12
-99.388313 508.86804 1548.3712 11
-91.424568 515.68842 1569.1241 11
-82.775299 519.74829 1581.4774 11
-74.139473 524.9397 1597.2737 12
-64.997246 527.53998 1605.1858 14
-49.062973 466.45746 1419.3254 16
-41.185123 472.54492 1437.8481 18
-36.624332 529.78998 1612.0321 20
-24.640734 482.1702 1467.1356 21
-17.79929 538.10504 1637.3329 21
-7.3527503 488.50183 1486.4015 21
1.4649388 492.50592 1498.5851 21
10.52172 501.02115 1524.495 21
20.359615 521.685 1587.3705 21
30.124479 528.01117 1606.6195 20
40.272278 536.39996 1632.1447 20
51.972515 558.21454 1698.5215 20
62.127567 559.04797 1701.0576 19
71.891678 556.62195 1693.6758 19
82.534187 560.7583 1706.2616 19
92.792526 561.66656 1709.0253 19
103.1701 563.04681 1713.2252 19
116.06326 576.67902 1754.7048 19
127.09534 579.58295 1763.541 19
145.35101 612.4848 1863.6539 19
157.08031 615.18158 1871.8595 19
171.38747 626.95276 1907.6766 19
185.80875 637.65924 1940.254 19
204.00372 659.31433 2006.1455 19
199.57216 609.48462 1854.525 19
211.27184 611.54865 1860.8054 19
223.75862 615.57336 1873.0515 19
236.03181 618.65784 1882.437 19
252.18681 631.17957 1920.5377 19
314.88791 754.08789 2294.5203 19
342.51117 786.29626 2392.5232 19
365.71402 806.20026 2453.0867 19
385.40457 817.13611 2486.3618 19
304.67242 622.18817 1893.179 19
0 0 0 0
0 0 0 0
350.38483 644.37732 1960.6957 19
375.4375 668.29596 2033.4746 19
413.46188 713.09967 2169.8022 19
459.73264 768.9953 2339.8801 19
0 0 0 0
384.3576 606.34967 1844.9861 19
401.92206 616.52643 1875.9517 19
446.95074 667.15057 2029.9895 19
455.04358 661.43329 2012.5931 19
489.98322 694.03503 2111.793 19
517.44482 714.68494 2174.626 19
543.08765 731.88043 2226.948 19
571.50934 751.91638 2287.9128 19
593.74774 763.07739 2321.8733 18
610.83722 767.26538 2334.6165 18
630.29663 774.17883 2355.6526 18
647.01587 777.50006 2365.7583 18
0 0 0 0
902.80273 1039.8236 3163.95 18
925.58917 1044.3849 3177.8289 18
950.85303 1051.504 3199.4907 18
976.34491 1058.592 3221.0581 19
1013.578 1077.8947 3279.7915 19
1043.7894 1089.1444 3314.022 19
1002.001 1026.2373 3122.6099 19
1084.657 1090.7549 3318.9224 19
1125.95 1112.1201 3383.9319 19
1043.5367 1012.6885 3081.384 19
1061.7916 1012.6885 3081.384 18
1059.1797 993.12323 3021.8511 18
1099.4114 1013.7122 3084.4988 65551
1114.2216 1010.5713 3074.9417 65546
1114.0321 994.146 3024.9631 262147
1170.6577 1028.1389 3128.396 2431000
1163.4883 1005.9171 3060.78 4995893
1185.3317 1009.0759 3070.3918 8152669
1207.7209 1012.597 3081.1055 9599597
1227.8282 1014.1286 3085.7656 9664619
1240.5759 1009.6254 3072.0637 9466984
1255.2382 1006.7883 3063.4309 9664363
1280.9043 1012.7321 3081.5164 9401190
1308.161 1019.7487 3102.8662 9335398
1313.4041 1009.6482 3072.1331 8743004
1341.3789 1017.0598 3094.6846 8479832
1372.2914 1026.4688 3123.314 9532520
1387.4333 1023.988 3115.7656 9137763
1412.4904 1028.7939 3130.3894 9335399
1434.6927 1031.4232 3138.3896 9532777
1456.7938 1033.9133 3145.9663 9269606
1489.6985 1043.9111 3176.3875 9071970
1512.058 1046.3621 3183.8452 8809054
1518.3466 1037.7686 3157.6968 8743262
1545.4816 1043.459 3175.0115 8809055
1560.368 1040.8422 3167.0491 9269863
1581.6979 1042.5344 3172.1982 9269606
1602.5959 1043.9058 3176.3711 8743519
1611.934 1037.8026 3157.8005 9006947
1641.6244 1044.7926 3179.0693 9467499
1676.7059 1055.0161 3210.1772 9994356
1685.9609 1048.942 3191.6953 9731184
1708.6294 1051.2555 3198.7346 9402218
1728.8568 1052.0327 3201.0996 9139047
1751.2798 1054.1147 3207.4346 9073509
1782.1698 1061.1937 3228.9746 9007716
1810.7823 1066.7806 3245.9741 9204068
1817.2852 1059.3616 3223.3997 9467497
1827.0364 1053.9707 3206.9966 8940640
1840.8274 1050.9973 3197.949 8940896
1870.5072 1057.0637 3216.4075 9664106
1906.3438 1066.4517 3244.9734 9532777
1925.918 1066.6458 3245.5637 9269348
1946.3423 1067.302 3247.5605 9663078
1989.1447 1080.0967 3286.4919 9794152
2019.631 1086.0205 3304.5168 7752773
2032.7419 1082.5771 3294.0393 6631980
2091.363 1103.2059 3356.8081 5907484
2095.1492 1094.793 3331.2092 4595481
2102.7954 1088.5352 3312.1682 7885121
2124.1711 1089.4346 3314.905 8280647
2117.6294 1076.1305 3274.4236 8346439
2110.9646 1063.006 3234.4885 9069907
2127.3479 1061.6194 3230.2698 8872530
2171.0952 1073.7914 3267.3062 8676179
2182.2419 1069.767 3255.0608 9663074
2178.4951 1058.5759 3221.009 9465435
2229.488 1073.9474 3267.781 8346439
2239.7109 1069.5845 3254.5054 7161903
2214.9587 1048.736 3191.0681 7687480
2236.0757 1049.7745 3194.2285 10450015
2260.5823 1052.3737 3202.137 10384736
2277.7922 1051.561 3199.6646 10450270
2304.9121 1055.2991 3211.0383 10779236
2317.2849 1052.2794 3201.8501 10516063
2338.3533 1053.2252 3204.728 10778977
2337.9976 1044.5839 3178.4341 12292213
2361.0034 1046.4347 3184.0659 11304803
2364.4758 1039.6672 3163.4744 11107678
2391.2498 1043.1716 3174.1372 7948844
2423.1953 1048.8596 3191.4446 8343604
2452.5979 1053.3676 3205.1611 9989459
2483.6824 1058.5228 3220.8477 8872009
2503.4556 1058.8156 3221.7383 8083008
2494.334 1046.9756 3185.7117 8807248
2562.0959 1067.3422 3247.6829 8939863
2599.9414 1075.0353 3271.0911 8743513
2634.428 1081.236 3289.9583 8809050
2634.9192 1073.4955 3266.406 9138017
2660.4055 1075.9768 3273.9561 8808795
2669.4937 1071.8383 3261.3633 8151124
2695.7419 1074.5996 3269.7656 8282710
2727.0005 1079.3047 3284.082 8874588
2770.792 1088.8683 3313.1816 8677206
2793.363 1090.0165 3316.6758 8939352
2774.323 1075.0251 3271.0601 8873558
2790.1057 1073.6414 3266.8496 8083013
2805.4272 1072.1006 3262.1614 8609614
2820.5696 1070.5127 3257.3298 9530971
2850.3572 1074.4672 3269.3625 10057315
2848.29 1066.4414 3244.9419 11832958
2889.5427 1074.634 3269.8704 11109491
2882.5569 1064.8969 3240.2424 9662044
2901.6128 1064.8455 3240.0859 9859682
2936.0029 1070.3853 3256.9421 10056804
3005.8508 1088.6952 3312.6553 9465696
3016.7932 1085.5708 3303.1484 8216143
3038.6843 1086.4011 3305.675 7163199
3035.1663 1078.1947 3280.7046 7492935
3056.7173 1078.9414 3282.9766 7163968
3094.4949 1085.37 3302.5374 8348496
3101.4219 1080.9651 3289.1343 10585457
3151.1462 1091.4387 3321.0032 10058855
3143.2048 1081.933 3292.0793 11046005
0 0 0 0
0 0 0 0
0 0 0 0
0 0 0 0
0 0 0 0
0 0 0 0
0 0 0 0
0 0 0 0
0 0 0 0
0 0 0 0
0 0 0 0
0 0 0 0
0 0 0 0
0 0 0 0
0 0 0 0
0 0 0 0
0 0 0 0
0 0 0 0
0 0 0 0
0 0 0 0
0 0 0 0
0 0 0 0
0 0 0 0
0 0 0 0
0 0 0 0
-823.79114 350.23697 1046.8224 19
-817.09125 350.0235 1046.1843 19
-805.60468 347.74063 1039.3611 19
-757.13232 329.33463 984.34741 18
-749.34052 328.47531 981.77905 18
-776.56 343.06992 1025.4008 18
-739.08624 329.08899 983.61328 19
-739.72083 331.98904 992.28125 19
-725.75708 328.3313 981.34863 18
-715.84882 326.46399 975.7674 18
-707.99408 325.51038 972.91718 18
-697.90918 323.50739 966.93042 18
-702.93927 328.53561 981.95923 19
-675.83557 318.50391 951.97552 19
-666.13544 316.57425 946.20795 19
-651.68713 312.33612 933.54071 19
-640.8089 309.75119 925.81451 19
-618.36652 301.48349 901.10327 19
-604.61365 297.34525 888.7345 19
-594.62396 295.00131 881.7287 19
-581.14038 290.8671 869.37189 19
-576.06 290.9024 869.47754 19
-570.086 290.48306 868.22406 19
-626.28589 322.02475 962.49896 19
-619.01776 321.2121 960.07007 19
-608.70673 318.79077 952.83289 19
-606.65344 320.6893 958.50751 19
-604.93646 322.80319 964.82568 19
-603.24707 324.97226 971.30878 19
-598.78821 325.67682 973.41461 19
-589.26978 323.61646 967.25641 19
-583.60974 323.6554 967.3728 19
-592.22345 331.68948 991.38586 19
-581.19617 328.7739 982.67145 19
-566.26178 323.56671 967.10773 19
-560.6637 323.64252 967.33429 19
-555.00244 323.68301 967.45538 19
-549.41461 323.76761 967.70825 19
-542.23871 322.90833 965.13989 19
-537.32764 323.39383 966.59094 19
-531.98401 323.62662 967.2868 19
-527.17133 324.19098 968.97357 19
-522.23145 324.68866 970.46118 19
-515.297 323.9436 968.23425 19
-509.69669 324.02991 968.49219 19
-504.29065 324.24307 969.12927 19
-499.87939 325.10812 971.7149 19
-494.24536 325.18884 971.95605 19
-486.49765 323.86432 967.99719 19
-480.87796 323.94174 968.22864 19
-489.29684 333.59219 997.07294 21
-466.90744 322.2175 963.07501 21
-461.04684 322.1091 962.7511 21
-455.2991 322.07785 962.65765 21
-451.58618 323.50345 966.9187 21
-448.05997 325.10123 971.69421 19
-442.56451 325.29312 972.26776 19
-436.65329 325.18048 971.93109 19
-430.67719 325.01581 971.4389 19
-425.52948 325.48038 972.82745 19
-418.681 324.63889 970.31232 19
-412.63489 324.40479 969.61267 19
-406.21341 323.86481 967.99872 19
-399.84393 323.35144 966.46429 19
-393.42056 322.77887 964.75299 19
-387.13193 322.30167 963.32666 19
-380.88092 321.84198 961.95264 19
-374.5575 321.30618 960.3512 19
-368.60614 321.07794 959.66901 19
-362.68927 320.87305 959.0567 19
-356.80084 320.68719 958.50122 19
-351.06311 320.633 958.33923 19
-345.40906 320.65469 958.40399 19
-339.72037 320.64444 958.37335 19
-334.04324 320.64487 958.37469 19
-328.28677 320.5679 958.14465 19
-294.90115 293.034 875.84857 19
-289.76904 293.09125 876.01971 19
-284.64395 293.15787 876.21881 19
-279.58109 293.29218 876.62024 19
-274.28482 293.18213 876.29132 19
-269.07242 293.15921 876.22278 19
-263.82339 293.09464 876.02985 19
-280.396 317.75671 949.74225 19
-274.23251 317.13571 947.88611 19
-269.56589 318.25598 951.2345 19
-263.93054 318.25598 951.2345 19
-257.51807 317.2984 948.37238 19
-252.31068 317.8161 949.91974 19
-246.12283 317.09424 947.76215 19
-239.40993 315.64636 943.43463 19
-232.95059 314.47162 939.92346 19
-226.58252 313.36557 936.61755 19
-221.02745 313.35657 936.5907 18
-214.50154 311.9353 932.34265 16
-208.64478 311.43771 930.85541 14
-203.72691 312.35263 933.59003 12
-197.66879 311.52158 931.10608 11
-192.78938 312.55374 934.19116 11
-186.80034 311.79486 931.92285 11
-180.89526 311.13412 929.948 11
-174.53882 309.63113 925.45575 11
-168.84451 309.24341 924.29688 11
-163.09814 308.73111 922.76569 11
0 0 0 0
0 0 0 0
-145.34853 305.89087 914.27649 11
-139.36533 304.65179 910.573 11
-133.11008 302.69431 904.72223 12
0 0 0 0
0 0 0 0
-115.48609 298.69916 892.78119 10
0 0 0 0
0 0 0 0
0 0 0 0
0 0 0 0
0 0 0 0
-81.617874 291.08832 870.03314 10
0 0 0 0
0 0 0 0
0 0 0 0
0 0 0 0
-99.239777 517.26678 1546.0574 11
-91.260597 524.04272 1566.3099 11
-82.694031 528.59784 1579.9247 12
-74.212311 534.92737 1598.843 12
-64.998093 537.05652 1605.2069 15
-55.822201 540.2865 1614.8608 18
-46.541969 543.63373 1624.8655 21
-36.984074 544.6377 1627.8662 24
-24.654943 491.14484 1467.9816 26
-16.071222 494.62064 1478.3704 26
-7.8008718 527.61658 1576.9919 25
1.5392618 526.82141 1574.6151 25
11.033516 534.86249 1598.6492 23
20.727467 540.68457 1616.0507 23
30.577419 545.61121 1630.776 21
40.941887 555.14862 1659.2823 21
51.232025 560.18024 1674.3214 19
62.127567 569.12549 1701.0576 19
72.676559 572.84222 1712.1666 19
82.913055 573.48706 1714.0941 19
93.499634 576.14838 1722.0486 19
105.25867 584.80017 1747.9078 19
117.40494 593.86078 1774.989 19
128.49283 596.51837 1782.9321 19
142.06734 609.43933 1821.5516 19
153.63538 612.53613 1830.8077 19
170.52023 635.02466 1898.0237 19
186.09451 650.1521 1943.238 19
199.1792 655.32581 1958.7018 19
197.9319 615.3717 1839.283 19
210.75519 621.04999 1856.2549 19
222.90988 624.29272 1865.9469 19
275.43143 734.94086 2196.6628 19
288.44495 734.94086 2196.6628 19
256.76361 625.97699 1870.9811 19
267.49847 625.16077 1868.5415 19
279.06995 626.28693 1871.9075 19
291.18439 628.4989 1878.5188 19
304.064 632.13885 1889.3983 19
317.91196 637.46204 1905.3087 19
331.31815 641.5647 1917.571 19
349.44571 654.23474 1955.4406 19
372.31003 674.67529 2016.5354 19
397.50092 697.92993 2086.041 19
448.46841 763.67596 2282.5491 19
487.28159 805.48193 2407.5029 19
383.59668 616.0578 1841.3336 19
401.92206 627.64001 1875.9517 19
445.79068 677.41382 2024.7206 19
452.33212 669.34406 2000.6007 19
492.08932 709.58276 2120.8701 19
512.89465 721.16998 2155.5032 19
539.10217 739.60565 2210.6055 19
563.43994 754.66254 2255.6089 19
574.75421 751.98242 2247.5984 18
571.8996 731.30548 2185.7971 18
589.3161 736.89148 2202.4932 18
0 0 0 0
857.82446 1027.1547 3070.0601 19
877.17603 1028.5194 3074.1389 19
897.01489 1030.3882 3079.7246 19
920.22351 1035.9761 3096.4265 19
914.67432 1009.6034 3017.6011 19
917.42346 993.22559 2968.6494 19
960.85999 1020.6846 3050.7217 19
975.52362 1017.1296 3040.0964 19
1060.6029 1085.7916 3245.3198 19
1103.0367 1109.1276 3315.0686 18
978.59705 966.78735 2889.6282 18
995.71582 966.78735 2889.6282 18
1021.8872 975.42828 2915.4553 18
1057.4547 992.60199 2966.7856 65552
1147.2172 1059.2535 3166.0002 65551
1248.605 1134.3223 3390.3728 131084
1129.7072 1010.0588 3018.9624 262148
1155.2269 1016.7786 3039.0471 2036241
1190.2869 1031.5601 3083.2273 4732718
1197.1711 1021.8455 3054.1914 7363918
1207.6462 1015.4394 3035.0442 9007457
1223.0325 1013.2901 3028.6204 9599083
1242.1265 1014.2306 3031.4314 9467240
1243.2323 1000.6658 2990.8875 9532777
1272.7767 1010.0505 3018.9373 9795948
1296.5105 1014.6277 3032.6182 9598570
1332.3059 1028.39 3073.7524 9006433
1347.6116 1026.1787 3067.1431 9138019
1362.7277 1023.8839 3060.2839 9203299
1385.3545 1027.2184 3070.2502 9203813
1404.3541 1027.8116 3072.0239 9466985
1435.6715 1037.2897 3100.3525 9730157
1454.2405 1037.4336 3100.7827 9401191
1481.2181 1043.4978 3118.9077 9269605
1484.661 1033.0367 3087.6411 8940641
1512.9614 1039.9161 3108.2026 8940896
1523.1605 1034.3378 3091.5295 9204068
1542.0155 1034.7002 3092.6128 9796462
1556.264 1031.9994 3084.5403 9138277
1574.302 1031.8451 3084.0791 8875105
1606.0172 1040.5557 3110.1145 9203813
1641.4664 1051.4608 3142.7087 9336169
1661.0198 1052.0532 3144.479 9336169
1678.9302 1051.6033 3143.1345 9468012
1705.3546 1056.4377 3157.584 9271144
1725.5577 1057.3549 3160.3254 9204838
1745.4485 1058.063 3162.4419 9401705
1769.892 1061.4867 3172.675 8349015
1780.1302 1056.4083 3157.4961 9335655
1797.2498 1055.4768 3154.7119 9729899
1825.973 1061.3088 3172.1433 9465956
1842.8536 1060.2091 3168.8562 9924967
1858.1515 1058.2299 3162.9407 9529440
1879.8494 1059.8988 3167.9287 8476496
1880.8109 1049.9586 3138.2185 6764852
1945.5894 1075.49 3214.5293 6437684
1933.4592 1058.4247 3163.5227 7884359
1971.5895 1068.9366 3194.9421 9531493
1979.7748 1063.168 3177.7 9927018
2024.3894 1076.8867 3218.7039 9335138
2031.8502 1070.7695 3200.4204 8676950
2047.8632 1069.231 3195.8215 9334367
2068.9189 1070.3291 3199.104 9334366
2081.4282 1067.0262 3189.2322 9136731
2096.4624 1065.0654 3183.3716 9005402
2130.127 1072.52 3205.6526 9071195
2132.1753 1064.0649 3180.3809 9400163
2151.4478 1064.2782 3181.0183 9860711
2172.2324 1065.2294 3183.8613 9268831
2163.8198 1051.9695 3144.229 9005143
2208.2786 1064.4208 3181.4443 8609615
2224.9604 1063.3855 3178.3501 8609614
2234.1458 1058.8151 3164.6895 8938063
2256.1936 1060.3657 3169.3245 9135440
2270.46 1058.2639 3163.0422 11042667
2306.0393 1066.0492 3186.3115 11502960
2319.2781 1063.4641 3178.5852 11634545
2324.2725 1057.1708 3159.7751 9068873
2339.6938 1055.6826 3155.3274 9923668
2363.865 1058.1349 3162.657 9989974
2392.3645 1062.4709 3175.6169 9595473
2400.1865 1057.6278 3161.1411 9529425
2436.5947 1065.3585 3184.2473 9661525
2453.0623 1064.3186 3181.1392 9003598
2470.6914 1063.7948 3179.5735 7820093
2487.9382 1063.1155 3177.5432 8346954
2526.812 1071.6183 3202.9573 8808021
2553.093 1074.6937 3212.1494 8874585
2575.8154 1076.2367 3216.7612 8743513
2607.4341 1081.4469 3232.3337 8809306
2635.4622 1085.1027 3243.2605 8743259
2652.7476 1084.3143 3240.9045 8611673
2673.8953 1085.1047 3243.2671 8414297
2699.907 1087.8439 3251.4536 8545624
2701.6187 1080.8224 3230.4673 8742492
2723.0811 1081.7457 3233.2273 8545369
2753.8479 1086.3265 3246.9187 8545879
2775.073 1087.1061 3249.2485 7886923
2779.6921 1081.4143 3232.2363 7886922
2792.4917 1078.9612 3224.9043 8544853
2817.2036 1081.1129 3231.3354 8873560
2819.033 1074.5134 3211.6104 8939096
2844.9956 1077.1395 3219.4597 8544080
2855.502 1073.9178 3209.8303 8741458
2881.49 1076.5227 3217.616 8478286
2907.6372 1079.1523 3225.4756 9268314
2946.3887 1086.395 3247.1235 9531486
2975.0271 1089.8392 3257.4177 8479055
3019.0266 1098.83 3284.29 8414035
2989.4485 1081.097 3231.2883 8085329
3004.4055 1079.5929 3226.7927 8282705
3034.4187 1083.4839 3238.4221 8414034
3077.9426 1092.1199 3264.2341 8677204
3102.5447 1093.9758 3269.7817 9071963
3113.3623 1090.9785 3260.8232 9137496
0 0 0 0
0 0 0 0
0 0 0 0
0 0 0 0
0 0 0 0
0 0 0 0
0 0 0 0
0 0 0 0
0 0 0 0
0 0 0 0
0 0 0 0
0 0 0 0
0 0 0 0
0 0 0 0
0 0 0 0
0 0 0 0
0 0 0 0
0 0 0 0
0 0 0 0
0 0 0 0
0 0 0 0
0 0 0 0
0 0 0 0
0 0 0 0
0 0 0 0
0 0 0 0
-704.26678 307.03406 901.72656 19
-815.01959 358.03394 1051.5078 19
-685.22125 303.33261 890.85583 19
-674.5368 300.92056 883.77185 19
-665.3103 299.12625 878.5022 19
0 0 0 0
-749.9245 342.52811 1005.9688 19
-736.81952 339.23828 996.30695 19
-723.6524 335.86652 986.40442 19
-713.4187 333.81238 980.37164 19
-708.64233 334.29904 981.8009 19
-695.74524 330.93112 971.90967 19
-684.78253 328.43475 964.57812 19
-674.96606 326.45074 958.75128 19
-664.1474 323.94424 951.38995 19
0 0 0 0
-624.49182 309.86111 910.02924 19
-609.67542 305.14374 896.17493 19
-597.35498 301.60379 885.77844 19
-588.04883 299.53644 879.70679 19
-626.67352 322.06512 945.87122 19
-622.49994 322.8067 948.04907 19
-618.58301 323.69598 950.66089 19
-616.32214 325.47626 955.88928 19
-614.80127 327.68393 962.37299 19
-612.47864 329.50159 967.71124 19
-608.38251 330.39044 970.32178 19
-605.79742 332.12473 975.41522 19
-592.263 327.8317 962.80701 19
-588.8266 329.099 966.52893 19
-543.37274 306.67679 900.67725 19
-540.78296 308.24194 905.27405 19
-545.09741 313.81335 921.6366 19
-566.46936 329.41681 967.46234 19
-561.33362 329.76682 968.49017 19
-556.23553 330.14633 969.60486 19
-550.3515 330.06244 969.35846 19
-545.27606 330.46683 970.54614 19
-541.14532 331.45853 973.45856 19
-537.75055 332.92715 977.77185 19
-533.47119 333.87418 980.55316 19
-528.02606 334.10443 981.22937 19
-522.23737 334.11996 981.27502 19
-512.6814 331.69852 974.16345 19
-506.38461 331.35458 973.15338 19
-502.19009 332.3942 976.2066 19
-497.02417 332.80759 977.42059 19
-490.57541 332.36157 976.11078 19
-482.79449 330.99167 972.08746 19
-476.81985 330.84195 971.64783 20
-472.7547 332.02966 975.13599 20
-464.74973 330.44543 970.48334 21
-458.87711 330.35672 970.22278 20
-454.65414 331.46848 973.48779 21
-449.53345 331.9458 974.88971 19
-446.59692 334.06943 981.12659 19
-440.58014 333.91455 980.67169 19
-434.81955 333.95227 980.78247 19
-428.57556 333.61475 979.7912 19
-421.81332 332.85898 977.57166 19
-415.05341 332.08405 975.29572 19
-408.62823 331.55881 973.75317 19
-402.50137 331.26407 972.88757 19
-396.24673 330.8541 971.68347 19
-390.04257 330.47476 970.56946 19
-383.84634 330.09091 969.44208 19
-377.82028 329.84396 968.71686 19
-371.99011 329.76306 968.47925 19
-366.09958 329.62527 968.07452 18
-325.72491 297.94046 875.01959 19
-320.74866 298.13339 875.58624 19
-315.62976 298.19788 875.77557 19
-310.51083 298.26453 875.97131 19
-305.44406 298.38437 876.3233 19
-300.37405 298.50513 876.67798 19
-295.3382 298.66467 877.14655 19
-290.19376 298.7182 877.30371 19
-285.20139 298.93304 877.93469 19
-280.01245 298.94601 877.97278 19
-300.48737 326.87723 960.00378 19
-295.24954 327.37555 961.46735 19
-289.37326 327.17169 960.86865 19
-283.6514 327.1377 960.7688 19
-277.03796 326.05304 957.58325 19
-271.11346 325.75076 956.69556 19
-266.03769 326.47714 958.82886 19
-260.40305 326.53442 958.99701 19
-254.09447 325.73029 956.63544 19
-247.52512 324.54761 953.16199 19
-241.177 323.60657 950.39819 19
