# .PCD v0.7 - Point Cloud Data file format
VERSION 0.7
FIELDS x y z rgb
SIZE 4 4 4 4
TYPE F F F U
COUNT 1 1 1 1
WIDTH 1536
HEIGHT 1
VIEWPOINT 0 0 0 1 0 0 0
POINTS 1536
DATA ascii
0 0 0 0
0 0 0 0
0 0 0 0
0 0 0 0
0 0 0 0
0 0 0 0
0 0 0 0
0 0 0 0
0 0 0 0
0 0 0 0
-1353.8422 840.89569 1622.6536 16
-1340.8981 838.81183 1618.6326 16
-1329.0405 837.38263 1615.8746 16
-1317.0234 835.83142 1612.8812 16
-1101.2815 704.02142 1358.531 16
-1293.1006 832.73212 1606.9006 16
-1281.0555 831.09369 1603.739 16
-1269.6086 829.82184 1601.2847 16
-1257.613 828.16943 1598.0961 16
-1245.0449 826.11218 1594.1262 16
-1231.8102 823.57758 1589.2355 16
-1011.8899 681.75165 1315.5576 16
-982.59015 667.1496 1287.3805 16
-978.42456 669.51807 1291.9508 16
-972.33075 670.59387 1294.0269 16
-966.19495 671.65771 1296.0797 16
-959.79327 672.55225 1297.8058 16
-952.63898 672.92963 1298.5341 16
-945.28973 673.17426 1299.0061 16
-938.21002 673.61639 1299.8594 16
-931.32806 674.20917 1301.0032 16
-925.10846 675.29517 1303.0989 16
-920.21588 677.3764 1307.1149 16
-913.78351 678.34979 1308.9932 16
-906.94562 679.03625 1310.3179 16
-899.99158 679.64691 1311.4962 16
-892.77148 680.06543 1312.3038 16
-885.47882 680.43573 1313.0183 16
-895.15735 693.96924 1339.1337 14
-1038.4753 812.27502 1567.4252 14
-1028.5925 811.80396 1566.516 14
-874.41217 696.40222 1343.8285 14
-1009.106 811.05981 1565.0801 14
-999.26727 810.60004 1564.193 14
-988.86926 809.67371 1562.4054 14
-978.5437 808.78973 1560.6996 14
-968.74689 808.33002 1559.8125 13
-959.16211 808.0401 1559.2532 15
-817.56219 695.44781 1341.9868 14
-807.58911 693.71021 1338.6338 14
-773.42468 670.95197 1294.7178 14
-807.38037 707.4245 1365.0979 14
-746.55066 660.74402 1275.0198 14
-789.09918 705.54065 1361.4626 14
-779.10962 703.80267 1358.1089 14
-770.88989 703.64386 1357.8025 14
-876.74817 808.70648 1560.5389 14
-867.54718 808.7475 1560.6182 14
-858.50482 808.93884 1560.9874 12
-849.57819 809.24469 1561.5775 11
-840.39972 809.31464 1561.7125 11
-830.53424 808.71716 1560.5596 12
-821.27167 808.70001 1560.5265 12
-812.29095 808.96307 1561.0342 13
-803.04303 808.96307 1561.0342 13
-794.29492 809.47247 1562.0171 13
-785.09283 809.5257 1562.1198 12
-775.06537 808.71912 1560.5632 12
-765.15344 808.01495 1559.2045 12
-755.75806 807.8457 1558.8779 12
-746.44269 807.75891 1558.7104 12
-643.65454 705.25189 1360.9054 12
-640.00452 710.14771 1370.3528 12
-718.85315 807.8858 1558.9553 12
-709.87775 808.18201 1559.527 12
-701.17804 808.80408 1560.7273 12
-692.22198 809.14307 1561.3815 12
-683.07349 809.26337 1561.6136 12
-674.05432 809.54218 1562.1516 12
-664.77069 809.50684 1562.0834 13
-655.263 809.1936 1561.479 14
-646.16376 809.38324 1561.8448 13
-534.27283 678.95111 1310.1536 13
-529.6806 683.03809 1318.0402 12
-530.11029 693.82031 1338.8462 12
-521.59613 693.04633 1337.3527 12
-519.39301 700.76324 1352.2439 14
-515.47717 706.375 1363.0726 14
-514.08887 715.68396 1381.036 14
-568.26245 803.8949 1551.2543 14
-558.97467 803.75439 1550.983 14
-551.28906 805.95129 1555.2224 14
-540.23395 803.2132 1549.9387 14
-530.18384 801.90039 1547.4055 14
-520.02118 800.36835 1544.4491 14
-509.88385 798.82098 1541.4633 14
-499.74792 797.21942 1538.3728 14
-489.51947 795.40802 1534.8773 14
-478.87299 792.83606 1529.9142 14
-467.94287 789.68604 1523.8358 14
-457.54156 787.32208 1519.2742 14
-427.45798 750.31512 1447.8628 14
-416.80505 746.59753 1440.689 14
-407.40158 745.00922 1437.6241 14
-402.0535 750.92761 1449.0447 14
-393.78799 751.53625 1450.2192 14
-396.76532 774.1076 1493.7744 14
-375.94879 750.22656 1447.6919 14
-365.40457 746.20813 1439.9376 14
-355.40247 743.13104 1433.9999 14
-347.78555 745.01282 1437.6311 14
-338.73569 743.84235 1435.3724 14
-322.65851 726.78271 1402.4529 14
-313.28897 724.32941 1397.7189 14
-303.97055 721.86432 1392.962 14
-296.16809 722.96228 1395.0807 14
-290.48706 729.45038 1407.6007 14
-280.78293 725.9209 1400.7899 14
-279.64395 744.99475 1437.5962 14
-264.85983 727.77307 1404.364 14
-256.4949 727.64502 1404.1169 14
-248.17397 727.63733 1404.1021 14
-250.09711 758.70605 1464.0544 13
-241.92867 760.29291 1467.1166 13
-233.70184 761.80762 1470.0396 13
-224.43996 759.93518 1466.4263 12
-215.13672 757.76617 1462.2408 11
-210.24759 771.61511 1488.9647 11
-201.49036 771.85919 1489.4358 8
-193.36226 774.64606 1494.8136 9
-184.64787 775.23901 1495.9578 6
-175.25786 772.91211 1491.4677 7
-166.67378 774.08118 1493.7235 4
-160.0714 785.10089 1514.9879 5
-157.96567 820.79462 1583.8651 5
-151.59309 837.4256 1615.9575 5
-143.86217 848.28925 1636.9208 5
-136.07614 860.375 1660.2423 5
-127.32434 867.76178 1674.4963 5
-118.60942 876.66949 1691.6854 5
-108.4048 875.19458 1688.8392 5
-97.4244 866.51965 1672.0995 4
-85.696075 848.47583 1637.2808 7
0 0 0 0
0 0 0 0
-56.189838 842.36871 1625.4961 7
-47.576622 860.76093 1660.9871 9
0 0 0 0
0 0 0 0
-18.15151 865.2934 1669.7333 9
0 0 0 0
0 0 0 0
0 0 0 0
0 0 0 0
31.132206 860.43823 1660.3643 7
40.557182 851.79785 1643.6913 7
50.914291 862.29004 1663.9376 7
0 0 0 0
76.032646 928.25665 1791.2317 7
89.907066 963.21191 1858.684 7
97.895615 934.36176 1803.0126 7
110.56023 951.4278 1835.9443 7
118.10538 925.32703 1785.5785 7
135.6716 975.57629 1882.5431 7
156.03833 1036.7994 2000.684 7
169.20975 1044.9445 2016.401 7
176.27902 1016.8166 1962.1234 7
187.67538 1015.5844 1959.7457 7
202.0063 1029.4508 1986.5032 7
212.95615 1025.5084 1978.8958 7
246.27165 1124.0615 2169.071 7
258.4747 1121.2548 2163.655 7
272.93808 1128.0553 2176.7776 7
291.98871 1152.3458 2223.6504 7
306.78003 1158.4553 2235.4399 7
325.22629 1177.2897 2271.7842 7
385.72916 1340.8187 2587.3416 7
332.23602 1110.7351 2143.3555 7
350.75671 1129.4858 2179.5383 7
368.68414 1145.0626 2209.5964 7
385.11459 1155.0812 2228.929 7
394.74905 1144.728 2208.9507 9
404.1199 1134.2992 2188.8264 9
415.20309 1129.1758 2178.9399 10
437.23911 1153.2502 2225.3958 11
451.19022 1155.215 2229.187 12
466.0928 1159.4348 2237.3298 12
486.3371 1176.3417 2269.9546 14
500.20493 1177.3306 2271.8628 14
516.34894 1183.4845 2283.738 16
569.69226 1272.4091 2455.3333 16
587.74963 1280.0566 2470.0906 16
571.36542 1214.1445 2342.9019 16
589.09552 1222.1322 2358.3154 17
643.53345 1304.1392 2516.562 17
628.86261 1245.5526 2403.5093 16
644.94012 1249.1136 2410.3809 16
625.33441 1184.9065 2286.4819 16
655.85089 1216.3817 2347.2188 16
673.7655 1223.6628 2361.269 15
671.4671 1194.6847 2305.3506 16
687.26617 1198.4192 2312.5569 16
706.0838 1207.1683 2329.4402 16
723.09003 1212.5447 2339.8147 16
743.90076 1223.9785 2361.8782 16
759.72528 1226.9374 2367.5879 16
813.67499 1290.2441 2489.7493 16
813.51392 1267.0209 2444.936 15
831.22131 1271.953 2454.4534 15
836.83472 1258.5271 2428.5457 14
853.24518 1261.5184 2434.3179 14
868.46082 1262.6731 2436.5461 14
884.64954 1265.1816 2441.3867 14
902.03827 1269.2981 2449.3301 15
918.7948 1272.4087 2455.3328 15
958.15436 1306.2367 2520.6096 14
989.13177 1327.7747 2562.1707 16
1080.3337 1428.283 2756.1189 14
1097.4866 1429.3573 2758.1921 14
1023.0587 1312.8761 2533.4214 14
1015.8603 1284.7902 2479.2249 14
1027.0779 1280.4641 2470.877 14
1042.7745 1281.7655 2473.3882 14
1062.4508 1287.8546 2485.1382 13
1077.9775 1288.8162 2486.9937 13
1098.6975 1295.8768 2500.6184 13
1114.7087 1297.2699 2503.3066 13
1129.6097 1297.3514 2503.4639 14
1141.9495 1294.527 2498.0137 14
1157.1909 1295.0225 2498.9697 14
1171.6508 1294.6416 2498.2349 14
1185.7843 1293.9144 2496.8315 14
1198.8418 1292.0453 2493.2246 14
1211.5649 1289.8655 2489.0186 14
1217.0629 1280.1388 2470.249 16
1227.7202 1276.0052 2462.2729 16
1227.7157 1261.0181 2433.3523 16
1237.1064 1255.9166 2423.5083 16
1254.9731 1259.4384 2430.3042 16
1268.922 1258.993 2429.4448 16
1287.7668 1263.3608 2437.8733 16
1300.9702 1262.1587 2435.5535 16
1312.8015 1259.6664 2430.7441 16
1324.2114 1256.8282 2425.2673 16
1335.3741 1253.819 2419.4604 16
1346.0283 1250.4011 2412.865 16
1358.6373 1248.8518 2409.8755 16
1366.3618 1242.8917 2398.3745 16
1373.8235 1236.8176 2386.6536 16
1384.8676 1234.0597 2381.3315 16
1392.9238 1228.7218 2371.0312 16
1402.7668 1225.0509 2363.9475 16
1414.2096 1222.8357 2359.6729 16
1428.2002 1222.8456 2359.6919 16
1435.1566 1216.8906 2348.2009 16
1445.1801 1213.6257 2341.9006 16
1452.853 1208.4678 2331.9475 16
1486.9358 1225.1676 2364.1726 16
1493.2074 1218.8544 2351.9902 16
1524.6609 1233.0228 2379.3308 16
1532.923 1228.3483 2370.3105 16
1530.693 1215.4276 2345.3777 16
1539.5388 1211.4547 2337.7114 16
1544.8865 1204.8246 2324.9175 16
1561.7463 1207.2104 2329.5215 15
1565.8846 1199.807 2315.2351 16
1567.3195 1190.4786 2297.2344 16
1578.1976 1188.4221 2293.2659 16
1579.9408 1179.5803 2276.2043 16
1563.269 1157.2562 2233.126 16
1562.735 1147.1527 2213.6296 16
1564.2422 1138.7035 2197.3252 16
1565.4133 1130.151 2180.8218 16
1575.8894 1128.4012 2177.4453 16
1581.1538 1122.9785 2166.9812 16
1586.8737 1117.9639 2157.3047 16
1592.9366 1113.2693 2148.2456 16
1590.8164 1102.9753 2128.3816 16
1607.8234 1106.0006 2134.2195 16
1614.5012 1101.9288 2126.3623 16
1626.1656 1101.2972 2125.1436 16
1538.2274 1033.739 1994.7783 16
1663.5735 1109.4524 2140.8801 16
1666.5172 1103.0063 2128.4414 16
1668.9556 1096.3251 2115.5488 16
1665.1216 1085.6537 2094.9565 16
1550.1384 1003.2077 1935.8628 16
1548.3809 994.711 1919.4669 16
1555.5114 992.00653 1914.248 16
1558.131 986.48523 1903.5938 16
1562.3412 982.04297 1895.0217 16
1559.7832 973.44025 1878.4213 16
1567.3589 971.23883 1874.1733 16
1572.4965 967.56824 1867.0902 16
1580.6469 965.78986 1863.6586 65552
1587.6399 963.3338 1858.9192 14
1591.8309 959.22314 1850.9868 196622
1589.9023 951.50635 1836.0961 196620
1600.1849 951.15277 1835.4137 393224
1628.6107 961.5155 1855.4104 720899
1656.5579 971.45862 1874.5974 2955805
1672.7985 974.44995 1880.3696 5454388
1683.2588 974.05676 1879.611 7163460
0 0 0 0
1690.5365 965.49408 1863.0879 9005402
1704.8523 967.35443 1866.6776 8150093
1703.3197 960.25598 1852.98 8544851
1731.7483 970.03113 1871.8429 8215886
1738.3253 967.51984 1866.9968 7755334
1761.7139 974.33789 1880.1534 7952714
1755.7938 964.96277 1862.0626 8479829
1763.3599 963.07025 1858.4106 8808794
1786.2423 969.51447 1870.8457 8808539
0 0 0 0
0 0 0 0
0 0 0 0
0 0 0 0
0 0 0 0
0 0 0 0
0 0 0 0
0 0 0 0
0 0 0 0
0 0 0 0
0 0 0 0
0 0 0 0
0 0 0 0
0 0 0 0
0 0 0 0
0 0 0 0
0 0 0 0
-1353.8595 850.51953 1622.6743 16
-1341.0867 848.52032 1618.8602 16
-1019.5397 649.72034 1239.5771 16
-1007.3463 646.60724 1233.6378 16
-1006.0174 650.47351 1241.014 16
-1003.2295 653.44635 1246.6858 16
-990.4646 649.91656 1239.9515 16
-982.88782 649.76385 1239.6602 16
-975.50586 649.73859 1239.6119 16
-967.68005 649.4151 1238.9948 16
-959.89062 649.11121 1238.415 16
-952.0733 648.78375 1237.7902 16
-944.24152 648.4411 1237.1365 16
-936.44153 648.11517 1236.5146 16
-928.7254 647.84259 1235.9946 16
-920.91248 647.49768 1235.3365 16
-937.33746 664.3255 1267.4418 16
-929.21454 663.8866 1266.6044 16
-921.0929 663.44147 1265.7551 16
-913.32257 663.24414 1265.3787 16
-905.87225 663.27783 1265.443 16
-898.91998 663.67987 1266.21 16
-892.75702 664.67633 1268.1111 16
-885.85907 665.13782 1268.9916 16
-1083.8557 820.76685 1565.9104 16
-1074.579 820.76685 1565.9104 16
-1065.538 820.94855 1566.257 16
-1056.8293 821.39185 1567.1028 15
-1047.6857 821.50183 1567.3125 14
-1038.4171 821.51477 1567.3373 14
-1028.5569 821.05585 1566.4617 14
-1018.8356 820.70044 1565.7837 14
-1008.9511 820.20581 1564.84 14
-999.19537 819.80768 1564.0803 14
-988.86926 818.92975 1562.4054 14
-816.17859 682.30286 1301.7401 14
-968.67487 817.51001 1559.6967 13
-959.31586 817.40857 1559.5032 14
-949.70789 817.09094 1558.8972 14
-793.73077 689.60034 1315.6627 13
-773.60193 678.77765 1295.0145 14
-760.14069 673.64716 1285.2262 14
-746.56 668.30579 1275.0356 14
-735.41217 665.05548 1268.8345 14
-720.0614 657.89789 1255.1787 14
-708.31024 653.91412 1247.5782 14
-696.68964 649.96802 1240.0497 14
-867.50946 817.95734 1560.5503 11
-858.6098 818.2865 1561.1782 11
-849.45007 818.37231 1561.3419 12
-840.02124 818.19788 1561.009 12
-830.55219 817.97992 1560.5934 12
-821.30084 817.97394 1560.5819 12
-812.2052 818.12469 1560.8695 12
-803.38074 818.55505 1561.6906 12
-794.43115 818.86664 1562.285 12
-785.60962 819.31909 1563.1482 11
-775.73792 818.67389 1561.9174 12
-765.84845 817.99432 1560.6207 12
-756.57965 817.96912 1560.5726 12
-746.73712 817.31531 1559.3253 12
-736.97089 816.72968 1558.2079 12
-728.06628 817.09619 1558.9072 12
-719.22064 817.53912 1559.7523 12
-710.13599 817.71838 1560.0942 12
-701.26086 818.14685 1560.9117 12
-692.11072 818.26154 1561.1306 12
-683.3219 818.81232 1562.1814 12
-674.26776 819.05591 1562.6462 12
-665.01172 819.0578 1562.6497 12
0 0 0 0
0 0 0 0
0 0 0 0
-551.91931 719.85187 1373.3784 12
-527.65125 698.4967 1332.6357 12
-518.82092 697.23944 1330.2371 11
-517.93854 706.78937 1348.457 12
-514.31982 712.84601 1360.0122 11
-512.95831 722.27368 1377.9989 14
-523.17596 748.57404 1428.1764 14
-559.6134 813.8717 1552.7554 14
-550.02417 813.29437 1551.6539 14
-540.47968 812.76489 1550.6437 14
-530.45972 811.48969 1548.2108 14
-520.41534 810.13153 1545.6198 14
-510.10907 808.30988 1542.144 14
-500.05685 806.8316 1539.3237 14
-489.71991 804.83038 1535.5059 14
-479.3508 802.69971 1531.4407 14
-468.54132 799.73499 1525.7845 14
-438.95523 763.97424 1457.5579 14
-429.25351 762.08032 1453.9446 13
-437.77795 793.12939 1513.1819 14
-427.6123 790.90765 1508.9431 14
-418.03751 789.70721 1506.6528 14
-407.78421 787.14453 1501.7637 14
-398.02237 785.43762 1498.507 14
-387.71988 782.56134 1493.0195 14
-365.73444 755.41992 1441.2374 14
-355.73752 752.33496 1435.3518 14
-343.78342 744.8584 1421.0875 14
-339.58841 754.23975 1438.9857 14
-330.90729 753.88373 1438.3066 14
-322.13611 753.2984 1437.1898 14
-313.34229 752.62683 1435.9086 14
-304.76477 752.45184 1435.5747 14
-296.17664 752.23993 1435.1704 14
-288.25534 753.75909 1438.0688 14
-280.27652 755.21582 1440.848 14
-271.25952 753.87885 1438.2972 14
-257.22546 738.05957 1408.1162 14
-258.78094 767.41028 1464.1134 14
-250.87682 769.77179 1468.6188 12
-243.61194 774.33478 1477.3243 11
-237.59523 783.35303 1494.5299 12
-228.45554 782.37445 1492.6628 12
-219.5623 782.19501 1492.3207 11
-210.69339 782.09082 1492.1218 11
-202.73079 785.48907 1498.6052 8
-194.17213 786.78333 1501.0745 9
-185.34747 787.07227 1501.6257 6
-174.15904 776.84668 1482.1167 7
-168.1474 789.85254 1506.9301 4
-162.53885 806.31653 1538.3411 5
-157.19109 826.10699 1576.0985 5
-151.12679 844.39355 1610.9868 5
-143.35101 854.93823 1631.1046 5
-134.55307 860.47052 1641.6595 5
-126.64695 873.01239 1665.5878 5
-117.63418 879.40082 1677.7759 5
-107.8961 881.04584 1680.9143 5
-96.887802 871.59827 1662.8898 5
-85.493828 856.15009 1633.4167 5
-74.812393 844.80469 1611.7712 5
-66.041176 854.86615 1630.967 5
-55.990532 848.9765 1619.7305 5
-47.308445 865.69366 1651.6246 7
0 0 0 0
0 0 0 0
0 0 0 0
0 0 0 0
0 0 0 0
0 0 0 0
0 0 0 0
0 0 0 0
0 0 0 0
0 0 0 0
61.297009 879.68439 1678.3169 7
76.727501 947.44855 1807.6016 7
89.53875 970.23212 1851.0696 7
101.5936 980.74188 1871.1207 7
109.68502 954.68665 1821.4109 7
128.27394 1016.4842 1939.3121 7
135.69913 986.92908 1882.925 7
158.60706 1065.9152 2033.6195 7
164.00887 1024.405 1954.4242 7
175.26485 1022.5237 1950.8348 7
188.32458 1030.7476 1966.5248 7
201.4296 1038.2466 1980.8318 7
222.50294 1083.731 2067.6096 7
246.69958 1138.8871 2172.8401 7
258.4747 1134.0728 2163.655 7
274.90497 1149.173 2192.4641 7
291.98871 1165.5192 2223.6504 7
306.78003 1171.6986 2235.4399 7
325.22629 1190.7484 2271.7842 7
301.41489 1059.7145 2021.7897 7
0 0 0 0
321.67917 1047.6937 1998.8557 9
362.18509 1137.7372 2170.6462 9
386.35638 1172.0531 2236.1162 10
396.78436 1163.7839 2220.3398 10
410.42188 1165.1572 2222.96 11
426.10617 1172.0751 2236.1582 12
434.01849 1157.8423 2209.0039 12
451.82468 1170.0642 2232.3218 14
467.81763 1177.0289 2245.6094 14
527.5965 1290.7277 2462.531 14
499.61658 1189.3888 2269.1904 14
516.00653 1196.2201 2282.2236 16
532.81787 1203.6544 2296.4072 15
551.3775 1214.5698 2317.2322 18
606.716 1304.0027 2487.8579 18
657.86469 1380.4022 2633.6177 17
642.27289 1316.4642 2511.6328 16
659.57092 1321.3092 2520.8765 16
676.96033 1326.1187 2530.0522 16
662.77472 1270.2063 2423.3792 16
675.06091 1266.3224 2415.9692 16
693.15796 1273.2739 2429.2317 15
687.44196 1237.0896 2360.197 14
732.90179 1292.606 2466.1145 14
742.15131 1283.3369 2448.4304 15
725.73047 1230.8846 2348.3586 16
742.19421 1235.1307 2356.4597 16
744.52954 1216.1423 2320.2324 16
793.90601 1273.2881 2429.2588 16
811.61633 1278.5161 2439.2332 16
793.20392 1227.6536 2342.1943 16
858.14398 1305.328 2490.3865 16
846.75226 1266.2303 2415.7935 16
970.77466 1427.5645 2723.5967 16
923.76068 1336.2194 2549.3228 16
1007.5854 1434.0264 2735.9253 16
1025.8656 1436.9285 2741.4622 15
1043.0098 1438.1738 2743.8381 15
1061.2676 1440.8929 2749.0256 16
1007.8195 1347.6455 2571.1223 14
1023.7545 1348.5717 2572.8894 14
1114.754 1446.9011 2760.4885 13
1132.0574 1448.1156 2762.8057 16
1149.1361 1449.0127 2764.5171 15
1165.7147 1449.2625 2764.9937 17
1099.8696 1348.453 2572.6631 16
1116.5525 1350.1967 2575.9895 16
1059.1294 1263.4883 2410.562 16
1101.8297 1296.9406 2474.3843 16
1114.6492 1294.8038 2470.3079 16
1151.8453 1320.6722 2519.6611 16
1155.7249 1308.1676 2495.804 14
1138.8251 1272.7556 2428.2427 14
1155.4794 1275.2596 2433.0203 14
1169.153 1274.4528 2431.4807 13
1182.3859 1273.1912 2429.0737 16
1196.0889 1272.4598 2427.6785 16
1230.3967 1293.406 2467.6409 16
1242.3416 1290.6279 2462.3408 16
1252.1802 1285.7518 2453.0378 16
1261.2716 1280.2291 2442.5012 16
1271.9349 1276.4091 2435.2131 16
1283.7761 1273.8436 2430.3186 16
1294.9899 1270.7192 2424.3577 16
1307.8123 1269.2247 2421.5063 16
1318.7256 1265.9298 2415.2202 16
1329.7876 1262.847 2409.3386 16
1352.5504 1270.8234 2424.5564 16
1349.8447 1254.954 2394.2798 16
1359.2445 1250.5521 2385.8816 16
1370.7023 1248.1147 2381.2314 16
1381.6068 1245.2285 2375.7249 16
1393.9895 1243.7192 2372.8452 16
1405.3097 1241.3015 2368.2327 16
1417.59 1239.7712 2365.3132 16
1427.088 1235.8617 2357.8542 16
1439.0146 1234.1106 2354.5134 16
1446.288 1228.4407 2343.696 16
1474.5198 1240.511 2366.7246 16
1484.8079 1237.4 2360.7893 16
1493.8586 1233.3257 2353.0159 16
1503.8853 1230.1249 2346.9092 16
1530.7113 1240.598 2366.8906 16
1526.3046 1225.7976 2338.6536 16
1529.632 1217.4192 2322.6685 16
1547.7828 1220.8826 2329.2761 16
1553.4351 1214.5131 2317.124 15
1551.4861 1202.3646 2293.9463 16
1571.4851 1207.2882 2303.3401 16
1577.8376 1201.7339 2292.7429 16
1599.8092 1208.0684 2304.8284 16
1600.7637 1198.5597 2286.687 16
1593.3921 1183.0284 2257.0557 16
1564.1477 1151.6515 2197.1926 16
1566.1544 1143.6119 2181.8542 16
1567.2283 1135.0283 2165.478 16
1576.9198 1132.7748 2161.1785 16
1582.0928 1127.3375 2150.8052 16
1584.6609 1120.1462 2137.085 16
1591.6274 1116.1531 2129.4668 16
1597.0839 1111.1722 2119.9639 16
1604.1437 1107.3759 2112.7209 16
1620.584 1110.0637 2117.8491 16
1621.4204 1102.1041 2102.6633 16
1530.733 1032.5302 1969.9257 16
1665.6868 1115.0597 2127.3806 16
1667.7427 1108.0522 2114.0112 16
1665.0299 1098.0043 2094.8413 16
1668.3521 1092.0555 2083.4917 16
1545.0095 1003.8918 1915.2876 16
1551.3162 1000.641 1909.0854 16
1555.0093 995.76337 1899.7798 16
1557.9412 990.47211 1889.6847 16
1556.2559 982.34186 1874.1733 16
1562.6915 979.4165 1868.5922 16
1561.0345 971.49609 1853.4811 16
1572.5334 971.81653 1854.0924 16
1574.7284 966.42267 1843.8015 65549
1585.3859 966.26074 1843.4927 14
1585.3459 959.62579 1830.8341 196622
1593.1609 957.80334 1827.3572 196621
1603.8237 957.70618 1827.1718 196619
1632.7727 968.4563 1847.6816 327686
1640.7836 966.72699 1844.3822 918279
1677.3295 981.72168 1872.9901 2955287
1688.1176 981.54266 1872.6484 5191474
1690.5438 976.53577 1863.0961 6769731
1694.1761 972.28595 1854.988 7427398
1696.8521 967.54565 1845.9442 8215886
1712.9298 970.45886 1851.5022 8479057
1725.4352 971.32391 1853.1525 8939863
1728.5673 966.93463 1844.7784 8544595
1744.4117 969.66705 1849.9916 7558469
1748.2384 965.72681 1842.474 7821897
1743.3091 957.02856 1825.879 8479830
0 0 0 0
0 0 0 0
0 0 0 0
0 0 0 0
0 0 0 0
0 0 0 0
0 0 0 0
0 0 0 0
0 0 0 0
0 0 0 0
0 0 0 0
0 0 0 0
0 0 0 0
0 0 0 0
0 0 0 0
0 0 0 0
0 0 0 0
-1353.7679 860.07446 1622.5647 16
-1341.0768 858.10455 1618.8483 16
-1329.2048 856.63416 1616.0743 16
-1317.1443 855.01996 1613.0292 16
-1305.399 853.58844 1610.3285 16
-1293.2007 851.83734 1607.025 16
-1281.5339 850.41296 1604.3379 16
-1270.2451 849.22003 1602.0874 16
-1258.4233 847.65021 1599.1259 16
-1245.9891 845.64081 1595.3351 16
-1233.3512 843.46155 1591.2236 16
-1221.4561 841.76038 1588.0144 16
-984.10071 683.45215 1289.3596 16
-979.3009 685.43896 1293.1079 16
-973.72852 686.91211 1295.8871 16
-967.71423 688.09454 1298.1177 16
-961.11664 688.87775 1299.5953 16
-953.85089 689.19086 1300.1859 16
-946.40607 689.3786 1300.5402 16
-939.1391 689.70007 1301.1466 16
-932.3924 690.41211 1302.4899 16
-927.04633 692.18188 1305.8286 16
-922.51758 694.59668 1310.3843 16
-915.81293 695.40033 1311.9004 16
-908.71198 695.91425 1312.8699 16
-901.51587 696.36353 1313.7175 16
-894.32092 696.82153 1314.5815 16
-886.74945 696.99164 1314.9025 14
-879.03412 697.05066 1315.0138 14
-871.39349 697.17047 1315.2399 14
-883.15857 712.95844 1345.0244 14
-873.54419 711.61743 1342.4945 14
-863.50848 709.90533 1339.2646 14
-998.88812 828.81866 1563.5995 14
-844.30157 707.10919 1333.9896 14
-833.7951 704.90802 1329.837 14
-834.21045 711.98657 1343.1909 13
-959.21619 826.56146 1559.3411 14
-796.383 692.92053 1307.2222 14
-940.47516 826.32849 1558.9015 14
-931.52356 826.58014 1559.3763 13
-761.63306 682.59863 1287.7494 13
-746.74506 676.02704 1275.3518 14
-735.85425 672.97662 1269.5972 14
-894.94238 826.92322 1560.0234 14
-885.77631 826.99402 1560.1571 14
-876.508 826.96985 1560.1115 13
-867.27527 826.97913 1560.129 12
-858.58301 827.50946 1561.1295 12
-849.46741 827.63892 1561.3738 12
-840.0354 827.45953 1561.0354 12
-830.64233 827.31506 1560.7627 12
-821.35999 827.27875 1560.6943 12
-810.66772 825.80536 1557.9147 12
-699.55841 720.82794 1359.8706 12
-794.82196 828.52936 1563.0536 12
-785.67761 828.65125 1563.2836 11
-776.20325 828.42383 1562.8544 12
-766.96887 828.45001 1562.9039 12
-757.88794 828.64465 1563.2711 12
-748.01587 827.96844 1561.9955 12
-738.52289 827.7002 1561.4894 12
-659.37073 748.36426 1411.819 12
-720.3017 828.02216 1562.0968 12
-710.67603 827.5896 1561.2806 12
-701.6842 827.89337 1561.8539 12
-692.14465 827.55066 1561.2072 12
-683.32043 828.06531 1562.1781 12
-674.32043 828.37817 1562.7683 12
-665.03564 828.34503 1562.7058 12
0 0 0 0
-646.44092 828.24377 1562.5148 12
-637.11322 828.15137 1562.3406 12
-627.57007 827.77222 1561.6252 12
-617.60455 826.81628 1559.8218 12
-607.90607 826.19409 1558.6479 12
-524.51398 723.85248 1365.5764 12
-512.48663 718.33356 1355.1648 11
-511.33246 728.12207 1373.6312 14
-511.37543 739.95953 1395.963 14
-562.02411 826.61615 1559.4443 14
-550.05609 822.53448 1551.744 14
-540.66742 822.23676 1551.1824 14
-530.83105 821.23615 1549.2946 14
-521.12823 820.41052 1547.7371 14
-510.45795 818.00494 1543.1989 14
-500.39355 816.50031 1540.3602 14
-490.35385 814.98071 1537.4935 14
-480.39801 813.54578 1534.7864 14
-469.47757 810.39026 1528.8335 14
-458.74274 807.43732 1523.2627 14
-448.55048 805.34015 1519.3062 14
-438.5054 803.42664 1515.6963 14
-428.21472 800.97382 1511.0688 14
-418.35144 799.23273 1507.7843 14
-408.65399 797.73926 1504.9669 14
-398.46759 795.20349 1500.1831 14
-388.16003 792.30481 1494.7145 14
-377.6937 788.93903 1488.3649 14
-362.58572 775.48499 1462.9833 14
-351.89661 771.05438 1454.6248 14
-335.48239 753.54187 1421.5867 14
-336.81662 776.01965 1463.9919 14
-327.92249 775.4967 1463.0054 14
-318.30603 773.19073 1458.6552 14
-307.5412 767.88892 1448.653 14
-300.46475 771.75641 1455.9491 14
-293.61652 776.45599 1464.8151 14
-284.9856 776.58398 1465.0565 14
-276.30225 776.57263 1465.0352 14
-268.01639 777.71399 1467.1884 14
-259.97989 779.67975 1470.8967 13
-252.43257 783.29974 1477.7261 12
-247.18961 794.5871 1499.0203 12
-238.18944 794.18823 1498.2677 12
-229.29977 794.14111 1498.1788 11
-221.43663 797.7887 1505.0601 11
-212.30922 796.99628 1503.5651 11
-203.53719 797.52686 1504.566 8
-194.84375 798.42816 1506.2665 9
-185.52272 796.72089 1503.0455 6
-176.35287 795.52332 1500.7864 7
-167.51068 795.75513 1501.2238 4
-162.82295 816.85529 1541.0299 5
-156.94876 834.15625 1573.6689 5
-150.58319 850.86578 1605.1921 5
-142.25026 857.96216 1618.5798 5
-133.68941 864.61047 1631.1221 5
-124.88985 870.63068 1642.4794 5
-116.60473 881.55743 1663.0931 5
-106.88242 882.63287 1665.1221 5
-94.911819 863.4729 1628.976 5
-84.942284 860.24115 1622.8792 5
-74.775864 853.93604 1610.9843 5
-65.882057 862.44531 1627.0375 5
-55.914749 857.4101 1617.5382 5
0 0 0 0
0 0 0 0
-27.943172 881.91418 1663.7662 7
0 0 0 0
0 0 0 0
0 0 0 0
0 0 0 0
0 0 0 0
0 0 0 0
0 0 0 0
0 0 0 0
61.297009 889.62708 1678.3169 7
73.050407 912.23834 1720.974 7
87.994041 964.27087 1819.1353 7
100.95262 985.56915 1859.3154 7
0 0 0 0
159.48969 1278.1327 2411.248 7
135.40781 995.94122 1878.8827 7
157.68848 1071.7196 2021.8418 7
170.32393 1075.8737 2029.6783 7
174.61713 1030.2593 1943.6252 7
184.34343 1020.3617 1924.9529 7
199.85834 1041.7911 1965.3804 7
228.6291 1126.1553 2124.5369 7
244.60748 1141.9922 2154.4136 7
258.4747 1146.8907 2163.655 7
274.90497 1162.1616 2192.4641 7
292.34116 1180.1154 2226.3345 7
306.78003 1184.9419 2235.4399 7
325.22629 1204.2069 2271.7842 9
373.90619 1329.4376 2508.0369 9
0 0 0 0
343.45242 1131.2515 2134.1509 12
380.3165 1208.1968 2279.3113 12
389.5498 1195.0973 2254.5986 12
395.51874 1173.1838 2213.2578 13
416.36581 1195.3916 2255.1538 12
438.97299 1221.115 2303.6819 13
461.45544 1244.9504 2348.6484 13
479.21472 1255.0211 2367.6472 14
504.57608 1283.8619 2422.0566 14
534.96271 1323.5408 2496.9124 13
565.44727 1361.3202 2568.1846 13
587.12201 1376.4657 2596.7573 16
605.34833 1382.9596 2609.0083 16
548.94012 1222.8679 2306.9888 16
570.79065 1240.655 2340.5449 16
589.1059 1250.0967 2358.3569 16
605.45538 1255.026 2367.6565 16
659.08197 1335.2528 2519.0076 16
676.35162 1339.9014 2527.7773 16
678.03223 1314.1345 2479.167 16
707.89313 1342.92 2533.4722 16
703.94666 1307.7072 2467.0415 16
712.62195 1296.897 2446.6477 16
731.33746 1304.4257 2460.8508 16
754.88947 1320.1178 2490.4548 16
773.74475 1327.1526 2503.7261 15
785.90082 1322.6478 2495.2278 16
814.25916 1345.0742 2537.5359 16
823.07477 1334.99 2518.5117 16
897.73163 1430.1549 2698.0442 16
849.82062 1330.1462 2509.3738 16
871.46967 1340.5804 2529.0583 16
948.70996 1434.7325 2706.6799 16
967.67413 1439.0887 2714.8979 16
924.6673 1352.6482 2551.8247 14
911.64594 1312.1475 2475.4182 13
915.54852 1296.9022 2446.6575 13
931.0722 1298.3373 2449.3647 14
971.03082 1333.2788 2515.2834 16
987.89453 1335.9327 2520.2903 15
1003.5292 1336.8705 2522.0593 15
1016.8041 1334.6832 2517.9329 16
1033.3854 1336.8364 2521.9951 15
1048.3586 1336.8777 2522.073 13
1063.8159 1337.5265 2523.2969 14
1079.1345 1337.9851 2524.1621 14
1097.1976 1341.7877 2531.3359 14
1089.5378 1314.455 2479.7715 16
1105.715 1316.2242 2483.1094 16
1128.8823 1326.1589 2501.8516 16
1255.3916 1455.6642 2746.1685 15
1139.1101 1303.9344 2459.9241 15
1191.1266 1346.2542 2539.762 16
1205.3407 1345.3256 2538.0103 16
1222.8376 1348.0387 2543.1287 16
1225.9221 1334.9911 2518.5137 16
1236.8435 1330.6888 2510.3975 16
1261.7737 1341.3816 2530.5696 16
1269.6172 1333.8715 2516.4016 16
1282.974 1332.261 2513.3633 16
1260.9232 1294.3416 2441.8267 16
1274.5375 1293.4772 2440.196 16
1287.7234 1292.2024 2437.7913 16
1304.0256 1294.0483 2441.2737 16
1305.77 1281.5658 2417.7249 16
1327.7594 1289.0083 2431.7654 16
1465.5377 1407.494 2655.2935 16
1475.5067 1402.0194 2644.9653 16
1387.918 1304.9351 2461.8118 16
1359.5098 1264.9333 2386.3472 16
1370.4739 1262.0115 2380.8347 16
1381.233 1258.9622 2375.082 16
1392.344 1256.2917 2370.0442 16
1404.0828 1254.2355 2366.165 16
1414.8052 1251.321 2360.6667 16
1425.5868 1248.5153 2355.3738 16
1436.3724 1245.7677 2350.1902 16
1477.6936 1269.302 2394.5886 16
1510.9597 1285.5354 2425.2136 16
1516.2042 1277.8466 2410.7083 16
1519.1593 1268.3896 2392.8677 16
1519.3093 1256.7875 2370.9795 16
1504.8875 1233.4541 2326.9602 16
1519.9651 1234.5035 2328.9399 16
1534.3058 1234.941 2329.7654 16
1541.0238 1229.29 2319.1045 16
1535.3375 1213.9313 2290.1296 16
1544.4868 1210.4688 2283.5974 16
1559.8416 1211.8876 2286.2742 16
1574.6477 1212.8595 2288.1077 16
1577.8312 1204.9388 2273.165 16
1584.0369 1199.4407 2262.7925 16
1593.9611 1196.8269 2257.8616 16
1584.2971 1179.6713 2225.4968 16
1562.0681 1153.52 2176.1614 16
1563.7903 1145.339 2160.7275 16
1571.3566 1141.5365 2153.554 16
1583.2625 1140.9222 2152.3953 16
1588.4255 1135.4978 2142.1619 16
1595.2867 1131.3636 2134.3625 16
1595.0057 1122.2692 2117.2053 16
1603.1013 1119.1646 2111.3484 16
1622.4207 1123.8827 2120.2495 16
1621.4622 1114.5896 2102.7175 16
1624.4678 1108.1422 2090.5544 16
1533.874 1038.426 1959.0321 16
1669.9926 1122.0876 2116.863 16
1668.2264 1112.5465 2098.863 16
1673.2666 1107.6519 2089.6292 16
1677.7407 1102.4573 2079.8293 16
1673.0032 1091.3293 2058.8362 16
1550.1125 1003.8471 1893.7975 16
1550.8372 997.09967 1881.0681 16
1551.4174 990.35626 1868.3464 16
1557.2983 987.06818 1862.1434 16
1556.7231 979.76306 1848.3619 16
1570.5355 981.552 1851.7368 16
1569.2007 973.91492 1837.3292 15
1582.5743 975.44904 1840.2234 14
1583.6276 969.42004 1828.8495 65549
1591.6119 967.68726 1825.5804 131085
1602.9131 967.98077 1826.1343 196621
1611.6082 966.70709 1823.7313 196620
1623.524 967.36951 1824.981 262155
1634.7865 967.63635 1825.4845 458758
1656.0411 973.77527 1837.0658 1179910
1684.8081 984.22241 1856.7748 3415839
1690.3728 981.06799 1850.8237 6177340
1684.9543 971.62067 1833.0011 7426630
1702.84 975.64655 1840.5961 7953486
1701.8073 968.85083 1827.7756 7492162
1709.1835 966.89807 1824.0917 6768441
1720.5364 967.20526 1824.6711 7689542
1732.507 967.85382 1825.8947 7492163
1740.9403 966.5304 1823.3981 7031612
0 0 0 0
0 0 0 0
0 0 0 0
0 0 0 0
0 0 0 0
0 0 0 0
0 0 0 0
0 0 0 0
0 0 0 0
0 0 0 0
0 0 0 0
0 0 0 0
0 0 0 0
0 0 0 0
0 0 0 0
0 0 0 0
0 0 0 0
-1353.6487 869.61035 1622.4218 16
-1341.1077 867.71484 1618.8855 16
-1329.2307 866.22498 1616.1058 16
-1317.1301 864.56665 1613.012 16
-1305.3218 863.07739 1610.2333 16
-1293.2937 861.41962 1607.1405 16
-1281.9186 860.1756 1604.8196 16
-1270.7942 859.0824 1602.78 16
-1259.1117 857.59265 1600.0006 16
-1246.7437 855.6098 1596.3011 16
-1234.0778 853.39062 1592.1609 16
-982.07056 684.35309 1276.7896 16
-984.94965 691.68677 1290.4719 16
-979.81433 693.46301 1293.7859 16
-974.48822 695.13116 1296.8981 16
-968.65948 696.46454 1299.3857 16
-962.125 697.30768 1300.9587 16
-954.76581 697.56189 1301.4331 16
-947.25659 697.70978 1301.709 16
-940.05908 698.09155 1302.4213 16
-934.03784 699.36041 1304.7886 16
-928.82642 701.26184 1308.3359 16
-944.01703 718.72839 1340.9231 16
-936.92566 719.38293 1342.1443 16
-929.20905 719.56458 1342.4832 16
-921.50458 719.75885 1342.8457 16
-913.74878 719.91608 1343.1389 16
-906.01416 720.09283 1343.4688 14
-898.12781 720.15106 1343.5774 14
-890.02301 720.03363 1343.3583 14
-1027.5955 838.83118 1564.9974 14
-1018.0642 838.61707 1564.5981 14
-870.31158 723.49493 1349.816 14
-998.84003 838.0415 1563.5242 14
-857.40399 726.10809 1354.6914 14
-978.49493 836.48584 1560.6218 14
-968.64856 835.96729 1559.6543 14
-959.1748 835.76337 1559.2739 13
-949.68365 835.5401 1558.8574 14
-940.42188 835.51642 1558.8131 15
-931.50256 835.79944 1559.3412 14
-797.6322 722.85162 1348.6158 14
-913.60254 836.32642 1560.3245 14
-904.25214 836.22784 1560.1405 14
-894.79321 836.0257 1559.7633 14
-771.34998 728.20996 1358.6128 14
-876.19556 835.91425 1559.5554 14
-867.15063 836.10162 1559.9049 12
-860.15063 838.28571 1563.9799 12
-849.07678 836.50397 1560.6558 12
-839.85718 836.53009 1560.7043 12
-830.67047 836.58972 1560.8157 12
-821.37646 836.5415 1560.7256 12
-812.27222 836.68756 1560.9982 12
-803.02454 836.68756 1560.9982 12
-795.00378 837.98077 1563.411 12
-785.90094 838.15063 1563.7278 12
-775.25006 836.65375 1560.9352 12
-765.67169 836.29218 1560.2606 12
-755.98456 835.80157 1559.3452 12
-746.36505 835.37451 1558.5483 12
-736.90192 835.11383 1558.0621 12
-727.82336 835.28802 1558.3871 11
-719.01648 835.78241 1559.3096 13
-710.23029 836.31415 1560.3014 13
-701.49622 836.92194 1561.4354 12
-692.65875 837.42102 1562.3667 11
-683.69128 837.77448 1563.026 13
-674.67389 838.0755 1563.5875 12
-665.51776 838.21008 1563.8387 12
0 0 0 0
0 0 0 0
0 0 0 0
-628.02686 837.63293 1562.7618 12
-618.76636 837.62976 1562.756 12
-609.42242 837.51178 1562.5359 12
-599.57123 836.68237 1560.9884 12
-589.26086 835.17603 1558.1782 13
-514.93561 741.44794 1383.3107 14
-515.50513 754.27191 1407.2363 14
-559.32483 831.84021 1551.9546 14
-550.60608 832.55908 1553.2958 14
-541.17017 832.19946 1552.6248 14
-531.24695 831.06506 1550.5084 14
-521.45264 830.09613 1548.7006 14
-511.03787 828.08685 1544.952 14
-500.72787 826.17731 1541.3893 14
-490.75415 824.7619 1538.7487 14
-480.88049 823.46442 1536.3279 14
-470.42545 821.10193 1531.9202 14
-459.82843 818.3938 1526.8678 14
-449.58649 816.22168 1522.8152 14
-439.47076 814.19446 1519.0331 14
-429.18933 811.76904 1514.5081 14
-419.10739 809.62543 1510.5087 14
-409.46591 808.25775 1507.9569 14
-399.70444 806.58691 1504.8397 14
-383.38782 791.31 1476.3379 14
-367.50204 776.22992 1448.203 14
-365.24493 789.90308 1473.7129 14
-358.76245 794.88409 1483.006 14
-348.98981 792.6424 1478.8236 14
-333.01917 775.84558 1447.486 14
-317.47946 759.19135 1416.4144 14
-319.33517 784.36017 1463.3715 14
-310.27652 783.37708 1461.5375 14
-303.20157 787.48999 1469.2108 14
-294.83929 788.4035 1470.9153 14
-289.22296 796.93903 1486.8398 13
-277.4104 788.40112 1470.9108 12
-274.41064 805.16779 1502.1921 12
-265.57129 805.34961 1502.5314 12
-256.65305 805.29663 1502.4325 12
-245.53909 798.10278 1489.011 12
-237.53627 800.86206 1494.1591 12
-230.21175 806.21045 1504.1375 11
-221.98149 808.69 1508.7634 11
-212.91042 808.18573 1507.8226 11
-204.15004 808.86841 1509.0963 9
-195.21411 808.88617 1509.1295 9
-187.42891 813.90277 1518.4889 6
-177.91861 811.55621 1514.111 7
-169.12717 812.41357 1515.7106 4
-163.01448 826.95624 1542.8427 5
-156.43462 840.71582 1568.5137 5
-149.76007 855.67236 1596.4178 5
-141.16666 860.94232 1606.2501 5
-132.42192 865.9848 1615.6576 5
-123.66575 871.7323 1626.3807 5
-114.75129 877.24103 1636.6582 5
-105.30396 879.31696 1640.5314 5
-93.613136 861.17633 1606.6866 5
0 0 0 0
0 0 0 0
-65.143631 862.30963 1608.801 5
-55.595608 862.04425 1608.3058 5
0 0 0 0
0 0 0 0
0 0 0 0
0 0 0 0
0 0 0 0
0 0 0 0
0 0 0 0
20.680338 864.22583 1612.3761 5
30.275753 865.46466 1614.6873 5
0 0 0 0
49.585045 868.57819 1620.4962 4
61.041473 895.81964 1671.3203 4
72.777466 918.98724 1714.5437 7
87.994041 975.04773 1819.1353 7
100.47597 991.87878 1850.5365 7
113.87682 1013.5773 1891.0193 7
125.8884 1020.131 1903.2466 7
134.66101 1001.5178 1868.5201 7
155.96991 1071.887 1999.8069 7
163.21234 1042.4745 1944.9324 7
171.56918 1023.5898 1909.6993 7
184.02754 1029.9974 1921.6542 7
200.27502 1055.6307 1969.4779 7
228.2475 1136.8408 2120.9907 7
245.65674 1159.7087 2163.655 7
259.89313 1166.0728 2175.5283 7
274.39749 1172.9808 2188.4167 7
292.34116 1193.3047 2226.3345 8
306.78003 1198.1852 2235.4399 9
325.22629 1217.6654 2271.7842 10
361.51538 1299.7474 2424.9236 11
382.36652 1322.1729 2466.7625 12
373.92282 1245.3787 2323.4883 12
381.76297 1226.3464 2287.9802 12
373.51486 1158.7108 2161.7932 12
392.93417 1178.5436 2198.7949 13
417.21359 1211.2129 2259.7456 14
438.53595 1233.5331 2301.3882 13
461.39856 1258.7091 2348.3589 13
484.16885 1282.167 2392.124 13
503.70026 1295.9574 2417.8525 13
525.71692 1315.2028 2453.7583 15
565.0636 1375.6007 2566.4421 16
521.49078 1236.2621 2306.4797 16
545.06036 1259.1448 2349.1716 16
550.57623 1240.2205 2313.8647 16
570.65289 1254.2183 2339.9802 16
589.10663 1264.0697 2358.3599 16
608.48822 1275.4095 2379.5166 16
659.51599 1351.0651 2520.6663 16
675.78638 1353.7441 2525.6646 16
722.80408 1416.5664 2642.8713 16
686.32135 1316.5485 2456.269 16
678.01758 1273.6162 2376.1709 16
712.35999 1310.9093 2445.7483 16
730.61713 1317.7051 2458.427 16
758.18964 1340.7076 2501.3425 16
728.32544 1263.2097 2356.7556 16
726.50348 1236.349 2306.6418 16
741.89978 1239.2408 2312.0371 16
756.68427 1241.0243 2315.3645 15
772.08276 1243.7334 2320.4189 16
836.99042 1324.7061 2471.4885 16
804.1153 1250.7941 2333.5918 16
857.13892 1310.7369 2445.4265 16
900.37714 1353.9722 2526.0901 16
898.41705 1328.9366 2479.3813 16
910.91132 1325.7433 2473.4236 16
927.0191 1327.8268 2477.3108 16
943.8067 1330.8041 2482.8655 16
960.30273 1333.285 2487.4941 16
1077.2927 1473.1083 2748.3608 16
1094.1925 1473.9406 2749.9136 15
1111.7004 1475.5554 2752.9265 13
1129.1327 1477.025 2755.6682 14
1146.2372 1478.0298 2757.5427 14
1162.592 1478.0535 2757.5869 14
1172.3834 1469.8474 2742.2771 16
1188.9133 1470.1987 2742.9326 16
1205.4277 1470.5216 2743.5349 16
1110.1045 1336.2183 2492.9668 14
1125.297 1336.7216 2493.9058 14
1123.5392 1317.3376 2457.7415 14
1137.899 1317.1058 2457.3088 15
1285.0946 1468.6934 2740.124 16
1299.4092 1466.528 2736.084 16
1190.3452 1326.8854 2475.5544 16
1201.6714 1323.208 2468.6936 16
1214.5402 1321.2972 2465.1287 16
1216.2113 1307.3947 2439.1909 16
1230.6195 1307.35 2439.1077 16
1246.0839 1308.4154 2441.0952 16
1261.2318 1309.1277 2442.4243 16
1272.5686 1305.913 2436.4265 16
1285.8153 1304.7083 2434.179 16
1287.6676 1292.0967 2410.6497 16
1306.6057 1296.7184 2419.2722 16
1346.996 1322.2985 2466.9968 16
1465.4298 1423.12 2655.0981 16
1373.4253 1319.6075 2461.9763 16
1347.923 1281.4955 2390.8711 16
1357.8157 1277.4768 2383.3735 16
1367.0432 1272.9215 2374.8748 16
1379.9098 1271.813 2372.8066 16
1389.2129 1267.4757 2364.7146 16
1401.7833 1266.1761 2362.29 16
1452.4149 1298.9417 2423.4202 16
1463.3235 1295.8879 2417.7229 16
1433.6299 1257.2855 2345.7029 16
1509.9391 1311.4957 2446.842 16
1515.9269 1304.1761 2433.1863 16
1519.4235 1294.8717 2415.8269 16
1523.8073 1286.4897 2400.1887 16
1524.9346 1275.5388 2379.7578 16
1530.9579 1268.8464 2367.272 16
1523.2782 1251.0216 2334.0164 16
1540.0312 1253.403 2338.4592 16
1541.4285 1243.3553 2319.7134 16
1548.3668 1237.9154 2309.5642 16
1545.8344 1225.0652 2285.5898 16
1547.0543 1215.3862 2267.5317 16
1547.0668 1204.9333 2248.03 16
1550.4177 1197.2369 2233.6709 16
1552.5046 1188.7029 2217.749 16
1552.9652 1179.0771 2199.7905 16
1555.6979 1171.3226 2185.323 16
1558.5175 1163.761 2171.2151 16
1560.2924 1155.5491 2155.8945 16
1564.7397 1149.434 2144.4856 16
1567.0332 1141.8479 2130.3323 16
1569.7859 1134.715 2117.0244 16
1568.2249 1124.6016 2098.156 16
1569.0372 1116.3359 2082.7349 16
1572.4933 1110.0656 2071.0361 16
1575.1423 1103.3269 2058.4641 16
1527.5317 1061.7573 1980.9082 16
1527.2535 1053.4706 1965.4478 16
1530.0898 1047.4413 1954.1991 16
1531.2864 1040.3885 1941.0408 16
1529.2349 1031.2506 1923.9922 16
1534.1642 1026.9205 1915.9137 16
1541.1711 1024.0347 1910.5294 16
1538.8651 1015.0479 1893.7628 16
1543.7021 1010.8687 1885.9658 16
1545.2749 1004.6273 1874.3214 16
1544.7274 997.10651 1860.2899 16
1553.6354 995.75226 1857.7633 16
1551.9158 987.65375 1842.6541 16
1567.4546 990.57495 1848.1041 16
1566.9647 983.39636 1834.7112 16
1573.9064 980.94855 1830.1443 16
1582.7629 979.71948 1827.8511 16
1592.1589 978.83868 1826.2079 16
1604.0112 979.46973 1827.3853 16
1611.8585 977.66302 1824.0145 16
1622.182 977.37244 1823.4724 131085
1635.4133 978.82611 1826.1844 196620
1652.8412 982.7558 1833.516 327689
1670.5074 986.77496 1841.0145 458756
1706.3538 1001.4115 1868.3217 1508875
1701.3251 992.02539 1850.8102 3808798
1682.7119 974.8894 1818.8396 5716276
1696.1791 976.43903 1821.7308 7098433
1692.3408 968.06976 1806.1165 8348242
1697.8992 965.14728 1800.6639 7361346
1718.621 970.82672 1811.2601 8940379
1731.9678 972.29559 1814.0005 8545621
0 0 0 0
0 0 0 0
0 0 0 0
0 0 0 0
0 0 0 0
0 0 0 0
0 0 0 0
0 0 0 0
0 0 0 0
0 0 0 0
0 0 0 0
0 0 0 0
0 0 0 0
-1399.6559 883.99713 1631.2335 16
-1388.0966 882.79163 1629.009 16
-1107.1843 709.06891 1308.4397 16
0 0 0 0
-1353.4962 879.12286 1622.239 16
-1340.9907 877.22906 1618.7444 16
-1329.1135 875.72192 1615.9633 16
-1317.0244 874.05231 1612.8823 16
-1305.2656 872.57916 1610.1639 16
-1293.3043 870.94788 1607.1538 16
-1282.1385 869.83209 1605.0948 16
-1271.1338 868.80969 1603.2083 16
-1259.5215 867.35364 1600.5214 16
-1247.2101 865.39026 1596.8983 16
-1234.3247 862.99567 1592.4796 16
-983.2644 692.75812 1278.3416 16
-986.16071 700.19165 1292.0586 16
-980.32715 701.49469 1294.463 16
-975.22937 703.34888 1297.8845 16
-969.44745 704.73517 1300.4426 16
-963.68066 706.15479 1303.0623 16
-956.73505 706.72656 1304.1173 16
-949.30243 706.94495 1304.5204 16
-942.27283 707.46948 1305.4883 16
-936.33545 708.82959 1307.998 16
-930.73993 710.47333 1311.0312 16
-924.85864 711.9248 1313.7096 16
-917.57269 712.31042 1314.4213 16
-910.23175 712.65961 1315.0656 16
-902.84558 712.97913 1315.6552 16
-895.75671 713.54102 1316.692 16
-888.55554 714.02246 1317.5804 13
-1047.1876 848.95331 1566.5673 14
-1036.7893 848.03912 1564.8804 14
-1027.359 847.90741 1564.6373 14
-1017.9175 847.76398 1564.3727 14
-1008.4154 847.56702 1564.0092 14
-998.85687 847.31848 1563.5505 14
-988.74115 846.5882 1562.203 14
-978.48547 845.72308 1560.6067 14
-968.62341 845.185 1559.6138 15
-959.11578 844.94879 1559.1779 13
-949.67004 844.763 1558.8351 13
-787.42865 707.32214 1305.2164 13
-774.52356 702.62964 1296.5574 14
-762.72546 698.85736 1289.5964 14
-747.7807 692.09644 1277.1205 14
-733.42627 685.74921 1265.4081 14
-721.13226 681.21735 1257.0454 14
-709.55139 677.27155 1249.7643 14
-876.00684 844.97137 1559.2195 12
-866.99286 845.1889 1559.621 12
-858.38281 845.8092 1560.7655 12
-849.43433 846.10596 1561.3131 12
-840.61255 846.53668 1562.1079 12
-831.11755 846.29156 1561.6556 12
-684.59735 704.94342 1300.8269 12
-676.88239 704.93445 1300.8104 12
-669.68872 705.47443 1301.8069 12
-794.21594 846.40326 1561.8618 14
-785.14087 846.59491 1562.2153 12
-775.28101 845.93488 1560.9974 12
-765.633 845.4928 1560.1816 12
-755.89893 844.94366 1559.1685 12
-746.91205 845.22668 1559.6906 14
-738.15344 845.7782 1560.7083 13
-729.41296 846.36475 1561.7906 11
-720.30878 846.53888 1562.1121 11
-711.49756 847.06641 1563.0854 12
-702.33032 847.17841 1563.2921 12
-693.40802 847.59277 1564.0568 12
-683.7019 847.04724 1563.0502 12
-675.05096 847.81201 1564.4614 12
-665.20593 847.07764 1563.1061 12
0 0 0 0
0 0 0 0
-637.35803 846.9881 1562.9409 12
-628.03809 846.90619 1562.7898 12
-518.5979 709.7901 1309.7705 12
-512.47723 712.06708 1313.9722 12
-510.45535 720.19714 1328.9746 12
-509.23566 729.73151 1346.5682 12
-508.52609 740.31195 1366.0923 12
-510.30539 754.91656 1393.042 14
-562.43762 845.71497 1560.5917 14
-550.46942 841.55219 1552.9102 14
-541.17017 841.39758 1552.6248 14
-531.45898 840.58594 1551.1272 13
-521.77032 839.78223 1549.6439 12
-511.56763 838.10748 1546.5536 12
-501.11307 835.95148 1542.5752 13
-491.11948 834.49866 1539.8942 13
-481.31747 833.32251 1537.7239 13
-470.88449 830.98743 1533.415 14
-460.44363 828.54639 1528.9105 14
-449.58179 825.23462 1522.7994 14
-439.89514 823.9884 1520.4999 14
-429.68903 821.69696 1516.2714 14
-419.66565 819.66449 1512.5209 14
-409.93039 818.11823 1509.6676 14
-400.15356 816.41827 1506.5306 14
-390.5722 815.04865 1504.0033 14
-379.74817 810.96124 1496.4608 14
-358.21939 783.27173 1445.3657 14
-348.5025 780.68628 1440.5947 14
-337.62524 775.30627 1430.667 14
-334.39734 787.66705 1453.4763 14
-325.45428 786.86359 1451.9937 14
-315.27637 782.94983 1444.7716 14
-306.24084 781.73376 1442.5277 14
-292.80786 768.90045 1418.8464 14
-284.87604 770.18127 1421.21 14
-287.4465 800.7984 1477.7074 12
-278.97943 801.62372 1479.2303 12
-270.7243 803.13135 1482.0123 12
-262.44119 804.65393 1484.8221 12
-254.13205 806.19983 1487.6747 12
-245.53909 806.92407 1489.011 12
-237.15152 808.40234 1491.7389 12
-233.01436 825.04468 1522.4489 11
-225.83597 831.82544 1534.9614 11
-217.3493 834.15417 1539.2587 11
0 0 0 0
-183.12401 767.17664 1415.6654 9
-188.34825 826.935 1525.9371 6
-179.25665 826.69696 1525.4979 7
-169.81088 824.71368 1521.8381 4
-163.01688 836.1087 1542.8654 5
-156.04987 847.91748 1564.6559 5
-148.79262 859.54108 1586.1049 5
-140.5345 866.56024 1599.0574 5
-131.46683 869.24133 1604.0048 5
-122.59191 873.71405 1612.2582 5
-113.67362 878.60736 1621.2878 5
-104.46371 881.94189 1627.4409 5
-93.449097 869.16895 1603.8712 5
-84.304482 872.86615 1610.6935 5
-74.088463 864.99811 1596.1747 5
-64.951263 869.26605 1604.0504 5
-55.663311 872.63361 1610.2644 5
-46.852909 886.42902 1635.7209 5
-37.133152 885.72821 1634.4279 5
-27.562454 889.3429 1641.0979 5
-17.862486 890.45288 1643.1461 5
-8.1012096 887.50519 1637.7069 5
1.5888206 880.78821 1625.3121 5
11.197095 879.18311 1622.3502 5
20.596214 870.22369 1605.8174 5
30.067348 869.00714 1603.5725 5
39.714626 872.24347 1609.5444 5
49.386555 874.66302 1614.0093 5
60.61459 899.38696 1659.6322 5
74.150246 946.67072 1746.8846 7
86.340034 967.29443 1784.9413 7
98.738411 985.49927 1818.5347 7
110.77225 996.84198 1839.4652 7
123.16623 1009.1035 1862.0912 7
133.47139 1003.642 1852.0133 7
148.89957 1034.6068 1909.1526 7
161.57494 1043.4226 1925.4202 7
170.92796 1031.0354 1902.562 7
183.63815 1039.1783 1917.5883 7
199.52104 1063.2803 1962.0634 7
228.12178 1148.7729 2119.8225 7
245.11398 1169.9362 2158.8748 8
259.89313 1178.9611 2175.5283 10
274.39749 1185.9456 2188.4167 9
292.34116 1206.4939 2226.3345 9
306.78003 1211.4283 2235.4399 10
325.22629 1231.124 2271.7842 11
353.62009 1285.4137 2371.9646 11
365.67645 1278.4366 2359.0898 12
374.02527 1259.4885 2324.125 13
387.49863 1258.5295 2322.3552 14
366.53735 1149.6331 2121.4094 14
392.24362 1189.4756 2194.9307 14
415.17413 1218.614 2248.6995 14
437.59698 1244.4967 2296.4607 16
460.69913 1270.6921 2344.7991 16
482.85379 1292.8175 2385.6267 16
502.98199 1308.413 2414.4048 16
533.95325 1350.572 2492.2007 15
564.90283 1390.4092 2565.7119 16
586.33582 1405.3489 2593.28 16
604.6358 1412.2081 2605.9375 16
620.51459 1413.2118 2607.7893 16
637.68793 1417.0432 2614.8594 16
655.30469 1421.6549 2623.3694 16
672.25903 1424.649 2628.8945 16
688.60992 1426.2579 2631.8633 16
646.401 1309.1912 2415.8408 16
664.80707 1317.3033 2430.8103 16
686.7168 1331.8669 2457.6843 16
707.28058 1343.2697 2478.7256 16
712.00653 1324.7411 2444.5349 16
730.00055 1331.145 2456.3523 16
753.93317 1347.9163 2487.3 16
800.43286 1403.6174 2590.085 16
822.84595 1415.7799 2612.5283 16
825.5589 1394.2233 2572.75 16
850.53894 1410.3718 2602.5488 16
878.08551 1430.1251 2638.9995 16
900.64142 1441.2017 2659.439 16
922.44598 1450.7156 2676.9949 16
946.61676 1463.5662 2700.708 16
965.75702 1468.3412 2709.5193 16
984.31396 1472.0878 2716.4329 16
1003.2234 1476.2327 2724.0813 16
1021.9754 1480.0179 2731.0664 16
1040.4254 1483.2548 2737.0393 16
1059.3413 1487.0464 2744.0359 16
1077.3759 1489.5049 2748.5725 16
1094.3928 1490.5044 2750.417 16
1085.8574 1457.1841 2688.9312 16
1103.5459 1459.51 2693.2231 16
1121.083 1461.5723 2697.0286 16
1161.6393 1493.1652 2755.3269 16
1172.1434 1485.7891 2741.7158 16
1187.3319 1484.4713 2739.2842 16
1203.7333 1484.6848 2739.6782 16
1219.7769 1484.4574 2739.2585 16
1235.6688 1484.054 2738.5139 16
1250.9592 1482.9478 2736.4727 16
1266.8024 1482.5167 2735.6772 16
1282.8999 1482.3904 2735.4443 16
1298.0023 1481.132 2733.1218 16
1312.5438 1479.2721 2729.6899 16
1337.8545 1489.4471 2748.4658 16
1353.1566 1488.3687 2746.4758 16
1369.4272 1488.3687 2746.4758 16
1385.6981 1488.3687 2746.4758 16
1401.9688 1488.3687 2746.4758 16
1418.2396 1488.3687 2746.4758 16
1433.0497 1486.8533 2743.6794 16
1441.4495 1478.7953 2728.8101 16
1445.0957 1466.0935 2705.3716 16
1447.3352 1452.2589 2679.8428 16
1455.9513 1445.0533 2666.5464 16
1465.3826 1438.8029 2655.0125 16
1475.2516 1433.1104 2644.5081 16
1484.1847 1426.6379 2632.5645 16
1488.2504 1415.6699 2612.3254 16
1484.8716 1397.9193 2579.5703 16
1487.7047 1386.3188 2558.1641 16
1493.6366 1377.8109 2542.4644 16
1491.2667 1361.891 2513.0876 16
1491.2062 1348.3743 2488.1453 16
1498.4988 1341.7059 2475.8401 16
1508.2894 1337.3817 2467.8606 16
1513.1023 1328.7692 2451.968 16
