# .PCD v0.7 - Point Cloud Data file format
VERSION 0.7
FIELDS x y z rgb
SIZE 4 4 4 4
TYPE F F F U
COUNT 1 1 1 1
WIDTH 1618
HEIGHT 1
VIEWPOINT 0 0 0 1 0 0 0
POINTS 1618
DATA ascii
-59.540882 337.7291 726.4483 9
0 0 0 0
0 0 0 0
0 0 0 0
0 0 0 0
0 0 0 0
0 0 0 0
0 0 0 0
0 0 0 0
0 0 0 0
0 0 0 0
0 0 0 0
0 0 0 0
0 0 0 0
0 0 0 0
8.2895527 558.3855 1201.0757 14
0 0 0 0
0 0 0 0
30.342203 571.6936 1229.7012 14
37.630535 571.74377 1229.8091 14
45.269775 576.24451 1239.49 16
52.897007 579.35736 1246.1857 18
60.655312 582.96741 1253.9509 18
68.487946 586.42621 1261.3906 18
76.452263 590.22107 1269.5533 18
84.408241 593.27759 1276.1278 18
91.929626 593.02795 1275.5909 18
100.7505 600.56244 1291.7974 18
108.90102 603.31927 1297.7273 18
116.39611 602.32092 1295.5798 19
126.13641 612.34564 1317.1428 18
133.8835 612.08978 1316.5925 19
142.55496 615.85553 1324.6925 19
150.92073 617.97656 1329.2548 19
159.58047 621.03125 1335.8254 18
168.27623 623.93085 1342.0624 18
178.69609 632.67291 1360.8665 18
189.38353 641.56683 1379.9969 18
199.49196 647.84418 1393.4995 18
208.41907 649.93878 1398.005 18
217.42958 652.12354 1402.7042 18
227.41829 656.97321 1413.1359 18
239.10954 666.22229 1433.0304 18
249.04485 670.1123 1441.3977 18
254.92029 663.1825 1426.4919 18
268.74814 676.72211 1455.6152 18
279.26257 681.33575 1465.5392 18
293.39084 694.22229 1493.2578 18
304.2601 698.86865 1503.2521 18
306.48724 683.9649 1471.1943 19
317.28259 688.4776 1480.9011 16
330.13055 697.0816 1499.4081 16
344.0618 707.4621 1521.7365 16
358.4917 718.31177 1545.0739 16
370.74496 724.36841 1558.1016 16
410.97079 783.45654 1685.1987 16
430.65085 801.50311 1724.0167 16
450.74341 819.46368 1762.6494 16
417.3782 741.62372 1595.2173 16
454.86191 790.33203 1699.9879 16
467.46622 794.63812 1709.2502 16
503.21881 837.27679 1800.9652 16
467.39474 761.52521 1638.025 16
481.92807 769.23352 1654.6055 16
501.4205 784.39227 1687.2115 16
526.15027 806.99133 1735.8217 16
545.56812 820.73285 1765.3794 16
569.55023 840.69464 1808.3169 16
620.28271 898.6756 1933.0327 16
654.11517 930.51349 2001.5153 16
688.92743 962.58649 2070.5037 17
645.04779 885.51056 1904.715 16
664.9151 897.09106 1929.6244 16
689.03912 913.92603 1965.8361 16
0 0 0 0
0 0 0 0
814.16949 1027.7819 2210.7375 15
838.75623 1042.0566 2241.4421 16
860.96967 1052.9838 2264.9465 16
881.3623 1061.3829 2283.0129 18
898.28601 1065.4138 2291.6833 18
877.81085 1025.6283 2206.1052 17
898.4884 1034.3871 2224.9453 18
916.46399 1039.827 2236.6465 18
936.85596 1047.8143 2253.8271 18
955.03088 1053.1326 2265.2664 18
972.36993 1057.3943 2274.4333 18
990.49213 1062.3795 2285.1565 18
1010.0687 1068.7694 2298.9009 18
1041.1069 1086.9554 2338.0188 18
1060.5553 1092.7227 2350.4238 18
1083.0251 1101.4132 2369.1169 18
1113.7915 1118.2108 2405.2483 18
1131.6832 1121.8214 2413.0146 18
1147.9598 1123.761 2417.1868 18
1165.1221 1126.5092 2423.0979 18
1178.1799 1125.2703 2420.4331 18
1190.5121 1123.3765 2416.3596 18
1202.2437 1120.9674 2411.178 18
1211.7288 1116.5452 2401.6658 18
1222.7885 1113.6597 2395.459 18
1232.6326 1109.746 2387.0408 18
1242.4734 1105.9182 2378.8071 18
1254.4255 1104.0343 2374.7549 18
1265.6261 1101.5381 2369.3857 18
1275.5563 1098.0032 2361.782 18
1282.4036 1091.9198 2348.697 18
1297.9701 1093.3116 2351.6909 18
1318.8571 1099.1078 2364.1582 18
1333.4542 1099.5956 2365.2073 18
1344.7266 1097.3597 2360.3982 17
1338.899 1081.3594 2325.9817 16
1329.6913 1062.9828 2286.4541 16
1350.4012 1068.6525 2298.6494 16
1347.4587 1055.6781 2270.7419 16
1357.0574 1052.6887 2264.3118 16
1375.1252 1056.2633 2272.0007 16
1374.135 1045.2715 2248.3574 16
1401.7236 1056.0212 2271.48 16
1405.0482 1048.4606 2255.217 16
1403.1667 1037.194 2230.9829 16
1377.951 1009.0505 2170.4468 15
1384.7809 1004.6769 2161.0393 65550
1386.2849 996.55475 2143.5686 13
1387.929 988.67975 2126.6299 131084
1395.7206 985.2865 2119.3308 262151
1385.9242 969.64819 2085.6934 655621
1394.7144 967.17542 2080.3743 2363666
1443.5654 992.28308 2134.3804 4599081
1450.1407 988.14734 2125.4846 6835009
1461.4158 987.25775 2123.571 7756109
1471.9331 985.87592 2120.5989 7822156
1488.469 988.51447 2126.2742 9071967
1494.8843 984.44379 2117.5183 8414548
1504.6661 982.63959 2113.6375 8480085
1520.9756 985.09283 2118.9143 8282708
1539.2516 988.7691 2126.822 8282452
1549.2792 987.13031 2123.2969 8414293
1572.1959 993.664 2137.3508 8151376
1592.1438 998.23193 2147.1763 7756618
1615.7368 1004.9948 2161.7231 8414294
1627.4042 1004.2917 2160.2109 8611932
1621.7612 993.00073 2135.9241 8677981
1638.783 995.65454 2141.6323 8480603
1654.5516 997.51202 2145.6279 8677981
1667.0959 997.41235 2145.4133 8480088
1677.1979 995.86383 2142.0825 8480345
1686.3456 993.77618 2137.592 8151637
1698.4657 993.45819 2136.9082 8283223
1719.8934 998.54895 2147.8582 8546395
1730.7723 997.48541 2145.5706 8677468
1750.0421 1001.2379 2153.6421 8545626
1763.4772 1001.6221 2154.4685 7953746
1774.4185 1000.5946 2152.2583 8282711
1793.0461 1003.885 2159.3359 8611419
1789.079 994.56818 2139.2957 7822159
1806.3462 997.10382 2144.7498 8085331
1816.2604 995.57361 2141.4583 8611418
1829.6156 995.93762 2142.2412 8940640
1826.8616 987.58807 2124.2815 8348503
1859.3214 998.25879 2147.2341 8282966
1853.5579 988.40216 2126.0327 8546395
1884.7163 998.23413 2147.1812 8217686
1896.9489 997.97754 2146.6292 8217430
1910.5458 998.43732 2147.6182 8349015
1932.4741 1003.2162 2157.8972 8546395
1938.2919 999.6236 2150.1697 7625549
1957.3507 1002.862 2157.1355 8020051
1965.7747 1000.645 2152.3669 8020048
1962.7614 992.67212 2135.2173 8151635
1980.46 995.20935 2140.6748 8151381
2007.189 1002.2233 2155.7617 7558985
2019.254 1001.8729 2155.0081 8085072
2021.7041 996.78632 2144.0669 8019792
2021.5924 990.50824 2130.5627 7822670
2037.8513 992.27911 2134.3718 7559498
0 0 0 0
0 0 0 0
0 0 0 0
0 0 0 0
0 0 0 0
0 0 0 0
0 0 0 0
0 0 0 0
0 0 0 0
0 0 0 0
0 0 0 0
0 0 0 0
0 0 0 0
0 0 0 0
0 0 0 0
0 0 0 0
0 0 0 0
0 0 0 0
0 0 0 0
0 0 0 0
0 0 0 0
0 0 0 0
0 0 0 0
0 0 0 0
0 0 0 0
0 0 0 0
0 0 0 0
0 0 0 0
0 0 0 0
0 0 0 0
-553.04547 343.82892 730.26324 18
-548.47516 343.67599 729.93842 18
-544.12451 343.65939 729.9032 18
-539.68506 343.58594 729.74719 18
-535.25165 343.51523 729.59698 18
-530.91461 343.50568 729.57672 18
0 0 0 0
0 0 0 0
-517.6073 343.27963 729.09662 18
0 0 0 0
-508.74579 343.12939 728.77747 18
0 0 0 0
-499.86844 342.96298 728.42407 18
-495.37885 342.84241 728.16797 18
-490.77737 342.64157 727.74146 18
-486.18787 342.44568 727.32532 18
-481.62244 342.26328 726.93799 18
-477.07529 342.09079 726.57159 18
-472.5932 341.96219 726.29846 18
-468.13657 341.84979 726.05975 18
-463.69669 341.74768 725.8429 17
-459.26749 341.65164 725.63892 16
-454.8432 341.55743 725.43884 15
-450.40179 341.44849 725.2074 17
-445.9248 341.31012 724.91357 18
-441.47098 341.18707 724.65216 18
-436.86374 340.94183 724.13135 18
-432.38956 340.7966 723.82288 18
-427.96869 340.69092 723.59839 18
-423.60461 340.62872 723.46631 18
-419.33191 340.63953 723.48926 18
-415.12897 340.70776 723.63416 18
-410.92377 340.77557 723.7782 18
-406.74045 340.86316 723.96423 18
-402.67606 341.05331 724.3681 18
-398.49496 341.14774 724.5686 18
-393.95233 340.93127 724.10889 18
-389.55276 340.83521 723.90485 18
-385.0957 340.68616 723.58826 18
-380.62625 340.52264 723.24103 18
-376.18954 340.38504 722.94879 18
-371.79059 340.27887 722.72321 18
-367.44672 340.22113 722.60065 18
-363.07977 340.1405 722.42938 17
-358.70251 340.04816 722.23322 16
-354.35056 339.97784 722.08386 16
-350.00238 339.90948 721.93872 16
-345.65524 339.84042 721.79205 16
-341.31177 339.77332 721.64954 16
-336.97778 339.71411 721.52374 16
-332.65677 339.66656 721.42279 16
-328.36035 339.64325 721.37323 16
-324.03101 339.58481 721.24908 16
-319.70102 339.52411 721.12018 16
-315.45471 339.55185 721.17914 16
-311.31381 339.69537 721.48395 16
-307.39368 340.08716 722.31604 16
-303.25818 340.24832 722.65839 16
-299.22009 340.52502 723.24603 16
-294.83871 340.41333 723.00885 16
-290.65796 340.53345 723.26392 16
-286.47424 340.65359 723.51917 17
-282.33917 340.83615 723.90686 18
-278.24826 341.07849 724.42157 18
-274.22891 341.41751 725.1416 18
-270.07733 341.60001 725.52924 18
-266.04688 341.94415 726.26013 18
-261.99448 342.27094 726.95422 18
-257.78656 342.40207 727.23273 18
-253.48586 342.41232 727.25452 18
-254.02065 349.06769 741.38995 18
-249.44846 348.81598 740.85529 18
-238.91077 340.0639 722.26672 18
-234.61438 340.03854 722.21283 18
-240.49126 355.03076 754.05499 18
-235.80226 354.69708 753.34631 18
-231.10823 354.34286 752.59399 18
-215.19902 336.44095 714.57184 18
-210.9832 336.46878 714.63098 18
-206.81696 336.57849 714.86395 18
-202.46791 336.38901 714.46155 17
-198.23492 336.38843 714.46027 17
-193.85445 336.13205 713.91577 18
-189.13342 335.26059 712.06488 17
-185.30728 335.97186 713.5755 18
-185.89491 344.90552 732.54987 18
-181.21542 344.26016 731.1792 18
-173.47449 337.62491 717.08643 16
-176.22774 351.59351 746.75458 14
-169.28259 346.43393 735.79602 11
-164.96359 346.51801 735.97461 11
-163.36292 352.47168 748.61975 9
-157.55251 349.42126 742.14093 9
-151.76924 346.25766 735.42169 9
-147.31256 346.02307 734.9234 9
0 0 0 0
0 0 0 0
-135.235 348.5592 740.31 7
-130.5034 347.638 738.35339 7
-125.62037 346.23547 735.37457 7
-120.73552 344.72699 732.17072 7
-114.21233 338.25394 718.42249 7
-114.80293 353.16367 750.08942 6
-106.62441 341.2117 724.70453 8
0 0 0 0
-101.27069 352.46356 748.60248 7
-90.951996 331.04767 703.11694 7
-87.67511 334.43698 710.31561 7
-87.682671 351.32822 746.19116 7
0 0 0 0
-78.503029 349.82016 742.9881 7
-73.849808 348.63242 740.46552 7
-69.145256 347.03708 737.07709 7
0 0 0 0
-59.564224 342.16684 726.73315 6
0 0 0 0
0 0 0 0
0 0 0 0
0 0 0 0
0 0 0 0
0 0 0 0
0 0 0 0
0 0 0 0
0 0 0 0
0 0 0 0
0 0 0 0
0 0 0 0
0 0 0 0
0 0 0 0
0 0 0 0
0 0 0 0
0 0 0 0
29.867683 569.92401 1210.47 16
37.235298 572.94788 1216.8923 16
45.268013 583.56482 1239.4418 18
52.789032 585.54236 1243.642 18
60.403774 587.94781 1248.7509 19
68.242508 591.77069 1256.8704 19
75.988602 594.11707 1261.8539 19
84.412117 600.86517 1276.1864 18
91.929626 600.58484 1275.5909 18
100.7505 608.21533 1291.7974 18
108.8997 610.99994 1297.7117 18
116.36987 609.8587 1295.2877 65554
126.10113 619.97522 1316.7744 65554
134.34702 622.03577 1321.1508 65554
142.59364 623.87256 1325.052 18
150.98492 626.11755 1329.8202 18
159.64384 629.19476 1336.356 18
168.32631 632.06952 1342.4617 18
176.91203 634.33807 1347.2799 18
186.71799 640.59711 1360.5736 18
198.49794 652.83044 1386.556 18
207.70645 655.97034 1393.225 18
216.95665 658.99695 1399.6532 18
228.26608 667.82526 1418.4038 18
235.65399 664.96106 1412.3206 18
245.33345 668.53784 1419.9172 18
255.15326 672.24719 1427.7955 18
264.92206 675.58832 1434.892 18
274.90387 679.24823 1442.6652 18
284.86194 682.63043 1449.8486 18
296.80673 690.43616 1466.4275 18
306.64694 693.04144 1471.9608 18
317.43225 697.57965 1481.5996 16
330.42075 706.58496 1500.7261 16
344.00754 716.36426 1521.4965 16
358.39255 727.26392 1544.6465 16
370.56332 733.23956 1557.3383 16
410.14191 791.83978 1681.7999 16
433.15179 816.4306 1734.0288 16
431.59195 794.64441 1687.7568 16
417.45273 751.20819 1595.502 16
431.94394 760.07526 1614.335 16
466.97763 803.92316 1707.464 16
502.65186 846.99078 1798.936 16
484.4425 799.35907 1697.7704 16
501.01917 809.89655 1720.151 16
501.5354 794.5697 1687.5983 16
526.15027 817.27466 1735.8217 16
545.80316 831.5495 1766.14 16
572.80194 856.26843 1818.641 16
614.78845 902.06573 1915.9105 16
652.71527 940.35413 1997.2317 16
683.69794 967.45282 2054.7871 18
639.14069 888.58203 1887.2723 16
664.25537 907.62109 1927.7097 16
688.59247 924.97211 1964.5618 16
0 0 0 0
787.17352 1022.8188 2172.3799 16
811.95142 1038.0431 2204.7148 15
836.78949 1052.8608 2236.1865 16
859.07129 1064.0507 2259.9526 16
879.88727 1073.1091 2279.1921 18
897.46985 1078.01 2289.6013 18
876.66302 1037.3395 2203.2205 18
898.05353 1047.0612 2223.8684 18
915.62231 1052.1102 2234.5923 18
935.01385 1059.0801 2249.3955 18
953.60065 1064.9553 2261.874 18
970.58246 1068.9001 2270.2524 18
988.68469 1073.954 2280.9866 18
1007.5974 1079.7404 2293.2761 18
1039.2249 1098.8164 2333.7922 18
1058.4807 1104.4823 2345.8259 18
1080.584 1112.9341 2363.7769 18
1112.011 1130.6495 2401.4031 18
1130.045 1134.472 2409.5217 18
1145.5127 1135.655 2412.0342 18
1162.3359 1138.1361 2417.3037 18
1175.7704 1137.2789 2415.4832 18
1188.5256 1135.7931 2412.3276 18
1199.8315 1132.9742 2406.3403 18
1209.6277 1128.8125 2397.5015 18
1220.6272 1125.8574 2391.2251 18
1230.2257 1121.6929 2382.3799 18
1240.0496 1117.8258 2374.1665 18
1251.6696 1115.6464 2369.5376 18
1263.7234 1113.8976 2365.8235 18
1272.8931 1109.6731 2356.8508 18
1277.7976 1101.8623 2340.2615 18
1295.8888 1105.4681 2347.9199 18
1307.0378 1103.1382 2342.9714 18
1332.626 1112.9158 2363.738 18
1343.1575 1110.0465 2357.644 18
1344.8173 1099.9799 2336.2632 16
1343.7832 1087.9373 2310.6858 16
1340.6932 1074.4897 2282.1245 16
1346.1742 1068.1115 2268.5774 16
1351.5902 1061.8081 2255.1897 16
1356.1661 1054.9747 2240.6763 16
1357.9996 1046.161 2221.9568 16
1368.8739 1044.4147 2218.2473 16
1401.464 1059.1123 2249.4641 16
1404.2634 1051.2318 2232.7266 16
1376.6962 1020.9781 2168.4702 16
1383.3474 1016.4261 2158.8022 65552
1384.0139 1007.6003 2140.0571 65552
1389.6976 1002.5545 2129.3401 65552
1392.5183 995.55243 2114.4683 196622
1397.9336 990.51367 2103.7664 196619
1403.3911 985.59363 2093.3167 262151
1412.2405 983.12097 2088.0649 918281
1434.8445 990.18341 2103.0649 2758424
1444.5045 988.26831 2098.9976 3085585
1461.1262 991.1084 2105.0295 5848114
1465.1315 985.41467 2092.9365 8348504
1487.6481 992.16248 2107.2683 8216658
1485.4246 982.43518 2086.6084 8414037
1498.8318 983.12109 2088.0652 8545880
1513.6536 984.716 2091.4526 8414035
1519.6415 980.58478 2082.6782 7821899
1533.9177 981.82513 2085.3127 5716781
1554.4431 987.01379 2096.333 5650731
1570.0542 989.02448 2100.6035 6703421
1594.051 996.24438 2115.938 8216660
1601.4144 993.03729 2109.1265 8414296
1610.4241 990.89282 2104.5718 9203812
1620.1093 989.19379 2100.9631 8677981
1641.9913 994.91083 2113.1057 8217173
1657.6746 996.81403 2117.1477 8283223
1671.3999 997.51984 2118.647 8151379
1690.9896 1001.6893 2127.5024 8414807
1699.1803 999.0943 2121.991 8743772
1714.8828 1000.922 2125.8728 8809054
1728.1187 1001.2938 2126.6626 8348503
1753.1354 1008.4369 2141.8337 8743261
1750.4724 999.66974 2123.2131 8282710
1765.3022 1000.9464 2125.9246 9072227
1764.4769 993.39099 2109.8777 8611675
1783.9318 997.27942 2118.1362 8480090
1798.226 998.24854 2120.1946 8019538
1809.0319 997.28137 2118.1404 8348503
1808.0342 989.86505 2102.3889 8019538
1823.7635 991.64557 2106.1704 7887695
1856.0431 1002.3395 2128.8833 8216917
1867.7256 1001.8409 2127.8245 7888465
1876.9771 1000.0536 2124.0286 8151637
1887.5334 998.98096 2121.7502 8283223
1893.4672 995.49207 2114.3401 8349016
1908.6859 996.8985 2117.3274 7559243
1922.0719 997.33569 2118.2559 7888722
1934.4528 997.24908 2118.0718 7954771
1941.6902 994.52899 2112.2947 8218200
1953.1698 994.00281 2111.177 7955028
1959.1622 990.70837 2104.1799 8415321
1964.3002 987.02637 2096.3596 8217428
1989.3357 993.32593 2109.7395 7888207
1993.4259 989.15369 2100.8779 7889235
2013.0221 992.67963 2108.3667 7757392
0 0 0 0
0 0 0 0
0 0 0 0
0 0 0 0
0 0 0 0
0 0 0 0
0 0 0 0
0 0 0 0
0 0 0 0
0 0 0 0
0 0 0 0
0 0 0 0
0 0 0 0
0 0 0 0
0 0 0 0
0 0 0 0
0 0 0 0
0 0 0 0
0 0 0 0
0 0 0 0
0 0 0 0
0 0 0 0
0 0 0 0
0 0 0 0
0 0 0 0
0 0 0 0
0 0 0 0
0 0 0 0
0 0 0 0
0 0 0 0
-553.2323 348.2728 730.50995 18
-548.71692 348.15372 730.26019 18
-544.30267 348.09741 730.14215 18
-539.86774 348.02689 729.9942 18
0 0 0 0
-531.15179 347.98322 729.90259 18
0 0 0 0
-522.36426 347.89044 729.70801 18
0 0 0 0
0 0 0 0
-509.00745 347.62549 729.15222 18
0 0 0 0
-500.13785 347.46552 728.81671 18
-495.63608 347.33652 728.54608 18
-491.14371 347.21185 728.28467 18
-486.57648 347.03165 727.90662 18
-482.03268 346.86505 727.55719 18
-477.50244 346.70529 727.22211 18
-473.03131 346.58594 726.97174 18
-468.5752 346.47549 726.74005 18
-464.13593 346.37555 726.53046 18
-459.71579 346.28815 726.34717 18
-455.30017 346.20258 726.16766 18
-450.86606 346.10114 725.9549 18
-446.39972 345.97275 725.68561 18
-441.93338 345.84195 725.41119 18
-437.45514 345.6991 725.11157 18
-432.83847 345.44296 724.57434 18
-428.40698 345.33096 724.33942 18
-424.03391 345.26422 724.19946 18
-419.77707 345.29178 724.25726 18
-415.56662 345.35843 724.39703 18
-411.37451 345.44193 724.5722 18
-418.9671 355.5274 745.72668 18
-414.80966 355.7507 746.19507 18
-398.95569 345.83957 725.40625 18
-394.43582 345.64471 724.9975 18
-390.00995 345.52884 724.75446 18
-385.53519 345.36655 724.41406 18
-381.06879 345.20816 724.08185 18
-376.63397 345.07516 723.80286 18
-372.24411 344.98071 723.6048 18
-367.90488 344.93155 723.50165 17
-363.539 344.85599 723.34314 16
-359.16284 344.76868 723.16003 16
-354.81583 344.70764 723.03198 16
-350.46857 344.64484 722.90027 16
-346.12469 344.58386 722.7724 16
-341.78378 344.52435 722.64752 16
-337.45883 344.47961 722.55371 16
-333.14185 344.44196 722.47473 16
-328.84619 344.42566 722.44055 16
-324.51984 344.37637 722.33716 16
-320.19476 344.32715 722.23389 16
-315.95844 344.37332 722.33075 16
-311.82233 344.53146 722.66248 16
-307.76349 344.78061 723.185 16
-303.67456 345.00256 723.65063 16
-299.64835 345.30313 724.28107 17
-295.68085 345.68112 725.07391 16
-291.29114 345.5694 724.83954 18
-287.11707 345.71393 725.1427 18
-282.96985 345.89566 725.52393 18
-278.85629 346.12485 726.00458 18
-274.79272 346.42416 726.63245 18
-270.61786 346.59052 726.98138 18
-266.57547 346.9346 727.70312 18
-262.34079 347.03564 727.91504 18
-258.05508 347.0715 727.99023 18
-253.80081 347.15152 728.15808 18
-249.50558 347.17734 728.21222 18
-249.79308 353.6929 741.87878 18
-240.0701 346.01376 725.77161 18
-235.74629 345.97827 725.6972 18
-228.11946 341.004 715.26349 18
-223.94617 341.10159 715.4682 18
-219.46504 340.72507 714.67847 18
-215.25931 340.76968 714.77203 18
-211.02867 340.77585 714.78497 18
-206.91922 340.98199 715.21741 18
-202.47733 340.63751 714.49481 17
-198.23947 340.62888 714.47668 18
-193.87831 340.40335 714.00366 18
-189.13708 339.4856 712.07867 18
-190.39095 349.53214 733.15149 18
-188.88742 354.86743 744.34235 18
-184.47928 354.87033 744.34845 16
-180.0681 354.86737 744.34229 14
-173.26967 350.0415 734.21991 13
-164.6302 341.15213 715.57422 11
-167.40466 356.07022 746.8653 11
-160.75162 351.20166 736.65332 9
-156.35394 351.12622 736.49512 9
-152.30589 351.85419 738.02203 7
-149.0056 354.40375 743.36975 7
-144.20287 353.42621 741.31934 7
-140.07133 354.08395 742.69904 7
-135.59943 353.89612 742.30499 7
-130.82666 352.88409 740.18231 7
-125.73811 350.92062 736.06384 7
-120.88407 349.49399 733.07147 7
-115.54063 346.49347 726.77777 7
0 0 0 0
0 0 0 0
-105.90091 357.55798 749.98584 7
-101.31232 357.04517 748.91028 7
-91.801819 338.34518 709.68658 7
-87.67511 338.64505 710.31561 7
-87.686142 355.76294 746.2207 7
0 0 0 0
-78.514023 354.27139 743.09216 7
-73.994537 353.71097 741.91669 7
-69.347572 352.43185 739.2337 7
-64.605576 350.46484 735.10785 7
-59.356136 345.26175 724.19427 7
0 0 0 0
0 0 0 0
0 0 0 0
0 0 0 0
0 0 0 0
0 0 0 0
0 0 0 0
0 0 0 0
0 0 0 0
0 0 0 0
0 0 0 0
0 0 0 0
0 0 0 0
1.1358148 553.94012 1161.9019 14
8.0582056 556.63562 1167.5557 14
15.653255 581.8443 1220.4315 14
0 0 0 0
30.246586 584.41614 1225.8259 16
37.756126 588.27197 1233.9136 16
45.265385 590.87323 1239.3698 15
52.647518 591.3205 1240.308 18
60.402924 595.33728 1248.7333 18
68.242409 599.21576 1256.8685 18
75.988686 601.5932 1261.8552 18
84.413628 608.43652 1276.2092 18
91.929626 608.14178 1275.5909 18
100.21677 612.60565 1284.9541 18
108.89737 618.67462 1297.6838 18
116.41753 617.78528 1295.8184 18
126.08324 627.68707 1316.5876 18
133.91287 627.82715 1316.8815 18
142.62465 631.8598 1325.3401 18
151.02856 634.17896 1330.2046 18
159.68304 637.26807 1336.684 18
168.35657 640.1377 1342.7031 18
176.9463 642.44409 1347.5409 18
186.78084 648.87585 1361.0316 18
196.82791 655.48303 1374.8904 18
206.44963 660.20502 1384.7948 18
216.13641 664.76605 1394.3617 18
227.31876 673.42181 1412.5173 18
237.82526 679.53192 1425.3334 18
249.14357 687.46301 1441.969 18
259.4903 692.27625 1452.0649 18
270.39447 698.22003 1464.5321 18
281.44949 704.17169 1477.016 18
294.24908 713.99768 1497.6261 18
306.38147 721.67676 1513.7332 18
311.92712 713.8454 1497.3068 18
328.56567 731.13123 1533.5642 16
341.3334 739.10529 1550.2898 18
354.72806 747.98334 1568.9119 18
367.40771 754.93884 1583.5012 18
377.65219 756.66895 1587.13 18
401.01193 783.95453 1644.3622 18
395.35791 754.5708 1582.7291 18
406.48434 757.83344 1589.5725 18
430.71429 784.82483 1646.1876 18
444.45438 791.93011 1661.0912 18
466.61343 813.40356 1706.1322 18
478.54276 816.51202 1712.6522 17
491.59561 821.36871 1722.8392 18
520.9751 852.75171 1788.6658 17
501.77258 804.94794 1688.3964 17
526.15027 827.55811 1735.8217 17
549.15991 847.19092 1777.002 16
569.03284 861.33722 1806.6741 15
582.51447 865.46533 1815.3328 15
648.19189 945.5874 1983.3907 17
681.51691 976.50079 2048.2322 18
645.01105 908.02679 1904.6064 17
663.9563 918.62756 1926.8419 17
688.05627 935.88129 1963.032 17
760.38055 1017.0651 2133.3169 15
784.07013 1031.6055 2163.8154 16
809.92438 1048.4802 2199.2107 16
834.93604 1063.7471 2231.2334 16
857.56775 1075.5532 2255.9971 16
878.3493 1084.7123 2275.2083 18
896.67059 1090.6021 2287.5623 18
875.48132 1048.9761 2200.2507 18
897.76434 1059.8944 2223.1523 18
915.07281 1064.7091 2233.2512 18
933.58002 1070.7614 2245.946 18
952.46875 1077.0752 2259.1892 18
968.96893 1080.5502 2266.4783 18
987.10345 1085.7279 2277.3386 18
1005.4984 1091.0486 2288.4988 17
1037.166 1110.4381 2329.1687 16
1056.7288 1116.5284 2341.9434 18
1078.2455 1124.4988 2358.6614 18
1109.9882 1142.7936 2397.0349 18
1128.5403 1147.2169 2406.3132 18
1144.2769 1148.7037 2409.4316 18
1159.8837 1150.0253 2412.2036 18
1173.3972 1149.2644 2410.6077 18
1186.4374 1148.0636 2408.0891 18
1197.8502 1145.3354 2402.3667 18
1207.5337 1141.0374 2393.3513 18
1218.4612 1138.0007 2386.9819 18
1227.6251 1133.4055 2377.3435 18
1238.936 1130.8744 2372.0344 18
1235.078 1114.7096 2338.1282 18
1241.5508 1108.1237 2324.3142 18
1268.444 1119.7083 2348.613 18
1274.4678 1112.8191 2334.1628 18
1280.7998 1106.344 2320.5813 18
1317.1708 1125.6783 2361.1355 18
1329.2726 1124.0834 2357.79 18
1339.4172 1120.8838 2351.0789 18
1341.0731 1110.7192 2329.7585 17
1350.1993 1106.886 2321.7183 18
1349.4156 1095.088 2296.9717 18
1358.9528 1091.8176 2290.1118 18
1356.2622 1078.8848 2262.9851 18
1351.7207 1064.7473 2233.3313 18
1351.5538 1054.2963 2211.4102 18
1366.7689 1055.9297 2214.8362 18
1374.9208 1052.127 2206.8599 18
1407.0632 1066.5813 2237.1782 16
1407.8348 1057.2081 2217.5176 16
1380.6166 1027.1836 2154.5405 16
1383.8057 1020.125 2139.7351 16
1390.8607 1016.0188 2131.1221 16
1391.8845 1007.6202 2113.5059 14
1397.9336 1002.9769 2103.7664 65551
1401.219 996.45026 2090.0767 196621
1402.0742 988.32495 2073.0337 196620
1410.2498 985.45605 2067.0161 262154
1413.0831 978.93561 2053.3394 393219
1430.4436 982.50452 2060.8252 1903631
1450.5509 987.88379 2072.1084 4665647
1451.0703 979.94452 2055.4556 5914423
1459.8643 977.67877 2050.7031 8217174
1480.7881 983.50702 2062.928 8611929
1488.451 980.50427 2056.6296 8874845
1499.0709 979.4823 2054.4861 9006432
1511.7241 979.79474 2055.1414 8282453
1525.4746 980.80756 2057.2659 8019536
1538.3224 981.22858 2058.1489 7624779
1555.4165 984.33026 2064.6548 7887693
1569.1368 985.2652 2066.6157 8348500
1584.0981 986.95868 2070.168 8545623
1613.4595 997.52911 2092.3396 7624521
1609.9366 987.76251 2071.854 7887694
1626.208 990.19647 2076.9592 7821903
1643.814 993.40039 2083.6794 7624523
1662.2545 997.05707 2091.3496 7953744
1660.7828 988.80426 2074.0391 7690314
1681.0181 993.50171 2083.8921 7822157
1710.553 1003.5869 2105.0459 7493194
1722.708 1003.403 2104.6602 9006434
1732.5446 1001.881 2101.4678 8940640
1750.0925 1004.8082 2107.6077 8809055
1758.1388 1002.2772 2102.2988 8743262
1765.3667 999.31854 2096.093 8480090
1778.0397 999.46204 2096.394 8611674
1787.9448 998.05853 2093.4502 8545625
1804.1794 1000.1832 2097.9065 8019538
1810.6879 996.92371 2091.0698 7756366
1805.0027 987.04059 2070.3398 8743261
1834.3914 996.34119 2089.8479 7887952
1827.4421 985.91272 2067.9739 7756622
1836.5919 984.25067 2064.4878 7296328
1885.6842 1003.8746 2105.6494 7954258
1873.8981 991.04401 2078.7371 7230535
1914.5284 1005.9214 2109.9426 8283223
1909.15 996.58887 2090.3674 8546137
1913.5308 992.43811 2081.6611 8875615
1922.0579 990.47723 2077.5481 8283735
1941.8877 994.3288 2085.627 7691856
1946.1669 990.21942 2077.0073 6573632
1962.2622 992.13593 2081.0273 7626062
1971.2457 990.45526 2077.5022 7889235
1981.9318 989.64551 2075.8037 7757648
0 0 0 0
0 0 0 0
0 0 0 0
0 0 0 0
0 0 0 0
0 0 0 0
0 0 0 0
0 0 0 0
0 0 0 0
0 0 0 0
0 0 0 0
0 0 0 0
0 0 0 0
0 0 0 0
0 0 0 0
0 0 0 0
0 0 0 0
0 0 0 0
0 0 0 0
0 0 0 0
0 0 0 0
0 0 0 0
0 0 0 0
0 0 0 0
0 0 0 0
0 0 0 0
0 0 0 0
0 0 0 0
0 0 0 0
0 0 0 0
-553.39105 352.70169 730.7196 18
-548.91827 352.60925 730.52814 18
-544.46912 352.53073 730.36542 18
-540.09558 352.50024 730.30225 18
0 0 0 0
-531.2608 352.37964 730.05243 18
-526.96667 352.40027 730.09515 18
-522.57983 352.35876 730.00916 18
0 0 0 0
-513.73462 352.22455 729.73108 18
-509.27954 352.1333 729.54205 18
-504.77176 352.00372 729.27356 18
-500.39584 351.96466 729.19263 18
-495.8895 351.83237 728.91858 18
-491.38815 351.70135 728.64716 18
-486.88879 351.56943 728.37384 18
-482.37164 351.42224 728.06885 18
-477.8678 351.2821 727.77856 18
-473.4053 351.1701 727.54651 18
-468.95505 351.06522 727.32922 18
-464.53705 350.98276 727.15839 18
-460.12573 350.90384 726.99487 18
-455.7114 350.82111 726.82349 18
-451.28436 350.72696 726.62842 18
-446.82556 350.60605 726.37793 18
-442.35971 350.47723 726.11102 18
-437.87808 350.33322 725.81268 18
-433.45059 350.23013 725.59906 18
-429.06668 350.16046 725.45477 18
-424.49774 349.93695 724.9917 18
-420.24179 349.96948 725.05908 18
-416.02878 350.03879 725.2027 18
-411.82642 350.11862 725.3681 18
-407.66934 350.23907 725.61761 18
-403.48346 350.33701 725.82056 18
-399.22287 350.37155 725.89209 18
-394.91077 350.36111 725.87048 18
-390.49893 350.26102 725.66309 18
-386.02823 350.10529 725.34045 18
-381.53018 349.92096 724.95856 15
-377.05527 349.75391 724.61249 16
-372.64386 349.64258 724.38184 16
-368.29895 349.5918 724.27661 16
-363.93146 349.51816 724.12402 16
-359.56577 349.44446 723.97137 16
-355.23511 349.40344 723.88635 16
-350.90448 349.36148 723.79944 16
-346.56964 349.31424 723.70154 16
-342.23981 349.27087 723.61176 16
-337.92581 349.2428 723.55359 16
-333.61057 349.21271 723.49121 16
-329.31192 349.19943 723.46375 16
-324.99783 349.16922 723.40112 16
-320.68118 349.13544 723.33112 16
-316.45795 349.20374 723.47266 16
-312.46368 349.53012 724.14886 16
-308.27029 349.63968 724.37585 15
-304.26773 349.97189 725.06409 15
-300.18958 350.2254 725.58929 18
-296.03696 350.39816 725.9472 18
-291.85568 350.54156 726.24432 18
-287.66714 350.68042 726.53198 18
-283.44031 350.77606 726.73016 18
-279.30597 350.99091 727.17529 18
-275.22739 351.28366 727.7818 18
-271.20264 351.65555 728.55225 18
-267.10065 351.93768 729.13678 18
-262.92361 352.12857 729.53229 18
-258.6825 352.23859 729.76019 18
-254.41562 352.31671 729.922 19
-249.80493 351.91312 729.08588 19
-245.13339 351.40814 728.03967 19
-240.80949 351.39236 728.00696 19
-245.09593 364.16937 754.47815 19
-232.06909 351.21881 727.64746 19
-227.80411 351.28943 727.7937 18
-219.50616 345.02362 714.81238 18
-215.31352 345.09106 714.95209 18
-211.12921 345.17477 715.12555 18
-206.91747 345.21619 715.2113 18
-202.54103 344.97885 714.7196 18
-198.2132 344.81592 714.38202 18
-193.89227 344.65808 714.05505 18
-189.13841 343.70651 712.08362 18
-190.58087 354.22852 733.88287 18
-186.45181 354.64438 734.74445 18
-182.16696 354.77667 735.01855 16
-180.13928 359.41904 744.63647 14
-175.81026 359.58752 744.98553 12
-171.35507 359.49997 744.8042 11
-166.87167 359.34708 744.48737 11
-162.42079 359.25781 744.30243 9
-157.9606 359.1423 744.06317 9
-154.79671 362.05215 750.09174 7
-149.29112 359.49518 744.79419 7
-144.46095 358.45834 742.64612 7
-138.86 355.38373 736.27625 7
-135.47136 357.95526 741.60388 6
-132.06055 360.63867 747.16333 6
-126.55651 357.59366 740.85468 7
-122.95164 359.88882 745.6098 7
-114.86227 348.73941 722.51068 7
-112.03059 353.30795 731.97571 7
-106.62441 349.79834 724.70453 7
-105.88272 361.93887 749.85699 7
-101.31798 361.50211 748.95209 7
-96.660767 360.68024 747.24939 7
-87.67511 342.85315 710.31561 7
-83.571365 343.28168 711.20343 7
0 0 0 0
0 0 0 0
-73.86911 357.49921 740.659 7
-68.978691 354.91327 735.30151 7
0 0 0 0
0 0 0 0
0 0 0 0
0 0 0 0
0 0 0 0
0 0 0 0
0 0 0 0
0 0 0 0
0 0 0 0
0 0 0 0
0 0 0 0
0 0 0 0
0 0 0 0
0 0 0 0
-5.8742065 573.1817 1187.5052 14
1.17665 580.98645 1203.675 14
8.3431215 583.47809 1208.8372 14
15.614791 587.62695 1217.4326 14
0 0 0 0
30.243204 591.61212 1225.689 14
37.750557 595.49408 1233.7316 16
45.262638 598.1792 1239.2946 16
52.647266 598.66553 1240.3021 18
60.402931 602.73511 1248.7334 18
68.24234 606.66113 1256.8672 18
75.989067 609.07178 1261.8616 18
84.201019 614.44556 1272.9949 18
91.929626 615.69861 1275.5909 18
100.21688 620.21875 1284.9556 18
108.89724 626.36169 1297.6824 18
116.44209 625.59381 1296.0916 18
126.06245 635.38208 1316.3706 18
133.96297 635.86639 1317.374 18
142.64575 639.80609 1325.5363 18
151.0611 642.19769 1330.4911 18
159.71733 645.32538 1336.9709 18
168.38347 648.19568 1342.9176 18
179.45447 659.64685 1366.6418 18
189.99051 668.22784 1384.4198 18
199.412 672.34082 1392.9409 18
207.31316 671.20465 1390.587 18
217.34389 676.7865 1402.1515 18
227.76926 683.14105 1415.3167 18
238.0244 688.55194 1426.5269 18
247.83971 692.3631 1434.4226 18
260.52222 703.66577 1457.8394 18
271.35358 709.40369 1469.7271 18
282.23679 714.91608 1481.1475 18
294.62384 723.79053 1499.5333 18
306.15036 730.09332 1512.5913 18
318.31812 737.52332 1527.9846 18
323.50681 728.81946 1509.9521 16
341.54623 748.75616 1551.2566 15
351.89828 751.23688 1556.3961 16
362.57611 754.26868 1562.6774 18
374.3783 759.4303 1573.3711 18
386.10306 764.18787 1583.2277 18
412.4996 797.07013 1651.3523 18
406.25067 766.80933 1588.6588 18
432.40973 797.70496 1652.6676 18
446.52716 805.51001 1668.8379 18
466.4895 823.29242 1705.6791 16
500.7258 864.97821 1792.0428 16
488.5788 826.47198 1712.2665 15
509.81314 844.85083 1750.3434 18
501.97366 815.27704 1689.073 18
528.53772 841.64325 1743.6981 18
551.71655 861.71149 1785.2749 18
567.11279 869.0979 1800.5779 18
582.94629 876.86932 1816.6786 18
646.86285 955.37451 1979.324 18
679.95276 986.36578 2043.5311 18
647.43524 922.76514 1911.7646 18
666.41766 933.49036 1933.9847 18
687.57678 946.85059 1961.6642 18
757.008 1025.1364 2123.855 18
781.8714 1041.4956 2157.7478 18
807.68884 1058.5787 2193.1404 18
832.93744 1074.3875 2225.8923 18
855.55139 1086.3579 2250.6926 18
876.5849 1095.9851 2270.6379 18
896.19141 1103.5641 2286.3398 18
873.96527 1060.1718 2196.4407 18
896.91711 1072.0524 2221.0544 18
914.2489 1076.9689 2231.2405 18
931.98621 1082.2162 2242.1118 18
950.94244 1088.7117 2255.5688 18
967.35327 1092.1533 2262.6992 18
985.38763 1097.3087 2273.3801 18
1003.4478 1102.3534 2283.8315 18
1034.8273 1121.7015 2323.9165 18
1054.7627 1128.2996 2337.5862 18
1075.9009 1135.9963 2353.5325 18
1107.6409 1154.5472 2391.9656 18
1126.8309 1159.7133 2402.6685 18
1142.9149 1161.5935 2406.564 18
1158.6344 1163.0616 2409.6055 18
1171.9832 1162.1429 2407.7024 18
1185.0559 1160.9763 2405.2852 18
1196.0266 1157.8024 2398.7095 18
1205.0398 1152.8302 2388.4082 18
1215.782 1149.6083 2381.7334 18
1225.1033 1145.1323 2372.46 18
1236.7571 1142.9133 2367.8628 18
1229.2229 1123.2109 2327.0437 18
1233.8365 1114.9226 2309.8723 18
1264.5135 1130.1093 2341.3357 18
1271.9216 1124.3964 2329.4998 18
1279.3833 1118.8529 2318.0149 18
1287.7057 1114.1719 2308.3169 18
1318.8638 1129.1399 2339.3274 18
1331.6022 1128.1908 2337.3611 18
1333.9728 1118.5675 2317.4236 18
1344.874 1116.2206 2312.5613 18
1345.9191 1105.823 2291.0198 18
1362.0504 1107.9044 2295.332 18
1350.36 1087.5378 2253.137 18
1355.3328 1080.8586 2239.2991 17
1351.2762 1067.1779 2210.9558 17
1366.0453 1068.485 2213.6636 17
1374.1113 1064.5739 2205.5608 18
1405.9725 1078.9978 2235.4441 18
1407.6715 1070.2209 2217.2603 18
1407.223 1059.9888 2196.0615 17
1382.115 1031.5396 2137.1208 17
1383.5938 1023.2695 2119.9873 18
1387.6923 1017.0685 2107.1401 16
1392.3893 1011.4127 2095.4226 15
1398.1382 1006.6141 2085.4812 16
1399.9968 999.12354 2069.9622 14
1404.743 993.80573 2058.9448 14
1413.0024 991.04352 2053.2222 131084
1419.8801 987.36768 2045.6066 327687
1412.1171 973.65918 2017.2057 589827
1423.5409 973.29907 2016.4597 2758939
1436.5056 973.98993 2017.8909 6046527
1448.2371 973.83997 2017.5802 6374459
1467.4508 978.68262 2027.6132 8085074
1469.6831 972.2132 2014.21 8150866
1500.4652 984.58185 2039.8351 8150865
1510.4691 983.22766 2037.0294 8085329
1518.0312 980.31793 2031.0011 8216917
1536.8219 984.64813 2039.9724 8216916
1550.269 985.51385 2041.766 8809053
1564.5845 986.91388 2044.6666 8611672
1585.4681 992.40369 2056.0403 8545880
1592.2683 989.06177 2049.1165 8085329
1608.6055 991.6496 2054.4778 8348500
1630.4155 997.54694 2066.6958 7690571
1638.7637 995.18134 2061.7949 7887952
1654.4561 997.27765 2066.1379 7953745
1646.7161 985.32239 2041.3693 8809054
1668.0962 990.83862 2052.7976 7230021
1696.3009 1000.2993 2072.3982 7361864
1713.0466 1002.9154 2077.8181 7493194
1720.3328 999.9953 2071.7683 8151124
1722.5499 994.19116 2059.7434 8743005
1740.9489 997.74243 2067.1008 8414041
1756.2987 999.50891 2070.7605 8414296
1767.2985 998.79224 2069.2759 8282710
1780.3861 999.25739 2070.2395 7953745
1798.7462 1002.6552 2077.2791 8216660
1805.8108 999.75323 2071.2668 8019538
1804.7057 992.39795 2056.0283 7427144
1801.2856 983.87689 2038.3745 8283222
1821.3019 988.18518 2047.3004 8283222
1827.0253 984.73285 2040.1478 7559500
1847.9166 989.44745 2049.9155 8151637
1867.175 993.23181 2057.7559 8020051
1882.9778 995.14069 2061.7107 8480602
1891.8878 993.40582 2058.1165 7692113
1895.0085 988.67273 2048.3105 8876387
1900.3138 985.13239 2040.9757 6244410
1921.1707 989.64783 2050.3306 6639425
1929.4135 987.64954 2046.1906 6309946
1934.748 984.19672 2039.0372 7165255
1952.2004 986.91278 2044.6643 7823440
0 0 0 0
0 0 0 0
0 0 0 0
0 0 0 0
0 0 0 0
0 0 0 0
0 0 0 0
0 0 0 0
0 0 0 0
0 0 0 0
0 0 0 0
0 0 0 0
0 0 0 0
0 0 0 0
0 0 0 0
0 0 0 0
0 0 0 0
0 0 0 0
0 0 0 0
0 0 0 0
0 0 0 0
0 0 0 0
0 0 0 0
0 0 0 0
0 0 0 0
0 0 0 0
0 0 0 0
0 0 0 0
0 0 0 0
0 0 0 0
-553.55023 357.1333 730.92975 18
-549.06689 357.03378 730.72601 17
-544.62909 356.96243 730.58002 17
0 0 0 0
-535.8653 356.89075 730.43335 18
-531.52216 356.8801 730.41156 18
-527.15961 356.85614 730.36249 18
-522.77972 356.81995 730.28839 18
-518.42029 356.79718 730.24182 18
-514.0141 356.74164 730.12811 18
0 0 0 0
-505.1402 356.5842 729.80591 18
-500.63675 356.45609 729.5437 18
-496.12775 356.32175 729.2688 18
-491.61957 356.18567 728.9903 18
-487.12927 356.06024 728.73358 18
-482.64838 355.93954 728.48651 18
-478.16937 355.81802 728.23785 18
-473.72015 355.71667 728.0304 18
-469.30591 355.63995 727.87335 18
-464.89676 355.5657 727.72144 18
-460.49664 355.49707 727.58093 18
-456.08859 355.42096 727.42511 18
-451.66119 355.32816 727.23523 18
-447.20712 355.21237 726.99823 18
-442.74576 355.08847 726.74469 18
-438.26385 354.9455 726.45209 18
-433.81461 354.82648 726.20844 18
-429.45157 354.77621 726.10559 18
-425.14359 354.77087 726.09467 18
-420.69824 354.64966 725.84656 18
-416.45157 354.69516 725.9397 18
-412.24881 354.77936 726.11206 18
-408.15012 354.9559 726.47333 18
-404.06418 355.14734 726.86517 18
-399.85837 355.23651 727.04767 18
-395.34528 355.05157 726.66919 18
-390.94733 354.96713 726.49634 18
-386.50394 354.83911 726.23431 18
-382.0459 354.69461 725.93854 15
-377.60318 354.56116 725.66541 16
-373.20892 354.47067 725.48029 16
-368.87006 354.43134 725.39972 16
-364.49411 354.35501 725.24353 16
-360.10672 354.26559 725.06049 16
-355.75714 354.2117 724.9502 16
-351.40228 354.15112 724.82623 16
-347.05014 354.09183 724.7049 16
-342.71393 354.04752 724.6142 16
-338.40329 354.02881 724.57593 16
-334.09695 354.01419 724.54602 16
-329.80811 354.01801 724.55383 16
-325.48398 353.98352 724.48322 16
-321.16623 353.95517 724.42517 15
-317.04147 354.14157 724.8067 17
-313.00632 354.43457 725.40637 17
-308.85611 354.60367 725.75244 18
-304.83774 354.93103 726.42249 17
-300.74362 355.17831 726.92853 18
-296.58118 355.35086 727.28174 18
-292.42087 355.53116 727.6507 18
-288.24329 355.69556 727.98712 18
-284.09036 355.89575 728.39691 18
-279.82108 355.95413 728.51636 18
-275.79517 356.32883 729.28326 18
-271.72345 356.65527 729.95135 18
-267.76892 357.14859 730.961 18
-263.86545 357.72736 732.14557 18
-259.50702 357.69833 732.08618 18
-255.13647 357.6514 731.99011 19
-250.50378 357.22897 731.12555 19
-245.72339 356.57736 729.79193 18
-249.74883 368.90973 755.03204 18
-245.11209 368.66339 754.52789 18
-240.5562 368.5318 754.25861 18
-224.03415 349.71613 715.74933 18
-219.56319 349.34906 714.99805 18
-215.25258 349.22766 714.74963 18
-211.02661 349.24155 714.77802 18
-206.64931 349.00037 714.28442 18
-202.60266 349.31927 714.93707 18
-198.20085 349.02631 714.33746 18
-193.91496 348.92914 714.13861 18
-189.43867 348.47742 713.21411 18
-185.37779 348.78665 713.84698 18
-183.55867 353.42667 723.34351 18
-179.34732 353.57233 723.64166 18
-180.18314 363.91901 744.81775 16
-175.88002 364.14542 745.28113 12
-171.38361 363.97299 744.92822 11
-166.94269 363.91238 744.8042 10
-162.50841 363.86337 744.70392 9
-158.0078 363.65897 744.28558 9
-153.30051 362.95349 742.84167 7
-150.04375 365.7421 748.54895 7
-145.5956 365.70795 748.47913 5
-137.71735 356.78531 730.21753 5
-135.52055 362.48032 741.87323 5
-130.68886 361.27319 739.40265 5
-126.05744 360.55518 737.93317 5
-121.41831 359.76273 736.31128 5
0 0 0 0
-113.85802 363.47824 743.91565 5
-106.29595 353.00089 722.47211 5
-105.90769 366.46762 750.03387 5
-101.38918 366.19617 749.47833 5
0 0 0 0
-87.497169 346.35684 708.87402 5
-83.354218 346.5921 709.35547 7
0 0 0 0
0 0 0 0
0 0 0 0
-65.797531 342.70056 701.39087 6
0 0 0 0
-58.83757 350.75098 717.86731 8
0 0 0 0
0 0 0 0
0 0 0 0
0 0 0 0
0 0 0 0
0 0 0 0
-35.685009 430.59692 881.28467 12
0 0 0 0
0 0 0 0
0 0 0 0
0 0 0 0
-12.315039 553.50916 1132.844 14
-5.8794494 580.73462 1188.5652 14
1.1766478 588.11615 1203.6727 14
8.3420868 590.56635 1208.6874 14
15.164432 577.68298 1182.3196 14
0 0 0 0
30.240622 598.8222 1225.5842 14
37.747482 602.75385 1233.6311 16
45.259495 605.479 1239.2085 16
52.646908 606.00922 1240.2937 15
60.401733 610.12079 1248.7086 18
68.241425 614.09888 1256.8503 18
75.989182 616.54828 1261.8635 18
83.942001 620.07379 1269.079 18
91.929626 623.25555 1275.5909 18
100.21735 627.83405 1284.9615 18
108.89731 634.04987 1297.6832 18
116.4494 633.31195 1296.173 18
126.0295 643.01239 1316.0265 18
134.0321 644.00299 1318.0538 18
142.65666 647.70837 1325.6376 18
151.10179 650.255 1330.8496 18
159.76434 653.43823 1337.3646 18
168.42188 656.30109 1343.2239 18
177.02794 658.71417 1348.1626 18
186.91484 665.47906 1362.0081 18
196.97328 672.26953 1375.9059 18
207.58353 680.3288 1392.4004 18
216.32025 681.86658 1395.5476 18
226.15231 686.61658 1405.2693 18
238.8799 699.50818 1431.6541 18
250.19951 707.53424 1448.0806 18
260.76144 712.95642 1459.178 18
268.49115 710.53552 1454.2233 18
282.43173 724.19067 1482.1707 18
296.66522 737.75061 1509.9232 18
307.60498 742.56573 1519.7782 18
318.08279 746.02356 1526.8551 18
324.03571 738.97089 1512.4208 18
342.26767 759.54712 1554.5332 18
351.1059 758.74506 1552.8916 18
358.09924 754.09882 1543.3824 18
369.85654 759.46637 1554.3679 17
394.93793 791.26825 1619.4556 15
415.72125 813.1546 1664.2494 15
451.37994 862.44916 1765.1384 16
445.77304 832.45081 1703.7421 16
431.97394 788.82117 1614.4471 18
467.13727 834.55444 1708.0476 18
500.30191 874.85345 1790.5259 18
484.47842 829.59448 1697.8962 18
503.77219 845.08643 1729.6029 18
502.10434 825.49823 1689.5126 18
526.15027 848.12494 1735.8217 18
558.22162 882.57251 1806.3242 18
567.60376 880.52661 1802.1368 18
583.6073 888.63818 1818.7385 18
645.53217 965.11096 1975.2522 18
678.43982 996.25055 2038.9843 18
647.43524 934.09088 1911.7646 18
666.28345 944.75745 1933.5955 18
687.13312 957.85333 1960.3983 18
754.86908 1034.7865 2117.854 18
779.65002 1051.2832 2151.6172 18
805.59064 1068.7878 2187.4431 18
831.11139 1085.1899 2221.0127 18
853.63123 1097.2235 2245.6414 18
874.78058 1107.1533 2265.9641 18
898.62042 1120.1366 2292.5366 18
871.86951 1070.6105 2191.1736 18
895.47845 1083.4696 2217.4917 18
913.42053 1089.1995 2229.2188 18
930.59894 1093.8683 2238.7744 18
949.09399 1099.9319 2251.1846 18
966.03174 1104.0476 2259.6079 18
983.4563 1108.5996 2268.9243 18
1001.7593 1114.0057 2279.9888 18
1032.2244 1132.6128 2318.071 18
1052.5753 1139.7793 2332.7385 18
1073.7284 1147.6173 2348.7803 18
1105.1279 1166.0664 2386.5391 18
1124.8568 1171.8905 2398.4592 18
1141.4003 1174.2922 2403.3748 18
1157.2531 1175.933 2406.7327 16
1170.5995 1175.0179 2404.8599 17
1183.424 1173.6073 2401.9727 17
1193.8683 1169.8978 2394.3809 18
1203.5219 1165.5096 2385.3997 18
1212.9357 1160.9939 2376.1575 18
1222.6572 1156.8727 2367.7229 18
1234.6403 1154.9609 2363.8101 18
1223.8893 1132.0634 2316.9465 18
1234.5753 1129.2827 2311.2554 18
1261.6073 1141.3507 2335.9546 18
1269.5311 1136.0576 2325.1216 18
1278.1887 1131.5278 2315.8506 18
1286.9343 1127.1714 2306.9343 18
1317.7079 1141.9969 2337.2771 18
1327.6689 1138.6646 2330.457 18
1327.6793 1126.9546 2306.4905 18
1342.1143 1127.6022 2307.8159 18
1352.1725 1124.5966 2301.6646 18
1349.7316 1111.3593 2274.5723 18
1367.9077 1115.1918 2282.4163 18
1370.5237 1106.3881 2264.3979 16
1363.5575 1090.0945 2231.0505 16
1359.8771 1076.7152 2203.668 16
1373.166 1076.8987 2204.0435 16
1371.4031 1065.3855 2180.4797 15
1407.4583 1083.1924 2216.9243 15
1406.4468 1072.4069 2194.8501 16
1380.8884 1043.2737 2135.2244 16
1382.8346 1035.2605 2118.8242 16
1387.459 1029.3785 2106.7859 16
1391.9536 1023.5062 2094.7671 16
1395.3829 1016.9611 2081.3716 14
1396.0502 1008.5352 2064.1267 13
1400.7955 1003.1763 2053.1589 14
1412.4656 1002.8261 2052.4421 65550
1418.2473 998.33679 2043.2542 196622
1412.9487 986.19 2018.3937 131082
1417.2395 980.88385 2007.5338 327686
1423.1768 976.79608 1999.1675 1378060
1443.5079 982.57349 2010.9919 3942439
1445.2559 975.71045 1996.9457 5520438
1456.0117 974.99103 1995.4731 7362123
1470.7811 976.94904 1999.4806 8809054
1487.3693 980.07416 2005.8767 8677210
1503.056 982.56061 2010.9656 8019538
1524.0594 988.45612 2023.0316 8019537
1536.1868 988.54767 2023.2191 8480090
1549.3876 989.3233 2024.8065 8151124
1558.6263 987.57678 2021.2318 8151125
1580.6388 993.88855 2034.15 8085330
1595.473 995.62555 2037.7051 7361607
1604.3835 993.66766 2033.698 8085329
1623.8867 998.25043 2043.0774 7164228
1627.6832 993.18164 2032.7032 8282708
1645.3926 996.61426 2039.7285 8019025
1658.8212 997.42279 2041.3834 7097923
1669.5654 996.61743 2039.735 5387048
1670.9133 990.25476 2026.7129 4597790
1701.1073 1000.9564 2048.6155 4993060
1711.292 999.8161 2046.2816 6572090
1716.3284 995.70514 2037.8679 7690573
1728.2336 995.60864 2037.6703 7361350
1737.3965 993.94458 2034.2646 7164229
1753.1985 996.07544 2038.6259 7953488
1762.5039 994.51141 2035.4248 7295558
1777.647 996.24011 2038.9629 7690573
1786.9041 994.66919 2035.7477 7822159
1791.9205 990.77454 2027.7767 8151636
1805.2811 991.51477 2029.2916 7427914
1820.0533 993.01526 2032.3628 8612188
1821.6814 987.37183 2020.8124 7033156
1828.2888 984.48322 2014.9004 8414809
1840.8019 984.79156 2015.5315 8217173
1872.8588 995.48401 2037.4154 8020821
1873.7433 989.57666 2025.3251 8283992
1891.1683 992.42432 2031.1533 6770754
1899.9956 990.75269 2027.7321 6902339
1897.5081 983.23901 2012.354 6441789
1906.6415 981.80334 2009.4156 6178361
1941.6874 993.64587 2033.6532 8086355
0 0 0 0
0 0 0 0
0 0 0 0
0 0 0 0
0 0 0 0
0 0 0 0
0 0 0 0
0 0 0 0
0 0 0 0
0 0 0 0
0 0 0 0
0 0 0 0
0 0 0 0
0 0 0 0
0 0 0 0
0 0 0 0
0 0 0 0
0 0 0 0
0 0 0 0
0 0 0 0
0 0 0 0
0 0 0 0
0 0 0 0
0 0 0 0
0 0 0 0
0 0 0 0
0 0 0 0
0 0 0 0
0 0 0 0
0 0 0 0
-553.71912 361.57379 731.15277 15
-549.24542 361.48022 730.96356 18
-544.82379 361.41971 730.84119 18
0 0 0 0
-536.06134 361.35019 730.70062 18
-531.72089 361.34229 730.68463 18
-527.36646 361.32471 730.64911 18
-522.99731 361.29663 730.59235 18
-518.64679 361.2811 730.56091 18
-514.24701 361.23068 730.45892 18
-509.83957 361.17395 730.34424 18
-505.38232 361.08072 730.1557 18
-500.87509 360.94986 729.89105 18
-496.36478 360.81439 729.61719 18
-491.85162 360.67456 729.33441 18
-487.35217 360.54233 729.06702 18
-482.90656 360.44797 728.87616 18
-478.43814 360.33469 728.64716 18
-474.01688 360.25519 728.48639 18
-469.62088 360.19363 728.36188 18
-465.22061 360.12759 728.22839 18
-460.8288 360.06699 728.10577 18
-456.43304 360.00204 727.97449 18
-452.00977 359.91397 727.79639 18
-447.56586 359.80762 727.58136 18
-443.10251 359.68344 727.33026 18
-438.6232 359.54373 727.04773 18
-434.16937 359.42236 726.80231 18
-429.79303 359.36334 726.68292 18
-425.48923 359.36435 726.685 18
-421.22235 359.39694 726.75085 18
-416.83121 359.32303 726.60144 18
-412.6618 359.44077 726.83948 18
-408.52075 359.58594 727.13306 18
-404.34293 359.70148 727.3667 18
-400.09009 359.75201 727.46887 18
-395.77591 359.74792 727.46063 18
-391.36365 359.65366 727.27002 18
-386.90558 359.51468 726.98895 17
-382.47278 359.39633 726.74963 16
-378.06085 359.2951 726.54498 16
-373.69287 359.2338 726.42102 16
-369.36823 359.21323 726.37939 16
-365.01617 359.16522 726.28229 16
-360.6452 359.0972 726.14478 16
-356.30746 359.061 726.07159 16
-351.95639 359.01038 725.96918 16
-347.60699 358.96017 725.86768 16
-343.27252 358.92435 725.79523 16
-338.96216 358.91315 725.77258 16
-334.65802 358.90833 725.76282 16
-330.35809 358.90796 725.76208 16
-326.02173 358.86749 725.68024 17
-321.69507 358.8367 725.61798 17
-317.47537 358.92609 725.79871 18
-313.48947 359.2858 726.52612 16
-309.51184 359.66519 727.29333 16
-305.49109 360.00446 727.97937 16
-301.28348 360.13007 728.2334 15
-297.14114 360.33853 728.65491 15
-292.97751 360.52692 729.03583 18
-288.79752 360.7005 729.38684 18
-284.6424 360.91089 729.81226 18
-280.50479 361.15027 730.29639 18
-276.31738 361.33215 730.66412 18
-272.4527 361.94846 731.9104 18
-268.47574 362.43314 732.8905 18
-264.20416 362.52951 733.08539 18
-259.99487 362.71603 733.46252 18
-255.70139 362.78937 733.61084 18
-250.74272 361.90518 731.82294 18
-246.14479 361.51974 731.04352 18
-241.99582 361.79169 731.59338 18
-238.21442 362.63306 733.2948 18
-233.88269 362.65244 733.33392 18
-225.14865 355.71719 719.30994 18
-231.2986 372.48358 753.21387 18
-226.70447 372.26697 752.77588 18
-222.06004 371.9574 752.1499 18
-216.6857 370.38748 748.97528 18
-212.03806 370.02008 748.23236 18
-198.21695 353.2869 714.39551 18
-193.93982 353.20511 714.23016 18
-189.49229 352.80249 713.41595 18
-185.41251 353.08176 713.98071 18
-181.4059 353.51666 714.86011 18
-177.23433 353.64325 715.11609 18
-173.12288 353.89886 715.633 16
-169.11577 354.38599 716.61804 13
-164.88708 354.42194 716.69073 11
-166.99173 368.43298 745.02301 11
-162.57249 368.42038 744.99756 9
-158.10413 368.29269 744.73932 9
-153.56026 367.97668 744.10034 7
-148.75502 366.99719 742.11963 7
-145.59712 370.14597 748.48694 5
-138.88506 364.17316 736.40906 5
-135.36842 366.46347 741.04041 5
-130.82031 366.02136 740.14642 5
-128.26826 371.32703 750.87518 5
-123.75324 371.12714 750.47095 5
0 0 0 0
-111.68138 360.85245 729.69409 5
-106.29595 357.28098 722.47211 5
-105.90769 370.91098 750.03387 5
-97.996696 358.2348 724.40088 5
-93.982346 359.2944 726.54352 5
-87.543221 350.74084 709.24707 8
-83.354218 350.79446 709.35547 7
0 0 0 0
0 0 0 0
-73.904892 366.45233 741.01782 9
0 0 0 0
0 0 0 0
0 0 0 0
0 0 0 0
-52.116581 367.59122 743.32086 14
0 0 0 0
0 0 0 0
0 0 0 0
0 0 0 0
0 0 0 0
0 0 0 0
0 0 0 0
0 0 0 0
0 0 0 0
0 0 0 0
-5.8814964 587.98059 1188.979 14
1.1706349 592.20514 1197.5216 14
8.0582056 577.38617 1167.5557 14
15.64885 603.36487 1220.0881 14
0 0 0 0
