# .PCD v0.7 - Point Cloud Data file format
VERSION 0.7
FIELDS x y z rgb
SIZE 4 4 4 4
TYPE F F F U
COUNT 1 1 1 1
WIDTH 1516
HEIGHT 1
VIEWPOINT 0 0 0 1 0 0 0
POINTS 1516
DATA ascii
-672.38428 464.90948 963.18927 16
-664.13556 463.13644 959.51587 18
-655.57629 461.11429 955.32648 18
-595.15613 422.26181 874.83276 18
-586.52942 419.79681 869.72583 18
-577.92236 417.3024 864.55792 18
-571.40869 416.28833 862.45709 18
-564.73163 415.13596 860.06958 18
-558.5611 414.33829 858.41699 18
-553.12726 414.07755 857.87677 18
-547.20294 413.44135 856.55865 18
-540.06146 411.8649 853.29266 18
-533.57922 410.76627 851.01654 18
-525.17584 408.15359 845.60364 18
-517.88495 406.36349 841.89496 18
-511.84833 405.53235 840.17303 18
-531.12 424.93326 880.36743 18
-523.16681 422.72122 875.78455 18
-514.65302 420.00732 870.16193 18
-499.1424 411.47064 852.47589 19
-499.78235 416.20935 862.2934 19
-491.94202 413.9108 857.53125 19
-481.82385 409.62772 848.65765 19
-473.76175 407.02072 843.25665 19
-467.76511 406.15158 841.45593 19
-459.93939 403.65845 836.29071 18
-452.521 401.47235 831.76166 18
-450.83691 404.38162 837.789 18
-444.60336 403.22955 835.40216 18
-439.25635 402.86459 834.64606 18
0 0 0 0
0 0 0 0
-424.13559 402.59232 834.08191 18
-419.3454 402.73743 834.38251 18
-413.39761 401.76099 832.35962 18
-405.20084 398.54889 825.7049 18
-399.01813 397.26352 823.04187 18
-398.27359 401.42764 831.66901 18
-391.20285 399.23981 827.13629 16
-387.53513 400.51352 829.77509 16
-378.23746 395.9267 820.27222 16
-374.67053 397.2973 823.11188 16
-368.79111 396.21957 820.87903 16
-363.99442 396.29187 821.02875 16
-358.99374 396.14096 820.71619 16
-353.65967 395.61307 819.62244 15
-348.37039 395.12122 818.60345 15
-343.45941 395.0506 818.45715 15
-339.33313 395.89346 820.20337 15
-334.45007 395.86508 820.14459 18
-329.53012 395.7915 819.99213 18
-324.5108 395.59467 819.58429 18
-319.6113 395.54007 819.47125 18
-314.86703 395.67889 819.75879 18
-311.81985 397.98813 824.54309 18
-307.41904 398.61563 825.84314 18
-302.58868 398.69748 826.0127 18
-297.48117 398.41089 825.41888 18
-293.75015 399.98895 828.68829 18
-288.14719 399.02838 826.6983 19
-283.32809 399.13892 826.92725 19
-275.48227 394.9144 818.17499 19
-269.95377 393.92004 816.11487 19
-265.15067 393.96719 816.21265 19
-258.40076 391.06979 810.20978 18
-258.35712 398.40417 825.40503 18
-246.71257 387.78711 803.40887 18
-241.62077 387.25467 802.30573 18
-236.52002 386.68616 801.12793 18
-231.80229 386.73346 801.22589 18
-244.31448 416.12964 862.12823 18
-216.0173 375.7883 778.54993 16
-211.84554 376.57135 780.1723 16
-210.85318 383.16708 793.83716 16
-205.90948 382.71951 792.90985 16
-210.06142 399.55151 827.78204 16
0 0 0 0
-188.1454 375.3931 777.7312 16
-183.05219 374.39957 775.67279 16
-178.43613 374.35593 775.5824 16
-172.77275 372.05466 770.81464 16
-166.90161 369.16888 764.836 16
-161.42859 367.02722 760.39893 16
-156.25668 365.46689 757.16626 13
-150.65733 362.785 751.61005 11
-146.78653 364.22894 754.6015 10
-144.58649 370.03952 766.63977 9
-143.04121 377.95706 783.04315 9
-137.02339 374.1915 775.2417 9
-132.7552 375.10846 777.14148 10
-128.72897 376.7995 780.64496 12
-120.99737 367.36655 761.10193 11
-117.30793 369.95099 766.45636 14
-118.32874 388.19623 804.25647 13
-103.92615 355.2507 736.00061 16
-100.00477 356.81653 739.24469 16
-95.801857 357.47531 740.6095 16
0 0 0 0
0 0 0 0
-143.55032 620.96039 1286.4921 16
-140.56099 642.12128 1330.3328 15
-134.63187 651.56848 1349.9053 17
-129.37358 665.66064 1379.1011 16
-123.02845 675.68359 1399.8665 16
-116.31824 685.00543 1419.1793 16
-108.9075 691.33313 1432.2888 18
-101.10789 696.05286 1442.067 18
-93.09758 700.05951 1450.3679 18
-85.100273 704.98859 1460.58 18
-76.873093 708.9137 1468.7118 18
-68.618469 713.55524 1478.3281 18
-60.229729 717.95636 1487.4463 18
-51.501717 719.12872 1489.8751 18
-42.228367 711.59637 1474.2698 18
-33.883835 719.86871 1491.4082 18
-25.298988 727.07056 1506.3289 18
-16.506849 732.91779 1518.443 18
-7.4544854 727.37903 1506.9679 18
1.4817436 731.63043 1515.7759 18
10.529052 736.35168 1525.5573 18
19.738012 742.79492 1538.9062 18
29.047817 747.76263 1549.1982 18
38.485897 752.85413 1559.7467 18
47.98555 756.94543 1568.2229 18
57.553146 760.60736 1575.8096 18
67.162506 763.72205 1582.2626 18
76.824356 766.59747 1588.2198 18
86.497772 768.94836 1593.0903 18
96.613747 774.38391 1604.3516 18
106.80293 779.37988 1614.7023 18
117.113 784.36432 1625.0287 18
125.96833 779.58838 1615.134 18
135.91399 781.75824 1619.6295 18
146.26425 785.81567 1628.0356 18
157.041 791.52069 1639.8551 18
166.34892 789.58905 1635.8531 18
178.34164 799.91217 1657.2405 18
189.64894 806.24414 1670.3589 17
202.22668 817.08112 1692.8108 15
219.65462 845.56506 1751.8231 15
231.39967 850.58942 1762.2324 15
234.71745 825.53992 1710.3354 15
246.72148 831.85022 1723.4091 15
259.15921 839.06323 1738.3528 16
271.66296 845.93054 1752.5803 16
287.73688 863 1787.9445 18
301.3219 871.65771 1805.8812 18
315.55975 881.54535 1826.3663 18
324.84103 877.38983 1817.757 18
341.09024 891.71729 1847.4403 18
356.77744 903.73035 1872.3286 18
386.34442 949.11688 1966.3595 18
401.96426 958.58588 1985.9772 18
411.06064 952.40192 1973.1655 18
425.56546 958.74457 1986.3059 17
426.36984 934.711 1936.5138 16
437.64328 934.2865 1935.6342 17
468.58417 974.79773 2019.5646 18
461.24115 935.63251 1938.4229 18
498.55371 986.75391 2044.3352 18
515.48431 996.06671 2063.6292 18
501.86859 947.29083 1962.5763 18
531.84589 981.14368 2032.7119 18
539.59802 973.40454 2016.6782 18
549.54224 969.86945 2009.3542 18
590.47412 1020.0139 2113.2424 18
609.50684 1031.0317 2136.0691 18
626.16895 1037.673 2149.8281 18
642.66827 1043.7852 2162.4912 18
0 0 0 0
676.25616 1056.2266 2188.2671 18
694.65027 1064.5486 2205.5083 18
716.93091 1078.4094 2234.2249 18
741.21869 1094.7321 2268.0417 18
761.90765 1105.2529 2289.8386 18
786.00085 1120.2576 2320.925 18
805.39673 1128.1665 2337.3105 18
822.47363 1132.6147 2346.5264 18
841.11926 1139.0393 2359.8367 18
860.92993 1146.8059 2375.9272 18
889.15668 1165.3528 2414.3523 18
912.80652 1177.4088 2439.3298 18
1046.2814 1328.5424 2752.4448 18
1072.4841 1340.916 2778.0803 18
1089.4733 1341.5701 2779.4353 18
1047.6874 1270.907 2633.0374 18
1065.5491 1273.6117 2638.6409 18
1080.2014 1272.458 2636.2505 18
1094.1228 1270.488 2632.1694 18
1107.4673 1267.9132 2626.8347 18
1118.7562 1263.089 2616.8401 18
1130.4176 1258.8113 2607.9775 18
1141.1744 1253.6553 2597.2954 18
1154.4564 1251.3735 2592.5684 18
1166.5007 1247.8278 2585.2222 18
1177.2806 1243.0389 2575.3008 18
1189.7775 1240.1621 2569.3408 18
1201.6593 1236.7252 2562.2202 18
1208.9155 1228.6727 2545.5374 18
1217.9015 1222.5552 2532.863 18
1226.3969 1216.0999 2519.489 18
1231.5649 1206.5403 2499.6836 18
1236.636 1197.1138 2480.1541 18
1245.1326 1191.1859 2467.8728 18
1258.5897 1190.0861 2465.5942 18
1279.9888 1196.4349 2478.7478 18
1274.2363 1177.5487 2439.6196 18
1274.72 1164.7842 2413.1743 18
1285.093 1161.2391 2405.8298 18
1294.5413 1156.9454 2396.9341 18
1296.9727 1146.5417 2375.3801 18
1302.8235 1139.3518 2360.4841 18
1313.812 1136.76 2355.1145 18
1324.3795 1133.8622 2349.1108 18
1344.1864 1138.8527 2359.45 18
1326.0807 1111.9498 2303.7134 17
1327.1345 1101.4971 2282.0576 16
1333.0381 1095.24 2269.094 16
1337.9807 1088.3258 2254.7695 16
1342.3896 1081.1188 2239.8381 65551
1344.5546 1072.2631 2221.4912 65549
1350.1954 1066.3245 2209.1875 65549
1353.3654 1058.5669 2193.1157 65550
1356.2218 1050.7142 2176.8467 196619
1357.4867 1041.7878 2158.3533 327687
1369.9695 1041.5569 2157.8748 1049864
1392.6407 1049.0046 2173.3049 4139562
1407.916 1050.796 2177.0161 5915451
1423.1753 1052.543 2180.6355 7691085
1440.5646 1055.8197 2187.4241 8151122
1441.1866 1046.8584 2168.8584 8217169
1455.3719 1047.8208 2170.8521 8546133
1465.7909 1046.0781 2167.2417 8217169
1474.5873 1043.218 2161.3162 8545877
1485.5533 1041.9288 2158.6453 8611927
1503.053 1045.2051 2165.4329 8611672
1517.5493 1046.3551 2167.8154 8348501
1531.1063 1046.8435 2168.8274 8216914
1549.0822 1050.3198 2176.0295 8479830
1559.5767 1048.7081 2172.6904 8085073
1576.4572 1051.3818 2178.2297 7624776
1593.8964 1054.3817 2184.4451 8348501
1604.1857 1052.6416 2180.8398 8479830
1616.4673 1052.2263 2179.9792 6769212
1634.2106 1055.3445 2186.4395 6703162
1650.0363 1057.1851 2190.2527 7822157
1658.6902 1054.4377 2184.561 8282708
1669.6434 1053.1833 2181.9622 8414037
1684.1426 1054.1678 2184.0017 7953743
1712.6675 1063.8495 2204.0601 8151124
1720.641 1060.7155 2197.5671 8151124
1742.2322 1065.9603 2208.4333 8151124
1755.3373 1065.9736 2208.4607 8085331
1765.7965 1064.3918 2205.1836 7822159
1771.1705 1059.7905 2195.6506 8611675
1764.0802 1047.8524 2170.9177 7821902
1777.8977 1048.4164 2172.0862 8545882
1807.9653 1058.4862 2192.9485 8545882
1816.2909 1055.7739 2187.3293 8414294
1841.3539 1062.7604 2201.8037 8611675
1842.9663 1056.2089 2188.2302 8677212
1867.626 1062.8651 2202.0208 6835775
1859.9576 1051.1589 2177.7678 6901570
1862.387 1045.2811 2165.5906 7164742
1878.2001 1046.9442 2169.0361 7559500
1885.8556 1044.0686 2163.0784 8085842
1903.2749 1046.6007 2168.3242 8283222
1917.3154 1047.2533 2169.6765 8480341
1926.6439 1045.3407 2165.7139 8941149
1938.9641 1045.0657 2165.1443 5190948
1969.675 1054.6416 2184.9834 7823184
1973.4138 1049.7449 2174.8384 7823184
1985.9841 1049.579 2174.4946 7954769
1998.1005 1049.1768 2173.6614 7625804
2018.9004 1053.3103 2182.2251 7494476
2035.0167 1054.963 2185.6494 7823440
2021.8719 1041.5219 2157.802 7494475
2058.1082 1053.5271 2182.6743 7494474
2045.63 1040.6018 2155.896 7033926
2067.7375 1045.3212 2165.6736 7626061
0 0 0 0
0 0 0 0
0 0 0 0
0 0 0 0
0 0 0 0
0 0 0 0
0 0 0 0
0 0 0 0
0 0 0 0
0 0 0 0
0 0 0 0
0 0 0 0
0 0 0 0
0 0 0 0
0 0 0 0
0 0 0 0
0 0 0 0
0 0 0 0
0 0 0 0
0 0 0 0
0 0 0 0
0 0 0 0
0 0 0 0
0 0 0 0
0 0 0 0
0 0 0 0
-770.72534 482.16092 986.81854 19
-764.82245 482.12518 986.74536 19
-758.67291 481.93216 986.35028 19
-756.56842 484.32562 991.2489 19
-752.87274 485.72998 994.12317 19
-746.98334 485.72998 994.12317 19
-741.09393 485.72998 994.12317 18
-732.50635 483.94736 990.47479 18
-722.01172 480.86588 984.16803 18
-715.03247 480.09448 982.58923 18
-708.86304 479.8587 982.10669 18
-702.57703 479.5394 981.45319 18
-696.07483 479.06604 980.48431 18
-688.67151 477.95926 978.21912 18
-679.71027 475.74323 973.68372 18
-672.6806 474.85287 971.86145 18
-665.83917 474.08115 970.28198 18
-597.54266 429.15851 878.3407 18
-587.75983 425.8407 871.55029 18
-580.67548 424.43655 868.67645 18
-573.76855 423.13803 866.01892 18
-567.74579 422.47415 864.6601 18
-561.52777 421.65143 862.97632 18
-556.19379 421.48355 862.63269 18
-550.75372 421.23151 862.11682 18
-543.71759 419.74252 859.0694 18
-534.46588 416.49884 852.43066 18
-531.05811 417.79077 855.07483 18
-525.75543 417.60251 854.68951 18
-514.54553 412.67291 844.60034 18
-507.46118 410.98773 841.15137 18
-528.53772 432.30255 884.77545 18
-519.84253 429.44952 878.93628 18
-508.4328 424.27347 868.34271 19
-498.81912 420.5058 860.63153 19
-495.14349 421.71771 863.11194 19
-488.7446 420.61133 860.84753 19
-478.53656 416.16885 851.75531 19
-471.55054 414.46371 848.2655 18
-465.10104 413.19849 845.67596 18
-453.43231 407.21835 833.43671 18
-462.05902 419.53418 858.64294 18
-447.23816 410.59756 840.35284 18
-440.66296 409.11511 837.31879 18
0 0 0 0
-432.83392 411.10202 841.38525 18
-425.25897 408.61301 836.29108 18
-421.61627 409.88818 838.90094 18
-416.70798 409.94873 839.0249 18
-413.28864 411.49323 842.18597 18
-406.79834 409.98047 839.08984 18
-401.15524 409.29474 837.68634 18
-392.68399 405.6701 830.26794 15
-388.66238 406.60861 832.18878 16
-381.14709 403.86926 826.58228 16
-377.40881 405.11288 829.12756 16
-372.85165 405.49875 829.91724 16
-368.23267 405.82675 830.58856 16
-362.62518 405.05954 829.01831 18
-356.58386 403.77994 826.39941 18
-350.88696 402.86011 824.51691 18
-345.64676 402.44611 823.66956 18
-341.6394 403.47623 825.77789 18
-336.68286 403.39902 825.61987 18
-331.6409 403.21567 825.24457 18
-326.65668 403.09805 825.00391 18
-321.68463 402.99216 824.78717 18
-316.16388 402.185 823.13513 18
-313.03391 404.44141 827.7533 18
-308.52515 404.95993 828.81451 18
-304.10175 405.6091 830.14307 18
-299.17682 405.59961 830.12372 18
-294.92621 406.51935 832.0061 19
-292.04526 409.39032 837.88196 18
-278.07819 396.55124 811.6048 18
-279.79654 406.02206 830.98834 18
-271.1423 400.5105 819.70801 18
-266.03284 400.12946 818.92822 18
-258.82889 396.52554 811.55219 18
-252.11461 393.54959 805.46143 18
-252.65398 402.00012 822.75677 18
-247.19586 401.05276 820.81787 18
-237.04431 392.2999 802.90375 18
-250.22314 422.59018 864.89764 18
-245.70184 423.62912 867.02393 18
-216.0173 380.40057 778.54993 17
-216.10152 388.85144 795.84595 17
-211.06644 388.26221 794.64001 18
-206.52971 388.5838 795.29816 17
-210.14037 404.60742 828.09308 18
0 0 0 0
-188.62004 380.95917 779.69318 17
-184.00868 380.97516 779.72589 17
-179.34088 380.8721 779.51495 16
-173.80858 378.87909 775.43597 16
-168.30478 376.84174 771.26611 16
-162.87099 374.85168 767.19324 16
-158.14607 374.42581 766.32159 14
-151.55966 369.43719 756.11163 14
-146.98633 369.2012 755.6286 11
-144.5155 374.39734 766.26337 10
-141.21548 377.71271 773.04871 9
-137.32829 379.62708 776.9668 9
-133.27304 381.19354 780.17285 9
-129.03471 382.33014 782.49908 12
-120.88531 371.53107 760.39703 11
-121.11945 386.65948 791.35974 13
-108.3904 359.95639 736.70764 16
-104.34723 361.06799 738.98273 16
-100.38719 362.57724 742.07159 16
-96.186058 363.31403 743.57959 16
0 0 0 0
0 0 0 0
-147.50696 645.90717 1321.9512 17
-140.56099 650.00244 1330.3328 18
-134.58437 659.33295 1349.4291 18
-129.33461 673.62775 1378.6857 16
-123.00698 683.85736 1399.6222 16
-116.32715 693.46619 1419.2881 15
-108.92661 699.9411 1432.54 18
-101.1273 704.73126 1442.3439 18
-93.121193 708.8316 1450.7358 18
-85.122597 713.82861 1460.9631 18
-76.89753 717.84277 1469.1787 18
-68.644882 722.59125 1478.8972 18
-60.251198 727.0274 1487.9766 18
-51.518044 728.18579 1490.3473 18
-42.561722 726.0166 1485.9077 18
-33.925167 729.59296 1493.2273 18
-25.342203 737.25153 1508.9017 18
-16.513132 742.19574 1519.0209 18
-7.4513974 736.00159 1506.3436 18
1.4814098 740.44336 1515.4343 18
10.535925 745.87598 1526.5531 18
19.742735 752.09174 1539.2745 18
29.055391 757.13782 1549.6022 18
38.502689 762.42694 1560.4272 18
48.011131 766.64441 1569.059 18
57.584648 770.3642 1576.6721 18
67.218033 773.73492 1583.5708 18
76.912888 776.9007 1590.0502 18
84.443039 759.89587 1555.2469 18
95.711243 776.5658 1589.3647 18
104.13303 769.22345 1574.3374 18
114.1664 774.01422 1584.1425 18
126.0958 789.95538 1616.7686 18
136.3457 793.86688 1624.774 18
146.66054 797.61572 1632.4465 18
157.18515 801.97101 1641.3604 18
167.03448 802.57416 1642.595 18
178.24004 809.26868 1656.2963 18
189.67766 816.26331 1670.6118 18
202.36842 827.68945 1693.9973 18
213.84962 833.32251 1705.5261 18
231.88206 862.82422 1765.9061 18
234.71458 835.66211 1710.3145 18
246.84843 842.49341 1724.2959 18
258.64273 847.66901 1734.8885 18
271.77032 856.65155 1753.2728 18
287.85953 873.9646 1788.7068 18
300.70816 880.55884 1802.2029 18
315.78964 893.0152 1827.6968 18
327.31021 894.90961 1831.574 18
339.69266 898.96338 1839.8706 18
354.22925 908.28857 1858.9561 18
386.32721 960.72314 1966.2719 18
401.72473 969.77313 1984.7939 18
416.0878 975.88208 1997.2968 18
430.96594 982.82782 2011.5126 18
426.15338 945.703 1935.5308 18
437.4899 945.42218 1934.9558 18
449.12604 945.7865 1935.7015 18
463.82068 952.41296 1949.2637 18
498.36078 998.47845 2043.5439 18
515.47675 1008.2772 2063.5986 18
500.0719 955.48468 1955.5503 18
532.43744 994.29065 2034.9729 18
537.71576 981.91467 2009.6436 18
546.31519 976.00812 1997.5548 18
591.11401 1033.6521 2115.5325 18
605.78766 1037.3179 2123.0349 18
624.96381 1048.3875 2145.6907 18
640.04425 1052.2821 2153.6616 18
655.25226 1056.2302 2161.7419 18
672.40662 1063.1041 2175.8105 18
690.63794 1071.39 2192.769 18
711.91681 1084.0106 2218.5989 18
733.81213 1097.0951 2245.3784 18
759.86121 1115.8134 2283.6882 18
780.27344 1125.744 2304.0129 18
803.46674 1139.2766 2331.7095 18
823.44434 1147.8691 2349.2957 18
840.51672 1152.1936 2358.1462 18
858.77185 1157.9714 2369.9714 18
887.21802 1177.084 2409.0884 18
911.80646 1190.5543 2436.6575 18
1042.7853 1340.3546 2743.2476 18
1069.355 1353.4135 2769.9746 18
1087.7726 1355.916 2775.0964 18
1047.1766 1285.8785 2631.7537 18
1064.6698 1288.1799 2636.4639 18
0 0 0 0
1093.4358 1285.2742 2630.5166 18
1106.9229 1282.8442 2625.5435 18
1117.3093 1276.9381 2613.4556 18
1127.786 1271.295 2601.9062 18
1139.2037 1266.8506 2592.8101 18
1152.481 1264.5649 2588.1321 18
1164.79 1261.2909 2581.4312 18
1175.6953 1256.6012 2571.8328 18
1189.1082 1254.6772 2567.8953 18
1200.3168 1250.5057 2559.3577 18
1210.0618 1244.9325 2547.9509 18
1216.3104 1235.9436 2529.554 18
1225.3715 1229.9967 2517.3826 18
1231.8508 1221.6324 2500.2639 18
1236.8103 1211.9775 2480.5037 18
1243.6501 1204.3705 2464.9346 18
1256.6132 1202.8009 2461.7222 18
1271.5359 1203.1216 2462.3784 18
1285.303 1202.3539 2460.8074 18
1272.3273 1176.8673 2408.6448 18
1281.4753 1172.1827 2399.0571 18
1292.0747 1168.9139 2392.3672 18
1295.6875 1159.464 2373.0264 18
1304.4009 1154.7324 2363.3423 18
1309.9263 1147.3088 2348.1489 18
1321.7915 1145.536 2344.5205 18
1327.0076 1138.0974 2329.2961 18
1335.8877 1133.922 2320.7505 16
1326.9012 1114.8207 2281.6565 16
1334.5056 1109.9031 2271.592 16
1336.299 1100.2988 2251.9355 16
1340.2805 1092.6686 2236.3188 16
1343.0444 1084.2047 2218.9963 16
1348.2467 1077.8541 2205.999 16
1349.1117 1068.1915 2186.2227 65552
1356.0923 1063.5088 2176.6387 16
1357.4867 1054.5745 2158.3533 14
1366.8372 1051.9299 2152.9409 196618
1359.6387 1036.7159 2121.803 393220
1369.3204 1034.5338 2117.3369 2364439
1416.424 1060.4072 2170.291 4533548
1429.3956 1060.4921 2170.4646 6572354
1433.417 1053.9943 2157.1658 8282710
1444.3248 1052.63 2154.3738 8874845
1450.1815 1047.6409 2144.1626 9138271
1464.4167 1048.7385 2146.4092 8217168
1466.7349 1041.3563 2131.3003 8414294
1484.2772 1044.8168 2138.3828 8743003
1495.9014 1044.0881 2136.8914 8216915
1501.6405 1039.2985 2127.0886 8019535
1539.0397 1056.3185 2161.9226 7953999
1514.1311 1030.6456 2109.3792 7953741
1545.6232 1043.4697 2135.6257 7427138
1574.6987 1054.4675 2158.1345 8282449
1586.1924 1053.6096 2156.3784 7492932
1608.5204 1059.9044 2169.262 3217682
1611.121 1053.2035 2155.5474 3216397
1614.5869 1047.1693 2143.1975 6111540
1628.4684 1047.9315 2144.7576 6769982
1631.797 1041.944 2132.5029 7887950
1662.4449 1053.3582 2155.864 7953998
1678.1689 1055.2146 2159.6633 7361605
1692.288 1056.0411 2161.3552 8019536
1706.9536 1057.194 2163.7146 7887952
1711.3354 1052.0079 2153.1003 7953488
1729.16 1055.101 2159.4307 7888209
1733.6494 1050.0715 2149.1372 8282710
1735.1334 1043.3082 2135.2952 7888208
1739.448 1038.3325 2125.1116 7821902
1774.7992 1051.822 2152.72 8085074
1793.1543 1055.1182 2159.4661 8479832
1813.3934 1059.4685 2168.3699 8545625
1834.4204 1064.2147 2178.0835 8348760
1868.712 1076.536 2203.301 8217427
1844.369 1055.1423 2159.5154 8743515
1845.7825 1048.6768 2146.2827 7953999
1853.4884 1045.8505 2140.498 6704959
1861.1492 1043.037 2134.74 7428682
1876.1371 1044.3402 2137.4072 7560268
1884.9056 1042.1873 2133.001 7823440
1904.9048 1046.2311 2141.2771 8743772
1926.4677 1051.0746 2151.1902 6112051
1937.4893 1050.141 2149.2795 6704188
1942.8156 1046.1527 2141.1169 7954767
1956.8632 1046.882 2142.6094 7692109
1975.9137 1050.261 2149.5251 7823439
1987.1248 1049.4565 2147.8787 8020819
2009.7448 1054.6494 2158.5066 8086356
2014.0442 1050.2233 2149.448 7888976
2022.6443 1048.0814 2145.0642 7955026
2033.8051 1047.2847 2143.4336 5718064
2047.0016 1047.5398 2143.9556 7362889
0 0 0 0
0 0 0 0
0 0 0 0
0 0 0 0
0 0 0 0
0 0 0 0
0 0 0 0
0 0 0 0
0 0 0 0
0 0 0 0
0 0 0 0
0 0 0 0
0 0 0 0
0 0 0 0
0 0 0 0
0 0 0 0
0 0 0 0
0 0 0 0
0 0 0 0
0 0 0 0
0 0 0 0
0 0 0 0
0 0 0 0
0 0 0 0
0 0 0 0
0 0 0 0
0 0 0 0
-772.2713 492.72342 996.35559 19
-766.20697 492.61942 996.14532 18
-759.72662 492.24429 995.38678 18
-753.10199 491.76904 994.42584 18
-746.59735 491.36533 993.60944 18
-743.27283 493.06479 997.04596 18
-736.20227 492.28659 995.47229 18
-729.31512 491.61938 994.12317 18
-723.42566 491.61938 994.12317 18
-717.53625 491.61938 994.12317 18
-711.64691 491.61938 994.12317 18
-705.72656 491.5979 994.07965 18
-695.94745 488.86539 988.5542 18
-691.74188 490.03488 990.91907 18
-683.63422 488.43643 987.68677 18
-675.53363 486.81546 984.409 18
-598.88196 435.33557 880.30939 18
-589.81329 432.5098 874.59528 18
-582.37091 430.8371 871.21283 18
-576.06799 429.98486 869.48956 18
-570.1463 429.40454 868.31598 18
-564.19989 428.79477 867.08295 18
-558.84882 428.6304 866.75061 18
-553.86542 428.74759 866.98761 18
-548.04327 428.21167 865.90393 18
-538.94604 425.08243 859.57617 18
-534.2984 425.43655 860.29218 18
-529.5816 425.74182 860.90955 18
-521.86505 423.61804 856.61493 18
-516.00476 422.97415 855.31287 18
-533.763 441.8699 893.52271 18
-525.27393 439.19788 888.11957 18
0 0 0 0
-504.88223 430.77753 871.09241 19
-498.55469 429.77155 869.05823 19
-490.86032 427.55405 864.57404 18
-484.08514 426.09882 861.63141 18
-473.94119 421.61575 852.56604 18
-466.1506 419.15219 847.58435 17
-459.18558 417.38538 844.0116 16
-455.25488 418.36816 845.99896 16
-450.28696 418.40903 846.08154 17
-444.53201 417.71121 844.67047 18
-439.38052 417.57108 844.38708 18
0 0 0 0
0 0 0 0
-406.50385 399.98788 808.83142 18
-401.62955 399.90558 808.66504 18
-416.71475 419.93518 849.1676 18
-409.39468 417.59982 844.44525 18
-402.63202 415.78241 840.7702 18
-392.68399 410.58878 830.26794 15
-387.33209 410.13007 829.34039 15
-384.095 411.92764 832.97528 16
-379.32739 412.10922 833.34247 16
-371.33047 408.74094 826.53131 15
-365.95914 408.21136 825.46045 16
-360.87894 407.99655 825.02606 16
-356.24176 408.2836 825.60651 17
-353.3093 410.55957 830.20886 17
-345.56732 407.23209 823.48022 17
-348.97986 417.14249 843.52051 18
-340.00208 412.31531 833.75928 18
-331.57971 408.02927 825.09229 18
-330.39529 412.65503 834.44617 18
-325.8475 413.15671 835.46063 18
-314.09338 404.39569 817.74463 18
-309.42249 404.62271 818.20374 18
-304.90933 405.06647 819.10107 18
-305.07193 411.83679 832.79156 18
-300.54941 412.40088 833.93225 18
-295.99323 412.93695 835.01624 18
-293.80255 416.84729 842.92358 18
-279.41263 403.2854 815.49951 17
-276.65146 406.32578 821.64752 16
-272.06158 406.74094 822.48712 16
-266.64978 405.92017 820.82733 17
-261.9603 406.18887 821.37073 18
-255.20703 403.20709 815.34113 18
-253.76108 408.6572 826.362 18
-248.35536 407.81949 824.66803 18
-237.66394 398.09439 805.00256 18
-232.89491 398.09439 805.00256 18
-248.10257 432.95499 875.49554 18
-221.77859 395.28137 799.31421 18
0 0 0 0
-207.01324 385.42352 779.38025 18
-206.73615 393.68845 796.09308 17
-209.88124 409.0083 827.07196 15
-206.30801 411.65518 832.42438 16
-189.50037 387.37784 783.33215 16
-184.59276 386.81836 782.20087 16
-179.82614 386.53317 781.62415 16
-174.71458 385.47186 779.47803 16
-169.55313 384.23987 776.98676 16
-164.42186 383.00937 774.49854 16
-159.77731 382.87463 774.22607 14
-152.47144 376.16605 760.6604 12
-147.17828 374.16574 756.61542 11
-145.52177 381.57544 771.59888 8
0 0 0 0
-138.24937 386.8071 782.17804 9
-133.53003 386.55945 781.67725 10
-129.70355 388.97165 786.55505 12
-122.09268 379.7916 767.9917 11
-121.35963 392.12369 792.92896 13
-108.66692 365.25024 738.5871 16
-104.91721 367.44208 743.01929 16
-100.80289 368.49304 745.14447 16
-96.600868 369.30496 746.78632 15
0 0 0 0
0 0 0 0
-147.50696 653.73871 1321.9512 18
-139.4828 652.83728 1320.1283 18
-134.53836 667.09918 1348.9679 18
-129.29355 681.57892 1378.2479 18
-122.98609 692.03149 1399.3845 17
-116.33389 701.91498 1419.3704 16
-108.94391 708.54022 1432.7675 18
-101.14425 713.39557 1442.5856 18
-93.142204 717.58789 1451.0631 18
-85.141685 722.64569 1461.2906 18
-76.917618 726.73633 1469.5625 18
-68.666031 731.57794 1479.3529 18
-60.136856 734.44611 1485.1527 18
-51.530003 737.18597 1490.6932 18
-42.591797 735.33868 1486.9576 18
-33.962574 739.25348 1494.8739 18
-25.362921 746.80066 1510.1354 18
-16.516937 751.36792 1519.3711 18
-7.4519005 744.97583 1506.4453 18
1.481057 749.24274 1515.0736 18
10.543336 755.45062 1527.6268 18
19.749609 761.47577 1539.8104 18
29.062483 766.505 1549.9803 18
38.520462 772.02747 1561.1476 18
48.036156 776.34424 1569.8767 18
57.621506 780.20392 1577.6814 18
67.286819 783.91766 1585.1912 19
77.041267 787.63312 1592.7042 18
86.807312 790.64337 1598.7914 18
96.892548 795.68256 1608.9813 18
107.03999 800.28418 1618.2865 18
117.41438 805.68646 1629.2106 18
126.17609 800.0426 1617.798 18
134.63705 793.42328 1604.4128 18
146.4736 806.25769 1630.3658 18
155.46893 802.83234 1623.4392 18
167.07684 812.51135 1643.0115 18
178.3192 819.4447 1657.0319 18
190.3609 829.13629 1676.6295 18
202.63777 838.84009 1696.252 18
214.00574 844.04211 1706.7712 18
231.52672 871.94763 1763.2 18
234.22537 844.03143 1706.7496 18
246.96185 853.10034 1725.0881 18
258.78381 858.41473 1735.8347 18
271.8259 867.21576 1753.6315 18
288.95563 887.9295 1795.5176 18
302.27847 895.88953 1811.614 18
315.24646 902.28827 1824.553 18
327.22034 905.5116 1831.071 18
339.81076 910.17944 1840.5101 18
353.25595 916.77551 1853.8483 18
367.84171 925.84448 1872.187 18
401.43048 980.8125 1983.34 18
415.96786 987.42987 1996.7212 18
431.76639 996.5921 2015.2487 18
425.7641 956.29529 1933.7627 18
437.43042 956.75513 1934.6927 18
467.1181 995.60175 2013.246 18
464.18954 964.72748 1950.814 18
498.03036 1009.9149 2042.1891 18
497.99063 985.88483 1993.5969 18
511.32486 988.83142 1999.5554 18
530.52301 1002.7278 2027.656 18
542.97656 1003.5435 2029.3052 18
539.16766 974.91809 1971.4207 20
588.30176 1041.2078 2105.4678 19
603.28131 1045.5514 2114.2512 19
623.38159 1058.4127 2140.2585 18
637.90479 1061.4808 2146.4626 18
652.04846 1063.8099 2151.1724 18
669.28009 1070.991 2165.6936 18
685.1499 1075.7638 2175.3447 18
702.50854 1082.6548 2189.2793 18
728.12274 1101.7882 2227.9697 18
755.39417 1122.7032 2270.2629 18
776.96155 1134.5573 2294.2334 18
801.01886 1149.5771 2324.6057 18
822.06848 1159.8457 2345.3704 18
839.44733 1164.6801 2355.146 18
857.90472 1170.8281 2367.5784 18
884.87439 1188.2089 2402.7246 18
911.57544 1204.6843 2436.04 18
1040.7333 1353.9368 2737.8494 18
1067.7345 1367.7477 2765.7771 18
1080.5286 1363.2172 2756.6157 18
1046.7404 1300.9274 2630.6572 18
1063.8778 1302.8291 2634.5027 18
1078.6511 1301.8224 2632.467 18
1092.7443 1300.0353 2628.853 18
1106.0184 1297.3376 2623.3982 18
1115.8811 1290.7687 2610.1147 18
1126.4956 1285.2371 2598.9292 18
1138.1428 1281.017 2590.3955 18
1150.5924 1277.8003 2583.8909 18
1163.1411 1274.7766 2577.7766 18
1175.4426 1271.564 2571.2803 18
1188.0151 1268.7228 2565.5349 18
1199.1324 1264.4191 2556.8323 18
1209.1447 1259.072 2546.0198 18
1217.092 1251.7332 2531.1794 18
1224.3693 1243.8921 2515.3237 18
1234.6005 1239.2045 2505.8447 18
1236.9871 1226.8479 2480.8582 18
1245.6495 1220.9331 2468.8975 18
1259.9534 1220.6206 2468.2656 18
1268.0582 1214.3788 2455.6438 18
1279.5046 1211.4424 2449.7061 18
1282.7646 1200.908 2428.4038 18
1278.2172 1183.3788 2392.9575 18
1289.1534 1180.4121 2386.9583 18
1290.7971 1169.0931 2364.0698 16
1298.8584 1163.7673 2353.3003 16
1309.4912 1160.8342 2347.3691 17
1318.7371 1156.7462 2339.1028 18
1325.748 1150.8032 2327.0852 18
1334.7307 1146.6765 2318.7402 16
1341.8575 1141.0557 2307.3743 16
1344.0002 1131.3528 2287.7537 16
1334.2378 1111.9222 2248.4622 16
1336.3163 1102.646 2229.7043 16
1341.0889 1095.7527 2215.7651 16
1345.9635 1089.0756 2202.2632 16
1347.0022 1079.4528 2182.8044 16
1353.568 1074.3999 2172.5869 16
1354.1307 1064.7224 2153.0176 16
1364.7131 1063.0302 2149.5955 65550
1369.4935 1056.8915 2137.1824 327691
1371.3885 1048.6588 2120.5349 327688
1370.1235 1038.1813 2099.3479 589826
1361.1899 1022.1339 2066.8977 2363922
1398.3733 1040.6936 2104.428 4336163
1433.8605 1057.6742 2138.7651 7033415
1429.0043 1044.859 2112.8511 7297098
1438.8378 1042.9138 2108.9177 7888462
1437.9218 1033.278 2089.4324 7361606
1444.9684 1029.4792 2081.751 9532775
1469.1066 1037.819 2098.615 8940637
1488.1827 1042.4728 2108.0256 8743258
1505.942 1046.1342 2115.4297 8085583
1513.1897 1042.4935 2108.0676 7887949
1526.9432 1043.3577 2109.8152 8282451
1539.1133 1043.1348 2109.3645 8348500
1551.6185 1043.1407 2109.3765 8282963
1571.7957 1048.2632 2119.7349 8480341
1589.1003 1051.4039 2126.0857 7822411
1598.9603 1049.6083 2122.4546 6901566
1599.7358 1041.9238 2106.9158 7559238
1612.1733 1041.8953 2106.8579 8216912
1636.0361 1049.1941 2121.6172 8809051
1639.6458 1043.4922 2110.0872 7624778
1662.6077 1050.0995 2123.448 7493705
1681.3435 1053.9585 2131.2515 7296325
1692.6322 1053.1263 2129.5688 8283220
1699.7186 1049.7114 2122.6633 7888207
1711.363 1049.1409 2121.5095 7756878
1722.5308 1048.2886 2119.7861 7822672
1727.5577 1043.7383 2110.585 7822160
1738.7136 1042.9301 2108.9504 7098436
1767.2059 1052.4579 2128.217 6440506
1779.051 1052.0067 2127.3047 7558986
1801.1724 1057.5958 2138.6067 7296071
1815.8696 1058.7781 2140.9973 7954256
1839.0028 1064.8285 2153.2322 8217428
1826.9619 1050.5693 2124.3982 8349013
1834.1073 1047.4625 2118.1157 8481626
1846.9103 1047.6071 2118.408 8415577
1857.6348 1046.5786 2116.3284 8152148
1867.2167 1044.9246 2112.9836 7823183
1884.3668 1047.4995 2118.1907 7955025
1902.8083 1050.7537 2124.771 8152405
1904.9546 1045.0258 2113.1882 8020818
1910.3921 1041.1664 2105.384 7494475
1929.3425 1044.6738 2112.4766 7560011
1945.4058 1046.5826 2116.3367 7626061
1956.5527 1045.8394 2114.8335 7889231
1976.2224 1049.6322 2122.5032 7889230
1982.0878 1046.0914 2115.3433 7626058
1987.2909 1042.2479 2107.571 8349781
1999.0502 1041.8694 2106.8054 7757647
2019.5677 1046.0317 2115.2224 8810332
0 0 0 0
0 0 0 0
0 0 0 0
0 0 0 0
0 0 0 0
0 0 0 0
0 0 0 0
0 0 0 0
0 0 0 0
0 0 0 0
0 0 0 0
0 0 0 0
0 0 0 0
0 0 0 0
0 0 0 0
0 0 0 0
0 0 0 0
0 0 0 0
0 0 0 0
0 0 0 0
0 0 0 0
0 0 0 0
0 0 0 0
0 0 0 0
0 0 0 0
0 0 0 0
0 0 0 0
-780.60889 504.00928 1007.1124 19
-774.40363 503.85382 1006.8018 18
-768.26544 503.73993 1006.5742 18
-761.79266 503.4032 1005.9014 18
-755.16364 502.95703 1005.0099 18
-748.30164 502.3475 1003.7918 17
-743.1178 502.86368 1004.8233 18
-738.37494 503.68906 1006.4725 18
-732.41235 503.68906 1006.4725 18
-726.44977 503.68906 1006.4725 18
-719.37048 502.90836 1004.9126 18
-708.81653 499.66522 998.43213 18
-700.75439 498.13889 995.3822 18
-694.0462 497.55719 994.21991 18
-691.92578 500.28278 999.66608 18
-685.12183 499.63971 998.38116 18
-675.74207 497.09073 993.28772 18
-591.5863 439.00684 877.22437 18
-584.41138 437.52591 874.26526 18
-578.93414 437.30093 873.81561 18
-572.2879 436.18082 871.57751 18
-567.47443 436.45001 872.11536 18
-561.57727 435.88297 870.9823 18
-556.23566 435.74063 870.69788 18
-547.45673 432.87772 864.97717 18
-536.05029 427.86343 854.9577 18
-536.88092 432.61407 864.45038 18
-530.92035 431.93121 863.08588 18
-525.2514 431.47458 862.17346 18
-519.6272 431.04614 861.31732 18
-514.30994 430.86639 860.95813 18
-509.08426 430.76044 860.74646 18
-502.95352 429.87885 858.98486 19
-487.79254 421.18207 841.60693 18
-499.87451 436.07141 871.35883 18
-491.68927 433.40662 866.03406 18
-483.70966 430.86884 860.96307 18
-475.01306 427.63153 854.4942 17
-466.60831 424.58994 848.4165 16
-456.93542 420.31567 839.87567 16
-448.08255 416.7099 832.67059 16
-472.75696 444.55075 888.30225 15
0 0 0 0
-422.7225 406.55258 812.37427 18
0 0 0 0
-411.90216 405.37656 810.02429 18
-406.92093 405.19492 809.66132 18
-426.20792 429.46234 858.15259 18
-417.96161 426.23734 851.70837 18
-409.80844 423.0296 845.29871 18
-394.21909 411.97147 823.20233 18
-392.17072 414.96439 829.18274 18
-389.88101 417.7746 834.7981 18
-383.22726 415.92059 831.09344 17
-378.21826 415.82672 830.90582 17
-377.86774 420.91956 841.08234 17
-375.48474 423.85422 846.94647 17
-372.93011 426.67203 852.57697 18
-367.08569 425.75165 850.73785 18
-361.34424 424.9267 849.08948 18
-355.19974 423.59781 846.43408 18
-349.92007 423.27704 845.79309 18
-343.78571 421.89804 843.0376 18
-338.45822 421.48315 842.20856 18
-333.08072 420.99265 841.22845 18
-327.90237 420.7428 840.72919 18
-314.23602 409.42599 818.11597 18
-309.62039 409.73181 818.72699 18
-305.21878 410.33505 819.93237 18
-305.67908 417.59985 834.44897 18
-301.06567 418.05817 835.36475 18
-296.52707 418.63745 836.52222 18
-291.98346 419.22916 837.70465 18
-285.29706 416.71155 832.67395 18
-275.23654 409.09036 817.44525 17
-272.05527 411.60403 822.46808 18
-267.55859 412.18298 823.62494 17
-262.61996 412.08997 823.43903 18
-256.45792 410.03732 819.33746 18
-251.24744 409.45627 818.17639 18
-243.63838 404.86652 809.00519 18
-244.41423 414.30585 827.86682 18
-232.85767 402.79898 804.87378 18
-227.99153 402.6261 804.52838 18
-222.14793 400.68283 800.64532 18
-211.51152 389.82153 778.9422 16
-210.71758 397.02017 793.3266 15
-206.9705 398.85629 796.99554 16
-202.4718 399.29581 797.87378 16
-195.40868 394.57822 788.44708 16
-190.44029 393.96286 787.21747 16
-185.51013 393.39774 786.0882 16
-180.51131 392.65411 784.60229 16
-175.63045 392.13452 783.56409 16
-170.65924 391.37961 782.05554 16
-165.20726 389.44916 778.19812 16
-159.79379 387.50128 774.30591 14
-152.45238 380.62482 760.56531 12
-148.4073 381.81003 762.93359 10
-145.28271 385.51221 770.33136 9
0 0 0 0
-138.90738 393.30396 785.90088 9
-134.60788 394.34796 787.98694 11
0 0 0 0
-121.06352 381.10159 761.51801 14
-112.59933 368.17682 735.69171 16
-120.5778 410.14017 819.54297 18
-105.20245 372.85489 745.03943 17
-101.30789 374.77563 748.8775 18
-97.029488 375.38736 750.09985 17
0 0 0 0
0 0 0 0
0 0 0 0
-139.47823 660.63635 1320.085 18
-134.52655 675.03149 1348.8494 17
-129.26717 689.60333 1377.9669 17
-122.84138 699.4978 1397.738 16
-116.35001 710.42212 1419.567 16
-108.97563 717.23712 1433.1848 16
-101.10721 721.67737 1442.0574 16
-93.068909 725.61292 1449.9213 16
-85.232422 732.08209 1462.848 16
-76.936378 735.62177 1469.921 16
-68.686989 740.56793 1479.8044 16
-60.148952 743.39392 1485.4514 16
-51.542053 746.19171 1491.0419 18
-42.454521 741.74939 1482.1652 18
-33.98708 748.64923 1495.9525 18
-25.392683 756.63391 1511.9075 18
-16.522554 760.62762 1519.8877 18
-7.4545574 754.16925 1506.9825 18
1.4808757 758.12549 1514.8881 18
10.551746 765.11047 1528.8455 18
19.757414 770.9024 1540.4188 18
29.070045 775.88928 1550.3837 18
38.538479 781.6416 1561.8778 18
48.060154 786.03705 1570.661 18
57.669872 790.21307 1579.0056 18
67.358177 794.14996 1586.8722 19
77.176529 798.46802 1595.5006 18
87.151993 803.29193 1605.1396 18
97.235878 808.06769 1614.6826 18
107.51214 813.44348 1625.4246 18
117.82474 818.18787 1634.9047 18
128.15857 822.3476 1643.2168 18
138.34399 825.03503 1648.5868 18
148.80539 828.90533 1656.3204 18
159.24808 832.1991 1662.902 18
169.63701 834.84436 1668.1879 18
178.39104 829.59552 1657.6995 18
191.02325 841.98853 1682.4633 18
202.8033 849.58246 1697.6375 18
214.0885 854.48383 1707.4314 18
228.34592 870.27057 1738.9766 18
234.59258 855.48181 1709.4255 18
249.20302 871.15466 1740.7432 18
260.15665 873.30664 1745.0433 18
271.8262 877.60559 1753.6334 18
289.33307 899.7403 1797.863 18
300.86978 902.39703 1803.1716 18
315.32431 913.32269 1825.0034 18
328.40842 919.6864 1837.7194 18
341.01917 924.35858 1847.0554 18
353.0325 927.17133 1852.6757 18
367.66318 936.48096 1871.2783 18
401.21332 992.02527 1982.2671 18
417.64938 1003.2983 2004.7927 18
431.66098 1008.2847 2014.7566 18
441.58905 1003.7209 2005.6373 18
440.19492 974.33563 1946.9196 18
483.0242 1041.8365 2081.8 18
463.94217 975.76428 1949.7744 18
481.01514 987.09625 1972.4178 18
498.03342 997.78107 1993.7682 18
512.62708 1003.2257 2004.6478 18
531.66577 1016.9259 2032.0236 19
548.53748 1025.9664 2050.0884 18
570.10333 1043.2048 2084.5342 19
588.27313 1053.6298 2105.3652 19
602.55524 1056.8032 2111.7065 18
619.14716 1063.8164 2125.7202 18
636.67328 1072.1232 2142.3188 18
647.98114 1069.8385 2137.7537 18
0 0 0 0
0 0 0 0
707.44965 1103.3306 2204.6775 18
721.58411 1104.9744 2207.9622 18
746.71027 1123.0918 2244.1643 18
775.50531 1145.9968 2289.9333 18
797.70532 1158.5364 2314.9897 18
820.34753 1171.2831 2340.4604 18
838.12683 1176.7784 2351.4412 18
857.21313 1183.8992 2365.6699 18
882.04321 1198.5961 2395.0371 18
1011.8207 1353.1812 2703.9297 18
1040.3175 1369.6088 2736.7554 18
1067.6074 1383.968 2765.448 18
1085.65 1386.0867 2769.6814 18
1045.1371 1314.4956 2626.6279 18
1063.085 1317.4537 2632.5391 18
1077.8804 1316.4763 2630.5859 18
1092.0659 1314.7925 2627.2212 18
1104.9812 1311.6481 2620.938 18
1114.61 1304.7438 2607.1418 18
1125.3567 1299.3187 2596.3015 18
1137.0902 1295.1642 2587.9998 18
1149.2579 1291.608 2580.894 18
1161.5508 1288.2841 2574.252 17
1174.7983 1286.0914 2569.8706 17
1187.6066 1283.4802 2564.6528 18
1198.6058 1279.0044 2555.7095 18
1208.2028 1273.1628 2544.0366 18
1215.8708 1265.4574 2528.6396 18
1223.3895 1257.7861 2513.3108 18
1239.7465 1259.2767 2516.2896 18
1238.4642 1243.0278 2483.8208 18
1249.3977 1239.2772 2476.3264 18
1259.9174 1235.208 2468.1953 18
1268.2521 1229.1145 2456.0193 18
1269.4719 1216.3422 2430.4976 18
1285.2521 1217.6509 2433.1128 18
1297.4984 1215.6198 2429.054 18
1286.0702 1191.6959 2381.2493 18
1294.5875 1186.5725 2371.0117 18
1293.0178 1172.4131 2342.7183 18
1304.1761 1169.9725 2337.8416 18
1312.606 1165.1613 2328.2278 15
1316.3602 1156.3428 2310.6067 18
1328.3129 1154.8336 2307.5911 15
1340.7869 1153.8038 2305.5332 16
1351.6018 1151.3815 2300.6931 16
1332.0786 1123.4216 2244.8235 16
1334.7876 1114.5789 2227.1538 16
1339.0325 1107.1791 2212.3677 16
1344.8674 1101.2249 2200.47 16
1344.4592 1090.3219 2178.6836 16
1352.5826 1086.4792 2171.0054 16
1352.1992 1075.9404 2149.9465 16
1358.9489 1071.2209 2140.5161 65550
1368.7628 1068.9819 2136.042 65550
1365.6199 1056.7574 2111.615 196622
1370.3693 1050.8068 2099.7244 196619
1368.7806 1040.147 2078.4238 458758
1370.4172 1032.1061 2062.3567 720897
1367.2216 1020.6002 2039.3656 2560272
1352.3735 1000.674 1999.5488 4204831
1401.8274 1028.26 2054.6714 7427913
1427.4408 1038.0343 2074.2024 7559239
1441.3267 1039.1863 2076.5044 8151121
1448.8938 1035.8018 2069.7412 8940638
1464.121 1037.9039 2073.9419 8545879
1475.6073 1037.3414 2072.8179 8414036
1498.2416 1044.5604 2087.2429 8677466
1502.9637 1039.2753 2076.6821 8611673
1508.0101 1034.2985 2066.7373 8874588
1528.4005 1039.8408 2077.8123 8611416
1541.0674 1040.0822 2078.2944 8480087
1555.6093 1041.575 2081.2773 8348244
1564.9412 1039.5834 2077.2979 8216658
1578.4722 1040.3906 2078.9106 8216915
1598.4327 1045.3901 2088.9009 7690314
1599.1608 1037.8315 2073.7971 7690827
1616.0931 1040.8242 2079.7771 8875358
1630.8524 1042.3826 2082.8911 7493704
1654.8682 1049.7894 2097.6917 8020049
1662.6211 1046.8464 2091.8108 8151635
1681.3624 1050.8143 2099.7395 8677979
1688.7637 1047.6887 2093.4939 8217428
1703.1595 1048.9165 2095.9473 8151637
1713.0071 1047.3456 2092.8083 8283222
1729.5392 1049.8549 2097.8223 8217430
1734.9667 1045.6359 2089.3918 8217430
1752.2664 1048.5811 2095.2769 7493706
1758.5088 1044.9144 2087.9504 7756879
1761.4277 1039.3383 2076.8079 8349271
1782.8457 1044.679 2087.4797 8217171
1803.3459 1049.4121 2096.9375 7362118
1809.2683 1045.6552 2089.4304 7691340
1813.2239 1040.8203 2079.7695 7888720
1834.6642 1046.0197 2090.1589 7362889
1848.729 1046.9724 2092.0625 7888976
1843.9406 1037.3065 2072.7483 7757647
1862.6067 1040.8756 2079.8799 7428681
1886.1615 1047.1117 2092.3408 8020819
1901.5702 1048.7736 2095.6616 7691854
1905.6377 1044.1995 2086.5217 7428682
1912.1671 1041.0247 2080.1777 7165510
1921.673 1039.5005 2077.1321 7691597
1946.2812 1046.1132 2090.3457 7823440
1956.5627 1044.9904 2088.1021 7757647
1975.5017 1048.4767 2095.0684 7428682
1985.2406 1047.067 2092.2515 7560268
2005.7788 1051.3352 2100.7803 7888976
0 0 0 0
0 0 0 0
0 0 0 0
0 0 0 0
0 0 0 0
0 0 0 0
0 0 0 0
0 0 0 0
0 0 0 0
0 0 0 0
0 0 0 0
0 0 0 0
0 0 0 0
0 0 0 0
0 0 0 0
0 0 0 0
0 0 0 0
0 0 0 0
0 0 0 0
0 0 0 0
0 0 0 0
0 0 0 0
0 0 0 0
0 0 0 0
0 0 0 0
0 0 0 0
0 0 0 0
-789.70123 515.91571 1018.843 16
-783.6358 515.89624 1018.8046 17
-777.39587 515.76062 1018.5368 18
-770.38751 515.10919 1017.2503 18
-763.83252 514.75299 1016.5469 18
-756.65118 513.9657 1014.9921 18
-748.78125 512.69427 1012.4813 18
-740.57391 511.16946 1009.47 18
-732.41235 509.65161 1006.4725 18
-726.25037 509.51175 1006.1963 18
-719.37048 508.86169 1004.9126 18
-712.70386 508.35291 1003.9078 18
-705.72333 507.60977 1002.4402 18
-696.479 505.21194 997.70496 18
-690.56842 505.21194 997.70496 18
-694.1344 512.20483 1011.5146 18
-688.71021 512.62775 1012.3499 18
-680.89935 511.26608 1009.6608 18
-651.15942 493.26852 974.11877 18
-585.44159 447.45126 883.63776 18
-576.93774 444.93018 878.65906 18
-570.19794 443.73611 876.30096 18
-564.76489 443.5463 875.92615 18
-559.34015 443.35962 875.55743 18
-553.26172 442.64639 874.14899 18
-545.54987 440.60052 870.10876 18
-541.73206 441.69058 872.26141 18
-534.96613 440.37473 869.66278 18
-529.17236 439.8414 868.60962 18
-523.28217 439.21661 867.37579 18
-517.07831 438.31354 865.59235 18
-511.1282 437.60968 864.20233 18
-505.06726 436.79572 862.59485 18
-493.22311 430.91245 850.9765 16
-485.88144 428.88199 846.96674 17
-490.91479 437.84647 864.66998 17
-487.9613 439.80142 868.53064 17
-479.87463 437.12213 863.23956 18
-470.14563 432.87302 854.84833 17
-460.90097 428.98221 847.16461 17
-482.27417 453.81693 896.2088 16
-475.28668 452.22021 893.0556 18
-468.59448 450.87167 890.39246 18
0 0 0 0
-452.66522 445.57642 879.9353 18
-412.77286 411.04239 811.73663 18
0 0 0 0
0 0 0 0
-399.8125 412.55551 814.72479 18
-396.07538 413.69348 816.97205 18
-394.54901 417.19724 823.89136 18
-395.65259 423.60449 836.54456 18
-389.83099 422.66586 834.69092 18
-391.30585 429.71579 848.61328 18
-387.55551 431.13644 851.41882 18
-382.78717 431.44708 852.03235 18
-377.67856 431.37747 851.89484 17
-372.33395 431.03271 851.21399 18
-366.26401 429.82733 848.83356 18
-354.86185 422.24362 833.85712 18
-351.08606 423.64841 836.63129 18
-347.30154 425.08273 839.46381 18
-343.42017 426.43848 842.14117 18
-331.51968 417.72974 824.94293 18
-326.61911 417.71255 824.90906 18
-328.15024 426.04532 841.36475 18
-322.62903 425.33765 839.96722 18
-318.31265 426.2211 841.71191 18
-313.33923 426.23883 841.74695 18
-300.86441 415.88794 821.30579 18
-296.34341 416.37216 822.26196 18
-298.56723 426.5076 842.27765 18
-293.94254 427.03802 843.32526 17
-288.75925 426.76132 842.77875 16
-277.79855 417.7861 825.05426 15
-276.01556 422.53915 834.44067 15
-269.94684 420.78506 830.97668 16
-263.52448 418.4043 826.27509 18
-257.19366 416.08154 821.68811 18
-252.02847 415.59128 820.71985 18
-251.08682 422.18323 833.73785 18
-246.11436 422.12631 833.62543 18
-236.16296 413.35248 816.29858 18
-228.30193 407.94699 805.62372 18
-223.22644 407.39441 804.53247 18
-217.59033 405.77216 801.32886 18
-207.16985 394.95651 779.96985 17
-205.97836 401.64328 793.17505 17
-202.55038 404.17944 798.18353 15
-196.01675 400.49155 790.90051 16
-191.01878 399.8374 789.60876 16
-186.41905 400.005 789.9397 16
-181.61635 399.73444 789.4054 16
-176.26611 398.21262 786.40009 16
-171.45874 397.86789 785.7193 16
-166.2453 396.53534 783.08777 16
-160.04428 392.70306 775.51965 14
-153.71529 388.32095 766.86578 12
-148.65451 386.97336 764.20447 11
-145.65414 391.07312 772.30078 9
-144.43146 400.36658 790.65375 9
-139.77084 400.43359 790.78607 9
-135.52956 401.74829 793.38239 10
-132.7959 407.78708 805.30792 12
-126.36021 402.48407 794.83545 14
-123.21455 407.65573 805.04852 14
-109.48627 376.82135 744.15607 16
-105.60287 378.70462 747.87518 16
-101.68987 380.642 751.70117 16
-97.500595 381.67532 753.74182 15
0 0 0 0
0 0 0 0
0 0 0 0
-140.56099 673.64606 1330.3328 16
-134.55612 683.17249 1349.1459 16
-129.2599 697.72748 1377.8894 16
-122.97297 708.53644 1399.2352 16
-116.37976 719.01569 1419.9299 16
-109.00513 725.92407 1433.5728 16
-101.13234 730.40198 1442.4158 16
-92.937096 733.16278 1447.8678 16
-85.195946 740.43127 1462.2219 16
-76.959564 744.55414 1470.3639 16
-68.712738 749.61548 1480.3591 18
-60.177757 752.55438 1486.1628 19
-51.556835 755.24158 1491.4696 18
-42.504379 751.41144 1483.9058 18
-34.006657 757.948 1496.8143 18
-25.406626 766.01111 1512.7375 18
-16.496954 768.43933 1517.5328 18
-7.4552875 763.17157 1507.13 18
1.4815693 767.45929 1515.5975 18
10.560475 774.80817 1530.1102 18
19.766155 780.37335 1541.1005 18
29.079571 785.33136 1550.8917 18
38.552986 791.1922 1562.4657 18
48.079315 795.65912 1571.2872 18
57.695923 799.92871 1579.7189 18
67.418983 804.27637 1588.3048 18
77.276749 808.9693 1597.5724 18
87.273598 813.93518 1607.3793 18
97.372398 818.78137 1616.9496 18
107.69674 824.48602 1628.2153 19
117.97671 828.94116 1637.0133 19
128.23561 832.58252 1644.2045 18
134.6899 812.75201 1605.0426 18
145.06277 817.62299 1614.6621 18
159.69655 844.42169 1667.5848 18
169.95445 846.30786 1671.3094 18
178.47183 839.7962 1658.4502 18
189.85098 846.72754 1672.1383 18
203.10339 860.91168 1700.1495 18
214.29611 865.43744 1709.0872 18
231.52805 892.84393 1763.2101 18
240.06668 885.80731 1749.3141 18
248.92538 880.48523 1738.804 18
264.87857 899.68311 1776.7163 18
276.72217 903.98859 1785.2189 18
289.38785 910.5636 1798.2034 18
301.79468 915.88629 1808.7147 18
315.42123 924.41858 1825.5646 18
328.38922 930.51917 1837.6121 18
339.38916 930.83032 1838.2267 18
353.09863 938.32263 1853.0226 18
367.82181 947.97571 1872.0857 18
401.15973 1003.6346 1982.0022 18
417.50546 1014.8253 2004.1019 18
431.58127 1020.0322 2014.3845 18
445.04749 1023.5568 2021.3452 18
439.48251 984.27417 1943.7688 18
482.68619 1053.4319 2080.3433 18
462.52951 984.30896 1943.8375 18
480.15488 996.995 1968.8901 18
497.48703 1008.4849 1991.5808 18
512.66772 1015.1822 2004.8068 18
532.49158 1030.5623 2035.1798 18
551.61255 1043.9313 2061.5811 18
567.75616 1051.2083 2075.9519 18
579.77313 1050.6982 2074.9448 18
600.03827 1064.8468 2102.8857 18
616.79449 1072.3195 2117.6428 18
633.47546 1079.3661 2131.5586 18
646.03583 1079.2533 2131.3359 18
653.84821 1071.365 2115.7581 18
0 0 0 0
700.81885 1105.9279 2184.0134 18
722.92517 1120.1327 2212.0657 18
739.88428 1125.9984 2223.6494 18
772.42963 1154.9641 2280.8516 18
794.5899 1167.6726 2305.9485 18
818.30829 1182.2024 2334.6423 18
836.85175 1188.8975 2347.8638 18
856.44366 1196.8386 2363.5464 18
879.27783 1208.9824 2387.5281 18
1011.5515 1368.8356 2703.2102 18
1040.4045 1385.9381 2736.9846 18
1067.9426 1400.791 2766.3164 18
1085.0217 1401.6833 2768.0786 18
1044.3783 1329.0907 2624.7209 18
1062.2911 1332.0542 2630.5735 18
1077.1277 1331.1304 2628.749 18
1091.4509 1329.6075 2625.7417 18
1103.9504 1325.9371 2618.4932 18
1113.5332 1318.9137 2604.623 18
1124.3977 1313.5795 2594.0891 18
1136.228 1309.5024 2586.0376 18
1148.4929 1306.0278 2579.176 16
1160.8617 1302.7612 2572.7249 16
1173.8568 1300.2731 2567.8113 16
1186.7227 1297.7072 2562.7439 16
1197.8868 1293.3687 2554.1763 16
1207.4203 1287.3999 2542.3889 18
1214.6781 1279.1815 2526.1592 18
1222.4313 1271.6787 2511.3423 18
1242.8633 1277.3871 2522.6155 18
1248.2089 1267.6389 2503.3645 18
1253.0602 1257.6232 2483.5852 18
1261.98 1251.8762 2472.2358 18
1268.6271 1244.0321 2456.7454 18
1269.7148 1230.9767 2430.9629 18
1279.3789 1226.4351 2421.9941 18
1293.4846 1226.2051 2421.5398 18
1284.2906 1204.1344 2377.9543 18
1290.4536 1196.7852 2363.4407 18
1298.2412 1191.0841 2352.1821 18
1299.13 1179.2418 2328.7959 16
1307.6721 1174.5227 2319.4763 16
1315.4358 1169.2097 2308.9841 16
1322.6841 1163.5527 2297.8125 16
1332.2468 1160.0262 2290.8484 16
1332.5823 1148.6176 2268.3181 16
1330.2731 1135.1797 2241.7808 16
1333.5549 1126.7316 2225.0972 16
1338.7666 1120.0631 2211.9282 16
1343.6154 1113.2235 2198.4211 16
1344.1552 1102.9792 2178.1907 16
1357.9995 1103.7437 2179.7 16
1351.9736 1088.4956 2149.5879 16
1356.6949 1082.1041 2136.9658 15
1362.2058 1076.4548 2125.8093 13
1366.944 1070.3038 2113.6624 14
1371.0522 1063.776 2100.771 11
1371.4656 1054.5244 2082.5007 12
1372.2667 1045.7333 2065.1399 262153
1377.3492 1040.3314 2054.4722 327683
1380.4896 1033.5702 2041.1199 2167315
1401.7303 1040.3604 2054.5291 3942438
1410.9752 1038.2069 2050.2764 5980219
1422.7281 1037.9199 2049.7097 6440506
