# .PCD v0.7 - Point Cloud Data file format
VERSION 0.7
FIELDS x y z rgb
SIZE 4 4 4 4
TYPE F F F U
COUNT 1 1 1 1
WIDTH 1286
HEIGHT 1
VIEWPOINT 0 0 0 1 0 0 0
POINTS 1286
DATA ascii
-70.054504 1392.5123 6444.2207 9206647
-31.675875 1383.7052 6403.4634 7627100
6.2756338 1387.229 6419.7705 7166032
44.185589 1383.4025 6402.0625 5455669
83.931541 1414.0428 6543.8589 12496034
124.35641 1433.1454 6632.2612 11705493
163.36897 1430.7069 6620.9766 8679017
206.93089 1461.3398 6762.7388 8546660
244.38458 1445.8962 6691.269 7625558
287.81674 1465.198 6780.5933 8217439
334.52567 1494.4102 6915.7798 2428428
375.55426 1494.6409 6916.8472 1114112
397.16632 1425.1536 6595.2769 917504
435.39633 1422.4032 6582.5488 1311488
473.2944 1419.1096 6567.3066 7165525
521.83398 1445.8 6690.8237 786945
558.51099 1438.1754 6655.5391 524288
589.27106 1417.3251 6559.0483 589824
640.25214 1444.6815 6685.6475 787716
671.69434 1427.3309 6605.353 9797234
719.55457 1444.8579 6686.4639 8415322
745.35431 1418.5699 6564.8091 8744544
782.91882 1416.1698 6553.7021 9206122
822.71814 1417.8478 6561.4673 6245442
854.35101 1405.9357 6506.3408 9140335
898.75745 1415.1648 6549.0513 9666422
953.08685 1438.6082 6657.5415 7232082
1004.2814 1455.6447 6736.3818 8811115
1032.3706 1439.1688 6660.1357 8876139
1052.1669 1412.7711 6537.9736 4864053
1129.3756 1462.5999 6768.5693 918532
1137.7247 1422.8925 6584.813 393216
1147.6082 1387.6732 6421.8262 1906712
1198.7543 1403.0073 6492.7891 7365467
1246.6448 1413.696 6542.2539 8878191
1230.9407 1353.7985 6265.062 11970977
1269.9193 1355.7874 6274.2661 10258303
1329.1542 1378.6742 6380.1812 6573640
1348.5673 1360.132 6294.3721 8941160
1422.0776 1395.6807 6458.8833 13284265
1488.5905 1422.6788 6583.8242 1970196
1521.2898 1416.8071 6556.6514 656131
1478.5112 1342.684 6213.6265 4141627
1565.4341 1387.0864 6419.1113 3155248
1603.8542 1387.4258 6420.6812 3551037
1625.7021 1373.745 6357.3701 2893100
1641.3448 1355.5593 6273.2109 8746098
1668.1323 1347.1793 6234.4302 7167061
1751.6545 1383.9886 6404.7754 6837068
1784.5956 1380.1202 6386.873 6837839
1821.9321 1379.741 6385.1177 6245446
1823.499 1352.84 6260.6265 4337705
1923.4553 1398.5507 6472.165 3680293
1966.4275 1401.8512 6487.4385 5522237
1962.1096 1371.9586 6349.103 7429722
2006.1379 1376.3596 6369.4697 6640464
2023.9795 1362.9637 6307.4766 7034964
2076.9568 1373.2854 6355.2427 6705741
2097.4607 1362.1503 6303.7119 6836812
2116.9111 1350.7325 6250.8735 5783866
2126.241 1333.3608 6170.4814 6638914
2175.137 1340.969 6205.6899 8283480
2311.7874 1401.5253 6485.9302 7690826
2331.4604 1390.3433 6434.1826 7230272
2352.2593 1380.1814 6387.1562 8611926
2308.3201 1332.9581 6168.6177 9400674
2391.7292 1359.5989 6291.9048 9927278
2391.0317 1338.3445 6193.5444 9335658
2413.5945 1330.5554 6157.4985 8875624
2439.561 1324.8468 6131.0801 8613223
2454.0142 1313.1447 6076.9258 8350569
2520.8984 1329.4314 6152.2969 8153448
2544.9597 1322.9924 6122.4985 7758691
2554.3394 1309.2094 6058.7139 7955556
2545.6968 1286.6991 5954.542 7231834
2558.3667 1275.4293 5902.3877 1642769
2597.4624 1277.4597 5911.7842 13945801
2593.2375 1258.4142 5823.646 13484211
2649.2529 1268.7175 5871.3271 12825769
2675.7156 1264.7844 5853.126 8811116
2656.2058 1239.4995 5736.1133 5982791
2693.3755 1240.9683 5742.9102 6311502
2688.5537 1223.2941 5661.1182 6509133
2669.395 1199.6125 5551.5259 7035468
2704.3923 1200.5488 5555.8584 9733228
2608.7097 1144.1477 5294.8477 9864295
2599.2803 1126.467 5213.0259 9337435
2628.5032 1125.7561 5209.7354 9995368
2674.0251 1131.9613 5238.4512 8745053
2707.9565 1133.1738 5244.063 10588036
2729.6443 1129.2935 5226.1055 8548975
2796.5481 1143.9968 5294.1494 8681597
2845.4939 1151.1095 5327.0649 5129806
2968.479 1187.6892 5496.3472 6050914
3077.52 1217.9567 5636.418 5657188
3134.2981 1227.1128 5678.7905 6512754
3183.2988 1233.062 5706.3218 5921904
3234.6797 1239.7982 5737.4956 7435400
3318.635 1258.7498 5825.1987 9015716
3276.3174 1229.9093 5691.7319 9674414
3351.3899 1245.275 5762.8408 10728127
3371.625 1240.1602 5739.1709 11320774
3391.6055 1235.0551 5715.5454 11979980
3375.012 1216.8639 5631.3608 11981007
3401.1101 1214.2708 5619.3604 11652815
3391.9397 1199.2583 5549.8862 11850452
3397.8088 1189.8004 5506.1172 11653588
3413.9524 1184.0858 5479.6719 11784921
3427.0422 1177.4299 5448.8696 11325140
3470.4116 1181.2042 5466.3364 11258836
3496.3281 1179.0233 5456.2437 10008521
3578.5295 1195.6888 5533.3677 10205130
3741.7095 1238.8633 5733.1689 10205131
3781.1726 1240.6676 5741.5186 10205129
3788.5115 1231.9929 5701.3745 10204361
3891.0417 1254.1537 5803.9292 10335434
3852.6846 1230.9132 5696.3779 10465991
3863.1301 1223.5333 5662.2256 9675443
3762.2058 1181.3109 5466.8301 9871024
3689.9546 1148.7357 5316.0796 8225169
3674.2166 1134.1561 5248.6089 7830413
3708.5698 1135.1538 5253.2256 7896206
3780.512 1147.5447 5310.5679 8690093
3839.7998 1155.9215 5349.334 7900837
3937.7058 1175.6917 5440.8257 7111840
4194.6611 1242.243 5748.8096 7768996
4316.7021 1268.0894 5868.4204 7440026
4265.0591 1242.9084 5751.8892 7043979
4239.1523 1225.5671 5671.6377 5398122
4416.3047 1266.7428 5862.1885 2173489
4482.9204 1275.8176 5904.1846 1252130
4356.1948 1230.1537 5692.8633 1383460
4257.1401 1192.9458 5520.6733 2895666
4301.0811 1196.0701 5535.1318 1316890
4314.7964 1190.8055 5510.7686 3620160
4180.9229 1145.1941 5299.6895 724755
4208.9067 1144.2661 5295.3955 4673615
4477.9727 1208.4095 5592.2363 3883332
4539.3804 1215.9846 5627.292 3488575
4542.4512 1207.936 5590.0449 2830904
4509.5815 1190.516 5509.4287 5396830
4524.106 1185.7679 5487.4561 2303785
4527.9546 1178.3097 5452.9414 4343623
4576.8638 1182.6001 5472.7964 4409414
4710.3857 1208.5394 5592.8369 6646374
4713.4902 1200.8885 5557.4312 3488052
4595.0352 1162.5884 5380.1865 3356979
4643.936 1166.8669 5399.9863 3488565
4717.6436 1177.2771 5448.1626 4212288
4778.4443 1184.3469 5480.8804 6646373
4815.1899 1185.3997 5485.7515 5791834
4833.8623 1182.0187 5470.1055 8094588
4857.998 1180.0098 5460.8086 8949899
4828.3335 1165.0459 5391.5591 8029053
4799.7505 1150.5378 5324.4194 7700344
4830.0498 1150.2416 5323.0483 8621448
4824.9141 1141.5653 5282.897 8226176
4950.293 1163.6815 5385.2451 9278865
4958.6001 1158.1702 5359.7402 8555399
5026.6626 1166.597 5398.7378 6976111
4987.8882 1150.2793 5323.2231 6055266
4950.3198 1134.443 5249.936 7437175
4901.5645 1116.2567 5165.7744 8423811
4744.6748 1073.8229 4969.4009 9674135
0 0 0 0
0 0 0 0
0 0 0 0
0 0 0 0
-4747.5244 1156.526 5209.313 23
-4683.5996 1148.4187 5172.7959 23
-4649.1426 1147.4778 5168.5576 23
-4626.0151 1149.3394 5176.9424 23
-4587.4995 1147.3768 5168.1025 23
-4560.2725 1148.2303 5171.9473 23
-4509.5654 1143.1436 5149.0347 23
-4494.2358 1147.0164 5166.479 23
-4462.9497 1146.8419 5165.6934 23
-4413.0054 1141.8373 5143.1514 23
-4272.5073 1113.1702 5014.0264 23
-4346.9292 1140.4894 5137.0796 23
-4312.2271 1139.3615 5131.999 23
-4269.3711 1136.0479 5117.0737 23
-4220.7485 1131.1414 5094.9736 23
-4214.8325 1137.692 5124.4795 23
-4172.3062 1134.3837 5109.5781 23
-4129.6665 1130.9961 5094.3193 23
-4255.7808 1174.1157 5288.542 23
-3997.9648 1111.1678 5005.0073 23
-3611.1602 1011.1612 4554.5498 23
-3968.9546 1119.7136 5043.5 23
-3952.6475 1123.5714 5060.8765 23
-3855.1335 1104.2281 4973.749 23
-3886.6853 1121.84 5053.0776 23
-3464.8196 1007.8366 4539.5747 23
-3378.4177 990.39148 4460.9976 22
-3495.1868 1032.701 4651.5713 22
-3704.8977 1103.3622 4969.8486 21
-3670.4873 1101.8708 4963.1313 21
-3596.6941 1088.4373 4902.6226 21
-3585.21 1093.7947 4926.7539 21
-3539.3896 1088.6786 4903.7095 21
-3443.0996 1067.8252 4809.7803 21
-3307.0156 1034.1794 4658.2305 21
-3456.9241 1090.1564 4910.3662 18
-3240.47 1030.5688 4641.9673 19
-3205.426 1028.1492 4631.0684 65555
-3168.0625 1024.9373 4616.6011 65554
-3134.6182 1022.9483 4607.6421 65553
-3081.0234 1014.291 4568.647 196622
-2862.073 950.56146 4281.5918 196617
-2731.083 915.16724 4122.1665 1116178
-2672.5608 903.63702 4070.2312 4011066
-2707.2727 923.70776 4160.6353 6444889
-2680.0916 922.83569 4156.7075 6445145
-2647.8855 920.20117 4144.8408 7168866
-2611.6934 916.11908 4126.4541 8089968
-2618.8162 927.2973 4176.8037 8484726
-2603.5154 930.67316 4192.0093 7695467
-2576.1128 929.74634 4187.8345 8880256
-2564.2185 934.45294 4209.0347 9012355
-2553.6826 939.75189 4232.9023 9670542
-2554.8411 949.50214 4276.8203 9473676
-2519.6978 945.82104 4260.2397 9210504
-2498.0952 947.19971 4266.4497 9342090
-2492.9968 954.92841 4301.2617 8748927
-2475.0547 957.84619 4314.4043 7893361
-2454.6956 959.87982 4323.564 7629676
-2433.053 961.44897 4330.6323 7497318
-2410.2739 962.5979 4335.8071 7760746
-2378.6907 960.21741 4325.085 8024432
-2386.3376 973.79388 4386.2368 8419446
-2379.0115 981.49182 4420.9106 8353396
-2368.564 988.05902 4450.4912 9077375
-2381.8987 1004.8066 4525.9272 8879227
-2349.1628 1002.2796 4514.5444 8813431
-2308.0874 996.09515 4486.688 7102557
-2302.8247 1005.4021 4528.6094 6509906
-2281.7986 1007.9653 4540.1548 6049355
-2265.8052 1012.8393 4562.1084 7036250
-2245.4265 1015.847 4575.6562 6904407
-2222.7827 1017.891 4584.8628 7496546
-2196.2192 1018.1685 4586.1123 7957354
-2150.7375 1009.5723 4547.3931 7432037
-2158.4319 1026.0361 4621.5503 8287346
-2171.0598 1045.2982 4708.3125 8222323
-2152.5493 1049.8744 4728.9248 9801098
-2119.9023 1047.5856 4718.6152 10064013
-2086.3286 1044.7716 4705.9399 10261649
-2106.8418 1069.3331 4816.5723 7037536
-2104.2327 1082.6722 4876.6553 9274495
-2074.5049 1082.2355 4874.688 7234911
-2065.8289 1092.9236 4922.8301 8221550
-2027.9972 1088.2723 4901.8794 8286831
-2004.4017 1091.2363 4915.2305 8484209
-1993.8633 1101.501 4961.4653 7760486
-1950.7109 1093.7859 4926.7144 9076602
-1939.3262 1103.9194 4972.3584 9208188
-1916.4661 1107.7328 4989.5347 8155756
-1895.4823 1112.7671 5012.2104 8353391
-1871.7582 1116.3271 5028.2461 8221549
-1835.406 1112.3492 5010.3286 7103326
-1849.9198 1139.5746 5132.9595 8353650
-1814.5657 1136.4773 5119.0083 8221807
-1777.4587 1132.1583 5099.5542 8090221
-1767.7327 1145.4318 5159.3413 6773845
-1724.2771 1136.9321 5121.0571 3943976
-1686.6279 1132.0253 5098.9551 4470062
-1681.2554 1148.9978 5175.4043 6904147
-1673.6007 1165.0122 5247.5376 7429981
-1642.5131 1165.0122 5247.5376 8153702
-1599.262 1156.2184 5207.9272 7101269
-1580.8658 1165.4016 5249.291 10259843
-1544.9597 1161.7859 5233.0049 10786187
-1544.1793 1184.9771 5337.4644 7233369
-1553.1836 1216.8033 5480.8188 4207410
-1527.9226 1222.5713 5506.7993 3813940
-1494.7242 1222.1013 5504.6826 6576470
-1448.8098 1210.9817 5454.5967 6313299
-1404.0675 1200.3568 5406.7393 7036504
-1391.4468 1217.338 5483.2275 6707537
-1374.3099 1231.0858 5545.1509 6180679
-1361.1957 1249.1984 5626.7349 6048579
-1332.9575 1253.9923 5648.3286 7298389
-1330.7412 1284.144 5784.1396 7561048
-1316.307 1303.7876 5872.6201 8284001
-1253.4209 1275.204 5743.8716 9073002
-1239.8527 1296.6001 5840.2456 10717311
-1215.0406 1307.1289 5887.6699 10651002
-1174.8672 1301.2659 5861.2612 10914430
-1147.3387 1309.4777 5898.2495 10125168
-1127.2181 1326.9255 5976.8398 13151641
-1089.9437 1324.6575 5966.6235 13944749
-1082.2194 1359.3545 6122.9087 14012341
-1036.7831 1347.446 6069.27 13683375
-1005.5869 1353.8539 6098.1323 12891040
-966.70782 1350.0103 6080.8198 6442563
-940.95575 1364.9106 6147.9351 7100240
-917.25 1384.0985 6234.3628 7100242
-897.77722 1411.552 6358.021 7100755
-863.45642 1417.0425 6382.7515 7232598
-829.49646 1423.6553 6412.5371 7495771
-801.31372 1441.2939 6491.9868 7627357
-750.79248 1418.5061 6389.3438 7627871
-725.86816 1444.2275 6505.2002 7561564
-681.90863 1432.8363 6453.8911 9732476
-650.74591 1448.5779 6524.7959 11969439
-597.28741 1413.5424 6366.9858 8745837
-525.99078 1328.7219 5984.9312 8088162
-488.79987 1324.0228 5963.7651 6903879
-455.79044 1330.8004 5994.2935 12693401
-425.34296 1346.8356 6066.5205 13087650
-383.96542 1328.0269 5981.8003 13152939
-358.07059 1364.3884 6145.5825 8020317
-327.80923 1390.4596 6263.0146 8086109
-289.50876 1384.7343 6237.2266 8217696
-255.30629 1399.8029 6305.0991 8086111
-225.89671 1450.8182 6534.8867 7823710
-184.27983 1428.3197 6433.5469 7363417
-148.93236 1455.3518 6555.3071 3943466
-108.00195 1427.6544 6430.5508 4075051
-68.113281 1391.0446 6265.6499 6246731
-30.006626 1346.7234 6066.0151 4996662
5.8585186 1330.5302 5993.0757 6772559
41.053192 1320.5691 5948.2085 3153432
78.52095 1359.1558 6122.0137 12034447
120.24086 1423.7067 6412.7686 10981506
157.55766 1417.6433 6385.4575 10455165
194.11569 1408.4224 6343.9238 10257274
231.50163 1407.2255 6338.5327 9533039
282.52582 1477.6947 6655.9458 8809315
324.07343 1487.4078 6699.6968 12822689
374.24838 1530.2781 6892.7959 11506826
398.86023 1470.4705 6623.4058 11375754
432.91208 1453.0614 6544.9907 8744294
465.77036 1434.8375 6462.9053 8020829
504.37463 1435.7388 6466.9644 7560279
555.49524 1469.6259 6619.6016 7428950
575.96631 1423.3042 6410.9561 7626072
617.66101 1431.916 6449.7461 7823706
653.28125 1426.2625 6424.2808 6902858
682.14227 1407.2869 6338.8096 7231565
738.97577 1444.9888 6508.6294 6442564
762.41357 1416.8881 6382.0557 5455671
795.54047 1408.5981 6344.7158 6509642
840.93097 1421.7909 6404.1396 7495768
888.22034 1436.9166 6472.27 6903114
917.92468 1423.5195 6411.9258 13153955
973.0896 1449.1023 6527.1577 9534576
996.24377 1426.882 6427.0713 9994358
1044.9657 1441.5691 6493.2261 9665912
1062.4479 1413.6472 6367.458 9797242
1101.9218 1415.8979 6377.5962 6046786
1110.6841 1379.8452 6215.2046 9468278
1150.8224 1383.8352 6233.1768 9336690
1201.3038 1399.6276 6304.3101 8085854
1197.2828 1352.8821 6093.7554 8217439
1236.3158 1356.0984 6108.2422 7362641
1247.113 1329.0411 5986.3687 10126715
1284.0795 1330.5973 5993.3784 11508620
1283.7263 1294.4387 5830.5103 12167063
1346.9908 1322.6428 5957.5493 7297875
1500.981 1436.2177 6469.1216 7561821
1528.8634 1426.4749 6425.2373 7825253
1544.8402 1406.3669 6334.666 7167582
1573.3319 1398.3358 6298.4912 6510164
1594.3364 1384.1764 6234.7134 7035997
1610.0822 1366.196 6153.7246 6705490
1662.6428 1379.5586 6213.9136 6902864
1690.4404 1372.2406 6180.9512 6704201
1738.5278 1381.3541 6222.0015 6113347
1723.8513 1341.2554 6041.3853 2297866
1720.2626 1311.2391 5906.1841 7626844
1750.1968 1307.4625 5889.1733 10917522
1818.7819 1332.1431 6000.3408 9207159
1867.0962 1341.3148 6041.6528 6705998
1881.4434 1326.1986 5973.5654 5982274
1953.5094 1351.5745 6087.8652 6639947
1958.2041 1330.2632 5991.8735 7034448
2021.2351 1348.6346 6074.6235 7099726
2043.5072 1339.6434 6034.1245 7033675
2062.7385 1329.0021 5986.1934 7165261
2139.6335 1355.2449 6104.3979 7297105
2183.6182 1360.1162 6126.3398 6902347
2179.052 1335.0818 6013.5776 7165521
2299.533 1386.2351 6243.9868 7823451
2291.7834 1359.6913 6124.4258 7165265
2277.7903 1330.3282 5992.1665 6638920
2310.3816 1328.656 5984.6343 7099472
2296.3582 1300.6324 5858.4082 8283745
2364.1042 1319.0669 5941.4424 8283489
2403.5867 1321.4221 5952.0513 8480869
2418.6018 1310.4524 5902.6401 8020831
2460.3992 1314.0996 5919.0684 8152673
2500.7708 1316.8937 5931.6533 8942446
2444.3118 1269.326 5717.396 9864571
2481.4985 1271.0245 5725.0459 8943718
2538.5664 1282.7228 5777.7383 9601401
2651.1311 1321.7788 5953.6577 10654082
2638.6714 1298.2943 5847.8765 13811121
2710.7852 1316.4913 5929.8413 13218730
2636.0671 1263.8264 5692.6235 9731702
2595.321 1228.5734 5533.8345 7955802
2661.2368 1244.062 5603.5991 7429457
2602.5417 1201.6339 5412.4912 10653042
2555.6785 1165.635 5250.3428 9403227
2535.7371 1142.6334 5146.7368 10324325
2567.6272 1143.2566 5149.5439 10192478
2566.3584 1129.2743 5086.5635 8415812
2662.3911 1157.9351 5215.6602 7429437
2672.4939 1148.9944 5175.3882 9338480
2729.1436 1160.0413 5225.147 10325123
2724.6099 1145.1259 5157.9634 9667192
2755.4915 1145.2606 5158.5708 11443351
2824.1116 1160.9058 5229.041 6575699
2922.3037 1188.2357 5352.1421 9338750
3044.7722 1224.7439 5516.5854 8812150
3155.0417 1255.6219 5655.6685 5916488
3219.0017 1267.6145 5709.6865 6113866
3203.4834 1248.3855 5623.0737 6837590
3262.0393 1258.1215 5666.9272 6838106
3274.8423 1250.1927 5631.2139 7693674
3245.4778 1226.4885 5524.4434 7956848
3105.9417 1162.0387 5234.1436 393221
3123.7031 1157.1316 5212.0405 721670
3184.7429 1168.1954 5261.8755 7167852
3227.0564 1172.2424 5280.104 8418431
3295.0425 1185.448 5339.5854 9536913
3383.874 1205.8303 5431.3936 7694195
3442.2812 1215.0895 5473.0991 7892344
3517.0166 1229.8856 5539.7451 8155772
3584.8359 1242.012 5594.3657 8353924
3663.208 1257.5389 5664.3032 6776176
3734.3201 1270.3143 5721.8472 5658213
3740.5317 1260.981 5679.8071 5855598
3792.1099 1266.9713 5706.7896 3026236
3830.3591 1268.4421 5713.4141 1841710
3663.7944 1202.6559 5417.0947 1906217
3649.22 1187.4705 5348.6953 3483965
3659.499 1180.5642 5317.5879 3089200
3688.1204 1179.6427 5313.437 2299935
3605.4116 1143.4292 5150.3213 3550773
3553.3323 1117.4559 5033.3306 5986145
3707.8977 1156.3599 5208.5649 9214894
3815.3499 1180.05 5315.272 10073285
3996.8123 1226.0558 5522.4941 9942216
4012.9956 1221.0254 5499.8359 9941706
4106.8838 1239.5284 5583.1792 9810122
4180.8252 1251.7638 5638.29 10204880
4202.542 1248.2927 5622.6558 9416135
4247.4688 1251.7163 5638.0762 9481931
4374.5586 1279.1105 5761.4678 9285065
4275.3374 1240.4203 5587.1958 9613256
4242.8018 1221.5234 5502.0796 9941703
4086.6582 1167.5988 5259.188 11321037
4075.7966 1155.6846 5205.5229 8885150
4082.7117 1148.952 5175.1978 10529718
4132.7148 1154.3553 5199.5356 9675439
4213.3325 1168.1665 5261.7451 10138046
4319.2178 1188.7291 5354.3647 9874876
4391.4399 1199.7946 5404.2065 9217975
4430.8984 1201.8134 5413.2998 8296362
4430.2422 1193.0007 5373.6055 8164776
4450.4766 1189.8994 5359.6357 7638176
4490.541 1192.1061 5369.5757 7111832
4520.48 1191.6128 5367.3535 7440024
4536.3486 1187.4432 5348.5728 6518404
4547.4272 1182.0863 5324.4438 5201514
4562.4697 1177.8267 5305.2568 3884879
4592.665 1177.5101 5303.8315 2436659
4652.0249 1184.6246 5335.8774 1646629
4678.4136 1183.3038 5329.9277 3159610
4816.0151 1209.941 5449.9092 1843492
4809.7925 1200.3307 5406.6216 1447963
4778.5669 1184.649 5335.9868 4079687
4813.2773 1185.4121 5339.4243 4211529
4792.4624 1172.58 5281.6245 5658972
4773.3926 1160.3383 5226.4849 5791071
4822.3506 1164.6844 5246.061 6515049
4843.3125 1162.2567 5235.126 6646377
4818.8813 1149.0361 5175.5767 4738378
4695.4634 1112.5291 5011.1387 3225139
4698.7866 1106.3218 4983.1792 5725270
4696.2207 1098.814 4949.3623 5396304
4654.4927 1082.2931 4874.9478 4869960
0 0 0 0
0 0 0 0
0 0 0 0
0 0 0 0
-4593.6001 1148.8895 5040.416 22
-4553.3096 1146.2639 5028.897 22
-4529.1841 1147.6998 5035.1968 23
-4471.6099 1140.6228 5004.1484 23
-4427.0786 1136.8005 4987.3789 23
-4414.29 1141.1326 5006.3843 23
-4344.5137 1130.6917 4960.5781 23
-4350.3994 1139.9343 5001.1279 23
-4355.8975 1149.2015 5041.7847 23
-4147.7246 1101.8352 4833.979 23
-4125.8052 1103.6323 4841.8633 23
-4265.3135 1148.9381 5040.6289 23
-4229.1328 1147.224 5033.1089 23
-4184.4189 1143.1543 5015.2544 23
-4138.5034 1138.6957 4995.6938 23
-4125.9575 1143.4208 5016.4233 23
-4087.4033 1140.9543 5005.6025 23
-3641.1443 1023.8138 4491.6826 23
-3614.5767 1023.8257 4491.7354 23
-3990.3274 1138.6393 4995.4463 23
-3961.4136 1138.8348 4996.3042 23
-3912.939 1133.3676 4972.3184 23
-3863.1306 1127.4283 4946.2612 23
-3850.4434 1132.3146 4967.6982 23
-3498.573 1036.7628 4548.4932 23
-3756.5085 1121.8396 4921.7427 21
-3374.4346 1015.6207 4455.7378 21
-3342.9043 1014.0633 4448.9058 21
-3392.6763 1037.3402 4551.0264 21
-3602.5464 1110.3336 4871.2632 21
-3549.7141 1102.885 4838.585 21
-3542.1819 1109.5043 4867.625 21
-3443.9238 1087.5813 4771.4443 21
-3415.5452 1087.5459 4771.2886 21
-3374.3748 1083.4027 4753.1118 21
-3342.7668 1082.286 4748.2124 18
-3311.7339 1081.3378 4744.0527 19
-3260.0847 1073.5845 4710.0371 65555
-3366.3015 1118.1331 4905.481 65555
-3221.5146 1079.3595 4735.3735 131090
-3080.1848 1041.0731 4567.4033 196626
-3043.1135 1037.6588 4552.4238 196622
-2884.5645 992.39093 4353.8242 262154
-2739.2341 950.8949 4171.7725 1510424
-2641.0837 925.17041 4058.9138 3747381
-2615.8335 924.74457 4057.0459 5918545
-2611.0938 931.62903 4087.249 7103074
-2590.2124 932.8291 4092.5144 8418933
-2568.9612 933.91742 4097.2891 8024946
-2540.1519 932.25275 4089.9856 10525595
-2520.2253 933.84735 4096.9814 11315880
-2558.804 957.36237 4200.147 9868177
-2508.1287 947.61737 4157.3936 8881026
-2511.5732 958.32947 4204.3896 8683134
-2477.9092 954.95483 4189.5845 8354167
-2469.9299 961.5108 4218.3467 7959408
-2431.4275 956.19708 4195.0342 7958894
-2411.9333 958.32587 4204.374 8024174
-2412.4136 968.51843 4249.0908 8221298
-2393.554 971.07971 4260.3276 8353139
-2393.5247 981.41638 4305.6768 7498087
-2371.6145 982.90747 4312.2183 8616824
-2365.908 991.2196 4348.6855 8945789
-2343.175 992.50293 4354.3159 9077374
-2338.1956 1001.4183 4393.4292 8813945
-2332.2935 1010.1349 4431.6709 7892588
-2326.3618 1019.037 4470.7261 8418932
-2281.8318 1011.0418 4435.6494 7958124
-2267.3665 1016.3367 4458.8794 7760231
-2287.781 1037.5754 4552.0581 7892330
-2241.9648 1028.9249 4514.1069 8747125
-2240.6353 1040.7288 4565.8926 8813431
-2195.8142 1032.3733 4529.2354 8681847
-2186.9082 1040.9058 4566.6689 8616311
-2180.3853 1050.8004 4610.0786 8550518
-2136.8894 1042.9015 4575.4243 8418932
-2133.3982 1054.5746 4626.6367 8814203
-2126.3179 1064.7544 4671.2974 9735048
-2096.9392 1063.8894 4667.5029 9801867
-2064.4551 1061.4045 4656.6016 10261905
-2050.6306 1068.576 4688.0645 9735561
-2054.5146 1085.299 4761.4312 7761512
-2063.9868 1105.4806 4849.9722 7498084
-2045.1287 1110.8439 4873.502 9537923
-2016.5552 1111.0082 4874.2227 10196367
-1979.3892 1106.3745 4853.894 9275523
-1965.9869 1115.0828 4892.0986 10000016
-1956.736 1126.4414 4941.9312 10196882
-1915.8145 1119.6361 4912.0752 10262418
-1910.1533 1133.5457 4973.0991 8683128
-1872.0022 1128.3083 4950.1221 9275007
-1861.5975 1139.894 5000.9512 8814201
-1838.1719 1143.7526 5017.8789 8682614
-1825.0209 1154.236 5063.8721 8222063
-1818.5588 1169.3711 5130.2729 8287598
-1779.2244 1163.5238 5104.6196 8287598
-1740.3243 1157.7633 5079.3472 7760742
-1727.3859 1169.375 5130.29 8352107
-1679.8586 1157.568 5078.4902 8417385
-1644.0469 1153.5507 5060.8652 7824735
-1656.3038 1183.738 5193.3037 7627096
-1617.1573 1177.6356 5166.5308 7824472
-1584.5985 1176.1873 5160.1768 12956574
-1493.9203 1130.6936 4960.5864 13352098
-1470.2622 1135.1171 4979.9937 13286305
-1488.4954 1172.7261 5144.9922 13352871
-1426.3838 1147.2841 5033.3726 12629411
-1495.9824 1228.9558 5391.6836 3025441
-1457.1929 1223.2075 5366.4644 5655107
-1431.532 1228.469 5389.5479 6641737
-1416.9731 1243.7151 5456.4355 6773065
-1386.5719 1245.4434 5464.0176 6312258
-1385.005 1273.7727 5588.3042 6772554
-1352.7087 1274.5359 5591.6528 7035217
-1334.6241 1289.0641 5655.3906 7034961
-1308.656 1296.5299 5688.145 7166547
-1287.048 1308.8243 5742.083 7561305
-1239.6837 1294.8832 5680.9204 8416100
-1217.168 1306.8431 5733.3911 9731445
-1195.6215 1320.5603 5793.5713 10586753
-1168.7305 1329.0109 5830.6455 10980995
-1131.6483 1326.0344 5817.5874 11112836
-1116.3993 1349.2582 5919.4746 9599339
-1095.7142 1367.2052 5998.2124 9599853
-1067.2134 1376.2761 6038.0083 11179146
-1026.3564 1369.4893 6008.2329 13087145
-1002.654 1385.9268 6080.3472 9469044
-955.41541 1369.8438 6009.7881 8087649
-936.16974 1394.2047 6116.6646 7890527
-916.01434 1419.118 6225.9644 7627356
-881.58301 1423.0771 6243.334 7561820
-841.03888 1417.0836 6217.0391 7561565
-803.37195 1415.6108 6210.5776 7429723
-770.33453 1422.5459 6241.0034 7693152
-741.75562 1438.8287 6312.439 7561052
-701.88123 1433.7665 6290.2305 7824223
-663.44922 1431.2484 6279.1826 7560538
-615.65094 1407.0253 6172.9111 4073252
-544.48602 1322.9675 5804.1318 1114368
-519.50348 1347.353 5911.1162 5388076
-487.32574 1355.254 5945.7798 12757402
-447.38809 1341.1244 5883.79 12757909
-416.59442 1354.3339 5941.7427 10455668
-379.66455 1348.1919 5914.7969 10982525
-351.71793 1375.9441 6036.5513 10655369
-316.61481 1378.813 6049.1377 9866368
-275.19867 1351.413 5928.9282 8876897
-232.1371 1306.7329 5732.9077 8942430
-193.92416 1278.7097 5609.9639 10521713
-155.40224 1236.6357 5425.377 11640705
-127.09804 1275.1307 5594.2622 6969414
-101.34124 1375.3546 6033.9653 6904144
-65.869041 1381.1077 6059.2051 7430490
-29.469915 1357.9291 5957.5161 5785407
5.7955379 1351.349 5928.6479 5521974
40.54842 1339.1373 5875.0723 4534818
75.735077 1345.9153 5904.8086 9798004
113.45032 1379.1486 6050.6104 9468269
149.58499 1381.8228 6062.3428 10586748
186.58665 1389.9199 6097.8662 11177859
225.42773 1406.8698 6172.229 9927535
261.10413 1402.0944 6151.2783 9138019
296.40656 1396.7266 6127.7285 9993069
338.19504 1419.7589 6228.7759 13151641
375.09155 1419.7432 6228.707 12690832
409.02817 1409.5303 6183.9009 11374973
438.43652 1386.6746 6083.6284 10190961
484.67456 1416.4763 6214.3745 9335656
521.62787 1416.851 6216.0186 9336174
544.84796 1382.3337 6064.584 8482145
577.45966 1374.4406 6029.9551 2824981
613.81293 1375.8536 6036.1548 8416607
643.28015 1362.526 5977.6836 8351070
673.32013 1351.739 5930.3589 11772563
719.84631 1373.4777 6025.731 9666935
767.42053 1395.0675 6120.4497 7034960
811.62946 1408.8674 6180.9932 7100754
859.41077 1427.4093 6262.3403 7297875
912.84607 1453.4189 6376.4497 6902860
960.13721 1467.9675 6440.2773 6836551
972.49133 1430.0299 6273.8369 7559762
988.185 1399.6152 6140.4014 7493969
1019.9442 1393.3069 6112.7256 7427923
1030.1586 1359.0087 5962.252 8545892
1074.9612 1371.1013 6015.3052 7756634
1123.3108 1386.797 6084.1655 3743004
1125.7296 1346.5753 5907.7046 1246468
1131.8948 1313.1254 5760.9526 7560791
1168.5562 1315.9769 5773.4634 8415842
1221.5133 1336.4962 5863.4854 10652543
1249.209 1329.0055 5830.6221 11245437
1283.0526 1328.2826 5827.4507 12495248
1285.2255 1295.6694 5684.3696 11902854
1285.7008 1263.054 5541.2793 4338984
1330.236 1274.2688 5590.481 10061946
1373.9662 1284.1865 5633.9917 7693656
1383.9362 1262.8278 5540.2866 10194053
1419.2795 1265.0753 5550.147 11114387
1506.5887 1312.4919 5758.1738 11509400
1611.4446 1372.7565 6022.5669 10982543
1655.1477 1379.4441 6051.9062 3942695
1690.2129 1378.8014 6049.0869 655617
1649.4379 1317.603 5780.5972 720896
1658.9829 1298.2731 5695.7925 983296
1692.7467 1298.2889 5695.8623 722436
1747.7965 1314.3108 5766.1533 10720135
1756.975 1295.8854 5685.3169 10324864
1809.7263 1309.6862 5745.8643 11377552
1830.3408 1300.1498 5704.0259 6771531
1921.6293 1340.251 5879.9585 6376774
1949.7202 1335.6318 5859.6929 7297619
1990.66 1339.8219 5878.0757 7626069
2030.1627 1342.9174 5891.6562 7560020
2055.1074 1336.4412 5863.2441 7165517
2049.0637 1310.3633 5748.835 6507330
2109.8936 1327.2041 5822.7192 6507588
2136.3672 1322.2395 5800.9385 6507331
2154.8115 1312.5413 5758.3901 5981760
2160.8789 1295.7238 5684.6084 4666415
2174.5439 1283.9082 5632.771 655873
2194.5327 1276.1271 5598.6338 6179913
2228.8147 1276.7655 5601.4346 8086623
2297.5781 1296.8479 5689.54 7428693
2289.9688 1273.8649 5588.709 6968655
2334.4436 1280.0975 5616.0527 7034192
2360.2075 1276.0389 5598.2466 7231829
2387.1008 1272.6951 5583.5767 7429463
2429.8381 1277.7744 5605.8608 6903118
2531.8035 1313.4429 5762.3457 7297363
2571.5571 1316.3177 5774.958 7099983
2605.1335 1315.9965 5773.5488 8546914
2605.3391 1299.0447 5699.1777 7493713
2632.6768 1295.8818 5685.3018 1904395
2503.198 1216.5842 5337.4067 4006941
2503.3191 1201.4664 5271.0815 7033408
2508.7629 1189.2441 5217.46 9205596
2520.7683 1180.392 5178.624 9205336
2544.8318 1177.3313 5165.1958 9665628
2554.0984 1167.579 5122.4106 9270870
2607.6833 1178.0776 5168.4702 9928801
2624.1331 1171.7505 5140.7119 7559490
2649.833 1169.6519 5131.5044 7888459
2710.022 1182.6515 5188.5371 8481372
2658.791 1147.2815 5033.3613 9995382
2744.9695 1171.3313 5138.8726 10324864
2777.8542 1172.3615 5143.3921 6968137
2933.3035 1224.5349 5372.2881 5323066
3018.4619 1246.5598 5468.916 6967891
3092.9724 1263.7662 5544.4038 8547691
3126.3186 1263.9683 5545.2905 7626590
3162.052 1265.1213 5550.3491 5389372
3176.7844 1257.9347 5518.8198 6244937
3187.8018 1249.4382 5481.5444 6048073
3202.3616 1242.4879 5451.0513 6377039
2858.1223 1097.8551 4816.5176 589824
3037.9653 1155.401 5068.9834 589826
3075.9536 1158.3981 5082.1323 787465
3019.2432 1126.0195 4940.0806 8549751
3076.8557 1136.4897 4986.0156 9800069
3161.6392 1156.7014 5074.6885 10193800
3133.2295 1135.5103 4981.7183 6705491
3284.4531 1179.2076 5173.4282 5521217
3311.5381 1177.9402 5167.8672 6508625
3391.897 1195.472 5244.7832 8087659
3463.7437 1209.7129 5307.2607 8417391
3591.0698 1242.8994 5452.8569 9074809
3676.1797 1261.0131 5532.3252 1773330
3542.8311 1204.5325 5284.5332 2497054
3545.5776 1194.9073 5242.3057 590343
3541.5103 1183.1729 5190.8242 1181969
3526.6433 1168.0636 5124.5366 1446421
3627.9568 1191.3639 5226.7598 3023911
3606.3901 1174.2595 5151.7192 5129030
3600.447 1162.4865 5100.0688 4668478
3698.0649 1184.0684 5194.7529 4537151
3756.0928 1192.7223 5232.7197 4998219
3836.2046 1208.1897 5300.5786 5064532
3880.6245 1212.2565 5318.4199 5064023
3900.0898 1208.525 5302.0493 3551556
4043.6624 1243.0031 5453.3115 4933983
4188.7188 1277.3871 5604.1611 4277077
4179.3574 1264.5098 5547.6655 4803684
4146.9575 1244.9169 5461.708 6052722
4193.5342 1249.1528 5480.292 4735835
4024.9568 1189.7267 5219.5771 1314336
3824.3679 1121.8168 4921.6421 459791
3852.9768 1121.6572 4920.9424 327698
3945.8323 1140.0629 5001.6914 1380386
3899.7966 1118.3634 4906.4917 526092
4095.7935 1165.8804 5114.9585 10794692
4137.4517 1169.0892 5129.0361 9679047
4201.123 1178.426 5169.999 9481924
4200.8115 1169.8101 5132.1987 9482183
4248.1089 1174.4806 5152.6895 9481669
4293.5776 1178.5824 5170.6851 9350082
4331.3931 1180.5403 5179.2744 9284546
4361.9771 1180.5133 5179.1562 9350339
4421.7539 1188.3324 5213.46 9481412
4474.6108 1194.1962 5239.1855 9218755
4542.2451 1203.8956 5281.7393 9350342
4597.2334 1210.1338 5309.1069 9219270
4774.6201 1248.2871 5476.4941 9350855
4878.4277 1266.8187 5557.7959 9482696
4771.1313 1230.6503 5399.1172 9745607
4682.2944 1199.6934 5263.3027 9613763
4689.9878 1193.7151 5237.0752 10008002
4593.8721 1161.5673 5096.0356 10204607
4543.2246 1141.2609 5006.9473 10335676
4573.9844 1141.5347 5008.1489 9676461
4574.6992 1134.355 4976.6499 8425367
4564.417 1124.5579 4933.6685 6977405
4660.1865 1140.8478 5005.1353 5397089
4715.0161 1146.9725 5032.0059 3159353
4673.2661 1129.6742 4956.1143 2106408
4637.7148 1114.0807 4887.7026 1908770
4653.2515 1110.8771 4873.6475 1119255
0 0 0 0
0 0 0 0
0 0 0 0
0 0 0 0
-4539.3042 1164.8174 4980.8389 24
-4493.8203 1160.691 4963.1943 23
-4461.2109 1159.8573 4959.6294 24
-4212.9365 1102.5709 4714.6685 23
-4185.3379 1102.6583 4715.0425 23
-4387.1665 1163.5975 4975.6226 23
-4331.8218 1156.6902 4946.0864 23
-4508.0566 1211.9468 5182.3672 23
-4289.5752 1161.1178 4965.019 23
-4235.7212 1154.4565 4936.5352 23
-4015.6831 1102.0939 4712.6289 23
-3988.2581 1102.2303 4713.2124 23
-4146.603 1154.0718 4934.8896 23
-4079.9382 1143.5804 4890.0283 23
-3720.0908 1050.1743 4490.6172 23
-4038.478 1148.266 4910.064 23
-4003.696 1146.6354 4903.0913 23
-3611.1106 1041.7593 4454.6338 23
-3591.6255 1043.7659 4463.2144 23
-3564.5129 1043.5692 4462.3735 23
-3538.282 1043.6298 4462.6323 23
-3512.4053 1043.7965 4463.3452 23
-3475.6628 1040.7123 4450.1567 23
-3454.6206 1042.3177 4457.0225 23
-3477.9619 1057.4425 4521.6968 20
-3405.9248 1043.578 4462.4111 21
-3349.1658 1034.2145 4422.3721 21
-3621.5427 1127.141 4819.7319 21
-3610.343 1132.585 4843.0107 21
-3654.4417 1155.6023 4941.4346 21
-3626.5498 1156.043 4943.3188 21
-3477.4675 1117.5442 4778.6953 21
-3429.8796 1111.2981 4751.9868 21
-3391.4348 1107.9354 4737.6079 21
-3361.8154 1107.4241 4735.4209 21
-3064.6052 1018.0144 4353.0991 21
-3398.2947 1138.4409 4868.0513 21
-3282.4204 1109.0343 4742.3066 21
-3358.8315 1144.6487 4894.5957 21
-3195.1897 1098.3635 4696.6777 21
-3254.915 1128.7235 4826.499 19
-2834.7673 991.73883 4240.7432 18
-2799.7737 988.25482 4225.8452 196624
-2740.0171 975.88824 4172.9648 196619
-2676.905 962.09064 4113.9653 1116179
-2611.4875 947.20312 4050.3057 3681844
-2594.2783 949.68713 4060.9272 5590098
-2571.2913 950.08289 4062.6194 8683391
-2552.467 952.0387 4070.9827 9801615
-2517.8855 948.09845 4054.1338 10525851
-2524.6519 959.80157 4104.1772 10723230
-2490.9358 956.19263 4088.7449 9670541
-2497.0134 967.93805 4138.9692 8157046
-2464.9841 964.99835 4126.3989 9077892
-2435.8999 963.16425 4118.5562 9011583
-2447.4653 977.52881 4179.98 7630186
-2434.7598 982.3938 4200.7832 7432295
-2405.5759 980.64191 4193.292 7892589
-2381.5212 980.96625 4194.6787 7826796
-2351.0938 978.64478 4184.752 7169121
-2350.1206 988.66479 4227.5981 8682361
-2319.1543 986.14697 4216.832 8814203
-2304.823 990.72491 4236.4077 8419958
-2321.2166 1008.7562 4313.5103 9341316
-2296.3928 1009.0771 4314.8828 8222066
-2286.8003 1016.1735 4345.2275 7629157
-2309.4041 1037.9014 4438.1372 6971228
-2261.6023 1028.1232 4396.3252 7628644
-2237.3645 1028.9542 4399.8789 7826023
-2254.9338 1049.2585 4486.7012 7957610
-2203.0771 1037.3567 4435.8081 8417647
-2183.5647 1040.5812 4449.5962 8286317
-2174.7415 1049.0406 4485.7695 8549748
-2177.3477 1063.2909 4546.7046 8286832
-2156.2683 1066.1866 4559.0869 9010812
-2099.9207 1051.496 4496.2686 8155760
-2099.9475 1065.0188 4554.0933 8945276
-2105.8108 1081.8923 4626.2456 9735305
-2056.9922 1070.7467 4578.5859 9933454
-2049.1689 1080.928 4622.1221 9341318
-2044.0651 1092.8391 4673.0547 10196627
-2018.7838 1094.1414 4678.6235 9407110
-2064.5608 1134.5283 4851.3208 8551803
-2018.009 1124.6023 4808.8765 8748668
-1989.9764 1124.8602 4809.9795 8485751
-1955.5181 1121.4407 4795.3569 9538183
-1955.8403 1138.16 4866.8501 8814203
-1953.9786 1154.09 4934.9673 8813434
-1924.2751 1153.8094 4933.7681 8418674
-1892.5465 1152.2874 4927.2598 8023658
-1876.3435 1160.3187 4961.6021 8484979
-1842.8646 1157.7522 4950.6274 8484979
-1830.5677 1168.6251 4997.1211 9406850
-1827.051 1185.5529 5069.5054 8419699
-1792.7751 1182.7537 5057.5356 9275007
-1744.5988 1170.5328 5005.2783 9603716
-1708.5282 1166.152 4986.5459 8879734
-1684.1396 1169.7311 5001.8501 8944241
-1645.1292 1163.1006 4973.4976 7365465
-1628.734 1172.5087 5013.7275 7693657
-1617.0881 1185.749 5070.3438 7561810
-1593.5243 1190.5861 5091.0273 8942942
-1481.1216 1127.954 4823.2085 13219737
-1496.5605 1162.1313 4969.3535 13416862
-1474.4818 1167.962 4994.2856 12891545
-1445.6736 1168.5918 4996.9785 12760217
-1429.8755 1179.9844 5045.6938 12497817
-1392.3164 1173.522 5018.0601 12234648
-1451.7623 1250.3226 5346.4653 11905693
-1432.389 1261.1525 5392.7744 8681831
-1375.3518 1238.5586 5296.1616 7167825
-1379.2083 1271.0273 5435 6969676
-1346.2776 1270.3361 5432.0439 7232850
-1351.7037 1306.6907 5587.4985 7232595
-1313.9211 1302.0519 5567.6631 7035215
-1292.8635 1314.1749 5619.502 6771530
-1265.3358 1320.1884 5645.2158 7297618
-1231.7302 1320.0146 5644.4727 7363412
-1208.2717 1331.0092 5691.4863 7889242
-1176.9669 1333.7434 5703.1777 9007723
-1136.7814 1326.2781 5671.2559 9731444
-1118.6968 1344.9285 5751.0063 11113094
-1107.9277 1373.8219 5874.5562 11244935
-1061.365 1358.766 5810.1763 9994868
-1041.9839 1378.665 5895.2661 9205867
-996.24115 1363.8555 5831.9395 9073511
-955.46039 1355.0188 5794.1533 10191994
-945.69574 1391.1492 5948.6489 9863801
-917.93286 1402.5758 5997.5098 9271921
-896.70477 1425.3096 6094.7212 7890271
-858.41779 1421.6984 6079.2793 7561562
-828.3493 1431.978 6123.2363 7298391
-789.77222 1427.817 6105.4434 7495513
-751.90601 1424.6033 6091.7012 7692893
-719.06415 1431.0649 6119.3315 7495514
-682.98138 1431.4203 6120.8511 7626586
-649.58533 1437.7621 6147.9692 4335143
-585.1413 1372.0551 5867.0015 1639171
-548.45441 1367.2452 5846.4341 3282963
-507.89035 1351.4698 5778.9775 5125674
-464.40033 1325.0654 5666.0708 12560023
-438.73611 1349.3713 5770.0044 12429201
-395.7359 1319.9614 5644.2451 1050630
-357.4111 1302.1565 5568.1104 10192246
-338.8544 1360.0751 5815.7739 1312772
-302.32483 1350.8011 5776.1182 720896
-258.11172 1300.4479 5560.8037 4270875
-218.29091 1260.7279 5390.959 10322540
-186.17184 1259.498 5385.6997 11310707
-154.08801 1258.047 5379.4951 11574638
-124.5313 1281.8518 5481.2861 12035707
-98.40596 1370.2296 5859.1958 8613724
-63.591808 1368.0149 5849.7256 8679519
-29.23562 1382.1462 5910.1519 7625805
5.7353001 1372.061 5867.0269 9730412
39.97723 1354.5883 5792.312 8283224
73.671288 1343.267 5743.9019 6442046
108.67388 1355.4203 5795.8701 9600112
138.76279 1315.167 5623.7437 9468013
174.64511 1334.7782 5707.603 7822673
209.72934 1342.9172 5742.4058 8612446
244.13556 1345.0488 5751.521 13283231
284.30493 1374.5214 5877.5474 12164494
326.25009 1405.2107 6008.7773 11901325
358.73199 1393.1122 5957.043 9664623
399.51657 1412.5358 6040.0996 11178119
435.52487 1413.2671 6043.2266 11178119
472.63846 1417.2017 6060.0513 10915460
505.3938 1408.4349 6022.564 10257533
538.6051 1402.0112 5995.0962 7757913
576.01477 1406.635 6014.8672 3352099
601.96216 1384.3595 5919.6157 1050888
635.49915 1381.0299 5905.3784 6376520
670.00378 1380.0409 5901.1494 13087918
702.47852 1375.1761 5880.3477 8219234
752.05939 1402.6761 5997.9395 8285027
791.06268 1408.8563 6024.3662 7561048
825.83771 1407.2976 6017.7012 6244930
868.93036 1419.4552 6069.688 6310980
910.11224 1427.6494 6104.7266 6574150
937.21973 1413.9832 6046.2891 6639946
962.90625 1399.2582 5983.3237 5916482
1005.6454 1409.4792 6027.0298 1839376
1026.1545 1388.9108 5939.0776 589824
1031.2935 1349.5922 5770.9482 786432
1057.9126 1340.0044 5729.9507 917504
1083.0649 1329.2129 5683.8052 1048576
1135.8401 1351.9504 5781.0327 4731693
1150.3304 1329.1218 5683.416 7626581
1193.5901 1339.8872 5729.4492 9665391
1228.7775 1341.2457 5735.2588 11442554
1265.8929 1344.5795 5749.5137 12495244
1279.9001 1323.8369 5660.8169 9402728
1281.6396 1291.7885 5523.7759 6376770
1294.0037 1271.7782 5438.2104 10390140
1300.1576 1246.7849 5331.3374 11047554
1357.1171 1270.5415 5432.9224 11376257
1389.2716 1270.5128 5432.7998 11705222
1408.9243 1259.3112 5384.9009 12625554
1421.458 1242.3834 5312.5166 12494481
1480.0182 1265.5457 5411.5601 12428946
1567.3723 1311.8253 5609.4546 9863281
1638.6108 1342.9749 5742.6523 6968910
1649.9044 1324.7269 5664.623 3812907
1679.4132 1321.5402 5650.9961 327936
1716.6971 1324.4768 5663.5532 11838104
1772.041 1340.9674 5734.0684 8613990
1785.1732 1325.4954 5667.9087 6903373
1820.509 1326.7764 5673.3867 6508104
1841.4932 1317.7412 5634.7515 7034704
1888.3014 1327.1781 5675.1045 7297619
1907.8008 1317.4266 5633.4067 7033934
1936.5767 1314.3064 5620.064 7297106
1970.8934 1314.9884 5622.9805 7166033
2004.949 1315.4764 5625.0674 7363413
2027.2238 1308.3452 5594.5737 6244931
2050.0181 1301.7736 5566.4727 7034447
2071.0015 1294.278 5534.4209 7626586
2076.3838 1277.4182 5462.3276 5192244
2082.0835 1261.2681 5393.2686 8416608
2144.8706 1279.6654 5471.937 7956314
2128.2932 1250.8698 5348.8047 7955802
2158.9089 1250.2491 5346.1509 7035214
2184.4397 1246.7443 5331.1636 8153440
2192.3923 1233.4496 5274.3149 7693146
2212.6521 1227.3555 5248.2559 8811371
2253.6731 1232.7867 5271.4805 5916223
2320.7842 1252.1461 5354.2627 6771275
2412.9055 1284.2957 5491.7358 6179139
2435.9253 1279.2988 5470.3691 6310213
2494.0737 1292.6398 5527.416 4467497
2519.7559 1289.0262 5511.9644 1904396
2418.4963 1221.3969 5222.7764 983040
2438.2161 1215.8015 5198.8501 786432
2428.8186 1196.0077 5114.2109 8418388
2504.8186 1218.2354 5209.2573 5719603
2520.4055 1210.8971 5177.8784 8284495
2557.2932 1213.8459 5190.4888 8020807
2593.9634 1216.6229 5202.3628 9796958
2632.5979 1220.245 5217.8511 9270104
2643.2273 1210.953 5178.1182 10125160
2668.0662 1208.3093 5166.8135 8743252
2692.123 1205.3755 5154.2681 8809303
2684.5503 1188.5045 5082.1265 9796708
2738.3423 1198.8737 5126.4658 11705481
2779.2959 1203.4563 5146.0615 10521211
2865.8416 1227.467 5248.7329 8088161
2957.3926 1253.0831 5358.269 8087651
3045.3567 1276.6514 5459.0488 7890018
3039.4141 1260.7712 5391.144 7758434
3118.8264 1280.259 5474.4751 6968662
3054.1155 1240.7928 5305.7148 5850437
3098.6079 1246.0447 5328.1724 6311501
3067.1545 1220.9586 5220.9023 6903898
0 0 0 0
3031.7583 1183.0088 5058.6265 458754
3060.1943 1182.4167 5056.0947 1051149
2999.2419 1147.6323 4907.3545 4734267
3059.179 1159.3291 4957.3706 10326150
3122.2754 1171.9893 5011.5063 9732731
3158.0596 1174.2556 5021.1973 8679017
3206.6284 1181.1888 5050.8447 4533807
3341.7295 1219.5741 5214.9824 4073258
3337.6013 1206.9094 5160.8276 1640972
3341.3596 1197.3007 5119.7397 655361
3354.4858 1191.1915 5093.6162 196608
3449.2427 1213.92 5190.8052 590082
3487.572 1216.5634 5202.1084 984326
3478.8772 1202.9008 5143.686 458753
3510.1785 1203.1849 5144.9009 657160
3507.7124 1191.9893 5097.0278 262144
3579.968 1206.16 5157.623 4405560
3535.2942 1181.0284 5050.1587 4734523
3598.9048 1192.1896 5097.8843 5194556
3663.7817 1203.5809 5146.5942 5720131
3708.6584 1208.2683 5166.6377 6640719
3832.1335 1238.2761 5294.9536 6179655
3905.531 1251.7467 5352.5547 7496030
3908.0076 1242.4529 5312.8135 7758689
3980.863 1255.5038 5368.6201 7561311
3968.4358 1241.6642 5309.4409 8548208
3980.8752 1235.7615 5284.2007 8086377
3933.5801 1211.5524 5180.6812 2496800
3950.9265 1207.474 5163.2412 1904663
3934.0886 1193.0911 5101.7393 2891562
3871.71 1165.2217 4982.5674 787211
3817.0728 1140.0862 4875.0864 393221
3840.2844 1138.4055 4867.8999 720904
3943.6963 1160.347 4961.7236 1970970
3950.6348 1153.7888 4933.6797 6115673
3958.1047 1147.481 4906.707 3089191
4248.8257 1222.7827 5228.7026 3220264
4282.436 1223.5354 5231.9209 2694952
4304.7168 1221.0635 5221.3511 1578015
4308.4243 1213.396 5188.5645 2105135
4371.5518 1222.4532 5227.2939 1975089
4391.478 1219.3875 5214.1841 2765892
4428.0825 1220.9631 5220.9219 3950941
4450.2236 1218.5566 5210.6313 5859455
4533.4639 1232.7981 5271.5288 6978971
4504.8696 1216.6414 5202.4414 7901099
4518.1689 1211.9414 5182.3442 8889020
4500.9644 1199.178 5127.7671 9415106
4471.4746 1183.3345 5060.019 9612741
4426.3774 1163.5992 4975.6299 9350081
4474.3408 1168.4268 4996.2729 9284288
4481.3633 1162.5698 4971.2285 9218753
4434.5664 1142.9187 4887.1987 9218498
4440.9165 1137.1311 4862.4502 9152963
4440.8901 1129.7959 4831.0845 9087938
4462.7529 1128.0876 4823.7798 9152961
4465.3813 1121.5702 4795.9106 9021374
4373.6372 1091.5813 4667.6763 9086908
4329.3555 1073.7406 4591.3882 8889269
4317.5103 1064.1172 4550.2378 8362411
4397.8032 1077.1812 4606.1001 8756397
0 0 0 0
0 0 0 0
0 0 0 0
0 0 0 0
-4171.9097 1097.6608 4577.7085 22
-4136.4043 1095.4399 4568.4468 23
-4098.1279 1092.451 4555.9819 23
-4068.0344 1091.6185 4552.5098 23
-4026.616 1087.7156 4536.2324 23
-4000.8318 1088.0118 4537.4683 23
-3948.2998 1080.989 4508.1802 23
-3919.627 1080.4473 4505.9204 23
-3889.365 1079.457 4501.791 23
0 0 0 0
0 0 0 0
-3787.1404 1073.1617 4475.5371 23
-3758.8372 1072.6511 4473.4077 23
-3728.6414 1071.5895 4468.98 23
-3694.1816 1069.2784 4459.3418 23
-3657.9839 1066.4272 4447.4512 23
-3618.8384 1062.6693 4431.7788 23
-3586.0208 1060.728 4423.6831 23
-3559.8552 1060.7404 4423.7344 23
-3981.0974 1195.0569 4983.8911 22
-3971.783 1201.1693 5009.3828 20
-3955.0564 1205.1152 5025.8389 21
-3887.605 1193.5479 4977.5977 21
-3848.6514 1190.6198 4965.3862 21
-3835.3455 1195.642 4986.3311 21
-3795.4734 1192.396 4972.7939 21
-3763.7273 1191.6722 4969.7754 21
-3732.5454 1191.1169 4967.46 21
-3683.9639 1184.9562 4941.7671 21
-3621.6301 1174.2382 4897.0679 21
-3600.7852 1176.9071 4908.1992 21
-3582.1174 1180.3372 4922.5039 21
-3467.5569 1151.9668 4804.1875 21
-3811.4739 1276.6993 5324.3745 21
-3379.3271 1141.3925 4760.0879 21
-3333.8569 1135.5101 4735.5562 21
-3375.3938 1159.4141 4835.2456 21
-3268.4707 1132.2963 4722.1528 21
-3645.9194 1273.9597 5312.9492 21
-3194.9011 1126.0859 4696.2534 21
-3281.6785 1166.8329 4866.1851 19
-3182.3635 1141.5485 4760.7388 65555
-3240.5903 1172.8293 4891.1929 18
-3156.4944 1152.7006 4807.2476 196625
-2698.6997 994.49414 4147.46 131085
-2673.2676 994.17365 4146.1235 1708576
-2550.8191 957.43292 3992.8989 4537672
-2524.73 956.51068 3989.0527 7301481
-2529.1992 967.25757 4033.8721 8748927
-2505.9434 967.50537 4034.9055 8354423
-2476.3848 965.30103 4025.7124 8287605
-2436.6836 959.06189 3999.6926 6576729
-2420.665 962.11298 4012.4165 7497831
-2419.5081 971.19006 4050.272 7365987
-2404.4136 974.79828 4065.3201 8418420
-2388.719 978.23389 4079.6479 7694954
-2406.9258 995.76508 4152.7603 7958381
-2393.054 1000.2501 4171.4644 9011326
-2365.3689 998.99469 4166.229 8090480
-2326.3857 992.89087 4140.7734 9275269
-2313.9058 998.08893 4162.4517 9801612
-2269.3882 989.43097 4126.3442 7234915
-2279.2717 1004.561 4189.4429 6905950
-2275.072 1013.7489 4227.7603 7958124
-2271.7734 1023.5472 4268.6235 7760745
-2263.2546 1031.1877 4300.4878 7629416
-2234.4692 1029.6632 4294.1299 9668999
-2218.5977 1034.123 4312.729 8879483
-2217.9097 1045.8464 4361.6206 9998221
-2198.2583 1048.7986 4373.9326 10063757
-2180.5432 1052.7561 4390.437 9537413
-2164.2075 1057.483 4410.1504 9142398
-2168.8469 1072.7001 4473.6113 8945018
-2133.3569 1068.1998 4454.8438 7167835
-2107.4907 1068.4662 4455.9546 7299421
-2076.6072 1066.1633 4446.3506 7299938
-2098.1616 1091.0696 4550.2202 9011069
-2084.0972 1097.8607 4578.5425 10591384
-2053.4072 1095.9578 4570.606 10197140
-2047.3546 1107.3292 4618.0298 10262419
-2028.7704 1112.139 4638.0884 9078145
-2020.6499 1122.8956 4682.9482 8024943
-2011.4409 1133.3384 4726.499 9011324
-1967.6781 1124.3322 4688.939 8023657
-1957.0695 1134.2833 4730.4399 7957865
-1922.8583 1130.6454 4715.2681 9274495
-1910.5681 1139.9797 4754.1963 9340288
-1925.6875 1166.1926 4863.5151 8089708
-1885.1615 1158.9913 4833.4824 7628129
-1868.8177 1166.6643 4865.4819 7956838
-1866.6337 1183.5557 4935.9263 7429725
-1842.506 1186.8497 4949.6641 6772308
-1805.3156 1181.7 4928.187 6773078
-1783.656 1186.714 4949.0977 8748151
-1760.7643 1191.0621 4967.231 9801095
-1737.0603 1194.9991 4983.6504 8222320
-1699.6351 1189.4698 4960.5908 8615794
-1656.8965 1179.9618 4920.9385 7496283
-1645.3855 1192.7505 4974.2725 7496023
-1612.5886 1190.2938 4964.0273 7495507
-1587.3096 1193.3982 4976.9736 9535598
-1532.6492 1174.1119 4896.542 8811863
-1488.0576 1161.9437 4845.7954 12956820
-1481.4777 1179.5619 4919.2705 12693907
-1467.2474 1191.6737 4969.7817 11904395
-1444.9529 1197.5978 4994.4878 12233620
-1411.1914 1194.0669 4979.7622 11181188
-1384.2682 1196.2948 4989.0537 11049860
-1364.7312 1205.1423 5025.9517 9536368
-1338.4141 1208.2638 5038.9697 12036765
-1323.9683 1222.4891 5098.2954 13024177
-1320.788 1248.0237 5204.7852 6706503
-1304.2987 1261.9025 5262.6655 7759195
-1300.1476 1288.6903 5374.3818 8087906
-1269.629 1290.0321 5379.978 8350822
-1261.2531 1314.5206 5482.1055 8153186
-1230.7563 1316.6394 5490.9414 7626586
-1203.9142 1322.8888 5517.0039 7560280
-1176.2312 1328.5374 5540.561 8020829
-1136.5747 1320.5981 5507.4512 7954779
-1107.9037 1325.3309 5527.189 8415586
-1071.3073 1320.5825 5507.3857 9468533
-1068.5822 1358.5999 5665.9341 9271412
-1018.8222 1337.3435 5577.2866 9863550
-1002.567 1360.1158 5672.2563 10192513
-939.29596 1318.4724 5498.5859 9205101
-915.70331 1331.5336 5553.0562 10324093
-901.3974 1359.5752 5670.002 10784386
-892.65204 1398.4993 5832.332 12034967
-859.59521 1400.9363 5842.4951 12363933
-821.66882 1395.3083 5819.0239 11442832
-786.80841 1394.6221 5816.1621 9534837
-747.53394 1385.6906 5778.9141 8744809
-717.95685 1394.7404 5816.6558 8809575
-684.39917 1396.5801 5824.3276 8150874
-668.6521 1436.8889 5992.4326 7164237
-633.7254 1438.191 5997.8633 8676964
-583.72839 1403.4156 5852.835 8480099
-549.68756 1405.033 5859.5796 7427921
-509.00308 1388.7417 5791.6387 8152152
-477.31418 1396.4128 5823.6304 9993841
-429.51617 1354.4792 5648.7495 9072230
-395.16306 1351.4402 5636.0752 720896
-350.67657 1309.9857 5463.1929 2363664
-310.75928 1278.9058 5333.5762 851968
-280.41473 1284.6449 5357.5107 1048576
-247.35408 1277.8179 5329.0391 1114112
-213.00842 1261.3835 5260.5015 5913642
-179.94981 1248.2441 5205.7046 6637099
-152.42393 1275.9858 5321.3989 10979690
-121.74711 1284.9395 5358.7393 11638899
-89.566971 1278.7467 5332.9131 11572852
-59.192768 1305.6388 5445.064 10257260
-27.265343 1321.6526 5511.8486 9796200
5.4664755 1340.8783 5592.0278 10454134
38.887257 1351.035 5634.3857 10980478
73.021866 1365.1542 5693.2686 5125929
105.99409 1355.4865 5652.9502 9796975
