# .PCD v0.7 - Point Cloud Data file format
VERSION 0.7
FIELDS x y z rgb
SIZE 4 4 4 4
TYPE F F F U
COUNT 1 1 1 1
WIDTH 1294
HEIGHT 1
VIEWPOINT 0 0 0 1 0 0 0
POINTS 1294
DATA ascii
0 0 0 0
0 0 0 0
0 0 0 0
0 0 0 0
0 0 0 0
0 0 0 0
0 0 0 0
0 0 0 0
-2368.0852 1137.2274 2685.7195 8417638
-2359.2834 1140.6646 2693.8367 8483688
-2330.0256 1134.1909 2678.5483 7826268
-2302.1716 1128.3167 2664.6755 7958111
-2289.7729 1129.9883 2668.6233 7431255
-2262.3721 1124.2283 2655.0203 8220771
-2245.5227 1123.6677 2653.6963 8878701
-2221.0796 1119.2723 2643.3162 8418407
-2209.8618 1121.5266 2648.6396 8615786
-2186.3179 1117.5128 2639.1606 8746858
-2165.3164 1114.7499 2632.6357 8615016
-2143.8367 1111.6991 2625.4309 8285795
-2151.8618 1124.0153 2654.5173 8613990
-2127.8835 1119.673 2644.2625 10192509
-2100.9937 1113.723 2630.2104 10060663
-2079.4995 1110.5654 2622.7537 9402989
-2072.1101 1114.95 2633.1082 8744802
-2067.8635 1121.1049 2647.6438 9139559
-2072.2415 1132.0652 2673.5283 7757649
-2059.9333 1134.0088 2678.1184 8086872
-2039.0985 1131.2521 2671.6079 6574403
-2032.3408 1136.3231 2683.5837 5982265
-2029.4972 1143.6797 2700.9573 5785144
-2028.2292 1152.0482 2720.7207 6837575
-2019.6263 1156.3511 2730.8828 6969163
-2001.3215 1155.1238 2727.9841 6508869
-1979.8092 1152.0101 2720.6309 6114111
-1970.2556 1155.861 2729.7251 5850939
-1962.6151 1160.9071 2741.6423 5587767
-1949.0684 1162.5148 2745.439 5258802
-1927.6566 1159.4188 2738.1277 5455924
-1921.6003 1165.5847 2752.689 5258802
-1904.5973 1165.1592 2751.6841 5522486
-1889.0051 1165.5969 2752.718 5719866
-1886.0891 1173.9321 2772.4028 5719609
-1869.7037 1173.9567 2772.4607 5391414
-1847.6674 1170.4019 2764.0654 5325108
-1825.9784 1167.0056 2756.0449 5391416
-1808.0627 1165.9814 2753.626 5654588
-1798.2277 1170.1969 2763.5815 5785662
-1773.0669 1164.4253 2749.9509 5391676
-1752.4534 1161.5603 2743.1851 5391418
-1750.851 1171.3608 2766.3303 5325625
-1722.3773 1163.1991 2747.0552 5325882
-1720.0808 1172.7288 2769.561 5654591
-1686.8695 1161.162 2742.2441 6049606
-1665.2346 1157.4163 2733.3982 6313035
-1645.0143 1154.5897 2726.7231 6378315
-1631.9873 1156.806 2731.9573 6049605
-1620.9438 1160.4868 2740.6497 7233620
-1618.3719 1170.3687 2763.9871 6641482
-1600.9417 1169.5972 2762.1653 6180931
-1591.3138 1174.569 2773.9067 5720379
-1573.3196 1173.4048 2771.1572 6378310
-1558.1389 1174.3365 2773.3579 6115137
-1547.0104 1178.3748 2782.8948 6378565
-1549.649 1193.0996 2817.6692 6114624
-1521.4105 1184.1133 2796.447 5785659
-1514.1644 1191.4474 2813.7676 5653817
-1480.9923 1178.3175 2782.7593 6377796
-1432.4091 1152.4923 2721.7695 5127729
-1421.646 1156.855 2732.0728 6049089
-1390.127 1144.2338 2702.2659 4601644
-1366.7527 1138.1005 2687.7812 2957334
-1335.0328 1124.7913 2656.3499 2826519
-1319.1235 1124.6443 2656.0027 2037261
-1301.4022 1122.9302 2651.9546 4734263
-1278.3763 1116.541 2636.8657 3088666
-1259.4453 1113.6147 2629.9548 1379851
-1237.9327 1108.3037 2617.4121 9666931
-1226.6564 1112.1387 2626.469 10982792
-1214.8276 1115.5648 2634.5603 10588292
-1201.0338 1117.2522 2638.5452 5061428
-1196.1233 1127.3567 2662.4084 4995635
-1174.0779 1121.3656 2648.2595 5587516
-1160.7104 1123.6129 2653.5669 7429464
-1147.8125 1126.3824 2660.1077 9403766
-1141.719 1135.9998 2682.8201 10127745
-1135.2914 1145.5513 2705.3774 10061950
-1122.2935 1148.6517 2712.6997 8548966
-1115.4386 1158.2211 2735.2988 7035727
-1112.5901 1172.2937 2768.5334 7233617
-1095.4456 1171.499 2766.6565 7036495
-1074.5054 1166.5593 2754.991 6772811
-1073.7471 1183.7162 2795.5093 6312519
-1033.0266 1156.6653 2731.6248 6311749
-1046.4648 1190.3594 2811.198 5653820
-1009.0536 1166.3663 2754.5352 5851199
-992.61389 1166.2239 2754.1987 5653563
-984.25079 1175.7245 2776.6357 5982784
-963.58514 1170.6025 2764.5393 6245956
-950.48303 1174.6506 2774.0996 6377542
-936.33514 1177.5262 2780.8906 6443589
-917.39038 1174.3641 2773.4229 6246465
-904.75098 1179.3054 2785.0925 6180416
-888.09845 1179.1023 2784.6128 5785659
-872.66669 1180.543 2788.0151 5785147
-855.72845 1179.9619 2786.6428 5916476
-838.1524 1178.4612 2783.0986 6048320
-831.02814 1191.8905 2814.814 4732460
-799.64087 1170.3585 2763.9631 4403495
-790.62604 1181.355 2789.9329 5850942
-766.26379 1169.3995 2761.6982 4008738
-753.4231 1174.8889 2774.6624 4798253
-738.66754 1177.5707 2780.9956 5521977
-723.81055 1180.2092 2787.2271 5324599
-700.30963 1168.5477 2759.6868 4929838
-675.74597 1154.5131 2726.5417 4929582
-658.41583 1152.4519 2721.6743 4731949
-638.64563 1145.9093 2706.2229 4732206
-623.44305 1147.4364 2709.8293 6048322
-608.48535 1149.5067 2714.7188 5719356
-593.58002 1151.7911 2720.1138 5193784
-567.73779 1132.3887 2674.2922 6444109
-528.26874 1083.9125 2559.8088 5194817
-508.03104 1073.1964 2534.5015 6774107
-492.5137 1072.1028 2531.9187 5919313
-475.48395 1067.545 2521.1548 7958896
-460.61261 1067.6946 2521.5081 6247764
-439.16168 1052.0917 2484.6597 5261126
-423.92389 1050.8074 2481.6265 6379095
-409.29437 1050.9927 2482.0645 7431269
-393.70645 1048.6393 2476.5063 5852749
-379.45853 1049.8108 2479.2729 5786441
-367.90787 1058.8395 2500.5955 5851719
-351.02567 1052.6376 2485.949 6443599
-336.82657 1054.291 2489.8538 8351851
-323.7341 1059.7184 2502.6711 9536379
-306.60828 1051.8301 2484.042 10062209
-301.75867 1087.3835 2568.0063 3812388
-289.07449 1096.9817 2590.6736 6311492
-273.24539 1095.0527 2586.1179 8285280
-258.45212 1097.2921 2591.4067 8876647
-244.6908 1104.4723 2608.3638 2561036
-233.31375 1124.108 2654.7363 5389617
-220.11386 1137.165 2685.5723 5982266
-205.77602 1145.9198 2706.2476 8547936
-190.87569 1152.7567 2722.3943 8810850
-174.95914 1154.1522 2725.6897 9994868
-160.57425 1166.9625 2755.9431 10587005
-143.85069 1163.7532 2748.3638 9271147
-128.34125 1170.8002 2765.0061 4929067
-111.44054 1165.3604 2752.1594 6179134
-94.889359 1162.3376 2745.0208 8876645
-78.256798 1156.8616 2732.0884 8679268
-62.522068 1165.2629 2751.9294 8350560
-45.965168 1158.8632 2736.8152 5324084
-29.369232 1143.9673 2701.6365 4994861
-13.316126 1139.8584 2691.9329 6245186
2.6667991 1155.1514 2728.0493 6639943
18.953825 1162.8475 2746.2249 7823962
34.913376 1152.623 2722.0784 7561302
51.033916 1152.4951 2721.7761 7956060
67.294319 1154.8286 2727.2871 8021597
82.766678 1145.3534 2704.9102 4929584
99.442535 1152.905 2722.7444 8876909
115.52338 1152.4132 2721.5828 8416613
132.11238 1156.49 2731.2107 6968653
148.69008 1159.5891 2738.5298 6377285
164.89478 1159.4558 2738.2148 7363924
181.3777 1161.1274 2742.1626 6772301
195.60089 1149.2472 2714.106 6969679
214.22365 1163.0579 2746.7217 7890780
227.78404 1149.3744 2714.4062 7693400
245.85213 1158.7408 2736.5266 7956576
260.58542 1152.2035 2721.0876 7956576
276.62396 1151.863 2720.2834 7693404
293.31665 1154.1338 2725.6462 7627354
308.9783 1152.3225 2721.3684 5916993
329.82895 1169.0831 2760.9512 6443338
345.97491 1168.3721 2759.272 6048580
360.11121 1161.2448 2742.4399 6969428
373.65662 1152.9095 2722.7551 7890273
390.00351 1153.5504 2724.2686 6705998
402.77142 1143.9752 2701.6553 7034962
419.28497 1145.3639 2704.9348 6508104
431.45404 1135.2192 2680.9768 6639433
446.27438 1132.5232 2674.6099 5850176
471.09674 1154.5242 2726.5681 4403244
481.42825 1140.7308 2693.9932 5784899
506.68036 1162.0421 2744.3228 5193790
510.77948 1135.0234 2680.5144 4272687
541.09882 1166.1423 2754.0059 4601652
549.87775 1150.3756 2716.7708 3351584
564.64142 1147.67 2710.3811 2760218
579.92053 1146.1327 2706.7507 2891549
536.72723 1032.2251 2437.7419 1707790
612.7179 1147.4934 2709.9641 3678751
623.2403 1137.3977 2686.1216 3546909
638.35901 1135.9839 2682.7827 3415067
656.39215 1139.6991 2691.5566 4862771
669.78906 1135.379 2681.3542 4468270
685.56976 1135.2065 2680.9468 4863030
702.01508 1136.1173 2683.0977 4731700
713.49597 1129.1313 2666.5994 4929335
732.19257 1133.6199 2677.1997 2758423
746.91809 1131.9 2673.1382 2890265
758.08771 1124.975 2656.7834 1970193
775.82068 1127.8732 2663.6282 984327
787.15576 1121.5402 2648.6719 327682
794.328 1109.6394 2620.5667 393219
805.16101 1103.2108 2605.3845 524291
811.2265 1090.6145 2575.6367 655364
824.46234 1087.9453 2569.333 524292
843.83679 1093.3263 2582.041 524292
832.47339 1059.399 2501.917 524292
838.98004 1049.0022 2477.3635 524292
846.01746 1039.6151 2455.1943 524292
854.33618 1032.0931 2437.4304 524292
870.19257 1033.7759 2441.4045 458753
883.3645 1032.2667 2437.8403 655360
878.55054 1010.1266 2385.5532 2495250
881.90106 997.92603 2356.74 4007452
895.06396 997.03607 2354.6382 3875862
906.11847 993.86078 2347.1394 8216661
931.29364 1006.0355 2375.8916 9202271
942.64014 1003.1315 2369.0334 983040
948.61615 994.68158 2349.0779 3087133
962.9928 995.1571 2350.2007 2100495
979.40448 997.69208 2356.1875 589824
992.7077 997.03387 2354.6331 9269875
1003.2565 993.66583 2346.679 1114113
1018.864 995.33167 2350.613 6375757
1039.1208 1001.4333 2365.0229 4468788
1047.2794 995.86829 2351.8804 1771017
1057.2041 992.10663 2342.9968 917504
1070.5331 991.59589 2341.7905 917504
1089.3424 996.1095 2352.45 3481891
1090.0652 984.17938 2324.2754 5914947
1217.3916 1085.4268 2563.385 5191480
1233.3481 1086.1051 2564.9873 5322555
1263.5037 1099.1188 2595.7207 4730675
1289.2706 1108.0479 2616.8079 5190969
1307.3293 1110.2185 2621.9343 5454141
1313.9288 1102.7211 2604.228 5388861
1327.3636 1101.0677 2600.3232 5059896
1336.0601 1095.5667 2587.332 5059383
1355.8221 1099.1615 2595.8215 4796210
1366.4089 1095.3207 2586.751 4730418
1382.9805 1096.3092 2589.0854 3217692
1393.7169 1092.7012 2580.5647 3677730
1408.4939 1092.3051 2579.6292 2888726
1421.6244 1090.6542 2575.7305 5191225
1441.8513 1094.4249 2584.6355 5059639
1449.0093 1088.3008 2570.1724 4138281
1449.2039 1077.1283 2543.7871 4797238
1474.1406 1084.3865 2560.9282 3942701
1500.3624 1092.4323 2579.9294 3547430
1520.5426 1095.9612 2588.2634 4007983
1534.5721 1095.0308 2586.0662 4600120
1554.7094 1098.4338 2594.103 3810604
1570.8918 1099.0038 2595.449 5521223
1587.7036 1099.9983 2597.7979 5520966
1593.9683 1093.7368 2583.0105 5981515
1601.2249 1088.2686 2570.0964 6442069
1622.0497 1092.0381 2578.9985 5454920
1641.8999 1095.0872 2586.1995 3942199
1653.8414 1092.8539 2580.9253 3087914
1666.2177 1090.9462 2576.4199 4994373
1686.6975 1094.3307 2584.4128 5324106
1692.9941 1088.535 2570.7256 3810610
1712.1062 1091.009 2576.5684 6903911
1719.7262 1086.1809 2565.1663 6970738
1713.535 1072.7908 2533.5435 9734044
0 0 0 0
1561.318 960.66302 2268.7383 5983590
1576.7749 961.89313 2271.6433 7562357
1586.55 959.66553 2266.3826 5390933
1608.3799 964.70581 2278.2859 5128278
1613.1057 959.48859 2265.9648 2759474
1603.6486 945.99103 2234.0884 2957109
1640.0988 959.57343 2266.165 4667980
1641.3445 952.50531 2249.4729 6707821
1647.3459 948.28876 2239.5149 6773096
1666.7106 951.77057 2247.7375 7036008
1722.7924 975.99823 2304.9546 8548990
1953.2084 1097.8323 2592.6824 7496300
1988.5637 1108.9835 2619.0176 7628140
1993.7391 1103.2615 2605.5044 6245971
1993.2802 1094.5337 2584.8923 4074287
2011.8563 1096.3115 2589.0911 5982028
2013.3401 1088.8191 2571.3965 5916234
2010.9579 1079.3639 2549.0669 4534838
2026.3193 1079.5026 2549.3943 4336946
2049.7078 1083.8838 2559.7412 2694175
2060.937 1081.8181 2554.8628 1773586
2072.1641 1079.7814 2550.0527 4994105
2086.4077 1079.3347 2548.9978 5783365
2116.7463 1087.1608 2567.4802 5257278
2119.811 1080.9674 2552.8535 3612967
2094.5149 1060.5018 2504.5215 4139314
2102.751 1057.183 2496.6836 2101524
2123.1335 1059.9746 2503.2764 3744296
2129.5674 1055.8119 2493.4456 4665142
2147.1782 1057.2098 2496.7468 4335920
2146.2947 1049.5447 2478.6448 2954526
2159.6189 1048.8844 2477.0852 5257794
2178.5991 1050.9613 2481.99 4665400
2195.259 1051.8986 2484.2036 5520451
2200.363 1047.323 2473.3977 5256768
2212.5251 1046.1451 2470.6162 4862779
2237.5 1051.0015 2482.085 4994880
2249.0447 1049.5269 2478.6025 5784396
2282.5356 1058.2463 2499.1948 4600121
2296.4851 1057.8519 2498.2634 5915470
2292.3843 1049.2012 2477.8333 5323333
2298.1765 1045.1595 2468.2883 5783886
2326.5466 1051.3719 2482.96 5257286
2350.2732 1055.4211 2492.5227 5586507
2377.9963 1061.2034 2506.178 5652557
2387.7395 1058.9396 2500.832 5915729
0 0 0 0
0 0 0 0
0 0 0 0
0 0 0 0
0 0 0 0
0 0 0 0
0 0 0 0
0 0 0 0
0 0 0 0
-2345.4973 1142.139 2660.1018 8352618
-2330.2517 1142.3907 2660.688 7563101
-2306.4053 1138.4008 2651.395 7234136
-2288.6179 1137.3671 2648.9875 7497306
-2262.717 1132.259 2637.0908 7826016
-2244.4404 1130.9219 2633.9763 8549483
-2239.9006 1136.536 2647.0522 7232853
-2205.1814 1126.8082 2624.3955 3416605
-2157.0662 1110.0486 2585.3613 1838089
-2147.8284 1113.1991 2592.699 2429972
-2138.2397 1116.2117 2599.7156 2100241
-2108.3394 1108.5878 2581.9592 1639689
-2081.4893 1102.4684 2567.7065 1114882
-2103.0254 1122.0751 2613.3718 4664616
-2107.0164 1132.5422 2637.7502 10388604
-2084.5291 1128.827 2629.0974 9994353
-2066.8047 1127.6544 2626.3665 8547165
-2082.3943 1144.7782 2666.2485 7363404
-2067.4084 1145.2267 2667.2932 7429198
-2049.2961 1143.9369 2664.2891 4469028
-2029.385 1141.6151 2658.8813 4074016
-1999.5013 1133.6031 2640.2212 6114111
-2011.2478 1149.2528 2676.6702 6377283
-2001.8149 1152.9529 2685.2878 6574405
-1996.6016 1159.1621 2699.7493 6574662
-1981.7272 1159.8174 2701.2754 6377026
-1973.5231 1164.4188 2711.9924 6377283
-1971.0938 1172.531 2730.8862 5587767
-1941.3032 1164.3666 2711.8708 5982525
-1921.6656 1162.2064 2706.8398 6048059
-1906.1385 1162.5167 2707.5625 5982522
-1885.323 1159.5796 2700.7217 5982523
-1878.2561 1165.1208 2713.6277 5719865
-1863.9597 1166.2343 2716.2209 5390388
-1827.8215 1153.5824 2686.7539 4732459
-1837.554 1169.9125 2724.7876 4798254
-1827.7056 1173.9552 2734.2034 5521976
-1796.9183 1164.5006 2712.1831 4930096
-1770.4681 1157.7114 2696.3706 4798510
-1771.5549 1168.969 2722.5901 5391675
-1743.1973 1160.8258 2703.6243 5918020
-1718.1948 1154.7866 2689.5588 6378057
-1699.6318 1153.0031 2685.4045 6312523
-1690.1926 1157.4333 2695.7231 6378058
-1675.3243 1158.1951 2697.4973 7101781
-1651.5181 1152.7329 2684.7754 6904658
-1647.608 1161.1868 2704.4648 6773072
-1632.8711 1162.1013 2706.595 6707279
-1622.5598 1166.2148 2716.1755 6180935
-1606.1245 1165.965 2715.5938 6115142
-1592.4395 1167.7269 2719.6973 6246729
-1586.7222 1175.4272 2737.6318 6443338
-1571.4254 1176.1171 2739.2385 6970193
-1550.6509 1172.6786 2731.23 6641227
-1541.7981 1178.2786 2744.2727 6641227
-1527.8931 1180.0957 2748.5049 5719612
-1513.1066 1181.2639 2751.2256 5588024
-1500.1461 1183.8984 2757.3616 5982783
-1478.715 1179.8326 2747.8921 4008994
-1463.1254 1180.3889 2749.1877 4732460
-1422.1221 1160.2241 2702.2229 3614750
-1392.0654 1148.6327 2675.2258 5983807
-1374.0586 1146.8313 2671.0305 3155736
-1348.1244 1138.2947 2651.1479 3747362
-1327.8813 1134.4185 2642.1204 3682341
-1313.0747 1135.1499 2643.8237 3221535
-1297.2957 1135.0481 2643.5864 1971213
-1275.9647 1130.0267 2631.8916 2891288
-1264.1987 1133.457 2639.8809 2233616
-1236.9641 1122.9307 2615.3643 9666679
-1222.0559 1123.4691 2616.6187 9732215
-1214.5911 1130.9523 2634.0474 7956063
-1179.4384 1112.5135 2591.1023 5916481
-1186.5536 1133.9836 2641.1074 5982530
-1171.2799 1134.3447 2641.9485 8021856
-1156.5732 1135.2722 2644.1086 8679785
-1142.4994 1136.8547 2647.7944 8942443
-1129.8649 1139.9337 2654.9653 6245188
-1125.6201 1151.6833 2682.3311 4732204
-1118.204 1160.4784 2702.8149 7363924
-1089.3436 1146.9507 2671.3083 7232851
-1089.2042 1163.7096 2710.3406 6838092
-1077.1158 1168.0128 2720.363 6969679
-1063.1622 1170.3934 2725.9077 6377798
-1048.4845 1172.0378 2729.7375 6377542
-1031.769 1171.4203 2728.2993 4864303
-1012.7075 1168.0771 2720.5132 5719355
-998.69946 1170.549 2726.27 5916991
-987.99976 1177.0435 2741.396 5522233
-971.34375 1176.5403 2740.2241 5720638
-955.94147 1177.5645 2742.6094 5917761
-941.13434 1179.3699 2746.8145 5720126
-924.47504 1178.877 2745.6663 5719868
-903.34869 1172.568 2730.9724 6180164
-891.86377 1178.772 2745.4219 6114629
-872.97388 1175.2377 2737.1902 6246471
-853.16248 1170.3053 2725.7026 6443850
-840.95587 1175.8157 2738.5366 6509643
-822.72986 1172.9611 2731.8879 5983042
-811.22467 1179.766 2747.7368 5653821
-793.42188 1177.5033 2742.467 4534827
-778.51263 1179.5302 2747.1877 4995377
-756.26996 1170.2954 2725.6794 4797998
-743.06281 1174.9447 2736.5081 4863792
-723.48535 1169.5042 2723.8364 4797999
-703.65137 1163.391 2709.5986 4534827
-689.44019 1166.506 2716.8538 4205862
-659.66223 1142.802 2661.646 3811105
-645.30072 1145.2987 2667.4609 3876898
-630.98608 1148.0059 2673.7661 4403242
-612.76874 1143.5692 2663.4329 6113602
-597.54529 1144.6329 2665.9104 4995634
-577.15405 1135.5865 2644.8408 6114887
-557.48291 1127.4916 2625.9871 2497048
-528.60773 1099.7827 2561.4517 524288
-507.70148 1087.5054 2532.8572 131072
-489.25476 1079.9093 2515.1653 984840
-470.75388 1071.7124 2496.0745 721668
-455.71878 1071.13 2494.718 1116426
-434.87027 1056.3866 2460.3799 1576463
-419.0932 1053.3673 2453.3479 458752
-386.60867 1006.6293 2344.4927 4865855
-386.70575 1044.4033 2432.4702 8812407
-373.13678 1046.764 2437.9685 7562852
-358.45096 1046.0557 2436.3186 7430750
-346.81375 1054.5579 2456.1206 8220778
-334.37119 1061.2485 2471.7034 8549484
-320.69101 1064.4441 2479.146 11180947
-306.61273 1066.5616 2484.0779 10851981
-293.08875 1070.918 2494.2244 9469814
-283.22177 1089.8088 2538.2219 8417126
-270.07593 1097.4937 2556.1204 8548970
-255.09526 1098.1927 2557.7485 8155238
-240.13478 1099.0725 2559.7974 8351846
-227.70483 1112.4333 2590.9158 6048317
-218.41472 1144.174 2664.8413 5982266
-203.5192 1149.2087 2676.5674 6048059
-187.8192 1150.1675 2678.8005 7297869
-172.39874 1153.1733 2685.8013 6507841
-157.36899 1159.6696 2700.9312 4600101
-141.82487 1163.4169 2709.6589 5389615
-123.591 1143.24 2662.666 4797480
-107.42669 1139.1039 2653.0327 4599588
-92.324684 1146.7446 2670.8284 5126700
-77.998985 1169.1826 2723.0876 6178879
-62.100082 1173.5913 2733.3557 7494740
-44.966618 1149.5492 2677.3604 6573638
-29.101147 1149.384 2676.9758 6113343
-13.315666 1155.7661 2691.8398 6310980
2.6246967 1152.8207 2684.98 6574153
18.562138 1154.75 2689.4734 7561049
34.775501 1164.1335 2711.3284 7758427
50.634789 1159.4799 2700.4895 8021856
66.431938 1155.9794 2692.3367 6771533
82.401085 1156.2479 2692.9622 5258550
98.942825 1163.1606 2709.0623 7692379
114.42025 1157.3782 2695.5945 6442568
130.98294 1162.6451 2707.8616 7429462
146.52226 1158.6702 2698.6038 7824477
162.34415 1157.4919 2695.8596 4995375
177.45619 1151.917 2682.8752 6574407
192.82489 1148.7876 2675.5867 5850684
209.00024 1150.5745 2679.7483 7232595
224.35718 1147.9216 2673.5696 7167058
240.77768 1150.7013 2680.0439 7364439
257.22897 1153.2754 2686.0391 7232853
271.0647 1144.5059 2665.6143 7824989
287.50333 1147.0869 2671.6257 7956576
304.88211 1152.954 2685.2905 7693405
320.98087 1153.6388 2686.8853 7496026
336.16028 1151.1105 2680.9968 6904145
350.5928 1146.3684 2669.9521 7759201
366.52328 1146.7222 2670.7761 7167321
382.47278 1147.1036 2671.6646 7298652
397.01266 1143.3953 2663.0276 7430494
408.99905 1132.8972 2638.5771 7562339
419.90564 1120.2913 2609.2173 7629417
415.36472 1068.8304 2489.3621 8879996
435.14655 1081.3406 2518.499 10261905
445.60721 1070.6261 2493.5444 9867400
461.71378 1073.729 2500.7712 9209470
474.49762 1069.152 2490.1111 10262415
486.56458 1063.2844 2476.4453 11315359
503.65109 1068.4086 2488.3796 11710373
518.27795 1068.1718 2487.8281 10591375
531.57672 1065.2866 2481.1084 11116695
546.33862 1065.41 2481.3958 10260360
561.26569 1065.8405 2482.3984 4140072
602.09314 1114.1779 2594.9788 5915973
619.66406 1118.1434 2604.2148 6244939
641.65997 1129.707 2631.147 6705490
659.02155 1132.7563 2638.249 6508368
675.04852 1133.4237 2639.8032 4336686
689.71552 1131.8289 2636.0889 5126201
709.0824 1137.8466 2650.1042 3481890
720.03571 1130.3949 2632.749 852740
737.30359 1132.9624 2638.729 524293
751.33051 1130.5465 2633.1023 458760
764.59857 1127.1105 2625.0994 327690
781.78412 1129.4709 2630.5972 327691
783.13977 1109.316 2583.6553 393227
794.50732 1103.844 2570.9106 393224
816.62634 1113.2344 2592.7812 458759
830.22559 1110.8782 2587.2935 458756
816.46198 1072.6581 2498.2771 458757
825.61499 1065.3708 2481.3047 458757
837.54163 1061.8551 2473.1162 458757
837.89545 1044.0399 2431.6238 458757
857.96069 1050.973 2447.7712 458756
877.12067 1056.585 2460.842 458754
889.216 1053.6426 2453.9888 589824
862.52075 1005.5707 2342.0271 2364692
881.17999 1011.0605 2354.813 5190176
888.61542 1003.7018 2337.6741 3806984
912.46356 1014.8228 2363.5754 4926490
924.67786 1012.8641 2359.0137 4467490
938.29572 1012.4783 2358.1152 1310720
950.74011 1010.8563 2354.3374 917504
964.3327 1010.4842 2353.4707 786432
975.45642 1007.5727 2346.6897 851968
988.50159 1006.6997 2344.6565 4402992
1000.2292 1004.5277 2339.5979 2626838
1015.0908 1005.5196 2341.908 1706508
1030.4755 1006.9958 2345.3462 7495005
1047.0692 1009.5986 2351.4082 3154723
1060.5547 1009.1755 2350.4226 1049090
1071.6978 1006.5632 2344.3384 1048576
1097.9353 1018.0133 2371.0063 3021597
1095.1858 1002.6367 2335.1936 5915204
1183.6825 1070.1372 2492.4058 5585726
1211.1526 1081.4816 2518.8274 5322811
1230.7543 1085.6093 2528.4409 5322812
1245.9375 1085.7872 2528.8555 4994104
1282.2126 1104.1232 2571.561 4599346
1295.7119 1102.6466 2568.1218 5849412
1309.6625 1101.5837 2565.6465 5257275
1326.2302 1102.7214 2568.2961 5323325
1341.968 1103.1511 2569.2969 5257532
1346.2565 1094.2648 2548.6001 5454655
1369.8745 1101.1129 2564.5498 4468016
1382.5818 1099.1368 2559.9473 3809574
1388.9281 1092.2015 2543.7947 5652291
1408.8241 1095.9558 2552.5386 4270638
1418.8834 1092.0593 2543.4636 2559762
1422.6254 1083.4337 2523.374 4993847
1453.0292 1095.0813 2550.5017 4007465
1464.8359 1092.6176 2544.7637 4994616
1490.0764 1100.1222 2562.2422 4731704
1505.1614 1100.0532 2562.0818 1968911
1513.9641 1095.4402 2551.3376 4008496
1559.6924 1117.3717 2602.4175 4798013
1563.98 1109.4766 2584.0291 5126981
1583.7908 1112.6395 2591.396 4336950
1581.915 1100.6528 2563.4783 6113359
1591.4457 1096.755 2554.3999 5981773
1610.4534 1099.4003 2560.5608 6705496
1629.5381 1102.0482 2566.728 6113360
1642.606 1100.6156 2563.3916 5718860
1650.5795 1095.8271 2552.239 5389641
1662.2957 1093.5879 2547.0237 4534590
1659.7186 1082.0703 2520.1985 4468539
1662.6353 1074.3076 2502.1189 2955303
0 0 0 0
1544.9382 980.77002 2284.2649 2561568
1549.511 975.13153 2271.1326 787728
1565.3553 976.6225 2274.605 1970465
1550.9377 959.36865 2234.4199 7563124
1575.9432 966.58655 2251.231 6378080
1602.2346 974.46539 2269.5811 7232614
1589.1497 958.46411 2232.3132 4009788
1598.2522 955.99841 2226.5706 6772585
1604.7179 952.00879 2217.2786 4536138
1635.0046 962.10107 2240.7839 2299945
1634.9829 954.3399 2222.7078 6444390
1645.5198 952.81653 2219.1597 8615811
1647.722 946.52948 2204.5168 5983831
1656.1213 943.87311 2198.3301 7167591
1648.3821 932.1322 2170.9849 9667721
1848.9949 1037.4803 2416.3464 6903387
1917.4125 1067.6045 2486.5068 8942714
1944.6984 1074.5417 2502.6643 8285039
1956.882 1073.0925 2499.2891 8219244
1947.6234 1059.9954 2468.7849 8547951
1954.2836 1055.6925 2458.7632 9205882
1984.1501 1063.8965 2477.8706 8087658
1996.8412 1062.838 2475.4055 8021608
2003.8484 1058.7919 2465.9819 7627108
2022.7593 1061.0485 2471.2375 7428960
2058.7529 1072.1692 2497.1382 6310736
2051.1858 1060.6069 2470.2092 4863290
2078.8147 1067.2786 2485.7478 7494754
2090.2834 1065.618 2481.8804 8614262
2078.2671 1052.0917 2450.3767 7101281
2111.1982 1061.349 2471.9375 5785417
2113.4668 1055.1703 2457.5471 6903385
2128.1707 1055.2421 2457.7141 8416367
2139.1313 1053.4696 2453.5859 7561316
2144.333 1048.9039 2442.9521 6837593
2156.2178 1047.6465 2440.0237 5061183
2162.7327 1043.8141 2431.0979 4271154
2197.2739 1053.4697 2453.5862 6376275
2195.6721 1045.7834 2435.6846 5783881
2256.4207 1067.7008 2486.7312 4863295
2282.9917 1073.2665 2499.6941 5324100
2279.7939 1064.856 2480.1055 4270646
2296.0945 1065.6023 2481.8435 4401719
2312.0242 1066.168 2483.1611 3677739
2305.8833 1056.6132 2460.9075 4993599
2335.6638 1063.535 2477.0291 5125700
2336.5374 1057.29 2462.4841 4730943
2341.0706 1052.7684 2451.9529 5060165
0 0 0 0
0 0 0 0
0 0 0 0
0 0 0 0
0 0 0 0
0 0 0 0
0 0 0 0
0 0 0 0
0 0 0 0
-2328.4575 1149.4861 2640.7764 7234907
-2311.1624 1148.6656 2638.8916 6511184
-2287.1113 1144.4535 2629.2148 6575953
-2271.4773 1144.4243 2629.1479 3944750
-2215.1616 1123.757 2581.6675 854281
-2184.8477 1116.0845 2564.041 393216
-2155.3691 1108.7343 2547.1553 327681
-2144.7712 1111.0613 2552.5012 590338
-2138.074 1115.4564 2562.5981 1050629
-2125.717 1116.9404 2566.0076 3351326
-2121.9434 1122.9884 2579.9021 3679518
-2101.1436 1120.0481 2573.147 5653049
-2087.3362 1120.8196 2574.9192 6047807
-2085.8081 1128.2441 2591.9763 5520948
-2082.8425 1134.9958 2607.4873 7758166
-2077.0234 1140.2817 2619.6309 9600881
-2065.7642 1142.6381 2625.0442 7231819
-2078.625 1158.473 2661.4226 7100747
-2046.1346 1149.0813 2639.8464 6442818
-2019.7942 1143.0253 2625.9336 5389875
-2010.1703 1146.4087 2633.7065 4929837
-2002.1967 1150.7936 2643.7803 5389618
-1976.574 1145.0236 2630.5247 5258802
-1975.1796 1153.3088 2649.5586 6048318
-1978.1467 1164.2938 2674.7952 6048061
-1957.8085 1161.6285 2668.6719 5521974
-1947.3779 1164.8463 2676.0642 4666665
-1927.9487 1162.6898 2671.1101 6114109
-1920.6536 1167.8761 2683.0249 6048060
-1912.3234 1172.5144 2693.6804 5916730
-1877.6609 1160.9493 2667.1116 5324338
-1872.1069 1167.3385 2681.7898 3547671
-1813.1272 1140.2386 2619.532 3679258
-1800.6621 1142.1757 2623.9817 3613720
-1787.5394 1143.7256 2627.5425 5982271
-1795.0542 1158.6233 2661.7678 5851198
-1770.1986 1152.7062 2648.1743 5653819
-1760.2963 1156.5077 2656.9075 4995888
-1754.2743 1162.9501 2671.708 4272166
-1737.9836 1162.6404 2670.9966 5521979
-1714.7334 1157.6266 2659.478 6048579
-1697.2502 1156.4495 2656.7737 6246215
-1676.3818 1152.9219 2648.6697 6246728
-1665.1284 1156.0029 2655.7478 6575693
-1654.1876 1159.3617 2663.4644 6838865
-1644.0552 1163.3573 2672.6436 6773072
-1630.9623 1165.3152 2677.1416 6838865
-1612.1737 1163.2024 2672.2876 6575691
-1599.4779 1165.4869 2677.5361 6575692
-1589.1034 1169.5258 2686.8147 6509899
-1576.2152 1171.7776 2691.988 6378056
-1571.4153 1180.15 2711.2224 6640714
-1562.0415 1185.2247 2722.8806 6179906
-1552.5851 1190.3419 2734.6367 6377285
-1522.5059 1179.5892 2709.9341 4534824
-1515.2556 1186.483 2725.7715 4206116
-1504.1637 1190.4847 2734.9648 5456183
-1484.1093 1187.4028 2727.8848 5127477
-1458.2933 1179.5929 2709.9424 1706758
-1419.7562 1161.2045 2667.6978 2232841
-1404.1516 1161.3694 2668.0767 3548959
-1382.088 1156.135 2656.0515 4733488
-1369.2393 1158.5773 2661.6624 2891795
-1346.0795 1152.2501 2647.1265 4668721
-1324.8014 1147.4036 2635.9922 4405808
-1299.3428 1138.7773 2616.1748 5261118
-1276.2346 1132.0278 2600.6687 2892312
-1268.1296 1138.5839 2615.7302 2496528
-1240.2693 1127.3455 2589.9116 9732985
-1230.8346 1132.7834 2602.4045 8613732
-1215.2627 1132.6392 2602.073 6047548
-1203.4972 1136.0845 2609.9883 4863535
-1201.7758 1149.2245 2640.1753 5126964
-1176.004 1139.4089 2617.6257 4731948
-1168.0078 1146.7836 2634.5679 11245200
-1153.684 1148.0613 2637.5032 5258292
-1143.0995 1153.1462 2649.1851 5982014
-1122.1571 1147.7784 2636.8535 6311237
-1113.1783 1154.6686 2652.6824 5982273
-1111.6116 1169.5543 2686.8804 5653308
-1091.6234 1165.2095 2676.8987 5785407
-1079.0847 1168.8055 2685.1599 6114371
-1066.5399 1172.5022 2693.6526 6311494
-1056.3063 1178.8906 2708.3291 6706508
-1034.0336 1171.8326 2692.1145 6377543
-1016.0859 1169.5319 2686.8286 6245958
-1007.226 1177.7845 2705.7878 4272167
-994.66016 1181.9004 2715.2437 5193268
-973.62689 1175.9248 2701.5154 5785405
-959.30304 1177.9884 2706.2563 5588026
-945.48096 1180.7488 2712.5981 5653819
-928.72394 1179.876 2710.593 5982784
-911.73877 1178.6777 2707.8401 6049091
-893.66925 1176.0094 2701.71 5851455
-878.25397 1176.8003 2703.5269 6245956
-860.41425 1174.3118 2697.8098 6508871
-844.64795 1174.6123 2698.5002 5259060
-834.76141 1183.2589 2718.3647 6640713
-811.87659 1173.4584 2695.8494 6114113
-795.76917 1173.257 2695.3867 5785148
-776.97717 1169.0083 2685.626 5587514
-767.20782 1178.4408 2707.2957 5390136
-749.01074 1175.0546 2699.5164 4403241
-732.96613 1174.9711 2699.3245 5521722
-708.06104 1160.3635 2665.7656 3811104
-686.0517 1149.9431 2641.8264 4074276
-669.19812 1147.88 2637.0867 4074277
-654.83966 1150.1005 2642.1877 3942690
-638.43677 1148.7509 2639.0874 2561294
-626.26599 1155.1396 2653.7649 4995381
-610.22882 1154.5425 2652.3928 6180680
-586.16333 1138.3228 2615.1304 5259837
-566.70709 1130.4166 2596.967 1313034
-537.96313 1103.0256 2534.0405 655360
-521.89069 1100.7894 2528.9031 589825
-503.13626 1092.597 2510.082 589826
-486.12906 1087.8152 2499.0964 589827
-469.38171 1083.3328 2488.7988 589827
-452.40723 1078.0184 2476.5898 589827
-434.21588 1069.3508 2456.6775 524291
-419.27249 1068.3584 2454.3975 655362
-404.14755 1066.8156 2450.8528 655360
-378.6326 1036.7094 2381.6882 524545
-366.08466 1041.1509 2391.8921 4733753
-356.92249 1055.9669 2425.9299 7627871
-342.46786 1055.7114 2425.343 8746608
-329.95563 1061.6836 2439.0632 9996416
-318.01428 1070.1239 2458.4534 7956570
-305.9321 1078.8776 2478.5637 8022363
-292.10706 1082.0577 2485.8699 8153693
-279.05945 1088.6085 2500.9192 7035212
-264.5047 1089.6849 2503.3921 6837836
-250.78354 1094.5272 2514.5164 3087636
-235.82799 1094.2535 2513.8877 5719355
-227.13213 1124.9462 2584.3994 7430229
-212.65334 1129.3635 2594.5479 5587769
-199.20169 1140.3492 2619.7859 4534825
-184.90089 1147.9197 2637.1777 2758418
-167.19815 1133.818 2604.7812 2297610
-151.5407 1132.1285 2600.8999 4337192
-137.42743 1142.8988 2625.6431 4731947
-121.19189 1136.5157 2610.979 4666153
-106.62598 1146.2135 2633.2581 4534567
-91.431702 1151.3226 2644.9956 5324083
-76.12336 1156.8118 2657.606 5784379
-60.13509 1152.1367 2646.866 5258549
-44.256516 1147.0066 2635.0801 4205606
-28.849512 1155.1672 2653.8281 4995378
-13.051176 1148.4393 2638.3716 5587002
2.5944762 1155.2706 2654.0654 6244932
18.230993 1149.7982 2641.4937 5388853
34.141144 1158.6677 2661.8699 2954513
49.899429 1158.4069 2661.2708 6770506
65.317375 1152.2673 2647.166 5915709
80.96891 1151.8281 2646.157 6442310
96.935501 1155.2864 2654.1016 5718587
113.43452 1163.239 2672.3718 7034703
129.57968 1166.0596 2678.8516 5126963
146.19467 1172.031 2692.5701 7758682
159.97231 1156.3186 2656.4731 6837579
175.21417 1153.0566 2648.9792 6377284
190.80414 1152.4333 2647.5474 6114111
206.2634 1151.1753 2644.6572 7166544
223.14221 1157.4583 2659.0913 6837836
236.96468 1148.1044 2637.6023 6640714
252.53047 1147.8318 2636.9761 5654070
267.74109 1146.0708 2632.9304 5193788
279.90582 1132.1835 2601.0261 6575953
294.92545 1130.6902 2597.5957 7958124
302.95383 1103.8715 2535.9834 8287349
314.86694 1093.0728 2511.175 7893363
328.64807 1089.4408 2502.8311 8551549
343.05527 1088.1082 2499.7698 8420732
357.4834 1086.9496 2497.1079 9144710
363.16998 1060.3599 2436.022 9605003
372.25839 1045.3556 2401.552 9341575
391.87512 1059.9326 2435.0405 9144453
404.84058 1056.1232 2426.2888 9867662
420.66486 1059.7771 2434.6833 8946557
437.17059 1064.8488 2446.3345 10328465
454.41565 1071.3379 2461.2424 10131083
465.63507 1063.6591 2443.6013 10196874
477.5412 1057.9646 2430.5193 10393993
491.94849 1057.9825 2430.5605 9274995
504.40067 1053.9144 2421.2146 10393217
519.55872 1055.5686 2425.0149 9536885
542.33105 1072.1873 2463.1938 7298132
559.02563 1076.2341 2472.491 6705485
581.52661 1090.9674 2506.3384 6639695
610.99176 1117.7068 2567.7683 6244937
630.00763 1124.4963 2583.3662 7166039
647.7182 1128.6891 2592.9985 5126455
661.20068 1125.4906 2585.6504 5586497
682.58978 1135.5909 2608.8545 3876904
706.1795 1148.824 2639.2551 2167578
710.70532 1131.1418 2598.6333 458758
736.82922 1147.856 2637.0315 262155
737.93781 1125.7152 2586.1665 65552
754.16559 1127.0703 2589.2795 65552
768.86731 1126.1364 2587.1338 65551
782.72607 1124.0282 2582.2905 131083
795.42261 1120.3639 2573.8723 196618
808.78046 1117.7513 2567.8706 262152
802.84125 1089.0587 2501.9534 393222
809.86707 1078.6747 2478.0977 393220
818.7428 1071.0804 2460.6511 458757
833.52985 1071.35 2461.27 458757
832.22223 1051.2789 2415.1599 458757
856.19196 1063.2776 2442.7249 458757
872.89392 1066.0017 2448.9834 458756
883.36774 1061.1553 2437.8494 524288
878.22699 1038.0093 2384.6748 1443335
885.37665 1029.8926 2366.0278 6506038
896.00183 1026.0088 2357.1055 5584674
912.43616 1028.7942 2363.5044 4202772
929.00543 1031.645 2370.054 1969159
939.50415 1027.7703 2361.1523 1048576
948.86499 1022.7827 2349.6938 917504
962.5506 1022.5336 2349.1216 851968
974.11346 1020.0687 2343.459 851968
986.52759 1018.5519 2339.9744 1705994
997.17212 1015.2755 2332.4473 4601143
1014.7207 1019.022 2341.0542 1969936
1033.3293 1023.7176 2351.8418 7033681
1045.0259 1021.5316 2346.8196 8744554
1056.5945 1019.2794 2341.6458 720896
1073.2528 1021.9322 2347.74 851968
1091.337 1025.8573 2356.7576 3415582
1097.0724 1018.2219 2339.2163 4008488
1113.7229 1020.7814 2345.0962 5585977
1194.2897 1081.1383 2483.7576 4466984
1194.625 1068.28 2454.2175 5783105
1230.87 1087.4568 2498.2732 5980484
1252.9532 1093.8146 2512.8794 5783620
1277.9525 1102.5389 2532.9224 721668
1285.7402 1096.3842 2518.7825 2166290
1300.8358 1096.5306 2519.1189 5322812
1326.0588 1105.1136 2538.8374 4598833
1343.9337 1107.4492 2544.2029 4993590
1349.7307 1099.8907 2526.8384 4862261
1362.0017 1097.7158 2521.8418 5586242
1383.5651 1102.9961 2533.9724 5520449
1392.4468 1098.1615 2522.8657 6309966
1413.5375 1102.9561 2533.8806 5323325
1423.2698 1098.8802 2524.5171 4928310
1446.9298 1105.5306 2539.7954 5126459
1448.5901 1095.4083 2516.5408 4270637
1473.2083 1102.6759 2533.2368 3481637
1494.9012 1107.6294 2544.6169 4994876
1500.6763 1100.8076 2528.9448 4336691
1525.5879 1108.0193 2545.5127 4205875
1534.4574 1103.5527 2535.2512 4271411
1541.9125 1098.1654 2522.8748 5192770
1557.8921 1098.8944 2524.5496 4468534
1567.9816 1095.4943 2516.7383 5258049
1587.9581 1099.0011 2524.7944 4928828
1622.0111 1112.0934 2554.8723 5323843
1617.7021 1098.885 2524.5278 5126208
1637.9626 1102.4553 2532.73 5718347
1647.5321 1098.8304 2524.4023 4468793
1648.0122 1089.2629 2502.4226 3416107
0 0 0 0
0 0 0 0
1526.1669 982.22156 2256.5105 1905437
1539.9321 982.47498 2257.0928 7825787
1520.1425 961.50024 2208.9065 6378342
1535.4592 962.89923 2212.1204 5720409
1555.5717 967.25629 2222.1301 3089200
1569.8517 967.94415 2223.7104 8418433
1576.6995 964.07617 2214.8242 7957368
1596.277 967.99133 2223.8188 1904409
1606.3816 966.14502 2219.5771 7168108
1615.1613 963.53827 2213.5886 8286845
1607.0342 950.96893 2184.7122 4601929
1638.0544 961.58099 2209.0918 9207693
1633.9675 951.57922 2186.1143 7628403
1641.8394 948.64441 2179.3721 9865620
1654.9763 948.77399 2179.6697 9009795
1668.5737 949.16333 2180.5642 9206662
1784.0065 1007.0305 2313.5056 3942448
1920.7446 1075.95 2471.8381 5587017
1883.7823 1047.2604 2405.9277 5586504
1939.8425 1070.3279 2458.9219 4731451
1953.155 1069.6407 2457.3433 5389894
1969.7643 1070.7557 2459.905 6639960
1978.4288 1067.5675 2452.5806 6442066
1983.1466 1062.3116 2440.5059 6573396
2015.1179 1071.625 2461.9021 7626597
2016.0834 1064.4343 2445.3826 7626853
2024.8774 1061.4501 2438.5266 7626598
2068.6167 1076.6968 2473.5537 6967899
2065.1296 1067.321 2452.0142 5258050
2053.3628 1053.8268 2421.0132 5521220
2077.3347 1058.7345 2432.2878 7297631
2078.9756 1052.2717 2417.4407 7495523
2093.4304 1052.3389 2417.5947 8351088
2100.7224 1048.8287 2409.5308 7758438
2115.2073 1048.933 2409.7703 8021608
2126.7749 1047.5989 2406.7056 7627107
2150.166 1052.0677 2416.9719 8021608
2169.3521 1054.4335 2422.407 6508884
2164.0842 1044.9603 2400.6438 6376785
2199.231 1054.9983 2423.7046 6969181
2201.8494 1049.4028 2410.8499 7298146
2208.498 1045.7881 2402.5454 5455942
2241.769 1054.7452 2423.1233 6180180
2265.2583 1059.0154 2432.9333 6048852
2255.1792 1047.6377 2406.7947 7496298
2295.8042 1059.8092 2434.7568 6114389
2295.8955 1053.2341 2419.6516 6508120
2314.9409 1055.3818 2424.5857 7166307
0 0 0 0
0 0 0 0
0 0 0 0
0 0 0 0
0 0 0 0
0 0 0 0
0 0 0 0
0 0 0 0
0 0 0 0
-2302.5415 1152.1626 2611.3843 6707537
-2291.0767 1154.1805 2615.958 5852228
-2263.7126 1148.1617 2602.3164 6904658
-2248.0413 1148.0316 2602.0215 6180936
-2200.1548 1131.3347 2564.1777 6313036
-2186.8604 1132.3165 2566.4031 5918022
-2146.0991 1118.9908 2536.2002 4930871
-2163.2334 1135.8771 2574.4731 4930357
-2126.373 1124.4502 2548.574 6508876
-2096.198 1116.4204 2530.3745 5455672
-2093.4954 1123.012 2545.3142 6179649
-2065.9236 1116.2618 2530.0151 6048318
-2067.0955 1125.0575 2549.9504 6311746
-2059.6094 1129.2356 2559.4202 6377283
-2055.6328 1135.4141 2573.4236 6508868
-2065.3962 1149.3307 2604.9658 6245696
-2056.4182 1152.9495 2613.1677 6443075
-2038.0873 1151.3397 2609.519 6245697
-2024.9048 1152.6357 2612.4565 6310977
-2023.6796 1160.8104 2630.9849 4139807
-1996.509 1154.1141 2615.8076 5060910
-1977.6276 1152.1423 2611.3384 5981755
-1946.2809 1142.8199 2590.209 6179648
-1936.795 1146.2876 2598.0686 6245440
-1928.2501 1150.3723 2607.3264 6377283
-1920.4674 1154.9811 2617.7725 5061423
-1923.8536 1166.437 2643.7373 5258803
-1884.9409 1152.2244 2611.5242 5785145
-1889.3701 1164.4897 2639.324 5455924
-1866.0745 1159.7294 2628.5344 3547672
-1834.5181 1149.7118 2605.8296 3152917
-1813.4858 1146.1758 2597.8152 2692623
-1794.6249 1143.9633 2592.8005 3745054
-1789.5454 1150.5734 2607.7822 4140069
-1772.947 1149.8281 2606.093 4337192
-1755.0531 1148.2219 2602.4526 3679261
-1736.953 1146.4514 2598.4397 4074018
-1740.2672 1158.9097 2626.6765 5061425
-1706.3563 1146.5796 2598.7302 4798253
-1706.1248 1156.8616 2622.0347 5455929
-1696.1434 1160.6609 2630.6458 6114372
-1669.4167 1152.9658 2613.2048 6509130
-1665.0818 1160.7358 2630.8157 7628381
-1641.5975 1155.1776 2618.2178 6509900
-1630.1987 1158.0989 2624.8389 6575436
-1612.7043 1156.7043 2621.6782 6575436
-1608.649 1165.0156 2640.5156 6904402
-1587.9758 1161.3369 2632.178 5917249
-1586.8651 1172.0337 2656.4224 3943201
-1560.6329 1164.2047 2638.6777 5588025
-1558.8883 1174.6694 2662.396 5127216
-1530.1975 1164.8356 2640.1077 5061424
-1510.6637 1161.8414 2633.3213 5587768
-1509.4595 1173.0289 2658.678 5916733
-1499.4458 1177.5342 2668.8892 5982784
-1479.2194 1174.0298 2660.9465 5522235
-1468.1958 1177.8328 2669.5659 5062713
-1450.8751 1176.6118 2666.7986 3549217
-1436.7699 1178.0002 2669.9456 2562579
-1409.6429 1168.6244 2648.6951 3812132
-1388.3412 1163.921 2638.0347 3352351
-1363.0073 1155.6915 2619.3828 3615266
-1351.7244 1159.3237 2627.615 4010026
-1319.5065 1144.8761 2594.8694 4733751
-1302.0627 1143.058 2590.7485 3944232
-1282.8365 1139.6129 2582.9402 3878438
-1265.4564 1137.7444 2578.7053 4141352
-1246.3766 1134.2834 2570.8611 7035473
-1229.8607 1133.0991 2568.1768 5390389
-1210.8457 1129.5537 2560.1411 4995120
-1193.8063 1127.7847 2556.1316 4929072
-1187.8887 1136.6119 2576.1387 4929072
-1179.4242 1143.2003 2591.0713 5455415
-1163.6744 1142.8079 2590.1816 5718842
-1160.2732 1154.6938 2617.1216 5850430
-1136.1895 1146.0403 2597.5081 5060657
-1135.7198 1161.2949 2632.0828 5850687
-1115.7605 1156.7681 2621.8225 5061171
-1099.4617 1155.962 2619.9958 5719103
-1085.9091 1158.0618 2624.7549 5785151
-1075.6526 1163.7887 2637.7349 6114116
-1059.8932 1163.6428 2637.4043 5127476
-1049.2671 1169.2126 2650.0283 6245700
-1034.9095 1170.7306 2653.4688 6114369
-1018.8965 1170.3938 2652.7053 5785405
-996.36517 1162.4415 2634.6814 5456184
-992.39429 1176.2347 2665.9441 5324854
-972.36816 1171.1372 2654.3904 5456441
-959.79657 1174.9979 2663.1406 5850941
-943.69574 1174.595 2662.2273 6114370
-930.12262 1177.3778 2668.5347 6574921
-916.0896 1179.6648 2673.7183 6311748
-895.12225 1172.9457 2658.4893 5851198
-875.80585 1168.188 2647.7061 5193268
-854.81177 1160.9781 2631.365 5522233
-831.05084 1149.673 2605.7415 5390392
-825.62866 1163.7897 2637.7371 3877410
-815.97412 1172.37 2657.1846 5916736
-799.64447 1171.5087 2655.2324 4600874
-786.39551 1175.2168 2663.6367 5258547
-768.82831 1172.4912 2657.4592 4929584
-751.89227 1170.6344 2653.2507 5192756
-740.90131 1178.1519 2670.2891 4534570
-721.95581 1173.0724 2658.7764 4600363
-706.1684 1173.0122 2658.6401 4271656
-681.44641 1157.7695 2624.0925 4139813
-659.15521 1146.0416 2597.511 4205862
-644.29474 1146.9811 2599.6404 4272169
-633.20258 1154.8392 2617.4509 3022875
-610.93457 1142.1979 2588.7991 1443848
-592.53735 1136.3284 2575.4961 393216
-572.72046 1127.3542 2555.156 458752
-558.8634 1129.9427 2561.0229 589825
-535.53339 1112.9883 2522.5955 524290
-518.47717 1108.4735 2512.3625 524291
-502.01971 1105.0096 2504.5117 524291
-484.93069 1099.9023 2492.936 458756
-468.09103 1095.0576 2481.9553 458756
-451.28604 1089.9823 2470.4521 458756
-434.39371 1084.3488 2457.6836 458756
-413.51346 1068.0243 2420.6843 524291
-402.22418 1076.1887 2439.189 524290
-386.60922 1072.9564 2431.863 524289
-371.42349 1070.7113 2426.7744 655360
-353.55795 1060.2493 2403.062 655873
-335.0737 1046.976 2372.978 9009781
-326.5567 1065.0477 2413.938 7561561
-317.09818 1081.5636 2451.3711 8022879
-304.80447 1089.5304 2469.428 9009259
-291.70749 1095.2844 2482.4695 7890521
-278.68845 1101.9575 2497.5942 7364436
-265.84946 1110.131 2516.1194 1446157
-248.58546 1099.7 2492.4773 4403241
-235.61795 1108.1586 2511.6489 4797997
-225.37241 1131.4225 2564.3765 4600616
-211.106 1136.4048 2575.6692 4403237
-196.66635 1141.1582 2586.4426 4995118
-182.30428 1147.203 2600.1433 4863789
-166.34227 1143.3663 2591.4475 5061425
-152.32977 1153.5121 2614.4429 4402983
-136.17278 1147.8774 2601.6719 4468777
-120.71495 1147.4503 2600.7039 4007968
-105.4017 1148.4734 2603.0227 3416087
-89.806099 1146.2437 2597.969 5389876
-74.702309 1150.6671 2607.9946 6245186
-59.463703 1154.7791 2617.3145 6048065
-43.829948 1151.4115 2609.6819 5784636
-28.161289 1142.9569 2590.5195 5389879
-12.861964 1147.1932 2600.1213 5389368
2.5202653 1137.4995 2578.1501 4336937
17.766329 1135.7427 2574.1685 4798003
33.090263 1138.2875 2579.9363 3218713
48.344868 1137.5928 2578.3618 2626318
64.25824 1149.0112 2604.2417 4928303
80.088638 1154.8118 2617.3887 4204579
95.191193 1149.938 2606.3423 4401958
110.94525 1153.1965 2613.7278 5323059
127.48884 1162.8585 2635.6267 5652281
143.09473 1162.7922 2635.4763 6639945
158.19965 1159.0685 2627.0366 5718844
173.43309 1156.8693 2622.0518 5521463
188.98459 1156.9786 2622.2998 5916734
202.879 1147.6971 2601.2632 6443078
218.52165 1148.918 2604.0303 7298388
237.24666 1165.115 2640.741 5983300
248.13455 1143.201 2591.073 7760481
259.155 1124.4158 2548.4958 8683129
266.35239 1092.0244 2475.0806 7960436
285.03064 1107.6278 2510.446 7697010
295.18997 1090.2211 2470.9932 7630961
309.88818 1090.4303 2471.4675 7959925
322.85623 1084.8074 2458.7231 8881282
331.96564 1067.2644 2418.9619 8749438
342.98477 1057.059 2395.8313 8814973
355.55978 1052.2694 2384.9756 9209988
371.93753 1058.6697 2399.4819 9999248
386.37 1059.2656 2400.8328 9999248
402.1192 1063.3011 2409.9792 9670280
415.67834 1061.4673 2405.8228 10064780
428.25967 1057.3409 2396.4705 9209725
446.18732 1066.2556 2416.6755 10525584
457.83124 1060.0664 2402.6477 10262926
474.14346 1064.7336 2413.2261 9604997
486.59973 1060.7223 2404.1343 11644323
503.00476 1065.3019 2414.5139 11051927
519.53223 1069.8805 2424.8914 8020566
538.45966 1079.0219 2445.6104 4664875
563.16791 1098.9651 2490.8118 5125939
592.289 1126.281 2552.7236 6310730
603.84442 1119.6661 2537.731 6705744
623.45569 1127.9471 2556.4998 5718594
641.45111 1132.9812 2567.9097 4534065
659.01074 1137.0303 2577.0867 4731701
675.19067 1138.5692 2580.575 1773078
688.06586 1134.5908 2571.5576 458760
711.75916 1148.2368 2602.4866 196621
714.38782 1128.0426 2556.7161 65551
730.7663 1129.9474 2561.0334 65550
748.12018 1133.2523 2568.5239 65550
762.94873 1132.6763 2567.2185 65549
766.73364 1116.0479 2529.53 65550
780.65869 1114.5339 2526.0986 65547
781.22614 1094.365 2480.3857 196618
793.12384 1090.5198 2471.6704 262153
800.6936 1080.9709 2450.0281 196617
814.15302 1079.5718 2446.8567 393224
826.91986 1077.3196 2441.752 393223
839.0777 1074.3647 2435.0549 393220
854.06207 1075.0677 2436.6484 458757
865.73792 1071.652 2428.9065 524292
866.59723 1055.1777 2391.5674 655360
874.42896 1047.5864 2374.3618 917504
880.51093 1038.1724 2353.0249 3019534
892.67694 1036.1136 2348.3586 4663583
913.59778 1044.1235 2366.5132 4466462
927.77087 1044.2961 2366.9043 2297354
940.1087 1042.4287 2362.6716 1114112
949.77368 1037.6956 2351.9441 917504
963.46246 1037.4321 2351.3469 720896
973.54272 1033.3461 2342.0857 655360
985.4447 1031.2811 2337.4058 720896
995.87122 1027.7509 2329.4043 1114369
1014.816 1032.988 2341.2742 3415328
1036.6373 1040.9723 2359.3706 5388603
1047.2693 1037.6573 2351.8574 5980994
1058.0322 1034.5577 2344.832 655617
1070.9805 1033.6476 2342.7693 917504
1086.1241 1034.8524 2345.5 1311749
1095.6724 1030.7629 2336.2312 3087131
1113.327 1034.3065 2344.2627 7626334
1129.0544 1035.9944 2348.0884 8744815
1160.4048 1051.8019 2383.916 5191480
1222.9927 1095.2029 2482.2847 3349533
1239.509 1096.8052 2485.9163 4796980
1254.2549 1096.8215 2485.9534 3349791
1252.8602 1082.8867 2454.3701 2626325
1273.5768 1088.1639 2466.3308 4336686
1280.1292 1081.3566 2450.9019 4731190
1306.5497 1091.2966 2473.4312 4204332
1331.2368 1099.5845 2492.2158 5454399
1348.2805 1101.4465 2496.436 4401454
1360.9069 1099.6986 2492.4744 4927798
1373.5256 1097.9822 2488.584 5125949
1389.5551 1098.9996 2490.8901 5455170
1409.3717 1102.9597 2499.8655 6113098
1426.5673 1104.8073 2504.0532 7889253
1436.6893 1101.1953 2495.8665 5192508
1445.5955 1096.7343 2485.7556 5258048
1465.2128 1100.4076 2494.0813 4468532
1485.6179 1104.5934 2503.5684 4468532
1493.6465 1099.5851 2492.217 4402996
1510.6808 1101.2397 2495.9673 4271668
1521.9277 1098.6844 2490.1755 4600376
1543.3812 1103.4756 2501.0347 4073776
1550.9452 1098.3394 2489.3936 4205362
1565.2524 1098.0304 2488.6931 4797499
1566.8472 1088.8925 2467.9819 4534328
1583.2393 1090.1119 2470.7461 5126466
1607.0862 1096.395 2484.9866 3744813
1603.96 1084.3292 2457.6396 3678764
1600.9836 1072.5811 2431.0122 4402746
0 0 0 0
1514.3146 996.58716 2258.7715 4930892
1514.5551 988.01471 2239.342 1906718
1512.8823 978.35382 2217.4456 4668238
1519.4088 974.11591 2207.8403 10721954
1530.0114 972.54132 2204.2715 6839400
1538.4016 969.59906 2197.6028 5588565
1564.9937 978.08173 2216.8289 3747641
1545.4989 957.85999 2170.9961 8417150
1592.2679 978.70154 2218.2336 6838891
1600.1254 975.48041 2210.9329 6180446
1603.4418 969.56561 2197.5271 5324882
1593.4045 955.73645 2166.1831 4996686
1617.1854 962.25067 2180.9478 6839148
1626.9351 960.37903 2176.7056 8878729
1635.0415 957.57434 2170.3486 7629175
1642.3372 954.34241 2163.0234 8352127
1653.8518 953.59296 2161.325 8483457
1673.5824 957.55609 2170.3074 10128534
1678.8665 953.25598 2160.561 5522768
1828.5767 1030.4052 2335.4204 2364187
1867.4778 1044.4236 2367.1931 3744301
1917.906 1064.6318 2412.9951 4007473
1938.8657 1068.304 2421.3181 3810094
1931.7102 1056.5446 2394.6653 4796989
1960.1547 1064.286 2412.2114 3941422
1991.6649 1073.5679 2433.249 4335666
2017.3125 1079.5791 2446.8733 4204336
2014.9855 1070.6404 2426.6138 4204336
2030.3242 1071.1484 2427.7651 5388866
2033.2103 1065.1259 2414.115 6442324
2018.9792 1050.283 2380.4734 6113871
2049.2007 1058.61 2399.3467 6047566
2062.7778 1058.2831 2398.6057 6113872
2069.9541 1054.6992 2390.4829 5653066
2095.0198 1060.2175 2402.99 5521478
2097.5542 1054.3356 2389.6587 5587015
2120.5938 1058.7706 2399.7107 6113360
2130.96 1056.861 2395.3826 6771288
2149.3647 1058.9373 2400.0884 6902874
2162.1523 1058.2368 2398.501 7297630
2186.6626 1063.2456 2409.8533 6508373
2177.626 1051.9833 2384.3271 5258306
2185.3406 1048.9062 2377.3533 5850443
2223.1938 1060.2419 2403.0454 7298401
2215.2634 1049.7378 2379.2378 6772571
2252.2876 1060.5344 2403.7085 6312022
2266.8984 1060.7079 2404.1016 8285555
2264.9353 1053.1725 2387.0225 6903646
2240.0703 1035.1475 2346.1687 5455686
0 0 0 0
0 0 0 0
0 0 0 0
0 0 0 0
0 0 0 0
0 0 0 0
0 0 0 0
0 0 0 0
0 0 0 0
-2264.6511 1148.4186 2568.4116 5457212
-2240.8594 1144.0403 2558.6196 6180678
-2241.8835 1152.358 2577.2222 6115141
-2231.8218 1155.0524 2583.248 5785405
-2236.2185 1165.3186 2606.2083 6180163
-2189.0889 1148.6899 2569.0186 6443335
