# .PCD v0.7 - Point Cloud Data file format
VERSION 0.7
FIELDS x y z rgb
SIZE 4 4 4 4
TYPE F F F U
COUNT 1 1 1 1
WIDTH 1265
HEIGHT 1
VIEWPOINT 0 0 0 1 0 0 0
POINTS 1265
DATA ascii
5794.2573 1223.5956 8798.2852 5790553
5813.1689 1216.6448 8748.3047 5461331
5838.9165 1211.2349 8709.4043 5198158
5790.958 1190.7639 8562.208 5658710
5901.0029 1202.8557 8649.1543 5527123
5921.563 1196.6559 8604.5742 5856088
5894.8779 1181.0958 8492.6895 5724502
5883.6777 1168.8754 8404.8184 5658709
5941.1968 1170.3976 8415.7637 5066572
5919.0278 1156.3269 8314.5879 5922394
6029.7676 1168.2388 8400.2402 5198928
6121.8452 1176.3695 8458.7051 5199185
6173.9507 1176.7498 8461.4385 5856858
6213.8989 1174.8251 8447.5996 6119773
6300.7051 1181.7196 8497.1748 7238254
6309.9858 1174.0802 8442.2432 6843240
6321.5132 1166.9753 8391.1553 6579554
6218.9697 1139.0878 8190.6304 5263951
6224.0225 1131.1874 8133.8218 4934986
6472.3677 1167.2858 8393.3877 4671813
6122.7983 1095.8225 7879.5303 5263951
6223.6143 1105.4382 7948.6719 5461330
6330.7739 1116.0276 8024.8154 5066572
6365.1348 1113.7214 8008.2329 5461330
6394.6987 1110.6162 7985.9053 5724502
6399.9399 1103.3636 7933.7549 5395537
6437.7339 1101.7877 7922.4229 5198158
6546.4409 1112.2833 7997.8926 5132621
6556.8457 1106.0459 7953.0415 5395537
6670.8867 1117.2549 8033.6396 4342847
6773.4077 1126.389 8099.3193 5198156
6753.4141 1115.1646 8018.6094 4803398
6734.1265 1104.2124 7939.8579 4606019
6661.7764 1084.772 7800.0708 4803398
6757.5674 1092.7899 7857.7241 4540226
6717.9761 1078.9548 7758.2437 4540225
6745.8218 1076.0651 7737.4644 4606019
6777.6187 1073.8403 7721.4673 5066570
6593.3291 1037.6384 7461.1567 5000777
6736.4214 1053.0979 7572.3184 5856086
6911.7305 1073.3561 7717.9844 4803398
6798.3911 1048.8168 7541.5347 5329998
6823.959 1045.8879 7520.4746 5593171
6832.771 1040.4454 7481.3398 5790293
6911.792 1045.6952 7519.0889 6250845
6891.8486 1036.0012 7449.3843 5330511
6770.4829 1011.2814 7271.6357 5396561
6669.5991 989.91425 7117.9951 5462100
6672.2939 984.09229 7076.1323 5461330
6531.5386 957.31775 6883.6094 2039839
6478.585 943.66455 6785.436 1251092
0 0 0 0
0 0 0 0
0 0 0 0
-9557.9902 1510.8547 10419.955 3294820
-9242.7354 1470.5189 10141.77 3360099
-9199.4199 1473.2041 10160.288 3359585
-9169.2002 1478.0354 10193.608 3556449
-8976.3711 1456.5452 10045.396 3489885
-8909.9893 1455.4229 10037.656 3095638
-8811.125 1448.9438 9992.9717 3160146
-8657.9473 1433.3854 9885.6689 2766672
-8570.542 1428.578 9852.5146 2635084
-8564.4473 1437.3511 9913.0195 2701901
-8492.9326 1435.1901 9898.1162 3689055
-8649.1758 1471.7546 10150.292 4939894
-8843.3359 1515.3285 10450.809 5860997
-9108.9512 1571.8468 10840.601 6717334
-9219.2803 1602.1814 11049.81 7375522
-9261.3818 1621.0081 11179.652 8034222
-9176.9268 1617.7953 11157.494 8232117
-9698.4395 1722.1368 11877.109 8298167
-9823.4902 1757.0896 12118.169 8495291
-9894.9375 1782.8984 12296.167 8495547
-10173.912 1846.7607 12736.606 8692669
-10013.096 1831.1501 12628.945 8692669
-10414.317 1918.8611 13233.864 8890045
-10078.058 1870.9897 12903.707 8626873
-9853.1992 1843.226 12712.229 9087166
-9615.7393 1812.6594 12501.419 9350079
-9013.7529 1712.3679 11809.736 9086649
-8371.7725 1602.8501 11054.422 9086646
-7740.6831 1493.707 10301.691 8757680
-7436.0127 1446.3184 9974.8652 8494510
-7138.8979 1399.652 9653.0195 7968682
-7251.9253 1433.2937 9885.0371 20
-7532.5347 1500.8741 10351.121 3031646
-7498.7886 1506.4138 10389.327 8821939
-7202.646 1458.897 10061.616 4217449
-7342.1548 1499.5645 10342.089 275
-7387.8242 1521.5894 10493.988 4148059
-7728.5835 1605.2802 11071.182 7374740
-8225.8535 1723.1904 11884.376 7966622
-8005.5166 1691.511 11665.892 7244186
-7841.2021 1671.2201 11525.951 7244185
-7838.7778 1685.38 11623.607 8296616
-7601.687 1648.8889 11371.939 8362150
-7212.793 1578.5232 10886.646 7440533
-6957.1226 1536.307 10595.492 7374482
-6796.5977 1514.5237 10445.259 7177100
-6395.2095 1438.1742 9918.6963 6847621
-6347.7329 1440.7352 9936.3594 7703443
-7133.5176 1634.2385 11270.899 11
-7334.4106 1696.1381 11697.803 12
-7245.3613 1691.5275 11666.005 10
-6903.4512 1627.2257 11222.533 7436158
-7567.7427 1801.1534 12422.065 7831939
-7773.9282 1868.3953 12885.814 7174261
-7588.4697 1841.9092 12703.146 7437176
-7689.2554 1885.0668 13000.794 8094593
-7538.8638 1866.8973 12875.483 7700092
-7476.8262 1870.4595 12900.051 7305847
-7347.9111 1857.1921 12808.55 7042419
-7119.2036 1818.1619 12539.368 7305590
-6823.9028 1761.1222 12145.98 7174005
-6607.8267 1723.5309 11886.724 6911349
-6583.3921 1735.6544 11970.337 7305854
-6716.8535 1790.1233 12345.994 10
-6484.1284 1747.1239 12049.438 272
-6117.9756 1666.8151 11495.571 18
-6009.6123 1655.7228 11419.07 20
-5817.875 1621.1456 11180.602 529
-6136.5078 1729.6243 11928.749 12238273
-5933.147 1691.7881 11667.804 10904442
-5861.9858 1691.2002 11663.748 12949925
-5945.7778 1735.8357 11971.587 7964800
-5879.1558 1737.1062 11980.35 6121828
-5797.4575 1733.8988 11958.229 6582121
-5625.9961 1703.4338 11748.121 7436659
-5566.1499 1706.4236 11768.74 6318178
-5518.3726 1713.2362 11815.725 6186078
-5504.7314 1730.9579 11937.946 5791320
-5516.1221 1757.1146 12118.342 5463124
-5528.1875 1784.1787 12304.996 5989981
-5610.1313 1834.8204 12654.258 6515562
-5669.3301 1879.2942 12960.981 2
-5427.6689 1823.8895 12578.87 261
-5518.0747 1880.0819 12966.414 2632750
-5554.2935 1919.1381 13235.774 6317411
-5445.6216 1908.5328 13162.632 6580837
-5334.6392 1896.7979 13081.699 7041899
-5252.7568 1895.2163 13070.791 6186589
-5163.5698 1890.9125 13041.109 6515811
-5151.1279 1915.0092 13207.297 6383713
-5149.7744 1944.0347 13407.479 6120797
-4839.6616 1855.5874 12797.482 5726039
-4715.1533 1836.6208 12666.675 5725782
-4651.0674 1840.9567 12696.578 5133902
-4500.2827 1810.5542 12486.901 5463636
-4378.9102 1791.1669 12353.191 5726809
-4281.0264 1780.8915 12282.324 4674378
-4222.0557 1786.7283 12322.58 4608328
-4100.0205 1765.613 12176.953 5923931
-3998.2444 1752.6216 12087.354 5594965
-3913.6826 1746.8397 12047.479 5857621
-3832.814 1742.5223 12017.703 4278331
-3818.5645 1768.9017 12199.635 4673087
-3762.2444 1776.4346 12251.587 4870210
-3750.0603 1805.5137 12452.137 5068106
-3699.2029 1816.766 12529.741 3752247
-3653.7732 1831.1998 12629.287 5002058
-3562.0239 1822.5374 12569.544 4475714
-3519.3684 1839.1602 12684.188 3686198
-3436.1953 1834.8727 12654.618 5002315
-3341.9839 1824.3683 12582.172 6778215
-3262.2593 1821.4731 12562.206 7305327
-3105.0872 1774.1908 12236.112 6910571
-3023.7529 1769.0164 12200.426 5397330
-2763.4451 1656.3176 11423.173 6252385
-2703.7878 1661.2428 11457.141 6121312
-2629.6162 1657.2743 11429.771 6449766
-2537.6938 1641.613 11321.76 5594712
-2501.999 1662.4623 11465.551 6121569
-2443.8872 1669.1643 11511.772 5332054
-2358.5835 1657.1462 11428.887 5660763
-2294.2041 1659.5535 11445.489 5594713
-2354.668 1755.1652 12104.897 5528920
-2253.8127 1732.7595 11950.372 5989471
-2155.873 1711.215 11801.785 5726553
-2056.4626 1687.0197 11634.916 5529431
-1953.3496 1658.0034 11434.799 6516327
-1818.8419 1599.2969 11029.916 6055519
-1807.3199 1648.3856 11368.468 5266003
-1764.8221 1671.9291 11530.841 5594454
-1650.7429 1626.8243 11219.766 4542024
-1579.9817 1622.4161 11189.364 5396818
-1491.1481 1598.2516 11022.707 6120797
-1476.7802 1655.3433 11416.453 5857882
-1444.9324 1697.3816 11706.379 5199954
-1364.2144 1683.3556 11609.646 5923933
-1255.3977 1631.3275 11250.822 5068625
-1198.8749 1645.2284 11346.693 5594969
-1135.374 1650.6359 11383.987 5792350
-1077.9152 1666.0653 11490.399 5791837
-977.27905 1612.3398 11119.869 5462872
-907.62701 1605.6606 11073.806 6450023
-836.45483 1595.0422 11000.572 5726301
-782.05865 1617.3226 11154.234 5989729
-713.10083 1610.8223 11109.403 6845038
-638.04749 1587.8309 10950.839 6252901
-574.71722 1592.111 10980.356 5331543
-515.18188 1609.3381 11099.168 5726044
-452.54761 1620.5093 11176.213 6844782
-395.76422 1660.0515 11448.924 6450023
-327.72665 1658.9805 11441.538 7305333
-257.66495 1644.4329 11341.207 5923680
-188.55859 1627.8704 11226.979 6252644
-121.76801 1624.1434 11201.276 6778988
-55.34544 1622.2771 11188.405 7239539
10.84757 1608.9824 11096.715 6252645
76.517426 1607.5203 11086.631 5002577
141.40038 1598.5131 11024.511 5265750
205.77307 1591.2516 10974.431 5463129
271.40012 1594.8484 10999.235 5923679
330.69849 1567.0629 10807.606 5003091
398.43878 1581.8058 10909.285 4937298
463.83395 1584.4226 10927.333 5266519
526.36096 1577.8013 10881.666 6187110
586.89996 1567.3156 10809.35 4476747
645.64111 1554.5642 10721.407 4476492
714.80402 1566.9429 10806.779 6318441
779.83118 1568.9656 10820.729 5924196
845.99329 1572.791 10847.112 5989989
910.17413 1572.6528 10846.16 5134425
985.13354 1589.9288 10965.308 5858660
1047.8002 1586.4548 10941.349 5463133
1106.4202 1577.6158 10880.389 6384490
1148.0934 1546.9164 10668.662 5265752
1203.1931 1536.5673 10597.287 6910576
1239.0206 1503.8529 10371.665 5265751
1303.3027 1507.1349 10394.3 5134165
1357.7628 1499.2748 10340.091 5594717
1446.0111 1527.7926 10536.771 5726305
1512.7876 1532.2028 10567.187 4147273
1552.0735 1509.5254 10410.787 5660257
1579.162 1477.172 10187.653 5857642
1689.4729 1522.1821 10498.077 9
1592.8301 1384.1552 9546.1426 11
1642.092 1378.0363 9503.9414 9
1713.0006 1389.8865 9585.6689 6185320
1763.6027 1385.0287 9552.166 5330008
1856.004 1412.2789 9740.1045 16
2120.6396 1564.9916 10793.321 12764370
1981.858 1419.7643 9791.7285 13488596
1979.3334 1377.6328 9501.1592 13422802
2074.9434 1404.2451 9684.6973 13488594
2069.0837 1362.6022 9397.4971 131090
2177.1902 1396.2278 9629.4033 5199448
2261.4158 1413.2124 9746.542 5133908
2320.0037 1413.7286 9750.1025 4672587
2371.7156 1410.1316 9725.2949 3883327
2421.4509 1405.5577 9693.75 5067599
2466.6548 1398.6267 9645.9482 2304037
2530.2253 1402.1876 9670.5068 5067343
2541.3557 1377.1733 9497.9902 5330515
2620.8257 1389.474 9582.8252 5330515
2669.3245 1385.1815 9553.2207 5791065
2710.3735 1377.2816 9498.7373 5725271
2709.5181 1348.8424 9302.5996 5593427
2748.1892 1340.8217 9247.2822 5922649
2899.124 1386.8164 9564.4961 5593683
2915.2717 1367.8076 9433.3975 5791063
2994.6516 1378.6234 9507.9912 6448992
3030.2329 1369.2491 9443.3389 5264719
3049.9744 1353.1868 9332.5615 5659221
3111.7588 1356.0176 9352.085 5462098
3148.915 1348.205 9298.2031 5001290
3198.4663 1345.8766 9282.1455 6317151
3308.8655 1368.7982 9440.2295 5199182
3381.4766 1375.5857 9487.041 4738629
3340.2419 1336.5961 9218.1396 4607043
3347.7354 1318.0454 9090.2012 4672067
3327.7959 1289.4525 8893.0039 4737859
3381.0618 1289.6744 8894.5342 5198409
3407.0159 1279.6316 8825.2715 5001030
3408.5217 1260.8486 8695.7305 4869697
3490.3879 1271.9084 8772.0068 4672319
3476.2622 1248.1774 8608.3398 5132616
3583.9773 1268.2477 8746.7598 6580321
3627.636 1265.4016 8727.1309 5330255
3679.7031 1265.5273 8727.998 5790805
3776.1362 1280.6965 8832.6162 4014651
3835.9475 1283.2004 8849.8848 5001547
3801.1106 1254.4017 8651.2686 4804424
3868.7544 1259.7393 8688.0801 3751736
3885.9426 1248.723 8612.1035 4343620
3969.0254 1258.8927 8682.2412 3948606
4038.0601 1264.4033 8720.2461 1909023
4063.8049 1256.391 8664.9873 1513496
4082.7847 1246.5131 8596.8623 4277060
4106.3955 1238.2751 8540.0479 3224371
4150.1025 1236.224 8525.9014 4869195
4155.9507 1223.0804 8435.2529 3817019
4327.417 1258.4108 8678.917 5133137
4256.7217 1223.3179 8436.8906 6054751
4012.1418 1139.6477 7859.8403 6910316
4213.7222 1183.175 8160.0361 6515557
4348.1006 1207.0592 8324.7598 5923420
4502.5835 1235.9263 8523.8477 5528149
4506.8564 1223.3788 8437.3115 5725270
4522.3911 1214.13 8373.5244 6120028
4615.3877 1225.6525 8452.9922 5198668
4662.6611 1224.9159 8447.9121 6053721
4656.7612 1210.3743 8347.6221 5790549
4792.6895 1232.6144 8501.0068 6711394
4767.7124 1213.4398 8368.7646 6514016
4758.1948 1198.554 8266.1006 4408641
4831.604 1204.6472 8308.124 6053468
4938.9873 1219.0028 8407.1309 4803400
4967.7261 1213.8551 8371.6289 4869191
4885.6641 1182.0028 8151.9526 6119258
4886.7856 1170.702 8074.0137 6316638
4968.0684 1178.6378 8128.7451 5592914
4920.6851 1156.1895 7973.9243 5921879
5180.7139 1205.7122 8315.4688 5921879
5261.4341 1212.9642 8365.4844 5921879
5188.1729 1184.9137 8172.0273 4277053
5402.9238 1222.5519 8431.6084 6119258
5454.7104 1222.9636 8434.4473 5461328
5582.896 1240.3409 8554.2949 5198156
5530.0195 1217.5416 8397.0537 5592914
5592.4912 1220.3184 8416.2041 5395534
5635.9883 1218.9423 8406.7139 4737860
5691.8262 1220.2361 8415.6367 5527120
5651.728 1201.1188 8283.79 6580065
5506.563 1160.1938 8001.5415 5921879
5558.2871 1161.0964 8007.7666 5724500
5634.4155 1167.0386 8048.748 5790293
5776.2642 1186.3794 8182.1357 5921879
5815.9219 1184.5837 8169.7524 4408639
5735.4995 1158.562 7990.2876 5724500
5765.9116 1155.1714 7966.9028 6382944
5773.0688 1147.2145 7912.0269 5132877
5830.353 1149.2668 7926.1812 5593172
5976.7715 1168.7159 8060.3164 5592659
6092.4458 1181.8926 8151.1919 5725272
5983.0806 1151.5492 7941.9214 5725272
5915.3408 1129.6282 7790.7393 6185566
5943.4111 1126.2017 7767.1064 5790295
6039.8232 1135.678 7832.4624 4803400
6059.0293 1130.6035 7797.4648 5329744
6078.8599 1125.7214 7763.7944 4474435
6124.1577 1125.5933 7762.9111 4934986
6056.3887 1104.8408 7619.7871 4934986
6090.5532 1102.8533 7606.0791 5395537
6248.2217 1123.0941 7745.6748 5527124
6252.7773 1115.7191 7694.811 5198158
6415.1729 1136.4113 7837.52 4803397
6461.1187 1136.3259 7836.9312 4211260
6530.7456 1140.3768 7864.8691 4277053
6538.21 1133.5928 7818.0815 4474433
6526.8081 1123.656 7749.5503 5395535
6523.5493 1115.2501 7691.5771 5527121
6492.1768 1102.188 7601.4917 6711395
6321.251 1065.7769 7350.374 6053464
6339.0449 1061.465 7320.6353 6579809
6354.1489 1056.7642 7288.2153 5855572
6227.8096 1028.762 7095.0918 4671554
6329.3413 1038.5247 7162.4224 4737604
6451.1602 1051.4637 7251.6602 4935239
6621.2715 1072.0508 7393.6431 5330253
6522.2993 1049.0862 7235.2627 5330511
6518.5352 1041.6354 7183.8755 5461841
6557.2671 1041.0277 7179.6855 4672068
6627.606 1045.4136 7209.9336 4540226
6590.7505 1032.9432 7123.9282 5198413
6673.0854 1039.1926 7167.0298 5329741
6712.123 1038.6632 7163.3779 5658452
6507.9253 1000.7376 6901.8154 3882812
6228.0103 951.71503 6563.7197 131586
6397.5483 971.55646 6700.561 1121304
0 0 0 0
0 0 0 0
0 0 0 0
-9186.7246 1511.5004 10015.208 6188666
-9093.5625 1505.8981 9978.0869 6452348
-9101.1787 1517.0206 10051.785 7175814
-9192.8799 1542.3977 10219.934 8360345
-9287.8438 1568.6621 10393.963 8228758
-9745.1533 1656.8839 10978.521 8492184
-9724.665 1664.5095 11029.047 8557976
-9489.1543 1635.1849 10834.743 8426647
-9188.1992 1594.1071 10562.561 8623770
-8754.249 1529.2335 10132.708 8361369
-8650.5488 1521.552 10081.811 7900819
-8389.2998 1485.8596 9845.3125 7440269
-8328.3672 1485.3948 9842.2324 6782340
-8307.8613 1492.1844 9887.2207 6519166
-8374.5127 1514.8361 10037.311 7176581
-8482.4688 1545.3364 10239.406 7439240
-8822.8018 1618.9155 10726.941 7768202
-8887.8984 1642.6923 10884.486 7570310
-9047.4346 1684.3988 11160.834 7109500
-9278.3594 1740.108 11529.963 7240313
-9413.832 1778.6088 11785.07 7240312
-9399.2041 1789.1141 11854.678 7437433
-9363.166 1795.6713 11898.126 7832446
-9333.4941 1803.5583 11950.386 7634553
-9350.6582 1820.6852 12063.869 7305587
-9028.8838 1771.5725 11738.447 6976622
-8768.0908 1733.7555 11487.872 7239023
-8509.0596 1695.6978 11235.701 7239791
-8215.2598 1650.0566 10933.282 7503478
-7874.335 1594.1497 10562.843 7043702
-7428.7095 1515.9806 10044.895 5004384
-7396.4121 1521.5784 10081.985 270
-7641.1953 1584.7321 10500.441 3754577
-7469.9492 1561.9326 10349.372 7898500
-7335.5117 1546.5156 10247.22 592911
-7432.7129 1580.0846 10469.647 515
-7561.3159 1620.9503 10740.424 8555399
-7638.2568 1651.3405 10941.789 7699318
-7749.2183 1689.6689 11195.754 7502707
-7916.3774 1741.0184 11535.996 7502450
-8037.1802 1782.9785 11814.023 7042670
-7977.186 1785.2152 11828.844 6976364
-7924.3833 1789.1152 11854.686 7305331
-7747.4219 1764.8026 11693.59 7108466
-7407.438 1702.5809 11281.309 7436918
-7242.5479 1679.8375 11130.611 7503482
-7019.3438 1643.0267 10886.702 4872022
-6946.1294 1640.9668 10873.054 4938073
-7520.7979 1793.358 11882.799 3691119
-7446.4009 1792.395 11876.418 989734
-7212.3799 1752.6248 11612.899 987935
-7292.4907 1789.1583 11854.972 4147273
-6895.9043 1708.311 11319.276 3093812
-6948.4492 1738.231 11517.526 2369833
-7096.2471 1792.8092 11879.162 2172454
-7284.9395 1858.9163 12317.188 2501417
-7368.7739 1899.3333 12584.99 2961455
-7262.2285 1891.0034 12529.797 2237732
-7186.0674 1890.4954 12526.431 2434853
-6973.979 1853.8439 12283.578 2500903
-6701.4292 1800.178 11927.987 2829612
-6422.9175 1743.7495 11554.093 1711905
-6521.1182 1789.4807 11857.106 724493
-6692.1646 1856.415 12300.614 329227
-6264.3086 1756.8578 11640.947 11
-6144.5527 1742.4543 11545.51 65550
-6033.4385 1730.2047 11464.344 269
-5943.9585 1723.9508 11422.905 328718
-5785.3091 1697.2603 11246.054 12171982
-5820.6567 1727.5245 11446.586 327693
-5627.3564 1689.8418 11196.899 7762548
-5735.5493 1742.8754 11548.3 986897
-5730.8647 1762.4749 11678.167 5000778
-5638.0249 1755.1108 11629.373 5856855
-5629.0664 1774.0001 11754.532 5002313
-5670.3511 1809.3945 11989.057 5922902
-5660.6958 1829.2263 12120.462 5725523
-5615.9175 1838.0718 12179.071 5857108
-5574.084 1848.1239 12245.677 6054746
-5558.8062 1867.3621 12373.149 5133644
-5545.6245 1887.8279 12508.756 5528147
-5453.0649 1881.4604 12466.565 6317920
-5356.7896 1873.6184 12414.604 6383713
-5208.3887 1847.0726 12238.712 5331282
-5227.7939 1880.1272 12457.731 6252382
-5178.1021 1888.9227 12516.01 6712677
-5103.667 1888.8163 12515.305 6383453
-5059.1938 1899.9587 12589.136 6450015
-4999.0952 1905.4789 12625.711 6120794
-4969.3032 1922.894 12741.104 6186587
-4882.7178 1918.5309 12712.194 6121050
-4820.4287 1923.7272 12746.625 6384223
-4669.3374 1893.0859 12543.596 5726292
-4545.2959 1872.5978 12407.841 5068103
-4342.9868 1818.6606 12050.454 5397069
-4171.8359 1776.1866 11769.021 5462862
-4091.4509 1771.5698 11738.43 5594448
-3921.1035 1727.1667 11444.215 6054999
-3851.0295 1726.1466 11437.455 5397069
-3818.436 1742.1907 11543.764 5396555
-3831.9258 1780.2295 11795.808 5528140
-3802.5669 1799.4047 11922.863 5659981
-3696.5002 1782.3203 11809.662 4541756
-3589.6919 1764.212 11689.677 5068100
-3454.9463 1731.391 11472.205 4870211
-3378.9094 1727.2643 11444.861 4870212
-3346.825 1745.8965 11568.318 5462351
-3228.4729 1719.365 11392.521 4541506
-3172.8174 1725.8033 11435.181 4936520
-3140.4304 1745.455 11565.393 5331021
-3024.905 1718.7445 11388.408 4607298
-2974.8533 1728.8658 11455.473 4936008
-2883.5955 1714.9534 11363.288 5988954
-2787.4585 1697.4045 11247.01 6383712
-2645.6267 1650.4894 10936.15 5331278
-2561.126 1637.8828 10852.619 5659986
-2492.0781 1634.7642 10831.954 2896427
-2424.2932 1632.3306 10815.83 5133132
-2379.9099 1645.9498 10906.071 6450019
-2284.885 1624.3279 10762.804 6055261
-2239.7253 1637.9314 10852.94 6186847
-2190.1499 1649.0143 10926.376 5791319
-2127.5518 1650.6685 10937.337 4936267
-2066.1768 1653.4054 10955.472 4212544
-2007.389 1658.4575 10988.947 4935754
-1914.4803 1634.7136 10831.619 5791576
-1785.0588 1577.064 10449.634 4673352
-1754.4548 1605.7123 10639.457 5068368
-1689.293 1603.689 10626.05 5265748
-1595.9027 1573.6738 10427.17 5857885
-1560.9167 1601.1514 10609.236 6252900
-1514.4736 1618.6887 10725.439 6647402
-1434.2659 1600.0939 10602.229 7108209
-1399.0826 1632.3262 10815.801 6252644
-1326.2998 1621.6796 10745.256 5002320
-1269.4731 1630.4524 10803.385 5002319
-1196.8726 1618.822 10726.322 4804682
-1121.0245 1601.2488 10609.882 5397078
-1047.0197 1584.3773 10498.091 5923423
-980.53711 1577.4763 10452.365 5397336
-924.13403 1586.9537 10515.163 5726301
-853.43884 1571.4847 10412.665 5265750
-813.59192 1614.8334 10699.893 5660508
-733.08521 1577.986 10455.742 5002832
-669.5257 1574.1833 10430.546 5133649
-602.69238 1561.1274 10344.038 5002063
-529.25372 1526.0699 10111.746 5857373
-481.06711 1564.1694 10364.193 5528664
-426.77673 1590.6674 10539.77 4409926
-352.67099 1539.7356 10202.295 3818046
-288.39407 1519.5228 10068.365 6054753
-236.93318 1573.9037 10428.692 5199700
-176.16316 1582.9966 10488.942 5660251
-111.65939 1550.1647 10271.398 4936528
-51.308212 1565.3862 10372.256 4212806
10.313313 1592.2395 10550.186 3949377
69.229279 1513.8308 10030.65 4936272
132.37663 1557.6445 10320.96 5594715
188.61163 1518.1344 10059.165 5068371
257.2384 1573.3906 10425.293 6252645
318.47891 1570.8195 10408.257 4805455
384.75793 1589.9027 10534.702 5463386
456.74109 1623.9401 10760.234 4871248
507.50116 1583.4233 10491.77 5134421
565.5816 1572.0958 10416.714 6253158
617.62787 1547.8745 10256.224 7042674
650.65857 1484.6044 9836.9951 5989988
701.25836 1468.5281 9730.4736 6253160
788.81415 1526.4064 10113.976 5989732
843.16791 1516.4003 10047.675 5858146
897.19019 1507.157 9986.4287 6121574
960.29645 1513.3732 10027.617 5463645
1031.2264 1530.4766 10140.944 6055265
1057.8737 1483.5934 9830.2959 5463129
1102.0995 1464.969 9706.8906 6581610
1154.6517 1458.7111 9665.4258 5199957
1244.7948 1498.2903 9927.6777 5397335
1286.6045 1478.7467 9798.1826 5923167
1355.2319 1490.3827 9875.2822 5922653
1478.8391 1559.016 10330.048 6778478
1519.9203 1538.6519 10195.114 3818049
1469.6865 1430.9368 9481.3936 2172455
1542.4552 1446.5032 9584.5361 2304556
1583.2517 1432.045 9488.7373 659217
1647.4159 1438.9899 9534.7539 2239020
1662.1487 1403.7284 9301.1104 5066835
1773.2139 1449.4742 9604.2227 395532
1843.8433 1460.3501 9676.2861 987674
2081.2568 1598.6826 10592.878 11909069
1968.0387 1467.4684 9723.4521 13027796
2000.9678 1449.5928 9605.0078 13093589
2041.5232 1438.0778 9528.71 11119292
2034.9677 1394.8898 9242.5459 4606800
2110.4397 1408.7184 9334.1748 5988963
2177.4944 1416.3658 9384.8467 5857118
2211.019 1402.3656 9292.0811 5528153
2292.9148 1418.9802 9402.1689 3488569
2317.2703 1400.0424 9276.6865 4475463
2297.0032 1355.6464 8982.5186 5264979
2291.9355 1322.0282 8759.7646 6975597
2295.2266 1294.6134 8578.1143 7238770
2383.1848 1315.108 8713.9121 6580582
2450.5613 1323.6168 8770.291 5725529
2471.0596 1306.9778 8660.041 5198927
2553.7637 1323.2479 8767.8467 7304815
2572.2805 1306.2733 8655.373 7502194
2600.4998 1294.7932 8579.3057 7238765
2677.7893 1307.7169 8664.9385 5988442
2740.9854 1313.4014 8702.6035 6054235
2831.6501 1331.7952 8824.4805 6251613
2896.5984 1337.6461 8863.249 6054235
2893.8384 1312.5778 8697.1465 6251613
2992.4307 1333.5535 8836.1318 3882295
3073.5967 1346.1757 8919.7656 4803396
3115.0278 1341.2621 8887.208 4540733
3143.6812 1331.1013 8819.8838 3948082
3176.9592 1323.1992 8767.5244 3093029
3166.4326 1297.6001 8597.9043 1448205
3162.0503 1275.2897 8450.0752 6053715
3223.0085 1279.6166 8478.7451 7501160
3291.5559 1286.7775 8526.1934 7303782
3299.7839 1270.4973 8418.3213 4935233
3313.803 1256.8987 8328.2158 4408891
3312.5708 1237.999 8202.9873 4935236
3460.613 1274.6273 8445.6865 3290154
3462.5596 1257.168 8330.001 4342841
3459.335 1238.348 8205.2998 5329996
3525.1653 1244.427 8245.5791 5856596
3560.9768 1239.8878 8215.502 4803909
3626.3281 1245.6174 8253.4668 5856852
3625.0537 1228.6138 8140.8003 5658959
3793.4619 1268.8109 8407.1465 4079671
3771.4124 1245.0886 8249.9629 5659475
3688.3511 1202.0887 7965.0454 6120537
3784.9978 1218.0048 8070.5054 5724752
3895.6909 1237.9875 8202.9111 3948342
3869.1062 1214.3907 8046.5586 5198409
3868.4116 1199.3955 7947.2002 4343100
3900.605 1194.8352 7916.9829 4869443
3963.6343 1199.7166 7949.3271 4014133
3938.6147 1178.1455 7806.3975 4014134
3963.6365 1171.8702 7764.8174 3817012
4082.0193 1193.0249 7904.9883 4343615
4140.3774 1196.3556 7927.0581 4474946
4235.2422 1210.042 8017.7437 4475456
4299.5146 1214.7812 8049.1455 3751217
4349.9062 1215.5376 8054.1572 3290150
4255.6641 1176.2993 7794.165 3750700
4382.3833 1198.3237 7940.0991 4408374
4475.064 1210.6715 8021.915 4868926
4415.2363 1181.9342 7831.5015 4145204
4536.7261 1201.8275 7963.3145 4013364
4508.3657 1182.0229 7832.0894 3684403
4535.8584 1177.1165 7799.5786 4803397
4645.457 1193.4016 7907.4844 5724243
4754.1602 1209.1339 8011.7266 5000777
4796.3184 1207.7981 8002.8755 5000778
4832.3345 1204.9568 7984.0488 5198156
4753.0308 1173.694 7776.9009 5263949
4921.6958 1203.6759 7975.5615 4605761
4953.0718 1199.8308 7950.0845 4803396
5023.5752 1205.4471 7987.2979 5658447
5067.814 1204.715 7982.4468 4803648
5189.4263 1222.2195 8098.4316 4672315
5188.6045 1210.8315 8022.9756 5593162
5269.5728 1218.5641 8074.2114 4738110
5341.084 1223.9902 8110.1646 5001029
5414.1807 1229.6797 8147.8633 5658960
5431.8291 1222.7863 8102.1875 5987929
5336.3931 1190.7798 7890.1118 6579809
5360.9849 1185.8799 7857.645 5790293
5357.3833 1174.8815 7784.7695 5461329
5464.8198 1188.2137 7873.1094 5987672
5598.9849 1207.0828 7998.1357 5921879
5660.3818 1210.0787 8017.9873 5658708
5605.4844 1188.3702 7874.1465 4211262
5660.5225 1190.1343 7885.835 3290159
5643.7202 1176.8884 7798.0684 5066570
5660.8174 1170.8694 7758.1855 4671813
5763.1152 1182.4281 7834.7734 4540228
5730.4341 1166.3295 7728.104 5856088
5786.5015 1168.406 7741.8633 5461330
5844.1616 1170.769 7757.521 5987674
5869.2026 1166.6116 7729.9736 5724502
5903.0171 1164.2489 7714.3179 5724502
5883.8047 1151.5442 7630.1372 5790295
5964.5386 1158.4452 7675.8628 5592916
5829.4868 1123.6484 7445.2998 4934986
5907.7905 1130.1904 7488.6465 4803400
5922.2007 1124.5027 7450.9595 5263951
6070.7783 1144.1863 7581.3833 5724502
6049.4985 1131.802 7499.3257 5724503
6157.0889 1143.5331 7577.0552 4408640
6224.377 1147.6631 7604.4214 4540226
6270.3765 1147.837 7605.5732 3948088
6333.208 1151.0674 7626.978 4013624
6364.0215 1148.4741 7609.7944 3882038
6449.4097 1155.6967 7657.6514 4276796
6280.1572 1117.5072 7404.6074 4934469
6192.1602 1094.2056 7250.2114 4539968
6253.5015 1097.4329 7271.5952 3421487
6215.8818 1083.3679 7178.4009 4276795
6222.5918 1077.1678 7137.3188 3487280
6150.5737 1057.5153 7007.1006 3947575
6264.5107 1069.8844 7089.0591 4276282
6338.5762 1075.3247 7125.1064 5197128
6385.0386 1076.0411 7129.8535 4802627
6386.8467 1069.2723 7085.0034 4079160
6423.0684 1068.3157 7078.665 4342333
6389.8765 1055.9012 6996.4062 5066313
6466.7373 1061.7153 7034.9302 1250319
6553.8159 1069.1217 7084.0054 5066313
6507.145 1054.7543 6988.8062 4605762
6479.3945 1043.6157 6915.0029 5132363
6274.958 1004.338 6654.748 5066572
6076.3477 966.47717 6403.8818 4211519
6181.1172 977.04114 6473.8794 131586
0 0 0 0
0 0 0 0
0 0 0 0
-9160.7773 1566.3958 9986.9199 7503735
-9041.3164 1556.0188 9920.7588 7569273
-9622.6289 1666.8988 10627.7 7371893
-9540.9336 1663.6323 10606.873 7569273
-9687.6719 1700.4177 10841.407 7766139
-9666.3027 1707.9907 10889.69 8029053
-9580.5615 1704.2144 10865.614 7107952
-9436.1982 1689.8889 10774.278 7305329
-9440.708 1702.2109 10852.84 7766393
-9553.9531 1734.4417 11058.335 7700343
-9452.4922 1727.8702 11016.438 7700342
-9420.0996 1733.9209 11055.015 7700342
-9107.1602 1688.0553 10762.588 8029305
-8982.0811 1676.6095 10689.612 7832441
-9113.416 1713.2036 10922.927 7700598
-9004.5166 1704.837 10869.584 7700598
-9024.7363 1720.9725 10972.459 7568756
-8992.6484 1727.2947 11012.768 7831928
-9050.4424 1751.1 11164.544 7766136
-9044.71 1762.8743 11239.613 7766136
-9139.7246 1794.6047 11441.919 7700343
-9178.8096 1815.7455 11576.707 7239535
-9171.0342 1827.865 11653.978 7239791
-8999.7168 1807.3259 11523.025 7173998
-9050.2734 1831.3701 11676.325 7042412
-8889.0078 1812.5911 11556.595 7173741
-8691.5293 1786.0791 11387.562 7305327
-8530.8799 1766.7798 11264.514 6713960
-8342.1406 1741.3126 11102.143 6911083
-8091.3247 1702.3801 10853.919 6911085
-7917.8682 1679.2302 10706.322 3819336
-7484.2988 1600.0961 10201.783 518
-7693.9082 1658.3005 10572.879 6648426
-7432.1831 1615.0377 10297.048 6121315
-7269.2085 1592.6954 10154.599 66051
-7556.5039 1669.4583 10644.019 658957
-7366.0698 1641.0801 10463.087 6711910
-7618.1079 1711.635 10912.926 6448735
-7640.3145 1731.3171 11038.414 5790805
-7800.998 1782.9891 11367.861 4672582
-7708.3809 1777.1631 11330.715 3357235
-7535.7402 1752.6227 11174.253 3883580
-7348.4902 1724.2197 10993.163 4476231
-7075.0776 1674.9113 10678.785 5331543
-6783.5317 1620.3816 10331.118 4278857
-7056.1621 1700.8506 10844.167 3817795
-7116.3457 1731.1185 11037.147 3554626
-7364.605 1808.1234 11528.11 2633011
-7878.6514 1952.4354 12448.205 1909286
-7916.3208 1980.3065 12625.903 11712452
-7392.7651 1866.9769 11903.345 8687507
-7016.0396 1788.9023 11405.562 4937302
-6875.2236 1770.0446 11285.33 5857374
-6635.271 1725.0432 10998.413 5529174
-6499.1865 1706.4207 10879.68 5923418
-6557.8281 1739.064 11087.806 5988954
-6494.7539 1739.7638 11092.268 6318432
-6582.5112 1781.2946 11357.056 6120796
-6509.8188 1779.8151 11347.624 5857112
-6401.5532 1768.4777 11275.339 5068109
-6384.3691 1782.3282 11363.647 3752250
-6607.6865 1864.3304 11886.472 5133902
-6458.6323 1841.9049 11743.491 4410950
-6532.3486 1883.2134 12006.863 7700090
-6246.5464 1820.6443 11607.939 526862
-6332.4663 1866.2322 11898.596 266
-6196.2495 1846.6439 11773.706 1710628
-5984.2026 1803.7529 11500.245 986649
-5691.3271 1735.2301 11063.362 0
-5638.1812 1739.0537 11087.739 6581136
-5473.6279 1708.1993 10891.021 6516365
-5807.0571 1833.8722 11692.277 1843237
-5624.0132 1797.5079 11460.429 5658959
-5535.8291 1790.9437 11418.577 6580830
-5682.9634 1861.2889 11867.079 5988695
-5555.7964 1842.4316 11746.85 5791316
-5530.5571 1857.3264 11841.814 5133384
-5330.8408 1813.2561 11560.835 5791315
-5281.8818 1819.9856 11603.74 6185816
-5229.9116 1825.8413 11641.075 5199177
-5332.3584 1886.4832 12027.711 4014905
-5280.5337 1893.4504 12072.132 3883317
-5062.875 1840.3291 11733.444 4936519
-4830.292 1780.2281 11350.257 5725778
-4804.4995 1795.72 11449.029 5331020
-4747.0029 1799.6362 11473.998 4673091
-4589.5537 1765.2228 11254.587 5001800
-4561.8745 1780.4421 11351.622 5462864
-4490.4287 1778.78 11341.024 6120538
-4488.5806 1805.0557 11508.551 5791829
-4387.4468 1791.5988 11422.753 6055001
-4346.5752 1802.7135 11493.618 5660243
-4259.376 1794.6624 11442.286 6647138
-4108.2363 1758.974 11214.747 5462864
-4018.3853 1748.7852 11149.785 5528656
-3925.1365 1736.7523 11073.066 5265484
-3856.2969 1735.2942 11063.771 6844771
-3770.3477 1725.9531 11004.215 5528655
-3720.2822 1732.9995 11049.14 4146488
-3700.499 1754.6567 11187.221 5396554
-3660.228 1767.212 11267.271 2435868
-3628.8589 1784.6117 11378.206 4541244
-3518.4653 1763.0715 11240.872 5462347
-3455.3406 1764.8433 11252.168 5199177
-3352.823 1746.1687 11133.103 5725521
-3247.1721 1725.0801 10998.647 5922900
-3225.3577 1748.5784 11148.467 6120280
-3087.9275 1709.0695 10896.568 5199436
-3009.1553 1701.032 10845.323 4475969
-2987.0244 1725.3607 11000.438 3554610
-2926.8938 1728.3359 11019.407 4541508
-2818.9702 1702.5813 10855.202 4870215
-2659.5659 1643.8053 10480.462 5264974
-2585.2947 1636.0956 10431.307 5067851
-2456.9382 1592.9424 10156.174 5659732
-2399.4509 1594.7238 10167.531 5857882
-2434.4338 1659.6368 10581.399 6252640
-2267.9548 1587.0078 10118.337 7041642
-2240.5125 1610.368 10267.274 6515042
-2141.1543 1581.8997 10085.769 6712678
-2084.5168 1584.2656 10100.854 5922905
-2066.0098 1616.6077 10307.057 6580578
-1961.1412 1581.2856 10081.853 5856855
-1965.8143 1634.8431 10423.321 5988954
-1823.8999 1566.0134 9984.4814 5265231
-1761.6781 1563.288 9967.1045 4936266
-1728.2689 1586.8279 10117.189 5659989
-1650.167 1569.5499 10007.029 5528404
-1574.0273 1552.9202 9901.002 5331281
-1492.726 1529.7135 9753.043 4673095
-1446.2974 1541.8137 9830.1904 5528148
-1437.9554 1597.2349 10183.541 5659475
-1353.4935 1569.2555 10005.152 6054234
-1317.2184 1597.1403 10182.938 6120284
-1245.1223 1582.1841 10087.581 6515298
-1152.7572 1538.6653 9810.1172 6712421
-1143.3719 1607.165 10246.853 5067852
-1073.0093 1592.828 10155.444 6054747
-962.96112 1514.3777 9655.2656 6186079
-929.85858 1554.6671 9912.1406 7370354
-859.29669 1533.5367 9777.4189 6448996
-800.34009 1531.5599 9764.8154 4804427
-746.89758 1540.6493 9822.7666 6383202
-681.0863 1523.6055 9714.0996 6777961
-622.79187 1521.7828 9702.4795 5725528
-562.6059 1514.4977 9656.0312 5659481
-500.50214 1499.8164 9562.4277 5660250
-450.07013 1520.8275 9696.3887 6383717
-380.07309 1472.2021 9386.3662 6515303
-333.41211 1512.7928 9645.1611 7304818
-272.01071 1489.4592 9496.3926 5594201
-222.96786 1539.2749 9814.0039 5791579
-163.2235 1524.2958 9718.501 5396822
-103.2314 1489.4163 9496.1191 7831163
-46.882549 1486.5089 9477.582 6449767
9.0258236 1448.1672 9233.126 5923680
64.869789 1474.184 9399.002 5923680
120.02216 1467.7097 9357.7236 6581610
181.60739 1519.1371 9685.6104 5923680
240.59898 1529.3828 9750.9346 5331543
296.19324 1518.2469 9679.9355 5594715
347.16248 1490.8619 9505.3359 5068371
402.22394 1486.2421 9475.8809 6910318
461.61398 1496.7893 9543.127 7107954
524.35773 1514.7225 9657.4648 5002578
560.41864 1459.6311 9306.2168 5463129
613.30133 1454.2972 9272.209 6318438
666.38281 1450.2727 9246.5498 7305333
711.1806 1430.2009 9118.5781 6384231
795.09949 1486.0826 9474.8643 5265750
845.7016 1476.4299 9413.3213 3949890
892.39777 1461.5741 9318.6045 5528922
970.10834 1496.2858 9539.917 5068371
1011.3445 1474.0148 9397.9229 5857117
1052.3282 1453.7194 9268.5244 6251618
1092.9745 1434.9935 9149.1338 6186082
1145.5626 1432.9753 9136.2666 5593945
1202.8671 1436.7726 9160.4766 5527895
1294.6151 1479.6075 9433.5811 6975597
1365.522 1496.0637 9538.501 6054238
1404.5316 1477.6541 9421.126 5199955
1450.3776 1467.569 9356.8262 7831678
1421.4839 1385.3848 8832.8418 7239540
1462.3827 1374.6415 8764.3457 6054752
1569.4644 1424.714 9083.5938 5791836
1623.3187 1424.75 9083.8242 5528151
1702.3625 1446.1825 9220.4717 6251876
1709.4856 1407.0844 8971.1924 6317926
1802.4205 1438.8459 9173.6963 5988706
1838.1392 1424.4105 9081.6592 6053986
1855.4229 1396.9167 8906.3662 3948611
1883.4775 1378.8284 8791.04 6317158
1942.9434 1384.0896 8824.584 6317157
1956.3185 1357.1022 8652.5195 6382947
2000.6394 1352.4117 8622.6143 5725272
2072.032 1365.7993 8707.9707 4804428
2158.3142 1388.1129 8850.2354 7501940
2136.1575 1341.2798 8551.6406 6909803
2151.969 1319.9045 8415.3574 6909546
2187.408 1311.2629 8360.2607 7107182
2219.5908 1301.0955 8295.4355 7107182
2299.0598 1318.4866 8406.3164 7370353
2386.9861 1339.8875 8542.7627 7436400
2396.2874 1317.1814 8397.9951 7436144
2420.5608 1303.4614 8310.5205 6449503
2476.2439 1306.8654 8332.2227 6185561
2465.4866 1275.7568 8133.8833 6317402
2562.2307 1300.401 8291.0078 7633518
2621.9153 1305.6628 8324.5566 7370603
2608.0474 1274.7793 8127.6509 8686206
2635.0906 1264.6495 8063.0664 7172969
2733.4583 1288.5016 8215.1406 8291708
2790.2019 1292.2415 8238.9854 7830900
2841.3708 1293.3153 8245.832 5725013
2929.9089 1311.075 8359.0625 6120539
2883.5759 1268.8951 8090.1353 6317663
2979.3762 1289.6167 8222.25 6317407
3012.2305 1282.8636 8179.1948 7303787
3000.1335 1257.4836 8017.3784 5987925
3120.9338 1287.7295 8210.2178 5396042
3120.5276 1267.8033 8083.1743 7698796
3166.2012 1266.9178 8077.5288 5922644
3136.6318 1236.3994 7882.9512 6054232
3188.1804 1238.2825 7894.957 6185563
3162.2173 1210.4409 7717.4468 5988184
3184.1697 1201.4729 7660.269 6185563
3297.7771 1226.8547 7822.0962 6251612
3312.178 1215.1371 7747.3887 6185820
3382.0728 1223.8207 7802.7529 6777956
3436.197 1226.6406 7820.7314 6580577
3399.6594 1197.4518 7634.6313 5593167
3399.7097 1181.7474 7534.5049 5395786
3561.1187 1221.8119 7789.9448 5461577
3568.554 1208.6991 7706.3413 5725520
3622.6042 1211.5071 7724.2446 6645853
3702.0781 1222.6414 7795.2334 6448474
3739.7092 1219.8525 7777.4526 5856337
3788.6003 1220.7598 7783.2368 7435370
3834.301 1220.6296 7782.4072 8093300
3871.3301 1217.7747 7764.2046 6448732
3900.4231 1212.5199 7730.7017 7106659
3985.7566 1224.6675 7808.1509 6054229
4029.0718 1223.7738 7802.4536 4212281
4053.6428 1217.2717 7760.9985 6120024
4036.5427 1198.5425 7641.585 4540995
4139.1826 1215.3878 7748.9863 5988695
4122.2534 1197.1396 7632.6411 5133128
4099.7344 1177.6819 7508.584 5527628
4204.7183 1194.8749 7618.2017 4671806
4267.9727 1199.97 7650.687 4211255
4300.457 1196.3978 7627.9121 3947825
4333.6465 1193.0941 7606.8481 4408377
4405.3003 1200.339 7653.04 3158313
4519.5864 1218.9343 7771.5986 3289899
4591.5474 1225.8545 7815.7197 5000262
4695.1914 1241.0109 7912.3525 4473918
4705.1162 1231.3409 7850.6997 4803138
4801.7529 1244.3312 7933.522 4342588
4789.6724 1229.1693 7836.8535 4803137
4886.3076 1241.9305 7918.2158 4737599
4868.5991 1225.663 7814.4985 4869183
4966.7783 1238.6018 7896.9927 5526855
4974.3745 1228.9205 7835.2676 4868924
4967.6284 1215.9077 7752.3018 4210735
5018.6323 1217.1393 7760.1533 3749669
5036.0928 1210.2871 7716.4658 4276527
5061.8594 1205.5363 7686.1758 4144946
5091.6294 1201.8153 7662.4521 4737338
5091.3374 1191.1268 7594.3057 5263682
5181.2373 1201.5415 7660.7065 4342324
5155.022 1185.0817 7555.7627 3421223
5098.0342 1161.892 7407.9116 3618604
5208.207 1176.8704 7503.4097 3684910
5271.0674 1180.9949 7529.7065 3882290
5440.5674 1208.7424 7706.6172 4211254
5494.5557 1210.5782 7718.3223 4342842
5466.3853 1194.4319 7615.377 5329740
5333.3853 1155.8313 7369.2705 5264203
5442.9556 1169.9996 7459.6045 6250843
5473.3799 1167.0641 7440.8877 5198156
5631.4756 1191.1804 7594.6475 5593168
5651.9668 1186.0391 7561.8672 5987672
5770.9004 1201.4738 7660.2744 4671810
5802.7725 1198.6831 7642.4824 4145466
5852.3975 1199.5746 7648.166 5132361
5792.4023 1178.156 7511.6064 5000777
5852.4917 1181.3025 7531.668 5263693
5797.1714 1161.2828 7404.0278 5066570
5817.8403 1156.6714 7374.6265 4671814
5792.1729 1142.9851 7287.3667 3948091
5814.9971 1138.9995 7261.9556 5066059
5949.5527 1156.7969 7375.4268 4671301
5861.2744 1131.3241 7213.019 3487283
5897.7393 1130.1233 7205.3628 4342334
5923.5566 1126.9141 7184.9019 1645077
6024.415 1137.9249 7255.104 1710870
6016.1382 1128.3116 7193.8125 1381905
6032.0225 1123.3331 7162.0703 592647
6057.0454 1120.1141 7141.5474 197635
6011.3232 1103.9479 7038.4756 460550
6011.0552 1096.2942 6989.6777 1447699
6095.9824 1104.1769 7039.9351 3224366
6143.5601 1105.233 7046.6694 3882553
6113.4531 1092.3939 6964.8105 4079418
6192.1353 1099.0356 7007.1567 2895400
6126.7271 1080.1849 6886.9692 5000776
6278.5581 1099.631 7010.9521 5000519
6208.0903 1080.1438 6886.707 4342332
6186.189 1069.3059 6817.6074 4934726
6197.6099 1064.3311 6785.8892 3816245
6365.2295 1086.0719 6924.5034 4145210
6437.4546 1091.3619 6958.2305 3816245
6387.52 1076.0061 6860.3267 4013625
6229.8169 1042.8053 6648.6465 4276797
6135.6113 1020.5836 6506.9673 3619124
6122.0312 1011.9667 6452.0283 3750713
6095.3174 1001.2992 6384.0151 5263951
0 0 0 0
0 0 0 0
0 0 0 0
-9717.6494 1724.3766 10594.013 7568756
-9670.457 1727.1571 10611.096 7173999
-10013.626 1800.1493 11059.536 7371121
-10170.014 1840.3042 11306.235 7502964
-10136.927 1846.4781 11344.166 7503220
-9974.1221 1828.9482 11236.468 7502964
-9975.4229 1841.4767 11313.438 7436400
-9749.4238 1811.931 11131.92 7370863
-9563.6855 1789.5166 10994.212 7502446
-9522.5254 1794.0328 11021.959 7502189
-9350.8096 1773.8451 10897.932 7304810
-9248.2256 1766.582 10853.311 7239017
-9148.291 1759.7272 10811.195 7107944
-9066.7998 1756.3481 10790.437 7107944
-9028.0664 1761.2627 10820.63 7305068
-9019.8613 1772.2458 10888.106 7370861
-8951.0879 1771.4009 10882.915 7239018
-9117.1162 1817.3475 11165.196 7436652
-9089.0947 1825.0023 11212.226 7173480
-9073.623 1835.3082 11275.542 7107944
-9137.0723 1861.8488 11438.599 6976102
-9088.7432 1865.839 11463.112 7107688
-8881.5244 1837.0247 11286.087 6910309
-8755.6777 1824.7318 11210.563 7041896
-8763.6348 1840.3496 11306.514 7107688
-8715.1045 1844.2544 11330.504 6844774
-8539.7861 1821.181 11188.749 6054742
-8443.3232 1814.6949 11148.899 6449503
-8252.8203 1787.7356 10983.271 6252894
-8064.6011 1760.8463 10818.071 5792345
-7667.3477 1687.5195 10367.575 3358525
-7637.0332 1694.4208 10409.975 771
-7617.3228 1703.8062 10467.636 1185560
-7383.4971 1665.0607 10229.595 2436146
-7194.7778 1635.9299 10050.625 262
-7433.166 1704.2377 10470.286 1185302
-7696.4897 1779.4602 10932.43 5133136
-7756.8213 1808.629 11111.633 3751737
-7470.7271 1756.8306 10793.4 4935498
-7420.4658 1760.0758 10813.338 6185821
-7667.6099 1834.5338 11270.784 6515298
-7731.9556 1866.1802 11465.208 6186589
-7281.9761 1773.1497 10893.659 6120282
-7100.1572 1744.3364 10716.64 7173739
-7104.7002 1761.2007 10820.248 7765876
-7084.4336 1772.1658 10887.615 6976361
-7100.3994 1792.4795 11012.415 6383967
-7257.1118 1849.0304 11359.847 4936266
-7307.3145 1879.2487 11545.497 6778215
-7382.6211 1916.5549 11774.695 5857883
-7641.6055 2002.7112 12304.011 5133902
-7192.5913 1903.1876 11692.571 6448988
-6917.2021 1848.1172 11354.235 6515290
-6717.894 1812.4921 11135.366 5396809
-6578.6787 1792.5338 11012.75 6054739
-6533.1577 1797.9612 11046.094 5988691
-6528.4912 1814.8556 11149.887 6054487
-6540.3267 1836.7295 11284.273 5791573
-6390.4561 1813.1741 11139.557 5331282
-6327.5112 1814.0481 11144.926 2962733
-6213.3232 1800.0946 11059.2 4739144
-6195.001 1813.9135 11144.099 4344127
-6218.627 1840.4446 11307.098 4344381
-6198.3091 1854.4069 11392.877 6844264
-6224.1543 1882.6395 11566.329 6910056
-6034.4419 1845.5743 11338.613 7304813
-5932.8809 1834.9386 11273.271 5067338
-5810.8364 1817.6533 11167.075 6711648
-5714.709 1808.1703 11108.814 6646114
-5593.3403 1790.3867 10999.559 6316893
-5500.7856 1781.5157 10945.058 6448736
-5423.7231 1777.5104 10920.45 6909287
-5305.1729 1759.6473 10810.706 6646626
-5270.8374 1769.6221 10871.987 5857109
-5232.3506 1778.4327 10926.116 6054488
-5239.2915 1803.0975 11077.649 4804678
-5088.269 1773.3358 10894.804 6515038
-5058.6069 1785.6486 10970.449 6054488
-5018.0835 1794.3979 11024.202 6646624
-4913.7227 1780.2498 10937.28 6251866
-4811.0903 1766.3583 10851.935 5659728
-4786.0288 1780.9553 10941.615 6448987
-4703.0669 1774.1121 10899.572 6580830
-4629.623 1770.7186 10878.724 5922900
-4528.1924 1756.3739 10790.595 6383452
-4453.9517 1752.3158 10765.663 5067591
-4421.0991 1764.6597 10841.499 4869700
-4330.2461 1753.8755 10775.245 4080697
-4155.8867 1708.4401 10496.104 5725522
-4127.2598 1722.4436 10582.138 5857109
-4099.7295 1737.3436 10673.679 5922646
-4103.0679 1765.9967 10849.714 5593937
-3934.925 1720.5801 10570.688 5264972
-3800.459 1688.6581 10374.57 6383453
-3636.6223 1642.4218 10090.51 6383453
-3525.0505 1618.6393 9944.3975 6054487
-3626.3867 1693.4734 10404.154 5396557
-3526.3342 1675.2236 10292.033 4738627
-3413.7881 1650.2917 10138.859 5857109
-3388.5652 1667.4368 10244.193 5922901
-3263.042 1634.9513 10044.613 5264970
-3196.2649 1631.2408 10021.817 4541247
-3290.2935 1711.0117 10511.903 4738626
-3209.6663 1701.2839 10452.14 6580830
-3014.7803 1629.4193 10010.627 5988693
-2973.6985 1639.4664 10072.353 5922643
-2935.1228 1651.335 10145.269 5725264
-2805.394 1611.3434 9899.5742 5528142
-2725.1404 1598.6683 9821.7031 6515037
-2659.4895 1594.1937 9794.2119 6383453
-2586.5081 1585.0271 9737.8955 6317660
-2520.5715 1579.858 9706.1377 6054488
-2434.9685 1561.8333 9595.3994 5922902
-2436.9387 1600.4603 9832.7109 5922902
-2337.623 1572.8306 9662.9639 5791316
-2274.9929 1569.1171 9640.1484 5791315
-2223.4846 1573.0803 9664.498 5133386
-2177.5288 1581.2852 9714.9062 4804421
-2089.7944 1558.7733 9576.6006 4804422
-2041.2953 1565.087 9615.3896 5133387
-1969.2504 1553.1921 9542.3115 6448990
-1907.8666 1549.2513 9518.1006 6777957
-1836.2212 1536.4841 9439.6621 6120027
-1787.4862 1542.6874 9477.7734 5594195
-1718.468 1531.2201 9407.3223 5922905
-1663.8707 1532.264 9413.7363 6712933
-1580.692 1506.1471 9253.2822 5791575
-1537.5117 1517.635 9323.8594 6120541
-1463.2981 1498.2052 9204.4893 6383713
-1398.7433 1487.5435 9138.9873 6449506
-1391.6696 1539.6147 9458.8965 5199182
-1345.0409 1550.4596 9525.5234 5462095
-1291.9786 1554.5133 9550.4277 4540994
-1243.601 1564.8329 9613.8281 5856856
-1168.1801 1540.4813 9464.2197 5462098
-1075.1278 1489.2515 9149.4805 6383713
-1022.8632 1492.0798 9166.8574 6646885
-989.22247 1523.916 9362.4482 6581092
-906.06116 1478.7153 9084.75 5726039
-856.07336 1485.3647 9125.6016 4014908
-820.68842 1519.9558 9338.1182 5067850
-765.59308 1520.4043 9340.873 5002055
-701.10303 1500.8118 9220.5029 3356975
-622.02063 1444.0319 8871.666 5462611
-569.53949 1444.2261 8872.8594 5791577
-522.04419 1458.3884 8959.8682 5265233
-465.76053 1448.4266 8898.666 5922906
-420.20221 1473.5327 9052.9092 4278337
-361.90118 1454.7621 8937.5889 5988954
-307.13211 1446.1888 8884.917 4080958
-254.26328 1444.8671 8876.7969 6252381
-208.16409 1491.3562 9162.4111 5133643
-153.77586 1490.3093 9155.9795 5396817
-96.770966 1448.942 8901.832 6054493
-43.701855 1437.9965 8834.5859 5462613
8.6530132 1440.7908 8851.7539 5331028
61.154255 1442.24 8860.6572 6581095
114.33843 1451.0173 8914.582 5593944
166.95006 1449.278 8903.8955 6055264
216.46606 1427.9529 8772.8818 5726557
267.52164 1423.0752 8742.915 6647145
325.36612 1450.0355 8908.5498 6252644
368.05859 1411.3678 8670.9883 7437687
440.01779 1480.6541 9096.6602 6845294
487.10919 1460.2708 8971.4326 7305845
523.64966 1415.3799 8695.6377 8292741
574.14539 1412.8718 8680.2285 5332056
627.42346 1417.0603 8705.9609 5003091
678.26447 1415.5262 8696.5361 5397080
740.09174 1435.5182 8819.3604 6055266
782.95312 1418.5122 8714.8809 5462870
826.57825 1404.9084 8631.3037 6450022
865.80707 1385.8527 8514.2314 7305331
922.78912 1395.7473 8575.0215 6976366
982.57318 1408.6265 8654.1465 7437427
1026.2692 1398.308 8590.7529 7173742
1089.1874 1413.9177 8686.6543 7042156
1117.7565 1385.5406 8512.3145 6975082
1227.9988 1456.483 8948.1621 4212803
1269.6088 1443.5204 8868.5234 6844011
1308.2985 1428.3995 8775.626 5462357
1364.4872 1432.8098 8802.7207 6251874
1387.118 1402.9543 8619.2988 5857116
1444.3112 1408.9347 8656.04 6318180
1490.0601 1403.7236 8624.0254 6777961
1560.085 1420.9695 8729.9785 5857115
1607.5356 1417.2072 8706.8633 5791322
1667.0114 1423.9504 8748.292 6120288
1690.3451 1400.3457 8603.2715 6975340
1736.0649 1396.1252 8577.3428 6054237
1753.7091 1370.2089 8418.1211 6317409
1785.4194 1356.4121 8333.3584 5988187
1835.2006 1356.7169 8335.2314 5330512
1891.7242 1361.86 8366.8281 5461842
1920.9961 1347.6224 8279.3574 4146238
1987.9642 1359.8802 8354.666 5659477
2019.2714 1347.741 8280.0859 5856856
2008.9435 1309.0477 8042.3667 6317408
2095.4822 1333.8043 8194.4629 5988443
2091.9023 1301.3768 7995.2393 5593686
2171.5349 1321.0057 8115.833 6185822
2193.3691 1305.3854 8019.8667 6383201
2227.4146 1297.541 7971.6738 5857369
2281.429 1301.4135 7995.4644 7238251
2388.8569 1334.9777 8201.6719 7106923
2358.9714 1291.9978 7937.6177 4475202
2426.687 1303.1088 8005.8799 3158829
2446.7131 1288.676 7917.2095 4080699
2449.0149 1265.6263 7775.5996 5527886
2519.5364 1278.0322 7851.8174 7041127
2576.6692 1283.3199 7884.3037 7041383
2644.1494 1293.4813 7946.7314 7567728
2655.8206 1276.4635 7842.1797 7436141
2721.106 1285.3566 7896.8159 6120281
2776.3394 1289.281 7920.9268 6251356
2803.2356 1280.1345 7864.7329 7831159
2840.313 1275.8602 7838.4736 7502707
2879.9739 1272.8656 7820.0752 7041386
2911.522 1266.4366 7780.5781 5724755
2967.8201 1270.806 7807.4224 5593168
3076.7881 1297.2483 7969.8745 4079927
3031.4072 1258.7975 7733.6455 4606268
3052.5828 1248.7179 7671.7197 4672318
3069.6306 1237.2703 7601.3896 2172440
3139.0627 1246.963 7660.938 3421997
3173.2974 1242.5966 7634.1123 4277304
3218.7568 1242.6868 7634.666 5987925
3204.8291 1220.1639 7496.2935 5395787
3263.1409 1225.3844 7528.3667 5658958
3310.803 1226.519 7535.3369 4672064
3302.1455 1207.0366 7415.6436 5856336
3355.0588 1210.2765 7435.5483 5856592
3377.5569 1202.6029 7388.4043 5856336
3488.6257 1226.2584 7533.7358 4211511
3532.1218 1225.8643 7531.314 6119512
3484.1907 1194.145 7336.4414 5658960
3474.6602 1176.2063 7226.2314 5658960
3605.8965 1205.775 7407.8931 5527375
3634.3921 1200.6906 7376.6553 6053719
3747.2297 1223.2598 7515.3135 6316889
3792.8064 1223.5999 7517.4028 3948598
3752.4814 1196.541 7351.1621 6316890
3758.886 1184.8324 7279.228 6581088
3751.0552 1168.9534 7181.6719 6317406
3792.8 1168.7065 7180.1558 5528144
3860.2292 1176.2916 7226.7563 6185819
3881.0933 1169.6768 7186.1162 5396558
3965.7471 1182.2216 7263.188 5856853
3961.7766 1168.3612 7178.0342 6448733
3996.8835 1166.197 7164.7378 7106662
4023.3376 1161.5801 7136.373 6185816
