# .PCD v0.7 - Point Cloud Data file format
VERSION 0.7
FIELDS x y z rgb
SIZE 4 4 4 4
TYPE F F F U
COUNT 1 1 1 1
WIDTH 1263
HEIGHT 1
VIEWPOINT 0 0 0 1 0 0 0
POINTS 1263
DATA ascii
5169.0869 1117.8826 5810.4995 6316379
5127.9214 1101.6438 5726.0938 5263690
5244.5933 1119.3042 5817.8887 5790034
5187.8403 1099.963 5717.3579 6447963
5145.3848 1083.8849 5633.7871 6118998
5183.8877 1084.9578 5639.3643 5921619
5282.4878 1098.5146 5709.8296 6118998
5222.6836 1079.1677 5609.2686 5658960
5261.4038 1080.2948 5615.127 6053718
5262.6621 1073.7643 5581.1831 7632493
5201.5449 1054.6681 5481.9248 6909029
5231.313 1054.1224 5479.0884 6645601
0 0 0 0
0 0 0 0
0 0 0 0
-8155.0996 1763.123 8890.5479 7896688
-8154.7065 1774.4985 8947.9092 7370344
-8541.2627 1870.7756 9433.3867 7304551
-8613.6143 1899.0481 9575.9502 6581339
-8717.1689 1934.6207 9755.3252 6844511
-8607.6309 1923.0599 9697.0303 6646622
-8660.7207 1947.9215 9822.3945 6646621
-8746.3682 1980.4915 9986.6279 7107430
-8662.8262 1974.9336 9958.6025 7502187
-8666.4756 1989.3135 10031.113 7830895
-8816.5518 2037.735 10275.279 7896688
-8769.8711 2041.0381 10291.935 8225653
-8540.416 2001.5519 10092.825 8028273
-8383.6416 1978.6625 9977.4062 7304550
-8289.167 1970.2563 9935.0186 6712925
-8126.7314 1945.4607 9809.9863 6580313
-7936.689 1913.6515 9649.5879 6383447
-7833.1807 1902.3969 9592.8359 7634027
-7726.2729 1890.1459 9531.0605 7699564
-7719.8125 1902.4688 9593.1992 8225908
-7455.1294 1850.8662 9332.9932 8884095
-7297.0635 1825.1597 9203.3682 6910048
-7154.7227 1803.0294 9091.7754 6646620
-6855.3545 1740.6909 8777.4346 6449242
-6773.8906 1733.1523 8739.4209 7041379
-6710.9702 1730.2786 8724.9297 7634029
-6668.0508 1732.5568 8736.418 7831411
-6599.5518 1728.1725 8714.3105 7502188
-6649.1377 1754.885 8849.0078 6646623
-7114.9082 1892.7373 9544.1279 7172967
-7020.168 1882.494 9492.4766 6844001
-6953.1724 1879.5853 9477.8096 5856083
-7007.811 1909.7772 9630.0518 4934981
-6936.9033 1905.9698 9610.8535 5921875
-6859.3804 1900.2668 9582.0957 6316633
-6779.7007 1893.8663 9549.8213 6974564
-6782.4238 1910.5702 9634.0508 6514268
-6604.6934 1876.2937 9461.2109 6449244
-6515.6797 1866.8492 9413.5869 6317658
-6479.1724 1872.4152 9441.6543 6186328
-6361.417 1854.3943 9350.7832 6646880
-6174.2817 1815.6541 9155.4355 6843229
-6049.3735 1794.6885 9049.7168 6580314
-6068.4951 1816.4596 9159.498 6843486
-6038.6265 1823.8273 9196.6494 6646107
-6004.1958 1829.9388 9227.4668 6514521
-5959.8799 1833.1222 9243.5186 6514778
-5827.8003 1809.12 9122.4883 6975329
-5719.0728 1791.9857 9036.0879 6909279
-5581.8159 1765.5038 8902.5537 5593419
-5520.814 1762.8658 8889.252 5066821
-5635.0142 1816.6603 9160.5098 5725004
-5583.793 1817.6523 9165.5127 6382935
-5595.9858 1839.5095 9275.7266 6448728
-5612.8481 1863.3502 9395.9434 6646108
-5549.0869 1860.6349 9382.252 6645851
-5535.7178 1874.9326 9454.3477 6843487
-5409.9507 1851.0643 9333.9922 6711901
-5480.4194 1894.5408 9553.2217 6514265
-5329.3013 1861.5239 9386.7344 6251350
-5301.583 1871.3689 9436.3779 7435368
-5199.542 1854.9095 9353.3809 7237989
-5039.6694 1817.2423 9163.4443 6448729
-4857.4917 1770.6239 8928.3711 6448473
-4698.6367 1731.5743 8731.4639 6119509
-4731.373 1763.0479 8890.1689 6448728
-4693.5898 1768.6566 8918.4512 6843486
-4622.8213 1761.8218 8883.9863 5132868
-4516.5186 1741.1312 8779.6543 6580314
-4605.3994 1796.0787 9056.7275 6382935
-4644.2407 1832.5767 9240.7676 7304037
-4511.8257 1801.5627 9084.3809 5856591
-4433.834 1791.7939 9035.1211 6514521
-4413.021 1805.1753 9102.5967 5790798
-4402.396 1823.1069 9193.0166 5922384
-4236.7891 1776.5034 8958.0186 6251349
-4169.8096 1770.5968 8928.2344 6120020
-4185.106 1799.9235 9076.1143 6119762
-4129.5742 1799.1553 9072.2412 5922128
-4080.2812 1801.121 9082.1533 6316886
-3927.6809 1756.9277 8859.3086 5856334
-3927.3245 1780.5615 8978.4814 6382678
-3955.7974 1818.0941 9167.7402 5790798
-3777.1882 1760.1716 8875.666 6119763
-3784.2524 1788.3591 9017.8008 6316886
-3591.3806 1721.515 8680.7393 6119507
-3713.0344 1805.6857 9105.1699 5461579
-3571.646 1762.5323 8887.5693 6382681
-3492.7661 1749.3956 8821.3281 6119509
-3442.988 1750.6576 8827.6904 6580060
-3400.5088 1755.7267 8853.252 5922132
-3326.3572 1744.3455 8795.8623 6843233
-3281.6084 1748.2666 8815.6348 7106406
-3194.0876 1729.1591 8719.2852 6251095
-3058.6343 1683.0482 8486.7705 7106147
-3096.8701 1732.5677 8736.4727 7171940
-2984.5273 1698.0962 8562.6504 6711389
-2995.0759 1733.563 8741.4912 5329994
-2952.7224 1739.1188 8769.5068 5790545
-2894.8042 1735.5422 8751.4717 5461580
-2771.2661 1691.7761 8530.7812 6580062
-2803.4756 1743.2295 8790.2354 6251097
-2689.4585 1703.9845 8592.3418 5329995
-2678.9751 1730.0875 8723.9668 6053718
-2596.3542 1709.7147 8621.2363 5724752
-2571.8491 1727.5615 8711.2295 5593422
-2583.3875 1770.8464 8929.4932 4014904
-2456.4392 1719.0273 8668.1953 5198664
-2304.5222 1647.1489 8305.749 6053459
-2265.0876 1654.285 8341.7324 6382424
-2235.3313 1668.9651 8415.7568 4342841
-2261.9636 1727.377 8710.2988 6317403
-2180.0098 1703.6571 8590.6914 6514271
-2154.7021 1724.13 8693.9258 7041128
-2064.4785 1692.3896 8533.875 5790805
-2064.7056 1735.0653 8749.0674 5395788
-1986.5231 1712.3513 8634.5312 5659217
-1913.2748 1692.8019 8535.9541 4672066
-1844.411 1676.1759 8452.1172 5856340
-1779.6914 1662.4932 8383.1221 5725525
-1751.0204 1682.6661 8484.8438 6909543
-1659.6986 1642.047 8280.0225 6383199
-1657.0319 1689.3374 8518.4834 6843750
-1594.6144 1676.7695 8455.1104 4014908
-1552.2362 1685.1417 8497.3271 5396302
-1474.1552 1654.016 8340.376 6909286
-1402.8926 1628.6473 8212.4541 6580578
-1347.861 1620.9755 8173.769 5133132
-1340.1915 1671.8135 8430.1201 6382428
-1304.9915 1690.915 8526.4395 6053976
-1237.9174 1668.5917 8413.874 6120027
-1159.9541 1629.1018 8214.7461 5922648
-1125.1781 1649.4641 8317.4229 7435627
-1070.0533 1640.4949 8272.1953 6053715
-1003.864 1612.8872 8132.9839 4211511
-941.90576 1589.6367 8015.7437 5528398
-926.93628 1647.4298 8307.165 6580575
-861.30273 1616.6102 8151.7578 8422781
-828.37799 1647.1687 8305.8486 7107179
-769.83984 1627.4399 8206.3662 7041643
-716.92535 1617.7415 8157.4609 8291710
-652.01526 1577.6161 7955.1289 7765366
-604.82141 1577.4441 7954.2622 8950667
-557.94312 1578.136 7957.751 8884874
-545.15802 1684.2878 8493.0215 7305586
-494.60272 1683.4685 8488.8896 6712681
-438.81577 1662.6411 8383.8682 5988958
-377.1084 1611.2025 8124.4888 7896698
-327.83917 1605.6294 8096.3862 7962232
-277.02734 1589.2963 8014.0269 7567471
-237.26285 1642.6934 8283.2812 7501932
-184.01869 1606.2753 8099.6431 8225653
-137.47789 1623.3177 8185.5806 8554877
-88.933151 1622.3781 8180.8418 7567985
-41.583786 1667.1107 8406.4062 7963256
8.1719208 1657.8307 8359.6113 8094589
57.004456 1637.9556 8259.3916 8029053
105.49331 1631.1271 8224.958 8555138
155.74327 1647.2399 8306.207 6646885
205.29892 1650.0352 8320.3027 7107693
254.14403 1647.1429 8305.7188 6515556
289.64172 1572.7145 7930.4131 7107693
360.22064 1682.9622 8486.3369 5857113
403.47382 1654.174 8341.1719 6054235
455.6452 1664.2416 8391.9385 7370098
496.70352 1635.7312 8248.1748 7238001
538.23779 1613.755 8137.3594 8554372
589.25635 1621.4901 8176.3643 7172975
637.46033 1620.8934 8173.3555 7172716
700.25665 1654.866 8344.6621 5067339
749.85065 1655.2157 8346.4248 6383455
821.08081 1700.3268 8573.8984 8028025
871.04651 1698.712 8565.7559 8620418
924.13696 1703.0336 8587.5469 11120552
953.93994 1666.228 8401.9551 7370349
959.1687 1592.2786 8029.0649 6909543
1010.3694 1598.0275 8058.0532 4606788
1031.9008 1558.4485 7858.4766 6383200
1095.5383 1583.1335 7982.9517 7304300
1146.5597 1588.2986 8008.9961 7699571
1218.524 1620.912 8173.4492 8949380
1237.5563 1583.312 7983.8511 9738123
1347.0012 1659.8949 8370.0205 9869966
1370.5248 1628.9188 8213.8232 6448729
1390.2852 1595.7477 8046.5581 8027760
1425.5929 1582.0293 7977.3828 9474950
1469.3656 1578.2837 7958.4956 7237990
1496.4464 1557.399 7853.1855 6843231
1578.5317 1593.2931 8034.1802 7106403
1607.4266 1574.9692 7941.7822 7632749
1661.5455 1581.6993 7975.7192 7501163
1716.0934 1588.4545 8009.7822 7632749
1783.2343 1606.189 8099.208 6909026
1797.8921 1576.9602 7951.8218 6382681
1837.22 1570.3098 7918.2876 6119509
1929.6191 1608.2227 8109.4634 5922130
1972.5461 1604.063 8088.4873 5461579
1999.7528 1587.6201 8005.5742 4672062
2033.4543 1576.976 7951.9014 5329736
2066.3101 1566.1727 7897.4258 4737856
2097.8472 1554.8704 7840.4341 4803903
2118.6511 1536.2749 7746.6665 6053713
2165.021 1536.6134 7748.373 5067072
2211.6045 1537.0863 7750.7578 5001021
2276.6174 1550.088 7816.3193 5593162
2294.3672 1531.0327 7720.2324 5066819
2305.7871 1508.5809 7607.0195 6448473
2410.8396 1547.0754 7801.1279 6119251
2432.7705 1531.7845 7724.0239 3947824
2478.5906 1531.8225 7724.2148 6316628
2541.3721 1542.1515 7776.2988 6448214
2583.427 1539.7592 7764.2358 5461320
2615.0107 1531.3188 7721.6758 4671803
2640.678 1519.7638 7663.4092 5461318
2697.1956 1526.0542 7695.1284 5066561
2722.9424 1515.0149 7639.4629 4671802
2779.9482 1521.4445 7671.8838 5000512
2804.355 1510.1129 7614.7446 6053456
2815.802 1492.272 7524.7817 5922130
2885.0657 1505.1503 7589.7207 6974818
2999.7932 1540.9882 7770.4331 4935235
3009.9377 1522.8306 7678.8735 5593167
3047.2566 1518.7573 7658.334 7105893
3099.7654 1522.2633 7676.0132 6974562
3173.4048 1535.8948 7744.75 5527117
3211.436 1532.1494 7725.8638 6316633
3229.9092 1519.3096 7661.1187 6118998
3300.6365 1531.0643 7720.3921 7105893
3344.3398 1530.1339 7715.7002 5921619
3353.5872 1513.6761 7632.7124 6382170
3443.842 1533.7338 7733.8525 6448473
3500.3408 1538.4285 7757.5254 6382422
3594.3296 1559.265 7862.5942 6514009
3561.3965 1525.2125 7690.8843 5987664
3586.8953 1516.7285 7648.104 7040352
3649.7998 1524.076 7685.1538 6908768
3713.1985 1531.4463 7722.3179 5921872
3738.5767 1523.1471 7680.4692 6185044
3832.3904 1542.5938 7778.5288 6119252
3823.9839 1520.9221 7669.2495 7171941
3901.9971 1533.7275 7733.8213 7369320
3884.3999 1509.0911 7609.5923 5658701
3899.7781 1497.684 7552.0713 5066562
3970.8208 1507.6707 7602.4297 5461319
3974.1868 1492.0256 7523.5396 4539961
4097.6162 1521.3029 7671.1699 4144947
4093.5227 1503.1123 7579.4443 4736828
4058.7615 1474.178 7433.5425 5855567
4083.1189 1467.1064 7397.8848 4408376
4247.8423 1510.0846 7614.6021 5658441
4196.1899 1476.0474 7442.9688 5198148
4319.3438 1503.5682 7581.7432 4540218
4304.5083 1482.9828 7477.9409 5198148
4364.2446 1488.2463 7504.4824 4803391
4452.5112 1503.0348 7579.0532 5001027
4516.7344 1509.4926 7611.6167 5526861
4569.314 1511.9698 7624.1079 4737602
4497.9785 1473.7969 7431.6211 4342587
4563.0977 1480.641 7466.1328 5395274
4692.5469 1508.0272 7604.2275 5461323
4645.5259 1478.7203 7456.4478 5790542
4690.7925 1479.0651 7458.186 4277045
4743.4341 1481.7068 7471.5068 5132097
4970.1968 1538.1875 7756.3105 4342581
4967.5864 1523.2965 7681.2227 4539963
5048.0483 1533.9186 7734.7842 5000258
5064.8867 1525.1904 7690.7725 4671551
5112.1113 1525.6866 7693.2749 4803394
5204.6865 1539.5891 7763.3784 4803138
5203.8384 1525.8549 7694.1235 4474174
5254.3179 1527.2784 7701.3018 3618608
5305.916 1529 7709.9829 5460812
5314.7544 1518.4752 7656.9116 4868674
5352.5728 1516.3384 7646.1367 4802879
5451.3877 1531.3721 7721.9443 4605500
5482.7339 1527.3606 7701.7158 6381912
5501.1948 1519.8553 7663.8706 4868674
5482.8257 1502.3809 7575.7554 4539967
5505.8027 1496.4277 7545.7368 4145210
5363.3208 1445.9624 7291.2656 4934726
5453.9097 1458.6378 7355.1812 5856084
5319.7485 1411.4796 7117.3862 5658962
5364.8408 1412.2502 7121.272 6251099
5168.9487 1350.0665 6807.7109 6382941
5277.646 1367.7849 6897.0557 6119513
4921.8682 1265.7799 6382.6953 6580064
5122.9873 1307.4579 6592.8569 5856341
4928.4644 1248.296 6294.5327 5987414
5157.7754 1296.5663 6537.936 6250586
5457.8379 1361.7701 6866.7261 5329484
5279.8828 1307.6227 6593.6875 4934726
5349.1763 1315.0548 6631.1641 5132105
5377.106 1312.2834 6617.1899 5263692
5327.0029 1290.6465 6508.085 5526863
5239.1523 1260.2405 6354.7627 5658706
5276.7993 1260.2405 6354.7627 5526863
4966.2148 1177.6626 5938.3638 6119000
5023.0308 1182.7571 5964.0527 5987414
4979.1987 1164.2466 5870.7139 7171687
5012.8442 1163.9834 5869.3867 6053207
5096.792 1175.3234 5926.5684 5658449
5044.3193 1155.2649 5825.4238 6447965
4973.0718 1131.2084 5704.1182 5197898
5049.1079 1140.7526 5752.2451 5921621
4935.002 1107.4977 5584.5571 4868931
4973.3896 1108.6799 5590.519 5855569
5153.9707 1141.335 5755.1816 4605502
5184.0288 1140.4468 5750.7031 5066053
5132.2788 1121.6908 5656.126 4539965
5154.2739 1119.1908 5643.5195 4605501
4977.5625 1073.8544 5414.9106 5790033
5230.6826 1121.2362 5653.8335 5329482
5183.6392 1104.082 5567.334 5329482
5204.042 1101.4197 5553.9087 5329482
5089.4395 1070.3967 5397.4761 5921619
5040.6323 1053.5128 5312.3384 6119000
5098.2837 1058.9506 5339.7583 6382172
0 0 0 0
0 0 0 0
0 0 0 0
-7924.8989 1764.5367 8639.5869 6711902
-8007.1479 1794.4395 8785.998 6580058
-8097.8242 1826.6344 8943.6318 6185813
-8406.4619 1908.7429 9345.6543 6515034
-8194.6367 1872.9824 9170.5625 6844255
-8216.0947 1890.4198 9255.9404 6778462
-8288.7461 1919.95 9400.5264 6909792
-8367.9121 1951.3984 9554.5059 6778462
-8229.2764 1932.1383 9460.2031 7041890
-8342.1602 1972.0724 9655.7305 7765356
-8015.8223 1908.0101 9342.0664 6712668
-8045.8115 1928.4633 9442.21 6515290
-7753.123 1871.3203 9162.4248 6448984
-7753.5127 1884.6085 9227.4873 6711899
-7606.2979 1861.9536 9116.5625 6909535
-7617.77 1878.0973 9195.6064 7304292
-7461.6021 1852.8455 9071.9678 6777692
-7372.124 1843.9078 9028.207 6317141
-7219.2554 1818.8685 8905.6084 7041377
-7154.1299 1815.7299 8890.2402 7436392
-7016.2573 1793.9443 8783.5742 7436392
-6937.9067 1787.166 8750.3848 7502185
-6845.3955 1776.6101 8698.7012 6252119
-6869.0122 1796.2618 8794.9209 6580827
-6825.7402 1798.589 8806.3145 6646621
-6631.2788 1760.8065 8621.3232 6580828
-6379.8799 1707.2013 8358.8594 7041380
-6437.7271 1736.1565 8500.6309 7041380
-6444.7886 1751.7644 8577.0508 5857108
-6440.7744 1764.5856 8639.8262 7370346
-6717.2085 1855.0626 9082.8232 7962484
-6381.877 1776.6879 8699.082 7830898
-6382.0918 1791.2122 8770.1963 7830898
-6311.5635 1785.957 8744.4658 8423035
-6589.6699 1880.083 9205.3291 7765105
-6340.2393 1824.0135 8930.7998 7041382
-6527.3901 1893.6569 9271.79 6646623
-6254.4834 1829.8826 8959.5361 7699311
-6181.0146 1823.866 8930.0771 7304553
-6023.1421 1792.625 8777.1133 6844002
-6136.9258 1842.3949 9020.7988 7107175
-5962.3062 1805.6958 8841.1113 7172452
-5821.2119 1778.5894 8708.3916 6777437
-5823.8589 1795.3092 8790.2559 6448728
-5770.5903 1794.938 8788.4385 7040865
-5706.2974 1791.0996 8769.6455 6514521
-5689.8081 1802.3335 8824.6484 7106658
-5583.9297 1785.1976 8740.748 7435623
-5553.6562 1792.1384 8774.7314 7172451
-5442.0332 1772.7112 8679.6113 6580315
-5454.4932 1793.7184 8782.4668 6514267
-5291.3804 1756.8365 8601.8848 5593421
-5292.5146 1774.3005 8687.3936 5987667
-5222.9854 1768.1857 8657.4531 6448218
-5151.3994 1761.2462 8623.4756 6053716
-5176.8384 1787.6722 8752.8643 4935235
-5128.5366 1788.9114 8758.9307 5658957
-5127.832 1806.9481 8847.2432 5527371
-5196.3789 1850.0122 9058.0947 4540476
-5239.5762 1884.856 9228.6982 5001026
-5059.8765 1839.405 9006.1602 4803904
-4964.8062 1824.0787 8931.1182 5066819
-4780.6777 1775.3494 8692.5283 5396040
-4686.5225 1759.3352 8614.1191 5988177
-4543.2949 1724.3438 8442.793 5724751
-4336.6235 1664.2258 8148.4414 6185301
-4330.1621 1680.4523 8227.8896 6448474
-4383.3594 1720.464 8423.7969 5658959
-4393.1826 1744.177 8539.9014 6448473
-4339.0234 1742.7445 8532.8867 7633259
-4199.312 1706.5114 8355.4814 7699052
-4149.2871 1706.2954 8354.4238 6514521
-4157.0581 1730.1284 8471.1162 6580312
-4111.1812 1731.9432 8480.002 5988176
-4053.7056 1728.8562 8464.8867 5988175
-4040.7344 1744.9103 8543.4912 5659211
-3953.4165 1728.8591 8464.9014 5856589
-3892.5925 1724.1305 8441.749 6119761
-3696.9597 1658.7913 8121.8325 5856588
-3807.2346 1730.7968 8474.3887 4408882
-3806.2854 1753.4877 8585.4883 5329985
-3713.7607 1734.0347 8490.2422 5921868
-3687.3425 1745.3376 8545.584 6382934
-3504.6082 1681.9362 8235.1553 7040864
-3559.5505 1732.4208 8482.3398 7699051
-3417.9009 1687.3005 8261.4209 5198662
-3432.3853 1719.0671 8416.957 6777438
-3355.5647 1705.3674 8349.8799 6250838
-3280.2678 1692.0435 8284.6426 6448217
-3286.7207 1721.1238 8427.0273 6316887
-3282.0657 1745.1948 8544.8848 6185305
-3178.0535 1716.3604 8403.7041 6448477
-3045.8862 1671.1605 8182.3955 6514267
-3042.9773 1696.5649 8306.7812 6448475
-2886.0503 1635.5226 8007.9033 6645854
-2887.4075 1663.6384 8145.5649 6777440
-2846.1135 1667.718 8165.5396 6777440
-2791.551 1664.0294 8147.4795 8685435
-2831.8452 1717.7494 8410.5049 7040610
-2732.8149 1687.3683 8261.752 6514266
-2649.866 1665.9893 8157.0757 6777440
-2670.2415 1709.9836 8372.4824 6777439
-2579.9841 1683.4548 8242.5908 7040611
-2490.4707 1656.3972 8110.1104 3093801
-2451.8796 1662.8094 8141.5063 6185817
-2423.4937 1676.5388 8208.7285 6054487
-2416.7119 1706.0818 8353.3779 6449246
-2315.8271 1669.0391 8172.0078 7962486
-2196.0635 1616.5179 7914.8521 6712417
-2140.3838 1609.9062 7882.4795 5922901
-2110.9326 1623.1676 7947.4106 6908770
-2061.4343 1621.2672 7938.1064 5066822
-2010.6794 1618.2672 7923.417 3421998
-2001.3804 1649.2863 8075.2939 5593166
-1920.6324 1621.5035 7939.2627 5527374
-1854.5594 1605.0261 7858.5854 6382683
-1805.9506 1603.2037 7849.6626 6251097
-1753.353 1597.6508 7822.4736 7041124
-1670.6226 1563.5934 7655.7212 4738113
-1688.9036 1624.8138 7955.4712 5001030
-1630.8373 1613.9905 7902.4775 5593424
-1598.9774 1629.2297 7977.0923 3488049
-1537.6133 1614.4192 7904.5762 4804165
-1494.0159 1617.9182 7921.7085 6777956
-1445.1381 1615.7405 7911.0454 7041383
-1368.0538 1580.8234 7740.083 5857109
-1336.1072 1597.4509 7821.4961 5922903
-1289.614 1597.2567 7820.5449 6778212
-1234.6173 1586.1237 7766.0342 7304302
-1208.9202 1613.2266 7898.7373 6580578
-1140.5829 1583.3208 7752.311 7304301
-1101.0713 1592.5994 7797.7412 7041382
-1052.8359 1589.5199 7782.6631 7172969
-1008.6881 1592.6119 7797.8027 6975588
-982.61182 1625.9033 7960.8052 7764847
-926.73126 1610.749 7886.6064 5198920
-876.8526 1604.9712 7858.3164 5659730
-819.50726 1584.1124 7756.187 7765620
-775.177 1587.4281 7772.4214 8883845
-725.97437 1580.5547 7738.7676 9015432
-678.25635 1576.2048 7717.4697 7436656
-631.55219 1573.7523 7705.4624 7765620
-586.21368 1574.5862 7709.5449 8489602
-539.13477 1570.4911 7689.4937 8160637
-492.46973 1566.9569 7672.1895 6778729
-453.02634 1588.0183 7775.3115 6055004
-404.53134 1578.5273 7728.8413 8160637
-357.62857 1573.6196 7704.812 7700085
-313.10709 1579.2867 7732.5596 8226686
-266.91711 1577.0383 7721.5508 8292222
-222.48112 1586.3666 7767.2241 7765364
-175.80113 1580.3866 7737.9443 8752514
-130.14075 1582.5873 7748.7192 7897205
-84.14019 1580.795 7739.9438 6647138
-38.766232 1600.5809 7836.8208 6383195
7.6225634 1592.5781 7797.6367 7436396
53.667889 1588.1499 7775.9556 7172714
98.698486 1571.6541 7695.188 8752260
145.25699 1582.225 7746.9458 8291709
189.55707 1569.0261 7682.3213 7831158
235.12639 1569.4099 7684.2007 8818053
278.39493 1556.8033 7622.4751 8554111
320.922 1544.1477 7560.5107 7172715
365.0235 1541.24 7546.2734 6316890
420.93436 1583.389 7752.645 5856337
475.90387 1614.0522 7902.7798 6053460
520.22388 1606.3395 7865.0161 6974563
567.22321 1607.4877 7870.6377 6316891
608.81677 1594.3055 7806.0947 7106919
652.87775 1588.9899 7780.0679 6843490
702.52203 1597.0677 7819.6196 5922386
752.73315 1605.3553 7860.1978 5066819
816.6272 1640.1589 8030.6035 6119507
852.16858 1617.3201 7918.7798 3882800
867.90814 1561.2441 7644.2188 8159346
927.75458 1586.1372 7766.1011 6843486
979.06531 1594.7745 7808.3911 6646107
1023.5363 1591.994 7794.7769 4869698
1059.9431 1577.452 7723.5767 7106660
1108.2161 1581.0427 7741.1567 7172197
1160.072 1589.2565 7781.3735 6909278
1212.5392 1597.6476 7822.4585 6711899
1265.1766 1605.6371 7861.5771 6646363
1311.4077 1605.2177 7859.5234 9212291
1350.1384 1595.9611 7814.2002 8883326
1397.415 1597.0851 7819.7046 9672589
1414.303 1564.5206 7660.2612 8554108
1473.645 1579.4843 7733.5264 9014660
1521.521 1581.6265 7744.0151 7369578
1603.4381 1617.9934 7922.0762 5593167
1646.7114 1614.4062 7904.5132 7237990
1674.8674 1596.6067 7817.3623 6645595
1706.3406 1582.842 7749.9668 4606009
1720.9377 1554.5542 7611.4634 5724744
1775.606 1562.9836 7652.7358 6645592
1849.7396 1587.7013 7773.7598 6053456
1860.8489 1558.436 7630.4697 5790798
1937.8754 1584.4543 7757.8613 6711131
1942.2126 1551.2115 7595.0967 6251092
1995.0566 1557.3386 7625.0957 6711385
1994.2717 1522.2582 7453.334 5329989
2051.3013 1531.8726 7500.4082 5000769
2131.6135 1558.0974 7628.812 5658698
2151.7627 1540.1707 7541.0376 6053456
2148.8201 1506.7805 7377.5522 5856078
2235.0015 1535.9708 7520.4746 4737596
2187.4612 1473.9182 7216.6504 6250577
2295.8538 1517.2985 7429.0503 6053455
2294.7771 1488.0609 7285.8965 5855819
2408.7769 1533.1471 7506.6489 6119249
2447.9309 1529.8242 7490.3794 5592904
2497.6096 1533.0801 7506.3208 5396040
2573.6948 1552.147 7599.6768 5790797
2581.8765 1530.3113 7492.7637 7106658
2626.2168 1530.283 7492.625 5988434
2636.8523 1510.9424 7397.9297 4934976
2690.4487 1516.4489 7424.8906 6316629
2680.1069 1486.3196 7277.3706 5527114
2764.2627 1508.7207 7387.0513 3882290
2852.2954 1532.5065 7503.5122 4211254
2874.1777 1520.5659 7445.0488 6185044
2848.8213 1484.3726 7267.8374 5461579
2957.0847 1517.8428 7431.7153 5132357
3042.6584 1538.8552 7534.5977 6513756
3033.7341 1512.158 7403.8813 6119254
3079.0134 1512.8542 7407.2905 6579549
3082.5012 1493.2855 7311.4771 5855826
3226.4509 1541.3615 7546.8682 6316377
3217.9224 1516.2758 7424.043 5790032
3282.467 1525.8344 7470.8442 5329736
3324.3169 1524.7294 7465.4341 5198149
3406.4038 1541.8662 7549.3398 6185043
3340.0581 1492.2434 7306.375 4803390
3414.9561 1506.1868 7374.645 6119250
3469.9907 1511.1276 7398.8359 5263942
3479.3896 1496.3193 7326.3315 2171673
3535.9082 1501.8903 7353.6084 5658700
3474.8979 1458.0125 7138.772 5329476
3518.6423 1458.6146 7141.7202 5987405
3557.1606 1457.0619 7134.1177 4013871
3552.1223 1437.9136 7040.3633 3816493
3657.5347 1463.4019 7165.1597 5724491
3746.2893 1481.7168 7254.8345 5263940
3754.8972 1468.2766 7189.0278 5263939
3898.4324 1507.3066 7380.1279 5724234
3891.9333 1488.1046 7286.1104 4145201
3937.3369 1488.9513 7290.2559 4803132
4016.9695 1502.5831 7357.001 5657927
4041.3147 1495.4639 7322.1426 4342324
4029.8286 1475.3773 7223.7949 3158307
4062.3245 1471.6461 7205.5259 5066300
4100.4404 1470.0072 7197.5015 5000509
4126.3623 1464.0758 7168.4595 4671544
4182.9971 1469.0511 7192.8198 5263682
4189.1392 1456.3723 7130.7417 6711129
4325.4585 1488.7513 7289.2773 5132097
4288.3911 1461.4034 7155.3755 4276788
4429.9902 1494.8812 7319.29 4473911
4503.7969 1505.0552 7369.1045 5132097
4459.9497 1476.0946 7227.3066 6579541
4531.729 1485.5894 7273.7949 6447438
4490.2456 1458.125 7139.3232 4210474
4605.0991 1481.4673 7253.6123 4275754
4632.9165 1476.637 7229.9624 4012839
4677.8389 1477.2974 7233.1953 4736564
4646.127 1453.9635 7118.9473 5461059
4638.7993 1438.6117 7043.7812 5001022
4841.6318 1488.1284 7286.2271 5527112
4994.6382 1521.5911 7450.0679 5724491
4962.9546 1498.6954 7337.9653 7171938
5029.8345 1505.7028 7372.2749 5198148
5014.0508 1488.0566 7285.8755 5658698
5053.2188 1486.8812 7280.1201 5066302
5109.521 1490.7245 7298.938 4605494
5244.4907 1517.2623 7428.873 4407857
5176.9453 1485.2571 7272.1685 3814951
5279.498 1502.1782 7355.0186 3947053
5243.5903 1479.7489 7245.1987 4342326
5336.6377 1493.7794 7313.8955 5592651
5225.6035 1450.9196 7104.0435 4671807
5250.4478 1446.1704 7080.791 4408380
5065.4736 1384.163 6777.1875 4803138
5134.75 1392.0594 6815.8506 4342588
4985.3496 1341.0106 6565.9038 5526863
4882.0239 1303.0502 6380.04 5659219
4641.0742 1229.222 6018.5605 7698545
4680.7778 1230.286 6023.77 5724755
4682.7114 1221.4818 5980.6621 6250586
4865.7573 1259.698 6167.7773 6184793
5132.0366 1318.7321 6456.8223 6316378
4976.748 1269.3678 6215.123 6382169
5066.1211 1282.6736 6280.2715 4342330
5167.4302 1298.7853 6359.1582 5197639
5191.9243 1295.4967 6343.0571 4079415
5052.5977 1251.6726 6128.4834 4276281
4969.5181 1222.3083 5984.709 4012594
4775.0962 1166.1681 5709.8335 4934467
4838.6104 1173.3674 5745.083 5394761
4957.3726 1193.7701 5844.98 5460811
4944.3672 1182.3796 5789.209 5461068
5084.3081 1207.469 5912.0522 5658447
5021.1079 1184.3014 5798.6182 5592397
5002.1445 1171.8115 5737.4648 5723984
4958.7114 1153.7966 5649.2598 4802881
4906.4863 1133.9912 5552.2881 4737087
4998.5171 1147.5682 5618.7642 4868674
5138.1323 1171.8177 5737.4956 3815984
5140.3213 1164.6128 5702.2183 3289896
5146.1929 1158.3307 5671.46 3289640
5119.4478 1144.8363 5605.3882 3683628
5206.3203 1156.7598 5663.7681 3881007
5174.9844 1142.4347 5593.6294 4013107
5155.7959 1130.9567 5537.4297 4539709
5097.6685 1111.1361 5440.3838 5329224
5044.1553 1092.5641 5349.4512 5329225
5047.7852 1086.5239 5319.877 5592144
5110.0474 1093.1008 5352.0791 5723729
0 0 0 0
0 0 0 0
0 0 0 0
-7837.6543 1795.7306 8544.4746 6777693
-7839.6021 1807.8527 8602.1543 7106658
-7848.5386 1821.7559 8668.3086 7238244
-7776.4043 1816.9006 8645.2061 6711900
-7759.0718 1824.8694 8683.124 6711900
-7779.229 1841.8212 8763.7842 6843230
-8025.2266 1912.8301 9101.6602 6646107
-7987.0449 1916.6069 9119.6309 6580058
-7729.8584 1867.5238 8886.083 6843742
-7765.5786 1889.0186 8988.3594 6843742
-7568.2178 1853.7206 8820.4043 7107427
-7468.104 1841.9167 8764.2383 7502185
-7422.8438 1843.571 8772.1104 6909791
-7391.666 1848.7709 8796.8525 7304293
-7261.6338 1829.144 8703.4639 7304036
-7327.0483 1858.8201 8844.668 7501415
-7139.5918 1824.3097 8680.4609 7369828
-7033.5244 1810.2463 8613.5439 7172193
-7047.833 1827.1854 8694.1436 7040864
-6900.6978 1802.2106 8575.3076 6382935
-6863.7124 1805.8456 8592.6045 4935745
-6726.7266 1783.0284 8484.0352 5461832
-6612.2549 1765.8802 8402.4404 6185556
-6504.6665 1750.3243 8328.4219 6777951
-6546.7759 1775.12 8446.4053 6514779
-6542.6533 1787.6656 8506.1006 6515035
-6214.2422 1711.1124 8141.8433 6646622
-6283.7451 1743.7853 8297.3076 6251865
-6078.1855 1700.0397 8089.1567 6909539
-6137.333 1730.2244 8232.7822 6844259
-6097.0425 1732.6349 8244.252 6778210
-5906.917 1692.1608 8051.668 7172967
-5964.9141 1722.6865 8196.915 7172967
-5725.3184 1667.0621 7932.2422 5725777
-5867.5527 1722.6157 8196.5791 6712158
-5992.2065 1773.8926 8440.5645 6054228
-5896.0244 1760.1071 8374.9707 7040867
-5976.6968 1799.3312 8561.6074 6316888
-5983.7886 1816.885 8645.1328 7238759
-5866.1792 1796.5516 8548.3818 7041382
-5801.8755 1792.3313 8528.3008 7436139
-5586.6089 1740.9915 8284.0146 7435367
-5617.1279 1766.0161 8403.0869 7698538
-5533.0112 1755.1248 8351.2637 8685690
-5585.498 1787.7599 8506.5488 8028017
-5632.2656 1819.142 8655.8711 7435369
-5257.8188 1713.8044 8154.6523 7106659
-5220.5576 1717.439 8171.9468 6580316
-5074.7109 1685.0854 8018.0015 6580316
-5051.4277 1693.2029 8056.6265 6580315
-5056.231 1710.9795 8141.2109 6579804
-5002.1377 1708.9763 8131.6797 6448729
-4910.8013 1694.0865 8060.8311 5987923
-4940.6338 1721.1145 8189.436 6316888
-4898.1758 1723.246 8199.5771 7040611
-4949.4956 1758.7427 8368.4785 7040611
-4936.4971 1771.8718 8430.9502 6646109
-4946.3267 1793.5468 8534.084 6580059
-4906.1777 1797.3602 8552.2295 6645854
-4901.1431 1814.2513 8632.6006 6579804
-4823.8921 1804.4845 8586.1279 5922131
-4709.1128 1780.3214 8471.1553 6185557
-4382.189 1674.5708 7967.9712 6251094
-4398.2046 1698.9923 8084.1733 6645852
-4264.5239 1665.488 7924.7529 6645853
-4169.6904 1646.5785 7834.7769 6843231
-4119.3447 1645.0088 7827.3081 6777694
-4147.5605 1675.1331 7970.646 5527627
-4247.2319 1735.1433 8256.1875 6251349
-4040.0701 1669.7395 7944.9819 6909279
-3991.3774 1669.0601 7941.749 7040865
-3944.3286 1669.0601 7941.749 6711900
-3914.3682 1676.3782 7976.5703 7172452
-3958.2644 1715.8917 8164.585 8159091
-4006.0225 1758.0782 8365.3164 6514266
-3896.5649 1731.4614 8238.668 6120020
-3775.4883 1698.9409 8083.9287 6185556
-3609.7141 1645.2128 7828.2788 5396039
-3600.2727 1662.2659 7909.4214 7106657
-3591.1602 1679.9226 7993.4355 7238242
-3593.0791 1703.2808 8104.5786 7304036
-3507.1265 1685.0521 8017.8428 7896173
-3396.4067 1654.26 7871.3276 6317141
-3308.7151 1633.9829 7774.8442 5988176
-3312.4758 1658.9338 7893.5664 7369829
-3335.9358 1694.6061 8063.3027 7764586
-3232.5703 1665.9535 7926.9673 6646107
-3243.3555 1696.1526 8070.6616 6514521
-3101.9998 1646.5011 7834.4092 6448984
-3132.5271 1687.9603 8031.6807 7765102
-3082.0549 1686.3785 8024.1548 8159861
-3016.5774 1676.4083 7976.7139 8028531
-2927.9727 1653.0638 7865.6357 7238759
-2855.1772 1638.0341 7794.1211 8225654
-2805.3606 1635.9099 7784.0137 6974817
-2761.2012 1637.0688 7789.5283 6448729
-2751.9761 1659.3313 7895.458 7040611
-2688.4268 1649.0419 7846.498 7896176
-2609.5547 1628.8262 7750.3081 7435625
-2534.0603 1610.0325 7660.8838 7172452
-2535.5591 1640.3636 7805.2051 5988177
-2415.7607 1591.8915 7574.564 6317398
-2393.7698 1607.2554 7647.6689 6185301
-2345.7566 1605.4031 7638.8555 7040866
-2336.4595 1630.4957 7758.252 7633259
-2331.6697 1659.804 7897.707 7501673
-2186.2742 1588.1724 7556.8682 9607561
-2144.8586 1590.6591 7568.7002 9410440
-2129.9465 1613.3271 7676.5596 8949632
-2092.0215 1619.1727 7704.374 7370603
-2055.7019 1626.5491 7739.4731 9673358
-1967.2252 1592.0521 7575.3291 9277830
-2007.0232 1662.1794 7909.0093 6514782
-1922.5554 1630.2843 7757.2461 6646368
-1854.1611 1610.791 7664.4922 6843488
-1796.0748 1599.4987 7610.7607 6711644
-1722.6683 1573.63 7487.6724 7238244
-1671.5897 1567.3292 7457.6914 7107170
-1634.8448 1574.4908 7491.7686 5922897
-1611.8015 1595.6161 7592.2866 7699311
-1600.8403 1630.2585 7757.123 8489084
-1550.1951 1625.3409 7733.7236 10002324
-1516.9646 1638.9387 7798.4248 8884101
-1418.1014 1580.2534 7519.188 8686722
-1405.4551 1616.9528 7693.811 8028537
-1331.3796 1583.0703 7532.5908 8160122
-1300.1211 1599.5143 7610.8354 6712418
-1234.6157 1573.4932 7487.021 8159864
-1176.9327 1555.8738 7403.1846 7501934
-1156.6835 1588.2921 7557.4375 7370348
-1125.2456 1607.339 7648.0669 7370348
-1075.6147 1600.9062 7617.4585 8159863
-1031.0857 1601.8359 7621.8823 9542028
-981.72522 1595.0015 7589.3623 8028790
-920.68457 1567.6232 7459.0908 8160120
-859.28357 1536.84 7312.6177 7963253
-807.16553 1520.2722 7233.7842 8554622
-762.09772 1515.8699 7212.8369 8620671
-729.74359 1537.7352 7316.877 9212549
-684.6825 1533.8947 7298.603 7699822
-658.60382 1574.9294 7493.8555 7897203
-611.46405 1567.8922 7460.3706 7568241
-569.14893 1573.0933 7485.1187 7765622
-518.44641 1554.0325 7394.4233 9015690
-488.6629 1599.9447 7612.8828 8226686
-446.95798 1612.1923 7671.1602 7437170
-383.7963 1541.0573 7332.6846 8095356
-348.04138 1575.8558 7498.2637 8160378
-297.88989 1546.1156 7356.7529 7041898
-255.21382 1551.6299 7382.9907 7107690
-207.30414 1521.0253 7237.3677 7436399
-166.2395 1537.7792 7317.0864 9542030
-123.08612 1540.2155 7328.6787 8949893
-79.96978 1546.0232 7356.313 6646883
-37.247139 1582.4684 7529.7275 5396559
7.2967939 1568.7358 7464.3848 7305069
50.209751 1528.9142 7274.9048 6910311
95.083725 1558.0117 7413.3569 7041897
141.72754 1588.5596 7558.7104 7370348
184.3252 1569.9758 7470.2852 6844261
227.04819 1559.4489 7420.1958 5659986
266.44287 1533.1849 7295.2261 6186330
307.42264 1522.1003 7242.4829 6449248
355.6886 1545.3877 7353.2896 6975336
408.52505 1581.2843 7524.0933 6909543
449.43933 1568.5107 7463.314 6975592
483.19485 1535.2793 7305.1914 6383196
528.42908 1540.9851 7332.3408 6448476
561.61823 1513.3668 7200.9272 5790289
593.38416 1486.0836 7071.1079 6185558
647.77582 1515.3265 7210.252 5790797
700.15485 1536.5344 7311.1636 5659212
737.00616 1523.1802 7247.6211 6777693
815.40039 1592.4269 7577.1118 6185556
837.17706 1549.6458 7373.5503 5593165
898.15826 1580.0784 7518.355 2171674
925.75293 1551.6752 7383.2065 6580570
975.89447 1561.9211 7431.959 7369829
1013.1905 1551.6108 7382.9004 4738111
1035.3529 1519.9371 7232.1899 3948340
1099.2532 1549.6185 7373.4209 6382680
1156.2354 1567.6515 7459.2256 4934978
1192.5509 1557.368 7410.2939 5198149
1258.8386 1585.566 7544.4668 5329735
1329.2963 1616.9026 7693.5723 5659213
1362.4554 1602.297 7624.0757 6119509
1387.457 1579.343 7514.856 6316889
1420.104 1566.2484 7452.5488 5198151
1482.8197 1586.1068 7547.0396 2961188
1451.8546 1507.5293 7173.1509 6580061
1509.8578 1523.1738 7247.5908 7567210
1569.6617 1539.7196 7326.3193 4672319
1593.5278 1521.0713 7237.5864 5527372
1639.1923 1523.6622 7249.9146 6251095
1671.8374 1514.3281 7205.501 6974818
1754.2722 1549.4347 7372.5459 7238246
1772.6918 1527.6687 7268.9785 6317144
1803.5488 1517.3994 7220.1147 6119252
1871.0815 1537.7476 7316.9355 6382422
1903.2678 1528.7826 7274.2788 5198147
1934.3273 1519.3297 7229.2998 3882285
1970.9403 1514.5538 7206.5752 5856072
2027.5685 1525.0348 7256.4458 4935225
2023.2502 1490.1917 7090.6543 4803643
2057.1621 1484.351 7062.8628 6514007
2110.4324 1492.4326 7101.3174 6185043
2142.6343 1485.5907 7068.7622 4474168
2210.4573 1503.2355 7152.7197 6250835
2265.5427 1511.717 7193.0771 6316883
2350.989 1539.7703 7326.5605 6251089
2380.7346 1530.9868 7284.7671 5987662
2366.6775 1494.8492 7112.8164 6645593
2441.7612 1515.2946 7210.1001 5987919
2471.3625 1507.297 7172.0454 4672060
2503.7151 1501.2194 7143.127 5263939
2540.2432 1497.8055 7126.8833 5132862
2542.875 1474.8442 7017.6279 4079917
2611.0117 1490.0023 7089.7539 5132605
2662.0017 1495.0508 7113.7754 5197632
2677.2754 1480.1952 7043.0889 5724491
2698.0886 1468.8109 6988.9204 4211510
2772.7688 1486.6523 7073.814 5921870
2814.8936 1486.7675 7074.3618 5263942
2917.5708 1518.3926 7224.8408 5658700
2963.2407 1519.8638 7231.8408 5921873
3004.3389 1518.9816 7227.6431 5856081
3001.0667 1496.006 7118.3203 5526859
3039.8635 1494.3474 7110.4287 5329736
3044.6389 1476.2384 7024.2622 3487533
3129.9841 1497.1566 7123.7954 6185045
3137.0374 1480.5674 7044.8599 6250838
3220.4009 1499.9562 7137.1167 6514010
3227.8577 1483.946 7060.9365 6250838
3286.9111 1491.7627 7098.1299 6579804
3328.8943 1491.7323 7097.9854 6053203
3337.3789 1476.8787 7027.3086 5987671
3394.9326 1483.8381 7060.4229 5921877
3370.7781 1455.3499 6924.8696 7698287
3404.7495 1452.3414 6910.5547 6185047
3465.6436 1460.7518 6950.5737 6842720
3588.8088 1494.9039 7113.0767 6514009
3574.3459 1471.6001 7002.1919 6119250
3626.3018 1475.8627 7022.4741 6382421
3691.0137 1485.161 7066.7178 4474169
3720.0322 1480.05 7042.3989 3815725
3750.2866 1475.5387 7020.9326 4408630
3839.4785 1494.0607 7109.064 4474167
3907.676 1504.0997 7156.8325 5855819
3987.3098 1518.278 7224.2954 5329475
3946.6758 1486.8462 7074.7363 5790282
3999.0959 1490.7633 7093.3745 6250832
3988.4153 1471.321 7000.8643 5461059
4013.8777 1465.475 6973.0469 5131836
4014.9141 1450.9208 6903.7954 6381903
4046.6208 1447.6322 6888.1475 3618343
4128.5103 1462.1823 6957.3799 5395010
4216.7773 1478.681 7035.8848 6184783
4284.0557 1487.569 7078.1753 5921610
4290.27 1475.2865 7019.7324 5000509
4387.0078 1494.0692 7109.105 4671287
4380.2266 1477.5748 7030.6211 6512976
4370.6914 1460.4709 6949.2373 4013098
4457.6284 1475.6217 7021.3276 5262908
4552.312 1493.0331 7104.1743 2631445
4577.8413 1487.6523 7078.5723 3091742
4584.8252 1476.3973 7025.0181 4605238
4534.7319 1447.1304 6885.7598 4144430
4720.0283 1492.8335 7103.2251 5065532
4772.3555 1496.0453 7118.5078 4276273
4854.522 1508.4733 7177.6426 5065531
4852.5249 1494.7596 7112.3901 5065532
4927.8042 1504.8813 7160.5513 5460288
4917.7559 1488.9949 7084.96 5657410
4957.6982 1488.3853 7082.0596 4078378
5051.4395 1503.8018 7155.4141 3814180
5042.5952 1488.6761 7083.4434 3025178
5040.3887 1475.7438 7021.9087 3617829
5107.0518 1483.022 7056.54 3749415
5079.5791 1463.0682 6961.5952 3749672
4873.291 1392.3463 6625.0854 3683625
4939.293 1399.929 6661.1655 3420710
4999.6343 1405.7997 6689.0996 4604983
4862.8887 1356.597 6454.9824 4342328
4979.938 1378.4106 6558.7764 5066307
4749.7573 1304.5199 6207.188 5395016
4613.3638 1257.3252 5982.6255 5855826
4480.8496 1211.8993 5766.4795 5790032
4587.106 1231.2505 5858.5566 5724239
4752.3262 1266.019 6023.9932 5461323
4689.7466 1240.036 5900.3599 5526860
4733.5366 1242.3547 5911.3931 5131845
4819.1895 1255.546 5974.1597 4868672
4865.0854 1258.2627 5987.0864 5197636
4999.3003 1283.6166 6107.7256 4144436
4985.9961 1271.0015 6047.7002 3617836
4873.2969 1233.4098 5868.8311 3551786
4830.7637 1213.9839 5776.3979 3421228
4813.0542 1201.0254 5714.7393 3289386
4800.4414 1189.511 5659.9507 4737344
4860.127 1195.9469 5690.5742 5329225
4850.8154 1185.4329 5640.5464 4934466
4875.5903 1183.3357 5630.5674 5065795
4877.0444 1175.6453 5593.9751 3618092
4886.0391 1169.8641 5566.4673 4604732
4869.8911 1158.1809 5510.876 3946800
4938.3052 1166.6306 5551.0811 4473916
5018.0396 1177.6249 5603.394 3684143
5009.5688 1167.9109 5557.1733 3025698
5075.79 1175.6234 5593.8711 2696733
5145.4722 1184.0325 5633.8828 2104596
5155.397 1178.6708 5608.3706 1775630
5127.1504 1164.7065 5541.9258 2828319
5129.0991 1157.7356 5508.7568 3420459
5161.2676 1157.631 5508.2588 2696478
5044.3271 1124.2938 5349.6333 3617837
5082.3843 1125.7035 5356.3413 4473147
5101.9131 1123.0173 5343.5596 4736318
0 0 0 0
0 0 0 0
0 0 0 0
-7553.1265 1779.3225 8234.2871 6777693
-7442.5078 1764.6605 8166.4355 6646106
-7501.9136 1790.3845 8285.4795 6646107
-7499.1582 1801.5139 8336.9844 5857104
-7539.3931 1823.1875 8437.2842 7172964
-7462.7012 1816.6858 8407.1963 7370344
-7380.061 1808.639 8369.958 5659469
-7358.4727 1815.5468 8401.9248 5330504
-7394.083 1836.7573 8500.082 6909279
-7290.27 1823.3871 8438.208 6777692
-7246.8164 1825.0332 8445.8262 5856591
-7187.6636 1822.7212 8435.126 4540730
-6840.6465 1746.8657 8084.085 5330247
-6743.6304 1734.2328 8025.623 6843486
-6626.3027 1716.1597 7941.9849 7369830
-6497.0894 1694.7279 7842.8032 7238243
-6302.4009 1655.7855 7662.5869 7501415
-6390.8589 1691.207 7826.5093 6711900
-6332.791 1688.0878 7812.0747 6119763
-6269.9365 1683.6371 7791.4785 7106657
-6418.4268 1736.2927 8035.1562 7566698
-6373.7261 1737.0836 8038.8159 7633774
-6343.4365 1741.8434 8060.8433 7436138
-6224.6548 1722.192 7969.9014 7370344
-6182.7139 1723.6625 7976.7065 7238758
-6105.0547 1715.1212 7937.1792 6975843
-5977.1973 1692.2355 7831.2686 7238758
-5849.2969 1668.9791 7723.644 7633516
-5714.1426 1643.2704 7604.6699 7172966
-5791.9966 1678.8965 7769.5391 6646622
-5755.1753 1681.5867 7781.9888 6909794
-5656.6104 1666.1338 7710.4771 5725521
-5639.2871 1674.5538 7749.4424 6844002
-5558.0107 1663.9656 7700.4429 6646622
-5515.6533 1664.9503 7704.9995 7107174
-5485.748 1669.7413 7727.1719 6646622
-5497.0962 1687.2755 7808.3159 6646364
-5578.6567 1726.8411 7991.4155 6251093
-5722.6851 1786.5859 8267.9014 6119506
-5707.5991 1797.2592 8317.2939 5922641
-5513.1245 1751.1387 8103.8599 6843486
-5335.0581 1709.4655 7911.0059 7764588
-5231.481 1691.1333 7826.1689 7304037
-5178.3867 1688.9384 7816.0107 5658955
-5115.7295 1683.5564 7791.105 7764588
-5043.9741 1675.0553 7751.7637 8554874
-5045.123 1690.8312 7824.7705 6975842
-5055.0625 1709.8728 7912.8906 8028273
-4988.0288 1702.9915 7881.0449 7436136
-4908.0635 1691.5231 7827.9722 7633771
-4827.1387 1679.5021 7772.3418 8290675
-4671.2139 1640.9034 7593.7168 7567209
-4738.6118 1680.7657 7778.1899 6843486
-4706.6299 1685.8154 7801.5586 4211510
-4655.0981 1683.8933 7792.6641 3619885
-4564.1274 1667.5234 7716.9077 6448473
-4604.8413 1699.4208 7864.521 7303782
-4379.1196 1632.637 7555.4609 7040608
-4291.0068 1616.307 7479.8901 6975072
-4208.4194 1601.7397 7412.4756 7698795
-4199.6387 1615.252 7475.0078 7237988
-4173.5884 1622.34 7507.8086 7632749
-4163.3223 1635.7816 7570.0142 7040611
-4133.6401 1641.8047 7597.8877 7304037
-4129.0469 1658.0347 7672.9961 7237989
-4024.5701 1634.0712 7562.0986 5922385
-3909.198 1605.0945 7428.0015 6514521
-3928.8835 1631.5432 7550.3999 4738110
-3908.6726 1641.8427 7598.063 4540731
-3795.0334 1612.6803 7463.106 4935489
-3829.3362 1646.4384 7619.3311 6053969
-3810.7212 1657.9783 7672.7349 6317142
-3777.2427 1663.2518 7697.1401 5790798
-3735.6208 1665.025 7705.3457 6382935
-3704.1721 1671.4324 7734.9966 7238244
-3656.9712 1670.8031 7732.085 6646108
-3567.5945 1650.6442 7638.7944 6119762
-3500.2224 1640.2792 7590.8276 6646107
-3495.4854 1659.3784 7679.2144 6185556
-3382.3813 1626.8591 7528.7227 6382934
-3304.8193 1610.7942 7454.3774 6646106
-3249.6831 1605.3726 7429.2876 6119762
-3153.3694 1579.1807 7308.0776 6448727
-3209.1497 1629.4872 7540.8843 6119762
-3233.8262 1665.1978 7706.1455 5396038
-3175.9128 1658.7943 7676.5107 4738108
-3114.0339 1650.103 7636.2905 5659212
-3048.9412 1639.4277 7586.8872 6185302
-3058.009 1668.906 7723.3057 6448474
-3017.8105 1671.9843 7737.5513 6909280
-3030.1499 1704.7146 7889.0195 6580315
-2905.3752 1660.1237 7682.6631 6185557
-2820.0935 1637.0387 7575.8315 5987921
-2704.0613 1595.0681 7381.6011 6711900
-2707.4143 1623.2982 7512.2432 6711644
-2658.2969 1620.486 7499.229 6185301
-2684.8164 1664.4697 7702.7759 6317144
-2607.6404 1644.5763 7610.7139 5922385
-2536.7971 1628.047 7534.2202 6711644
-2517.3687 1644.5132 7610.4219 6974558
-2471.2563 1643.8304 7607.2622 5527111
-2333.2163 1580.8379 7315.7476 6053453
-2310.8604 1595.3247 7382.7886 4935228
-2248.1392 1581.9662 7320.9688 4540728
-2276.2415 1633.2498 7558.2969 4935488
-2264.8687 1657.6989 7671.4414 6053970
-2209.3232 1650.1566 7636.5381 5199176
-2176.7422 1659.8097 7681.21 5001284
-2105.1213 1639.4707 7587.0864 6777696
-2022.5026 1609.4923 7448.3535 5659473
-1960.6721 1595.0889 7381.6978 7040869
-1934.6011 1609.7837 7449.7017 4803650
-1824.0469 1553.2247 7187.9604 5593164
-1775.426 1547.9607 7163.5991 5461834
-1738.3805 1552.7781 7185.8926 6185813
-1680.222 1538.5051 7119.8413 6119763
-1632.2791 1533.092 7094.7905 5527626
-1594.7393 1537.422 7114.8286 5132869
-1570.1237 1554.7849 7195.1797 6382935
-1541.4531 1568.9895 7260.9155 5395786
-1567.5194 1641.3237 7595.6611 4014391
-1500.9414 1618.0602 7488.0034 5988181
-1446.0624 1606.3756 7433.9302 3422254
-1357.6483 1555.5343 7198.6479 6120023
-1276.9517 1510.5239 6990.3506 6119509
-1251.7015 1530.2834 7081.793 6711389
-1223.7382 1547.9812 7163.6943 4869441
-1188.4614 1557.3673 7207.1304 7567208
-1149.4181 1562.3329 7230.1104 6646109
-1104.0341 1558.731 7213.4414 5856850
-1099.3007 1614.5425 7471.7241 5528141
-1039.064 1590.0994 7358.6074 7699311
-975.3775 1558.005 7210.0825 7830897
-942.07178 1573.7218 7282.8154 8423291
-877.97406 1537.0406 7113.064 7634033
-831.56586 1529.1907 7076.7363 7370860
-788.13214 1526.2673 7063.2075 7501932
-756.1889 1546.516 7156.9131 7567979
-711.08838 1540.6632 7129.8281 6843740
-669.72681 1542.6835 7139.1777 7633515
-631.34143 1552.2941 7183.6533 7830895
-591.17169 1558.5895 7212.7866 8423035
-542.237 1540.9572 7131.1885 7436139
-494.81534 1525.0084 7057.3813 5462861
-449.62286 1513.6199 7004.6782 9344649
-412.22238 1528.8138 7074.9917 8620927
-375.30771 1549.4529 7170.5049 8686976
-330.51895 1538.7031 7120.7573 8358268
-290.70419 1551.3518 7179.293 8094841
-244.00793 1525.3191 7058.8193 8687235
-197.03322 1486.4172 6878.7905 7173741
-162.11562 1541.9044 7135.5723 9608081
-120.09825 1545.1903 7150.7783 9805463
-78.63308 1563.0334 7233.3521 10200478
-35.222687 1538.6416 7120.4727 10332065
7.0278649 1553.5096 7189.2788 9213584
49.684906 1555.58 7198.8599 9147532
92.777527 1563.0764 7233.5508 9673363
134.25822 1547.259 7160.3521 9410188
177.4718 1554.2128 7192.5322 9804947
217.53796 1536.2468 7109.3901 9607824
257.41116 1522.9677 7047.9375 9081480
301.51459 1534.9301 7103.2969 7765364
345.13358 1541.7983 7135.0815 8818052
391.23904 1557.0635 7205.7251 9607568
438.82104 1574.6234 7286.9878 9673361
480.38376 1569.3733 7262.6919 9475981
505.55249 1515.8312 7014.9116 8225142
545.68286 1511.8761 6996.6084 7238242
577.50586 1487.0875 6881.8926 7172449
617.75568 1485.8368 6876.1045 8488060
671.82117 1515.9147 7015.2974 8752258
719.11725 1528.1033 7071.7036 5988697
764.80347 1535.7173 7106.9395 7436399
819.13062 1558.9822 7214.604 7370348
839.11835 1517.8253 7024.1396 8225912
884.51141 1524.3406 7054.2905 8489083
932.43286 1534.4286 7100.9756 8751742
963.00702 1516.3309 7017.2241 8422263
1024.2583 1546.0358 7154.6914 8817277
1071.9138 1553.6737 7190.0376 7369829
1119.2029 1560.2168 7220.3174 4869697
1144.9109 1537.3008 7114.2676 7435370
1226.9587 1588.9751 7353.4043 9080197
1283.8386 1605.6295 7430.4771 7040614
1288.2439 1557.728 7208.8008 6514526
1317.465 1541.9448 7135.7593 7303785
1354.1394 1535.5952 7106.3745 6316890
1392.9012 1531.924 7089.3853 5198408
1452.7129 1550.9409 7177.3911 3027237
1481.739 1536.9437 7112.6157 3553582
1526.3094 1539.3984 7123.9751 7237992
1572.0493 1542.8687 7140.0347 6909026
1615.3513 1543.827 7144.4697 5593165
1616.1913 1505.1908 6965.6704 5000771
1671.3853 1517.839 7024.2031 4672058
1708.6437 1513.9806 7006.3472 6579801
1725.5394 1492.6902 6907.8203 5921873
1781.3048 1505.2319 6965.8608 5987665
1853.9061 1531.1101 7085.6187 5461322
1938.8198 1565.7858 7246.0898 6645595
1940.9008 1533.5128 7096.7378 5987665
1942.0411 1501.881 6950.353 6777440
1964.6493 1487.8199 6885.2822 5987664
1997.1827 1481.6946 6856.9351 5856080
2072.5979 1506.9927 6974.0093 6777180
2109.084 1503.5498 6958.0762 6842972
2163.6792 1512.9014 7001.3525 5066560
2184.2058 1498.5273 6934.8335 6448213
2281.5439 1536.4095 7110.1436 4540471
2257.251 1492.496 6906.9214 5987917
2364.1294 1535.3324 7105.1582 4540470
2386.1025 1522.4948 7045.749 5593415
2386.3872 1496.4979 6925.4419 5198145
2419.6562 1491.7147 6903.3062 4672059
2350.0566 1424.7261 6593.2983 3750956
2476.1936 1476.6534 6833.606 5724744
2519.429 1478.2677 6841.0767 4540471
2529.9229 1460.9243 6760.8154 5329475
2605.7314 1481.2501 6854.8784 4145460
2610.6748 1461.2863 6762.4907 4803390
2767.342 1525.5676 7059.9692 5000768
2804.7202 1523.1528 7048.7944 6382424
2833.7417 1516.3373 7017.2534 5987667
2881.1829 1519.4324 7031.5771 3948083
2914.5559 1515.1262 7011.6489 4079923
2827.4785 1449.2048 6706.5806 5461320
2949.0522 1490.5715 6898.0156 5263941
2982.5964 1486.9216 6881.125 4803389
2941.5864 1446.7036 6695.0054 5263942
3044.5393 1477.4163 6837.1362 3816496
3128.3513 1498.1561 6933.1152 2040086
3064.113 1448.3762 6702.7456 3750704
3212.5476 1499.1123 6937.5405 3816497
3179.8191 1465.0963 6780.1226 5461318
3287.9016 1495.9978 6923.1274 5724494
3343.429 1502.52 6953.3105 4803392
3363.5518 1493.1664 6910.0244 5987922
3394.9338 1488.976 6890.6318 5987665
3404.4763 1475.4202 6827.8989 4540220
3444.5024 1475.2386 6827.0591 4671803
3416.1907 1446.1327 6692.3633 5921870
3393.2068 1419.9243 6571.0767 6185043
3440.0337 1423.1919 6586.1982 5461320
3635.7117 1487.2775 6882.7715 5329221
3720.835 1505.218 6965.7964 6382165
3754.4421 1502.1533 6951.6133 6447958
3762.8616 1489.1868 6891.6074 6118735
3711.6069 1453.1357 6724.7715 5000510
3773.7996 1461.7944 6764.8418 6052427
3879.5581 1486.9692 6881.3452 5263166
3819.0603 1448.5598 6703.5957 4736821
3921.1736 1471.9844 6811.9985 5526336
3991.7893 1483.228 6864.0312 6776403
3950.4133 1453.0519 6724.3833 5328958
4108.7759 1496.213 6924.123 5394750
4077.7783 1470.2469 6803.9585 4276269
4080.5737 1456.8541 6741.9795 4539441
4156.7515 1469.666 6801.27 4670770
4167.0469 1459.1621 6752.6602 5986887
4150.2515 1439.4619 6661.4922 4606006
4241.2305 1457.1608 6743.3989 5592644
4348.5605 1480.0948 6849.5317 5460288
4409.9194 1487.1024 6881.9614 4999995
4497.4062 1502.7118 6954.1978 5328961
4544.6919 1504.7272 6963.5249 5789768
4547.6289 1492.1549 6905.3433 4868408
4541.7964 1476.955 6835.0015 4802359
4498.3833 1449.911 6709.8481 3946535
4506.8267 1439.9083 6663.5581 4406825
4704.0835 1489.8806 6894.8184 5065010
4837.4404 1518.9283 7029.2446 4868655
4844.0381 1508.0183 6978.7554 5197366
4868.5005 1502.8074 6954.6401 5328696
4889.2031 1496.5332 6925.605 4934198
4889.2939 1484.1067 6868.0981 4012842
4788.4648 1441.5049 6670.9468 4341809
4765.6118 1422.8818 6584.7637 4868154
4783.6162 1416.6611 6555.9756 4473654
4703.0835 1381.594 6393.6934 3355174
4683.2144 1364.7659 6315.8164 3157796
4638.5996 1341.0499 6206.0649 3026468
4556.8184 1307.0468 6048.7061 3158055
4551.272 1295.27 5994.2061 3947572
4563.5815 1288.718 5963.8853 4408123
4491.8276 1258.7104 5825.0171 4934208
4469.5762 1242.9261 5751.9712 4737343
4498.5537 1241.5192 5745.46 5066050
