# .PCD v0.7 - Point Cloud Data file format
VERSION 0.7
FIELDS x y z rgb
SIZE 4 4 4 4
TYPE F F F U
COUNT 1 1 1 1
WIDTH 1276
HEIGHT 1
VIEWPOINT 0 0 0 1 0 0 0
POINTS 1276
DATA ascii
2452.3306 1224.2734 2974.5232 787976
2469.4336 1224.0162 2973.8982 853777
2493.6958 1227.2863 2981.843 984843
2510.5322 1226.8811 2980.8589 2301220
2506.8879 1216.5431 2955.7412 3353910
2509.4207 1209.3251 2938.2041 4801870
2551.8008 1221.2772 2967.2434 1973287
2547.0908 1210.6831 2941.5037 1841443
2588.9158 1222.2014 2969.489 328972
2607.4424 1222.6398 2970.554 65800
2639.2197 1229.2438 2986.5991 65547
2680.9385 1240.3594 3013.606 16
2670.5374 1227.3738 2982.0557 19
2699.8103 1232.673 2994.9309 19
2704.7957 1226.8865 2980.8716 18
2740.6201 1235.0726 3000.761 395030
2766.4812 1238.6921 3009.5549 789788
2753.0386 1224.7798 2975.7534 2434615
2765.9263 1222.684 2970.6611 1118755
2783.3984 1222.6283 2970.5259 855583
2777.2847 1212.2781 2945.3789 592667
2774.9089 1203.6787 2924.4856 461338
2821.2996 1216.2081 2954.9272 790303
0 0 0 0
0 0 0 0
0 0 0 0
0 0 0 0
0 0 0 0
0 0 0 0
0 0 0 0
-2987.7427 1395.9731 3343.5625 8416613
-3009.4487 1415.4994 3390.3308 8548200
-3006.1763 1423.4603 3409.3984 8613478
-3001.3547 1430.7906 3426.9556 9140335
-2989.4663 1434.8287 3436.6274 8284256
-2993.9753 1446.8464 3465.4116 8021337
-2967.4912 1443.9492 3458.4724 7692116
-2951.9741 1446.3853 3464.3069 7955032
-2926.0737 1443.7321 3457.9524 7626320
-2901.2153 1441.5594 3452.7485 7099977
-2873.9814 1438.1671 3444.6233 6836805
-2854.353 1438.5593 3445.5627 6573376
-2836.1636 1439.6877 3448.2654 6507327
-2819.7734 1441.7523 3453.2107 6639168
-2794.6179 1439.3329 3447.4155 6704963
-2747.3918 1425.4268 3414.1084 6507839
-2768.5444 1447.0543 3465.9097 5849910
-2731.6609 1438.4445 3445.2876 5849912
-2711.6108 1438.6357 3445.7458 4994092
-2685.4409 1435.5585 3438.3752 4731177
-2643.4624 1423.9188 3410.4966 4731178
-2618.5369 1421.3561 3404.3586 4993838
-2638.7756 1443.4596 3457.2996 5585973
-2528.6824 1394.0569 3338.9729 5849145
-2287.4675 1271.0182 3044.2771 8941159
-2254.7715 1262.8073 3024.6106 11243655
-2182.408 1232.0706 2950.9915 10651003
-2129.6208 1211.9784 2902.8679 10058093
-2090.8315 1199.5902 2873.1963 10649715
-2111.0652 1221.1404 2924.8123 9859429
-2115.7727 1233.9918 2955.5933 9859426
-2101.5884 1235.9474 2960.2771 12227968
-2120.8354 1257.7623 3012.5273 13478287
-2103.5225 1258.0817 3013.292 13346441
-2130.5383 1285.1459 3078.1147 12490878
-2123.4285 1291.9147 3094.3271 10188641
-2126.2014 1304.8667 3125.3491 9333591
-2127.4399 1317.0962 3154.6406 9662815
-2136.3723 1334.348 3195.9612 10452333
-2112.7012 1331.3624 3188.8105 5717293
-2160.8652 1374 3290.9338 5257000
-2159.3933 1385.5652 3318.634 4861989
-2141.2961 1386.5775 3321.0588 5059111
-2150.8411 1405.674 3366.7974 5059624
-2153.3352 1420.4766 3402.252 5125674
-2135.3093 1421.8948 3405.6489 6178618
-2113.6372 1420.889 3403.2397 6573376
-2068.137 1403.6912 3362.0483 6112569
-2090.4392 1432.6251 3431.3496 6112569
-2075.5332 1436.3776 3440.3374 6508095
-2019.9454 1411.7714 3381.4016 6507839
-1993.7948 1407.4523 3371.0566 6244667
-2010.191 1433.384 3433.1672 6244667
-1971.4122 1420.101 3401.3521 5323309
-1913.9238 1392.9269 3336.2664 5520947
-1900.2622 1397.4149 3347.0159 5718326
-1883.3971 1399.6172 3352.2905 5191726
-1836.9933 1379.6812 3304.541 4599588
-1808.9956 1373.2885 3289.2295 4665125
-1802.5725 1383.3132 3313.2402 5126446
-1795.894 1393.3605 3337.3049 5915961
-1811.1781 1420.8611 3403.1729 6244415
-1763.0861 1398.7026 3350.1001 5783865
-1741.7035 1397.4703 3347.1487 5389878
-1738.0005 1410.5585 3378.4966 6245188
-1695.6541 1392.2231 3334.5808 6705741
-1676.6271 1392.8278 3336.0291 7034963
-1661.5247 1396.746 3345.4136 4534320
-1648.0936 1402.1809 3358.4309 2890008
-1603.4958 1380.9081 3307.4795 2890522
-1596.0132 1391.4675 3332.771 5061433
-1598.5815 1411.1639 3379.9468 6377292
-1558.9946 1393.6752 3338.0586 7429719
-1539.0485 1393.5205 3337.6882 7626842
-1511.3806 1386.2794 3320.3447 5850688
-1483.9275 1379.0468 3303.0215 6245444
-1497.2498 1410.0208 3377.2087 7231825
-1468.1202 1401.3137 3356.354 7297873
-1455.8654 1408.6954 3374.0344 7231822
-1426.0364 1399.0413 3350.9114 6047032
-1412.5416 1405.3657 3366.0593 5586738
-1415.5609 1428.5369 3421.5574 6244924
-1377.1368 1409.9503 3377.04 6245181
-1362.8513 1415.8938 3391.2754 6574403
-1322.0851 1394.092 3339.0571 7101003
-1296.0398 1387.3866 3322.9966 7101517
-1274.1097 1384.9475 3317.1548 6640453
-1242.0243 1371.2203 3284.2761 6903624
-1216.8547 1364.813 3268.9294 7101003
-1210.7159 1379.8883 3305.0371 8350814
-1201.5417 1391.9427 3333.9092 7692885
-1182.7732 1393.0996 3336.6802 6968904
-1150.5151 1378.1378 3300.8442 6903367
-1134.0255 1381.873 3309.7908 7890264
-1117.588 1385.8043 3319.2065 7495250
-1101.2323 1389.9797 3329.2075 7297870
-1076.8177 1383.95 3314.7654 7429458
-1045.3361 1368.4447 3277.6279 7363918
-1025.9554 1368.4939 3277.7456 7495504
-1012.8613 1377.0918 3298.3391 7429712
-998.37061 1384.092 3315.1057 7692629
-975.65564 1379.7428 3304.6885 7034186
-956.64276 1380.5579 3306.6409 5850684
-937.94135 1381.8661 3309.7742 8152410
-917.26575 1380.2594 3305.9258 7494481
-892.40906 1372.1538 3286.5117 7626581
-871.39148 1369.7212 3280.6853 7823958
-848.95441 1364.8955 3269.1272 7889238
-829.77057 1365.1969 3269.8489 7823446
-811.19171 1366.532 3273.0466 7362639
-795.33374 1372.6282 3287.6479 3942690
-764.49127 1352.5201 3239.4863 6703937
-747.16931 1355.9128 3247.6123 6441529
-716.95264 1335.4658 3198.6387 6244406
-698.08502 1335.6226 3199.0139 5520689
-682.02509 1341.3096 3212.6353 5126187
-663.98492 1343.3169 3217.4431 6310462
-647.69708 1349.0929 3231.2773 5652277
-630.28119 1352.7994 3240.155 4006940
-600.71106 1329.8324 3185.1455 2559496
-579.65918 1324.8445 3173.1987 5322024
-560.85254 1324.8257 3173.1541 5190176
-541.22906 1322.8093 3168.3245 5847335
-528.41101 1337.8788 3204.418 6308402
-504.84915 1325.8552 3175.6199 4335387
-488.255 1331.9084 3190.1182 8481626
-466.78983 1324.6262 3172.676 6178618
-447.76407 1323.9458 3171.0464 8875621
-432.534 1334.9204 3197.3323 10322811
-415.77036 1341.9504 3214.1702 8217693
-400.87003 1355.9579 3247.7202 6769732
-375.32361 1333.5516 3194.054 6309438
-357.59677 1338.0248 3204.7676 5651509
-338.3887 1337.1462 3202.6636 5585460
-319.02658 1335.5187 3198.7651 7296592
-299.03278 1330.8739 3187.6404 6638661
-281.89957 1339.1926 3207.5649 6638662
-262.58276 1337.5909 3203.7285 6704454
-245.11497 1345.892 3223.6108 6243905
-227.14015 1352.5769 3239.6221 6178368
-207.74142 1351.2338 3236.405 5783611
-186.60046 1337.1333 3202.6326 5059887
-167.25638 1334.1742 3195.5449 5323316
-150.4763 1353.5227 3241.8875 5126193
-129.56696 1335.9563 3199.8135 4270885
-109.04634 1317.0638 3154.5632 5454903
-90.406906 1317.777 3156.271 6901836
-71.43499 1312.7516 3144.2346 6309956
-53.263496 1324.079 3171.3655 5651769
-35.232414 1353.145 3240.9829 4599080
-15.969874 1347.8931 3228.4036 5322804
3.1204624 1332.7494 3192.1323 5980478
22.0355 1332.9989 3192.7297 5848378
40.779446 1327.4484 3179.4358 5979707
59.68644 1329.036 3183.2383 6045499
77.84314 1317.1658 3154.8071 6308671
97.578117 1331.4269 3188.9648 6506306
117.0332 1337.8623 3204.3784 6769480
132.98042 1307.9977 3132.8484 6703688
151.92931 1311.3568 3140.894 6243135
171.67375 1320.1005 3161.8364 5190706
193.05923 1338.5012 3205.9089 5519415
212.05014 1338.4911 3205.8845 5979964
231.45744 1340.8948 3211.6416 5650999
251.26419 1345.0717 3221.646 5124656
271.13663 1348.9857 3231.0205 5387828
286.85632 1333.0847 3192.9353 5519674
305.44495 1331.6589 3189.5205 3282199
323.70984 1329.0699 3183.3196 5124657
343.40982 1332.334 3191.1372 4400933
363.64017 1337.2075 3202.8101 4269092
381.95715 1334.9106 3197.3088 4663850
400.86911 1334.812 3197.0728 3874591
418.33374 1330.1204 3185.8354 3479832
431.44455 1312.5883 3143.8433 2954003
453.26147 1321.8977 3166.1409 5519931
472.55188 1323.3917 3169.7192 5652029
493.67392 1329.7048 3184.8403 4467502
513.29559 1331.661 3189.5254 4073515
522.47791 1307.3564 3131.3123 4666167
541.77765 1309.1667 3135.6484 5192000
570.78113 1333.5281 3193.9973 4730937
582.35376 1316.9086 3154.1912 5060156
602.48615 1320.0773 3161.7808 4928058
620.3811 1318.3004 3157.5249 4467762
640.08722 1320.3638 3162.467 4664883
651.68689 1306.0634 3128.2153 4401453
666.14728 1298.1284 3109.21 3414558
683.95685 1296.9716 3106.439 2757141
717.44098 1324.8197 3173.1396 4598319
737.7226 1327.4886 3179.5322 5913920
751.17255 1318.0376 3156.8955 5782333
769.95502 1318.1752 3157.2249 5584954
785.43799 1312.7913 3144.3296 5058610
800.67279 1307.2517 3131.0615 5453368
812.74976 1296.9241 3106.3252 5519161
835.23859 1303.3 3121.5969 5650747
849.84229 1297.3625 3107.3757 5782077
877.90997 1311.7952 3141.9441 3545371
889.48492 1301.4962 3117.2764 4729902
905.40161 1297.84 3108.519 4795953
918.35736 1290.1694 3090.1472 5059639
938.94257 1293.308 3097.6643 5652803
949.7536 1283.1211 3073.2651 4864831
974.79572 1292.182 3094.9673 4735054
1002.704 1304.6377 3124.8005 4671323
1018.3616 1300.9911 3116.0664 4606307
1030.7838 1293.4144 3097.9194 4476008
1039.9504 1282.0895 3070.7944 4872054
1040.6725 1260.9221 3020.0955 4674675
1060.3184 1263.0115 3025.0999 4476782
1058.8768 1240.3306 2970.7754 4278112
1090.7919 1256.8251 3010.2822 5131361
1111.7649 1260.3842 3018.8069 5459035
1132.1786 1263.2065 3025.5669 5917782
1155.0439 1268.6335 3038.5654 5060927
1173.9142 1269.5735 3040.8169 5258560
1187.3767 1264.7251 3029.2041 5322812
1204.6667 1264.0371 3027.5564 4598833
1223.8568 1265.3337 3030.6619 4006440
1250.7601 1274.4523 3052.502 5520191
1287.8497 1293.5421 3098.2251 8283496
1296.6108 1284.0417 3075.4702 5585983
1299.7402 1269.3047 3040.1729 5717313
1301.2286 1253.3898 3002.0542 5717568
1332.1598 1265.882 3031.9751 5256504
1348.2358 1264.1138 3027.7397 5716542
1363.3999 1261.5477 3021.594 5979971
1369.8654 1251.1041 2996.5798 4466219
1388.7152 1252.0935 2998.9497 4927540
1422.5806 1266.4254 3033.2764 4993849
1424.3112 1252.149 2999.0825 6441808
1436.8197 1247.5829 2988.146 6573394
1453.6934 1246.8721 2986.4434 5849927
1469.2428 1245.056 2982.0938 6442064
1482.1277 1241.0521 2972.5037 6705235
1500.0175 1241.2838 2973.0588 6836820
1518.0066 1241.5914 2973.7954 6967380
1541.3569 1246.2266 2984.8975 6572364
1572.9336 1257.3323 3011.4973 5519933
1564.0243 1236.1893 2960.8567 5585983
1588.6637 1241.7379 2974.1462 5980743
1612.9598 1246.8993 2986.5085 6507599
1641.7279 1255.3679 3006.7925 7363423
1644.2366 1243.791 2979.064 7757927
1670.3452 1250.1227 2994.2292 6969188
1675.5594 1240.8478 2972.0144 3219501
1688.5082 1237.4341 2963.8379 458758
1694.1753 1228.8091 2943.1799 524297
1698.0928 1219.1039 2919.9343 458763
1710.6348 1215.7234 2911.8379 524299
1737.9905 1222.8335 2928.8674 2497576
1722.147 1199.7089 2873.4805 7825010
1738.3708 1199.1575 2872.1599 6837597
1751.0004 1196.1615 2864.9839 9139326
1775.134 1201.0063 2876.5881 6902877
1809.1257 1212.3652 2903.7944 9074044
1818.2822 1207.0239 2891.0012 9073787
1848.4537 1215.6024 2911.5481 7823207
1866.8949 1216.3794 2913.4089 7428706
1863.3887 1202.9733 2881.2993 8613493
1894.3684 1211.8718 2902.6128 9469061
1906.1776 1208.457 2894.4338 9009536
1935.7085 1216.2379 2913.0701 9140865
1947.5635 1212.8732 2905.0112 7956333
1982.3063 1223.6965 2930.9346 8219249
1974.528 1208.3109 2894.0837 9403270
1994.9802 1210.3173 2898.8894 9337220
2015.2339 1212.1699 2903.3267 10126991
2035.1278 1213.7766 2907.1748 9798025
2051.7642 1213.4298 2906.3442 10192524
2087.2952 1224.1703 2932.0693 8876663
2124.7498 1235.8523 2960.0493 7561059
2147.1028 1238.6311 2966.7051 8811126
2147.7078 1228.9205 2943.4468 8811382
2177.4277 1235.8918 2960.1443 6574678
2212.4492 1245.7371 2983.7249 6837596
2214.04 1236.7517 2962.2039 6508632
2243.6206 1243.4198 2978.1746 6903392
2233.0981 1227.932 2941.0791 7364456
2271.4927 1239.374 2968.4846 6903905
2275.4941 1232.0192 2950.8684 7693935
2278.6311 1224.3116 2932.408 6969697
2317.2351 1235.6333 2959.5249 6904160
2369.6665 1254.1027 3003.7617 7364197
2348.7678 1233.7773 2955.0796 6903905
2379.6155 1240.7335 2971.7405 6969952
2379.7637 1231.6981 2950.0996 6838881
2386.334 1226.0941 2936.6772 7167588
2396.991 1222.656 2928.4424 7167845
2399.1851 1214.9816 2910.0608 6708065
2434.0928 1223.8649 2931.3379 4800581
2468.1604 1232.2031 2951.3091 6182493
2466.1404 1222.5343 2928.1509 5392206
2485.1689 1223.3619 2930.1333 3549744
2509.7815 1226.908 2938.6265 4338490
2492.1636 1209.9031 2897.8972 5128263
2504.1121 1207.3865 2891.8696 5326157
2536.23 1214.563 2909.0583 5457999
2561.614 1218.4396 2918.3435 6181723
2623.5859 1239.5508 2968.9077 3746870
2642.686 1240.2601 2970.6069 3812662
2629.7939 1226.045 2936.5596 3286832
2657.0574 1230.6147 2947.5046 1905692
2666.3994 1226.8788 2938.5564 590862
2676.988 1223.761 2931.0889 393486
2691.5879 1222.5052 2928.0813 327695
2684.6865 1211.5625 2901.8718 458769
2683.5422 1203.3405 2882.179 393232
2712.0061 1208.4154 2894.334 131089
2720.1023 1204.408 2884.7356 65553
2722.6338 1198.0021 2869.3926 15
2722.8147 1190.6477 2851.7778 1777198
0 0 0 0
0 0 0 0
0 0 0 0
0 0 0 0
0 0 0 0
0 0 0 0
0 0 0 0
-2959.0173 1402.1693 3311.4163 7758424
-2964.3923 1414.0913 3339.5718 7757398
-2908.9492 1396.9669 3299.1301 7033672
-2908.4912 1406.1949 3320.9233 6441280
-2906.3528 1414.7308 3341.082 6967880
-2881.6665 1412.3326 3335.4185 7231052
-2879.8518 1421.1885 3356.3328 6441536
-2874.8872 1428.6022 3373.8411 6046519
-2840.9509 1421.6221 3357.3567 7560527
-2850.9875 1436.7029 3392.9722 8481630
-2817.8745 1430.099 3377.3762 8547422
-2797.1516 1429.7338 3376.5137 8678751
-2734.3391 1407.6947 3324.4653 8876131
-2720.2078 1410.5797 3331.2786 8613216
-2707.333 1414.1632 3339.7417 7889236
-2684.7109 1412.6708 3336.2168 7297356
-2684.0435 1422.7938 3360.124 7363151
-2653.1257 1416.913 3346.2356 6113084
-2599.7891 1398.8806 3303.6497 5191984
-2565.9644 1391.1533 3285.4004 5718326
-2551.2715 1393.7593 3291.5549 5586996
-2466.9966 1358.1002 3207.3411 4928809
0 0 0 0
-2219.4265 1240.9265 2930.6191 9468013
-2224.5522 1253.5989 2960.5466 8349529
-2221.5005 1261.8278 2979.9802 8479833
-2186.2324 1251.7426 2956.1628 3150858
-2178.0876 1257.1498 2968.9326 5846313
-2163.9131 1259.1362 2973.624 6636598
-2152.7571 1262.9263 2982.5747 7228993
-2100.0752 1242.2161 2933.6648 8543824
-2097.6128 1251.1135 2954.6772 8673864
-2114.6814 1271.9078 3003.7859 13609108
-2117.8003 1284.5938 3033.7454 13281419
-2128.7258 1302.2725 3075.4961 12491647
-2110.7537 1302.4253 3075.8572 9267538
-2096.1028 1304.6481 3081.1064 9465177
-2114.501 1327.6608 3135.4541 9334106
-2108.7788 1335.8026 3154.6821 8018763
-2113.1084 1350.514 3189.4253 6703418
-2149.2903 1386.0319 3273.3057 7493704
-2132.6294 1387.8091 3277.5027 7099977
-2105.2612 1382.5869 3265.1699 7099976
-2073.1025 1374.0928 3245.1099 6705218
-2071.2266 1385.6997 3272.521 6442047
-2077.5527 1403.0652 3313.532 3745052
-2058.3682 1403.3688 3314.249 4796710
-2036.0162 1401.4982 3309.8313 5125676
-2025.0381 1407.4965 3323.9971 5454641
-1994.6082 1399.96 3306.1985 5389361
-1973.5573 1398.9221 3303.7476 5849654
-1957.2394 1401.2518 3309.2498 6047545
-1927.7119 1394.0759 3292.3027 6113853
-1906.0078 1392.4689 3288.5073 5784887
-1876.9291 1385.3853 3271.7786 5849911
-1866.6906 1392.2052 3287.8848 5520947
-1852.3485 1396.0763 3297.0269 5455153
-1797.1208 1368.8867 3232.8149 5257775
-1792.8547 1380.3475 3259.8811 5191725
-1762.0443 1371.3984 3238.7468 4665127
-1766.9186 1390.3315 3283.46 4468005
-1753.3622 1395.0222 3294.5374 4008742
-1740.3546 1400.2601 3306.9075 4929326
-1725.7682 1404.3325 3316.5249 5060656
-1684.53 1386.561 3274.5554 4600620
-1676.9928 1396.4386 3297.8826 5521466
-1655.12 1394.4709 3293.2356 5653308
-1634.6302 1393.6356 3291.2629 5127220
-1598.4768 1379.2644 3257.3232 5390393
-1578.0233 1378.2545 3254.9382 5521978
-1554.4503 1374.4613 3245.98 6048065
-1530.3948 1370.1407 3235.7766 6113346
-1535.6362 1392.2729 3288.0447 5060912
-1505.6461 1382.6207 3265.2498 5784379
-1494.3615 1390.1179 3282.9553 6113602
-1465.6331 1381.3721 3262.3008 6771531
-1460.0739 1394.5212 3293.3545 6245187
-1459.3673 1412.7244 3336.3435 6442565
-1427.6602 1401.0054 3308.6675 6837323
-1407.3434 1400.2936 3306.9863 4863274
-1410.8202 1423.5699 3361.957 6507841
-1379.6846 1412.0879 3334.8406 6179133
-1347.4664 1399.1482 3304.2815 6377023
-1317.7001 1388.4104 3278.9226 5784630
-1279.2083 1368.0198 3230.7676 5784887
-1261.1765 1369.2228 3233.6086 6705989
-1231.1877 1357.2812 3205.407 6113851
-1212.079 1357.1478 3205.092 6771526
-1198.2723 1363.0413 3219.01 6705990
-1183.6075 1368.1334 3231.0359 7231822
-1170.8307 1375.6111 3248.6953 7232079
-1159.1156 1384.6071 3269.9407 6705479
-1133.564 1377.0997 3252.2109 6310979
-1118.1035 1381.804 3263.3206 5455413
-1100.2161 1383.6212 3267.6123 5587255
-1077.9352 1379.8798 3258.7764 5718071
-1060.9458 1382.8989 3265.9067 5586740
-1032.3416 1370.6097 3236.884 5981498
-1017.8642 1376.9661 3251.8953 6705989
-992.41205 1368.4346 3231.7471 6705476
-979.78271 1377.5966 3253.3843 5915703
-945.10394 1355.5022 3201.2056 6244412
-922.8111 1350.6311 3189.7017 6046778
-908.6546 1357.7136 3206.428 6178877
-895.36914 1366.4277 3227.0078 6902859
-874.21198 1363.2472 3219.4963 6705478
-848.77576 1353.1031 3195.5398 5784117
-827.12823 1348.674 3185.0796 6441790
-812.42896 1355.6317 3201.5115 5849655
-792.23206 1353.5297 3196.5471 6770757
-776.62262 1359.3541 3210.3025 6507841
-752.2052 1349.667 3187.425 6770755
-730.1723 1343.8698 3173.7339 6705219
-712.21887 1345.4725 3177.5193 5981497
-692.78088 1344.2819 3174.7073 6969163
-674.40094 1345.135 3176.7219 5982267
-657.31042 1348.6829 3185.1008 7100492
-642.08044 1356.3707 3203.2566 6179134
-620.12164 1349.8795 3187.9268 6573635
-600.32208 1347.8284 3183.0828 6968393
-576.63043 1336.6224 3156.6184 5389359
-560.23029 1342.1334 3169.6333 4796709
-539.86664 1338.202 3160.3489 2232071
-527.90234 1355.5562 3201.333 5389103
-502.60297 1338.6857 3161.491 5915192
-482.04749 1333.6335 3149.5598 5652020
-459.86761 1323.4998 3125.6272 5717814
-447.2771 1341.2715 3167.5977 6902087
-427.63809 1338.5376 3161.1414 8217693
-406.47629 1330.5685 3142.321 8020569
-389.89447 1337.5461 3158.7998 7033160
-368.91129 1329.3672 3139.4841 7625812
-348.89676 1323.9956 3126.7983 8283999
-330.01379 1322.5565 3123.3997 8152413
-313.31467 1330.2181 3141.4937 8218205
-292.26114 1319.1929 3115.4561 7428690
-277.57498 1337.3593 3158.3584 7823191
-259.5665 1340.9877 3166.9275 7033932
-240.83694 1341.1661 3167.3489 7166033
-222.40953 1343.1993 3172.1506 7100753
-202.36176 1334.9191 3152.5955 6771530
-185.36293 1347.1127 3181.3926 6508360
-165.6743 1340.3063 3165.3184 6705739
-146.39966 1335.5391 3154.0598 6442054
-125.0257 1307.4237 3087.6614 6112321
-106.07026 1299.297 3068.4692 6967630
-87.370613 1291.5901 3050.2683 6506821
-69.063301 1287.1761 3039.8442 6309699
-51.05275 1287.13 3039.7351 7691352
-33.355618 1299.2418 3068.3389 7099472
-15.063158 1289.4042 3045.1057 7296595
3.0166721 1306.7025 3085.9583 6309442
21.150764 1297.6333 3064.5403 7099215
39.407246 1300.9827 3072.4502 7428180
56.810692 1282.9514 3029.8669 8151392
73.11499 1254.7163 2963.1858 7493719
93.745613 1297.2837 3063.7144 7230547
113.58495 1316.8677 3109.9646 6309700
129.4525 1291.3643 3049.7349 6769736
151.4834 1326.0608 3131.6755 8085854
168.90195 1317.2155 3110.7861 9402227
184.56734 1297.7831 3064.894 9402226
203.77892 1304.5334 3080.8359 7099217
223.98444 1316.0139 3107.9485 7033423
243.82379 1323.7622 3126.2471 6770251
262.74481 1325.7826 3131.0186 7098189
282.63898 1332.1234 3145.9932 6637897
297.92041 1317.2838 3110.9475 7098706
315.92761 1315.5236 3106.7903 5914687
332.66269 1308.9514 3091.2693 5322293
356.72327 1330.3853 3141.8884 5651516
376.2132 1333.4927 3149.2271 6243651
390.90067 1320.0885 3117.571 6243910
412.10172 1328.8978 3138.3755 5914690
426.4502 1315.8031 3107.4504 4006948
444.20447 1313.8657 3102.8752 5783361
466.64468 1325.3918 3130.0957 5585727
481.45795 1315.2021 3106.0312 5059639
498.37378 1311.2948 3096.8037 4599088
520.34937 1320.5054 3118.5557 5651519
532.26746 1304.4362 3080.606 5519935
556.3504 1318.2568 3113.2454 5848643
567.77441 1302.1578 3075.2253 5388349
589.75214 1310.5116 3094.9541 5059384
613.1283 1321.3756 3120.6108 5125433
626.4823 1310.6367 3095.2493 4928054
640.48438 1301.8258 3074.4412 5322811
665.56024 1315.3879 3106.47 5190969
675.59552 1299.2943 3068.4629 4730674
695.43591 1302.4072 3075.8145 5585984
713.88483 1302.8215 3076.793 5190968
735.11267 1308.1606 3089.4019 5585726
756.54706 1313.599 3102.2451 4467243
766.3537 1299.0687 3067.9299 5256503
784.8205 1299.5515 3069.0703 5716283
805.0791 1302.9126 3077.0078 5650747
823.38208 1303.0298 3077.2847 5650747
837.57343 1296.7761 3062.5156 6177091
854.59521 1295.0769 3058.5027 5782844
871.87634 1293.8333 3055.5657 5125171
896.315 1303.0454 3077.3215 5454138
910.76794 1297.663 3064.6101 4533036
927.49817 1295.6719 3059.908 5191225
944.60327 1294.2709 3056.5994 4469306
962.14868 1293.5146 3054.8132 4735836
987.88867 1303.5996 3078.6304 4804719
1004.7924 1301.8702 3074.5461 4280176
1013.4393 1289.6949 3045.7925 4083054
1027.3732 1284.5559 3033.656 4477299
1037.1094 1274.4353 3009.7549 3491172
1042.3772 1259.2589 2973.9136 4543347
1057.8304 1256.687 2967.8398 4081509
1086.803 1269.9974 2999.2742 3422294
1096.8668 1261.1389 2978.3535 4014168
1107.5414 1253.2521 2959.7278 5394532
1137.8607 1267.4939 2993.3616 5723236
1148.9764 1260.2355 2976.22 5915977
1179.981 1274.6814 3010.3362 5192509
1190.6566 1267.0638 2992.3462 5059640
1210.8558 1269.6558 2998.4673 2561304
1224.5493 1265.4497 2988.5342 4466990
1248.1392 1271.4446 3002.6919 4664112
1251.0144 1256.4663 2967.3186 4993077
1270.2655 1258.1224 2971.2297 4729905
1281.8833 1252.2761 2957.4229 4466734
1291.2401 1244.4086 2938.8425 4795955
1305.589 1241.4974 2931.9675 5059386
1329.6133 1247.7423 2946.7156 4270384
1336.358 1237.8198 2923.2825 2691094
1363.7233 1247.0071 2944.9792 5519936
1378.0365 1244.178 2938.2979 5454399
1407.3073 1254.7556 2963.2783 5783108
1420.3943 1250.8208 2953.9861 5454144
1429.4625 1243.486 2936.6638 5520193
1451.8215 1247.7501 2946.7341 5257278
1469.5201 1247.9552 2947.2185 5783879
1465.0366 1229.5389 2903.7261 5849670
1497.0017 1241.7849 2932.6465 6375500
1521.6699 1247.7665 2946.7727 5520191
1536.2632 1245.4446 2941.2891 5388606
1547.4592 1240.4517 2929.4976 5191227
1554.9004 1232.5925 2910.9375 4599091
1573.7311 1233.8358 2913.8735 4994105
1589.7166 1232.8455 2911.5347 5323331
1605.9675 1232.0802 2909.7275 5125696
1639.267 1244.2715 2938.519 4928576
1656.0614 1243.8104 2937.4299 3218723
1668.2743 1239.9536 2928.3215 2956324
1679.0901 1235.1484 2916.9734 2364447
1678.0084 1221.7784 2885.3984 655625
1694.4993 1221.3439 2884.3721 458760
1698.2424 1211.8215 2861.8838 393224
1725.1956 1218.8859 2878.5671 2037024
1723.4905 1205.7625 2847.5745 7825776
1741.0331 1206.2288 2848.6755 3614511
1761.5911 1208.755 2854.6416 7955565
1774.8121 1206.2467 2848.718 7034722
1789.4597 1204.7462 2845.1743 4666174
1821.6763 1214.9915 2869.3701 10060944
1832.6503 1211.0104 2859.968 7824238
1844.3962 1207.6075 2851.9319 4534332
1851.2812 1201.1127 2836.5935 5520971
1863.342 1198.0626 2829.3901 5916242
1888.2297 1203.2405 2841.6187 7560811
1899.0358 1199.4331 2832.6267 7825008
1914.7162 1198.7439 2830.9993 7101284
1930.6135 1198.2014 2829.718 6574685
1967.5735 1210.6278 2859.0647 8942976
1989.3765 1213.5958 2866.074 7231844
1992.2421 1205.0588 2845.9128 7823981
2018.2443 1210.5424 2858.863 9008510
2040.1837 1213.5182 2865.8906 9535109
2068.405 1220.1506 2881.554 9008766
2088.8093 1222.1007 2886.1597 10390416
2119.3376 1229.8945 2904.5657 7231581
2122.9927 1222.0933 2886.1418 5718598
2146.6685 1225.8494 2895.0125 5323844
2137.2832 1210.8163 2859.5095 6836826
2167.8848 1218.4946 2877.6431 6639703
2218.6865 1237.3185 2922.0984 5850186
2217.6113 1227.1442 2898.0703 7034203
2218.1855 1218.0319 2876.5503 6704725
2226.5513 1213.3044 2865.3857 6770774
2268.6978 1226.9171 2897.5339 6771029
2296.8022 1232.7883 2911.3999 8416109
2323.1619 1237.6426 2922.8638 8810610
2328.907 1231.524 2908.4141 7889508
2355.2849 1236.3258 2919.7542 7494751
2338.7686 1218.7061 2878.1426 7823718
2355.0593 1218.3129 2877.2139 7495525
2370.1614 1217.3147 2874.8567 7956075
2408.0996 1227.9761 2900.0349 7495526
2418.0417 1224.3109 2891.3794 6771802
2444.623 1229.0634 2902.6025 5652808
2450.7358 1223.53 2889.5352 5850445
2448.9385 1214.152 2867.3875 6048338
2477.1836 1219.6951 2880.4783 6180181
2473.5825 1209.5896 2856.6125 6114645
2475.2861 1202.1976 2839.1558 6443866
2492.2551 1202.2697 2839.3257 6246743
2535.6194 1214.9884 2869.3628 6377818
2531.949 1205.1504 2846.1289 5128778
2590.0491 1224.6494 2892.1785 6181209
2585.5437 1214.485 2868.1738 7891315
2614.7512 1220.1854 2881.6365 7233638
2606.7244 1208.5492 2854.1558 5918294
2630.9221 1211.907 2862.0854 4799815
2660.9509 1217.8903 2876.2161 3878714
2670.8894 1214.661 2868.5896 2300711
2649.0186 1197.0978 2827.1116 1775392
2673.0947 1200.3884 2834.8828 657165
2676.4033 1194.3702 2820.6702 131593
2685.7163 1191.0896 2812.9224 9
0 0 0 0
0 0 0 0
0 0 0 0
0 0 0 0
0 0 0 0
0 0 0 0
0 0 0 0
-2896.7168 1391.8519 3241.6963 6969167
-2910.5178 1407.8167 3278.8789 6705227
-2882.4927 1403.6287 3269.125 6705995
-2859.2168 1401.7125 3264.6619 6573380
-2898.2356 1430.5176 3331.7507 6047292
-2854.5991 1418.6409 3304.0891 5981496
-2843.3362 1422.7998 3313.7754 6704962
-2811.967 1416.8855 3300.0007 7494478
-2789.4578 1415.3839 3296.5034 7231562
-2774.0828 1417.5066 3301.4475 7033671
-2733.3726 1406.6218 3276.0959 7362891
-2664.6172 1381.0457 3216.5278 8284250
-2717.2427 1418.4648 3303.679 8152663
-2689.7241 1414.2864 3293.9473 8021334
-2650.5576 1403.8774 3269.7041 7758163
-2634.4839 1405.6365 3273.801 7627090
-2583.0457 1388.4127 3233.686 7627090
-2538.8345 1374.8452 3202.0867 7099721
-2532.7656 1381.884 3218.4805 6113083
-2457.0928 1350.7654 3146.0037 6310720
-2370.1189 1312.9111 3057.8389 8942444
-2269.5593 1266.8898 2950.6528 7034962
-2257.1953 1269.7681 2957.3564 4468006
-2236.155 1267.7723 2952.7083 4598306
-2233.5364 1276.2715 2972.5032 4795945
-2198.397 1266.1752 2948.9885 4005656
-2188.5374 1270.5939 2959.2798 4334619
-2212.1765 1294.689 3015.3987 3281162
-2188.9441 1291.5217 3008.0217 2295812
-2167.2202 1289.1993 3002.613 3149318
-2146.1572 1287.2352 2998.0383 5057565
-2130.2463 1288.3541 3000.6445 6108710
-2082.9758 1270.3662 2958.7498 14004631
-2109.3018 1297.3392 3021.5713 13741456
-2117.9431 1313.8036 3059.9175 12491641
-2110.1624 1320.2775 3074.9954 10122841
-2108.1658 1330.5144 3098.8379 9399891
-2106.4089 1341.0841 3123.4553 7492671
-2095.1687 1345.7498 3134.3218 7295552
-2101.6257 1361.9675 3172.094 7230532
-2077.8259 1358.693 3164.4673 7099203
-2076.6619 1370.2952 3191.4895 7165510
-2061.7024 1372.924 3197.6121 6639168
-2056.5303 1382.1796 3219.1687 6705217
-2026.3751 1374.6604 3201.6562 6968134
-2042.7019 1398.8296 3257.9475 5455152
-2035.3512 1407.0909 3277.1887 3810328
-2003.3351 1398.2954 3256.7034 4994346
-1988.6965 1401.576 3264.3442 4797223
-1965.9121 1399.1238 3258.6328 5849655
-1935.7028 1391.2863 3240.3787 5586997
-1926.4525 1398.507 3257.196 5126703
-1886.564 1383.4067 3222.0269 5191726
-1858.1517 1376.4994 3205.9395 5323313
-1836.4263 1374.4541 3201.1758 4928555
-1825.1814 1380.292 3214.7727 4863018
-1800.3049 1375.8357 3204.3936 4665896
-1772.2552 1368.8333 3188.0845 5718839
-1670.6311 1304.2412 3037.6462 7692888
-1727.1533 1363.05 3174.6152 10850951
-1581.0027 1261.4457 2937.9731 10390657
-1602.0437 1292.4624 3010.2129 9337455
-1601.2782 1306.3868 3042.6436 9863541
-1610.1462 1328.5774 3094.3264 9798519
-1583.097 1321.3013 3077.3801 10588034
-1604.5182 1354.7819 3155.3582 7561556
-1603.6388 1370.0002 3190.8025 6114111
-1582.1204 1367.7391 3185.5364 5982526
-1568.1753 1372.0497 3195.5757 5850429
-1542.475 1366.0551 3181.6138 5653306
-1525.9955 1368.1791 3186.5608 5850685
-1508.52 1369.4521 3189.5261 5784894
-1488.3442 1368.2751 3186.7847 5916477
-1475.8976 1374.2648 3200.7349 5982527
-1458.3828 1375.6298 3203.9141 6179393
-1449.8689 1385.6328 3227.2117 5916478
-1416.5277 1371.859 3195.1316 5653046
-1396.0833 1370.371 3191.666 5586484
-1409.4 1402.4368 3266.3489 4139038
-1363.2823 1375.4312 3203.4514 4468258
-1360.8494 1392.3593 3242.8777 5520434
-1321.6318 1371.5969 3194.5212 5060651
-1298.6876 1367.3652 3184.6653 5455153
-1279.6968 1367.2324 3184.3562 6310463
-1253.6365 1359.4298 3166.1833 5783862
-1224.4312 1347.9279 3139.3948 5784377
-1211.5254 1354.2915 3154.2158 6244928
-1193.9302 1355.5303 3157.1011 6310208
-1185.8805 1367.8184 3185.7209 6310465
-1170.6991 1372.1453 3195.7983 5981244
-1141.573 1360.0012 3167.5142 5323314
-1132.0444 1371.189 3193.571 5915195
-1107.9563 1364.822 3178.7422 5455155
-1090.0393 1365.9681 3181.4114 5849912
-1071.2679 1366.0651 3181.6372 5653047
-1050.0084 1362.9358 3174.3491 6245184
-1023.0212 1352.1222 3149.1636 6310977
-1008.1384 1357.2024 3160.9956 4995118
-976.60492 1339.6346 3120.0793 6310980
-973.61688 1361.3009 3170.5413 4994350
-948.52826 1352.311 3149.6035 4533799
-917.11169 1333.7576 3106.3916 5389110
-907.68829 1347.0841 3137.4294 4402215
-882.81921 1337.5658 3115.261 5587000
-868.23523 1343.5569 3129.2146 6113600
-853.13477 1348.9926 3141.8745 6442308
-826.18188 1335.5116 3110.4766 5916221
-809.32782 1338.1124 3116.5342 5718071
-795.66858 1346.2404 3135.4644 6178622
-777.55615 1347.0421 3137.3318 5848885
-757.65381 1344.7063 3131.8916 5586227
-738.5191 1343.6498 3129.4309 4928809
-723.97119 1351.099 3146.7803 6113082
-708.0509 1356.3129 3158.9241 6376254
-686.11554 1349.9751 3144.1628 6640196
-666.62408 1348.2262 3140.0896 6245438
-642.2912 1336.3042 3112.3228 6640452
-622.45624 1333.3121 3105.354 7166541
-602.42755 1329.7102 3096.9651 7166798
-582.96893 1327.1799 3091.0715 6836806
-567.41858 1333.6714 3106.1907 5915703
-552.62329 1342.4321 3126.595 6375741
-531.77655 1336.5907 3112.99 6112567
-515.0448 1341.0438 3123.3616 7165511
-499.83636 1349.9431 3144.0884 7099463
-479.52667 1345.2207 3133.0896 6902084
-462.49579 1349.6863 3143.4902 6573121
-442.49878 1345.5076 3133.7578 6901833
-424.19543 1346.3383 3135.6926 7230798
-406.62686 1349.6841 3143.4851 8151900
-387.47083 1347.829 3139.1643 8086106
-363.91019 1329.6926 3096.9241 7822934
-345.77875 1330.5216 3098.8547 7428177
-324.686 1319.41 3072.9751 9073001
-309.19461 1331.0922 3100.1836 8086363
-290.16858 1328.072 3093.1494 7888984
-271.77612 1327.7401 3092.3765 8086363
-253.78023 1329.4376 3096.3301 7954779
-235.86453 1331.8525 3101.9543 7757142
-217.16179 1329.8558 3097.304 7954778
-198.8389 1330.0314 3097.7129 8349537
-180.88437 1332.957 3104.5269 8349794
-160.31271 1315.0762 3062.8816 8678758
-140.70872 1301.5822 3031.4531 8546917
-122.46322 1298.5443 3024.3779 8217696
-104.20754 1294.339 3014.5833 8283744
-84.626427 1268.526 2954.4636 9270640
-67.377533 1273.3265 2965.6443 6902350
-47.913761 1224.8915 2852.8364 4797745
-31.139975 1229.9098 2864.5247 8086885
-14.408333 1250.6068 2912.729 8744045
2.8326356 1244.1517 2897.6948 7691357
20.063362 1248.1411 2906.9861 7625308
37.200417 1245.3093 2900.3909 7822431
54.287693 1243.1272 2895.3086 3941414
71.1651 1238.3411 2884.1614 3875620
87.479462 1227.5076 2858.9294 7493464
103.55296 1217.3569 2835.2883 4927537
121.24394 1226.4008 2856.3518 4400936
137.4962 1220.4589 2842.5127 4665134
154.64816 1222.9283 2848.2642 7427668
174.53854 1244.4364 2898.3577 12164506
195.64272 1269.9707 2957.8284 8348513
219.5475 1307.9922 3046.3826 6967116
242.5172 1335.0898 3109.4944 7164496
261.80557 1339.5259 3119.8262 7493461
275.95142 1318.8003 3071.5552 7230547
293.7243 1316.9008 3067.1311 7032914
310.55872 1311.2598 3053.9929 7032913
329.32236 1313.9374 3060.2292 7164756
347.47623 1314.0297 3060.4441 7165269
367.75674 1321.7561 3078.4395 7231062
384.46991 1316.5367 3066.2832 7362133
401.43213 1312.6028 3057.1208 7362133
420.03275 1314.1343 3060.6877 6506824
440.58099 1321.3804 3077.5645 5651515
456.1384 1313.677 3059.6228 5848895
475.86954 1318.1235 3069.979 5190965
489.78888 1306.7368 3043.4587 5980482
508.35217 1308.1088 3046.6541 5322551
530.86542 1319.2024 3072.4915 5388860
545.36182 1310.2988 3051.7549 5455170
562.19788 1307.4077 3045.0212 5389376
582.71594 1312.9928 3058.0291 5323327
598.48383 1307.8605 3046.0757 4533553
620.01874 1315.2623 3063.3149 5059383
633.04175 1304.7001 3038.7151 4138538
649.98877 1302.5858 3033.7908 4467246
666.43494 1299.6086 3026.8567 4730674
687.6048 1305.7578 3041.1785 5585984
701.14337 1297.4712 3021.8784 5453883
721.55225 1301.994 3032.4126 5519933
741.85614 1306.1124 3042.0044 4927794
754.99463 1297.7192 3022.4563 5454138
771.68915 1295.6857 3017.72 5387318
783.91309 1286.4078 2996.1113 5256244
810.93567 1301.2878 3030.7678 4729387
817.35217 1283.1735 2988.5784 4532266
832.55811 1279.3334 2979.6345 5058353
848.98254 1277.4862 2975.3323 5322295
875.91101 1291.1984 3007.2688 4533037
895.44495 1293.6805 3013.05 3743523
914.23401 1295.0107 3016.1482 4269869
931.59894 1294.3114 3014.5193 4797756
938.80743 1279.793 2980.7048 3153963
947.70386 1268.0691 2953.3994 2037022
954.88623 1254.5183 2921.8391 2038836
982.74658 1268.1331 2953.5483 3159379
1015.8216 1287.8826 2999.5461 4476780
1014.9485 1264.6527 2945.4426 4148332
1039.2037 1272.9896 2964.8599 4280174
1054.5082 1270.2671 2958.5188 4411759
1065.8688 1262.9604 2941.5012 5200759
1081.8525 1261.2789 2937.585 4936813
1099.6576 1261.7404 2938.6594 4540251
1112.9019 1257.036 2927.7029 5392730
1136.1119 1263.5596 2942.8967 4930626
1157.4774 1267.8657 2952.9258 5389892
1169.5333 1261.9978 2939.2593 4073774
1188.7072 1263.8702 2943.6201 4994361
1201.7786 1259.2939 2932.9617 5849413
1215.924 1255.9574 2925.1907 5651264
1219.8894 1242.3474 2893.4922 4138025
1250.4443 1255.8181 2924.8665 3414559
1262.7853 1250.8787 2913.3621 3941159
1277.2335 1248.1316 2906.9639 5520191
1296.4302 1250.036 2911.3994 5454141
1298.3652 1235.4651 2877.4631 5059640
1308.8176 1229.2715 2863.0378 5125435
1336.3557 1239.0782 2885.8784 4467504
1343.0994 1229.6002 2863.8037 4928055
1374.6344 1242.772 2894.4812 4665139
1386.1996 1237.7872 2882.8716 4993847
1396.5903 1231.8879 2869.1318 5191485
1434.8673 1250.4323 2912.3225 4994105
1448.8309 1247.5996 2905.7249 5388094
1451.3401 1235.0857 2876.5793 5519680
1476.2892 1241.7368 2892.0703 5519680
1499.4662 1246.7621 2903.7744 6441296
1505.6871 1237.7347 2882.7493 5783365
1533.3484 1246.3369 2902.7842 5388607
1532.6211 1231.9296 2869.2285 4467505
1541.4315 1225.4204 2854.0686 4139055
1568.4409 1233.3638 2872.5691 4468021
1592.3713 1238.7412 2885.0933 5125951
1606.6946 1236.6104 2880.1304 4929086
1641.4459 1250.0817 2911.5059 4731708
1623.5857 1223.6219 2849.8796 5389895
1643.5253 1225.9016 2855.1892 3680304
1664.7555 1229.0876 2862.6096 3350826
1687.3237 1233.1873 2872.158 2562079
1702.2368 1231.6661 2868.6152 2233117
1706.8794 1222.8174 2848.0059 721159
1734.5605 1230.4851 2865.8645 3351342
1746.7239 1227.1027 2857.9866 3942966
1756.0886 1221.838 2845.7249 7100515
1767.6757 1218.2051 2837.2637 6968673
1783.3676 1217.4427 2835.488 5587020
1806.5491 1221.7598 2845.5427 4469822
1814.7549 1215.9628 2832.041 7955568
1825.9637 1212.2655 2823.4302 3876149
1847.6373 1215.52 2831.01 5785427
1857.8148 1211.2211 2820.9973 5653840
1856.3918 1199.5031 2793.7056 7757930
1878.2594 1202.9082 2801.6365 5784911
1877.4504 1191.8582 2775.9001 8417145
1913.7148 1204.3307 2804.9495 5390412
1938.6445 1209.5168 2817.0283 8023416
1956.9487 1210.5161 2819.3557 8680320
1981.2678 1215.1877 2830.2361 9930129
2009.2521 1222.01 2846.1255 7758963
2038.6595 1229.577 2863.7495 7429482
2052.958 1227.9818 2860.0342 7297636
2071.5996 1228.9891 2862.3804 7100255
2085.1667 1226.9943 2857.7341 7626598
2103.2275 1227.6543 2859.2715 4666171
2154.4451 1247.5029 2905.4998 4994880
2138.4822 1228.4452 2861.1135 4731195
2145.9446 1223.038 2848.5198 4928316
2151.6492 1216.7212 2833.8076 4533045
2158.01 1210.8704 2820.1807 4598580
2171.0125 1208.8075 2815.3762 3084827
2185.6765 1207.6943 2812.7834 3348767
2225.8889 1220.6077 2842.8594 5453116
2255.925 1227.7887 2859.5842 3610912
2268.9097 1225.6515 2854.6067 5585729
2269.928 1217.1298 2834.7593 5585986
2291.1726 1219.4988 2840.2769 4664629
2303.6912 1217.2227 2834.9753 5520194
2328.5154 1221.4343 2844.7849 7889765
2346.54 1222.0444 2846.2056 7166043
2368.9634 1224.9203 2852.9038 7494750
2389.5173 1226.7957 2857.2715 5915463
2416.4612 1231.902 2869.1646 6310479
2420.6077 1225.3964 2854.0125 7297374
2408.5442 1210.8319 2820.0911 7099995
2425.0654 1210.7391 2819.875 7758439
2429.1719 1204.4921 2805.3252 7298404
2442.9307 1203.0831 2802.0439 7035747
2432.5742 1189.8975 2771.3337 7496297
2470.3728 1200.2856 2795.5283 7364711
2498.9939 1206.1062 2809.0847 6509145
2527.7405 1211.9098 2822.6016 6838109
2534.7039 1207.262 2811.7766 7101026
2563.7649 1213.131 2825.4458 8154228
2553.5125 1200.4421 2795.8928 5062216
2612.9976 1220.4902 2842.5857 5720403
2625.5664 1218.5079 2837.969 6180441
2648.5598 1221.3582 2844.6072 4864068
2597.7915 1190.3727 2772.4407 5718606
2586.4597 1177.734 2743.0042 2168604
2628.8499 1189.5624 2770.5532 4337465
2638.2588 1186.4125 2763.217 5259080
0 0 0 0
0 0 0 0
0 0 0 0
0 0 0 0
0 0 0 0
0 0 0 0
0 0 0 0
-2835.7715 1381.3685 3173.4924 7561811
-2826.1155 1385.8528 3183.7944 6245695
-2848.9365 1406.4301 3231.0679 7101260
-2813.23 1398.1973 3212.1541 7363919
-2804.8547 1403.5286 3224.4019 7232333
-2786.5081 1403.9092 3225.2764 6640196
-2793.1042 1416.9486 3255.2324 7166540
-2756.8867 1408.2988 3235.3608 7101003
-2747.1919 1413.1714 3246.5549 7034954
-2730.6375 1414.5592 3249.7432 7429712
-2697.1487 1407.1318 3232.6799 7626577
-2687.9858 1412.38 3244.7368 7692371
-2663.1343 1409.401 3237.8931 7560528
-2633.8484 1404.015 3225.5193 7428942
-2582.2913 1386.5913 3185.4912 7231563
-2565.3154 1387.6169 3187.8472 6902597
-2528.4771 1377.834 3165.3723 6704963
-2458.0481 1349.4635 3100.1953 7297357
-2423.1223 1340.3038 3079.1526 8284767
-2380.2131 1326.556 3047.5688 7823704
-2335.876 1311.796 3013.6599 4600883
-2266.8191 1282.8196 2947.0906 1114112
-2227.9146 1270.5891 2918.9929 1114112
-2236.874 1285.678 2953.6575 1048577
-2217.4143 1284.5416 2951.0469 6769224
-2207.9565 1289.2274 2961.8118 3809047
-2202.5403 1296.3669 2978.2139 3940374
-2189.3887 1299.0322 2984.3369 3019013
-2176.3149 1301.7875 2990.6665 4268308
-2144.3252 1293.1803 2970.8928 3478532
-2133.3208 1297.191 2980.1069 4069642
-2125.5864 1303.2734 2994.0806 4201227
-2109.3279 1304.188 2996.1816 8015935
-2117.0793 1320.0891 3032.7122 13676178
-2123.9243 1335.6927 3068.5591 11768433
-2101.2468 1332.8391 3062.0032 7098424
-2103.2441 1345.7238 3091.6038 7953992
-2101.9736 1356.7253 3116.8782 8085324
-2093.9646 1363.5339 3132.5203 7361861
-2068.1707 1358.7799 3121.5984 6835519
-2049.655 1358.765 3121.5642 6638909
-2049.4382 1370.991 3149.6514 6573372
-2062.0779 1392.1207 3198.1943 6244664
-2033.7051 1385.6984 3183.4397 7231817
-2011.2969 1383.2577 3177.8325 7166281
-2002.326 1390.0997 3193.5513 6705731
-1995.1598 1398.3372 3212.4753 6442558
-1970.0903 1394.0645 3202.6597 6771522
-1942.5837 1387.9674 3188.6526 6113338
-1931.5776 1393.656 3201.7212 5455153
-1892.7433 1379.1798 3168.4644 6113084
-1885.4711 1387.6423 3187.9058 4468005
-1869.7542 1389.9982 3193.3179 3086611
-1827.5305 1372.4954 3153.1077 6376774
-1767.8137 1341.3578 3081.5737 8087903
-1735.7114 1330.7419 3057.1855 8219746
-1712.2347 1326.5851 3047.6355 7692888
-1700.5328 1331.5598 3059.0642 7429458
-1684.0487 1332.8564 3062.0432 7298385
-1660.9414 1328.8824 3052.9133 7758681
-1640.2629 1326.7856 3048.0962 6837836
-1595.4006 1304.8622 2997.7305 10982537
-1576.9982 1304.3301 2996.5081 11312008
-1575.7665 1318.1497 3028.2563 10917246
-1552.8027 1313.8989 3018.491 10587769
-1568.2552 1342.4336 3084.0454 8811612
-1550.4951 1342.8756 3085.0608 6179392
-1536.4576 1346.5909 3093.5962 5784893
-1521.0868 1349.2133 3099.6206 5653051
-1512.6439 1358.1198 3120.082 5258291
-1506.3545 1369.2043 3145.5469 5060654
-1477.5527 1359.8474 3124.0508 5521721
-1282.704 1195.4952 2746.4758 6310983
-1428.6959 1348.6689 3098.3701 2760992
-1409.8217 1348.1729 3097.2302 1904396
-1388.328 1345.1257 3090.23 2956055
-1380.3628 1355.2798 3113.5574 4929329
-1372.3599 1365.6714 3137.4307 5915965
-1350.3396 1362.2079 3129.4736 5587255
-1327.6793 1357.9933 3119.7913 5455668
-1320.3099 1369.5204 3146.2732 5783608
-1299.8153 1367.5682 3141.7883 5915451
-1271.2935 1356.9911 3117.4888 5718072
-1251.8259 1355.9092 3115.0034 5783865
-1230.7488 1353.0254 3108.3784 5652279
-1210.8373 1351.355 3104.5408 6244416
-1194.8096 1354.0343 3110.696 6508101
-1172.5115 1349.5804 3100.4639 6376772
-1166.4445 1363.9641 3133.5085 6376772
-1149.7123 1366.1403 3138.5078 6179392
-1132.0566 1367.2727 3141.1094 4007453
-1107.726 1360.2463 3124.9673 5191726
-1090.9391 1362.402 3129.9197 5915704
-1069.2319 1358.3813 3120.6826 5915961
-1052.12 1360.1598 3124.7686 6179391
-1019.7211 1341.8854 3082.7856 6311234
-1002.4438 1343.2063 3085.8203 5586740
-985.08228 1344.4613 3088.7036 5784633
-961.78137 1337.5043 3072.7207 5521719
-946.99524 1342.3483 3083.8491 6245952
-918.94165 1328.2065 3051.3606 8023393
-881.74353 1300.0149 2986.5945 9075566
-873.62805 1314.4253 3019.7002 8812138
-839.64948 1289.7122 2962.9253 9798777
-827.48151 1298.1602 2982.3335 7232593
-802.6203 1286.6292 2955.8428 8219487
-791.28448 1296.7491 2979.0918 8482914
-771.91962 1293.8728 2972.4839 10457733
-758.85883 1301.6755 2990.4094 8089700
-757.20911 1329.8926 3055.2341 7695199
-738.65942 1329.0834 3053.375 5983296
-718.6684 1325.5748 3045.3147 5521975
-705.79449 1335.3512 3067.7744 5126447
-687.43719 1334.9955 3066.9573 5455668
-671.47467 1339.3976 3077.0703 6310462
-647.12427 1326.8469 3048.2371 6376254
-631.0705 1331.0752 3057.9509 6705220
-612.4823 1330.0498 3055.5952 7231307
-595.21564 1331.9191 3059.8896 7626323
-575.65546 1328.6125 3052.2932 6771014
-560.07666 1334.5784 3065.999 6771014
-547.93475 1349.4082 3100.0684 6047547
-527.10596 1343.1315 3085.6484 5980985
-507.42633 1339.4371 3077.1614 6112571
-491.47345 1345.6714 3091.4836 6441537
-470.5155 1338.1538 3074.2131 5652020
-455.74231 1348.3286 3097.5881 6178364
-436.4292 1345.3622 3090.7732 6507072
-418.2135 1345.6671 3091.4736 6441536
-400.38336 1347.2972 3095.2188 5717556
-380.06528 1340.3101 3079.1667 6901317
-361.7117 1339.8956 3078.2146 7033160
-343.53769 1340.1377 3078.7705 7362637
-323.40335 1332.3308 3060.8354 7757396
-305.28366 1332.3892 3060.9697 7954518
-283.63007 1316.0575 3023.45 7691347
-267.99371 1327.3264 3049.3386 7560017
-251.86633 1337.6166 3072.9788 7296845
-232.51883 1331.0763 3057.9536 7822935
-214.61287 1332.3804 3060.9495 8415585
-194.91609 1321.7811 3036.5991 8086621
-177.70621 1327.6055 3049.9797 8480866
-158.82018 1320.8088 3034.3655 8809575
-140.0705 1313.556 3017.7031 8480865
-121.03629 1301.1222 2989.1382 8546404
-101.07888 1272.8014 2924.0754 6243907
-81.995987 1246.0553 2862.6301 4928304
-64.79557 1241.4275 2851.9985 5125686
-48.05806 1245.5321 2861.4282 5915458
-30.811419 1233.7242 2834.3013 7429212
-14.056637 1236.9149 2841.6316 7362650
2.7903867 1242.5057 2854.4756 7954531
19.697742 1242.3037 2854.0115 6901586
36.645763 1243.6683 2857.1465 7164758
52.584301 1220.7358 2804.4622 5783105
68.394447 1206.5502 2771.8728 5783616
84.623779 1203.8207 2765.6023 6309960
102.14574 1217.3824 2796.7583 6770767
117.90485 1209.0811 2777.6873 5981771
133.12086 1197.9258 2752.0596 5520963
149.33391 1197.198 2750.3877 9138546
170.43431 1231.9404 2830.2034 10585476
196.98669 1296.3381 2978.1475 5650999
213.28481 1288.2137 2959.4829 6834758
233.52608 1303.3309 2994.2124 9664369
253.68437 1315.8832 3023.0493 8151646
271.82138 1316.9867 3025.5847 8085853
287.50348 1306.7955 3002.1719 7165008
307.74475 1317.3073 3026.321 7757402
319.23312 1291.2573 2966.4751 7296851
338.92596 1299.3802 2985.1365 7954271
356.96112 1300.6573 2988.0706 8546664
376.09424 1305.6257 2999.4844 7888735
393.72708 1305.1722 2998.4426 7427670
414.37274 1314.3141 3019.4446 7427927
429.31781 1305.3662 2998.8884 7165011
444.77567 1298.627 2983.4058 7165012
465.67511 1307.6832 3004.2114 7296854
482.92419 1306.1996 3000.803 6507596
499.60477 1303.3383 2994.2292 6376525
511.03293 1287.4407 2957.7068 9534847
521.51117 1270.2833 2918.2905 8219247
542.15198 1278.1864 2936.4468 11114911
556.42676 1271.0563 2920.0662 11115166
571.18231 1265.4211 2907.1204 9075326
602.47217 1295.6744 2976.6228 6508114
619.70831 1294.8428 2974.7122 3744549
638.67749 1297.578 2980.9961 6441549
651.73993 1288.4885 2960.1143 6507085
667.47028 1285.0115 2952.1262 5783103
694.00726 1301.9858 2991.1223 5059381
710.76935 1300.2334 2987.0962 6177859
728.00555 1299.4122 2985.2097 6572618
742.35046 1293.5917 2971.8381 6178374
765.46936 1302.9761 2993.3972 6178118
782.37463 1301.5979 2990.2312 6572617
792.74323 1289.6471 2962.7759 5585722
805.66913 1282.2842 2945.8606 7296341
825.57043 1286.0999 2954.6265 5848638
841.25983 1283.3319 2948.2676 4993586
863.94568 1291.1323 2966.188 5256761
882.51526 1292.5929 2969.5435 4007207
902.20386 1295.6033 2976.4595 5454397
921.4942 1297.9375 2981.822 5718340
930.71027 1286.2609 2954.9966 5126203
938.04437 1272.4625 2923.2969 5060924
950.46576 1265.9403 2908.313 4930112
973.33075 1273.3126 2925.25 2760487
986.78021 1268.3251 2913.7917 525064
997.17346 1259.6484 2893.8584 656908
1015.8966 1261.6097 2898.364 3815237
1026.6328 1253.7518 2880.3118 4077637
1043.965 1254.0745 2881.053 3089966
1050.4563 1241.5736 2852.334 2957868
1060.4752 1233.5718 2833.9509 3155758
1080.3479 1237.1029 2842.0632 3419439
1094.7019 1234.3032 2835.6316 7168861
1090.3727 1210.8408 2781.73 10523782
1106.9701 1210.9696 2782.0259 10062459
1121.2472 1208.5938 2776.5676 12561826
1125.8531 1196.0126 2747.6643 13285298
1183.8008 1239.6483 2847.9111 7691356
1203.0927 1242.1471 2853.6516 6113611
1218.7661 1240.8925 2850.7693 5455682
1244.302 1249.5763 2870.7192 3811628
1258.946 1247.2357 2865.3418 4402225
1272.6952 1244.0824 2858.0977 4138539
1285.8204 1240.41 2849.6609 5125434
1299.5264 1237.3857 2842.7131 5388351
1313.205 1234.4132 2835.884 5651779
1317.9551 1223.229 2810.1902 5059642
1343.1967 1231.1053 2828.2847 5059641
1369.0542 1239.3451 2847.2144 4730676
1374.1515 1228.8197 2823.0337 5059642
1401.9879 1238.6371 2845.5879 4993593
1417.0222 1237.045 2841.9304 4598834
1432.915 1236.2312 2840.0608 4664627
1430.0228 1219.4176 2801.4338 4533042
1452.0671 1224.0099 2811.9841 4862006
1465.1034 1220.991 2805.0486 5059385
1489.9103 1227.739 2820.5513 4335662
1516.3323 1235.6537 2838.7341 5981001
1530.8417 1233.7936 2834.4607 4994364
1547.7938 1233.9214 2834.7542 4270641
1546.9342 1219.9989 2802.7693 4796986
1589.2661 1240.0737 2848.8884 3416872
1605.04 1239.2218 2846.9312 3152675
1611.3385 1231.1476 2828.3818 1443596
1617.2695 1222.962 2809.5767 3350826
1623.6401 1215.2721 2791.9102 3876912
1655.2407 1226.431 2817.5461 4535354
1677.5803 1230.5741 2827.0642 4074805
1687.8824 1225.8922 2816.3086 4798527
1707.8362 1228.2434 2821.71 3219239
1711.4727 1218.9277 2800.3086 3153190
1741.8759 1228.6715 2822.6934 3744813
1755.0405 1226.1859 2816.9832 4204597
1762.4204 1219.7435 2802.1829 4401975
1779.7668 1220.2549 2803.3574 5257286
1802.1769 1224.1963 2812.4121 3415594
1800.2061 1211.6558 2783.6021 5125956
1835.7996 1224.3964 2812.8718 3612718
1839.8286 1216.0452 2793.6863 2889251
1838.4514 1204.3014 2766.7068 2035993
1856.8782 1205.6234 2769.7439 3876401
1891.5201 1217.3583 2796.7029 6441559
1909.1711 1218.0491 2798.2898 7691882
1916.2461 1212.0385 2784.4814 7955825
1922.5538 1205.6493 2769.8032 4995397
1977.1083 1229.3683 2824.2942 5521741
1994.1685 1229.5708 2824.7593 6771038
2006.8888 1227.1163 2819.1206 2034455
2023.1853 1226.871 2818.5569 3612460
2070.5903 1245.3396 2860.9861 3941937
2068.8472 1234.1885 2835.3679 4204852
2089.334 1236.3718 2840.3838 3547178
2096.2622 1230.5609 2827.0342 3349800
2115.7986 1232.1848 2830.7646 3547434
2108.4216 1218.2328 2798.7119 3679020
2118.2151 1214.3419 2789.7734 3415846
2109.3496 1199.8975 2756.5894 3613225
2131.4443 1203.1512 2764.0642 3152674
2138.6963 1198.0408 2752.3237 3415846
2150.2332 1195.3896 2746.2332 3350566
2177.7891 1201.6172 2760.54 2099730
2193.1245 1201.0594 2759.2585 2560280
