# .PCD v0.7 - Point Cloud Data file format
VERSION 0.7
FIELDS x y z rgb
SIZE 4 4 4 4
TYPE F F F U
COUNT 1 1 1 1
WIDTH 1283
HEIGHT 1
VIEWPOINT 0 0 0 1 0 0 0
POINTS 1283
DATA ascii
-1422.4132 1224.1221 2505.3594 6574661
-1413.7283 1229.4771 2516.3191 4403491
-1393.2023 1224.5386 2506.2117 6245438
-1382.3992 1228.1313 2513.5649 6574403
-1371.7933 1231.9797 2521.4414 6574403
-1359.8989 1234.7429 2527.0964 6443073
-1339.099 1229.3916 2516.1443 7100747
-1317.1743 1222.8755 2502.8081 6048060
-1294.9758 1215.9542 2488.6423 6837321
-1273.6405 1209.693 2475.8279 6771528
-1265.0742 1215.5552 2487.8259 6113598
-1251.0564 1216.2559 2489.2598 7100237
-1230.3748 1210.4175 2477.3105 7297872
-1215.0352 1209.757 2475.9587 6968907
-1202.21 1211.6143 2479.76 7166798
-1187.5314 1211.6266 2479.7852 7298129
-1173.5739 1212.3842 2481.3357 7166286
-1163.4702 1217.1927 2491.1772 7100236
-1144.6417 1212.8798 2482.3501 5916219
-1120.8881 1203.168 2462.4734 5389877
-1114.0115 1211.5551 2479.6387 7362896
-1100.7007 1213.075 2482.7495 6968651
-1085.2953 1212.2964 2481.156 6310977
-1072.5375 1214.4944 2485.6545 7363665
-1050.8083 1206.4534 2469.1975 7101006
-1038.4567 1209.1039 2474.6223 7758678
-1023.7573 1209.0576 2474.5276 7495762
-1009.8485 1209.9573 2476.3689 7297872
-994.7323 1209.4155 2475.26 7429458
-980.2099 1209.5902 2475.6174 3942428
-970.79779 1216.1722 2489.0886 6310719
-957.66107 1218.2192 2493.2783 2101258
-944.48004 1220.2732 2497.4819 5061682
-922.46069 1210.7916 2478.0764 7692629
-909.04797 1212.4828 2481.5376 8679524
-890.9812 1207.92 2472.1992 7823701
-877.01849 1208.8616 2474.1262 8481374
-862.95624 1209.6957 2475.8335 7560272
-845.00488 1205.0127 2466.249 7888980
-823.78857 1195.4269 2446.6301 7757907
-814.82788 1203.601 2463.3596 7626320
-801.47662 1205.4692 2467.1833 7889493
-794.37402 1216.9801 2490.7422 4271138
-763.9834 1192.5741 2440.7913 7034180
-755.49634 1202.0774 2460.2412 7494476
-736.2738 1194.5372 2444.8091 7297354
-720.45374 1192.3253 2440.2822 5323567
-699.36438 1181.1239 2417.3567 5652276
-688.57336 1187.2101 2429.8132 5060141
-672.84662 1184.8646 2425.0127 6836552
-659.31281 1186.3625 2428.0784 6046781
-645.0614 1186.6074 2428.5796 5718070
-628.14014 1181.84 2418.8223 4533540
-613.12708 1180.524 2416.1292 3546129
-597.08417 1177.1151 2409.1521 4138007
-579.70471 1170.8396 2396.3083 6703931
-568.26031 1176.5372 2407.9692 3676940
-550.45099 1169.0107 2392.5652 5716517
-535.36322 1167.019 2388.489 6111021
-520.48865 1165.3966 2385.1685 8019278
-510.72571 1175.4482 2405.7405 4005907
-500.08005 1183.9869 2423.2163 9532772
-484.69824 1181.4857 2418.0972 8611672
-466.64093 1172.1117 2398.9119 5848623
-456.94049 1183.7991 2422.8318 8940896
-441.8754 1181.8955 2418.9358 9862514
-429.0752 1186.1252 2427.5928 10192510
-416.6395 1191.691 2438.9841 7823961
-403.81476 1196.5039 2448.8345 6507844
-391.66577 1203.7526 2463.6699 4533541
-374.5126 1195.587 2446.9578 5914425
-358.09348 1189.2015 2433.8889 5191217
-343.36813 1188.1412 2431.7188 5520438
-326.04166 1177.5934 2410.1309 7165520
-313.74011 1185.0594 2425.4114 5981246
-300.14191 1188.1093 2431.6536 6376517
-286.38968 1190.8264 2437.2144 5915968
-273.0564 1195.6663 2447.1201 6508105
-258.60101 1195.8601 2447.5168 5784382
-244.50494 1197.8373 2451.5632 6046784
-230.3141 1199.5704 2455.1106 5915198
-214.05296 1190.0277 2435.5796 5257267
-200.1227 1193.0002 2441.6636 4796717
-185.47536 1191.8284 2439.2651 4599338
-171.36223 1194.1812 2444.0806 6046784
-155.5042 1183.6863 2422.6011 4270374
-141.02026 1182.5802 2420.3372 3809821
-127.69635 1192.0526 2439.7241 5585977
-112.97314 1189.2134 2433.9131 5519930
-98.834991 1192.6028 2440.8501 6178114
-85.208382 1204.3845 2464.9634 6243392
-70.154022 1196.6853 2449.2056 4927277
-55.920948 1202.6332 2461.3789 6111552
-41.647858 1211.6132 2479.7578 4532521
-26.857473 1207.1304 2470.5833 5585209
-12.090803 1194.2527 2444.2268 3086360
2.3777025 1188.4315 2432.313 5914686
16.799706 1189.3115 2434.114 5651512
31.437607 1197.6031 2451.0842 5191474
45.579842 1187.739 2430.8955 5716535
60.66531 1201.2893 2458.6284 6177343
75.346443 1203.1362 2462.4084 5914173
89.039581 1191.1666 2437.9106 5979966
103.90092 1195.9851 2447.7725 5717051
117.82887 1190.1951 2435.9224 5059121
134.2579 1208.1757 2472.7224 6375240
148.34595 1203.6245 2463.4077 5651518
161.03857 1189.5807 2434.665 5059380
175.90372 1192.575 2440.7932 4862001
191.57356 1200.1555 2456.3079 4730415
205.63972 1197.3284 2450.5217 5190966
219.72009 1194.9513 2445.6565 5585467
234.36632 1195.7555 2447.3025 5585467
250.51933 1203.7056 2463.5737 5256759
263.80411 1197.7578 2451.4006 5585723
273.85687 1178.522 2412.0315 7625053
290.60986 1188.598 2432.6538 4467243
305.50394 1190.4781 2436.5017 4137762
320.10315 1191.0914 2437.7568 4334887
335.3605 1193.995 2443.6995 4203301
348.25461 1188.5927 2432.6426 3874594
362.79541 1189.0162 2433.5095 3677729
378.3652 1192.651 2440.9487 4533038
391.21207 1187.7512 2430.9207 4269867
405.84409 1188.4266 2432.303 3414813
420.60983 1189.4342 2434.365 4335658
435.23553 1189.9918 2435.5063 5388347
451.49213 1194.8298 2445.408 4927540
465.17307 1192.7626 2441.177 4468017
480.56885 1195.0844 2445.929 5126722
496.12848 1197.6659 2451.2126 4535616
507.86569 1191.1356 2437.8474 590346
517.2533 1179.6082 2414.2544 6774377
530.5163 1177.3013 2409.533 6115425
542.11359 1171.5154 2397.6914 4602440
562.22876 1183.9624 2423.1663 5457745
575.67041 1182.0862 2419.3262 5326160
587.13574 1176.3414 2407.5686 4931658
602.76636 1179.0166 2413.0437 6444897
618.8324 1182.3997 2419.9678 5062986
630.99536 1178.3408 2411.6606 3680050
649.56567 1186.1621 2427.6682 3942706
664.48169 1187.1161 2429.6206 3679017
676.93121 1183.7166 2422.6628 3612707
689.03992 1179.8745 2414.7996 2559505
700.19843 1174.5947 2403.9939 4664881
715.08148 1175.649 2406.1516 5585726
725.81549 1169.9742 2394.5371 5783105
739.17767 1168.6719 2391.8718 4664624
755.58514 1172.1429 2398.9758 5388347
773.32172 1177.5095 2409.9595 4927795
789.40778 1180.2141 2415.4946 5453369
798.3866 1172.3856 2399.4724 5584956
810.09583 1168.7704 2392.0732 4861232
826.28912 1171.6377 2397.9417 5387575
838.81842 1169.3004 2393.1582 4729645
853.46021 1169.9368 2394.4604 4269094
859.74677 1159.2859 2372.6619 5454140
882.44977 1170.7579 2396.1411 5322554
902.65179 1178.6008 2412.1929 6572621
906.10022 1164.6652 2383.6711 4796210
915.31812 1158.459 2370.9695 4138537
929.26636 1158.337 2370.7197 5520447
944.36359 1159.6295 2373.365 3678499
966.25769 1169.1078 2392.7639 7099221
975.22809 1162.9012 2380.0613 5586240
985.61639 1158.5383 2371.1318 6178890
1002.1069 1161.37 2376.9272 6639184
1015.5182 1160.6044 2375.3601 6376525
1025.7012 1156.2201 2366.3872 6639698
1046.7271 1164.0121 2382.3347 4798006
1057.0212 1159.8213 2373.7576 3942440
1068.8333 1157.3842 2368.7695 4600627
1079.5083 1153.795 2361.4238 4930106
1096.1967 1156.6425 2367.2517 4140336
1112.0056 1158.502 2371.0574 4009519
1126.1718 1158.6248 2371.3088 4734013
1135.4291 1153.7567 2361.3455 3089448
1145.6194 1149.9436 2353.5413 1839895
1153.0126 1143.4481 2340.2473 590598
1165.3171 1141.9199 2337.1196 985354
1178.1315 1140.9213 2335.0757 1774100
1197.7992 1146.5056 2346.5049 3022624
1211.6067 1146.4169 2346.3232 7099222
1247.5948 1167.0793 2388.6123 5125689
1251.302 1157.4194 2368.8418 6046534
1271.4609 1163.0223 2380.3091 5388604
1274.287 1152.8218 2359.4319 7230552
1291.2687 1155.5098 2364.9333 7493981
1306.7384 1156.8016 2367.5774 6902614
1329.4663 1164.4232 2383.1763 7165529
1334.8304 1156.8363 2367.6482 7231322
1334.9846 1144.9387 2343.2981 6968153
1351.8734 1147.4907 2348.5212 7757926
1372.976 1153.5311 2360.8838 7034202
1392.0769 1157.7848 2369.5896 7823719
1402.1177 1154.4935 2362.8535 8218733
1432.1669 1167.5792 2389.6355 6507859
1441.3038 1163.527 2381.3418 7495011
1470.4878 1175.5797 2406.0098 6902873
1484.9803 1175.7689 2406.3967 7034456
1494.2654 1171.8702 2398.4177 6771285
1505.8357 1169.8206 2394.2227 6244685
1510.6299 1162.5942 2379.4329 5521219
1513.4078 1153.964 2361.7698 6902872
1522.9943 1150.6359 2354.958 6837080
1545.8101 1157.2722 2368.5405 6508115
1560.0028 1157.3916 2368.7849 6771545
1569.469 1154.0334 2361.9119 7363683
1577.8595 1149.9508 2353.5562 7626855
1583.5969 1144.0228 2341.4236 6902618
1589.1401 1138.059 2329.2175 6573910
1615.1418 1146.7227 2346.9492 6310736
1639.2864 1153.9314 2361.7029 5784392
1649.262 1151.1285 2355.9666 7166046
1654.6353 1145.1875 2343.8074 7429475
1664.3486 1142.3241 2337.9468 5915723
1674.1431 1139.5631 2332.2961 5389636
1699.8734 1147.6061 2348.7571 6179151
1704.2247 1141.2023 2335.6506 5652294
1732.8297 1151.0117 2355.7273 6639444
1741.4684 1147.5081 2348.5564 3218720
1749.3107 1143.5394 2340.4341 7428710
1766.7853 1145.8804 2345.2251 3284778
1762.2762 1134.0381 2320.988 720899
1767.7474 1128.7517 2310.1687 327682
1716.375 1087.5294 2225.8008 6574173
1741.5374 1095.0599 2241.2131 7497071
1762.3483 1099.7611 2250.8347 9140349
1760.2573 1090.2074 2231.2817 10128013
1798.2865 1105.4591 2262.4968 10062477
1810.218 1104.561 2260.6587 8548727
1822.9651 1104.1699 2259.8584 9207687
1809.493 1088.0194 2226.8037 12563131
1824.8103 1089.2881 2229.4001 12365239
1832.288 1085.8923 2222.4502 11838381
1836.8409 1080.8242 2212.0774 10193301
1852.1494 1082.1115 2214.7122 10587803
1868.4927 1083.9812 2218.5388 10127508
1901.8379 1095.6194 2242.3582 13417668
1909.9825 1092.679 2236.3403 13087678
1934.6392 1099.1605 2249.6057 7099743
1967.2839 1110.0607 2271.9146 5060418
1998.8041 1120.1824 2292.6304 3546924
2031.8339 1131.0079 2314.7864 2232603
2016.9639 1115.2039 2282.4409 3482415
2072.2522 1138.1433 2329.3901 4074552
2089.9131 1140.2498 2333.7014 3942966
2110.2905 1143.8011 2340.9697 5193033
2127.0281 1145.3461 2344.1318 2561826
2118.6001 1133.408 2319.6985 4075065
2135.2639 1134.9607 2322.8765 5062476
2136.2637 1128.2211 2309.0828 4667461
2156.3589 1131.5879 2315.9734 3351857
2148.813 1120.4985 2293.2773 4141629
2205.1023 1142.6263 2338.5654 4667974
2199.8491 1132.7872 2318.428 5588820
2195.0964 1123.3263 2299.0649 4667462
0 0 0 0
0 0 0 0
0 0 0 0
0 0 0 0
0 0 0 0
0 0 0 0
0 0 0 0
0 0 0 0
0 0 0 0
-2130.6194 1194.9727 2416.4019 7098690
-2118.7698 1196.365 2419.2173 7099717
-2100.5325 1194.1449 2414.728 7494220
-2096.6113 1200.0887 2426.7473 7034184
-2083.8311 1201.0088 2428.6077 6836548
-2069.9207 1201.2858 2429.1677 6508354
-2058.167 1202.827 2432.2844 6837064
-2046.1024 1204.207 2435.075 6903114
-2030.0656 1203.2522 2433.1443 6179392
-2006.22 1197.6223 2421.7598 4074532
-1977.1879 1188.793 2403.9055 5257520
-1957.4543 1185.4666 2397.1792 4994349
-1958.2721 1194.6289 2415.7068 4796970
-1915.3759 1177.0626 2380.1851 5718072
-1938.3063 1199.9883 2426.5439 5652535
-1919.3802 1197.1499 2420.8044 5587256
-1911.3386 1201.1088 2428.8098 5389877
-1896.1929 1200.6294 2427.8406 5521463
-1881.5526 1200.4653 2427.5088 5521463
-1867.0243 1200.3708 2427.3176 5981757
-1844.573 1195.1411 2416.7424 4995119
-1834.2499 1197.7493 2422.0166 4929327
-1816.3959 1195.4423 2417.3516 3679260
-1817.3469 1205.5732 2437.8376 4007455
-1814.9861 1213.6519 2454.1738 4928556
-1798.1556 1212.1073 2451.0505 5520180
-1745.1603 1185.9609 2398.179 5718073
-1748.5707 1198.0319 2422.5879 4731949
-1754.6144 1212.1215 2451.0791 5127477
-1746.3477 1216.4779 2459.8884 5522234
-1749.1586 1228.6892 2484.5813 5982527
-1722.0122 1219.8857 2466.7795 6180160
-1676.9469 1198.1289 2422.7842 5850940
-1654.0493 1191.9714 2410.333 5785147
-1640.0662 1192.1868 2410.7683 5127474
-1628.8909 1194.4648 2415.375 6114368
-1607.368 1189.1283 2404.5837 6312003
-1591.8895 1188.2078 2402.7224 5983038
-1580.9259 1190.671 2407.7034 5456693
-1566.8027 1190.778 2407.9194 5522489
-1563.9729 1199.5487 2425.6553 5785148
-1542.8236 1194.3009 2415.0435 5850940
-1540.2511 1203.4698 2433.5842 6443076
-1526.2861 1203.8264 2434.3054 6048063
-1528.1384 1216.7843 2460.5081 6245699
-1517.0677 1219.6029 2466.2075 5521722
-1523.7079 1236.8527 2501.0891 5916990
-1485.4373 1217.6276 2462.2131 6508871
-1475.4033 1221.3965 2469.8345 6706250
-1459.6001 1220.4171 2467.854 6574407
-1437.7886 1214.3431 2455.5718 6179906
-1433.5175 1223.1112 2473.302 6377539
-1419.1406 1223.3488 2473.7822 5258545
-1406.925 1225.4738 2478.0793 4995117
-1388.9484 1222.5726 2472.2129 4403235
-1380.2532 1227.8663 2482.9175 5455668
-1367.14 1229.3016 2485.8198 5389619
-1353.0214 1229.8542 2486.9373 4534568
-1331.5079 1223.6233 2474.3374 4600361
-1311.7212 1218.8582 2464.7017 4403239
-1286.1713 1208.5703 2443.8982 7297874
-1283.3965 1219.6927 2466.3894 6113600
-1257.2823 1208.6351 2444.0293 5784378
-1236.4154 1202.4229 2431.467 6705223
-1226.2377 1206.582 2439.8774 6441795
-1208.7584 1203.5702 2433.7871 5850426
-1200.9211 1210.2019 2447.1975 6639941
-1179.8907 1203.5385 2433.7229 7166030
-1170.4486 1208.6766 2444.1133 6903628
-1155.918 1208.6232 2444.0051 6443078
-1140.5443 1207.6757 2442.0891 6047807
-1130.1652 1212.0602 2450.9553 6574152
-1114.1576 1210.4441 2447.6873 5982014
-1101.4872 1212.4586 2451.761 5520693
-1082.6602 1207.6598 2442.0571 6179393
-1062.9279 1201.7074 2430.0205 5323827
-1046.142 1198.9684 2424.4817 5455411
-1034.4318 1202.0511 2430.7156 5455668
-1019.1196 1200.9766 2428.5425 6376771
-1004.6567 1200.8861 2428.3596 6639942
-992.66449 1203.7889 2434.2297 5784890
-979.13342 1204.884 2436.4441 6179649
-982.5509 1227.1802 2481.53 6968905
-961.35675 1218.9475 2464.8823 6442561
-937.46808 1206.9915 2440.7056 6442562
-932.4834 1219.3812 2465.7593 6639944
-911.60651 1211.0527 2448.918 6244929
-896.37543 1210.0764 2446.9438 7099978
-882.12885 1210.4191 2447.6367 6441793
-861.2782 1201.5598 2429.7219 6441792
-851.23071 1207.7271 2442.1929 6573634
-831.90051 1200.7094 2428.0022 6178620
-813.12299 1194.2565 2414.9536 6113083
-798.55768 1193.8699 2414.1719 5257517
-787.89929 1199.4167 2425.3884 6968394
-776.88977 1204.6252 2435.9207 6705735
-759.37909 1199.7594 2426.0813 6771528
-744.34985 1198.702 2423.9431 6837064
-726.90698 1193.6396 2413.7063 6310977
-715.41772 1198.3467 2423.2246 6903113
-699.99725 1196.5267 2419.5444 6771269
-685.8009 1196.7667 2420.0298 6771014
-670.48456 1195.021 2416.4995 6705221
-654.85632 1192.6309 2411.6665 3220768
-634.35144 1181.0547 2388.2578 5455668
-618.26996 1177.3738 2380.8145 5916219
-601.48474 1172.1498 2370.2507 5916220
-594.98151 1187.192 2400.6682 4731689
-575.89447 1177.2472 2380.5583 5125930
-565.39819 1184.8049 2395.8413 4928552
-547.86835 1177.6335 2381.3396 4336414
-531.27014 1172.1387 2370.2283 6639168
-518.05914 1174.0212 2374.0352 6375996
-507.20236 1181.4929 2389.144 5717296
-489.02039 1171.8403 2369.625 5454894
-478.50909 1180.5416 2387.2202 6047032
-465.79993 1184.1853 2394.5884 6967621
-451.40744 1183.6442 2393.4939 7757137
-438.34631 1186.6721 2399.6169 8546910
-426.03342 1191.9963 2410.3833 7757395
-411.48685 1191.2236 2408.8208 7888725
-398.34003 1194.5931 2415.6345 8349278
-384.39508 1195.7311 2417.9355 7823191
-369.38403 1193.5125 2413.4492 8020571
-354.89325 1192.864 2412.1377 7823191
-337.85333 1183.2334 2392.6633 6638405
-324.70212 1186.9746 2400.2288 7165518
-310.25403 1186.1008 2398.4617 7691862
-294.86829 1181.3862 2388.9282 7099983
-282.13409 1187.3555 2400.9988 7494742
-267.9277 1187.4337 2401.157 6903118
-255.56717 1196.16 2418.803 5982015
-241.66106 1198.2596 2423.0486 5981760
-227.00568 1196.6746 2419.8433 6310726
-212.83134 1197.5825 2421.6794 6574153
-197.28888 1190.3669 2407.0886 5587258
-182.91728 1189.6421 2405.6228 5982016
-167.77321 1183.3462 2392.8916 6047297
-153.97148 1186.23 2398.7229 6441543
-139.31615 1182.4551 2391.0896 6968145
-125.60563 1186.7524 2399.7795 7033681
-111.67619 1189.8145 2405.9712 4862766
-97.786819 1194.2616 2414.9641 7691350
-83.876045 1199.9272 2426.4207 5257266
-69.221977 1195.1034 2416.6663 7033677
-55.064796 1198.5795 2423.6953 6441285
-40.617889 1195.9768 2418.4324 5783613
-26.442234 1202.8771 2432.3857 5914687
-11.955717 1195.228 2416.9182 6506825
2.3271263 1177.2552 2380.575 5914687
16.400105 1175.0996 2376.2158 5454135
30.953558 1193.4607 2413.3445 5257011
45.154945 1190.9338 2408.2346 6572614
59.904488 1200.6063 2427.7939 6374980
73.617554 1189.7823 2405.9062 6046014
86.95887 1177.4362 2380.9407 6111806
100.44717 1170.2487 2366.4065 6966858
115.97423 1185.665 2397.5806 6967116
131.14464 1194.469 2415.3833 6506823
146.02824 1199.1853 2424.9204 5980479
159.5414 1192.8107 2412.03 6046273
173.92064 1193.427 2413.2764 5059121
187.7336 1190.3593 2407.0728 5125171
201.52126 1187.5754 2401.4436 5848894
216.99323 1194.4301 2415.3044 5716797
230.60583 1190.8347 2408.0344 5256759
245.04855 1191.6956 2409.7749 4729388
258.0759 1185.9573 2398.1714 4729645
272.62659 1187.4529 2401.1958 5255991
287.60379 1190.5658 2407.4905 4796210
302.74951 1194.0491 2414.5342 2888470
313.93311 1182.2964 2390.7688 3480607
330.99802 1192.7518 2411.9111 5651777
339.83121 1173.9065 2373.803 4138279
353.8187 1173.6561 2373.2969 4269608
373.30603 1190.9713 2408.3105 3282712
387.06302 1189.4031 2405.1392 3875363
401.52042 1190.0217 2406.3904 3414556
415.41827 1188.9967 2404.3176 3019797
428.12088 1184.7321 2395.6938 2231053
439.43185 1177.0135 2380.0859 5059127
454.75739 1180.1936 2386.5166 4731445
467.77176 1177.3647 2380.7964 4863548
484.65002 1184.1422 2394.5012 3811891
501.0401 1189.3754 2405.0833 1510676
510.59735 1178.5477 2383.1882 4141372
527.1604 1184.0382 2394.2908 3812150
537.88177 1176.464 2378.9749 5390669
551.22137 1174.8571 2375.7251 4929347
563.56903 1171.2684 2368.4685 5652557
574.01892 1164.0059 2353.7827 4270388
594.75177 1177.4452 2380.959 4796731
602.763 1165.6602 2357.1277 4006958
627.3772 1185.7896 2397.8323 3020577
638.86853 1180.7736 2387.6892 3876397
648.82758 1173.2041 2372.3828 4533555
668.43915 1183.0392 2392.2708 4402480
687.58636 1191.6611 2409.7056 2493713
695.86566 1181.4803 2389.1184 3283229
700.7019 1165.976 2357.7664 4796467
717.25012 1170.1857 2366.2791 5059639
728.13916 1165.178 2356.1528 4533038
744.46759 1168.8993 2363.6777 5256761
761.45105 1173.4926 2372.9661 5190968
774.84949 1172.4945 2370.948 5125175
784.41266 1165.8319 2357.4751 4927025
811.5816 1185.1111 2396.4604 5848127
809.99585 1162.4603 2350.6575 5519162
827.1958 1167.0798 2359.9988 4795183
840.89807 1166.693 2359.2163 4926769
857.43231 1170.1836 2366.2749 4072486
869.77594 1167.9347 2361.7273 4072231
876.30542 1158.0735 2341.7866 4138280
896.65491 1166.4987 2358.8235 4532781
906.2005 1160.8257 2347.3518 6770258
916.29047 1156.011 2337.616 5059639
932.25403 1158.6396 2342.9314 3283485
947.3056 1160.0743 2345.8325 4467246
949.63696 1146.1155 2317.6057 5322555
975.23566 1160.2355 2346.1584 5125945
984.83423 1155.191 2335.9578 5587011
1005.8544 1163.4979 2352.7556 5850954
1017.8593 1161.2922 2348.2952 5654091
1030.4243 1159.7764 2345.23 5588558
1043.359 1158.7113 2343.0762 6642275
1042.771 1142.8536 2311.01 5129297
1065.3119 1152.4272 2330.3691 5063247
1075.5818 1148.6514 2322.7336 4537928
1083.2446 1142.2219 2309.7324 4536897
1112.6409 1158.5835 2342.8179 2892069
1128.8777 1161.0081 2347.7207 3943730
1136.3137 1154.4324 2334.4238 5325381
1143.3519 1147.6156 2320.6394 3615021
1154.8817 1145.4156 2316.1907 5193538
1161.9877 1138.9312 2303.0781 4996159
1177.5234 1140.764 2306.7844 5653060
1201.4387 1150.5795 2326.6326 5981512
1215.9496 1151.2681 2328.0251 5981254
1232.4473 1153.8014 2333.1477 6376269
1237.6206 1145.7943 2316.9563 5322554
1265.9681 1159.1824 2344.0288 6901844
1280.1034 1159.4076 2344.4844 5323582
1288.2507 1154.2629 2334.0811 6244684
1306.1497 1157.8719 2341.3792 7297372
1317.4303 1155.6 2336.7847 5981512
1323.4255 1148.7872 2323.0085 6047050
1342.4869 1153.3401 2332.2148 7691619
1354.4189 1151.7374 2328.9741 7428447
1371.3105 1154.3422 2334.2412 7165276
1393.4402 1161.2601 2348.2302 6441807
1409.7512 1163.2401 2352.2341 7823461
1426.6565 1165.6669 2357.1414 7626081
1436.3785 1162.2343 2350.2002 7494496
1457.9034 1168.326 2362.5188 7823718
1457.1189 1156.5939 2338.7947 8350317
1471.3499 1156.8892 2339.3916 8284523
1493.5531 1163.3887 2352.5347 6902615
1505.9507 1162.2007 2350.1323 7165785
1518.0219 1160.7848 2347.2693 6902358
1532.2462 1161.0264 2347.7576 6441552
1550.6439 1164.3972 2354.574 6902103
1561.5463 1162.1299 2349.989 7428703
1547.9535 1141.8339 2308.9478 5389377
1563.467 1143.1754 2311.6606 6968666
1571.8754 1139.3436 2303.9121 7034203
1583.1403 1137.6306 2300.448 6508373
1605.9078 1144.1418 2313.6147 5915210
1630.5592 1151.8737 2329.2498 7823720
1639.4714 1148.4506 2322.3276 7363426
1646.8967 1144.0514 2313.4319 6047566
1657.7083 1142.0577 2309.4004 6442324
1675.72 1145.0167 2315.3838 4666169
1702.5175 1153.882 2333.3108 5191744
1710.5792 1150.0088 2325.4785 5916237
1708.249 1139.2666 2303.7566 8284784
1732.4993 1146.2816 2317.9417 5718861
1755.8677 1152.6073 2330.7332 524550
1731.7904 1127.9324 2280.8369 720904
1732.0392 1119.3606 2263.5037 786440
1731.8486 1110.6388 2245.8672 589828
1742.5726 1108.9962 2242.5454 1510931
1732.4374 1094.2039 2212.6333 9469831
1751.1024 1097.6873 2219.677 8021612
1760.2163 1095.176 2214.5991 7693419
1762.4655 1088.4626 2201.0237 11246239
1776.1385 1088.8511 2201.8093 10061967
1804.9719 1098.4601 2221.24 10324885
1814.0631 1096.0023 2216.27 8614780
1822.0258 1092.9031 2210.0029 11706537
1827.0021 1088.0695 2200.2285 11377828
1823.7268 1078.4248 2180.7258 10456729
1858.1761 1091.0668 2206.2896 10061970
1884.4565 1098.7692 2221.8647 11574438
1899.8851 1100.0809 2224.5176 11574439
1909.407 1097.9783 2220.2656 13022138
1904.5465 1087.6906 2199.4624 7626607
1971.8281 1118.4631 2261.689 5128008
1997.4633 1125.3569 2275.6292 3087654
2027.2076 1134.4581 2294.033 4007476
2075.0205 1153.4821 2332.502 3940912
2063.9402 1139.7328 2304.699 2956839
2068.6521 1134.8275 2294.7798 2889764
2081.7639 1134.5642 2294.2476 4074037
2093.3528 1133.4799 2292.0547 2823972
2101.6729 1130.6509 2286.3342 2232861
2118.6431 1132.4818 2290.0366 3417136
2121.7986 1126.952 2278.8547 3614515
2137.3359 1128.0271 2281.0286 4732996
2147.1768 1126.101 2277.1338 4337981
2155.1057 1123.2026 2271.2729 4601153
2175.2742 1126.6796 2278.3037 4864581
0 0 0 0
0 0 0 0
0 0 0 0
0 0 0 0
0 0 0 0
0 0 0 0
0 0 0 0
0 0 0 0
0 0 0 0
-2106.8447 1195.7941 2389.4382 6836546
-2091.5012 1195.1154 2388.082 6441532
-2088.2532 1201.386 2400.6121 6968133
-2080.6169 1205.2006 2408.2344 6310461
-2069.678 1207.1415 2412.1128 6113852
-2051.9023 1205.0945 2408.0225 7100748
-2044.3063 1209.0389 2415.9043 7100751
-2025.5985 1206.421 2410.6731 6772041
-2012.1656 1206.9301 2411.6902 6574405
-1996.3964 1206.0348 2409.9014 5982525
-1976.9589 1202.8948 2403.627 5982526
-1950.9706 1195.6943 2389.239 5982525
-1932.2834 1192.8961 2383.6475 5390645
-1927.8821 1198.9408 2395.7261 5850940
-1913.9927 1199.1309 2396.106 5916221
-1898.6887 1198.431 2394.7075 5456183
-1881.2421 1196.3579 2390.5649 4271396
-1854.639 1188.3862 2374.636 3876638
-1824.0547 1177.7222 2353.3271 4995121
-1818.833 1183.3958 2364.6641 4929328
-1797.9934 1178.917 2355.7144 5455672
-1793.8447 1185.3976 2368.6641 5455670
-1790.2767 1192.3673 2382.5908 5653048
-1772.8549 1190.1472 2378.1548 5916221
-1787.4108 1209.5309 2416.8872 4535081
-1769.979 1207.407 2412.6433 5982783
-1590.2201 1093.614 2185.262 9272947
0 0 0 0
-1586.3738 1109.026 2216.0581 9798774
-1590.3678 1121.0962 2240.1768 10193531
-1592.3754 1131.9574 2261.8796 10719872
-1584.1108 1135.6389 2269.2361 10062200
-1590.1119 1149.6979 2297.3286 10193531
-1579.5875 1151.948 2301.825 7429968
-1593.5458 1172.2472 2342.387 5193521
-1589.641 1179.6475 2357.1741 6114367
-1580.8718 1183.5369 2364.946 6114624
-1567.551 1184.0577 2365.9868 6114624
-1557.7129 1187.2427 2372.3508 5785659
-1529.0961 1176.0424 2349.9705 5325108
-1520.8954 1180.483 2358.8438 5917245
-1523.5256 1193.4906 2384.8354 5654073
-1525.3254 1206.085 2410.0017 5390391
-1511.9108 1206.7736 2411.3777 5324340
-1511.8533 1218.2385 2434.2869 6245699
-1484.2014 1207.4747 2412.7786 6311238
-1474.9369 1211.6061 2421.0339 6377287
-1471.8918 1220.9779 2439.7607 5850941
-1444.7568 1210.3541 2418.5322 6048320
-1433.3708 1212.8434 2423.5061 4666154
-1411.158 1206.1293 2410.0901 4929325
-1385.4459 1196.2565 2390.3623 5126448
-1390.5586 1213.0702 2423.9595 4929326
-1370.9562 1208.4492 2414.7258 4205601
-1366.2998 1217.0441 2431.9001 4731946
-1349.6461 1215.0217 2427.8589 5126704
-1319.0856 1200.3011 2398.4443 3613722
-1315.1754 1209.7745 2417.374 5258804
-1301.9624 1210.8049 2419.4331 5718842
-1280.9534 1204.5276 2406.8896 5521464
-1275.9237 1213.304 2424.4265 5718587
-1262.9711 1214.6602 2427.1365 5652535
-1241.6226 1207.8799 2413.5884 6113343
-1226.4882 1207.0575 2411.9448 5916221
-1206.8102 1201.6912 2401.2219 6639944
-1196.272 1205.4066 2408.646 6443078
-1180.2302 1203.599 2405.0342 5784891
-1172.8403 1210.6783 2419.1802 5653049
-1161.73 1214.0449 2425.9072 5982014
-1142.1012 1208.4822 2414.7917 6113343
-1129.1838 1209.9698 2417.7644 5587256
-1114.3407 1209.4059 2416.6375 6376772
-1100.0839 1209.4717 2416.769 6573894
-1085.8027 1209.5122 2416.8499 5652535
-1072.8337 1211.0349 2419.8926 6310979
-1052.9678 1204.7081 2407.2502 5849914
-1037.2874 1203.0619 2403.9609 5323829
-1025.5691 1206.0292 2409.8901 4139812
-1005.254 1198.828 2395.5007 5982015
-994.92371 1203.4987 2404.8337 6442822
-984.15393 1207.7657 2413.3601 3877154
-965.32635 1202.1241 2402.0872 5653049
-944.03729 1193.2025 2384.26 6112830
-937.07941 1202.3988 2402.636 6112573
-919.43817 1197.9592 2393.7646 5652279
-895.77118 1185.4062 2368.6814 5718842
-890.46246 1197.1346 2392.1172 6047807
-880.51129 1202.9 2403.6375 6310977
-868.79303 1206.4014 2410.6338 6310206
-850.10974 1200.1863 2398.2148 5981496
-832.84686 1195.7997 2389.4495 5520432
-823.04449 1202.1582 2402.155 6047290
-804.79291 1196.1821 2390.2136 6047291
-792.63757 1199.2153 2396.2747 7099978
-779.45782 1200.781 2399.4031 6640198
-762.4826 1196.4491 2390.7471 5653047
-752.7674 1203.561 2404.9583 6442565
-735.39362 1198.4662 2394.7776 6574148
-714.75787 1187.7504 2373.3652 6047805
-701.73883 1189.5155 2376.8923 6245183
-690.11749 1193.7705 2385.3948 6442563
-682.9931 1206.1451 2410.1218 6771271
-665.80341 1200.8934 2399.6279 6639941
-647.03168 1192.4971 2382.8503 7363665
-633.80212 1194.1683 2386.1897 6705735
-617.70087 1190.3817 2378.6233 6969161
-603.41205 1189.9924 2377.8455 7363918
-587.86853 1187.0511 2371.9683 7428685
-576.13232 1191.8422 2381.5415 5849654
-565.6275 1199.4847 2396.813 5192492
-549.81488 1195.9753 2389.8005 4864298
-531.90485 1187.5974 2373.0598 5783863
-517.25793 1186.248 2370.3635 6375744
-503.4837 1186.8806 2371.6274 6309952
-487.10001 1181.2216 2360.3196 5388594
-478.41232 1194.4425 2386.7375 5783352
-458.12073 1178.615 2355.1111 5191214
-444.14706 1178.5581 2354.9973 7033418
-432.61273 1185.1803 2368.2297 7691603
-419.56509 1187.9615 2373.7874 8217690
-406.03125 1189.5114 2376.884 8151896
-391.61319 1188.489 2374.8413 5914677
-377.4715 1188.2604 2374.3845 7427916
-363.91409 1189.9247 2377.7102 7428431
-347.64651 1182.5045 2362.8831 8283999
-334.56149 1185.7412 2369.3506 8020570
-320.9538 1187.3276 2372.5208 8087133
-305.08783 1180.3229 2358.5237 8021597
-290.32159 1177.1042 2352.0923 6047807
-280.52493 1194.7262 2387.3044 7100238
-266.5235 1195.361 2388.5728 6508104
-251.5882 1191.6433 2381.1443 6903119
-239.26964 1200.6146 2399.0708 7298133
-224.60037 1198.1786 2394.2031 6903632
-210.26974 1197.3427 2392.5325 6771532
-197.1664 1203.8793 2405.5942 6310724
-180.12489 1185.5151 2368.8989 6310981
-165.99266 1184.8131 2367.4961 7034704
-151.60229 1181.9691 2361.8132 6573898
-137.03879 1177.0596 2352.0029 6376005
-122.813 1174.2677 2346.4243 6178371
-109.72833 1183.0667 2364.0063 7033422
-95.365211 1178.6394 2355.1597 6243649
-81.783501 1184.0073 2365.886 5388597
-67.815582 1184.8483 2367.5664 5651768
-53.410465 1176.4972 2350.8792 6836043
-39.541397 1178.2277 2354.3369 6704714
-25.559912 1176.6688 2351.2222 7428696
-11.682428 1181.8982 2361.6714 6441286
2.3041744 1179.6083 2357.0959 6638153
16.264664 1179.3561 2356.5918 6309700
30.407158 1186.4384 2370.7437 5782585
43.895092 1171.5748 2341.0432 6045757
59.207886 1200.8606 2399.5623 5650998
72.779419 1190.3275 2378.5151 3810338
86.226524 1181.5066 2360.8889 7163981
99.959457 1178.5178 2354.9167 4927019
115.12639 1191.0972 2380.053 5190191
128.20032 1181.64 2361.1555 5716792
145.18758 1206.5647 2410.9602 7033422
157.00569 1187.9148 2373.6938 7296340
170.85843 1186.4595 2370.7859 5519929
185.92967 1193.0441 2383.9434 5848894
200.5305 1195.8937 2389.6372 6902095
213.82169 1191.072 2380.0027 5914689
227.19315 1187.2666 2372.3987 5454138
240.94127 1185.7582 2369.3845 5190966
255.27591 1187.1433 2372.1523 6638412
271.48883 1196.6631 2391.1748 5256502
286.51892 1200.2834 2398.4089 5388089
300.67932 1200.0906 2398.0237 4598830
310.89441 1184.8789 2367.6274 4598573
328.27747 1197.1196 2392.0869 3744292
337.00809 1178.1005 2354.0828 5125172
351.56146 1180.1388 2358.156 5585467
368.45364 1189.5725 2377.0063 4862514
383.11218 1191.3656 2380.5894 4533549
400.49899 1201.2141 2400.2688 6507853
409.72836 1186.7599 2371.3862 3875879
424.17209 1187.8665 2373.5972 2692373
434.77823 1178.4996 2354.8806 3942698
449.7767 1181.2511 2360.3784 5455168
461.8598 1176.4108 2350.7065 5389118
479.22229 1184.9075 2367.6846 4468274
490.78101 1178.9786 2355.8376 4468789
502.54245 1173.8513 2345.5923 4797496
520.60461 1183.3214 2364.5154 4863033
528.05042 1168.7966 2335.4919 4731444
544.49786 1174.4293 2346.7473 4862774
552.64313 1162.3203 2322.551 4994617
572.58667 1175.011 2347.9097 4731445
587.3479 1176.7174 2351.3193 4797494
599.57263 1173.3806 2344.6516 4402738
614.34613 1175.0699 2348.0273 3810859
630.11877 1178.5535 2354.988 4337458
641.49615 1173.8431 2345.5759 4994619
656.6261 1176.0538 2349.9932 4007722
675.04395 1183.9391 2365.7495 4401710
683.75269 1174.8214 2347.5308 2954007
698.75647 1176.6678 2351.2202 4006952
714.2973 1179.3287 2356.5374 4862005
716.47925 1160.2545 2318.4231 5454140
728.12549 1156.9358 2311.7917 5125432
747.11536 1165.1929 2328.2908 5980484
754.96375 1156.0891 2310.0999 4598831
779.0451 1171.725 2341.3435 4729647
786.74561 1162.6071 2323.124 5190198
808.35394 1174.0016 2345.8926 5255734
819.07489 1169.4661 2336.8296 5190711
831.20874 1167.0651 2332.032 5059124
846.97052 1169.7531 2337.4031 5388604
853.25055 1159.47 2316.8555 4072487
866.88635 1159.3501 2316.6157 4269610
885.95886 1166.3912 2330.6855 4467247
886.71661 1149.4745 2296.8823 4533296
911.39313 1163.6069 2325.1221 4401709
923.69415 1161.7537 2321.4187 5257017
927.75958 1149.7487 2297.4302 4993591
947.52777 1157.2694 2312.4583 4731960
963.65417 1160.1912 2318.2966 2561567
972.95306 1154.9265 2307.7766 4604761
988.35516 1156.9519 2311.8237 4146527
1001.1775 1155.9434 2309.8086 3884642
1015.6893 1156.8866 2311.6934 3950437
1025.1469 1152.1241 2302.177 4279402
1033.7329 1146.5205 2290.9797 4082280
1048.1245 1147.4174 2292.772 4213608
1059.5564 1145.0927 2288.1267 3820132
1066.5365 1138.0763 2274.1067 4279655
1087.4279 1145.8942 2289.7283 4277597
1099.5018 1144.3425 2286.6277 4801625
1110.917 1142.1512 2282.2493 4602439
1128.5077 1146.2855 2290.5103 4865349
1140.7902 1144.9938 2287.929 5126977
1153.2428 1143.9011 2285.7456 4534325
1172.4485 1149.4546 2296.8425 5126203
1181.3922 1144.9352 2287.8118 5848900
1199.7238 1149.5132 2296.9597 5125433
1212.9185 1149.1218 2296.1777 4796468
1218.9707 1142.0476 2282.042 3151642
1240.8577 1149.801 2297.5349 4401709
1263.0327 1157.6505 2313.2197 4270123
1272.1567 1153.4977 2304.9216 6836051
1279.8857 1148.1816 2294.2991 6244171
1297.8635 1152.0748 2302.0784 5849414
1319.9287 1159.4777 2316.8706 5914951
1328.9684 1155.4036 2308.73 5586243
1338.5548 1151.8832 2301.6953 6638931
1341.7573 1142.9954 2283.9358 6375502
1358.5029 1145.7068 2289.3538 6638930
1378.1665 1150.8013 2299.5334 7098967
1394.3057 1152.8816 2303.6907 7296602
1419.9159 1162.6771 2323.2639 8415083
1416.0988 1148.4197 2294.7747 5520703
1440.2465 1156.8965 2311.7131 7888998
1462.5896 1163.7777 2325.4631 8284013
1474.1638 1162.0416 2321.9941 8086891
1475.8514 1152.6165 2303.1606 6771543
1485.9529 1149.8748 2297.6821 7363424
1495.509 1146.7646 2291.4675 7034459
1522.3606 1156.8535 2311.6272 7166045
1532.7686 1154.3783 2306.6812 7823718
1528.5885 1141.0571 2280.0627 7363167
1543.8224 1142.3345 2282.6152 6573139
1553.7017 1139.6619 2277.2749 7362911
1573.7289 1144.415 2286.7725 6638417
1592.6083 1148.2594 2294.4543 5322301
1593.6663 1139.2983 2276.5483 5387837
1601.5077 1135.2963 2268.5515 5388351
1622.3154 1140.4762 2278.9021 5454659
1643.8263 1146.0608 2290.0613 3745067
1643.9495 1136.7646 2271.4856 3285028
1643.2568 1127.0599 2252.0938 5323074
1682.626 1144.7676 2287.4771 4731451
1696.9122 1145.2633 2288.4678 2430750
1696.8961 1136.1752 2270.3076 1246480
1707.5664 1134.3286 2266.6179 655372
1718.3267 1132.5703 2263.1045 589840
1721.1378 1125.6405 2249.2573 655376
1723.4468 1118.4912 2234.9717 655374
1717.0825 1105.865 2209.7419 655371
1738.3831 1111.1123 2220.2271 590090
1730.005 1097.4536 2192.9341 6640479
1737.1556 1093.7761 2185.5857 4666943
1744.9529 1090.557 2179.1533 7430760
1759.1659 1091.3654 2180.7688 8219765
1768.2426 1088.9989 2176.0398 9929358
1780.5615 1088.649 2175.3408 9271684
1798.1854 1091.5242 2181.0859 9797771
1803.8796 1087.1686 2172.3826 11113631
1816.2526 1086.8713 2171.7886 11311267
1837.7006 1091.9706 2181.978 7955823
1885.9336 1112.8035 2223.6062 10258324
1886.1207 1105.1941 2208.4014 10060944
1907.1852 1109.8387 2217.6821 9139841
1918.3468 1108.6964 2215.3997 10193300
1924.1285 1104.4814 2206.9773 11838126
1935.7666 1103.6625 2205.3408 11114402
1946.0731 1102.1003 2202.2192 12364466
2031.1263 1142.6077 2283.1611 11179933
1973.6295 1102.9182 2203.8535 12824760
2010.1614 1115.9509 2229.8955 7496042
2060.7837 1136.5846 2271.1257 3548464
2046.6445 1121.4646 2240.9128 5061960
2072.7227 1128.4344 2254.8401 4140600
2078.7732 1124.4816 2246.9414 5324615
2082.2107 1119.1743 2236.3367 4008755
2090.7178 1116.642 2231.2764 2561307
2099.5122 1114.2937 2226.5842 4863552
2121.0686 1118.7061 2235.4009 4139572
2139.9075 1121.6392 2241.262 5061184
0 0 0 0
0 0 0 0
0 0 0 0
0 0 0 0
0 0 0 0
0 0 0 0
0 0 0 0
0 0 0 0
0 0 0 0
-2069.0398 1188.2385 2346.5627 6705474
-2082.605 1204.1193 2377.9243 6968389
-2076.0608 1208.5103 2386.5959 6574145
-2048.8213 1200.8318 2371.4321 6903368
-2049.6367 1209.6041 2388.7559 6837575
-2010.7211 1194.8878 2359.6938 7035210
-2016.4963 1206.7092 2383.0391 7100490
-2003.0759 1207.1294 2383.8689 6705732
-1990.6029 1208.1307 2385.8462 6377280
-1969.1239 1203.6411 2376.9802 6377283
-1955.322 1203.8135 2377.3203 6772041
-1933.7139 1199.1473 2368.1057 6179647
-1903.7408 1189.1879 2348.4375 5061680
-1901.8308 1196.7407 2363.353 5718841
-1897.6003 1202.9344 2375.5847 5784636
-1868.7142 1193.4742 2356.9023 3810847
-1847.345 1188.7085 2347.4907 4139301
-1829.6608 1186.2595 2342.6545 5390138
-1796.2828 1173.5204 2317.4968 3153689
-1735.1882 1142.3381 2255.9175 6311494
-1773.4969 1176.6206 2323.6194 6903887
-1728.4261 1155.6888 2282.2827 7167058
-1652.7756 1113.8191 2199.5974 7496538
-1649.8622 1120.6915 2213.1692 8352361
-1620.0107 1109.2295 2190.5337 9010037
-1604.5004 1107.4811 2187.0808 8746092
-1583.7612 1102.0656 2176.3862 8285538
-1576.9622 1106.3412 2184.8298 9009004
-1584.2384 1120.644 2213.0754 8416866
-1562.9357 1114.8008 2201.5361 7890523
-1569.3912 1128.8253 2229.2319 8087644
-1557.9816 1130.1285 2231.8057 9403499
-1559.6233 1141.0027 2253.28 10720126
-1559.4607 1150.7329 2272.4956 10851712
-1545.2675 1150.1891 2271.4216 3614230
-1549.8008 1163.6971 2298.0977 5455927
-1541.7611 1167.9202 2306.4373 5982782
-1538.7207 1176.0397 2322.4719 5390646
-1517.4292 1170.2303 2310.9998 5851196
-1508.8861 1174.2366 2318.9111 5324851
-1507.1376 1183.6525 2337.5059 6114624
-1505.5354 1193.3589 2356.6746 5653559
-1502.0277 1201.7227 2373.1914 5719353
-1489.9988 1203.3624 2376.4297 5916733
-1475.1165 1202.707 2375.1355 5653562
-1466.903 1207.5287 2384.6575 4863279
-1450.49 1205.6288 2380.9055 4271141
-1441.8553 1210.2205 2389.9731 4337191
-1418.2776 1202.2363 2374.2058 4008225
-1396.8612 1195.9424 2361.7766 4008224
-1382.2255 1195.3856 2360.6768 5850428
-1373.0496 1199.5873 2368.9744 5784890
-1354.9684 1196.0151 2361.9202 5456439
-1341.4055 1196.3984 2362.677 4995376
-1328.0161 1196.946 2363.7585 5389877
-1314.9215 1197.7738 2365.3933 5521463
-1304.7202 1201.2834 2372.3242 4863533
-1286.3435 1197.2603 2364.3792 5653306
-1270.2307 1195.2791 2360.4663 5784635
-1256.09 1195.1298 2360.1716 5916219
-1244.2461 1197.1871 2364.2346 6047806
-1228.1381 1195.1418 2360.1956 6113600
-1220.752 1201.6349 2373.0181 6179136
-1206.7522 1201.6931 2373.1331 6113600
-1196.402 1205.4298 2380.5125 6837323
-1178.1316 1201.1807 2372.1211 6113343
-1162.9642 1200.0308 2369.8501 6310979
-1160.6772 1212.306 2394.0918 4534568
-1135.7975 1200.9954 2371.7551 5323059
-1120.7656 1199.9452 2369.6812 5783608
-1103.024 1195.9302 2361.7522 5455670
-1096.5502 1204.1857 2378.0554 4797740
-1078.5519 1199.8358 2369.4653 5718842
-1072.0927 1208.3772 2386.333 6047807
-1053.5359 1203.3292 2376.364 6376772
-1042.8746 1207.2848 2384.1758 6443077
-1021.9145 1199.2627 2368.3335 5850940
-1013.0715 1205.4353 2380.5232 5785147
-995.6571 1201.4392 2372.6316 6640198
-975.88806 1194.4468 2358.8228 5653303
-968.54028 1202.6749 2375.072 4995119
-949.03113 1195.8219 2361.5386 3876638
-933.89697 1194.3591 2358.6497 5980987
-921.02057 1195.7831 2361.4617 4796971
-909.37982 1198.8799 2367.5776 3941919
-893.28796 1196.1139 2362.115 5784635
-881.59003 1199.2368 2368.2822 5587256
-866.03864 1197.1342 2364.1299 6574149
-850.26996 1194.6569 2359.2378 5916220
-843.89752 1205.5197 2380.6899 6179905
-826.20056 1200.2994 2370.3809 6047550
-811.70288 1199.6271 2369.053 6376515
-799.27002 1202.0363 2373.8108 4928556
-788.67834 1207.3503 2384.3052 6310209
-778.82709 1214.0123 2397.4614 5849658
-755.11755 1198.9188 2367.6543 4731947
-746.43878 1207.5703 2384.7395 5521460
-728.81824 1201.8107 2373.3652 6837574
-711.38361 1196.1371 2362.1609 6574148
-693.30756 1189.1356 2348.3342 6705735
-679.87732 1189.979 2349.9998 6113598
-668.07111 1193.7594 2357.4656 6244927
-656.61359 1198.3378 2366.5068 6508356
-643.17755 1199.4263 2368.6565 7100492
-628.34485 1197.9008 2365.6438 7166286
-614.38098 1197.9996 2365.8391 7429455
-599.79004 1196.8519 2363.5725 6640196
-586.83673 1198.9951 2367.8052 6968391
-573.29004 1200.0013 2369.7922 4665379
-557.60565 1196.4713 2362.821 6442048
-543.42871 1196.0773 2362.0427 5718069
-529.31122 1195.7965 2361.4883 7296844
-513.23114 1190.9464 2351.9104 7099978
-500.48672 1193.7822 2357.5105 7363151
-485.82153 1192.0676 2354.1245 7034185
-470.90634 1189.6201 2349.291 7297357
-458.77438 1194.2688 2358.4714 5849911
-442.5527 1188.2289 2346.5437 6704964
-427.07886 1183.8702 2337.936 6770501
-411.56165 1179.0951 2328.5059 8020311
-400.80945 1188.1135 2346.3159 8283740
-388.31171 1192.4198 2354.8201 8679268
-371.8027 1184.2705 2338.7266 7889751
-357.68857 1183.4137 2337.0344 7363151
-343.69806 1182.9132 2336.0461 7362639
-328.53925 1178.1812 2326.7012 8941930
-313.87155 1174.873 2320.1682 7561046
-298.29288 1167.6958 2305.9944 7823705
-286.5426 1175.5354 2321.4763 7232081
-274.24725 1181.8167 2333.8806 7495251
-259.89423 1179.427 2329.1614 7297874
-247.26785 1185.0443 2340.2546 7758425
-234.60829 1191.1605 2352.333 7232081
-220.23274 1188.7866 2347.645 7955804
-205.82016 1185.8792 2341.9033 6837323
-192.49547 1189.2727 2348.605 7166290
-177.99727 1185.3799 2340.9175 7363670
-164.12238 1185.3312 2340.821 6376518
-149.04002 1175.7478 2321.8955 7165522
-134.54619 1169.3303 2309.2224 5718074
-121.63055 1176.7288 2323.833 6836043
-108.42482 1182.851 2335.9231 6112319
-94.482231 1181.5497 2333.3535 5980732
-79.900795 1170.4443 2311.4221 6770249
-66.43045 1174.3872 2319.2087 5256753
-52.47324 1169.5352 2309.627 6177856
-39.000496 1175.8669 2322.1311 7033166
-25.43388 1184.7273 2339.6287 7428182
-11.614886 1188.9752 2348.0173 6638667
2.2915137 1187.014 2344.1445 6441286
16.160961 1185.7084 2341.5662 7099473
29.943691 1182.1854 2334.6086 6572871
43.544792 1175.9834 2322.3608 6638663
57.962189 1189.5117 2349.0769 6309443
71.51712 1183.5288 2337.2617 4337195
84.772667 1175.3359 2321.0823 7296594
98.784866 1178.4565 2327.2449 6638664
113.35434 1186.6465 2343.4187 5388597
126.78402 1182.4192 2335.0706 6177856
141.51549 1189.9701 2349.9822 7098961
155.07069 1187.1633 2344.4395 7098962
169.36276 1189.9955 2350.0325 5520186
183.46045 1191.1354 2352.2834 3349017
198.23984 1196.2279 2362.3403 5980992
210.82835 1188.3003 2346.6846 6309445
223.72214 1182.9677 2336.1536 6243651
237.79271 1184.1162 2338.4219 7625304
249.81573 1175.5038 2321.4138 6835789
263.60757 1175.679 2321.7595 6638667
278.6839 1181.2812 2332.8232 6507083
293.26685 1184.3617 2338.9065 5783617
307.80814 1187.0037 2344.124 6046789
321.09567 1184.7913 2339.7549 5783361
334.69897 1183.8789 2337.9531 4927536
348.2684 1182.924 2336.0674 4138020
361.73233 1181.6974 2333.645 5322293
376.84641 1185.7534 2341.655 7164753
390.05759 1183.7463 2337.6914 6111809
404.99863 1186.9468 2344.0117 5717054
419.336 1188.2246 2346.5352 5914689
431.14136 1182.4758 2335.1824 5190968
442.4144 1175.6699 2321.7419 5388861
459.81857 1185.076 2340.3174 5718340
470.31757 1176.656 2323.6892 5718598
481.96426 1171.5044 2313.5159 2167061
493.15231 1165.5538 2301.7644 4665655
509.45096 1171.6771 2313.8569 5389633
527.04645 1180.3842 2331.0518 5257789
540.62982 1179.8901 2330.0762 5126203
553.2041 1177.2736 2324.9087 5257789
558.24731 1159.1464 2289.1108 4665652
578.67572 1173.0673 2316.6021 4599602
592.19403 1172.6598 2315.7974 4731445
600.25562 1161.7101 2294.1736 4534322
617.61157 1168.835 2308.2439 4073772
634.1098 1174.063 2318.5684 4665653
651.21783 1180.1744 2330.6375 5652805
657.79999 1167.3525 2305.3167 5323070
670.7887 1166.1904 2303.0215 4336432
691.59808 1178.4 2327.1333 4665398
699.02856 1167.7819 2306.1643 4665655
710.59528 1164.3481 2299.3833 4073518
722.23541 1161.1617 2293.0908 7625824
739.42548 1166.8511 2304.3262 5125433
751.69177 1164.705 2300.0881 3545888
758.22479 1153.91 2278.77 5848129
772.54663 1155.139 2281.197 4795955
789.55798 1160.2781 2291.3457 5453629
805.16058 1163.208 2297.1318 5257019
814.99652 1157.8481 2286.5471 5388349
831.32306 1161.7338 2294.2205 6244684
844.10327 1160.6183 2292.0176 5257019
855.59991 1157.8013 2286.4543 4533295
869.67029 1158.5005 2287.8352 4730418
879.0802 1153.0652 2277.1016 4072488
894.86493 1156.0295 2282.9556 3743523
906.39069 1153.4856 2277.9319 3809573
918.74707 1152.0579 2275.1123 5783105
937.22327 1158.2345 2287.3098 4600373
955.63428 1164.1554 2299.0027 2169120
958.07245 1150.7253 2272.4807 4407640
973.48718 1153.0375 2277.0466 4212321
989.08734 1155.5029 2281.9155 3687267
998.784 1151.0981 2273.217 4740982
1011.1951 1149.8973 2270.8455 3820399
1020.5469 1145.2949 2261.7566 4347262
1033.741 1145.0676 2261.3079 5204111
1042.7476 1140.2673 2251.8279 5203852
1055.2872 1139.4027 2250.1206 5728396
1066.7003 1137.3586 2246.0837 3687781
1083.8351 1141.3903 2254.0457 3949923
1098.5876 1142.8459 2256.9202 3751516
1116.9954 1148.0231 2267.144 5000296
1130.3979 1147.994 2267.0869 4933727
1142.2284 1146.3879 2263.915 4142663
1143.6483 1134.4918 2240.4224 5127754
1172.5096 1149.7783 2270.6104 4731197
1198.3239 1161.7637 2294.2795 4599863
1201.1239 1151.4186 2273.8496 5191485
1211.0992 1148.1049 2267.3057 3612453
1227.2389 1150.6434 2272.3191 3612452
1231.361 1141.9817 2255.2136 4994103
1267.0745 1162.4899 2295.7134 4534322
1267.9607 1150.949 2272.9224 4862777
1285.1393 1154.2842 2279.5088 6244173
1293.0573 1149.3188 2269.7031 4204589
1309.3949 1151.8623 2274.7261 6112329
1323.3317 1152.2637 2275.5186 5191228
1335.4498 1151.0892 2273.1992 4401712
1342.3705 1145.5028 2262.1672 4730418
1354.2179 1144.1898 2259.5742 5519679
1370.7351 1146.8092 2264.7471 4270382
1378.4462 1142.0819 2255.4114 3085852
1392.1855 1142.3917 2256.0234 4861749
1415.9287 1150.8269 2272.6812 5190457
1424.1429 1146.6002 2264.3342 5848646
1437.6494 1146.6736 2264.4792 5848902
1444.5807 1141.5498 2254.3606 6638420
1474.2133 1154.2947 2279.5295 5388353
1489.6115 1155.7639 2282.4312 5980489
1509.9642 1161.0165 2292.804 5783623
1509.3927 1150.23 2271.5024 6704724
1518.5378 1146.9733 2265.071 6507602
1526.2325 1142.6876 2256.6077 6968153
1554.4772 1153.7286 2278.4116 6704981
1560.6948 1148.3717 2267.8328 6047051
1565.2786 1141.9143 2255.0806 6309966
1586.8817 1147.8776 2266.8567 5718084
1607.6984 1153.1763 2277.3208 7099995
1610.3452 1145.4623 2262.0872 6836567
1610.3582 1136.0178 2243.4358 7034461
1610.0151 1126.4785 2224.5977 6771802
1634.0916 1134.0413 2239.5327 7034974
1644.0494 1131.7629 2235.0334 7758184
1666.5322 1138.0743 2247.4971 4994880
1701.813 1152.9561 2276.886 4469050
1686.4896 1133.5897 2238.6409 1641240
1700.2899 1133.9486 2239.3496 458761
1706.719 1129.4241 2230.4143 458765
1713.5587 1125.2385 2222.1487 393231
1714.9852 1117.5892 2207.0427 458766
1711.942 1107.165 2186.4568 458766
1712.5825 1099.2621 2170.8496 262155
1726.7963 1100.124 2172.552 327689
1713.7073 1083.7078 2140.1328 6708070
1736.0543 1089.777 2152.1184 8483198
1742.4453 1085.8145 2144.2932 6246234
1761.6903 1089.8616 2152.2854 5785685
1772.8577 1088.889 2150.365 7430256
1797.4512 1096.118 2164.6409 8746114
1804.722 1092.7557 2158.001 9995924
1832.1779 1101.5768 2175.4209 11048353
1860.6281 1110.8682 2193.7698 9995152
1861.3899 1103.6143 2179.4446 8613242
1873.3845 1103.0746 2178.3787 9665930
1898.6478 1110.3014 2192.6504 9402501
1916.3374 1113.031 2198.041 9139842
1917.3502 1106.1033 2184.3599 8218997
1920.051 1100.2355 2172.772 7824239
1931.1643 1099.2345 2170.7952 9337478
1942.0062 1098.0931 2168.5413 10258323
1970.7496 1107.0227 2186.1755 10784668
2001.5305 1116.9725 2205.825 10983073
2004.1907 1111.2023 2194.4294 8482941
1992.2277 1097.4508 2167.2727 10127764
2031.4238 1111.8767 2195.7615 9996178
2057.3152 1118.8833 2209.5984 10061968
2077.4333 1122.6814 2217.0989 8285300
2085.2966 1119.8505 2211.5083 7298149
2077.6689 1108.788 2189.6619 6509147
2089.0791 1107.9597 2188.0261 7035489
0 0 0 0
0 0 0 0
0 0 0 0
0 0 0 0
0 0 0 0
0 0 0 0
0 0 0 0
0 0 0 0
0 0 0 0
0 0 0 0
-2060.3093 1205.165 2352.4673 6377023
-2032.6622 1197.0903 2336.7056 6179645
-2018.1493 1196.6932 2335.9304 5521458
-2013.5569 1202.2137 2346.7065 6048058
-1997.6202 1200.9907 2344.3191 5785142
-1967.9467 1191.434 2325.6646 5982012
-1960.6857 1195.4072 2333.4202 5916218
-1955.5017 1200.7122 2343.7754 6376769
-1947.3387 1204.2507 2350.6826 6442562
-1928.8619 1201.4163 2345.1497 6443074
-1910.4813 1198.601 2339.6543 4600360
-1897.483 1199.1459 2340.718 4666154
-1876.4862 1194.6069 2331.8579 6047806
-1839.252 1179.5868 2302.5388 4600360
-1815.4601 1173.0278 2289.7358 3745308
-1786.1606 1162.7847 2269.7415 6969679
-1781.7242 1168.6947 2281.2776 8022368
-1755.775 1160.4761 2265.2351 8483175
-1662.0709 1107.0038 2160.8577 7693916
-1658.2632 1113.0404 2172.6411 7693402
-1663.9182 1125.5725 2197.1038 7364438
-1652.8757 1126.9183 2199.7307 7232596
-1634.9338 1123.5441 2193.144 7298645
-1611.2706 1116.1522 2178.7156 7561306
-1607.0901 1122.2461 2190.6106 6837838
-1586.4003 1116.8168 2180.0127 6640458
-1573.5586 1116.8688 2180.1143 9799033
-1571.5219 1124.6543 2195.3113 10588547
-1547.1104 1116.4233 2179.2446 11114627
-1547.756 1126.288 2198.5002 10456177
-1556.809 1142.4899 2230.126 9535072
-1555.2559 1151.1189 2246.97 10456172
-1546.4939 1154.5154 2253.5999 8088398
-1539.5752 1159.359 2263.0544 5719352
-1532.7233 1164.3385 2272.7744 5258802
-1521.3672 1165.9542 2275.9285 6312003
-1517.0341 1173.0294 2289.739 5522487
-1507.4978 1176.1726 2295.8745 5521718
-1497.1909 1178.7665 2300.9375 5324338
-1479.8817 1175.844 2295.2332 4929839
-1484.4119 1190.3811 2323.6091 4206373
-1470.2654 1190.0728 2323.0073 6114114
-1462.889 1195.2903 2333.1919 5851198
-1451.9817 1197.6948 2337.8855 5654332
-1442.0618 1200.9679 2344.2747 5785149
-1424.1625 1197.5948 2337.6904 4469288
-1409.9037 1197.2468 2337.0112 5192754
-1390.2744 1192.2863 2327.3281 5521977
-1372.1749 1188.5515 2320.0378 5850941
-1361.6858 1191.3997 2325.5974 5258803
-1347.3101 1190.8707 2324.5649 5390390
-1329.4224 1187.1947 2317.3894 5456440
-1325.2053 1195.7773 2334.1428 5521976
-1311.4106 1195.8079 2334.2021 5785148
-1284.1915 1183.4673 2310.1135 5653562
