# .PCD v0.7 - Point Cloud Data file format
VERSION 0.7
FIELDS x y z rgb
SIZE 4 4 4 4
TYPE F F F U
COUNT 1 1 1 1
WIDTH 1279
HEIGHT 1
VIEWPOINT 0 0 0 1 0 0 0
POINTS 1279
DATA ascii
3555.0542 1361.7218 4645.8984 1118498
3559.8298 1353.0756 4616.3989 1645097
3648.8816 1376.35 4695.8062 2500661
3755.4275 1405.8207 4796.354 790301
3686.4897 1369.6512 4672.9517 987936
3720.1367 1371.8502 4680.4541 3685966
3704.3315 1355.9156 4626.0889 3357516
3680.7078 1337.3739 4562.8286 2568259
3824.9238 1379.6423 4707.0391 1120553
3858.4333 1381.6562 4713.9102 2107193
3838.4373 1364.6191 4655.7832 1382953
3812.6348 1345.7755 4591.4932 4080980
3897.2258 1365.8895 4660.1177 856094
3863.2856 1344.4702 4587.0396 2698552
3897.8057 1347.0087 4595.7002 1908773
3914.6746 1343.4542 4583.5732 1053208
3985.6428 1358.387 4634.5205 855826
4002.8909 1354.9318 4622.7319 2
3982.4448 1338.8511 4567.8682 1184792
4022.9768 1343.3494 4583.2153 921110
4086.9192 1355.552 4624.8481 789786
4087.6384 1346.7617 4594.8579 3882313
4109.9238 1345.1464 4589.3467 3290177
4123.043 1340.572 4573.7397 2763832
4223.5732 1364.2926 4654.6694 2171180
4215.437 1352.8319 4615.5679 1842471
4302.5786 1371.8989 4680.6201 1644578
4243.064 1344.2589 4586.3184 592147
4241.938 1335.3512 4555.9272 855064
4299.9995 1345.0706 4589.0879 657942
4388.3208 1364.0736 4653.9224 263697
4421.8599 1365.9172 4660.2124 460817
4388.1479 1347.093 4595.9878 263438
0 0 0 0
0 0 0 0
0 0 0 0
0 0 0 0
0 0 0 0
0 0 0 0
-3647.2336 1212.4652 4054.7126 7626069
-3644.9919 1219.7534 4079.0857 5060137
-3651.0706 1229.9418 4113.1577 8152666
-3642.9026 1235.4355 4131.5298 8020822
-3620.0339 1235.9844 4133.3652 7823698
-3591.3604 1234.5452 4128.5522 7165514
-3447.0222 1193.0535 3989.7961 5060397
-3359.7153 1170.8643 3915.5913 4665644
-3362.6785 1180.0444 3946.2915 5323316
-3353.8933 1185.2014 3963.5376 5784123
-3408.4141 1212.9601 4056.3677 5455415
-3424.4556 1227.3221 4104.397 8152669
-3428.6204 1237.6023 4138.7759 7626837
-3422.7727 1244.3906 4161.4771 7823702
-3411.2717 1249.2069 4177.584 7757139
-3363.3262 1240.6503 4148.9688 6638402
-3333.3225 1238.6348 4142.2285 7164491
-3290.5525 1231.8101 4119.4058 7296588
-3275.0989 1235.1858 4130.6948 7361869
-3267.5718 1241.6243 4152.2261 7428175
-3200.6721 1225.4287 4098.0649 5849401
-3213.5774 1239.7736 4146.0371 6112316
-3197.4585 1243.0562 4157.0146 7230793
-3172.3269 1242.8585 4156.3535 8084811
-3149.1228 1243.4187 4158.2271 8347209
-3140.9719 1249.9784 4180.1641 7886915
-3103.4822 1244.8739 4163.0938 8808270
-3096.4871 1252.0177 4186.9839 8675913
-3047.8857 1242.3182 4154.5469 8543814
-3025.1052 1243.071 4157.0645 8939088
-2957.0486 1225.0787 4096.8945 9794400
-2935.2815 1226.1245 4100.3921 9728863
-2931.7292 1234.8601 4129.6055 9860450
-2913.8015 1237.6367 4138.8911 9992293
-2911.2632 1247.0526 4170.3794 9005145
-2893.6951 1250.1365 4180.6924 8741971
-2846.9568 1240.5625 4148.6753 8413777
-2837.4734 1247.1971 4170.8628 9006171
-2822.7219 1251.6124 4185.6284 9006426
-2807.9573 1256.1002 4200.6362 9532771
-2769.8889 1250.1503 4180.7388 9598309
-2729.1943 1242.897 4156.4824 8677722
-2712.426 1246.5071 4168.5552 9401703
-2662.2959 1234.7111 4129.1069 8546397
-2650.7949 1240.7777 4149.395 8743780
-2602.6453 1229.6429 4112.1582 9533298
-2578.053 1229.5328 4111.79 8809574
-2584.9424 1244.5782 4162.1045 6769732
-2457.0728 1194.4058 3994.3184 10453880
-2549.3792 1251.3278 4184.6763 9795946
-2523.4561 1250.7666 4182.7998 11637636
-2487.0608 1244.9523 4163.3555 12032647
-2463.749 1245.6364 4165.6431 10322030
-2436.2207 1244.1808 4160.7754 9532766
-2225.2861 1148.0721 3839.3704 9599068
-2176.7007 1134.603 3794.3269 9600091
-2153.1765 1134.0524 3792.4851 9336661
-2117.7812 1127.1718 3769.4751 9468244
-2072.2012 1114.6659 3727.6531 9533778
-2042.7871 1110.6799 3714.3237 8810056
-2020.1625 1110.3392 3713.1841 7099184
-2025.0138 1125.2588 3763.0776 6112293
-1986.2626 1116.0115 3732.1533 6506797
-1979.5977 1124.7874 3761.5015 9927529
-1947.4968 1119.146 3742.6357 9927786
-1919.7516 1115.9066 3731.8025 9006430
-1922.6135 1130.5902 3780.907 9598824
-1916.4785 1140.2668 3813.2676 10717308
-1878.8405 1131.2072 3782.9705 7164229
-2040.1702 1243.1689 4157.3916 6769729
-1995.9227 1231.0686 4116.9258 7231051
-2021.0621 1261.9955 4220.3516 6507329
-2018.5129 1276.1914 4267.8252 6770501
-1999.0093 1279.8921 4280.2007 7231051
-1978.1288 1282.7949 4289.9087 6705221
-1985.2753 1304.1851 4361.4414 6507588
-1922.6127 1279.675 4279.4751 6836296
-1886.2153 1272.2256 4254.5625 5192243
-1821.2842 1245.0679 4163.7422 6508364
-1776.6115 1231.2037 4117.3779 3482145
-1681.5492 1181.5472 3951.3171 786432
-1613.4978 1149.736 3844.9343 720896
-1577.5972 1140.2513 3813.2161 4534319
-1557.3501 1141.9696 3818.9619 5980986
-1555.6039 1157.5048 3870.9146 9402476
-1541.6689 1164.2998 3893.6382 9007718
-1540.0497 1180.7434 3948.6289 8086872
-1516.1615 1180.3574 3947.3384 8547424
-1545.1533 1221.7726 4085.8381 7165770
-1559.3428 1252.615 4188.981 5914936
-1533.624 1251.8784 4186.5181 5915198
-1520.8433 1261.8525 4219.873 5915713
-1488.5542 1255.7031 4199.3086 5587005
-1457.9592 1250.7982 4182.9053 4796975
-1426.374 1244.8594 4163.0449 3217684
-1386.4175 1231.277 4117.623 5322801
-1359.3584 1228.8677 4109.5654 5322543
-1352.3298 1244.8081 4162.8735 5651511
-1319.1729 1236.843 4136.2368 5454133
-1304.9229 1246.639 4168.9966 5454390
-1270.0562 1236.7373 4135.8833 5585976
-1245.2643 1236.4495 4134.9204 5914941
-1230.2062 1246.0087 4166.8887 5520181
-1203.4497 1243.8682 4159.7305 6309695
-1212.4902 1279.4111 4278.5923 5979959
-1176.7655 1268.2273 4241.1914 4993067
-1147.9056 1264.115 4227.4395 3545878
-1131.6174 1273.9725 4260.4048 4334882
-1090.397 1255.571 4198.8667 4927274
-1057.0597 1245.5994 4165.5195 5058605
-1026.902 1238.9873 4143.4077 4994098
-990.01904 1223.7384 4092.4126 1837836
-937.98877 1188.531 3974.6719 786432
-910.63446 1183.5822 3958.1226 720896
-885.72717 1181.6366 3951.6157 5126972
-857.31055 1174.7762 3928.6736 6704460
-834.04199 1174.7844 3928.7012 7690582
-807.85852 1170.5693 3914.605 5584949
-803.25446 1198.2974 4007.333 4203296
-809.5097 1244.4078 4161.5347 5519413
-785.92303 1246.0999 4167.1934 5124398
-756.59851 1238.5092 4141.8086 5716792
-743.12006 1257.2181 4204.375 5255984
-720.1698 1260.6445 4215.8335 6111550
-693.44843 1257.4788 4205.2466 5979964
-679.66431 1278.4111 4275.2485 5255728
-657.7309 1285.0425 4297.4248 5321265
-619.95087 1260.0009 4213.6807 4927019
-592.7204 1255.1986 4197.6211 5913657
-566.98389 1253.278 4191.1982 6045244
-544.51172 1258.7275 4209.4229 5519155
-523.74451 1268.8308 4243.21 5782326
-496.06787 1262.37 4221.6035 5716278
-470.7225 1261.4705 4218.5957 5190189
-451.73779 1278.4717 4275.4507 5190189
-420.13535 1259.6616 4212.5464 7361359
-396.85596 1265.0061 4230.4194 7888217
-371.73877 1264.8182 4229.791 7427413
-350.00241 1276.9377 4270.3208 3677985
-318.54611 1252.7208 4189.335 3545885
-292.10239 1245.7897 4166.1558 1902347
-259.75555 1210.0793 4046.7339 852997
-230.09973 1180.9177 3949.2122 1770764
-197.41568 1127.8545 3771.7585 786434
-169.6524 1092.9469 3655.0208 720900
-147.41006 1088.5961 3640.4707 917508
-124.89033 1080.3542 3612.9084 720897
-103.7412 1083.0116 3621.7954 6771542
-82.685829 1088.2891 3639.4441 7692642
-60.896984 1084.2305 3625.8713 9205881
-39.619862 1089.8242 3644.5781 2561305
-18.218195 1101.288 3682.9148 10126985
3.6513805 1116.9358 3735.2441 7495263
27.615135 1196.4529 4001.1646 6507853
52.630856 1227.0389 4103.4502 6243907
77.97821 1243.5863 4158.7876 5585975
106.34304 1288.7562 4309.8442 6046528
131.75598 1287.5878 4305.937 6507078
155.99115 1277.1556 4271.0498 5717821
181.59492 1279.2769 4278.1436 4928561
203.23206 1256.3573 4201.4961 5718336
230.66878 1270.3795 4248.3892 6376781
259.14658 1286.8126 4303.3442 6312019
277.71088 1255.4846 4198.5776 3155494
309.61313 1284.649 4296.1089 2038302
337.02972 1292.1848 4321.3101 1314835
364.01917 1297.1343 4337.8623 6
387.73502 1290.5355 4315.7944 65544
414.36615 1293.8558 4326.8984 131082
437.34305 1286.0438 4300.7734 131082
461.72122 1282.9856 4290.5464 65545
500.54889 1318.3024 4408.6523 329230
534.71936 1338.459 4476.0596 8751247
559.00751 1333.1431 4458.2822 5659234
583.10022 1327.8618 4440.6206 1251361
603.72614 1315.4825 4399.2222 2764858
628.92847 1313.6869 4393.2173 2106927
655.30237 1314.3838 4395.5479 2698294
688.4458 1328.0868 4441.373 2500916
710.6106 1320.3815 4415.605 2171950
732.49286 1312.7169 4389.9731 658197
758.26282 1312.3063 4388.6001 724243
786.31683 1315.7449 4400.0991 1250586
804.96924 1303.7358 4359.939 856341
825.18591 1294.9283 4330.4849 1711651
837.07123 1273.9719 4260.4028 263947
888.78992 1313.0919 4391.2275 1842983
916.55475 1315.6042 4399.6289 1184537
958.18604 1337.3308 4472.2866 1513501
978.31244 1328.6815 4443.3623 3027771
1018.9805 1347.653 4506.8062 1645601
1046.854 1349.1663 4511.8667 4343891
1061.6667 1334.1908 4461.7861 4475480
1104.7791 1354.6427 4530.1812 1514797
1119.4657 1340.0967 4481.5366 2567999
1155.4786 1351.1626 4518.543 3160138
1184.3457 1353.5607 4526.5625 2567488
1201.2899 1342.5278 4489.667 2172730
1206.3319 1318.9595 4410.8496 3094087
1248.2369 1335.8407 4467.3037 3028293
1268.4946 1329.3354 4445.5488 4278360
1300.407 1335.0598 4464.6924 3489101
1336.0944 1344.3545 4495.7754 2831173
1346.1324 1327.9823 4441.0239 2370366
1362.0507 1317.9275 4407.3984 3291210
1385.2363 1315.1509 4398.1128 3225674
1423.7715 1326.7803 4437.0039 4607070
1495.6615 1368.5074 4576.5474 4410201
1499.8196 1347.8785 4507.5605 1054498
1531.0914 1351.912 4521.0488 1053467
1533.7209 1330.9512 4450.9521 132108
1529.9612 1305.248 4364.9961 8
1555.0996 1304.6433 4362.9736 395022
1557.2316 1285.0728 4297.5259 6
1579.5193 1282.4974 4288.9136 7
1607.9556 1284.9169 4297.0049 2369587
1639.9172 1290.0342 4314.1182 395540
1708.7286 1323.5374 4426.1592 1580848
1743.8655 1330.3385 4448.9033 1449005
1787.3951 1343.2445 4492.0635 1515569
1847.222 1367.8396 4574.314 6252413
1883.8958 1374.8269 4597.6807 2765382
1901.0549 1367.5767 4573.4346 3357519
1941.1403 1376.7909 4604.249 3094601
1967.8765 1376.413 4602.9849 5792628
1954.1987 1348.1644 4508.5166 4015958
1995.9463 1358.3989 4542.7427 4673889
2009.4988 1349.4277 4512.7412 5791858
2043.4512 1354.2111 4528.7373 5002087
2095.6555 1370.8093 4584.2451 2238780
2105.0715 1359.3524 4545.9312 2172987
2125.3054 1355.0823 4531.6509 1975608
2147.8848 1352.3955 4522.666 4278105
2234.6929 1389.7177 4647.4785 4542046
2227.2007 1368.2013 4575.5234 3225674
2262.5188 1373.1853 4592.1909 5594734
2301.6763 1380.3533 4616.1621 593436
2282.4836 1352.7703 4523.9194 1843251
2313.2358 1355.085 4531.6602 1184796
2385.6289 1381.4598 4619.8628 1975347
2404.0532 1376.3389 4602.7373 4607065
2413.51 1366.2565 4569.0195 3093313
2405.0732 1346.3806 4502.5513 3160132
2376.9055 1316.0164 4401.0073 3159109
2410.7693 1320.2833 4415.2769 4212053
2486.5168 1347.1505 4505.126 1975603
2519.5012 1350.5249 4516.4102 1844015
2520.9612 1337.1078 4471.541 5266028
2538.1611 1332.2314 4455.2339 5595510
2586.1653 1343.4575 4492.7759 2239287
2675.0447 1375.4723 4599.8394 4215137
2666.4231 1357.2135 4538.7783 5925237
2698.8774 1360.0181 4548.1572 2897221
2716.5356 1355.3849 4532.6631 330522
2699.8503 1333.8748 4460.7295 3488335
2816.248 1377.8948 4607.9404 2765382
2810.8086 1362.0309 4554.8887 2501953
2836.2166 1361.2744 4552.3589 921878
2785.324 1324.2559 4428.5615 1316648
2854.0044 1344.2473 4495.417 2106678
2961.4966 1381.9808 4621.605 1514798
2985.0764 1380.2239 4615.7295 2370107
2983.6438 1367.0389 4571.6362 1843764
3048.6973 1384.2794 4629.292 2239036
3051.7371 1373.3059 4592.5942 2765382
3082.5986 1374.9358 4598.0449 5988981
3097.8674 1369.6429 4580.3447 2765124
3112.2241 1364.0425 4561.6157 1053476
3151.5957 1369.4076 4579.5576 987422
3084.1934 1328.6826 4443.3657 2500919
3128.1785 1336.2267 4468.5947 4146518
3117.2478 1320.3837 4415.6123 4015449
3192.6199 1341.0555 4484.7432 2436675
3226.6292 1344.155 4495.1084 2436419
3200.8828 1322.5146 4422.7388 2370625
3280.8821 1344.562 4496.4692 6120569
3391.5193 1378.7091 4610.6636 1448494
3382.179 1363.9272 4561.2305 2171447
3377.7373 1351.3395 4519.1348 1974580
3381.6802 1342.278 4488.8311 1184548
3456.3669 1361.2189 4552.1729 3355716
3490.3972 1363.9785 4561.4019 526609
3556.7314 1379.2225 4612.3809 1118498
3600.8403 1385.6816 4633.981 197137
3644.2615 1391.78 4654.3755 920862
3640.6018 1379.9414 4614.7847 460819
3644.0337 1370.9471 4584.7061 987680
3588.8748 1340.2061 4481.9023 1908526
3571.8508 1324.053 4427.8833 4410712
3596.7363 1323.5576 4426.2266 4804700
3671.0723 1341.1349 4485.0083 5199975
3678.5579 1334.2129 4461.8599 1449005
3833.3418 1380.4333 4616.4302 3817556
3667.4712 1311.3457 4385.3877 1909300
3814.2009 1354.2174 4528.7588 1909042
3805.656 1341.7456 4487.0508 2567483
3912.4946 1369.8451 4581.0205 2238001
3897.7668 1355.2876 4532.3379 2238000
3864.979 1334.6926 4463.4644 3685188
3922.9326 1345.5005 4499.6079 1645603
3854.3838 1313.067 4391.144 856088
3917.4468 1325.6038 4433.0693 328975
3969.0283 1334.1141 4461.5298 1645092
4046.3516 1351.1075 4518.3589 921107
3994.7969 1325.1268 4431.4746 921629
4047.0237 1333.6865 4460.0996 9
4046.678 1324.9222 4430.79 66062
4060.812 1320.9813 4417.6108 395026
4121.0396 1331.9889 4454.4224 921882
4124.1621 1324.5167 4429.4341 856092
4204.1772 1341.6776 4486.8232 1185057
4236.2808 1343.429 4492.6802 1250593
4239.8843 1336.1769 4468.4277 790043
4229.5415 1324.6469 4429.8691 1185314
0 0 0 0
0 0 0 0
0 0 0 0
0 0 0 0
0 0 0 0
0 0 0 0
-3653.6992 1238.6781 4061.9004 6704970
-3582.386 1222.5535 4009.0239 6836297
-3661.261 1257.8098 4124.6377 6770504
-3595.26 1243.4343 4077.4968 7297103
-3490.6404 1215.4174 3985.6233 3679255
-3354.325 1175.9075 3856.0615 4533284
-3332.3877 1176.2274 3857.1108 5652527
-3340.7637 1187.3256 3893.5039 5719092
-3330.4197 1191.8784 3908.4338 5521967
-3323.853 1197.8566 3928.0371 6179906
-3307.7251 1200.4487 3936.5376 7429721
-3296.446 1204.85 3950.9702 7627868
-3357.7156 1236.0203 4053.1848 6442567
-3302.0366 1224.2793 4014.6836 7166290
-3274.1265 1222.7384 4009.6306 6968397
-3264.9751 1228.2316 4027.6438 6770760
-3258.8372 1234.9478 4049.6675 6243902
-3239.4707 1236.7133 4055.457 4928552
-3190.2393 1227.0186 4023.6663 5388591
-3163.9568 1226.0709 4020.5586 6506300
-3169.4348 1237.51 4058.0696 5979956
-3165.2764 1245.3324 4083.7212 5716783
-3107.5669 1232.0443 4040.1465 6177331
-3068.1157 1225.8447 4019.8169 7624262
-3029.218 1219.7712 3999.9004 7755848
-3007.6643 1220.6407 4002.7517 7755591
-2998.3752 1226.5411 4022.1006 7492423
-2943.1199 1213.5822 3979.6052 6111028
-2893.1396 1202.6066 3943.6138 7229252
-2886.8865 1209.7766 3967.126 7229251
-2940.0974 1242.1877 4073.4092 7031615
-2841.0483 1210.2733 3968.7546 6570808
-2796.229 1201.1207 3938.7412 7162948
-2764.2791 1197.3885 3926.5029 7492425
-2784.1106 1216.2134 3988.2334 7558220
-2759.9355 1215.9719 3987.4419 7755854
-2754.2319 1223.9348 4013.554 7558988
-2699.582 1210.0961 3968.1733 8216916
-2703.2363 1222.3788 4008.4512 8085586
-2688.8816 1226.6636 4022.5017 8019793
-2695.4673 1240.6632 4068.4099 7822670
-2681.7095 1245.4675 4084.1643 7493451
-2685.8196 1258.7333 4127.6655 7822160
-2621.9758 1240.1029 4066.5725 8085589
-2606.5461 1244.2374 4080.1306 8085333
-2570.0671 1238.3075 4060.6851 7954003
-2556.4792 1243.3992 4077.3818 8084821
-2543.3337 1248.8051 4095.1089 8085332
-2491.5227 1235.1471 4050.3215 8545625
-2441.5068 1222.1222 4007.6096 8414039
-2393.7576 1209.9871 3967.8159 8348245
-2312.8086 1180.6632 3871.6565 7558470
-2227.4048 1148.4548 3766.0383 8216399
-2183.9272 1137.4309 3729.8882 9730396
-2172.6389 1143.1176 3748.5361 9927773
-2150.644 1143.2305 3748.9062 7296565
-2129.2756 1143.6821 3750.3875 10060127
-2085.2852 1131.8644 3711.6343 9796955
-2051.207 1125.2324 3689.887 7691321
-2022.0211 1121.1703 3676.5659 8612681
-2015.0344 1129.4626 3703.7585 7690555
-2028.4161 1149.48 3769.4001 7888448
-1986.7644 1138.4092 3733.0964 7492153
-1957.0481 1134.0051 3718.6543 7558205
-1933.1332 1132.9005 3715.0322 8150087
-1941.6733 1151.0096 3774.416 9466720
-1906.3279 1143.2225 3748.8804 8941147
-1917.498 1163.4761 3815.2964 11376004
-1894.0502 1162.9572 3813.5945 9467752
-1940.3728 1205.7823 3954.0276 8480091
-1954.8971 1229.6526 4032.3035 8085590
-1940.3005 1235.5695 4051.7065 7756882
-1916.1083 1235.4476 4051.3066 7954261
-1931.4023 1261.1051 4135.4434 8020568
-1917.0178 1267.7943 4157.3789 8151898
-1905.2245 1276.3937 4185.5781 8744806
-1862.2565 1264.0592 4145.1304 8613221
-1818.9871 1251.1876 4102.9219 8810859
-1758.2479 1225.7882 4019.6316 6508622
-1735.5852 1226.6013 4022.2979 1509899
-1652.7302 1184.3048 3883.5981 786432
-1533.4805 1114.3663 3654.2544 720896
-1579.6641 1164.3652 3818.2119 5850177
-1556.9396 1164.2871 3817.9556 5981759
-1542.2578 1170.3096 3837.7048 9731957
-1531.5686 1179.5874 3868.1287 10193018
-1503.5386 1175.5885 3855.0156 9008743
-1507.0023 1196.4706 3923.4924 8482141
-1490.2633 1201.7158 3940.6926 8021076
-1484.314 1215.9669 3987.4255 6771267
-1461.3951 1216.5527 3989.3462 7034440
-1445.4327 1223.0437 4010.6318 6639169
-1415.7075 1217.9119 3993.8032 6836550
-1393.2731 1218.9843 3997.3198 6441536
-1391.3171 1238.3203 4060.7273 5191214
-1363.713 1235.1075 4050.1914 4006171
-1329.0383 1225.261 4017.9026 5650997
-1292.8955 1213.6772 3979.917 5979705
-1264.0139 1208.6061 3963.2874 5783096
-1241.1814 1209.2363 3965.3542 5980219
-1236.775 1228.189 4027.5044 5980731
-1219.4061 1234.7617 4049.0576 6507075
-1180.451 1219.3016 3998.3606 6441282
-1166.3628 1229.4196 4031.5393 5125422
-1133.5286 1219.788 3999.9553 5849145
-1108.8833 1218.7454 3996.5364 4203808
-1109.7623 1246.3224 4086.9675 3217170
-1091.0199 1252.6022 4107.5605 2166285
-1070.9998 1257.668 4124.1724 2691087
-1040.4829 1250.3563 4100.1958 2297873
-990.15094 1218.3142 3995.1223 786690
-956.52325 1205.7594 3953.9524 786434
-932.25604 1204.6699 3950.3799 851968
-904.98444 1199.542 3933.5642 918020
-876.4314 1192.3997 3910.1431 5389376
-847.96393 1184.9891 3885.8425 8283496
-830.18359 1192.5165 3910.5261 7362391
-811.38129 1198.9659 3931.6753 5520184
-797.28595 1212.9575 3977.5569 4993838
-786.73511 1233.358 4044.4548 5453875
-756.14825 1222.6433 4009.3186 5650999
-734.39203 1225.9752 4020.2446 5256241
-724.77893 1250.4812 4100.6055 5058862
-690.65247 1232.9269 4043.0405 5914171
-676.59497 1251.2245 4103.0425 6242879
-651.8363 1250.3586 4100.2036 5979964
-633.46747 1262.1575 4138.8945 5453363
-609.38373 1263.0613 4141.8579 5190191
-577.65955 1247.5402 4090.9609 5453620
-556.49152 1254.4554 4113.6377 5717047
-531.98169 1254.1261 4112.5576 5519669
-511.65463 1264.0991 4145.2617 5584948
-484.59808 1257.6136 4123.9941 6177084
-461.15659 1260.3191 4132.8662 5321775
-433.87418 1252.2426 4106.3813 4992042
-410.35004 1254.6979 4114.4326 3019024
-384.22913 1249.0219 4095.8196 5848119
-359.40152 1247.068 4089.4128 7164496
-337.2298 1254.7136 4114.4844 6177346
-311.73328 1250.2162 4099.7363 4927281
-285.58145 1242.1088 4073.1501 6506570
-254.59235 1209.5236 3966.2961 5060154
-221.51915 1159.4042 3801.9436 786690
-197.51837 1150.7976 3773.7207 720899
-169.19835 1111.6169 3645.2385 458756
-147.17509 1108.3934 3634.6677 589826
-124.44974 1097.8711 3600.1626 787718
-102.59752 1092.2919 3581.8674 7956330
-81.884659 1099.0962 3604.1804 5719108
-60.556179 1099.5228 3605.5796 7626850
-39.395973 1105.135 3623.9829 1114627
-17.742039 1093.7524 3586.6572 5980994
3.5823369 1117.5258 3664.615 8152163
25.256622 1115.9474 3659.439 7757921
47.755898 1135.442 3723.3662 6442063
71.119217 1156.6704 3792.9788 6573902
97.334473 1202.9521 3944.7471 6310473
127.04762 1266.1731 4152.0625 6639181
150.42365 1255.9722 4118.6113 7494746
177.50832 1275.2623 4181.8682 6574158
201.606 1270.9967 4167.8799 6310734
224.98875 1263.6462 4143.7764 4797238
250.18462 1266.9236 4154.5234 6244683
276.88016 1276.5281 4186.0186 5586753
299.02286 1265.2883 4149.1611 5849412
326.91513 1278.2373 4191.6235 5126458
352.58716 1281.2893 4201.6318 4402993
377.28265 1280.6243 4199.4512 4732987
402.28244 1281.0105 4200.7178 1708309
430.60651 1291.3208 4234.5273 1183249
454.18991 1287.0619 4220.5615 197127
472.20886 1268.3021 4159.0439 196874
494.07635 1261.2268 4135.8428 65547
513.58868 1249.0923 4096.0508 65547
536.76837 1246.5698 4087.7788 65547
564.69745 1254.8186 4114.8286 65542
566.07104 1205.8174 3954.1426 65537
562.65808 1150.9197 3774.1211 3222574
583.87384 1148.6711 3766.7473 10986405
690.7464 1308.8997 4292.1724 921107
704.23645 1287.0818 4220.627 1908265
730.44745 1289.2124 4227.6133 3093310
778.86884 1329.1024 4358.4219 2369844
804.17029 1328.2454 4355.6113 4410196
803.80457 1286.3655 4218.2778 4936538
820.85461 1274.0417 4177.8657 1449254
843.59576 1271.0143 4167.9375 330001
892.59985 1306.603 4284.6411 3685961
916.3031 1304.2119 4276.8003 3620173
947.21796 1311.9379 4302.1353 3159621
990.88812 1336.4626 4382.5576 6054257
1002.936 1318.1736 4322.5835 3423048
1044.1949 1338.2316 4388.3584 3619656
1068.3534 1335.9318 4380.8169 1579559
1080.3016 1318.8348 4324.752 263183
1105.2614 1318.0464 4322.1665 658197
1126.2831 1312.704 4304.6475 66316
1144.3864 1304.2719 4276.9966 659996
1189.0679 1325.8405 4347.7251 6910335
1182.4244 1290.4794 4231.7681 3159874
1242.3402 1327.7198 4353.8882 658451
1265.2826 1324.735 4344.0996 3554379
1288.1283 1321.7697 4334.376 3291723
1310.8491 1318.7948 4324.6206 4741225
1334.4448 1316.7972 4318.0703 3094347
1367.5654 1324.0969 4342.0078 3226186
1387.0586 1318.1765 4322.5933 1975607
1430.4265 1334.7484 4376.936 461072
1464.9913 1342.6624 4402.8877 1185826
1478.8115 1331.6194 4366.6753 2041652
1480.4325 1310.1602 4296.3057 3489609
1493.2319 1299.1519 4260.207 2765373
1498.521 1282.0839 4204.2373 921624
1531.0764 1288.5206 4225.3452 263953
1557.4451 1289.6276 4228.9746 2172205
1582.2966 1289.4631 4228.4355 1711654
1605.6703 1288.118 4224.0249 261
1661.7675 1312.6635 4304.5146 3159359
1704.87 1326.3571 4349.4189 3816779
1752.7667 1343.3174 4405.0356 2764605
1776.0121 1341.1644 4397.9756 3817290
1831.8739 1363.3479 4470.7202 3225413
1832.587 1344.4406 4408.7188 2962497
1858.8495 1344.5448 4409.0605 2962238
1888.8673 1347.325 4418.1772 66050
1906.6091 1341.3922 4398.7227 3752015
1931.292 1340.4371 4395.5908 4213082
1929.3948 1321.3046 4332.8511 3620947
1978.2728 1336.9902 4384.2876 4870502
2035.0247 1357.5219 4451.6152 2436161
2051.7981 1351.2004 4430.8862 2501440
2068.3523 1344.8962 4410.2134 1974837
2086.8374 1339.9893 4394.1221 2699333
2129.27 1350.3909 4428.231 4410206
2145.4077 1344.0658 4407.4897 3093575
2185.3745 1352.6417 4435.6123 1514800
2193.1431 1341.3217 4398.4912 725537
2208.5945 1334.9111 4377.4697 1382956
2257.7017 1348.7554 4422.8682 3488589
2302.5349 1359.7581 4458.9482 1382694
2361.1147 1378.5369 4520.5283 1711140
2402.6799 1387.072 4548.5171 724506
2368.6003 1352.2324 4434.27 1381922
2345.5632 1324.392 4342.9751 197904
2328.2812 1300.37 4264.2017 1053467
2391.9399 1321.5847 4333.7695 724507
2448.6147 1338.531 4389.3403 1711393
2435.071 1317.1399 4319.1938 1185308
2475.4963 1325.0822 4345.2383 3291723
2518.4824 1334.2174 4375.1948 4871784
2583.3081 1354.6187 4442.0952 6187133
2609.3108 1354.4562 4441.562 5727096
2623.9434 1348.4536 4421.8784 8096412
2649.8635 1348.3131 4421.418 6056058
2682.436 1351.5272 4431.9575 2896965
2722.6704 1358.502 4454.8291 6975876
2724.5918 1346.4094 4415.1753 1186609
2734.8799 1338.6423 4389.7051 7437187
2762.9868 1339.6613 4393.0464 2303289
2804.7686 1347.2296 4417.8647 3818322
2843.1614 1353.0452 4436.9351 3094087
2932.8784 1382.9554 4535.0176 1580589
2947.2051 1377.0961 4515.8037 5593962
2892.3433 1339.3043 4391.876 5725806
2908.03 1334.563 4376.3281 1975094
2942.304 1338.36 4388.7793 1711407
2976.3872 1342.0045 4400.7305 3027526
3073.7056 1373.8499 4505.1587 2171959
3129.1252 1386.5807 4546.9058 2632506
3068.3733 1348.0558 4420.5737 329748
3034.0481 1321.6946 4334.1299 9
3014.219 1302.0378 4269.6709 6
3011.0095 1289.8276 4229.6309 460558
3151.6831 1338.9454 4390.6992 658714
3176.2432 1338.3339 4388.6938 461587
3219.2148 1345.4271 4411.9541 2764867
3261.8882 1352.2823 4434.4341 2567232
3299.4578 1356.9293 4449.6724 2303802
3303.3679 1347.7693 4419.6348 1119268
3354.8289 1358.0018 4453.189 1118749
3346.7195 1344.149 4407.7627 1908269
3395.0071 1352.9863 4436.7422 2697788
3508.7051 1387.5549 4550.1006 460824
3567.946 1400.225 4591.6484 461080
3545.3909 1380.8459 4528.1001 1645355
3608.4602 1394.8561 4574.0425 3948366
3504.4976 1344.572 4409.1499 3224644
3525.9485 1342.7936 4403.3179 1579559
3523.8579 1332.1417 4368.3882 1316124
3527.3428 1323.7375 4340.8291 1381918
3663.3345 1364.8221 4475.5547 2237749
3749.4988 1386.8857 4547.9062 2698297
3648.1326 1339.7649 4393.3862 1184798
3643.0674 1328.427 4356.207 6
3697.3416 1338.7344 4390.0068 1974830
3733.9958 1342.5624 4402.5601 2106416
3747.7769 1338.1704 4388.1577 3224897
3781.1755 1340.7953 4396.7651 987933
3822.6836 1346.24 4414.6196 790295
3879.0544 1356.8096 4449.2793 2106411
3848.0637 1336.8854 4383.9438 987421
3829.6499 1321.5685 4333.7163 1711654
3847.2356 1318.796 4324.6245 2040366
3883.6365 1322.4672 4336.6631 526611
3857.1814 1304.8268 4278.8164 1514022
4003.4978 1345.481 4412.1309 1579813
4011.9468 1339.5746 4392.7622 1250846
4002.3149 1327.7461 4353.9741 658197
3991.9524 1315.8282 4314.8926 592403
4021.6748 1317.1907 4319.3604 856606
4130.2817 1344.2091 4407.96 1909294
4178.1997 1351.2609 4431.084 2896189
4161.6094 1337.4922 4385.9336 1974830
4230.3311 1351.1426 4430.6963 1448486
0 0 0 0
0 0 0 0
0 0 0 0
0 0 0 0
0 0 0 0
0 0 0 0
-3571.3364 1234.2767 3970.3359 6573894
-3483.8357 1212.0184 3898.7368 6705735
-3481.0364 1219.127 3921.6035 6179395
-3452.4331 1217.2334 3915.5122 655617
-3344.7258 1187.2357 3819.0178 655360
-3310.1311 1182.9578 3805.2568 1903109
-3329.3523 1197.9856 3853.5974 3284761
-3328.0999 1205.8033 3878.7449 3086868
-3318.2329 1210.5868 3894.1318 4468263
-3273.2019 1202.5188 3868.1792 5587258
-3277.4863 1212.582 3900.55 6639946
-3232.1782 1204.3102 3873.9417 6047809
-3260.7278 1223.6362 3936.1086 6047552
-3238.3535 1223.993 3937.2563 6112576
-3260.7146 1241.3862 3993.2056 6902346
-3218.2163 1234.1606 3969.9626 6902346
-3170.6692 1224.8782 3940.1035 7033675
-3161.0017 1230.2001 3957.2227 6967369
-3143.26 1232.4358 3964.4141 7099466
-3118.8877 1232.0857 3963.2881 7296843
-3083.0574 1227.1696 3947.4739 6440763
-3044.833 1221.218 3928.3298 6637887
-3036.7788 1227.3687 3948.1147 7098691
-3001.7473 1222.6268 3932.8616 7362118
-2976.5137 1221.8328 3930.3071 7361607
-2949.5796 1220.3226 3925.4497 7032643
-2941.8154 1226.7827 3946.2297 7229765
-2898.1052 1218.2361 3918.7375 7230021
-2870.2224 1216.2583 3912.3755 7361608
-2834.5398 1210.9161 3895.1917 7427402
-2814.6838 1212.3032 3899.6531 7625038
-2779.3713 1207.0006 3882.5962 7295819
-2764.9036 1210.7374 3894.6167 6374715
-2726.7996 1204.0999 3873.2651 6703938
-2731.4065 1216.3701 3912.7351 6835524
-2702.2024 1213.6643 3904.0315 7493197
-2699.1279 1222.749 3933.2546 7624782
-2680.8887 1225.0623 3940.6956 7493708
-2667.718 1229.7527 3955.7834 7493195
-2605.3269 1211.6356 3897.5059 7296073
-2613.1023 1226.1182 3944.0923 7361609
-2593.2874 1227.7992 3949.4998 7361610
-2582.3647 1233.7595 3968.6724 7625037
-2586.8643 1247.2649 4012.1157 7361866
-2546.7668 1239.3191 3986.5559 7230280
-2511.9075 1233.7971 3968.7932 6703937
-2496.2922 1237.7125 3981.3879 7164235
-2492.166 1247.4532 4012.7217 6966596
-2421.0474 1223.526 3935.7539 7229768
-2358.6357 1203.5762 3871.5806 5585197
-2256.385 1162.7057 3740.1113 5453098
-2190.2417 1139.8151 3666.4783 5189921
-2155.3914 1132.9142 3644.2798 7493434
-2164.6877 1149.3126 3697.0295 7953985
-2137.3042 1146.3724 3687.5718 9270613
-2094.574 1135.0554 3651.1677 7757116
-2108.9548 1154.7736 3714.5957 8151871
-2080.7544 1151.3459 3703.5701 8480839
-2027.4595 1133.8119 3647.1675 8217411
-2030.6819 1147.8466 3692.3132 11309682
-2041.5455 1166.5532 3752.4875 9138002
-2024.3983 1169.4896 3761.9336 9401176
-1980.8063 1157.0447 3721.9014 4927001
-1918.5392 1133.288 3645.4822 7953476
-1923.6333 1149.2338 3696.7756 7887678
-1915.3342 1157.4532 3723.2153 8874316
-1924.6414 1176.6277 3784.8948 11242864
-1916.9752 1185.7555 3814.2561 10453607
-1898.3284 1188.2277 3822.2085 9928549
-1912.0259 1211.2494 3896.2632 7691598
-1899.6447 1218.1112 3918.3359 7428170
-1900.0002 1233.4113 3967.552 8019796
-1874.214 1231.9115 3962.7278 7098438
-1862.4769 1239.7255 3987.863 6440765
-1862.4407 1255.6285 4039.0193 4532259
-1818.8932 1242.2292 3995.9172 1180418
-1781.1914 1232.5217 3964.6907 786948
-1720.6823 1206.562 3881.1851 524292
-1678.5227 1192.9399 3837.3669 589831
-1653.2128 1191.0837 3831.396 589831
-1629.912 1190.6436 3829.9797 589828
-1601.6973 1186.5505 3816.8137 589824
-1566.6487 1177.2052 3786.7524 3942181
-1536.9403 1171.6593 3768.9128 2825239
-1509.9016 1168.0153 3757.1907 3547419
-1524.814 1197.1997 3851.0693 7231560
-1517.9521 1209.9152 3891.9714 7363657
-1488.386 1204.6469 3875.0247 6836801
-1481.3578 1217.7406 3917.1438 4270362
-1449.5317 1210.5419 3893.9873 7494222
-1438.7882 1221.0016 3927.6333 6967878
-1416.1814 1221.5719 3929.4683 7625808
-1400.5288 1228.2604 3950.9832 4928043
-1364.7262 1217.2042 3915.4185 5388594
-1338.059 1214.0546 3905.2869 6638921
-1287.7766 1188.9904 3824.6621 8415589
-1257.7328 1182.0492 3802.3342 8086625
-1231.938 1178.921 3792.2717 5849662
-1218.229 1187.4572 3819.73 6572870
-1215.6702 1207.3905 3883.8501 6112318
-1184.2745 1198.9 3856.5388 6243646
-1169.7394 1207.4801 3884.1387 6835526
-1167.6102 1229.4678 3954.8672 6374975
-1132.0245 1216.4054 3912.8491 4927272
-1116.0006 1224.2565 3938.1035 5453616
-1101.3933 1234.0297 3969.5413 4400928
-1083.6134 1240.5974 3990.668 4599076
-1065.9803 1247.6299 4013.2893 4993838
-1044.6217 1250.5233 4022.5967 2691857
-1014.6448 1242.9939 3998.3767 2035213
-979.8963 1229.1194 3953.7463 1640971
-951.61633 1222.8778 3933.6687 2496536
-927.38885 1221.6611 3929.7551 1445133
-901.40558 1218.0094 3918.0085 589824
-876.39368 1215.512 3909.9746 7823197
-852.81165 1214.9158 3908.0571 9138543
-834.53168 1222.0505 3931.0076 5388598
-811.9151 1223.0623 3934.2622 8217439
-785.57544 1218.3594 3919.1345 6046011
-770.66016 1231.6282 3961.8164 6111545
-739.33514 1218.6815 3920.1707 5913912
-722.51996 1229.5881 3955.2542 5058604
-685.42377 1205.5546 3877.9446 5716534
-673.10065 1224.9371 3940.2932 5716023
-649.07898 1223.6582 3936.179 5322035
-612.12238 1196.9899 3850.394 3414295
-578.5625 1175.1562 3780.1614 5585465
-568.17584 1200.5282 3861.7764 5848637
-556.26636 1224.6766 3939.4553 5519412
-536.25012 1232.3107 3964.0117 5848891
-512.24194 1231.05 3959.9568 5585720
-508.21738 1279.9995 4117.4141 5190449
-464.57129 1229.0626 3953.5635 5387828
-443.9599 1236.8925 3978.7502 5453363
-421.74524 1240.8833 3991.5874 4927276
-396.39752 1235.5823 3974.5356 6308160
-375.70935 1245.0529 4005 6177343
-349.95993 1237.8973 3981.9827 6374724
-326.15207 1237.0718 3979.3269 5520186
-301.7511 1233.6925 3968.4568 5717310
-277.02631 1228.3064 3951.1311 5059639
-250.68741 1214.1088 3905.4612 5916234
-216.78526 1156.6698 3720.6956 524288
-191.30603 1136.256 3655.0295 524292
-168.66734 1129.6558 3633.7983 524291
-146.18901 1122.3553 3610.3152 655360
-123.13553 1107.3804 3562.1445 7101019
-102.56399 1113.1477 3580.6968 5521727
-82.044777 1122.6392 3611.228 6771538
-60.384899 1117.7128 3595.3811 5915203
-39.117516 1118.6414 3598.3682 4533291
-17.871576 1123.1415 3612.8438 4400678
3.5458169 1127.6218 3627.2561 4531748
24.927 1122.7797 3611.6802 4136733
46.553654 1128.3602 3629.6313 5188394
69.795258 1157.1901 3722.3689 4794405
91.298752 1150.2773 3700.1328 1246212
115.69942 1175.4761 3781.1902 4992814
144.8322 1232.7786 3965.5168 7230546
165.08545 1209.0541 3889.2014 7165011
187.88545 1207.5083 3884.2292 7099473
218.1815 1249.2192 4018.4023 6309958
241.49002 1246.6516 4010.1426 6507080
266.72665 1253.6057 4032.5122 7758173
289.81509 1250.1503 4021.397 7560541
314.29767 1252.7767 4029.8455 7890018
334.08792 1237.6493 3981.1846 7429211
357.31967 1236.4254 3977.2478 7561566
372.85043 1210.3539 3893.3826 7100504
384.3757 1175.075 3779.8997 6639699
401.30209 1159.2828 3729.1011 6574933
431.81958 1182.3524 3803.3096 1707281
450.79117 1173.0881 3773.5088 5457995
472.69284 1171.9639 3769.8923 3747889
500.71219 1185.4244 3813.1914 3221030
524.21149 1187.4839 3819.8159 1379081
538.03131 1168.3533 3758.2783 1773579
556.01245 1159.4207 3729.5444 2692622
577.65002 1158.504 3726.5957 10983570
609.4469 1177.2798 3786.9919 6970713
650.35645 1211.7002 3897.7136 3
689.69562 1240.9349 3991.7537 6
736.1651 1280.6351 4119.4585 855832
755.06622 1271.3684 4089.6499 2895420
775.07062 1264.4779 4067.4849 3816778
809.41278 1280.6887 4119.6309 4079948
833.17834 1279.7056 4116.4688 1842984
861.68817 1285.858 4136.2593 1382175
880.96576 1278.2744 4111.8647 1776680
909.31219 1283.9034 4129.9722 2171437
934.08228 1284.3206 4131.3135 263437
954.68433 1279.1316 4114.6221 8
978.14398 1277.9343 4110.771 263956
1013.1031 1291.4543 4154.2612 1316646
1040.3047 1294.6786 4164.6328 658458
1060.5225 1289.2635 4147.2139 329745
1094.6084 1300.571 4183.5869 790300
1114.5835 1294.9832 4165.6123 461335
1118.5753 1271.4695 4089.9751 856865
1174.1726 1306.3684 4202.2358 1251623
1192.219 1298.9069 4178.2339 2370107
1217.5394 1299.5127 4180.1826 2304312
1249.8358 1307.3917 4205.5273 1448746
1264.4596 1296.8375 4171.5771 4080720
1316.5353 1324.3624 4260.1177 1580069
1306.1807 1289.2318 4147.1118 1054497
1343.8505 1301.9244 4187.9404 396052
1360.3534 1294.0222 4162.521 2370106
1398.9337 1307.0282 4204.3579 4871012
1409.9939 1294.3168 4163.4688 4607331
1447.7772 1306.1516 4201.5381 791078
1434.2919 1272.1146 4092.0503 3027781
1464.9861 1277.7419 4110.1519 3620167
1522.5995 1306.2799 4201.9512 592917
1544.2012 1303.5013 4193.0132 263693
1563.5391 1298.9301 4178.3086 395532
1583.0321 1294.6283 4164.4707 921619
1620.0308 1304.5552 4196.4028 395019
1679.7552 1332.2057 4285.3472 132362
1702.2999 1329.9846 4278.2026 4672601
1756.4098 1352.1285 4349.4336 3752012
1737.3423 1318.1128 4240.0142 2567744
1755.0377 1312.5612 4222.1558 2633794
1796.7156 1324.8492 4261.6836 2106935
1809.554 1315.8262 4232.6587 2567485
1831.6904 1313.7184 4225.8784 3028293
1865.4717 1319.9067 4245.7847 2699329
1883.8586 1315.1831 4230.5903 4278362
1934.5709 1332.8546 4287.4346 4673121
1959.0366 1332.2195 4285.3916 3159882
1986.5059 1333.6169 4289.8867 2238521
1964.0723 1301.9005 4187.8638 2896197
2003.91 1311.7378 4219.5073 2238264
2077.542 1343.1812 4320.6523 789785
2070.499 1322.3357 4253.5981 1316649
2094.6152 1321.6525 4251.4004 396315
2144.2227 1336.8785 4300.3784 5133670
2134.8442 1315.4025 4231.2959 856345
2174.4546 1324.2594 4259.7861 1580071
2267.9368 1365.345 4391.9473 1777968
2269.9006 1351.0276 4345.8921 1974834
2292.9985 1349.4691 4340.8789 1251628
2333.6208 1358.1443 4368.7847 2830403
2274.9307 1309.4641 4212.1938 1251368
2279.9836 1298.1333 4175.7456 790048
2321.7573 1307.7286 4206.6113 659230
2351.4812 1310.4052 4215.2207 856087
2352.6189 1297.2626 4172.9448 1777458
2405.6221 1312.6954 4222.5879 2370366
2433.8723 1314.4423 4228.207 1776678
2505.9272 1339.5698 4309.0356 460561
2440.6948 1291.5424 4154.5444 2302512
2479.0808 1298.7582 4177.7554 1512998
2556.0342 1325.8364 4264.8589 1184549
2612.2012 1341.7083 4315.9146 3027783
2654.9575 1350.4509 4344.0371 1120299
2642.8811 1331.4026 4282.7637 7436428
2744.0652 1369.2312 4404.4482 4673377
2736.9541 1352.8192 4351.6553 4673378
2806.7219 1374.3585 4420.9414 3423313
2823.1145 1369.605 4405.6509 5002345
2825.7358 1358.3188 4369.3462 4673892
2843.8518 1354.6182 4357.4424 6317945
2843.0559 1342.057 4317.0361 1317675
2893.8779 1353.8684 4355.0303 2764606
2887.9224 1339.1431 4307.6631 2830143
2960.8118 1360.9163 4377.7017 987425
2969.8784 1353.2303 4352.978 1973805
3023.6904 1365.8896 4393.6997 131596
2982.0059 1335.5625 4296.145 12
2991.7305 1328.5784 4273.6792 11
3002.4653 1322.1566 4253.022 11
2992.3877 1306.7529 4203.4727 65804
3021.1609 1308.4294 4208.8652 12
3015.0469 1295.0928 4165.9648 395284
3089.3745 1316.2452 4234.0068 461077
3121.4133 1319.1849 4243.4629 921884
3120.8721 1308.4185 4208.8301 1119779
3178.7646 1322.1267 4252.9258 2830653
3250.0178 1341.1327 4314.063 7633288
3256.448 1333.3014 4288.8716 3751247
3350.6069 1361.2322 4378.7178 7633289
3334.9998 1344.4827 4324.8389 3357257
3463.7603 1385.7455 4457.5703 2633533
3441.8374 1366.556 4395.8433 4475741
3464.6577 1365.2866 4391.7598 3225930
3479.5605 1360.9395 4377.7759 4607324
3546.7869 1376.97 4429.3418 3291208
3559.9373 1371.9252 4413.1143 2699072
3580.9456 1369.9603 4406.7939 3291208
3649.0535 1385.9125 4458.1074 4673120
3749.584 1413.8608 4548.0098 3554631
3666.769 1372.7694 4415.8296 1975602
3724.5015 1384.5056 4453.582 1252393
3674.1167 1356.1692 4362.4312 1844272
3663.4641 1342.7917 4319.3999 1316642
3700.0444 1346.7925 4332.269 2369588
3700.3142 1337.6124 4302.7393 1909036
3734.7278 1340.8159 4313.0439 2500661
3725.5112 1328.4186 4273.165 1053473
3699.4397 1310.2192 4214.6226 987423
3742.8569 1316.7092 4235.4995 267
3754.906 1312.1514 4220.8379 10
3797.3386 1318.2012 4240.2983 527126
3748.9917 1292.8655 4158.8003 2500664
3779.5208 1294.8839 4165.293 1777966
3845.9011 1309.0792 4210.9556 3225414
3804.9927 1286.8079 4139.3145 2962243
3874.3933 1301.8879 4187.8232 1119782
3987.6455 1331.4177 4282.8125 460566
3975.1021 1318.8383 4242.3477 6
3978.9543 1311.8224 4219.7793 263690
4020.5894 1317.2728 4237.312 789009
4039.9143 1315.3914 4231.2603 723733
0 0 0 0
0 0 0 0
0 0 0 0
0 0 0 0
0 0 0 0
0 0 0 0
-3460.4504 1218.7448 3847.0618 5849658
-3424.4143 1214.0488 3832.2388 5981244
-3456.6458 1233.6545 3894.1257 5652279
-3381.2568 1214.8567 3834.7891 6836553
-3344.4517 1209.7611 3818.7043 5717815
-3299.1013 1201.4841 3792.5771 5783864
-3304.2209 1211.6001 3824.509 6573379
-3354.2153 1238.4241 3909.1812 6507075
-3302.7166 1227.8879 3875.9229 5980985
-3213.1252 1202.9429 3797.1819 6047037
-3203.4143 1207.7629 3812.3967 6244416
-3194.6365 1213.0057 3828.946 6178624
-3186.3813 1218.5233 3846.3628 6047038
-3165.1196 1219.1107 3848.217 6770760
-3148.3994 1221.4685 3855.6594 6638916
-3137.8091 1226.2565 3870.7729 6441536
-3113.2693 1225.6233 3868.7744 6375742
-3069.7383 1217.4487 3842.9707 6704706
-3056.7065 1221.3385 3855.249 6835779
-3084.5422 1241.7386 3919.6438 6638143
-3023.9329 1226.5731 3871.7725 6638143
-3003.5083 1227.6 3875.0142 6703936
-2979.2427 1227.0608 3873.312 7032900
-2955.7747 1226.8442 3872.6284 6572605
-2931.4573 1226.2692 3870.813 7164230
-2923.521 1232.5913 3890.7695 6703937
-2896.5098 1230.9077 3885.4553 6769478
-2859.645 1224.9766 3866.7329 6571846
-2792.4856 1205.8673 3806.4131 6112070
-2770.7227 1206.21 3807.4949 4072228
-2751.9453 1207.8688 3812.7307 2296842
-2714.1196 1201.125 3791.4438 6374462
-2703.2585 1206.3016 3807.7839 11112582
-2697.9629 1214.0696 3832.3042 9007204
-2678.1438 1215.3787 3836.4363 7033415
-2680.7966 1226.9952 3873.1052 7558989
-2671.894 1233.4779 3893.5684 7427659
-2647.4177 1232.8214 3891.4958 6770499
-2609.3909 1225.788 3869.2942 6573121
-2550.8699 1208.917 3816.0396 6507327
-2523.4775 1206.6288 3808.8169 6704450
-2552.6489 1231.59 3887.6089 6572606
-2530.2222 1231.8843 3888.5376 6637886
-2541.5049 1248.7467 3941.7654 5979958
-2509.1262 1244.2704 3927.6355 6045751
-2443.6978 1223.1676 3861.0227 4730405
-2423.6453 1224.5928 3865.5217 6769990
-2425.0686 1237.0001 3904.6863 5980989
-2357.0105 1213.8633 3831.6528 1180931
-2210.74 1149.6052 3628.8174 1114112
-2181.6653 1145.6265 3616.2585 1246211
-2153.8008 1142.2106 3605.4761 7033146
-2135.3899 1143.7902 3610.4619 7954238
-2138.9575 1157.2932 3653.0852 9796188
-2125.5181 1161.7765 3667.2371 8217924
-2089.2498 1153.7455 3641.8865 7362871
-2086.3948 1164.1912 3674.8594 8020033
-2095.0115 1181.3259 3728.9465 7953984
-2012.3047 1146.7821 3619.906 8480070
-2026.0691 1167.0636 3683.9263 8874313
-2027.2412 1180.4543 3726.1951 8939595
-2015.8586 1186.749 3746.0647 8742473
-1982.8094 1180.2865 3725.6653 8808523
-1957.8546 1178.5509 3720.1865 6373930
-1944.3951 1183.7744 3736.675 10321509
-1921.8623 1183.5305 3735.9055 9269076
-1894.0879 1180.0155 3724.8101 9663577
-1913.7529 1206.3208 3807.8445 12492679
-1892.3065 1207.0302 3810.084 10519667
-1879.974 1213.6403 3830.949 6111538
-1891.0858 1235.7316 3900.6821 8086100
-1881.6971 1244.8077 3929.3318 7559244
-1855.9103 1243.1276 3924.0278 7559758
-1836.2937 1245.59 3931.8008 7691858
-1890.9304 1299.13 4100.8042 5719870
-1794.1234 1248.6628 3941.5007 1050885
-1726.0017 1217.0923 3841.8457 393216
-1695.9127 1211.8552 3825.3145 458752
-1662.2964 1203.9216 3800.2715 1707017
-1643.9155 1206.9558 3809.8491 2298384
-1625.8186 1210.286 3820.3611 3087639
-1601.1202 1208.7267 3815.4387 4468775
-1558.666 1193.5261 3767.4573 5389107
-1534.9962 1192.4769 3764.1455 5323312
-1514.8663 1194.1874 3769.5447 4797222
-1509.2843 1207.5889 3811.8474 5323310
-1492.0748 1211.953 3825.6233 7034698
-1470.699 1213.0154 3828.9766 6574146
-1454.0388 1218.0614 3844.9045 6771012
-1445.7496 1230.392 3883.8271 7034186
-1418.8197 1227.0009 3873.1228 6507843
-1372.6963 1206.6268 3808.8105 1707020
-1382.4658 1235.5238 3900.0261 2167317
-1334.4902 1212.9187 3828.6714 720897
-1279.823 1183.3445 3735.3181 983042
-1226.1649 1153.6792 3641.6775 1115143
-1203.7363 1152.8608 3639.094 8350062
-1166.1592 1137.2396 3589.7847 12627889
-1163.1641 1155.3892 3647.075 7562339
-1163.9646 1178.0673 3718.6602 7627102
-1158.8278 1195.4951 3773.6724 5718075
-1171.0806 1231.9015 3888.592 6309697
-1146.1199 1229.8372 3882.0759 5388080
-1134.4901 1242.2858 3921.3711 5848631
-1099.8992 1229.5865 3881.2849 6507332
-1082.1497 1235.5741 3900.1851 6375492
-1063.7954 1241.1176 3917.6833 6507077
-1049.804 1252.1116 3952.387 6177599
-1013.539 1236.4357 3902.9045 5980733
-994.1449 1241.089 3917.5933 6638407
-963.28314 1231.3068 3886.7146 5191218
-926.70996 1213.5658 3830.7141 5848635
-881.76593 1183.697 3736.4307 5585207
-883.03351 1215.9225 3838.1533 6045757
-848.07465 1198.65 3783.6311 5848120
-846.08514 1228.3027 3877.2324 5650999
-829.71716 1238.1542 3908.3291 5979964
-806.17047 1237.551 3906.4253 6111549
-783.77899 1238.7382 3910.1726 5585205
-755.97443 1231.1816 3886.3198 5585205
-728.96075 1224.479 3865.1626 5519412
-703.03815 1219.2339 3848.6057 5321777
-675.57898 1210.8829 3822.2456 5255984
-651.88519 1208.9358 3816.0991 5650744
-625.50262 1201.6832 3793.2058 6112066
-587.40149 1170.5381 3694.8938 10192514
-550.26788 1138.9845 3595.2925 12956591
-537.07227 1156.4335 3650.3716 2890523
-527.69019 1183.9026 3737.0798 4402728
-526.28741 1232.4635 3890.366 5848891
-496.47247 1215.8895 3838.0488 6243136
-473.40515 1215.0428 3835.3765 5519156
-454.93314 1226.4999 3871.5415 5387827
-434.79562 1234.4449 3896.6206 5519413
-410.69357 1231.3938 3886.9895 5387827
-390.83075 1241.4459 3918.7197 5913914
-371.0159 1252.9296 3954.9688 5650999
-348.53198 1256.3403 3965.7354 5716794
-322.91098 1248.1187 3939.783 5848894
-298.93036 1245.4503 3931.3599 6243654
-277.03458 1251.7511 3951.2488 4731187
-247.21786 1220.1219 3851.4092 5126974
-213.65724 1161.7042 3667.009 589825
-190.40707 1152.468 3637.8542 524292
-168.15359 1147.6768 3622.7302 458753
-145.78452 1140.5791 3600.3257 589824
-123.73592 1133.9856 3579.5129 7757921
-102.84909 1137.5138 3590.6501 6309703
-82.212852 1146.3766 3618.626 786432
-60.789028 1146.6356 3619.4436 917504
-39.283161 1144.7861 3613.6057 983040
-17.983831 1151.734 3635.5371 1114112
3.5650947 1155.358 3646.9768 1048833
25.435986 1167.5391 3685.4272 2562585
46.851337 1157.2158 3652.8408 2625294
68.251411 1153.1577 3640.031 2429970
90.373779 1160.3219 3662.6455 4863799
112.53052 1165.0679 3677.6267 1575692
134.79181 1169.181 3690.6101 786432
162.25208 1210.948 3822.4507 3481630
180.44322 1181.778 3730.3733 8349543
207.16475 1208.7457 3815.499 5651774
236.93871 1246.4655 3934.5642 6046531
261.56165 1252.7573 3954.4253 5388601
285.6806 1255.7994 3964.0278 4335145
308.478 1253.0114 3955.2271 4401195
330.84702 1248.9998 3942.564 5388347
348.45395 1228.7251 3878.5654 786946
361.48737 1195.8291 3774.7268 7626079
379.62515 1182.6682 3733.1833 5258816
397.23877 1169.4131 3691.3428 985096
423.75272 1182.3755 3732.2595 1379598
444.10672 1177.7168 3717.554 3353128
466.39078 1178.3749 3719.6311 393216
489.41144 1180.7506 3727.1304 2037527
510.67084 1178.8555 3721.1482 1181703
534.76678 1183.3942 3735.4751 1772812
553.75208 1176.7122 3714.3828 3088413
575.72504 1176.6471 3714.1772 1182215
603.62903 1188.2621 3750.8408 11444369
634.41498 1204.5242 3802.1733 2301463
676.32806 1240.073 3914.3862 327684
703.67487 1247.4426 3937.6487 196616
726.55078 1246.6676 3935.2024 131084
756.60199 1257.87 3970.5637 65548
794.61414 1281.233 4044.311 10
817.68774 1279.8466 4039.9343 10
839.53589 1276.6755 4029.9246 1710881
864.43652 1278.1932 4034.7153 1118745
903.73267 1300.3423 4104.6309 4211277
907.59644 1271.6844 4014.1702 3487810
945.27582 1290.6613 4074.0718 3422524
955.76984 1272.499 4016.7412 3817026
979.49261 1272.4037 4016.4402 1580066
992.67352 1258.9435 3973.9521 790296
1041.2596 1289.9686 4071.8855 2632501
1074.292 1300.7565 4105.938 1843242
1083.8031 1283.2175 4050.575 987935
1101.4006 1275.8051 4027.1772 2961725
1139.2388 1291.6558 4077.2112 3553865
1157.8051 1285.4517 4057.6272 2436157
1200.3379 1305.5675 4121.1245 1120295
1219.5579 1300.0304 4103.646 5133927
1221.9235 1277.0941 4031.2458 2107186
1253.1956 1284.6698 4055.1594 2239029
1276.3046 1283.7499 4052.2554 4475997
1289.6835 1273.2574 4019.1355 4805219
1339.7239 1298.6842 4099.397 3883600
1347.4075 1282.8771 4049.5007 6055280
1386.236 1296.7578 4093.3159 1975090
1398.8018 1286.0159 4059.4082 1975860
1422.4819 1285.6826 4058.3564 5265771
1463.1633 1300.4713 4105.0381 2239547
1503.5905 1314.5542 4149.4917 2831430
1505.3999 1294.9644 4087.655 3094091
1546.5439 1309.2954 4132.8921 3028299
1554.8276 1295.7939 4090.2737 3292245
1558.2253 1278.6973 4036.3066 3950428
1625.8448 1314.0221 4147.812 5792633
1665.1425 1325.7457 4184.8188 4476258
1689.4604 1325.3741 4183.646 5199978
1696.6412 1311.7634 4140.6826 4278105
1719.1851 1310.2495 4135.9038 3160137
1704.0082 1280.4337 4041.7878 1976372
1763.4894 1306.767 4124.9106 5989233
1811.0032 1323.6335 4178.1514 5791601
1801.2358 1298.7438 4099.585 1777453
1837.4188 1307.207 4126.2998 1909300
1889.4886 1326.6023 4187.5225 263439
1908.2472 1322.4102 4174.2896 2171951
1944.74 1330.4579 4199.6929 4607582
1949.7673 1317.0476 4157.3623 5923956
1953.9176 1303.3868 4114.2412 4081241
2004.0876 1320.3827 4167.8896 3356748
2034.4871 1324.0977 4179.6162 1579814
2033.3199 1307.4258 4126.9902 2435129
2052.282 1303.9395 4115.9854 1448233
2116.8826 1329.1914 4195.6953 197647
2123.6995 1317.996 4160.356 461589
2200.3855 1349.9216 4261.1318 1251369
2195.4956 1331.6444 4203.4385 1580592
2212.6296 1326.9856 4188.7324 2567484
2251.1055 1335.0876 4214.3071 922660
2278.8816 1336.7356 4219.5093 1515313
2262.7676 1312.8824 4144.2148 6448760
2293.5325 1316.449 4155.4727 4870244
2303.1265 1307.9171 4128.541 4080472
2312.5757 1299.483 4101.9185 2567231
2369.2561 1317.4885 4158.7544 1843252
2396.8589 1319.1207 4163.9062 1645615
2428.0295 1322.663 4175.0879 1316393
2427.8086 1309.2058 4132.6094 1514287
2435.002 1299.9757 4103.4736 1974582
2458.6475 1299.6245 4102.3652 2237753
2457.7483 1286.4331 4060.7253 461852
2489.7075 1290.5293 4073.6553 1843509
2573.6194 1321.2178 4170.5259 2501439
2693.999 1369.8662 4324.0884 2567745
2703.3357 1361.6658 4298.2031 2963016
2713.6709 1354.1168 4274.374 4410207
2731.1204 1350.2246 4262.0879 6252154
2761.2859 1352.6327 4269.6895 7042183
2749.7051 1334.733 4213.1875 5791089
2802.5857 1348.1642 4255.584 3949397
2797.7048 1333.8177 4210.2983 2106932
2825.46 1335.1466 4214.4932 2830657
2865.6458 1342.2749 4236.9941 2501436
2891.854 1342.7891 4238.6172 1580590
2888.4666 1329.6704 4197.207 3685708
2912.7893 1329.4226 4196.4253 4935771
2922.656 1322.6373 4175.0068 3356484
2923.9475 1312.1177 4141.8008 3422275
2960.1155 1317.2937 4158.1392 395797
3008.5117 1327.781 4191.2432 790042
3014.0906 1319.3542 4164.6436 9
3014.4448 1308.796 4131.3154 1711144
3059.8816 1317.8237 4159.8125 1908524
3105.1409 1326.6315 4187.6147 1382690
3115.7036 1320.5934 4168.5552 921372
3164.447 1330.7062 4200.4766 5329765
