# .PCD v0.7 - Point Cloud Data file format
VERSION 0.7
FIELDS x y z rgb
SIZE 4 4 4 4
TYPE F F F U
COUNT 1 1 1 1
WIDTH 1284
HEIGHT 1
VIEWPOINT 0 0 0 1 0 0 0
POINTS 1284
DATA ascii
2838.0437 1020.4219 3346.1897 724249
2817.8127 1006.1201 3299.2913 724250
2843.6616 1008.3552 3306.6206 3027264
2881.9326 1014.9344 3328.1951 2238262
2920.3069 1021.4603 3349.595 3554377
2895.8633 1006.0742 3299.1401 4541015
2901.1675 1001.1598 3283.0251 3487813
2932.7561 1005.321 3296.6707 5725034
2957.8386 1007.2117 3302.8706 4475223
3013.3689 1019.3776 3342.7651 4343123
3020.4231 1015.093 3328.7148 5461603
3037.6016 1014.2443 3325.9321 1514020
3066.0681 1017.1513 3335.4648 328973
3084.1428 1016.5958 3333.6431 1447979
3059.0808 1001.9191 3285.5151 1842738
3096.7664 1007.8492 3304.9614 1119270
3057.3931 988.78351 3242.4407 2105909
3113.6001 1000.6743 3281.4331 1579564
3104.8865 991.68225 3251.946 592411
0 0 0 0
0 0 0 0
0 0 0 0
0 0 0 0
0 0 0 0
0 0 0 0
0 0 0 0
-3403.4016 1184.0355 3808.7236 7297369
-3376.9685 1182.6804 3804.3647 6770767
-3354.5295 1182.7152 3804.4766 7099473
-3369.2397 1195.937 3847.0073 7362387
-3340.3279 1193.7495 3839.9707 7362643
-3369.7688 1212.5286 3900.3782 7625559
-3412.7095 1236.4583 3977.3533 5981247
-3479.3926 1269.3824 4083.262 5125938
-3415.0483 1254.6306 4035.8091 7297106
-3372.7424 1247.8241 4013.9146 6573127
-3363.04 1253.0693 4030.7869 6902089
-3348.6348 1256.6246 4042.2234 6902600
-3287.9507 1242.7391 3997.5576 6770757
-3224.4519 1227.5807 3948.7966 5652789
-3161.7996 1212.5254 3900.3677 5259056
-3136.8674 1211.8201 3898.0991 5390129
-3110.7197 1210.6313 3894.2754 5521972
-3123.0022 1224.4928 3938.8638 5653818
-3081.3462 1217.2551 3915.5823 7695204
-3062.5264 1218.9974 3921.1865 7234142
-3107.2112 1246.2366 4008.8076 6901834
-3066.2512 1239.2805 3986.4319 7361873
-3059.3196 1246.0763 4008.2922 7099468
-3054.292 1253.7601 4033.0088 6967112
-3043.6665 1259.249 4050.6653 6703938
-2983.5583 1244.1902 4002.2249 6111803
-2960.2549 1244.361 4002.7744 6243388
-2932.6445 1242.7097 3997.4626 6637377
-2918.981 1246.9895 4011.2295 6242362
-2934.5044 1263.9106 4065.6604 5123881
-2864.8213 1244.1091 4001.9641 6505789
-2799.2996 1225.7992 3943.0664 7558476
-2777.7253 1226.5876 3945.6023 7624525
-2743.113 1221.5833 3929.5044 7493195
-2724.7976 1223.8127 3936.6763 7230022
-2710.7993 1228.0364 3950.2625 5256489
-2675.2554 1222.4882 3932.4153 7361608
-2637.8975 1216.0061 3911.5645 7032643
-2602.4387 1210.2925 3893.1853 6703678
-2561.5 1201.9054 3866.2061 6374970
-2573.4617 1218.4127 3919.3059 6769728
-2564.1267 1225.046 3940.6433 7624780
-2544.4343 1226.8073 3946.3086 7493195
-2525.3091 1228.8771 3952.9668 7953746
-2491.0103 1223.5327 3935.7756 8085333
-2467.3508 1223.3627 3935.2288 7821905
-2455.6343 1229.1675 3953.9009 7493195
-2443.1389 1234.6903 3971.6665 7558988
-2410.0078 1229.7906 3955.9055 7361608
-2379.4111 1226.1006 3944.0354 7493195
-2360.5537 1228.4465 3951.5818 7230281
-2336.8796 1228.3077 3951.1353 6637888
-2305.5596 1224.1067 3937.6218 6901317
-2268.3052 1216.6367 3913.5928 6966853
-2248.054 1218.2266 3918.7068 7164489
-2230.458 1221.3033 3928.6045 7361868
-2190.8928 1212.2889 3899.6072 7691344
-2133.0684 1192.8713 3837.146 7427658
-1988.6249 1124.0737 3615.8425 4598295
-1942.6776 1110.0594 3570.7622 8282438
-1936.0205 1118.4341 3597.7014 7953727
-1928.7137 1126.6158 3624.02 9730138
-1900.1887 1122.4481 3610.6138 7559735
-1865.6903 1114.6168 3585.4226 7888444
-1856.0457 1121.6246 3607.9644 8611913
-1837.3931 1123.2886 3613.3171 8085313
-1807.1553 1117.8257 3595.7444 10782826
-1797.5276 1125.1331 3619.2502 9203025
-1788.9629 1133.2902 3645.4895 10255715
-1768.2355 1133.8475 3647.2825 5452832
-1735.996 1126.9457 3625.0808 8216135
-1740.2953 1143.8875 3679.5781 8611148
-1717.6082 1143.296 3677.6755 8808525
-1709.0554 1152.2186 3706.3772 10716006
-1686.8009 1152.0157 3705.7244 11308654
-1671.9524 1156.9323 3721.5396 10782834
-1648.8875 1156.2185 3719.2439 7230018
-1638.9452 1164.8119 3746.8865 7690574
-1624.9465 1170.719 3765.8879 7427659
-1613.2391 1178.464 3790.8018 7625040
-1590.4911 1178.2488 3790.1094 7756884
-1590.6718 1195.2565 3844.8186 2627605
-1553.6279 1184.3809 3809.8345 852483
-1507.9545 1166.5089 3752.3455 589827
-1478.2788 1160.6628 3733.54 327683
-1451.3951 1156.8646 3721.322 262146
-1429.5763 1157.0483 3721.9131 393731
-1400.1053 1150.9475 3702.2886 2101776
-1361.958 1137.4067 3658.7314 3482654
-1352.7441 1147.9818 3692.7483 5191984
-1316.6781 1135.7423 3653.3772 5191213
-1313.7388 1152.1459 3706.1431 5125418
-1281.3517 1142.8422 3676.2158 4204572
-1243.6606 1128.4045 3629.7739 6178876
-1224.3821 1130.4589 3636.3821 6968392
-1218.1361 1144.8352 3682.6267 6704964
-1205.3113 1153.4401 3710.3064 6704452
-1166.2966 1136.8364 3656.897 6901576
-1153.8639 1146.0051 3686.3901 5322292
-1109.4424 1123.1439 3612.8516 2625809
-1068.6646 1103.1442 3548.5178 1180165
-1024.6093 1078.8909 3470.5017 917505
-989.34576 1063.0914 3419.679 851969
-973.00751 1067.3923 3433.5142 3087648
-940.04102 1053.2466 3388.0105 12102573
-915.84088 1048.5194 3372.8049 8547696
-914.72607 1070.601 3443.835 9995138
-890.79285 1066.3737 3430.2373 8547690
-907.85175 1112.1667 3577.541 5783095
-892.56116 1119.5717 3601.3608 5716791
-885.49274 1137.9054 3660.3354 5321777
-860.43066 1133.4562 3646.0237 5913914
-829.39252 1120.7029 3604.9998 6571844
-816.13806 1131.9407 3641.1482 6506050
-806.72705 1149.2637 3696.8721 5848120
-771.48975 1129.7347 3634.0527 5979706
-754.79608 1137.0186 3657.4829 6243392
-731.89703 1135.1089 3651.3398 6374464
-710.71515 1135.8274 3653.6509 6111550
-684.51917 1128.3257 3629.5203 5716792
-665.01489 1131.7257 3640.457 6440515
-641.2381 1127.8389 3627.9541 6374465
-615.95886 1120.9481 3605.7883 6572101
-593.50726 1118.8931 3599.178 6572101
-574.97266 1124.3445 3616.7136 6835272
-556.46588 1130.2743 3635.7881 6703687
-532.40814 1124.9528 3618.6704 6572101
-511.47394 1126.0616 3622.2373 4993582
-483.0285 1110.0066 3570.5923 6045500
-467.55878 1123.6649 3614.5276 4599081
-438.92603 1105.4819 3556.0378 4533036
-411.17676 1087.8027 3499.1687 2692119
-383.67715 1068.942 3438.4988 984327
-356.27997 1048.2676 3371.9946 7166811
-337.42908 1051.7759 3383.28 12232354
-317.5665 1052.3749 3385.207 12363424
-297.44406 1052.1355 3384.4365 12823969
-277.44745 1052.3386 3385.0901 12889504
-259.49734 1060.9404 3412.7598 4467231
-250.44109 1110.4302 3571.9551 6835527
-227.34109 1101.0398 3541.7485 6111292
-206.47063 1101.6354 3543.6648 5322033
-185.21159 1100.0582 3538.5913 6374720
-164.3942 1101.036 3541.7368 6045756
-144.3604 1108.3163 3565.1553 6243392
-123.45545 1110.2574 3571.3992 5717308
-101.37171 1100.2079 3539.0725 786432
-80.791603 1105.4917 3556.0693 720896
-59.236732 1096.4606 3527.0183 524288
-39.056713 1116.9025 3592.7749 589829
-17.549885 1102.9247 3547.8118 458760
3.3714507 1072.1708 3448.885 458759
23.652178 1065.3583 3426.9707 458757
43.681015 1058.7336 3405.6614 393218
63.794491 1057.6986 3402.3318 787717
83.706078 1054.6168 3392.4187 1182219
103.33976 1049.905 3377.2622 787203
123.89379 1054.5557 3392.2219 3878447
144.53398 1058.5391 3405.0354 3549223
164.60143 1057.8658 3402.8696 3680293
186.23366 1066.299 3429.9966 3482914
207.99995 1073.7648 3454.0122 590081
229.27788 1077.5979 3466.3423 6245449
248.23033 1070.7697 3444.3779 5455930
268.45908 1070.0659 3442.1143 5258808
295.55261 1094.8927 3521.9753 4535087
316.11703 1093.8528 3518.6301 3022620
334.66028 1086.3802 3494.593 720896
354.50864 1083.7683 3486.1909 655360
376.34714 1087.193 3497.2073 1180419
393.99936 1078.798 3470.2029 3745318
419.49091 1091.6357 3511.4985 3876389
445.15271 1103.6825 3550.2498 3876133
462.13959 1094.1047 3519.4404 4204842
485.77948 1100.4247 3539.77 4073513
508.44055 1104.0961 3551.5798 4928823
529.35504 1103.8336 3550.7358 4205613
549.05255 1101.1504 3542.1045 3416096
561.7984 1085.2362 3490.9128 2823702
576.16205 1073.4663 3453.052 3482402
570.27063 1026.0594 3300.5571 2364694
571.8988 994.87695 3200.2515 655362
593.93701 1000.0617 3216.9292 786692
602.72449 983.30621 3163.0315 590083
620.44336 981.69299 3157.842 2299413
642.05664 986.15558 3172.197 8285032
655.28253 977.84833 3145.4749 10388095
674.18512 978.2373 3146.7261 10783624
684.78833 966.88715 3110.2156 13613752
709.55017 975.59906 3138.2397 14206660
724.48425 970.69843 3122.4758 1839118
793.81543 1037.1112 3336.1074 4928821
826.93115 1054.1316 3390.8574 4665648
866.74835 1078.6846 3469.8381 5389116
890.52246 1082.5967 3482.4221 5125688
911.19153 1082.6423 3482.5691 3086620
932.53015 1083.4639 3485.2117 3612709
937.33588 1065.4572 3427.2888 4599862
982.21008 1092.7935 3515.2227 4467505
987.77893 1076.1721 3461.7561 4928568
1010.9518 1079.0161 3470.9048 5192511
1041.4274 1089.3857 3504.261 4469047
1059.3268 1086.452 3494.8237 4404283
1070.9353 1077.3022 3465.3914 4009782
1091.4752 1077.3123 3465.4238 3615024
1106.4525 1071.9329 3448.1194 3088935
1117.4398 1062.9531 3419.2341 3548974
1134.4695 1059.9384 3409.5366 2496801
1165.6533 1070.0222 3441.9734 2497315
1177.3079 1062.1403 3416.6194 1511957
1207.4789 1070.9478 3444.9507 789005
1220.9197 1064.8704 3425.4016 723471
1240.6145 1064.3574 3423.7512 197127
1255.7969 1060.0518 3409.9011 328456
1269.1476 1054.3606 3391.5945 131079
1286.5793 1052.1846 3384.5947 65544
1305.4683 1051.2488 3381.5842 131082
1321.7606 1048.2819 3372.0405 196618
1338.7327 1045.9343 3364.4893 65545
1358.6158 1045.8967 3364.3684 65545
1373.2985 1041.9146 3351.5588 66057
1413.8523 1057.3947 3401.354 592656
1408.9512 1038.9222 3341.9336 855575
1414.2164 1028.3544 3307.9395 329230
1450.915 1040.62 3347.3945 1250593
1458.9854 1032.299 3320.6279 526873
1467.9567 1024.8284 3296.5972 1053216
1497.2053 1031.5244 3318.1365 3421763
1537.5465 1045.5901 3363.3821 1908782
1554.073 1043.3083 3356.0422 922144
1565.2202 1037.5184 3337.4177 1711405
1612.1636 1055.3047 3394.6313 1842991
1636.1497 1057.8103 3402.6912 2369335
1648.5291 1052.8423 3386.7104 1251364
1663.726 1049.7715 3376.8325 267
1693.7444 1056.0146 3396.9148 658454
1709.1528 1053.109 3387.5681 658456
1736.3439 1057.4467 3401.5212 592920
1726.9186 1039.6409 3344.2449 921883
1756.78 1045.6222 3363.4851 724765
1783.7793 1049.7848 3376.8752 4277330
1832.556 1066.5295 3430.7385 1316638
1832.7434 1054.9385 3393.4531 1382440
1827.7344 1040.6403 3347.4597 658200
1874.8208 1055.9919 3396.8418 790044
1869.9061 1042.0388 3351.9585 1448233
1865.3302 1028.5658 3308.6194 987682
1912.527 1043.6243 3357.0583 3553609
1967.7046 1062.6827 3418.3645 2830402
2006.668 1072.6855 3450.5408 3356745
1999.0924 1057.8596 3402.8499 3949139
2012.8767 1054.5199 3392.1067 3685969
2039.2386 1057.7703 3402.5625 3422796
2059.782 1057.9685 3403.2 1778225
2075.2939 1055.6036 3395.5928 723987
2060.9023 1038.2196 3339.6731 987424
2085.2061 1040.4742 3346.9258 1185317
2101.5857 1038.7699 3341.4431 790045
2140.6438 1048.2021 3371.7842 2566453
2187.7153 1061.3477 3414.0696 1908522
2198.4204 1056.7711 3399.3481 856091
2217.6877 1056.3561 3398.0132 3422534
2239.7849 1057.2843 3400.9993 1119515
2274.1299 1063.9261 3422.364 6185583
2289.9077 1061.8409 3415.6565 526868
2297.5815 1056.0671 3397.084 328967
2329.9243 1061.6342 3414.9915 4276556
2358.126 1065.2347 3426.5735 263438
2375.2542 1063.8141 3422.0039 265
2346.9707 1042.2512 3352.6418 460820
2416.8184 1064.2628 3423.447 4803934
2440.0881 1065.5677 3427.645 268
2440.7039 1057.0402 3400.2139 5067369
2474.0723 1062.7208 3418.4868 4081240
2450.2534 1043.9442 3358.0874 5659756
2476.1521 1046.4819 3366.2507 3685716
2493.3486 1045.3307 3362.5476 197650
2513.3225 1045.3529 3362.6189 2304319
2523.6838 1041.4081 3349.9294 1514287
2581.9419 1057.1354 3400.5203 5001576
2594.2068 1053.934 3390.2217 5790830
2601.3147 1048.7024 3373.3933 3619661
2618.2002 1047.4626 3369.4053 3290948
2661.3545 1056.6713 3399.0271 4014158
2653.6299 1045.6921 3363.7102 3948628
2711.6912 1060.6072 3411.688 1777973
2694.0391 1045.9075 3364.4028 1777458
2686.6902 1035.3942 3330.5845 3093061
2710.1172 1036.8081 3335.1326 4474971
2722.7754 1034.1116 3326.4585 2304061
2726.1931 1027.9695 3306.7012 2304316
2753.188 1030.7418 3315.6191 4277593
2779.5046 1033.2228 3323.5996 4212058
2803.2756 1034.7292 3328.4456 2961988
2767.8496 1014.5168 3263.4275 4935265
2775.9983 1010.4457 3250.3318 6053743
2774.532 1002.955 3226.2361 658199
2838.1741 1018.9415 3277.6606 3356489
2871.0518 1023.741 3293.0994 593177
2838.1794 1005.1893 3233.4233 1251624
2834.126 997.02454 3207.1594 6053741
2851.5659 996.47937 3205.406 1711146
2906.8474 1009.0776 3245.9312 3159106
2970.1082 1024.2622 3294.7756 3026751
2923.0273 1001.4446 3221.3779 2303284
2957.3906 1006.6454 3238.1074 7172222
2877.9512 973.29224 3130.8193 2500913
3010.6289 1011.6426 3254.1821 3224900
3069.2605 1024.7821 3296.4482 1251108
3066.5532 1017.4047 3272.717 3554375
3016.6021 994.54413 3199.1807 3554377
3047.7571 998.54205 3212.041 1120037
3084.885 1004.4351 3230.9973 1646380
0 0 0 0
0 0 0 0
0 0 0 0
0 0 0 0
0 0 0 0
0 0 0 0
0 0 0 0
-3333.8455 1181.9396 3730.8835 4665650
-3342.9053 1193.0614 3765.9902 6704976
-3327.8359 1195.6632 3774.2029 7297369
-3324.1785 1202.428 3795.5566 6968402
-3351.6499 1220.6216 3852.9861 7099216
-3352.1516 1229.1754 3879.9871 6704457
-3401.6123 1255.9237 3964.4199 6638919
-3389.0151 1259.9719 3977.1987 6638919
-3392.6604 1270.158 4009.3516 6770762
-3332.3035 1256.3572 3965.7886 6902091
-3320.1753 1260.6729 3979.4111 6836554
-3258.25 1246.007 3933.1172 6112834
-3190.4868 1228.8815 3879.0588 786945
-3177.9905 1232.9487 3891.8979 1181187
-3144.927 1229.0381 3879.5537 5323568
-3112.8655 1225.4642 3868.2725 5193003
-3115.5811 1235.6299 3900.3608 5324076
-3089.5459 1234.4598 3896.6675 6049091
-3059.3755 1231.6074 3887.6636 6838611
-3075.563 1247.5154 3937.8784 7233371
-3100.113 1267.0845 3999.6499 7297884
-3050.0684 1256.2317 3965.3923 6836814
-3008.051 1248.5425 3941.1206 6967630
-2993.01 1252.0175 3952.0896 7033934
-2983.8469 1258.0254 3971.0542 7099214
-2923.5188 1242.3856 3921.686 7098698
-2904.7656 1244.3047 3927.7437 7361869
-2859.9692 1235.0085 3898.3997 7690833
-2858.8083 1244.5573 3928.541 6506303
-2854.2595 1252.7759 3954.4836 6637376
-2824.366 1249.9143 3945.4507 7361098
-2765.2603 1233.9694 3895.1191 7361355
-2750.4573 1237.6918 3906.8696 7163974
-2714.7366 1231.9849 3888.8552 7163974
-2683.2358 1228.1116 3876.6292 7295815
-2662.3801 1229.0859 3879.7043 7493195
-2634.5752 1226.8412 3872.6187 7361865
-2599.5886 1221.1831 3854.7588 7624783
-2559.4905 1213.0024 3828.9358 7493455
-2533.3521 1211.3505 3823.7209 7887443
-2540.0837 1225.5277 3868.4727 6834754
-2548.0481 1240.5631 3915.9331 7163975
-2505.1377 1230.8781 3885.3616 6900804
-2480.1733 1229.9128 3882.3145 7690320
-2461.5667 1232.1116 3889.2554 7295562
-2437.0056 1231.3435 3886.8306 7295563
-2417.0405 1232.905 3891.7598 6769989
-2362.5461 1216.7141 3840.6521 7559505
-2381.9473 1238.6345 3909.8455 6506818
-2335.0042 1226.1471 3870.428 6704455
-2341.3406 1241.6674 3919.4187 6967369
-2314.5139 1239.7354 3913.3201 6967112
-2251.8616 1218.3804 3845.9116 7230284
-2230.323 1219.0613 3848.0608 6966855
-2231.5129 1232.3074 3889.8733 6637890
-2162.6958 1206.7666 3809.252 3611667
-2068.457 1166.3525 3681.6819 1048576
-2002.8414 1141.3892 3602.8828 1639936
-1950.1951 1123.3584 3545.9673 6243377
-1929.6323 1123.6171 3546.7839 8809036
-1952.4585 1149.4248 3628.2483 9730392
-1903.6484 1133.165 3576.9231 8480584
-1891.6656 1138.7078 3594.4187 7625276
-1859.0498 1131.8149 3572.6611 8414278
-1850.7896 1139.7622 3597.7473 7756605
-1826.3613 1137.822 3591.6228 8611400
-1822.8357 1149.0118 3626.9443 8545606
-1813.8278 1156.9714 3652.0698 9005645
-1775.9288 1146.4727 3618.9292 8939086
-1766.0713 1154.0408 3642.8186 8873806
-1753.4788 1159.9869 3661.5881 5847586
-1742.0515 1166.8624 3683.2913 9596503
-1710.0101 1159.9296 3661.407 9530452
-1708.4208 1173.74 3705.001 6636591
-1689.7206 1176.0013 3712.1389 11505269
-1667.1078 1175.5632 3710.7561 9269085
-1644.0692 1174.8092 3708.3757 7493194
-1608.6207 1165.0468 3677.5601 8611676
-1611.7314 1183.3264 3735.2612 8480347
-1585.502 1180.2736 3725.6245 8217176
-1559.6288 1177.4036 3716.5652 7888467
-1533.2976 1174.1007 3706.1392 7428431
-1556.928 1209.5149 3817.927 7494995
-1497.2222 1180.2782 3725.6394 5851198
-1467.6522 1174.2787 3706.7014 4996404
-1449.4669 1177.3444 3716.3782 5916735
-1426.1348 1176.2594 3712.9534 6179904
-1388.215 1162.92 3670.8469 5455667
-1360.8358 1158.127 3655.7168 5652530
-1319.3832 1141.0078 3601.6792 5652273
-1295.7823 1139.0179 3595.3979 5915701
-1286.144 1149.4402 3628.2964 5981494
-1255.7271 1141.3307 3602.6985 5060394
-1242.521 1148.8545 3626.4478 8679009
-1219.1208 1147.0515 3620.7566 8350814
-1197.3828 1146.7758 3619.8862 7627092
-1180.8351 1151.5516 3634.9617 6969162
-1159.3435 1151.5941 3635.0957 6179396
-1124.4154 1138.0388 3592.3074 2365208
-1072.4056 1106.3384 3492.2427 786434
-1044.0825 1098.3076 3466.8928 655367
-1013.2983 1087.3138 3432.1897 655366
-985.91614 1079.5948 3407.8245 720900
-957.13672 1069.9912 3377.5098 983817
-931.69269 1063.7858 3357.9219 6839392
-918.6781 1071.8109 3383.2539 12299442
-913.1579 1089.1326 3437.9309 8352373
-900.84717 1098.9606 3468.9541 12892089
-871.05334 1087.4218 3432.5305 13418176
-872.72968 1115.5577 3521.344 7429723
-867.77917 1136.3934 3587.1135 6638666
-854.15436 1146.6307 3619.4285 6375234
-821.35852 1130.9971 3570.0796 7361613
-806.7699 1140.2709 3599.353 3876900
-780.84265 1133.587 3578.2551 5847861
-765.22925 1141.9214 3604.563 6835015
-748.53888 1149.0809 3627.1624 6506049
-721.67877 1140.5907 3600.3625 7887957
-708.10773 1153.2258 3640.2463 7098442
-681.11237 1144.1052 3611.4565 7032651
-655.35034 1136.5321 3587.551 8019547
-632.74261 1134.1046 3579.8887 7822168
-609.68506 1130.6748 3569.062 6374722
-587.81311 1129.2761 3564.647 7427152
-566.01941 1127.9292 3560.3955 7558738
-546.2796 1130.7292 3569.2341 5519412
-519.19208 1117.9335 3528.8435 7230030
-497.44821 1116.0531 3522.9075 6440515
-482.79626 1130.6156 3568.8755 6901833
-455.38699 1115.2688 3520.4321 2627092
-433.00467 1111.351 3508.0649 720896
-402.582 1085.3612 3426.0264 524289
-372.84955 1058.5714 3341.4622 786434
-352.93924 1058.2273 3340.3762 851968
-331.1904 1052.0026 3320.7273 5323579
-312.24194 1054.4485 3328.448 10323329
-292.95361 1055.999 3333.3423 10981001
-272.4248 1052.979 3323.8093 10125692
-254.89278 1061.974 3352.2029 13612972
-242.11484 1093.9701 3453.2009 5651512
-222.06296 1095.9722 3459.5205 5848117
-204.38213 1111.2733 3507.8198 6046010
-181.2688 1097.1572 3463.2615 4663845
-162.36275 1108.1533 3497.9712 5914169
-140.16005 1096.5747 3461.4224 6638407
-120.40565 1103.4651 3483.1726 6902351
-99.77224 1103.4839 3483.2319 5718596
-80.569275 1123.4584 3546.2832 458755
-58.77264 1108.6014 3499.3857 721413
-37.633114 1096.7006 3461.8198 393220
-17.087404 1094.3242 3454.3191 327682
3.3584032 1088.3744 3435.5378 327683
23.598869 1083.2135 3419.2468 459013
43.669807 1078.6328 3404.7876 458752
63.911911 1079.8386 3408.594 1642257
82.96566 1065.2081 3362.4114 4273456
102.64717 1062.7422 3354.6274 6180167
123.08492 1067.6359 3370.0747 5916738
143.06883 1067.7762 3370.5181 6179399
163.52408 1070.9694 3380.5972 7297881
183.04195 1067.9962 3371.2124 6443085
206.44107 1086.0262 3428.1257 7495773
226.62804 1085.4418 3426.2805 6310983
248.00697 1090.1931 3441.2786 5915712
269.03217 1092.7858 3449.4624 6375751
297.11084 1121.6404 3540.5442 3678497
316.43564 1115.8214 3522.1765 5784129
334.28723 1105.8489 3490.6975 4140075
354.70984 1105.0481 3488.1697 4271147
374.17877 1101.5278 3477.0576 4007462
389.8663 1087.824 3433.8003 5454651
412.47577 1093.8356 3452.7761 6244167
435.3725 1100.0046 3472.2493 4796721
452.58478 1091.9028 3446.6755 5388858
475.17831 1096.9229 3462.5217 5585982
491.67972 1088.046 3434.5015 5455167
517.88452 1100.4943 3473.7952 4139821
530.21625 1083.6378 3420.5862 3876906
544.36395 1071.597 3382.5786 4732215
558.68048 1060.7317 3348.2815 4404022
556.07983 1019.5933 3218.425 1115143
563.59338 999.11255 3153.7756 1641486
587.36975 1007.851 3181.3591 1444364
599.99963 997.51453 3148.7317 589824
621.08868 1001.4411 3161.1262 589824
636.14941 995.70227 3143.0112 2627607
661.89014 1006.5309 3177.1926 6442056
671.31897 992.64124 3133.3486 12560284
680.60406 979.29211 3091.2109 13483693
702.39069 984.15924 3106.5745 13680559
732.95001 1000.7557 3158.9626 12496031
763.85529 1016.9865 3210.1963 2429202
804.79279 1045.4611 3300.0784 2691863
842.88 1068.9701 3374.2864 4534066
850.58368 1053.749 3326.24 5520189
903.32825 1093.7528 3452.5154 6112583
911.57495 1079.3 3406.894 4928824
924.04333 1070.3636 3378.6855 4205101
952.7146 1080.1769 3409.6616 5455167
980.14075 1088.2001 3434.9875 4599859
1002.4485 1090.3298 3441.7104 3481377
1022.2656 1089.7197 3439.7844 3810856
1047.1533 1094.433 3454.6624 4863545
1044.7969 1071.0371 3380.8113 3876908
1074.073 1080.3386 3410.1719 4206129
1090.8353 1076.9419 3399.4504 4009264
1112.7982 1078.71 3405.0312 4272693
1121.0479 1067.3585 3369.1995 4272436
1122.9773 1050.4917 3315.9583 3351334
1145.2622 1052.9193 3323.6208 3680302
1167.521 1055.2411 3330.95 2562080
1209.3467 1074.877 3392.9321 3220523
1210.0991 1057.9614 3339.5371 2563106
1234.9987 1062.3618 3353.427 2234651
1249.4017 1057.7366 3338.8269 1249041
1262.8392 1052.4507 3322.1418 1380116
1274.4655 1045.8408 3301.2771 2565674
1305.1959 1054.8708 3329.7812 4
1322.3295 1052.8065 3323.2649 395023
1334.7911 1047.1377 3305.3708 131595
1353.9181 1046.786 3304.261 14
1375.4852 1048.3041 3309.0527 15
1391.5695 1045.6597 3300.7053 17
1394.2451 1033.1525 3261.2256 15
1418.5118 1036.7677 3272.6375 15
1439.9803 1038.2681 3277.373 13
1453.972 1034.4091 3265.1919 8
1469.9048 1032.0142 3257.6323 12
1503.7136 1042.0695 3289.3726 263184
1524.4049 1042.8934 3291.9736 592665
1546.1029 1044.3765 3296.655 987678
1559.9487 1040.5847 3284.6858 2171698
1592.5215 1049.2245 3311.958 1448229
1622.2064 1055.7745 3332.6335 197899
1648.8875 1060.2355 3346.7151 8
1660.5051 1055.0198 3330.2512 526865
1671.8572 1049.7599 3313.6479 461327
1686.6033 1046.7284 3304.0789 527123
1712.7878 1050.7837 3316.8799 1119520
1727.15 1047.5765 3306.7563 1185057
1765.5398 1058.8514 3342.3462 3421760
1758.6818 1043.0405 3292.438 131851
1778.7958 1043.3977 3293.5652 1315873
1810.8588 1050.6801 3316.5525 1119007
1837.0845 1054.4554 3328.47 263695
1838.6199 1044.1295 3295.8752 395024
1854.8824 1042.296 3290.0876 329747
1870.2108 1039.9811 3282.7805 1382434
1908.5667 1050.3871 3315.6279 1580068
1928.9358 1050.783 3316.8774 921881
1964.6377 1059.439 3344.2009 1842984
1980.2472 1057.1956 3337.1194 1514536
1984.3669 1048.9231 3311.0066 4409688
1999.8217 1046.7455 3304.1326 4607326
2011.6864 1042.749 3291.5178 2698558
2020.3594 1037.191 3273.9734 1975345
2065.5195 1050.2919 3315.3271 1316644
2077.5061 1046.4364 3303.1572 2895935
2107.9961 1051.8862 3320.3599 2764606
2136.7231 1056.3635 3334.4929 3225413
2174.5591 1065.2209 3362.4521 2238774
2203.0608 1069.3867 3375.6016 3160134
2235.8906 1075.5594 3395.0864 2896961
2220.1934 1058.4866 3341.1946 4409688
2233.3254 1055.3385 3331.2576 3357002
2261.3628 1059.2273 3343.5327 5791087
2329.7285 1081.7744 3414.7046 1450541
2343.7932 1078.9365 3405.7463 8162716
2374.8821 1083.9171 3421.4678 5265517
2342.3438 1060.0192 3346.032 3160142
2353.186 1055.9891 3333.3113 4278369
2412.5454 1073.6172 3388.9553 5660794
2389.7336 1054.6886 3329.2058 7831179
2384.9666 1043.9686 3295.3674 3554641
2412.2551 1047.3405 3306.0107 1777460
2453.4795 1056.6598 3335.4282 5331050
2459.0559 1050.6001 3316.3 5001573
2476.5415 1049.6841 3313.4089 4015448
2489.1594 1046.7357 3304.1021 3160138
2472.9082 1031.7881 3256.9185 6120824
2480.355 1026.8828 3241.4348 3423312
2512.968 1032.3921 3258.8254 4015450
2554.3462 1041.3907 3287.2302 3620434
2569.6357 1039.6975 3281.8855 5132386
2623.6035 1053.5619 3325.6494 1316383
2650.1643 1056.2957 3334.2788 1316646
2673.593 1057.7499 3338.8691 2171958
2655.1931 1042.7557 3291.5388 2632765
2659.8938 1036.986 3273.3264 1974834
2685.3105 1039.3179 3280.687 1053989
2643.5479 1015.8021 3206.4575 1054505
2668.8989 1018.2267 3214.1111 6053746
2739.4788 1037.7502 3275.7385 1448235
2766.6731 1040.6798 3284.9858 4277335
2714.3184 1013.855 3200.3118 1842478
2745.6233 1018.4344 3214.7668 2171446
2746.4521 1011.724 3193.585 4145236
2768.686 1012.9365 3197.4124 3816527
2800.5879 1017.6457 3212.2771 1184805
2823.4878 1019.0422 3216.6855 723989
2810.9771 1007.7256 3180.9636 1777200
2816.1785 1002.8671 3165.6274 4277334
2840.4917 1004.8337 3171.8352 2896190
2878.0337 1011.4235 3192.6362 790812
2867.1272 1001.0121 3159.7722 4804446
2847.0166 987.54333 3117.2566 6121085
2900.4026 999.57739 3155.2432 2632760
2939.7937 1006.6653 3177.6165 3817813
3000.905 1021.0532 3223.033 2633281
3016.8411 1019.9855 3219.6628 4672089
2942.1636 988.48749 3120.2371 4804445
3038.6523 1014.5309 3202.4453 4541532
3042.8843 1009.6401 3187.0071 3817808
0 0 0 0
0 0 0 0
0 0 0 0
0 0 0 0
0 0 0 0
0 0 0 0
0 0 0 0
-3254.9238 1175.5393 3642.5635 6905699
-3281.2324 1192.9496 3696.5117 8680564
-3237.5896 1184.9912 3671.8516 8943479
-3277.1328 1207.5779 3741.8394 5455678
-3300.4797 1224.4636 3794.1619 6771022
-3315.012 1238.2882 3836.999 6771021
-3311.7058 1245.5944 3859.6384 6573130
-3329.2727 1260.9073 3907.0879 6309955
-3308.8652 1261.9519 3910.3245 6441799
-3273.1667 1257.1385 3895.4097 6442057
-3282.2468 1269.5769 3933.9517 6113606
-3207.4558 1249.5199 3871.8022 2430995
-3133.4126 1229.4674 3809.6667 2166026
-3130.5803 1237.2679 3833.8376 2363402
-3106.7368 1236.8175 3832.4424 3612694
-3090.7598 1239.5155 3840.8022 3350036
-3078.4102 1243.7189 3853.8271 2889747
-3025.8472 1231.6171 3816.3276 5521207
-2992.0732 1227.0382 3802.1399 6310468
-2972.9487 1228.4432 3806.4934 6375749
-2946.5234 1226.83 3801.4944 6507078
-2947.8049 1236.8168 3832.4397 6572870
-2915.9871 1232.9633 3820.4993 6573127
-2887.1091 1230.3022 3812.2539 6572868
-2880.1196 1237.0004 3833.0088 6441026
-2832.1692 1226.0726 3799.1475 6967111
-2818.1262 1229.766 3810.592 7032646
-2782.4148 1223.9872 3792.6855 6703168
-2773.8372 1230.1476 3811.7747 6768961
-2759.6155 1233.8856 3823.3574 6703424
-2730.4014 1230.9265 3814.1882 7097927
-2711.3687 1232.5465 3819.208 6967111
-2678.1504 1227.6908 3804.1619 7164489
-2657.3877 1228.5111 3806.7034 6440512
-2640.5396 1231.1703 3814.9436 6967114
-2603.3176 1224.2942 3793.637 4993330
-2585.9092 1226.6973 3801.0833 4598318
-2474.2876 1184.0576 3668.9585 2098697
-2531.3208 1222.0861 3786.7947 3085334
-2490.9968 1213.3716 3759.792 10519424
-2444.9138 1201.6696 3723.5317 11112587
-2452.1985 1216.2231 3768.6279 7955034
-2434.2947 1218.4366 3775.4866 7427919
-2423.2095 1224.136 3793.1467 7427661
-2408.0532 1227.8658 3804.7043 7032649
-2370.7646 1220.2745 3781.1816 6637891
-2337.5364 1214.6482 3763.7476 6441283
-2309.4224 1211.5966 3754.2917 6507073
-2321.8445 1229.9589 3811.1897 6441536
-2252.0969 1204.7264 3733.0039 6572352
-2226.509 1202.8502 3727.1902 6177850
-2196.3267 1198.4296 3713.4922 6770243
-2198.9321 1211.9912 3755.5146 6835777
-2166.1929 1206.15 3737.4148 6704965
-2154.1697 1211.8418 3755.0518 7034703
-2055.0642 1168.1527 3619.6753 786432
-1978.0359 1136.2239 3520.7397 1048576
-1953.9825 1134.3688 3514.9912 1179648
-1925.7294 1130.0092 3501.4822 3151883
-1927.2137 1143.1945 3542.3386 7494961
-1918.6904 1150.6682 3565.4971 3350286
-1917.2229 1162.5869 3602.429 7295800
-1884.844 1155.8187 3581.4568 7822398
-1860.8162 1154.0757 3576.0557 6309161
-1845.4222 1157.7089 3587.3135 6177575
-1834.7675 1164.4346 3608.1538 7296056
-1820.9344 1169.2777 3623.1611 8611405
-1824.0302 1185.2367 3672.6123 8085318
-1782.9242 1172.5125 3633.1843 7031606
-1773.2468 1180.3982 3657.6194 7492926
-1745.9734 1176.6211 3645.9153 6966329
-1727.9962 1179.0925 3653.5737 6900795
-1696.6179 1172.3665 3632.7319 8216400
-1682.67 1177.667 3649.1562 7690313
-1660.7844 1177.4775 3648.5693 7887694
-1640.4817 1178.4202 3651.4902 7690571
-1612.6084 1173.8771 3637.4128 7361606
-1588.7638 1172.1831 3632.1641 6769471
-1569.887 1174.1584 3638.2849 6506043
-1558.5334 1181.8939 3662.2539 6769984
-1515.4003 1165.4077 3611.1697 6704706
-1495.276 1166.3977 3614.2371 6705221
-1460.8022 1156.0603 3582.2056 7363665
-1441.9668 1157.9768 3588.1438 4140323
-1426.5981 1162.7762 3603.0154 6640198
-1402.7998 1160.7463 3596.7256 6311231
-1396.959 1173.7418 3636.9937 6377536
-1354.9242 1156.2574 3582.8162 6179387
-1354.309 1174.1256 3638.1831 7100746
-1317.2454 1160.4615 3595.8433 7363661
-1300.1329 1164.2136 3607.4695 7100746
-1265.6208 1152.2501 3570.3992 6574402
-1243.2627 1151.1332 3566.938 6968390
-1209.9187 1139.6301 3531.2939 7560527
-1199.5631 1149.7561 3562.6707 7626321
-1165.7997 1137.4069 3524.4053 7560787
-1160.8641 1153.2462 3573.4854 5389108
-1144.5359 1158.1456 3588.6667 2758421
-1089.4452 1123.2648 3480.584 655360
-1059.1531 1113.0997 3449.0862 655364
-1033.2352 1107.2223 3430.8745 458760
-1007.6591 1101.4825 3413.0889 458760
-982.70258 1096.199 3396.7168 524294
-961.03235 1094.4369 3391.2568 720901
-922.5733 1073.0719 3325.0547 1575188
-905.77441 1076.5179 3335.7327 9469573
-903.26447 1097.479 3400.6833 12693431
-896.40051 1113.9855 3451.8311 13154494
-881.43756 1120.9629 3473.4514 13681348
-861.2962 1121.5309 3475.2114 14142407
-830.71899 1108.2048 3433.9187 11179662
-835.81873 1142.9988 3541.7322 9073770
-809.5473 1135.5791 3518.7415 7756883
-793.33099 1142.2448 3539.396 8546139
-774.01385 1144.6865 3546.9619 8084819
-746.77313 1135.2192 3517.6265 8151125
-717.6582 1122.2776 3477.5254 7756114
-698.27136 1124.2335 3483.5859 9861488
-678.85687 1126.2626 3489.8733 9137511
-654.99011 1120.8005 3472.9485 8874852
-637.96631 1127.0736 3492.3862 8545887
-617.70923 1127.8634 3494.8337 8743523
-592.16583 1118.7213 3466.5054 8677219
-570.58038 1116.6681 3460.1436 5190189
-550.10474 1116.7148 3460.2883 6835269
-530.04498 1117.6422 3463.1619 8020057
-508.30917 1114.9678 3454.8748 6176825
-490.37122 1120.7489 3472.7883 8216922
-466.07706 1111.8732 3445.2859 7888986
-449.33563 1121.0273 3473.6511 327680
-419.79294 1097.5901 3401.0276 589826
-394.68298 1083.9637 3358.8044 655364
-372.02478 1075.9816 3334.0708 720897
-350.46384 1070.4557 3316.948 851968
-327.83685 1060.8239 3287.1023 917504
-308.35056 1060.7799 3286.9666 1180933
-290.24219 1065.7899 3302.4907 6506828
-269.39615 1060.7448 3286.8574 9533815
-255.76732 1085.545 3363.7043 12494754
-237.96175 1095.3114 3393.9668 9336939
-219.79305 1105.0547 3424.1577 8678497
-195.52687 1083.006 3355.8367 7099210
-178.83696 1102.6801 3416.7996 7559250
-159.41127 1108.355 3434.384 7954522
-137.93179 1099.3217 3406.3931 8151902
-116.89874 1091.3599 3381.7224 7954781
-97.290512 1096.1581 3396.5903 7033936
-76.942139 1092.9448 3386.6335 7231831
-58.097214 1116.3541 3459.1702 5455936
-37.848652 1123.6078 3481.647 6442831
-17.302418 1128.8159 3497.7852 5982023
3.3905199 1119.3302 3468.3923 6508622
23.152006 1082.5748 3354.5007 5521982
43.578537 1096.507 3397.6714 4996405
62.887165 1082.3944 3353.9417 1444614
83.283806 1089.2888 3375.3052 2562323
101.67654 1072.3785 3322.9062 6310721
122.25552 1080.2721 3347.3655 6967879
141.01428 1072.1234 3322.1157 7033929
161.07468 1074.6548 3329.9597 6507075
183.41751 1090.2003 3378.1294 7362386
204.57364 1096.3275 3397.1152 6375234
225.93513 1102.3593 3415.8052 8217696
243.43652 1090.1134 3377.8604 6507079
260.23026 1076.7999 3336.6067 7362387
280.93457 1080.4054 3347.7786 6967376
300.99738 1081.231 3350.3364 7691098
325.87488 1098.1794 3402.854 6901582
341.33368 1083.2618 3356.6299 6836045
361.73743 1084.8164 3361.4465 6967374
382.84195 1088.2004 3371.9324 6046273
403.83698 1090.953 3380.4617 6572362
425.07138 1094.0616 3390.0942 6835533
441.32446 1084.6471 3360.9221 6111298
459.07214 1079.5602 3345.1594 4598829
481.2561 1084.8949 3361.6899 6507081
501.50284 1085.6122 3363.9124 6376008
527.78821 1098.8469 3404.9219 5126455
535.47546 1073.8118 3327.3472 6442317
548.31744 1060.5242 3286.1741 2561815
550.0379 1027.3746 3183.4561 1181446
563.97498 1018.4854 3155.9111 2299926
585.69171 1023.7649 3172.2705 1773839
598.60547 1013.8073 3141.4155 524288
617.56677 1014.3835 3143.2012 3154978
628.56848 1002.2347 3105.5566 4732462
645.80682 1000.4382 3099.9897 5522234
665.15192 1001.9145 3104.5642 13548975
681.02142 998.21692 3093.1067 13681072
706.29156 1008.1312 3123.8274 12891039
730.38843 1015.9072 3147.9224 13680296
758.61078 1028.8914 3188.1555 13350307
772.27582 1021.9805 3166.7412 13152417
806.73792 1042.2662 3229.5994 11704718
847.54242 1069.6163 3314.3469 5059379
869.96173 1073.0505 3324.9888 4467499
887.82489 1070.8376 3318.1313 4467246
909.89923 1073.6897 3326.969 3809574
930.72021 1074.973 3330.9458 4007208
955.87402 1081.1038 3349.9426 4731191
972.28973 1077.3032 3338.1663 4863544
995.63452 1081.1786 3350.1746 4863544
1016.4938 1082.2562 3353.5134 4929337
1033.9485 1079.7369 3345.7075 4402993
1072.028 1098.4458 3403.679 4798010
1071.6162 1077.752 3339.5566 5390147
1088.9657 1075.3475 3332.1064 5258820
1091.0162 1058.1903 3278.9421 4535096
1111.7196 1059.4083 3282.7166 4601402
1129.2454 1057.6084 3277.1392 4732733
1151.2283 1059.9733 3284.4668 3943217
1167.7596 1057.3234 3276.2559 4074546
1182.6115 1053.2644 3263.6787 2890785
1215.1117 1064.8013 3299.4272 3877680
1221.3447 1053.3193 3263.8489 3680816
1223.4855 1038.7211 3218.6143 3813175
1251.6404 1046.3175 3242.1528 3419188
1100.2308 905.84485 2806.8796 3617083
1304.0688 1057.6837 3277.3726 1578271
1235.3669 987.26294 3059.1646 2368302
1325.1738 1043.7219 3234.1101 1579042
1324.9066 1028.6393 3187.3743 2039327
1351.434 1034.491 3205.5066 2631725
1381.4194 1042.791 3231.2253 855569
1386.8713 1032.5977 3199.6399 2763312
1412.3931 1037.4207 3214.5847 65794
1422.3804 1030.8571 3194.2463 657936
1425.6075 1019.6306 3159.46 131593
1456.8345 1028.4618 3186.8245 65546
1469.8682 1024.3878 3174.2007 131081
1499.3741 1031.7516 3197.0183 131083
1536.8148 1044.3236 3235.9744 131082
1568.0922 1052.4491 3261.1523 65544
1589.1003 1053.5686 3264.6211 394506
1626.3915 1065.3268 3301.0554 9
1637.0244 1059.5511 3283.1592 263179
1665.3832 1065.2495 3300.8162 1447454
1629.5406 1030.2263 3192.292 394762
1661.8571 1038.6036 3218.2505 2829363
1709.9977 1056.5685 3273.917 658194
1723.502 1052.9692 3262.7642 987161
1716.2039 1036.8818 3212.915 1053211
1759.1624 1051.1777 3257.2126 1513762
1794.3102 1060.5469 3286.2441 7
1780.011 1040.8022 3225.063 263696
1799.578 1041.0688 3225.8894 592405
1818.7506 1041.1044 3225.999 132108
1826.9723 1034.9354 3206.884 66573
1842.1053 1032.7684 3200.1692 263950
1853.4139 1028.5232 3187.0149 66058
1888.0822 1037.1959 3213.8884 65799
1887.7241 1026.6464 3181.1992 1250844
1893.3851 1019.5464 3159.1992 987672
1936.639 1032.6302 3199.7412 1513759
1948.1107 1028.6783 3187.4954 3882311
2008.6104 1050.4424 3254.9341 5001306
1995.045 1033.427 3202.21 1776941
2037.6702 1045.5647 3239.8198 725021
2061.158 1047.7474 3246.5837 1844018
2048.2964 1031.5835 3196.4976 922660
2075.0261 1035.4724 3208.5476 4212306
2150.4829 1063.3855 3295.04 2304054
2180.8923 1068.7214 3311.5742 5330792
2216.9226 1076.6921 3336.2725 4278361
2212.4929 1065.0454 3300.1836 5133671
2228.8386 1063.5159 3295.4443 2370620
2260.6223 1069.3156 3313.415 3620431
2267.3833 1063.2809 3294.7161 5068135
2309.5249 1073.7992 3327.3086 6054777
2320.9353 1069.9724 3315.4504 5330799
2331.9319 1066.0204 3303.2046 3883865
2344.7349 1062.9531 3293.7004 1778233
2318.6523 1042.4537 3230.1804 8684693
2351.4375 1048.5399 3249.0393 3158597
2402.9158 1062.7953 3293.2112 3948883
2405.29 1055.2773 3269.916 3159368
2428.1753 1056.8065 3274.6543 3553613
2395.1479 1034.1697 3204.5112 3422542
2428.4119 1040.2869 3223.4658 1513515
2446.2854 1039.7671 3221.8552 2961476
2434.8701 1026.9027 3181.9934 3750992
2444.2415 1022.9355 3169.7004 2435132
2484.4275 1031.8267 3197.251 921635
2481.2854 1022.7244 3169.0466 1579296
2525.7239 1033.2231 3201.5781 132372
2537.3286 1030.234 3192.3157 592923
2524.0071 1017.2429 3152.0613 131604
2537.7446 1015.2682 3145.9421 12
2541.1165 1009.2056 3127.1565 1381921
2585.1335 1019.2561 3158.2993 1382186
2587.0491 1012.6818 3137.928 658463
2581.6548 1003.3604 3109.0444 1053478
2646.1448 1021.1392 3164.1343 987684
2666.2153 1021.647 3165.708 723991
2648.1992 1007.6556 3122.3538 3158594
2718.9097 1027.3851 3183.4883 921890
2710.1631 1017.0255 3151.3877 2961474
2694.2029 1004.1192 3111.3958 4474968
2783.3232 1030.2852 3192.4744 3093573
2766.2361 1017.0492 3151.4612 2895681
2745.7437 1002.7471 3107.144 2566713
2760.5994 1001.4586 3103.1516 65808
2761.0015 994.97852 3083.0723 987166
2786.4194 997.53943 3091.0076 1250600
2829.3547 1006.2971 3118.1443 4277077
2823.6592 997.75714 3091.6821 4606300
2851.3457 1001.0469 3101.876 1448232
2920.5173 1018.7659 3156.7808 1974576
2930.6851 1015.8081 3147.6155 2303540
2961.9678 1020.16 3161.1003 1052958
2938.0403 1005.5613 3115.8643 2041141
2927.1099 995.56531 3084.8904 2961731
2982.4653 1008.0986 3123.7266 2829627
0 0 0 0
0 0 0 0
0 0 0 0
0 0 0 0
0 0 0 0
0 0 0 0
0 0 0 0
-3211.9456 1181.3118 3594.4666 9075842
-3223.3596 1193.4216 3631.3145 8417907
-3220.3042 1200.3014 3652.2478 7496543
-3240.3918 1215.9585 3699.8887 6179142
-3263.1128 1232.8236 3751.2056 6310725
-3246.5405 1234.9731 3757.7461 6836299
-3251.3284 1245.3337 3789.2712 6704714
-3229.0864 1245.4136 3789.5139 6441285
-3211.2468 1247.204 3794.9619 6375749
-3198.4395 1250.9882 3806.4761 6244418
-3167.5823 1247.7161 3796.52 6178624
-3113.342 1235.1207 3758.1953 6507331
-3126.1846 1249.1487 3800.8792 6442563
-3101.533 1248.2896 3798.2651 5653048
-3062.3987 1241.5466 3777.7476 7166285
-3021.6589 1234.0483 3754.9324 6376770
-2962.2844 1218.7722 3708.4507 5718584
-2942.6707 1219.7489 3711.4221 6243902
-2913.7029 1216.8336 3702.5518 6244158
-2925.5261 1231.0388 3745.7749 6046780
-2888.6445 1224.8098 3726.8213 6506560
-2870.8716 1226.6494 3732.4187 6769731
-2841.9199 1223.7041 3723.457 6572095
-2821.8816 1224.5809 3726.1248 6572095
-2796.6575 1223.2032 3721.9331 6177593
-2770.8577 1221.5499 3716.9023 6309180
-2715.363 1206.6742 3671.6387 6703938
-2725.624 1221.015 3715.2749 6835268
-2708.5852 1223.2601 3722.1062 6571583
-2688.5327 1224.17 3724.8745 6374460
-2668.0361 1224.891 3727.0684 5782324
-2638.3755 1221.3816 3716.3901 6045754
-2611.4822 1219.1051 3709.4634 3151125
-2558.1382 1204.3374 3664.5283 4731184
-2521.2981 1197.1532 3642.6685 5126712
-2519.3533 1206.5568 3671.2812 5127741
-2493.3835 1204.5179 3665.0779 4075311
-2448.5376 1193.2444 3630.7751 918532
-2409.6155 1184.6836 3604.7266 918018
-2376.8389 1179.0181 3587.4873 3811621
-2419.4304 1210.9735 3684.7207 10979969
-2403.8567 1214.1331 3694.3345 6966853
-2401.2048 1223.9371 3724.166 6835523
-2353.6821 1210.8394 3684.3125 7098697
-2341.6323 1215.9161 3699.76 5980216
-2311.0876 1211.3944 3686.0015 6440253
-2286.4978 1209.9375 3681.5684 6177595
-2256.3357 1205.4756 3667.9917 6112057
-2221.6997 1198.5133 3646.8071 6638402
-2193.6892 1195.0237 3636.189 6178877
-2169.4983 1193.566 3631.7539 5652789
-2151.7092 1195.6366 3638.054 5060912
-2161.1387 1213.0266 3690.9678 5455161
-2103.9607 1193.0039 3630.0432 1313032
-2071.5015 1186.7284 3610.9482 655360
-1978.1306 1145.0626 3484.1689 917504
-1964.4747 1149.1488 3496.6021 917504
-1948.677 1152.0557 3505.447 1179648
-1924.2014 1149.8396 3498.7039 720896
-1909.6584 1153.5753 3510.0708 10126436
-1913.5966 1168.6801 3556.0312 4862229
-1872.3496 1156.2184 3518.113 7690813
-1873.0468 1169.6689 3559.0403 7691070
-1867.2109 1179.2999 3588.345 7362361
-1834.3032 1171.8575 3565.6995 6769456
-1822.9349 1178.1626 3584.8845 6177326
-1802.6277 1178.771 3586.7356 5979695
-1777.5613 1176.2448 3579.0488 6439992
-1761.0092 1179.3596 3588.5266 6110515
-1750.9452 1186.9487 3611.6187 5452073
-1731.7898 1188.4863 3616.2974 5781294
-1695.924 1178.451 3585.7622 6439224
-1670.7144 1175.6597 3577.2686 6242358
-1661.5752 1184.2504 3603.4082 5321512
-1633.8206 1179.6244 3589.3323 4531740
-1563.8668 1144.0067 3480.9556 5255719
-1566.7258 1161.4131 3533.9194 5716527
-1526.9426 1147.2522 3490.8313 6177592
-1503.3246 1145.0149 3484.0234 6046006
-1501.2311 1159.3376 3527.6042 7296586
-1476.4653 1156.3088 3518.3882 6902342
-1454.5924 1155.4912 3515.9006 6705221
-1433.2853 1155.106 3514.728 6311234
-1417.2648 1159.0327 3526.6763 6047805
-1411.5262 1171.6111 3564.9497 6377283
-1385.2444 1167.2612 3551.7141 6640454
-1367.4984 1170.0807 3560.293 5587766
-1341.391 1165.7222 3547.0308 6245694
-1326.7352 1171.3351 3564.1099 6508610
-1297.2236 1163.8018 3541.1875 6903366
-1275.0074 1162.6732 3537.7539 6771524
-1239.2238 1148.9282 3495.9309 6441790
-1216.5782 1147.104 3490.3801 6375997
-1197.1771 1148.3287 3494.1064 6113081
-1167.0593 1139.136 3466.1353 6376766
-1145.478 1138.0956 3462.9695 7231310
-1130.7671 1143.9678 3480.8374 6837071
-1096.9867 1130.4078 3439.5774 1510412
-1082.246 1136.3256 3457.5837 524290
-1051.7269 1125.5851 3424.9031 393223
-1028.5521 1122.437 3415.324 393225
-1001.8328 1115.2167 3393.3542 393225
-976.64191 1109.4371 3375.7683 393225
-952.52502 1104.6613 3361.2366 524293
-942.3338 1116.1761 3396.2737 1707027
-910.50861 1102.0095 3353.1675 3021087
-891.59106 1103.1818 3356.7344 2297359
-889.11157 1125.2104 3423.7632 6572106
-869.0058 1125.4402 3424.4619 4927789
-857.07983 1136.5277 3458.199 9994364
-838.31458 1138.8669 3465.3167 7362387
-821.37183 1143.8617 3480.5146 8875623
-798.01819 1139.9558 3468.6296 8546142
-774.9848 1136.3131 3457.5457 8019285
-749.65051 1129.0072 3435.3157 8347734
-737.76776 1142.1176 3475.2073 5979699
-703.62421 1120.53 3409.5215 7887697
-689.17316 1129.9539 3438.196 8479322
-664.91956 1123.3901 3418.2244 9137510
-647.66754 1128.615 3434.1221 7755858
-626.65051 1127.405 3430.4407 8808547
-602.73267 1120.7203 3410.1006 8282716
-580.60858 1117.0228 3398.8499 8677218
-558.88916 1113.8662 3389.2451 8940644
-532.20801 1100.217 3347.7136 8348507
-516.52301 1109.1232 3374.813 8217689
-500.86087 1118.7976 3404.2502 8742494
-479.55829 1116.1558 3396.2117 7954252
-461.06268 1120.1019 3408.2188 4269861
-444.40237 1129.0723 3435.5137 720896
-414.48843 1103.6149 3358.0525 524290
-392.38394 1097.4321 3339.2395 655364
-370.66882 1091.7396 3321.9187 589826
-349.43674 1086.9113 3307.2271 720896
-328.56693 1082.7031 3294.4226 851968
-306.98477 1075.4679 3272.4075 917504
-286.06024 1069.7164 3254.907 1048576
-262.86795 1054.0403 3207.208 1115139
-247.90126 1071.4739 3260.2546 6771279
-235.03514 1101.6998 3352.2253 10981509
-213.29344 1092.062 3322.8999 7691089
-197.11624 1111.8517 3383.1152 8414298
-175.28264 1100.6042 3348.8918 8545372
-154.75681 1095.7455 3334.1074 8874596
-135.34787 1098.5299 3342.5801 8808804
-114.33704 1087.0392 3307.6162 8809831
-94.403053 1083.1504 3295.7837 7888987
-75.41494 1090.9163 3319.4136 7757658
-56.154324 1098.8284 3343.4883 8941933
-36.218906 1094.9636 3331.7288 8283232
-16.619905 1104.193 3359.8115 8217695
3.2172713 1081.6324 3291.1648 8019804
22.90682 1090.7723 3318.9756 8480354
42.303963 1083.9766 3298.2974 8414562
62.190948 1090.0609 3316.8105 7558997
80.885925 1077.3467 3278.1243 7559767
100.37276 1078.0607 3280.2969 7691607
120.53469 1084.618 3300.2493 8349278
139.04413 1076.5505 3275.7017 8086108
160.65005 1091.4973 3321.1814 7428177
183.26027 1109.2614 3375.2334 7033421
201.99059 1102.3558 3354.2217 7757144
220.68356 1096.502 3336.4092 8283488
241.46225 1101.1216 3350.4658 8678247
256.63715 1081.426 3290.5369 8349024
276.40363 1082.4935 3293.7849 7757144
293.01773 1071.8887 3261.5168 8348767
316.31339 1085.5256 3303.011 7954007
340.90234 1101.7533 3352.3882 8151387
359.24817 1097.1283 3338.3152 8216927
377.59235 1092.981 3325.6958 8283236
398.23639 1095.5721 3333.5803 8349029
417.17841 1093.4573 3327.1453 7690841
440.14371 1101.6028 3351.9302 5914428
452.70474 1084.1292 3298.7617 6112065
471.74188 1082.9686 3295.2307 6308676
491.96078 1084.5057 3299.9075 4729903
513.67432 1089.0941 3313.8691 7098966
519.34357 1060.5797 3227.1062 6903384
531.17133 1046.2203 3183.4138 655360
546.73102 1039.9442 3164.3169 4865082
561.16284 1032.0099 3140.1748 1773581
582.86945 1037.5343 3156.9841 1576202
599.19751 1033.4387 3144.5222 2036241
616.09119 1030.5364 3135.6909 1180932
631.26422 1025.0099 3118.8752 3021849
647.03424 1020.7396 3105.8816 5258294
666.48999 1022.3592 3110.8096 12561056
682.47485 1018.7107 3099.708 14078141
702.76184 1021.5067 3108.2158 13615535
725.92523 1028.2344 3128.6865 13417640
753.46979 1040.6781 3166.55 13549226
773.27887 1042.0928 3170.8545 11506555
796.22571 1047.5685 3187.5159 11177849
820.84698 1054.9425 3209.9534 10387570
858.60522 1078.4839 3281.5845 6177342
880.06732 1080.9666 3289.1387 6046528
901.75427 1083.6118 3297.1875 6441544
908.71881 1068.8285 3252.2056 6441290
920.83026 1060.5872 3227.1289 5454653
941.18518 1061.9825 3231.3745 4073514
967.23804 1069.6235 3254.6243 7034200
990.37299 1073.8019 3267.3381 5455680
1019.4976 1084.1898 3298.9465 5784645
1034.7814 1079.7449 3285.4214 5389887
1053.3406 1078.8186 3282.603 5653060
1065.8113 1071.8031 3261.2566 4469043
1079.7747 1066.5118 3245.1565 4797753
1092.4532 1060.1591 3225.8262 3942700
1106.5055 1055.3347 3211.1467 3482149
1146.1288 1074.6498 3269.918 5521478
1150.9043 1061.1913 3228.967 3811632
1162.417 1054.2833 3207.9475 4140597
1169.7408 1043.8596 3176.2305 3745838
1185.0754 1040.8015 3166.9253 3482667
1159.6952 1002.6378 3050.8018 3943474
1212.7802 1032.443 3141.4924 4403769
0 0 0 0
0 0 0 0
0 0 0 0
1113.1858 892.85236 2716.7495 1709853
1118.0554 883.97748 2689.7451 7170158
1155.8865 901.04633 2741.6816 3157555
1355.7877 1042.2297 3171.2712 2236453
1378.015 1044.838 3179.2075 987157
1397.2632 1045.1476 3180.1494 1512731
1413.256 1043.0463 3173.7556 920592
1430.4475 1041.8732 3170.1865 1710624
1443.7454 1037.9313 3158.1921 657679
1463.3226 1038.547 3160.0654 460301
1481.1019 1037.8871 3158.0576 8
1502.9435 1040.0548 3164.6536 131337
1520.3977 1039.1704 3161.9626 196871
1538.2256 1038.5599 3160.105 131080
1565.7511 1044.433 3177.9751 131081
1586.7498 1045.8643 3182.3301 65545
1635.7844 1065.5242 3242.1509 65544
1638.731 1055.0552 3210.2961 65544
1662.7264 1058.2227 3219.9343 6
1664.5 1047.3359 3186.8081 4
1690.1971 1051.5776 3199.7148 526350
1689.1876 1039.2938 3162.3376 855316
1724.8972 1049.6233 3193.7683 855316
1735.9629 1044.8953 3179.3821 2105384
1754.8086 1044.9015 3179.4009 5
1767.1002 1041.0464 3167.6707 460562
1783.1932 1039.4882 3162.9292 8
1788.5807 1031.7866 3139.4954 9
1806.6023 1031.4569 3138.4919 65803
1821.514 1029.3765 3132.1619 855315
1836.7758 1027.5338 3126.5549 263178
1826.0696 1011.3459 3077.2988 65801
1845.0474 1011.7556 3078.5452 8
1874.4613 1017.8242 3097.0105 723732
1928.7332 1037.1418 3155.7898 790038
1925.3541 1025.3856 3120.0183 1250337
1948.196 1027.6846 3127.0137 658197
1951.731 1019.8517 3103.1797 790301
1981.8007 1025.9009 3121.5862 790813
2006.9133 1029.2959 3131.9165 7041412
2057.7878 1045.7203 3181.8923 4869472
2057.6406 1036.1539 3152.7839 395023
2120.9941 1058.4486 3220.6218 855837
2176.7561 1076.5911 3275.8252 921372
2181.4453 1069.3765 3253.8726 921631
2175.6003 1057.1693 3216.729 3752016
2196.0002 1057.8163 3218.6978 2501950
2255.9653 1077.3467 3278.1245 6843778
2240.5762 1060.8651 3227.9746 2895935
2304.085 1081.703 3291.3794 2896455
2313.6331 1077.0706 3277.2842 2698304
2302.8105 1063.111 3234.8081 987428
2294.6582 1050.6044 3196.7534 3422025
2306.7673 1047.5034 3187.3176 2369339
2324.1072 1046.8085 3185.2034 2631739
2331.9333 1041.8743 3170.1899 2237239
2349.3047 1041.2496 3168.2888 2697790
2353.0195 1034.6299 3148.1467 1382441
2382.4475 1039.3317 3162.4529 461079
2378.3704 1029.4576 3132.4084 264470
2420.3916 1039.5353 3163.0725 1250860
2399.6694 1022.7173 3111.8994 1250858
2410.8386 1019.6439 3102.5479 3751247
2426.5642 1018.5297 3099.1575 2764349
2475.21 1031.1465 3137.5474 198163
2471.2085 1021.8063 3109.1272 987424
2487.0103 1020.7321 3105.8586 526875
2468.3997 1005.6535 3059.978 1053215
2493.7629 1008.5798 3068.8821 3619916
2529.4055 1015.5909 3090.2153 1974834
2506.2004 999.04303 3039.8638 197912
2551.7556 1009.9454 3073.0374 1448234
2523.9585 991.86737 3018.0298 10
2554.7312 996.89844 3033.3384 2040371
2576.2751 998.28333 3037.552 2566713
2624.7122 1009.9974 3073.1956 461077
2619.605 1001.0881 3046.0867 1382181
2640.0125 1001.9845 3048.814 1513767
