# .PCD v0.7 - Point Cloud Data file format
VERSION 0.7
FIELDS x y z rgb
SIZE 4 4 4 4
TYPE F F F U
COUNT 1 1 1 1
WIDTH 1295
HEIGHT 1
VIEWPOINT 0 0 0 1 0 0 0
POINTS 1295
DATA ascii
-118.70013 935.06024 2037.2559 983040
-105.16159 922.17517 2009.1825 7032923
-94.986984 939.26459 2046.416 6045255
-80.873253 916.70447 1997.2633 6045510
-68.822571 913.80402 1990.944 5782337
-56.426594 904.1709 1969.9558 8019813
-44.99297 908.95563 1980.3805 917505
-32.993847 901.66168 1964.4889 1179648
-21.244305 896.95544 1954.2352 1179648
-9.6443329 894.85474 1949.6584 1114112
1.9090078 896.32117 1952.8534 1179648
13.588925 903.68774 1968.9032 1245184
25.32983 906.43158 1974.8815 1114112
36.72892 899.07452 1958.8522 918018
48.231789 897.18054 1954.7258 6112326
60.332897 904.99359 1971.7484 9928576
72.220184 907.5849 1977.3942 8745072
84.913216 918.16547 2000.4464 10258309
97.258881 922.85822 2010.6708 9073522
110.79615 936.60016 2040.6108 8282978
123.60342 942.07416 2052.5374 8151392
135.19301 938.11816 2043.9183 8677734
147.55502 939.73193 2047.4342 9269615
160.76172 946.07135 2061.2461 9335151
168.67743 922.57678 2010.0576 8019549
187.17094 956.22076 2083.3591 8348515
195.0144 934.65881 2036.3812 8480357
208.71069 942.02637 2052.4333 8283233
220.3381 939.75879 2047.4928 6111805
231.13966 934.38922 2035.7939 7624788
249.29933 957.82263 2086.8491 7558738
263.48694 964.50177 2101.4014 6374464
272.42514 952.22955 2074.6633 7558995
286.75293 959.04236 2089.5066 6835270
298.85703 958.16187 2087.5884 6308669
310.31461 955.36108 2081.4861 4071967
322.41547 954.67896 2080 5189675
333.25638 950.4538 2070.7944 7426638
343.72177 945.49567 2059.9919 7427152
356.54526 947.14166 2063.5781 7229772
371.10547 953.13916 2076.645 9466734
384.44977 955.72894 2082.2876 9269098
395.24844 952.02618 2074.2202 8479839
405.88916 948.17761 2065.8352 8019030
416.92557 945.45172 2059.8962 9466733
428.72552 944.56317 2057.9602 9005925
440.46271 943.58917 2055.8381 7624272
452.66516 943.63757 2055.9436 7558480
464.61633 943.17328 2054.9321 8479838
475.86819 941.34937 2050.9583 8874598
488.13495 941.57391 2051.4475 7559252
500.54904 942.06488 2052.5171 9203564
515.10132 946.46124 2062.0957 8348768
523.59271 939.77545 2047.5292 9007211
536.96716 941.95856 2052.2854 8415074
549.27295 942.21161 2052.8369 7231056
559.28845 938.61023 2044.9904 8284001
572.83856 940.96771 2050.1267 8020313
581.25427 934.96844 2037.0557 7165008
595.45691 938.33209 2044.3844 7296849
606.4574 936.61646 2040.6465 7822937
620.12531 939.0069 2045.8546 8020315
628.85626 933.97333 2034.8877 7493715
638.4187 930.34088 2026.9735 7099470
651.34003 931.64685 2029.819 7428179
665.77905 935.03711 2037.2053 8151902
670.41309 924.78125 2014.8606 8217695
686.14636 929.927 2026.0718 3612959
695.01123 925.74719 2016.9651 9532530
706.57318 925.24048 2015.8611 8743269
721.2887 928.8114 2023.6412 8612201
728.02258 922.15552 2009.1398 8151649
740.25372 922.56506 2010.032 5124913
749.71503 919.56415 2003.4938 8216671
763.84552 922.29456 2009.4427 8545636
774.26672 920.53125 2005.601 7558484
783.61871 917.56927 1999.1473 9532274
793.78967 915.64008 1994.9442 9006187
803.33441 913.05573 1989.3136 5584948
818.16785 916.47021 1996.7529 6374721
828.18103 914.46497 1992.3839 8940649
841.89484 916.5448 1996.9155 9335664
854.06665 916.91168 1997.7147 8875112
869.67694 920.90948 2006.4249 8677477
875.67682 914.76007 1993.0269 8874855
892.8504 920.2915 2005.0785 8611940
906.74457 922.34167 2009.5454 7756888
916.22095 919.90332 2004.2328 8546918
927.2088 919.02551 2002.3202 8546664
936.1615 916.17816 1996.1166 7494235
945.58905 913.86066 1991.0674 7625565
958.10187 914.54541 1992.5592 8283495
970.14368 914.76923 1993.0469 8283496
975.79224 909.03186 1980.5468 7099223
987.41345 908.92877 1980.3221 6441292
1007.8397 916.83813 1997.5546 4862259
1011.4335 909.42902 1981.4119 7231061
1022.4171 908.75818 1979.9504 8481386
1037.9188 912.07275 1987.1721 7889249
1035.4456 899.69476 1960.2035 7625819
1056.2384 907.58282 1977.3896 7099990
1071.0149 910.18518 1983.0594 6376527
1083.5717 910.86499 1984.5405 6442063
1095.2471 910.79718 1984.3928 5652547
1105.4332 909.50555 1981.5787 6573392
1114.3483 907.20618 1976.5691 6771286
1137.309 916.27063 1996.3181 9797509
1126.4857 898.21063 1956.97 6047051
1149.0132 906.84003 1975.7712 5718086
1167.5996 912.21643 1987.485 4204846
1176.0703 909.66113 1981.9177 5981512
1185.3049 907.74152 1977.7352 5652293
1198.3396 908.74103 1979.913 5849415
1211.36 909.71051 1982.0251 3153185
1210.082 900.02661 1960.9265 5322557
1236.3752 910.83856 1984.483 5914438
1230.4038 897.90149 1956.2964 4927798
1256.3666 908.29254 1978.9359 4007209
1261.5319 903.59503 1968.7012 2625299
1270.2251 901.48737 1964.1091 5059383
1274.3799 896.22614 1952.6462 5191226
1286.1941 896.39783 1953.0203 4862519
1267.6641 875.60693 1907.7223 5389120
0 0 0 0
1227.1404 832.76727 1814.3857 655363
1237.4069 832.44275 1813.6786 1643288
1243.366 829.25104 1806.7249 6904679
1245.202 823.38757 1793.9497 656650
1256.4828 823.81567 1794.8824 6444632
1260.0634 819.23041 1784.8923 9340036
1269.0096 818.18085 1782.6056 7761004
1278.4629 817.47278 1781.063 4076602
1290.6163 818.48877 1783.2765 8747133
1304.8192 820.7774 1788.2628 10325138
1313.6578 819.68207 1785.8765 9929608
1449.8711 897.44708 1955.3064 3548972
1462.1956 897.90204 1956.2976 5192257
1480.0355 901.71002 1964.5942 4271156
1490.6208 901.07324 1963.2069 5586758
1513.9763 908.10614 1978.5298 4402741
1515.6866 902.14758 1965.5475 3547432
1537.2776 908.02264 1978.3479 3679277
1551.2157 909.32281 1981.1805 3942703
1564.3673 910.14581 1982.9738 4139314
1562.7272 902.41498 1966.1302 4337207
1573.6237 901.98438 1965.1919 4600379
1581.5742 899.88379 1960.6154 4337205
1603.8528 905.90686 1973.7382 4074803
1614.1471 905.12262 1972.0294 3811891
1624.3633 904.30621 1970.2506 2167834
1645.9587 909.79114 1982.2009 1445907
1647.5306 904.20898 1970.0389 2694948
1655.9536 902.43896 1966.1824 524548
1667.3181 902.28546 1965.8481 1905945
1675.1663 900.24438 1961.401 1116943
1683.6675 898.58008 1957.7749 722954
1687.5432 894.48669 1948.8566 2893100
1698.1206 893.97705 1947.7461 1116175
1704.4971 891.27765 1941.8647 2761002
1700.7578 883.36035 1924.6151 3024430
1719.1584 886.97125 1932.4823 1051153
1722.8168 882.9787 1923.7834 854286
1734.48 883.1142 1924.0789 1971742
1741.3313 880.81403 1919.0673 1445652
1744.2968 876.59088 1909.8661 1839385
1753.371 875.47235 1907.4291 853515
1758.021 872.1731 1900.241 393221
1772.6456 873.83307 1903.8575 393733
1775.3262 869.62122 1894.6812 262147
1762.3335 857.83325 1868.998 393476
1772.121 857.21173 1867.6439 524807
1792.5065 861.69257 1877.4066 788234
0 0 0 0
0 0 0 0
0 0 0 0
0 0 0 0
0 0 0 0
0 0 0 0
0 0 0 0
0 0 0 0
0 0 0 0
0 0 0 0
0 0 0 0
0 0 0 0
-1803.142 970.28717 2087.0676 10323826
-1813.6658 982.68854 2113.7427 9599846
-1789.5393 976.35736 2100.1245 9468774
-1794.4874 985.9115 2120.6753 10060398
-1792.465 991.74359 2133.22 10257778
-1765.0944 983.53424 2115.5618 10586745
-1751.9031 983.16486 2114.7673 10455160
-1739.0535 982.98328 2114.3767 10257527
-1728.9558 984.36584 2117.3506 10258040
-1699.6562 974.75629 2096.6807 10981763
-1687.5956 974.96454 2097.1287 10785156
-1641.9806 955.64709 2055.5771 10720395
-1599.0194 937.59692 2016.7516 9602945
-1555.2773 918.81372 1976.3492 7102814
-1535.8733 914.23279 1966.496 7497315
-1533.7107 919.9234 1978.7362 6970714
-1527.9186 923.50781 1986.4463 8286315
-1514.507 922.50671 1984.293 11641757
-1505.2781 924.05768 1987.629 12036769
-1496.4849 925.90277 1991.5978 12760236
-1491.5948 930.21118 2000.8651 13352628
-1485.4556 933.80341 2008.5918 13352115
-1481.3838 938.76373 2019.2615 13153965
-1475.5856 942.70197 2027.7324 13351600
-1460.7574 940.88849 2023.8318 12561830
-1458.8485 947.43542 2037.9139 12627876
-1453.829 952.05444 2047.8495 13154989
-1448.5812 956.60046 2057.6279 8680292
-1456.3872 969.9173 2086.272 8087127
-1445.1394 970.664 2087.8782 9469292
-1434.5076 971.84088 2090.4097 9798258
-1420.1448 970.48871 2087.5012 10323576
-1413.6556 974.54059 2096.2168 8612958
-1409.006 979.94379 2107.8389 7297354
-1401.2744 983.28088 2115.0168 3350039
-1387.7932 982.60736 2113.5681 7034180
-1379.8167 985.85437 2120.5525 7956053
-1365.7889 984.79803 2118.2803 7101255
-1350.5631 982.85016 2114.0903 7627087
-1333.9761 979.86591 2107.6714 8021590
-1317.1803 976.67053 2100.7981 7430224
-1305.7533 977.43298 2102.4382 7101773
-1288.6144 973.89319 2094.8242 6773065
-1266.9099 966.8006 2079.5681 6905674
-1266.7687 976.18561 2099.7551 8945526
-1239.0105 964.26379 2074.1116 525570
-1223.2792 961.5567 2068.2886 2827554
-1200.2843 953.02771 2049.9429 1445647
-1179.8383 946.36877 2035.6196 5722962
-1145.0255 927.9295 1995.9573 2696224
-1135.627 929.91595 2000.2301 2301207
-1122.7656 929.07898 1998.4297 1905937
-1108.4802 927.03308 1994.0291 1708822
-1097.1194 927.41541 1994.8514 327684
-1086.6469 928.56506 1997.3243 393221
-1067.8745 922.56964 1984.4283 458760
-1050.3901 917.5658 1973.6652 524294
-1035.842 915.04321 1968.239 655364
-1019.0373 910.44696 1958.3525 655363
-1005.6763 908.85699 1954.9326 1048843
-997.05933 911.56726 1960.7625 1180941
-983.12036 909.41846 1956.1404 720898
-970.28442 908.25092 1953.6289 917504
-952.7113 902.56732 1941.4037 5914173
-945.02917 906.22961 1949.2812 7361622
-936.32239 908.98798 1955.2144 9270130
-921.14709 905.45697 1947.6193 10455429
-915.65302 911.47351 1960.5607 7824733
-915.74146 923.27301 1985.941 11245964
-907.62433 926.99884 1993.9554 11509390
-915.02246 946.87842 2036.7159 9996662
-919.60663 964.3385 2074.2722 10720385
-918.13879 975.83911 2099.0098 4206369
-911.5882 982.1792 2112.6472 5916474
-904.67218 988.29663 2125.8057 6112826
-883.63538 978.94293 2105.686 6901830
-867.93988 975.32343 2097.9006 6112314
-855.81012 975.66394 2098.6331 6112314
-833.88086 964.67798 2075.0024 6046777
-824.63635 968.25714 2082.7012 6441282
-809.34314 964.73499 2075.125 6178110
-797.95355 965.8291 2077.4785 6441282
-787.21082 967.75262 2081.616 6046523
-776.17017 969.36542 2085.085 5585718
-769.95386 977.15289 2101.8357 6178111
-756.70776 976.12817 2099.6316 5519925
-738.28912 968.28534 2082.7617 3414550
-723.82379 965.44885 2076.6606 4533287
-705.75769 957.62848 2059.8391 5585976
-701.22412 968.21796 2082.6169 5256754
-685.11938 962.92383 2071.2292 5717561
-670.47626 959.52814 2063.9253 6178366
-662.35828 965.51807 2076.8096 5849658
-649.29218 964.38544 2074.3733 6705480
-635.63104 962.30817 2069.905 6179393
-628.66681 970.48743 2087.4983 6245699
-617.09796 971.74396 2090.2012 5785152
-603.27185 969.42462 2085.2124 1313543
-591.3999 970.21423 2086.9109 2364945
-575.91364 964.98157 2075.6555 4140069
-561.06787 960.61719 2066.2678 4995376
-551.59106 965.45551 2076.6748 5850426
-539.39362 965.64386 2077.0801 5784633
-527.961 967.24219 2080.5181 5719097
-515.68475 967.33459 2080.7168 5850170
-509.35242 978.85425 2105.4954 6441794
-491.93506 969.11462 2084.5457 6638917
-476.87375 963.63446 2072.7578 6046780
-463.63037 961.63519 2068.4575 5849144
-449.34067 957.29834 2059.1289 5783095
-435.99634 954.78961 2053.7327 5848374
-425.03879 957.51361 2059.592 5848374
-412.6618 957.10663 2058.7166 5979707
-401.44598 959.45001 2063.7571 5584948
-393.11148 969.04321 2084.3918 5387826
-374.70483 953.62494 2051.2275 4927275
-366.1449 963.07294 2071.55 4796203
-350.54248 954.01001 2052.0559 3480600
-339.18118 956.25299 2056.8804 2756106
-326.87231 955.89185 2056.1038 4137759
-312.20078 948.32623 2039.8302 4927275
-301.97232 954.19086 2052.4448 4664103
-290.28415 955.74152 2055.7803 5519156
-278.25974 956.27252 2056.9224 4532260
-264.9671 952.29401 2048.3647 6111549
-254.37437 958.10291 2060.8596 5585205
-241.42381 955.16901 2054.5488 5584948
-228.82486 953.38849 2050.719 5387569
-216.06636 950.7063 2044.9496 4861482
-204.62639 953.85168 2051.7153 4861484
-192.59824 954.47949 2053.0657 4927021
-179.71706 950.67944 2044.8918 5979965
-167.54759 950.36713 2044.2201 3743262
-156.0827 954.31396 2052.7097 4730160
-144.46011 957.88232 2060.385 4205105
-130.49469 945.1405 2032.9778 851971
-117.29713 935.93463 2013.1761 786436
-105.05855 933.16272 2007.2137 917507
-93.035713 931.84412 2004.3774 1048579
-80.168594 920.44623 1979.8607 1377800
-67.828766 912.23309 1962.1946 3151643
-55.85413 906.54993 1949.9701 1442823
-44.153687 903.51355 1943.4391 1179648
-32.692707 904.96387 1946.5586 1114112
-21.151808 904.57703 1945.7266 1114112
-9.6246595 904.55603 1945.6814 1114112
1.9020952 904.60278 1945.782 1114112
13.425629 904.35229 1945.243 983040
24.933556 903.76746 1943.9852 983040
36.495243 904.88531 1946.3895 983040
47.846989 901.51062 1939.1307 1114112
57.890255 879.56219 1891.92 917504
0 0 0 0
82.398354 902.47235 1941.1995 9007220
95.013374 913.18799 1964.2485 8941427
107.0163 916.32434 1970.9946 9994113
118.33393 913.5528 1965.0333 7954529
131.03313 920.98846 1981.0271 8677737
143.42632 925.22754 1990.1454 7888477
153.90292 917.39807 1973.3043 6506824
164.7222 912.57251 1962.9247 8151392
178.56868 924.04852 1987.6093 8151392
190.72884 925.91797 1991.6305 9204081
202.09505 923.94 1987.3759 8612456
214.07231 924.81958 1989.2678 9598837
225.88635 924.93909 1989.5248 5650742
242.43677 943.47894 2029.4037 6111293
256.73245 951.9068 2047.5319 7361359
269.30212 953.46332 2050.8799 7164237
282.60199 957.35901 2059.2595 6769221
294.0383 954.88055 2053.9285 6703428
306.57254 956.02283 2056.3855 5979705
318.58206 955.50409 2055.2695 6506305
326.05582 941.92047 2026.0515 4269088
342.54276 954.41443 2052.9258 6637379
355.26804 955.93018 2056.186 7361613
364.56088 948.41565 2040.0225 6637634
373.504 940.50287 2023.0023 7492689
389.81381 951.05511 2045.7 7821398
399.59082 945.51306 2033.7791 7821399
409.35428 940.26422 2022.4889 8414046
423.40469 944.88086 2032.4192 7558224
436.9028 948.04376 2039.2225 7953238
447.39145 944.68182 2031.9912 8019031
457.23615 940.172 2022.2905 8347739
466.39545 934.51923 2010.1315 7558737
482.31769 942.36133 2026.9998 8216667
497.43784 948.2934 2039.7595 7756116
507.70624 944.91437 2032.4912 6769479
516.28333 938.61688 2018.9457 8216924
525.21741 933.23907 2007.3781 8348768
539.44293 937.29333 2016.0986 8546404
549.3623 933.85199 2008.6963 7493973
569.08887 946.87415 2036.7068 5651769
575.64594 937.89868 2017.4008 7164493
587.68689 938.04132 2017.7076 7493715
605.00238 946.42969 2035.7506 7757144
613.63269 941.16888 2024.4348 7624531
621.37799 934.7785 2010.6892 9006184
631.37384 931.9505 2004.6062 8085339
643.11407 931.75415 2004.184 8480095
653.17328 929.17358 1998.6332 7296335
665.00665 929.16382 1998.6122 6309441
677.93829 930.66205 2001.835 8940648
693.05334 935.05463 2011.2832 9730165
702.52893 931.8186 2004.3226 7559253
718.2984 936.8996 2015.2517 8216927
727.5387 933.43738 2007.8046 8677222
738.29987 932.00641 2004.7266 9006186
748.61353 930.06494 2000.5504 7690584
759.03369 928.31403 1996.7843 7032398
769.07373 926.1593 1992.1494 9137517
777.12988 921.71655 1982.5933 3742491
786.81592 919.31042 1977.4177 9730167
799.73529 920.69733 1980.401 4466471
812.34436 921.69202 1982.5405 6703175
813.78448 910.16663 1957.7498 3282967
826.39124 911.27893 1960.1422 9137515
846.60535 920.63281 1980.2622 9203564
850.47229 912.19745 1962.1179 9664371
868.20441 918.66052 1976.0198 8545890
874.17078 912.66766 1963.1294 9137770
894.84448 921.98566 1983.1722 9598578
908.74023 924.16913 1987.8688 9861750
910.14844 913.75958 1965.478 8875625
925.68311 917.61658 1973.7742 9073004
936.44006 916.70007 1971.8029 7888220
954.56018 922.92548 1985.1936 7690841
951.24164 908.52332 1954.2148 7756892
958.05524 904.0282 1944.5461 8677738
976.44867 910.43713 1958.3314 7559772
989.57935 911.84607 1961.3621 11638939
998.59479 909.47443 1956.2607 3679270
1008.8209 908.24701 1953.6206 9533816
1020.7917 908.60065 1954.3812 9270386
1030.2889 906.76898 1950.4415 8808808
1046.6079 910.91559 1959.3606 8349286
1055.9553 908.96997 1955.1755 7691358
1064.6066 906.47375 1949.8063 7757666
1080.4558 910.09406 1957.5935 7823973
1095.0623 912.60199 1962.988 8020838
1102.4387 909.09503 1955.4446 7428958
1111.1676 906.76477 1950.4323 5915466
1124.2729 908.01697 1953.1259 6705494
1138.1462 909.85767 1957.0851 6837080
1140.437 902.49536 1941.2488 6639701
1148.8663 900.08923 1936.0735 7034202
1169.1177 906.90137 1950.7261 7100507
1164.1199 894.18561 1923.3748 7626338
1190.1432 905.31329 1947.3103 6047049
1201.8962 905.47668 1947.6616 3414560
1204.1139 898.52136 1932.7009 6507088
1226.3568 906.49945 1949.8616 5914693
1244.9551 911.65985 1960.9614 4861747
1254.7847 910.36279 1958.1716 5453885
1263.1986 908.07208 1953.2443 2690835
1259.1038 896.91223 1929.2397 2297361
1256.6171 887.08856 1908.1091 4335920
1243.0011 869.65344 1870.6066 655361
1215.7168 843.04816 1813.3792 851972
1224.0513 841.3927 1809.8184 720902
1224.4672 834.37006 1794.7129 655368
1233.4136 833.23114 1792.2631 524293
1239.496 830.19348 1785.729 458755
1249.4602 829.78516 1784.8508 458753
1258.0798 828.49823 1782.0826 6575961
1259.9086 822.79773 1769.821 8813437
1269.8833 822.46747 1769.1106 9076865
1278.3707 821.18707 1766.3564 5457741
1295.6312 825.51733 1775.6708 9404807
1315.429 831.38141 1788.2842 9732741
1325.9858 831.35797 1788.2339 9469055
1400.7781 871.28955 1874.1259 4468533
1463.5571 903.17975 1942.7209 4665913
1478.8796 905.51465 1947.7434 4270642
1480.636 899.57117 1934.959 4007727
1494.6094 901.08459 1938.2145 4863036
1517.6173 907.98035 1953.0469 3349799
1528.9155 907.8186 1952.6992 3481641
1528.6282 900.83209 1937.6713 3350053
1547.3708 905.08063 1946.8098 3810348
1559.6031 905.48639 1947.6826 4073778
1561.7551 900.07678 1936.0465 4402999
1569.1458 897.7431 1931.0269 4272182
1596.0834 906.54553 1949.9608 4469305
1606.6807 906.0072 1948.8027 4271925
1619.3036 906.61066 1950.1007 4009010
1628.443 905.26898 1947.2148 2692893
1641.6616 906.19788 1949.2129 2824477
1653.7462 906.49225 1949.8462 1838611
1665.2939 906.4903 1949.8419 2102039
1668.879 902.18378 1940.5786 1248270
1671.5856 897.46454 1930.4277 394245
1680.0754 895.89343 1927.0482 131072
1685.2052 892.56384 1919.8864 327681
1686.1407 887.07214 1908.074 131072
1693.3199 884.91675 1903.4376 722184
1704.832 885.03906 1903.7008 721413
1717.1383 885.56946 1904.8416 1642261
1728.6312 885.67609 1905.071 1312781
1728.3295 879.77753 1892.3832 1970709
1738.8015 879.40369 1891.5793 3286315
1753.4032 881.11017 1895.2498 1772563
1752.1345 874.87036 1881.8281 2102045
1755.9059 871.21021 1873.9552 3418162
1760.9808 868.23877 1867.5636 3154732
1764.3555 864.47125 1859.4598 2562593
1775.4934 864.53076 1859.5878 1575955
0 0 0 0
0 0 0 0
0 0 0 0
0 0 0 0
0 0 0 0
0 0 0 0
0 0 0 0
0 0 0 0
0 0 0 0
0 0 0 0
0 0 0 0
0 0 0 0
-1780.0264 970.0542 2060.3123 9730666
-1779.8666 976.66425 2074.3513 10586743
-1790.5626 989.36438 2101.3254 10850172
-1785.7631 993.62048 2110.365 10849659
-1756.2184 984.07098 2090.0828 10849918
-1754.7177 990.21155 2103.1248 10718332
-1732.6215 984.7345 2091.4919 10784125
-1707.1396 977.24048 2075.5752 10389882
-1675.0946 965.85327 2051.3899 10719362
-1625.0927 943.87012 2004.6996 11049873
-1577.2412 922.82166 1959.9944 11511197
-1566.8641 923.54919 1961.5397 9340283
-1558.7804 925.64941 1966.0004 9997955
-1541.8065 922.46246 1959.2314 10590092
-1527.3964 920.77252 1955.6422 9340289
-1515.4677 920.56421 1955.1998 6181967
-1510.8002 924.79736 1964.1907 10654867
-1507.3324 929.83636 1974.8931 11247261
-1496.4805 930.36346 1976.0125 11971239
-1478.1873 926.23602 1967.2462 12366256
-1472.7968 930.1922 1975.6488 12299433
-1469.3389 935.4422 1986.7993 12036259
-1468.2618 942.30493 2001.3751 11773085
-1465.0972 947.92871 2013.3195 11904415
-1462.1694 953.79919 2025.7881 12102050
-1447.026 951.7326 2021.3988 12496294
-1448.8555 960.88782 2040.8438 12693672
-1443.1543 965.16095 2049.9194 12956584
-1441.4917 972.23041 2064.9343 7232591
-1438.5663 978.56177 2078.3816 8943463
-1425.3627 977.95062 2077.0835 8679777
-1418.1738 981.49146 2084.604 9798256
-1401.9895 978.81427 2078.918 10061430
-1392.8772 981.07074 2083.7104 9600366
-1386.4132 985.24976 2092.5862 5785656
-1362.9451 977.31097 2075.7251 7824981
-1369.2847 990.7962 2104.3665 7429967
-1353.6532 988.48529 2099.4583 8219225
-1340 987.58936 2097.5554 8218968
-1315.9176 978.91852 2079.1392 8285020
-1303.8292 979.09027 2079.5042 8679779
-1285.355 974.42444 2069.5942 7891036
-1265.2561 968.42511 2056.8523 7365208
-1252.1154 967.68665 2055.2837 7694432
-1238.6704 966.69635 2053.1804 4273969
-1221.4618 962.71991 2044.7347 4273975
-1205.5999 959.73584 2038.397 853767
-1181.813 950.31885 2018.396 2629150
-1164.1434 945.67871 2008.5408 4932149
-1145.6332 940.25262 1997.0164 5721152
-1127.2365 934.80756 1985.4514 3089434
-1121.7738 940.08698 1996.6643 1840142
-1108.0664 938.49573 1993.2848 1774609
-1098.4059 940.33466 1997.1906 2497823
-1080.3134 934.91656 1985.683 853770
-1065.9006 932.59882 1980.7601 327682
-1048.5018 927.58765 1970.1169 2168350
-1033.3024 924.43134 1963.4132 458755
-1017.9285 921.04547 1956.2218 524292
-1003.798 918.71948 1951.2816 655364
-990.30438 916.92889 1947.4786 2233116
-982.09534 920.04694 1954.1011 655618
-966.52008 916.25623 1946.0498 589824
-955.17798 916.4353 1946.4303 5258556
-937.67914 910.63959 1934.1206 9600385
-935.65399 919.91388 1953.8185 5324092
-922.63428 918.47565 1950.7638 6245192
-912.04352 919.44946 1952.832 7495769
-907.44977 926.57166 1967.959 10916748
-904.74255 935.83069 1987.6244 11312270
-905.68774 949.16168 2015.9382 10851717
-902.27039 958.21576 2035.1683 9732978
-896.76154 965.26379 2050.1379 6443073
-899.65015 981.66864 2084.9802 6903368
-877.39014 970.70667 2061.698 6574145
-866.45264 972.13879 2064.7397 6836807
-854.94879 972.96741 2066.4998 7033929
-837.25293 966.6712 2053.127 6770759
-824.53888 966.0257 2051.7561 6047037
-812.21057 965.81976 2051.3186 6836298
-801.13403 967.11853 2054.0771 6967882
-790.41394 968.89453 2057.8491 6770760
-776.63257 966.91461 2053.644 6506818
-759.6983 960.88397 2040.8353 5651509
-749.88147 963.80597 2047.0416 6441282
-740.11615 966.89148 2053.595 7033421
-725.31158 963.38678 2046.1512 3153436
-716.39563 967.71747 2055.3491 4599337
-701.92755 964.56818 2048.6604 5322804
-688.86188 963.26929 2045.9016 4928558
-676.49292 962.91541 2045.1501 5586232
-660.77557 957.69562 2034.0637 4862765
-650.81982 960.78766 2040.631 7626584
-638.85675 960.97742 2041.0339 4271139
-628.50629 963.64685 2046.7036 6245185
-617.71692 965.73523 2051.1392 5916477
-599.49487 956.05402 2030.577 6114113
-592.9519 964.98303 2049.5415 6179907
-580.46136 964.40375 2048.3113 5718844
-565.79376 960.10577 2039.1825 3087894
-553.08051 959.00854 2036.8523 1378564
-540.0141 957.23663 2033.0889 4205605
-530.98224 962.69873 2044.6898 5257778
-523.15308 970.64728 2061.5718 5520693
-511.01907 970.79767 2061.8914 5323058
-496.99139 967.27008 2054.3989 5717559
-483.46213 964.55957 2048.6421 4599078
-469.68225 961.19666 2041.4995 5256752
-457.29944 960.5907 2040.2125 4927788
-444.35699 958.74426 2036.2909 5255983
-431.69174 957.40955 2033.4562 6374720
-417.69846 952.96832 2024.0233 6111805
-405.36069 952.15332 2022.2922 6046012
-394.5856 955.07098 2028.4891 5716534
-381.46432 952.31482 2022.6353 6177085
-372.2493 959.44788 2037.7854 4993067
-359.44574 957.49994 2033.6479 5190447
-348.2276 959.78656 2038.5046 5979964
-336.7973 961.63177 2042.4238 4137502
-323.18692 957.15796 2032.9218 4532261
-311.26248 957.52417 2033.6996 4664103
-298.47842 955.16913 2028.6975 5190190
-285.72217 952.70898 2023.4725 4663847
-274.65106 955.89844 2030.2466 3677209
-263.16217 957.85938 2034.4115 6177341
-251.43275 959.09106 2037.0273 5519923
-238.8304 956.94922 2032.4784 6177852
-226.36591 955.1618 2028.682 5585718
-214.47678 955.73767 2029.9052 6112063
-201.62306 951.82831 2021.6021 5585975
-188.97707 948.46777 2014.4646 5190705
-176.43297 945.20013 2007.5243 5980223
-165.60081 951.29431 2020.4679 6309446
-154.42827 956.23041 2030.9517 5060152
-143.34425 962.59515 2044.4698 1115656
-128.42268 941.98615 2000.698 786436
-115.62964 934.38635 1984.5568 655365
-103.57843 931.73944 1978.9351 655364
-91.546669 928.6142 1972.2974 851971
-79.445953 923.77277 1962.0144 851969
-67.685806 921.9104 1958.059 1114628
-55.739693 916.22083 1945.9747 851968
-44.18729 915.72339 1944.9182 851968
-32.687229 916.34216 1946.2325 851968
-21.136604 915.4455 1944.3281 851968
-9.6127186 914.94611 1943.2675 917504
1.8963188 913.34784 1939.8729 917504
13.381203 912.84558 1938.8062 851968
24.835403 911.68109 1936.3328 851968
36.34626 912.67499 1938.4437 917504
47.742157 910.99805 1934.8821 917504
59.132504 909.88507 1932.5182 917504
70.101738 903.70453 1919.3911 983040
80.617203 894.21588 1899.238 1311751
92.150833 896.96185 1905.0702 1048576
102.98632 893.05463 1896.7716 1310720
113.63412 888.44873 1886.9891 917506
126.04556 897.22174 1905.6224 11440013
137.11324 895.77374 1902.5469 10057844
149.53923 902.74542 1917.3542 10057844
161.06721 903.69452 1919.3699 7952727
172.82072 905.70026 1923.63 8282206
185.8748 913.85217 1940.9438 8742243
198.39827 918.59729 1951.0221 5187880
209.32976 915.85492 1945.1976 5122602
221.33275 917.8421 1949.4183 5915201
237.25903 935.09485 1986.0616 5650229
252.32962 947.50409 2012.4177 5387057
264.07245 946.86169 2011.0532 5781814
276.96536 950.22034 2018.1869 5650486
291.37878 958.30176 2035.3511 5189934
303.64404 958.95673 2036.7421 6702660
312.95209 950.57922 2018.949 5255214
323.63226 946.83282 2010.9919 4991532
333.68875 941.59253 1999.8621 5320498
347.33087 946.48254 2010.248 5781306
358.534 944.62231 2006.2971 4794668
373.63745 952.82794 2023.7251 6307649
384.17044 949.23029 2016.084 6308673
394.61374 945.6347 2008.4473 6308931
405.01407 942.14972 2001.0455 7098447
421.00952 951.50812 2020.922 5913660
430.42966 945.89935 2009.0094 6571589
440.86859 942.77118 2002.3654 6768967
450.12048 937.33478 1990.819 6505538
458.78549 930.98523 1977.3331 7163468
472.88721 935.70941 1987.3669 5782072
479.88959 926.49786 1967.8024 7097675
499.0741 940.68481 1997.9343 6177343
503.54758 927.12866 1969.142 6637894
518.97595 933.89972 1983.5233 5124654
530.73456 933.91333 1983.5522 5256240
543.0882 934.95081 1985.7557 7230031
556.03156 936.93793 1989.9762 4796204
568.92358 938.758 1993.8417 7691609
580.27747 938.01733 1992.2688 7427666
594.42084 941.72583 2000.1451 8151646
601.55859 934.40729 1984.6013 6901579
613.28064 934.3537 1984.4874 7230545
626.63165 936.73718 1989.5497 4993583
630.45325 925.05042 1964.728 7230288
651.90271 939.18335 1994.7452 7625045
661.70197 936.32782 1988.6803 6966858
664.24176 923.47943 1961.3914 5256241
685.61993 936.81317 1989.7111 7558996
700.14838 940.495 1997.531 7558996
702.63031 928.1416 1971.2933 7624533
716.01385 930.35718 1975.9991 6834759
723.12146 924.47803 1963.5123 7558483
732.45886 921.59052 1957.3795 7426897
749.44537 928.26721 1971.5603 8347998
764.03314 931.81366 1979.0927 6702917
770.17267 925.10504 1964.844 7361104
779.73499 922.64642 1959.6221 7492433
792.8147 924.36072 1963.2632 7163981
800.53406 919.86627 1953.7173 6505794
810.40021 917.93158 1949.6082 3940124
817.8288 913.32898 1939.8326 7295566
834.31146 918.8252 1951.5061 8480096
842.35205 915.00092 1943.3837 7427410
856.21136 917.51526 1948.724 8216670
867.2182 916.94647 1947.516 7624789
881.80078 920.12396 1954.2646 6177342
896.96277 923.81567 1962.1056 8151132
904.77856 919.94366 1953.8817 8612453
905.9375 909.48657 1931.6718 9006955
914.55829 906.68793 1925.7278 8677221
936.01099 916.52313 1946.6168 7625305
945.82477 914.86096 1943.0865 8677995
951.94965 909.71356 1932.1539 8020063
962.315 908.69263 1929.9856 9138544
987.19781 921.24316 1956.6418 9993596
993.12689 916.02045 1945.5491 6243395
993.67169 906.00806 1924.2837 6573644
1002.5662 903.74957 1919.4869 8020320
1019.2773 908.50897 1929.5955 6835790
1031.0551 908.81427 1930.2438 9664891
1037.9147 904.82532 1921.7717 8348773
1053.1097 908.11084 1928.7499 8020065
1057.2817 901.92255 1915.6064 8415079
1079.4562 911.05957 1935.0127 8415082
1091.7233 911.73071 1936.4382 8152167
1099.8978 909.00568 1930.6504 6705235
1119.3494 915.56055 1944.5725 7099483
1117.0529 904.37463 1920.8143 7757925
1127.2454 903.4234 1918.7941 8152941
1137.8492 902.81757 1917.5073 5257021
1146.5968 900.76544 1913.1488 8480878
1156.019 899.27832 1909.9902 4533040
1165.9167 898.18628 1907.6709 5059384
1177.3262 898.26868 1907.8458 5190714
1191.1165 900.1488 1911.8391 7296347
1203.7988 901.16406 1913.9955 6638413
1213.9758 900.30225 1912.1652 8151652
1228.9116 902.95306 1917.7952 8085858
1235.9008 899.7699 1911.0344 5980485
1214.9739 876.50531 1861.6224 4401456
1197.1718 855.89343 1817.8445 655362
1203.6288 852.83789 1811.3549 851972
1216.2205 854.14478 1814.1305 786436
1219.6709 849.06512 1803.3417 655367
1226.5656 846.4505 1797.7885 524297
1233.2999 843.77124 1792.098 524296
1239.3966 840.7052 1785.5859 458759
1243.5775 836.40247 1776.4473 524295
1248.7845 832.85632 1768.9158 721159
1251.8693 827.96552 1758.5281 590085
1261.9346 827.73425 1758.037 1771793
1272.9973 828.15576 1758.932 2693665
1280.8582 826.50415 1755.4242 7100771
1303.7327 834.48907 1772.3835 1642517
1316.6678 836.03522 1775.6675 6509921
1338.7509 843.31952 1791.1385 9075329
1351.2157 844.47809 1793.5994 5258309
1459.1943 904.84668 1921.817 5323587
1462.9543 900.15479 1911.8519 4336948
1475.0115 900.60107 1912.7997 4599863
1489.1249 902.2865 1916.3794 3876141
1501.0984 902.65961 1917.1719 1772305
1505.9694 898.78815 1908.9492 1968400
1513.3326 896.45087 1903.985 3218724
1521.8982 894.85492 1900.5955 3678761
1541.739 899.86346 1911.2333 3942190
1552.1339 899.32605 1910.0918 4337461
1563.9994 899.64215 1910.7632 4469046
1572.4263 897.99011 1907.2543 6048078
1604.6121 909.83313 1932.4078 3482151
1614.6642 909.04724 1930.7388 4009007
1613.3013 901.89105 1915.5396 2693663
1640.5084 910.69495 1934.2382 5194056
1634.0127 900.79694 1913.2157 9272710
1651.6361 904.24011 1920.5287 3088426
1658.2479 901.64874 1915.0248 3944504
1675.6129 904.89972 1921.9298 4404798
1678.0594 900.10474 1911.7455 4601920
1684.4071 897.45245 1906.1122 2891557
1686.5355 892.60242 1895.8113 2825764
1686.3175 886.58295 1883.0265 2562847
1699.5258 887.65503 1885.3036 1970711
1716.0092 890.41278 1891.1606 1575954
1716.7944 885.04193 1879.7534 1246733
1740.1804 891.31622 1893.0795 2101270
1742.272 886.6731 1883.218 2035989
1747.9419 883.89856 1877.3251 2890528
1739.8507 874.24445 1856.8204 1576466
1743.3829 870.5155 1848.9005 524804
1758.65 872.65613 1853.447 2561307
1765.2543 870.49811 1848.8636 2495772
0 0 0 0
0 0 0 0
0 0 0 0
0 0 0 0
0 0 0 0
0 0 0 0
0 0 0 0
0 0 0 0
0 0 0 0
0 0 0 0
0 0 0 0
0 0 0 0
-1750.5046 965.96918 2026.142 9731181
-1759.4376 977.60211 2050.5422 11705227
-1753.0382 980.8183 2057.2883 9796973
-1729.0763 974.18475 2043.3743 9534058
-1744.625 989.87518 2076.2854 9994610
-1710.1879 977.22601 2049.7534 10060147
-1684.6483 969.51636 2033.5823 10060921
-1650.7812 956.86871 2007.0535 9733501
-1613.6425 942.12732 1976.1331 10918802
-1565.7542 920.84839 1931.5001 11708577
-1547.2072 916.63953 1922.6719 10195337
-1539.1208 918.61145 1926.8081 11313817
-1545.1621 929.10779 1948.8245 10984598
-1531.2745 927.68884 1945.8481 7694945
-1523.593 930.03662 1950.7726 7168088
-1510.4729 929.07501 1948.7556 9207671
-1500.3025 929.927 1950.5426 10458250
-1494.0494 933.23901 1957.4897 11050905
-1484.3441 934.42969 1959.9872 11775142
-1478.8468 938.30896 1968.124 11708579
-1469.0715 939.51404 1970.6519 11774116
-1465.432 944.69385 1981.5166 10984344
-1447.7023 940.80066 1973.3505 11905445
-1452.9149 951.87476 1996.5787 12562603
-1456.1636 961.8335 2017.4673 10325127
-1448.8854 964.94623 2023.9962 10390148
-1451.4536 974.72314 2044.5035 12167066
-1446.1982 979.36652 2054.2432 12627615
-1437.9716 982.05945 2059.8916 9995638
-1420.504 978.43347 2052.2861 8811364
-1423.3135 988.83203 2074.0974 8679008
-1401.8789 982.42181 2060.6519 9403501
-1392.6149 984.50293 2065.0168 9995639
-1379.4491 983.8382 2063.6226 10455673
-1365.3999 982.5257 2060.8696 8350553
-1354.0151 983.12421 2062.125 9468777
-1360.615 996.91083 2091.0427 9995120
-1324.3259 979.23767 2053.9729 9863536
-1308.1083 976.21564 2047.6342 9206120
-1287.3024 969.68085 2033.9274 8482142
-1286.9252 978.55627 2052.5437 9600879
-1252.5817 961.5271 2016.8247 9666930
-1237.6091 959.18317 2011.9082 8351585
-1232.7434 964.70276 2023.4856 8351846
-1232.7239 974.16052 2043.3235 7234137
-1210.3575 965.97119 2026.1462 1117453
-1188.6877 958.17926 2009.8025 458752
-1171.465 953.85059 2000.723 2431767
-1147.2334 943.66815 1979.3651 5458238
-1123.7648 933.90967 1958.8964 4997174
-1113.0933 934.69342 1960.5404 4405552
-1105.3214 937.95441 1967.3804 525315
-1090.0233 934.8302 1960.8273 2760735
-1088.5868 943.65472 1979.3369 2169627
-1071.5365 938.98914 1969.5508 984584
-1065.7688 944.21661 1980.5154 853513
-1039.3363 931.04865 1952.8953 1708310
-1028.2413 931.47839 1953.7968 1773592
-1016.5277 931.35101 1953.5297 327682
-1003.328 929.84357 1950.3678 655364
-988.12372 926.42169 1943.1902 721156
-969.8421 919.99982 1929.7203 3416357
-960.43066 921.93958 1933.7889 4731700
-952.06506 924.94214 1940.0869 3218967
-931.75793 916.27496 1921.9072 7099477
-920.06055 915.96478 1921.2567 5323320
-922.19568 929.59027 1949.8363 8744557
-911.19415 930.15137 1951.0134 8481896
-904.36603 935.04199 1961.2715 6705740
-896.92712 939.4201 1970.4547 10785156
-900.77332 955.88934 2004.9994 10456188
-897.7431 965.40405 2024.9567 8285534
-894.82245 975.2959 2045.7051 9404015
-883.64508 976.33655 2047.8878 7824469
-868.11859 972.53394 2039.9117 6311231
-857.92249 974.67981 2044.4127 7428942
-841.86505 970.13269 2034.875 7823702
-826.49872 966.26147 2026.7551 6112573
-815.7666 967.77393 2029.9274 7230798
-800.06769 963.35114 2020.6505 6967627
-793.36877 969.79529 2034.1674 1969672
-771.00336 956.99255 2007.3134 7231051
-766.59314 966.42432 2027.0967 6967878
-755.10114 967.08655 2028.4856 6441281
-738.35327 960.92975 2015.5717 6046524
-729.50183 965.01636 2024.1434 6046527
-714.5506 961.03564 2015.7938 7954780
-704.94208 964.22742 2022.4886 5388597
-692.1311 963.07349 2020.0682 4796717
-677.82928 959.76794 2013.1349 3810080
-664.29852 957.45551 2008.2843 8152158
-649.00665 952.47406 1997.8356 8349534
-639.19177 955.49475 2004.1716 2561553
-626.91083 954.87366 2002.8688 5981501
-616.22089 956.69867 2006.6968 6771532
-604.14294 956.39813 2006.0665 6245957
-586.28436 946.75079 1985.8309 6575434
-578.18561 952.79163 1998.5017 6049092
-572.6109 963.3313 2020.609 6838863
-555.39142 954.31219 2001.6913 6640711
-546.68634 959.84875 2013.3043 5718844
-536.91486 963.7182 2021.4205 131072
-522.47949 959.20203 2011.9476 5587001
-510.63174 959.33636 2012.2294 4797228
-497.703 957.39752 2008.1628 5322803
-485.23105 956.26416 2005.7855 4664873
-480.10165 969.90729 2034.4022 5059631
-460.85083 954.9903 2003.1134 5125424
-452.96475 963.45746 2020.8735 5454389
-438.24399 957.45233 2008.2777 3545880
-425.62979 955.84277 2004.9017 5585205
-413.77148 955.88702 2004.9945 5717048
-402.47214 957.26349 2007.8816 4466724
-387.70346 950.22083 1993.1094 5058605
-376.77451 952.44202 1997.7684 5058605
-365.30771 953.4035 1999.7853 4466468
-355.35889 958.52405 2010.5256 3611415
-342.09064 954.73553 2002.5792 6111549
-331.77692 959.21692 2011.979 5519155
-319.12863 957.03107 2007.3942 4927019
-306.12177 953.5592 2000.1118 5914941
-295.4184 957.27185 2007.899 3217171
-280.90863 948.4444 1989.3833 5059119
-270.00177 951.54108 1995.8787 3809307
-258.48871 952.68726 1998.2827 5453875
-246.3774 951.63251 1996.0706 5124653
-235.07832 953.76703 2000.5477 5255982
-222.50739 950.69403 1994.1019 4598053
-211.40904 953.92102 2000.8707 4992811
-198.43547 948.56738 1989.6414 4532005
-186.83203 949.50067 1991.5989 5979964
-174.83823 948.44214 1989.3787 5650743
-163.68472 952.11853 1997.09 4927794
-152.40102 955.55133 2004.2903 1312778
-139.64572 949.55792 1991.719 655365
-126.92101 942.68518 1977.3032 589831
-114.69715 938.51324 1968.5526 655367
-102.67603 935.24353 1961.6942 720901
-91.027283 934.96381 1961.1075 720898
-79.198235 932.47949 1955.8966 786433
-67.512856 931.12506 1953.0558 1508874
-55.79858 928.72937 1948.0306 851968
-44.221817 927.96997 1946.4379 851968
-32.602325 925.46191 1941.1771 917504
-21.088589 924.85834 1939.9111 917504
-9.5906973 924.33612 1938.8157 917504
1.8920562 922.76129 1935.5125 917504
13.347522 922.00513 1933.9263 917504
24.788658 921.41479 1932.6881 917504
36.25491 921.83606 1933.5719 917504
47.53759 918.50812 1926.5914 917504
58.813248 916.3595 1922.0845 917504
70.218117 916.59454 1922.5775 917504
79.887566 897.27222 1882.0486 983040
90.925407 896.16992 1879.7365 1048576
101.81166 893.97711 1875.137 1179648
113.81262 901.04083 1889.9532 1310720
124.09996 894.48761 1876.2079 5650486
136.67255 904.12952 1896.4319 9070944
148.06931 905.11902 1898.5073 9860201
159.37547 905.4541 1899.2102 10846588
172.24098 914.01978 1917.177 8215641
184.48706 918.44196 1926.4526 8347229
197.08887 924.01672 1938.1458 4269090
207.89223 921.01013 1931.8394 6110781
221.56572 930.36908 1951.4701 7887701
237.18481 946.56464 1985.4404 5519411
249.44029 948.44012 1989.3744 4729641
262.00031 951.2522 1995.2727 6111036
273.10703 948.77271 1990.072 5781815
286.60175 954.45105 2001.9824 6111037
298.08664 953.25079 1999.4648 6374209
311.72879 958.77734 2011.057 5979451
320.3378 948.98663 1990.5206 4465957
330.96808 945.66644 1983.5565 5453366
344.05853 949.36237 1991.3087 5913403
354.83435 946.63812 1985.5946 3939615
365.96249 944.99841 1982.1554 4729130
376.86792 942.90356 1977.7612 6373956
390.10919 946.60284 1985.5208 5716282
403.11121 949.52209 1991.6439 6111552
411.72781 942.23938 1976.3682 5650747
422.73843 940.68652 1973.1111 5716794
432.8746 937.32379 1966.0575 6308931
446.0535 940.55322 1972.8314 4927279
460.34232 945.89825 1984.0428 5650745
467.28537 936.25916 1963.8246 5256243
479.47552 937.34619 1966.1046 5190193
490.89993 936.9201 1965.2108 4269348
502.68069 937.17804 1965.752 6111296
518.92554 945.55872 1983.3306 4467241
524.7384 934.98035 1961.1423 5256757
534.51996 931.77863 1954.4265 5519929
546.35846 932.22235 1955.3573 4730413
557.94409 932.22516 1955.363 7230290
569.60291 932.3476 1955.6199 5980480
582.77606 934.89453 1960.9622 5256757
590.52734 928.8139 1948.208 6440516
602.82037 929.97321 1950.6395 5584951
616.49847 933.1853 1957.3771 5979709
627.39716 932.14935 1955.2041 6308931
638.87543 931.99652 1954.8834 6045759
649.39752 930.47894 1951.7004 6308674
660.68341 930.08984 1950.8843 5782587
676.59625 936.11578 1963.5238 5979964
682.6825 928.57202 1947.7006 6769481
697.38794 932.80786 1956.5853 6177087
705.8327 928.66803 1947.902 6440003
710.82941 920.19763 1930.1353 5387572
725.68195 924.55231 1939.2693 5387318
738.86108 926.67255 1943.7164 7097936
748.69073 924.59119 1939.3508 6637642
759.46796 923.72528 1937.5344 5848381
777.79742 931.93402 1954.7524 4796463
788.86322 931.32648 1953.4783 6242884
799.53735 930.28088 1951.285 7690330
807.80286 926.50244 1943.3596 7098959
812.8183 919.15491 1927.948 8217183
828.45288 923.85309 1937.8025 6440515
837.05505 920.68768 1931.1631 7690069
845.19824 917.10974 1923.6582 7163725
860.42285 921.20856 1932.2556 6374209
871.34888 920.65802 1931.1008 7361104
887.32117 925.3844 1941.0145 5913658
892.91327 919.30298 1928.2585 7031882
902.27075 917.20288 1923.8535 6242880
907.76843 911.28033 1911.4309 6769225
923.05176 915.2063 1919.6656 7558487
934.50098 915.28137 1919.8231 7098706
939.86359 909.4649 1907.623 8085856
959.20648 917.15411 1923.7512 8283492
973.59259 919.97882 1929.6763 7098962
984.1944 919.20361 1928.0502 7559770
987.64117 911.84033 1912.6055 6112319
990.90088 904.47321 1897.1528 7888730
1006.1333 908.07727 1904.7124 7164240
1017.1296 907.82056 1904.174 8282720
1030.733 909.87091 1908.4746 8743273
1040.8296 908.8147 1906.2592 8349029
1048.103 905.34247 1898.9761 8677993
1063.5494 908.92883 1906.4987 7757150
1076.1445 910.02875 1908.8057 6178375
1087.462 910.03644 1908.8218 7822945
1098.3491 909.68762 1908.0902 6440266
1111.9135 911.54059 1911.9768 5190456
1119.4515 908.46582 1905.5273 4729906
1131.4871 909.06573 1906.7858 6572622
1144.7769 910.65161 1910.1122 6703696
1148.2738 904.49261 1897.1936 6177608
1160.7422 905.45135 1899.2045 5388093
1172.0256 905.47626 1899.2566 3676705
1177.4017 900.98004 1889.8258 5716289
1194.6912 905.59906 1899.5144 5848644
1202.3478 902.89825 1893.8494 6703437
1214.131 903.31769 1894.729 7296091
1210.6154 892.45117 1871.9364 6638419
1202.2056 878.20685 1842.0585 721411
1200.6737 869.19794 1823.1621 917506
1203.2301 863.28278 1810.7549 720901
1210.4833 860.81213 1805.5728 655366
1215.6726 856.93005 1797.4299 655367
1224.0388 855.33533 1794.085 524294
1229.4984 851.75452 1786.5741 524295
1234.7341 848.08093 1778.8688 524295
1240.0793 844.54407 1771.4502 524295
1246.094 841.51874 1765.1045 524296
1252.6847 838.92957 1759.6736 458761
1244.9718 826.88293 1734.4055 458760
1253.661 825.83832 1732.2145 524294
1264.7275 826.36401 1733.317 983820
1275.312 826.56879 1733.7465 4733253
1274.4546 819.41364 1718.7384 1116945
1329.1071 847.7793 1778.236 9733254
1333.2136 843.71124 1769.7034 9732486
1399.6957 878.87256 1843.4548 5718600
1433.7461 893.28314 1873.6814 4797754
1440.0771 890.33466 1867.4969 5258050
1449.7577 889.48608 1865.717 4994109
1470.3152 895.2735 1877.8562 5587015
1478.2213 893.32831 1873.7761 3613482
1493.8136 896.02246 1879.4272 2429463
1505.1536 896.14502 1879.6842 3745581
1515.6401 895.76141 1878.8796 2627099
1532.7217 899.25262 1886.2025 5127235
1543.6013 899.08105 1885.8425 2824223
1549.2848 895.90704 1879.1851 6969440
1566.3821 899.33173 1886.3683 3943475
1573.5526 897.04858 1881.5795 5587274
1578.3727 893.46716 1874.0674 4665915
1608.4584 904.13794 1896.4496 4402486
1621.7229 905.27081 1898.8259 4336949
1636.713 907.34479 1903.176 5718347
1640.369 903.14996 1894.3773 4797759
1650.9318 902.78912 1893.6204 4139828
1658.6656 900.89661 1889.6509 5324359
1659.4772 895.29492 1877.901 5654093
1664.658 892.10913 1871.219 3943732
1676.5588 892.54321 1872.1294 5259849
1682.3436 889.73706 1866.2434 5259850
1704.2505 895.43829 1878.2018 2694180
1712.7247 894.05347 1875.2972 4206903
1721.4614 892.82281 1872.7158 1312522
1724.7175 888.78363 1864.2435 3088164
1730.7745 886.2298 1858.887 2825249
1732.7814 881.64777 1849.276 3154214
1738.6094 879.0553 1843.8381 3614508
1752.1542 880.37244 1846.601 3285287
1764.5332 881.09113 1848.1084 2758943
0 0 0 0
0 0 0 0
0 0 0 0
0 0 0 0
0 0 0 0
0 0 0 0
0 0 0 0
0 0 0 0
0 0 0 0
0 0 0 0
0 0 0 0
0 0 0 0
0 0 0 0
-1745.7111 982.02826 2034.5447 9336168
-1742.5529 987.06683 2044.9834 9270887
-1696.1813 967.52637 2004.4999 9336682
-1699.7074 976.37329 2022.8289 9336938
-1623.8738 939.43518 1946.3011 9008493
-1586.7959 924.54987 1915.4622 8943220
-1571.4419 922.19873 1910.5911 7826025
-1559.1578 921.62817 1909.4091 8944254
-1569.3966 934.45984 1935.9935 7299687
-1567.3148 940.09058 1947.6589 8945020
-1536.9172 928.69476 1924.0494 5917511
-1518.394 924.35748 1915.0636 6575697
-1508.9293 925.51086 1917.4531 8614762
-1517.4775 937.81396 1942.9424 9931135
-1498.7655 933.32928 1933.6511 10326406
-1492.4594 936.56067 1940.3458 10260361
-1489.6754 942.06952 1951.7589 11115160
-1478.3738 942.23578 1952.1035 11708580
-1478.6244 949.82562 1967.828 11972007
-1461.1411 946.05396 1960.0138 11050648
-1456.0092 950.28284 1968.7751 9601916
-1442.4371 949.02716 1966.1736 7364955
-1433.6617 950.93256 1970.1212 7101524
-1427.1899 954.40979 1977.3252 10523275
-1433.2058 966.3645 2002.0928 9732732
-1436.73 976.82477 2023.764 10127489
-1436.4031 984.82062 2040.3297 8153953
-1435.8054 992.76501 2056.7888 9271917
-1416.3947 987.72595 2046.349 9600624
-1395.4219 981.50128 2033.4529 9535344
-1392.0063 987.62506 2046.14 9732466
-1375.5475 984.52087 2039.7087 9995890
-1358.7103 981.08862 2032.5978 10127477
-1343.3308 978.65674 2027.5596 7758416
-1328.4846 976.57318 2023.2428 9403501
-1323.408 981.69855 2033.8616 9731696
-1298.7234 972.2395 2014.2644 8086615
-1281.8123 968.47827 2006.4719 8810594
-1278.2911 974.85809 2019.6896 9402988
-1269.5331 977.32703 2024.8046 9008743
-1262.1207 980.88885 2032.184 8351071
-1231.4299 966.25354 2001.8629 7693400
-1213.3477 961.32336 1991.6486 7233103
-1211.0975 968.96313 2007.4764 7496533
-1191.0907 962.40686 1993.8933 8023396
-1163.9092 949.86395 1967.9073 327937
-1155.308 952.38416 1973.1287 3023645
-1134.3591 944.67297 1957.1527 5918020
-1116.2618 939.20172 1945.8176 5062450
-1110.8862 944.43182 1956.6531 5457979
-1090.9536 937.26593 1941.8069 4208941
-1088.1494 944.81958 1957.4564 920584
-1075.4395 943.84216 1955.4315 5459013
-1065.4686 945.2738 1958.3975 919815
-1056.3665 947.51605 1963.043 1313803
-1042.2358 945.24768 1958.3435 459267
-1025.2859 940.34253 1948.181 2103068
-1012.2698 938.97467 1945.3472 327681
-999.25519 937.57666 1942.4507 458754
-986.20898 936.11615 1939.4249 655619
-970.67169 932.22876 1931.3711 787462
-960.5282 933.4906 1933.9854 6377279
-953.58984 937.93536 1943.1938 8087383
-940.15369 936.01959 1939.2249 9074034
-926.34033 933.67627 1934.37 7232342
-922.9751 941.93695 1951.4844 8284519
-907.96069 938.36798 1944.0902 11181978
-912.23163 954.89447 1978.3293 4666671
-904.64313 959.27551 1987.406 6770502
-899.48102 966.37903 2002.1228 12167320
-887.83057 966.60822 2002.5978 8351324
-881.80176 973.04706 2015.9375 7956312
-865.54346 968.21973 2005.9364 7824470
-864.90686 980.97607 2032.3647 7626321
-845.01129 971.9408 2013.6455 7626066
-833.5119 972.44232 2014.6847 7494737
-818.58313 968.89923 2007.3442 7034185
-810.76764 973.79553 2017.4882 7428689
-791.09528 964.38397 1997.9896 7888727
-784.95959 971.43933 2012.6067 7099209
-770.82935 968.66571 2006.8604 7428172
-759.39679 969.24841 2008.0676 7428430
-746.39856 967.81958 2005.1073 5191469
-732.96338 965.76868 2000.8583 6375743
-719.0791 963.04889 1995.2236 7625811
-706.35126 961.81293 1992.663 5783865
-696.3067 964.25085 1997.7137 6178882
-684.48883 964.27472 1997.7633 4599335
-672.11212 963.4986 1996.1552 5191471
-655.78363 956.92804 1982.5425 4072994
-640.32715 951.41333 1971.1173 5125165
-626.41199 948.02661 1964.1008 589824
-620.08472 956.21271 1981.0604 5192239
-607.44958 954.79987 1978.1334 9600885
-589.82666 945.33722 1958.5289 7167057
-579.88904 948.05957 1964.1691 10062206
-567.53552 946.86279 1961.6896 12629162
-554.78766 944.94427 1957.7148 5194291
-547.53601 952.50525 1973.3795 6640967
-538.14062 956.58545 1981.8328 4995632
-526.78748 957.28992 1983.2922 6705993
-517.42822 961.7326 1992.4965 524544
-506.83719 964.03973 1997.2764 4929070
-493.35043 960.81769 1990.601 5257522
-483.10181 963.89856 1996.9839 4599079
-470.53607 962.3949 1993.8687 5849147
-458.51437 961.95532 1992.9579 5520181
-446.19763 960.85699 1990.6825 5388340
-432.67123 957.02338 1982.7401 4994095
-423.10925 961.98956 1993.0289 6704456
-411.80704 963.17053 1995.4756 5585718
-399.49011 961.97791 1993.0048 2428684
-383.59369 951.83063 1971.9818 4729897
-373.52615 955.96368 1980.5447 4664360
-361.34012 954.76721 1978.0657 4927275
-348.48904 951.67426 1971.658 5058604
-340.62323 962.45306 1993.9891 5190446
-329.31491 963.92993 1997.0488 5058861
-316.74649 961.69086 1992.41 5256240
-303.55191 957.30377 1983.321 4335139
-291.37021 955.88641 1980.3844 4927275
-278.37616 951.57312 1971.4482 4532518
-266.16019 949.65839 1967.4813 4269347
-254.45038 949.45685 1967.0638 4598827
-244.13766 954.69922 1977.9249 4664620
-230.69005 947.5932 1963.2029 3809311
-217.96681 942.86627 1953.4097 5651771
-206.10681 941.55267 1950.6881 3086100
-195.30748 945.21613 1958.278 5454392
-183.94928 946.4668 1960.8691 5191222
-171.94083 944.31482 1956.4108 4862516
-160.77643 946.82263 1961.6063 4336944
-149.57982 949.51654 1967.1876 1443855
-136.76302 941.51202 1950.6039 589829
-126.5606 951.68909 1971.6886 458758
-115.15003 953.92712 1976.3253 589831
-103.0872 950.65686 1969.55 655366
-90.632858 942.48022 1952.61 655364
-78.967056 941.31097 1950.1874 720897
-67.258087 939.13806 1945.6855 720896
-55.761501 939.6452 1946.7363 720896
-44.073868 936.35791 1939.9259 720896
-32.454632 932.71741 1932.3834 720896
-21.004959 932.63763 1932.2181 720896
-9.5546083 932.30066 1931.52 720896
1.884043 930.27106 1927.3152 720896
13.282163 928.89117 1924.4564 720896
24.677605 928.68524 1924.0297 720896
36.10685 929.47961 1925.6755 786432
47.417645 927.57538 1921.7303 851968
