# .PCD v0.7 - Point Cloud Data file format
VERSION 0.7
FIELDS x y z rgb
SIZE 4 4 4 4
TYPE F F F U
COUNT 1 1 1 1
WIDTH 1275
HEIGHT 1
VIEWPOINT 0 0 0 1 0 0 0
POINTS 1275
DATA ascii
2801.0205 1365.1893 9816.417 5725793
2865.6321 1368.2725 9838.5859 6120297
2945.9016 1378.5598 9912.5576 5330782
2929.2717 1343.9862 9663.9561 5462367
2926.9875 1317.1943 9471.3076 6053987
2923.1497 1290.7241 9280.9736 5330263
2993.2305 1297.2677 9328.0254 5000782
3139.0557 1335.8065 9605.1396 5921885
3063.6963 1280.5251 9207.6377 5988190
3078.7712 1264.3154 9091.0811 5856604
3134.1948 1264.9473 9095.625 4803660
3133.4866 1243.2863 8939.8711 5395796
3152.4463 1230.0194 8844.4756 5724758
3303.4026 1267.8467 9116.4727 5395537
3369.5056 1272.4141 9149.3145 4869706
3550.7805 1319.6401 9488.8945 4934727
3647.8474 1334.5863 9596.3652 4079422
3711.8081 1337.1475 9614.7812 4079422
3789.0522 1344.3441 9666.5293 4211007
3767.6875 1316.8613 9468.9141 4474435
3779.3477 1301.5581 9358.876 5001038
3789.094 1286.0481 9247.3506 5396053
3936.1599 1316.9231 9469.3574 5395283
3924.7661 1294.6594 9309.2705 4868935
3886.0059 1264.1105 9089.6074 3487025
3875.9927 1243.6202 8942.2725 4145210
3909.0654 1237.3203 8896.9727 4145211
3958.6958 1236.3591 8890.0615 4934729
3963.1606 1221.5028 8783.2363 5592917
3998.3103 1216.3662 8746.3018 4671815
4056.1663 1218.1804 8759.3467 4606021
4199.8789 1245.4082 8955.1289 5000010
4298.8979 1258.869 9051.9189 4671814
4196.9448 1213.8713 8728.3623 4671557
4349.2598 1242.6152 8935.0459 5263951
4279.1333 1207.879 8685.2744 4934986
4305.4717 1200.8739 8634.9043 4803915
4137.3921 1140.4435 8200.3779 5066063
3914.1677 1066.3916 7667.9072 1315607
3595.4685 968.32587 6962.7637 12
3570.8921 950.79895 6836.7363 16
3584.3464 943.67786 6785.5317 18
3625.0056 943.79767 6786.3931 17
3660.4731 942.578 6777.623 18
3697.6973 941.83221 6772.2603 18
3737.9214 941.85828 6772.4482 15
3782.5173 942.97382 6780.4692 9
3691.188 910.53601 6547.2246 4343627
0 0 0 0
4886.8433 1180.6652 8489.5928 5724757
5110.043 1222.0137 8786.9102 6053980
5192.2563 1229.153 8838.2451 5000779
5333.5728 1250.0012 8988.1553 4737607
5415.3735 1256.6268 9035.7969 4540744
5444.7925 1251.0867 8995.96 5132624
5404.1416 1229.7095 8842.2471 5593432
5476.5786 1234.229 8874.7441 5659227
5504.4106 1228.7057 8835.0283 5659226
5515.5811 1219.6021 8769.5693 5527642
5568.7729 1219.8734 8771.5205 5198934
5568.1108 1208.4517 8689.3926 5264468
5622.3789 1209.0518 8693.707 5330260
5602.9995 1193.9474 8585.0986 4606794
5721.4517 1208.2209 8687.7334 4606537
5749.5547 1203.3309 8652.5713 4869710
5824.8062 1208.3077 8688.3574 4672331
5773.1851 1187.1094 8535.9297 4671815
5731.2393 1168.2512 8400.3301 4868937
5893.96 1191.0778 8564.4648 3948090
5918.2148 1185.7716 8526.3105 4540227
5986.4756 1189.2977 8551.665 4671813
6029.938 1187.8794 8541.4668 4671814
6077.8169 1187.3475 8537.6426 4211264
6182.8262 1197.8931 8613.4707 4868680
6058.0869 1164.1178 8370.6084 4408129
6099.3633 1162.5334 8359.2158 5197645
6163.6255 1165.3202 8379.2549 4539715
6088.1089 1141.8466 8210.4668 4408129
6205.187 1154.5804 8302.0303 5263439
6202.6748 1145.0374 8233.4102 4868681
6171.6313 1130.4171 8128.2837 4671301
6235.4785 1133.2694 8148.793 4473922
6264.2021 1129.7433 8123.438 4210750
6319.8984 1131.0984 8133.1816 4079164
6301.6128 1119.2921 8048.2891 4737094
6326.7002 1115.3096 8019.6519 5197645
6443.7715 1127.4807 8107.1689 4868936
6503.6416 1129.5374 8121.957 4408383
6543.2588 1128.0721 8111.4214 3816246
6411.3193 1097.267 7889.9165 3289902
6383.8306 1084.6548 7799.2285 4408383
6504.7373 1097.256 7889.8379 5197899
6481.5093 1085.5374 7805.5747 3224109
6616.5522 1100.3046 7911.7588 3882039
6645.4141 1097.3308 7890.376 4408129
6664.6206 1092.8153 7857.9072 3815992
6646.0034 1082.2037 7781.6035 4737094
6767.8486 1094.4525 7869.6797 3947578
6879.957 1104.9702 7945.3066 4342336
6919.9956 1103.8486 7937.2417 4079419
6851.2427 1085.5054 7805.3442 4342590
6875.2778 1082.0106 7780.2163 4211004
6823.8511 1066.7657 7670.5972 3618867
6867.6802 1066.5153 7668.7954 4211004
6941.9048 1070.957 7700.7354 4408383
6937.3438 1063.266 7645.4316 4605761
6882.9468 1048.0858 7536.2788 4539968
6948.5488 1051.2562 7559.0752 4802883
7069.6636 1062.7308 7641.584 4934725
7005.7573 1046.4235 7524.3257 4408382
6967.3477 1034.1067 7435.7612 5000775
7040.5703 1038.4092 7466.6987 4803397
7033.7573 1030.9272 7412.8999 5329742
7079.2764 1031.1608 7414.5786 2763815
0 0 0 0
0 0 0 0
0 0 0 0
-7932.7256 1253.9452 8648.1191 18
-7943.1987 1263.7627 8715.8281 131600
-7850.8623 1257.2446 8670.875 4739425
-8070.5039 1300.9304 8972.1631 2041907
-8004.8535 1298.9025 8958.1777 13
-8084.4443 1320.5723 9107.6279 14
-8040.1807 1322.166 9118.6201 988709
-8357.3027 1383.6115 9542.3926 4541792
-9072.2139 1512.1991 10429.227 4082271
-8801.2471 1477.0927 10187.106 4017762
-8555.2969 1445.7289 9970.7988 4148579
-8544.624 1453.964 10027.595 3951713
-8462.4082 1450.0554 10000.639 4017248
-8250.2627 1423.671 9818.6719 3951454
-8183.438 1422.1666 9808.2969 3951454
-7902.2632 1383.1233 9539.0254 3820123
-7753.9146 1366.9332 9427.3672 3819865
-7558.8862 1342.2196 9256.9238 3885143
-7514.793 1344.1417 9270.1807 3688278
-7346.8135 1323.7703 9129.6836 3424848
-7155.6455 1298.8872 8958.0723 5529711
-7041.3989 1287.6996 8880.9141 725011
-6959.4775 1282.2992 8843.6689 264979
-6832.9619 1268.5383 8748.7637 526868
-6870.8931 1285.3297 8864.5693 5
-6721.4102 1267.0504 8738.502 10196403
-6067.0229 1152.5693 7948.9575 13487311
-6284.9185 1203.3033 8298.8564 7818578
-6845.9805 1321.0577 9110.9766 8925253
-6659.0635 1295.2004 8932.6455 10059655
-6772.5889 1327.8335 9157.707 1645354
-7315.2515 1445.8097 9971.3564 2634306
-7540.707 1502.5026 10362.352 2961988
-7668.4717 1540.5012 10624.418 2961987
-7638.3145 1547.1415 10670.215 2830401
-7680.0615 1568.5787 10818.062 2698815
-7607.562 1566.8464 10806.113 2435129
-7598.1929 1578.1973 10884.397 2303541
-7457.4258 1562.2166 10774.184 2172467
-7330.5908 1548.9038 10682.369 2039854
-7204.9683 1535.6176 10590.737 1973549
-7073.6699 1520.8776 10489.079 2170931
-6723.1245 1458.3193 10057.632 2501438
-6557.3218 1435.0732 9897.3096 2698814
-6468.5938 1428.4275 9851.4766 2830912
-6287.5322 1401.0859 9662.9092 3161934
-6375.085 1433.6484 9887.4844 274
-6304.8979 1431.0129 9869.3076 19
-6302.999 1443.9725 9958.6865 20
-6672.4746 1543.0603 10642.067 1776941
-6200.5815 1447.6095 9983.7695 5727097
-6304.6606 1486.0835 10249.114 6188418
-6579.7388 1566.0044 10800.307 6518411
-6615.5737 1589.995 10965.763 7176342
-6657.9824 1616.0569 11145.505 7834786
-6718.1416 1646.9924 11358.859 8493230
-6768.085 1676.0243 11559.084 8690867
-6934.3062 1734.7386 11964.021 8690612
-6993.4248 1767.5953 12190.624 8559540
-7115.9819 1817.3391 12533.694 8625335
-7215.8335 1862.2722 12843.585 8690872
-7200.9058 1878.2246 12953.605 8756923
-7314.3311 1928.3602 13299.377 8757436
-7038.1187 1875.7443 12936.498 8758207
-6910.8003 1862.0889 12842.321 8824258
-6652.1279 1812.3427 12499.234 8889795
-6384.6948 1759.0627 12131.777 8889794
-6212.1978 1731.0233 11938.398 9086659
-6066.9429 1710.0168 11793.521 9020610
-6117.4292 1744.3347 12030.203 8954559
-6077.0659 1753.2515 12091.698 8889023
-6147.7427 1794.798 12378.234 9086144
-6127.9038 1810.6035 12487.24 9086144
-6105.022 1825.8853 12592.634 9151680
-6136.2534 1857.929 12813.632 9217472
-6122.791 1877.0741 12945.67 9283011
-6094.7373 1892.1747 13049.814 9611975
-5967.2393 1876.3929 12940.973 9480646
-5840.5688 1860.4644 12831.117 9283524
-5666.1689 1828.7111 12612.124 9283779
-5485.5479 1794.075 12373.247 9283778
-5327.436 1765.9617 12179.357 9414593
-5171.3403 1737.754 11984.817 9611970
-4967.0674 1692.3463 11671.653 9677506
-4818.0142 1664.7365 11481.235 9546177
-4645.3799 1628.071 11228.364 9611715
-4553.8794 1619.1888 11167.105 9480128
-4480.8613 1616.7133 11150.031 9348798
-4401.313 1611.772 11115.954 8558511
-4303.3574 1599.8375 11033.645 9281718
-4214.6787 1591.037 10972.95 8953011
-4173.8701 1600.3147 11036.936 9216183
-4164.501 1622.1337 11187.415 8031137
-4202.7744 1663.5162 11472.819 7175314
-4393.5332 1767.6069 12190.705 7241108
-4253.6572 1739.9329 11999.844 8491690
-3905.3757 1624.6222 11204.578 9281978
-3762.1921 1592.119 10980.412 9019320
-3659.7451 1576.0146 10869.346 8558253
0 0 0 0
-3665.9712 1636.2758 11284.949 6846348
-3673.5652 1670.1227 11518.382 7240593
-3667.5251 1698.9348 11717.092 7438484
-3569.7659 1685.551 11624.788 8425379
-3465.55 1668.5323 11507.415 7767706
-3383.8191 1661.8738 11461.491 7833501
-3286.8303 1647.2952 11360.947 9018289
-3208.3232 1641.5635 11321.417 8886446
-3107.5566 1623.9545 11199.973 8031396
-3007.3169 1605.8585 11075.17 7505052
-2926.2412 1597.4169 11016.95 9347513
-2846.7905 1589.4974 10962.332 9413051
-2761.811 1578.0491 10883.376 9347002
-2658.8123 1555.5115 10727.94 9018033
-2618.469 1569.4236 10823.889 6715528
-2546.5356 1564.625 10790.794 8031391
-2453.5244 1546.2952 10664.378 9018540
-2395.3386 1549.5248 10686.651 8557478
-2302.0593 1529.6117 10549.316 6714757
-2258.614 1542.6235 10639.056 6648963
-2203.4729 1548.1652 10677.274 6648963
-2125.4365 1537.4724 10603.529 7241359
-2079.6248 1550.1487 10690.954 7569809
-2032.9325 1562.9442 10779.201 6188150
-1978.0182 1570.0436 10828.164 5003099
-1922.8289 1577.3932 10878.853 5463391
-1872.4756 1589.3573 10961.366 4475471
-1825.2622 1604.9423 11068.851 5199453
-1697.1821 1547.9333 10675.676 5462373
-1552.0128 1470.3212 10140.406 4013897
-1445.3578 1424.4152 9823.8047 658715
-1458.3944 1497.5634 10328.288 198167
-1425.0234 1527.3774 10533.907 659487
-1355.2874 1519.1604 10477.236 1185829
-1285.5764 1510.184 10415.328 3885148
-1238.5242 1528.2617 10540.006 6253693
-1246.1033 1619.2496 11167.525 4609119
-1183.7102 1624.4178 11203.168 6318191
-1052.2721 1529.8202 10550.754 5002070
-1000.4513 1546.3344 10664.647 6053988
-962.81226 1588.472 10955.26 5199706
-913.35913 1615.8013 11143.742 6646640
-822.12292 1567.7124 10812.087 5462364
-759.17828 1570.0052 10827.899 5857121
-698.6344 1578.144 10884.031 4739152
-648.82092 1614.6416 11135.744 4936278
-538.21008 1490.9769 10282.863 6186600
-467.68903 1460.9788 10075.974 5725533
-425.61459 1524.066 10511.069 6186341
-368.4726 1545.5754 10659.414 6120290
-314.49469 1591.9991 10979.586 4080708
-241.32535 1540.1527 10622.015 6449257
-178.99435 1545.3 10657.515 7238517
-109.66006 1462.6475 10087.482 6844016
-49.91452 1463.0869 10090.513 6910067
9.9555483 1476.6718 10184.204 4343884
73.666458 1547.6257 10673.554 5725536
139.60327 1578.197 10884.396 5659486
200.74754 1552.3892 10706.406 7633790
264.39719 1553.6964 10715.423 7765887
329.26285 1560.26 10760.688 6318442
388.71411 1543.1987 10643.022 5726047
449.5433 1535.6069 10590.664 6910062
498.80963 1495.2141 10312.086 6580841
554.39233 1480.5039 10210.634 6449255
621.45813 1496.3369 10319.829 5856862
673.58405 1476.5834 10183.595 6383207
729.89758 1468.5028 10127.864 6382952
789.28632 1467.3668 10120.03 6317415
841.45422 1453.9147 10027.254 6449258
906.8316 1463.5555 10093.745 5593949
977.90881 1480.6338 10211.529 5857378
1007.8369 1437.0486 9910.9336 6252133
1037.5562 1397.981 9641.4951 5001810
1077.1052 1375.5437 9486.751 5463387
1051.3757 1276.1002 8800.916 5264728
970.18219 1121.9153 7737.5454 3224121
1013.6631 1119.3115 7719.5874 11
1032.8837 1091.3 7526.3999 14
1078.6222 1092.4653 7534.4365 12
1136.819 1105.6547 7625.3994 724499
1168.6566 1093.179 7539.3584 6975346
1243.501 1120.3701 7726.8882 6777706
1445.9805 1256.5442 8666.0439 5856606
1573.4425 1320.4258 9106.6182 5001297
1673.8064 1358.0852 9366.3447 6119005
1779.5251 1397.5333 9638.4072 6579811
1792.2366 1363.7568 9405.46 6251102
1881.144 1388.2484 9574.3721 4672069
1926.8339 1380.3461 9519.8721 4474177
1992.9049 1387.0786 9566.3047 4868935
2080.1499 1407.7687 9708.998 4474434
2096.2778 1380.511 9521.0088 5132619
2192.6421 1406.1368 9697.7441 5593168
2231.1704 1394.3114 9616.1865 4540480
2242.0166 1366.2061 9422.3516 5132360
2249.0483 1337.1982 9222.293 5264202
2269.9163 1317.598 9087.1152 5856083
2371.8838 1344.8901 9275.3418 5198154
2405.217 1332.9111 9192.7256 5329741
2477.9526 1342.8148 9261.0293 5066313
2533.2927 1343.0671 9262.7686 4539967
2550.2695 1323.401 9127.1367 4473917
2587.646 1314.9174 9068.6279 4539708
2661.7522 1325.0636 9138.6035 4539708
2619.5569 1278.0626 8814.4512 4606015
2646.1729 1265.8154 8729.9854 5592911
2732.5178 1282.0618 8842.0322 4671812
2871.6653 1322.0052 9117.5107 6251359
2912.073 1315.8571 9075.1084 4869709
2915.1724 1293.3789 8920.083 5067087
2939.2168 1280.8286 8833.5273 4804170
2933.1504 1255.8257 8661.0879 5396307
3031.812 1275.7504 8798.5039 5263951
3017.4805 1248.2592 8608.9043 4737607
3085.1272 1255.0306 8655.6055 4672071
3133.5154 1253.8744 8647.6309 5658707
3259.3586 1283.2505 8850.2295 5395534
3327.2131 1289.2269 8891.4473 5396046
3459.7822 1319.7015 9101.623 4343357
3542.7461 1330.6101 9176.8564 4737602
3545.5195 1311.5255 9045.2354 4803394
3506.6687 1277.8413 8812.9238 4474429
3534.9448 1269.2477 8753.6562 4277053
3592.8811 1271.3984 8768.4893 4737861
3665.0686 1278.4589 8817.1836 5329999
3708.9219 1275.5763 8797.3027 5659736
3652.1362 1238.6414 8542.5723 5527893
3713.4221 1242.2133 8567.207 5198413
3748.1399 1236.9209 8530.708 4935239
3706.3289 1206.8505 8323.3203 5329739
3786.0222 1216.6143 8390.6582 4606018
3928.3049 1245.9771 8593.165 4934986
3978.7615 1245.8357 8592.1904 5000779
3962.4353 1225.0509 8448.8438 5724246
4107.4717 1254.0504 8648.8447 5198159
4107.3638 1238.5673 8542.0615 4934986
4131.3076 1230.6254 8487.2891 5527123
4130.4121 1215.5645 8383.418 4870219
4106.8154 1194.26 8236.4863 4277310
4127.8574 1186.2842 8181.48 4736327
0 0 0 0
3553.085 997.67407 6880.6865 12
3552.4646 986.18579 6801.4556 16
3581.6484 983.13629 6780.4238 17
3619.155 982.41364 6775.4399 16
3650.7427 980.1178 6759.606 16
3685.0127 978.58417 6749.0293 16
3724.0688 978.3407 6747.3501 12
3772.9216 980.64874 6763.2681 6
3792.3406 975.33832 6726.6436 4342854
4592.9517 1168.9611 8062.0073 5066830
4631.8389 1166.7258 8046.5908 5724501
4895.2017 1220.5038 8417.4834 5066826
4974.2734 1227.7118 8467.1953 4540226
4982.8828 1217.5586 8397.1709 5395278
5030.856 1217.1296 8394.2119 5329485
5180.333 1241.0256 8559.0166 4671812
5197.0659 1232.9659 8503.4307 4803398
5267.5215 1237.6838 8535.9688 5263950
5351.3276 1245.4192 8589.3174 5724501
5294.7725 1220.65 8418.4912 5856087
5355.6938 1223.1732 8435.8936 5329744
5348.4165 1210.2181 8346.5459 5066571
5354.6782 1200.536 8279.7705 5066571
5462.5591 1213.6061 8369.9111 5198158
5521.5601 1215.679 8384.208 5395537
5544.6626 1209.8818 8344.2266 4803400
5573.3022 1205.3848 8313.2109 5330000
5569.189 1193.9446 8234.3115 5329741
5610.6011 1192.3784 8223.5098 4342847
5591.4878 1178.0867 8124.9443 4737348
5607.9268 1171.4659 8079.2822 4605504
5655.7905 1171.4659 8079.2822 4605760
5797.6914 1190.7803 8212.4873 4145209
5791.8037 1179.6714 8135.873 4605504
5871.603 1186.0546 8179.8965 4078904
5854.8481 1172.9894 8089.7891 3947318
5859.2202 1164.3344 8030.0977 3947317
5860.7041 1155.2496 7967.4424 4605505
5924.7852 1158.5504 7990.207 4605762
5872.6929 1139.2621 7857.1807 5723986
5896.23 1134.8333 7826.6367 5197386
5888.625 1124.5265 7755.5532 4078905
5986.3838 1134.3444 7823.2651 3881783
6059.1743 1139.3167 7857.5571 4342078
6066.1836 1131.9384 7806.6719 4671044
6025.0225 1115.7513 7695.0342 4671043
6225.0586 1144.1384 7890.812 3223852
6200.5352 1131.1368 7801.1436 4539712
6306.1655 1141.8954 7875.3428 4539969
6208.5649 1115.9659 7696.5142 4145211
6290.4658 1122.4441 7741.1919 5000520
6334.6567 1122.1483 7739.1519 4211004
6300.938 1108.1548 7642.6426 4868935
6467.5527 1129.3424 7788.7676 3092267
6393.9995 1108.5896 7645.6416 4276543
6323.6011 1088.6719 7508.2744 4473922
6486.4126 1108.9014 7647.7915 4473922
6461.7935 1097.03 7565.9175 4211005
6506.9033 1097.0784 7566.2515 4211005
6529.8501 1093.415 7540.9868 4211005
6594.5273 1096.7417 7563.9297 2894889
6504.2134 1074.4208 7409.9878 4539969
6535.2998 1072.3185 7395.4893 3816246
6538.6826 1065.7289 7350.0425 4145211
6572.0449 1064.0804 7338.6738 3882039
6501.417 1045.7274 7212.0977 3421488
6537.6353 1044.6875 7204.9258 4474175
6708.6929 1065.068 7345.4849 4013624
6732.6572 1061.9839 7324.2148 4276796
6845.4531 1072.8616 7399.2349 4408382
6889.0405 1072.823 7398.9692 4408382
6804.6387 1052.9796 7262.1138 4211003
6974.3037 1072.4535 7396.4204 3618866
6929.3525 1058.8885 7302.8672 3618354
6890.8394 1046.4696 7217.2163 3026730
0 0 0 0
0 0 0 0
0 0 0 0
-7901.0586 1299.9684 8613.5967 18
-7827.123 1296.175 8588.4619 1779002
-8019.3237 1336.6927 8856.9316 2501690
-8210.3262 1377.543 9127.6064 1252133
-8029.3813 1356.1152 8985.626 278
-8083.5225 1374.3712 9106.5898 277
-8244.0771 1411.0864 9349.8652 1581363
-8557.4111 1474.6257 9770.877 4542313
-8843.1338 1534.2399 10165.881 4740977
-9017.4551 1575.2114 10437.358 5136249
-9101.5498 1600.8789 10607.431 5530493
-9257.9932 1639.7172 10864.773 5925764
-8953.8008 1596.9431 10581.353 5859715
-8586.1465 1542.1675 10218.408 5794180
-8162.1899 1476.4297 9782.8301 5992073
-7977.9224 1453.4182 9630.3555 6190223
-7554.499 1386.1919 9184.9141 6453652
-7455.2861 1377.912 9130.0508 6651546
-7255.9199 1350.865 8950.8369 6848671
-7116.8403 1334.7263 8843.9023 6189709
-7164.9355 1353.712 8969.7021 66580
-6974.9546 1327.6643 8797.1104 18
-6760.084 1296.4514 8590.293 17
-6811.1636 1316.1558 8720.8535 131086
-6810.6431 1326.114 8786.8369 196617
-6831.3262 1340.3861 8881.4043 13092557
-7207.5049 1425.1735 9443.2061 11640502
-6991.9385 1393.3635 9232.4336 11816270
-6725.063 1350.7467 8950.0537 10037561
-6715.2881 1359.502 9008.0664 9925506
-6832.3833 1394.2881 9238.5596 9874622
-7247.4282 1490.9297 9878.9072 9612998
-7325.1489 1519.186 10066.134 9679304
-7290.7725 1524.4674 10101.128 9613514
-7282.1128 1535.2579 10172.626 9416392
-7419.6167 1577.3004 10451.2 9350600
-7344.6011 1574.4922 10432.592 9350344
-7331.6602 1585.0562 10502.59 9284808
-7219.9443 1574.2639 10431.08 9284551
-7077.6392 1556.5579 10313.76 9153220
-7051.1909 1564.2455 10364.697 9152450
-7001.8169 1566.9373 10382.533 9086913
-6963.6348 1572.2037 10417.429 9086656
-6672.8931 1520.0332 10071.747 9087168
-6470.0869 1487.1332 9853.751 9087421
-6504.2983 1508.6079 9996.043 10006977
-6811.9058 1594.4712 10564.974 9
-6276.7695 1482.8358 9825.2773 18
-6271.3701 1495.4282 9908.7139 21
-6649.0435 1600.4662 10604.696 5595769
-6611.7588 1606.6726 10645.819 9741754
-6653.2725 1632.3312 10815.833 9414076
-6585.4854 1631.4114 10809.739 9150647
-6596.6792 1650.2319 10934.444 9150648
-6600.0015 1667.4368 11048.443 9084597
-6561.542 1674.325 11094.085 9545148
-6590.3887 1698.7008 11255.6 9347512
-6592.0171 1716.4879 11373.456 9478841
-6609.5806 1738.8345 11521.524 9610171
-6593.4067 1752.6792 11613.26 9478841
-6561.4492 1762.5759 11678.836 7965858
-6668.4468 1810.4082 11995.772 9018546
-6600.7354 1811.3285 12001.871 9479095
-6557.2358 1818.9856 12052.606 9478838
-6549.396 1836.8121 12170.725 9412789
-6522.2266 1849.5538 12255.152 8623270
-6466.0562 1854.266 12286.375 8754084
-6382.811 1851.2329 12266.277 7241101
-6205.8311 1820.6305 12063.506 7438221
-6096.603 1809.4233 11989.247 7372170
-6032.5835 1811.5275 12003.189 7437702
-5892.5215 1790.5748 11864.356 6319217
-6049.6348 1860.5098 12327.746 5990251
-5847.4146 1820.2937 12061.274 6977147
-5861.4375 1847.2317 12239.766 7305597
-5801.6475 1851.2909 12266.662 6713203
-5288.9634 1709.1028 11324.522 5923687
-5664.2349 1853.8859 12283.856 4870742
-5406.0581 1792.4139 11876.543 5660258
-5098.5688 1712.7551 11348.723 6054758
-5206.8789 1772.5129 11744.679 7041909
-5157.5361 1779.4946 11790.939 6120805
-5111.1006 1787.6851 11845.209 6712942
-5072.5215 1798.8894 11919.449 5660253
-4953.8521 1781.6067 11804.934 5199447
-4711.0679 1718.5531 11387.14 5067862
-4442.854 1644.2559 10894.847 6515051
-4312.2715 1619.4553 10730.519 5660000
-4041.2258 1540.3729 10206.518 5527900
-4230.8765 1637.1566 10847.807 5067349
-4099.0664 1610.6165 10671.951 5856863
-4119.9458 1644.1799 10894.344 5988191
-4029.4524 1633.6578 10824.624 6317413
-3907.6433 1609.8938 10667.164 6119520
-3904.335 1634.9717 10833.33 5724763
-3992.1965 1699.7042 11262.247 5593434
-3946.854 1708.9604 11323.579 5856861
-3782.3086 1666.0304 11039.125 6185571
-3677.1265 1648.198 10920.968 6120546
-3595.9458 1640.6779 10871.139 5659226
-3509.4783 1630.4272 10803.218 5790810
-3464.5276 1639.4417 10862.948 4935502
-3411.0483 1644.6855 10897.694 5527638
-3298.3215 1621.0134 10740.842 3224883
-3222.0015 1614.6545 10698.708 4343364
-3148.8044 1609.6371 10665.462 6054238
-3114.655 1624.7834 10765.822 5857117
-3065.7227 1632.6903 10818.213 6054240
-2945.9619 1602.4088 10617.567 5396310
-2829.3132 1572.5356 10419.629 5857118
-2814.9536 1599.4503 10597.966 3685950
-2714.8589 1577.7673 10454.294 4014914
-2628.7402 1563.3839 10358.988 5001809
-2621.561 1596.3823 10577.637 4870223
-2602.5005 1623.585 10757.881 2172454
-2565.7354 1640.8307 10872.151 2303785
-2533.1628 1661.7151 11010.531 4343369
-2423.9895 1632.1262 10814.476 3290937
-2283.1218 1579.0111 10462.534 4212296
-2261.3789 1607.6174 10652.08 6515050
-2199.6228 1608.604 10658.617 4475470
-2095.2134 1577.5343 10452.749 1645858
-1956.6968 1518.11 10059.004 724757
-1831.537 1465.641 9711.3438 922390
-1802.6117 1489.2754 9867.9453 1777697
-1803.1373 1539.6411 10201.669 4344648
-1775.1412 1568.3021 10391.577 4870479
-1705.1614 1560.5978 10340.528 3818304
-1599.5363 1518.4807 10061.46 2962742
-1553.5981 1531.9585 10150.764 856338
-1480.9838 1519.158 10065.947 3620926
-1475.5408 1577.077 10449.719 3949378
-1444.636 1611.663 10678.886 3555389
-1312.7798 1531.6359 10148.626 5002836
-1237.9122 1513.6072 10029.168 4608079
-1178.3131 1513.3708 10027.602 5726303
-1142.2924 1545 10237.177 5858146
-1076.2572 1537.3041 10186.184 6054757
-1040.5741 1574.6237 10433.463 1513754
-984.10553 1583.217 10490.403 2040100
-920.9281 1581.4485 10478.685 5791327
-858.16266 1580.183 10470.299 5462104
-808.80109 1605.3242 10636.886 6054497
-732.28943 1576.2732 10444.393 6251876
-667.40637 1569.2003 10397.528 6120291
-584.01135 1512.7388 10023.414 5791326
-518.90686 1496.2355 9914.0625 6448999
-464.5412 1510.4362 10008.156 5791069
-407.07376 1517.2312 10053.181 6317669
-353.12665 1541.725 10215.477 5989219
-284.16199 1497.2245 9920.6162 6449769
-228.93814 1520.7941 10076.788 5791839
-165.79451 1489.8242 9871.582 5331288
-107.99845 1499.34 9934.6328 6186596
-48.670803 1484.9204 9839.0889 6713453
9.7243099 1501.3052 9947.6553 6450026
70.956108 1551.5912 10280.851 5857890
131.28888 1544.8452 10236.151 4476492
189.80196 1527.7153 10122.648 5923682
251.50565 1538.3263 10192.957 6187110
304.06363 1499.7197 9937.1494 6713455
362.99066 1499.9557 9938.7129 4870994
421.29529 1497.9127 9925.1768 5462875
475.9415 1484.9561 9839.3252 6054241
538.30072 1496.2656 9914.2627 5462105
591.25165 1481.7716 9818.2256 3685181
657.66235 1500.5848 9942.8818 6251364
700.8446 1467.6616 9724.7324 5067347
754.64746 1460.2916 9675.8994 6844015
813.59167 1463.2087 9695.2275 5659998
872.13916 1465.0746 9707.5908 6515306
918.59943 1447.661 9592.208 6120291
953.58765 1415.2501 9377.4541 5264466
994.14368 1394.2164 9238.084 5330516
1060.7075 1409.9485 9342.3252 5198676
961.52124 1214.7227 8048.7573 5330010
1006.11 1210.9985 8024.082 10
993.25671 1141.5902 7564.1821 13
1030.077 1132.8016 7505.9487 11
1094.0144 1153.3278 7641.9551 10
1136.496 1150.5022 7623.2329 7501177
1156.1479 1125.665 7458.6611 7107188
1236.6115 1159.6851 7684.0786 1184790
1364.1904 1233.9052 8175.8608 6645862
1512.7102 1321.3269 8755.1182 4475206
1611.2186 1360.7166 9016.1143 5461589
1652.124 1350.4919 8948.3662 4342850
1697.9619 1344.8099 8910.7168 5987674
1789.3085 1374.4272 9106.9609 4869193
1841.4596 1373.0847 9098.0654 4803399
1862.0504 1348.9546 8938.1797 5461328
1901.9286 1339.7455 8877.1592 5395534
2012.157 1379.254 9138.9434 3158828
2092.6665 1396.8547 9255.5664 3026983
2081.2908 1353.7896 8970.2158 4606012
2048.4905 1299.2798 8609.0342 5395786
2111.0662 1306.4424 8656.4932 4803649
2159.1504 1304.5098 8643.6875 5658446
2234.0854 1318.5135 8736.4766 4737601
2252.0522 1299.0228 8607.3311 3684655
2304.4375 1299.8088 8612.5391 3552813
2375.573 1310.9077 8686.0801 4737089
2436.9512 1316.2656 8721.582 4737089
2470.0818 1306.4607 8656.6143 4671294
2500.8159 1295.8129 8586.0615 4539708
2521.0618 1280.2632 8483.0293 4473915
2587.7156 1288.4279 8537.1289 5066309
2593.9958 1266.7958 8393.7949 4737604
2708.6121 1297.889 8599.8184 4671812
2747.3059 1292.1259 8561.6318 4606019
2834.8132 1309.1139 8674.1943 4540226
2875.5105 1304.2648 8642.0645 5066569
2849.4355 1269.8289 8413.8916 5724500
2916.9683 1277.5754 8465.2207 5461328
2997.9792 1290.8635 8553.2676 5527377
2943.301 1246.2562 8257.6992 4935240
2987.0044 1244.0834 8243.3018 5001032
3102.5317 1271.4137 8424.3926 5264204
3179.7769 1282.4391 8497.4473 4671554
3259.9592 1294.2869 8575.9502 5724498
3282.7737 1283.3442 8503.4443 5395276
3336.8772 1284.7791 8512.9521 4145209
3348.1589 1269.9297 8414.5596 4605760
3377.708 1262.3427 8364.2881 5197899
3427.498 1262.4303 8364.8691 4935239
3464.5413 1257.8875 8334.7676 5132107
3501.3489 1253.3879 8304.9541 5658707
3541.0249 1250.0258 8282.6758 5000777
3556.6016 1238.3643 8205.4072 5263691
3512.05 1206.3636 7993.3716 6250585
3556.8145 1205.486 7987.5552 5263432
3659.0261 1223.8457 8109.207 4408123
3686.3577 1217.0087 8063.9053 5197639
3658.9897 1192.5194 7901.6392 6118739
3798.3188 1222.2915 8098.9087 5197383
3888.7483 1235.7814 8188.293 2631968
3845.4539 1206.9669 7997.3687 5197383
3954.3582 1226.0431 8123.7671 4671295
3952.947 1210.8685 8023.2202 4868931
3879.6938 1174.3093 7780.9795 4803909
3916.5493 1171.5452 7762.6636 4867652
3489.7581 1031.7655 6836.4834 131077
3542.7114 1035.4049 6860.5977 65546
3543.0679 1023.764 6783.4653 14
3571.4336 1020.3866 6761.0859 14
3604.2744 1018.3486 6747.5825 14
3638.78 1016.8205 6737.457 14
3674.2136 1015.582 6729.2505 15
3714.6492 1015.7379 6730.2832 15
3757.4253 1016.5236 6735.4897 1121062
3718.2568 995.35663 6595.2378 5724759
4282.9307 1134.5942 7517.8271 5527634
4556.666 1194.6865 7915.998 5329742
4596.749 1192.9183 7904.2822 5198412
4681.2979 1202.609 7968.4932 5395790
4892.4478 1244.3048 8244.7695 4277053
4840.2871 1218.8702 8076.2393 4408638
4909.5688 1224.2153 8111.6562 4277054
4924.2114 1215.9645 8056.9863 4408641
5020.2114 1227.7694 8135.2056 5066571
4898.1616 1186.5294 7861.9492 5066829
5147.1362 1235.0966 8183.7554 5329745
5061.4399 1203.1997 7972.4067 5132365
5113.8516 1204.42 7980.4927 4606021
5082.2246 1186.0063 7858.4839 5066572
5106.7241 1180.9061 7824.689 4211264
5128.7593 1175.3328 7787.7603 4540228
5169.0566 1174.0065 7778.9727 4869191
5353.8081 1205.2227 7985.8105 3882296
5349.061 1193.6064 7908.8418 4803398
5318.8672 1176.5632 7795.9131 4671812
5404.2427 1185.1577 7852.8604 5000777
5487.4185 1193.1273 7905.667 5790035
5441.6113 1173.1547 7773.3281 5066312
5427.7661 1160.3501 7688.4844 5132105
5485.4902 1162.9314 7705.5884 5132105
5503.8506 1157.1936 7667.5703 5131848
5533.3311 1153.8689 7645.5405 3026472
5642.772 1167.137 7733.4541 4144954
5688.0908 1167.035 7732.7798 4802628
5655.3125 1151.0398 7626.7944 5132106
5769.7363 1165.0208 7719.4326 4934727
5855.6025 1173.061 7772.7075 5329484
5775.0996 1147.9067 7606.0356 5000520
5707.7759 1125.7415 7459.168 5000520
5718.4658 1119.1851 7415.7256 3947832
5728.1401 1112.5315 7371.6382 4934727
5966.0322 1149.9679 7619.6929 4868934
6096.1006 1166.2151 7727.3462 4342590
6025.4829 1144.1139 7580.9038 2039578
6141.9512 1157.6006 7670.2666 3553074
6068.645 1135.3842 7523.0605 2237214
5872.4331 1090.6649 7226.751 4737348
6021.7871 1110.3092 7356.9141 5197899
6144.6484 1124.8215 7453.0728 5263692
6303.4248 1145.6544 7591.1113 5592657
6136.353 1107.3882 7337.5596 4605508
6201.6553 1111.3005 7363.4824 4539459
6273.9302 1116.3989 7397.2646 4671302
6154.5894 1087.5665 7206.2212 5526610
6277.2593 1101.6021 7299.2202 5066060
6293.0723 1096.8214 7267.5439 5132106
6202.2461 1073.6459 7113.9824 5000521
6101.5605 1049.088 6951.2617 4737092
6315.7534 1078.6357 7147.0454 5197899
6322.5239 1072.6014 7107.062 5197899
6325.5742 1066.0199 7063.4526 4934727
6416.6426 1074.2607 7118.0566 4868934
6427.8027 1069.1031 7083.8823 4605762
6487.623 1072.0535 7103.4312 5000520
6586.0776 1081.3087 7164.7563 4210748
6636.2051 1082.5618 7173.0591 4012855
6699.1689 1085.8798 7195.0439 3947319
6644.6587 1070.2344 7091.3779 3947063
6752.4907 1080.7694 7161.1826 3749940
6817.647 1084.385 7185.1396 3881526
6745.3486 1066.2285 7064.835 4013368
0 0 0 0
0 0 0 0
0 0 0 0
-7547.8374 1290.6002 8228.5215 263181
-7715.498 1327.8444 8465.9795 10204617
-7782.3726 1348.1168 8595.2314 9349563
-7926.0903 1382.0555 8811.6152 5732225
-8017.1763 1407.2059 8971.9678 17
-8108.4302 1432.7217 9134.6494 22
-8151.3169 1449.9768 9244.6631 7701661
-8613.1152 1542.4863 9834.4795 9545916
-8999.0645 1622.5801 10345.135 9546175
-9020.9766 1637.6842 10441.436 9349053
-9346.624 1708.5179 10893.053 8887990
-9165.2129 1687.0049 10755.891 8887989
-8922.2803 1653.787 10544.103 9283005
-8418.292 1571.3717 10018.645 9216957
-8285.6758 1557.5992 9930.835 9085883
-8031.2119 1520.5599 9694.6826 8690866
-8008.8721 1527.2521 9737.3496 9085623
-7461.7266 1433.2375 9137.9385 9019830
-6907.3301 1336.4458 8520.8203 8887985
-6908.5947 1346.5311 8585.1211 9282741
-6896.0073 1354.046 8633.0342 2832970
-6888.0444 1362.588 8687.4961 1040
-6693.0596 1333.9836 8505.1221 132116
-6689.2129 1343.3297 8564.71 1052450
-6786.5161 1373.287 8755.709 65549
-6905.333 1408.0925 8977.6201 13027544
-7134.8169 1466.1801 9347.9707 11968949
-6917.3193 1432.6047 9133.9033 12865604
-6582.3647 1373.9824 8760.1436 12598849
-6509.4443 1369.5592 8731.9424 12416137
-6570.2305 1393.4218 8884.084 9478320
-7123.4805 1522.9553 9709.9551 9611707
-7133.1934 1537.4473 9802.3516 9939132
-6909.4023 1501.4358 9572.752 9609910
-6961.8765 1525.3585 9725.2773 9149357
-6997.334 1545.9209 9856.377 8886440
-7095.9331 1580.8966 10079.373 8623008
-7033.0205 1580.1777 10074.79 8623008
-7063.9561 1600.7126 10205.715 8227993
-7062.2085 1614.1323 10291.274 7109512
-7118.1816 1641.0929 10463.168 8293786
-6994.354 1626.71 10371.467 8030615
-7053.0527 1654.8997 10551.196 7570063
-6987.9531 1654.2861 10547.284 7306634
-6902.2671 1648.744 10511.949 6451578
-6598.2158 1590.4652 10140.379 6713979
-6504.1206 1582.1891 10087.613 11
-6259.8735 1536.895 9798.8301 12
-6231.7744 1544.3173 9846.1523 11
-6545.8296 1637.4716 10440.079 5263961
-6658.5171 1681.5492 10721.106 7566966
-6763.0117 1724.387 10994.229 6646631
-6664.0889 1715.6874 10938.763 7239026
-6626.7949 1722.8396 10984.363 6186081
-6556.5605 1721.4844 10975.724 6909290
-6472.354 1716.3972 10943.288 6317409
-6415.7451 1718.5995 10957.33 7172718
-6286.5815 1701.213 10846.478 6843752
-6243.4502 1706.9888 10883.303 6514530
-6248.1548 1726.1001 11005.151 6317409
-6387.7764 1783.2795 11369.712 5856858
-6161.438 1738.4235 11083.722 5856857
-6249.8506 1782.3634 11363.871 7633271
-6254.4458 1803.0964 11496.06 6580328
-6189.6372 1804.0573 11502.186 6119778
-6050.2944 1783.0739 11368.4 7369589
-5730.4487 1707.8231 10888.622 6316902
-5614.6675 1692.3679 10790.084 2237735
-5686.8882 1733.8768 11054.733 4474697
-5580.7188 1721.3298 10974.737 4474696
-5437.8633 1697.0381 10819.859 2303525
-5392.8604 1703.0688 10858.31 3422774
-5201.2773 1662.396 10598.991 4080448
-5126.3633 1658.474 10573.985 4738633
-5043.979 1652.0083 10532.762 2237730
-5165.8335 1713.1107 10922.335 4804425
-5349.5688 1796.5449 11454.289 3422515
-5393.5835 1834.5978 11696.903 5528146
-5312.7739 1830.6301 11671.606 6514785
-5103.1079 1781.5721 11358.827 7633266
-4987.9414 1764.6354 11250.842 6646370
-4872.9258 1747.2937 11140.276 6646371
-4775.3916 1735.8301 11067.188 5922904
-4792.2842 1766.2201 11260.946 6120028
-4671.8516 1746.1418 11132.932 5396306
-4488.4854 1701.6298 10849.135 4606790
-4297.6787 1652.9624 10538.846 2961453
-4208.1592 1642.3916 10471.448 2237730
-4022.4131 1593.3864 10159.004 5264719
-4016.8069 1615.3347 10298.94 5462351
-4005.7729 1635.7435 10429.062 5725522
-4059.0903 1683.4811 10733.424 5462350
-3911.8059 1648.2157 10508.581 5922901
-3894.9272 1667.6442 10632.452 6120280
-3942.0857 1715.5798 10938.077 5528144
-3873.5327 1713.9191 10927.488 5330509
-3744.0085 1684.7654 10741.612 5396559
-3726.2036 1705.7455 10875.376 6251611
-3632.9104 1692.2994 10789.647 6120279
-3475.8801 1648.1498 10508.16 6120537
-3481.0339 1680.6947 10715.658 6778212
-3449.9951 1696.6495 10817.382 6383454
-3302.2051 1654.7057 10549.959 5659731
-3216.7959 1643.0048 10475.357 6120025
-3135.9326 1633.2108 10412.915 6646371
-3069.5247 1630.7039 10396.93 6185819
-2982.2732 1616.7937 10308.243 4935753
-2904.0774 1607.3142 10247.805 5988441
-2830.825 1600.2244 10202.602 6317150
-2810.9089 1623.6333 10351.851 6053977
-2691.9636 1589.6093 10134.923 6185820
-2635.5608 1591.8073 10148.936 6975079
-2517.7708 1556.1658 9921.6953 5659733
-2528.4507 1600.1221 10201.949 4146494
-2509.1855 1626.8168 10372.147 5988441
-2472.9397 1643.5657 10478.935 5067593
-2481.0405 1691.4102 10783.978 5067338
-2313.1326 1618.6212 10319.895 4738373
-2190.7036 1574.5677 10039.021 3685687
-2165.8987 1600.1813 10202.326 6054494
-2158.1155 1640.2018 10457.487 5265491
-2098.7253 1642.2068 10470.271 5989471
-2023.1161 1631.2565 10400.453 4936782
-1937.0413 1610.9143 10270.758 4870991
-1836.6183 1576.9335 10054.105 4542026
-1760.6469 1562.3728 9961.2705 4081728
-1699.7778 1560.6686 9950.4043 6516068
-1626.6372 1547.1697 9864.3389 5857369
-1575.0466 1553.9258 9907.4141 5791063
-1502.5751 1539.8066 9817.3945 4606786
-1457.7441 1554.0164 9907.9922 5527632
-1398.4963 1553.4049 9904.0928 5462096
-1334.7341 1547.5057 9866.4814 5462097
-1265.9208 1534.9415 9786.375 5856855
-1201.5823 1526.8575 9734.834 5330256
-1156.8815 1544.1703 9845.2158 6252128
-1092.5604 1535.7423 9791.4814 6449251
-1033.0511 1533.5123 9777.2637 5922907
-1028.9417 1618.1401 10316.828 5922653
-933.96307 1561.5295 9955.8936 6120032
-868.68134 1550.2848 9884.2002 6251874
-822.19159 1573.3759 10031.422 6778218
-755.65833 1558.7203 9937.9834 5593432
-698.6712 1562.9432 9964.9072 5922397
-631.53601 1543.149 9838.7041 6317155
-559.37518 1505.8009 9600.583 6382948
-504.69437 1512.379 9642.5234 6382948
-448.48187 1515.4608 9662.1719 6448741
-389.74725 1509.6749 9625.2822 6645863
-333.46494 1513.0325 9646.6895 6251362
-276.90451 1516.2563 9667.2441 5856604
-219.03967 1512.1564 9641.1035 5396053
-159.85402 1492.8292 9517.8789 6317155
-105.85851 1527.3201 9737.7832 5856604
-47.673641 1511.592 9637.5059 5396053
9.4012098 1508.3969 9617.1338 5725018
66.61306 1513.8003 9651.585 4672329
122.56287 1498.7791 9555.8135 5593432
181.72234 1520.0986 9691.7412 6844012
239.38513 1521.667 9701.7402 6251619
296.88535 1521.7947 9702.5547 4343622
351.40723 1509.0906 9621.5566 4804173
403.95734 1492.647 9516.7168 5067344
453.6492 1470.9634 9378.4678 4935758
507.65329 1466.4681 9349.8076 6186338
538.17731 1401.7029 8936.8818 6054239
605.90173 1436.7509 9160.3379 5593431
655.35608 1426.2749 9093.5459 3817020
708.56848 1424.948 9085.0859 4606536
742.91345 1388.5442 8852.9854 5922397
836.42096 1460.2277 9310.0195 4738122
877.10687 1436.5308 9158.9346 5001294
895.03247 1380.4895 8801.6309 5198929
950.42651 1385.2279 8831.8418 5263953
981.49426 1355.8668 8644.6436 4145219
1032.7816 1355.9647 8645.2676 263432
956.41595 1196.3733 7627.7554 11
984.35547 1175.77 7496.394 15
1032.0266 1179.4967 7520.1548 11
1098.3043 1203.3004 7671.9209 1842210
1097.9062 1155.0653 7364.3862 6973806
1195.7186 1209.8915 7713.9438 5329241
1254.881 1223.0128 7797.6021 9473703
1295.4978 1217.7697 7764.1724 65807
1325.1899 1202.9688 7669.8062 65814
1509.9895 1325.2834 8449.6523 4144973
1586.3749 1347.6494 8592.251 5001039
1651.167 1359.082 8665.1426 4606023
1680.3364 1341.3881 8552.3311 4277313
1715.4139 1329.3083 8475.3135 5263951
1783.5857 1342.8315 8561.5342 6316639
1860.6998 1362.1536 8684.7256 5658709
1946.5526 1386.6608 8840.9775 3355953
1988.476 1379.4098 8794.7471 3816759
1992.9866 1347.2384 8589.6309 4737605
2004.8389 1321.5083 8425.583 3421745
2023.3064 1301.2831 8296.6318 5461327
2063.7893 1295.8402 8261.9297 5395277
2105.5798 1291.4518 8233.9502 4934725
2122.9727 1272.6366 8113.9897 4671552
2186.322 1281.5936 8171.0972 5066310
2299.2712 1318.6077 8407.0889 4671552
2307.7253 1295.3959 8259.0967 4737602
2382.4819 1309.5929 8349.6133 4013365
2385.8262 1284.757 8191.2661 4605502
2451.6643 1293.8933 8249.5166 4474173
2505.1484 1296.2798 8264.7324 5526861
2516.1838 1277.0309 8142.0063 5263948
2551.5635 1270.6292 8101.1909 5198156
2583.6211 1262.84 8051.5293 4474433
2634.6536 1264.4398 8061.729 5658707
2670.9297 1259.0267 8027.2168 4934984
2718.3838 1258.98 8026.9189 4409151
2713.115 1234.9368 7873.6255 5132104
2793.4788 1250.0251 7969.8252 5329484
2844.8159 1251.8392 7981.3906 5856341
2932.3076 1269.243 8092.3535 5066825
2995.9548 1275.9321 8135.0015 5921878
3073.2207 1288.1176 8212.6924 4737345
3047.082 1257.2574 8015.9365 4276794
3052.7725 1240.2759 7907.6665 3092518
3072.6421 1229.4812 7838.8428 3355692
3114.1851 1227.5514 7826.5381 3684657
3167.759 1230.3508 7844.3867 5329485
3269.3171 1251.4368 7978.8257 3487279
3229.1313 1218.4381 7768.4346 3487281
3322.9358 1236.2144 7881.7715 1447698
3302.354 1211.5331 7724.4102 4737603
3297.2004 1193.1093 7606.9448 4868930
3395.9502 1212.2734 7729.1299 5066566
3455.9795 1217.2893 7761.1099 4407866
3464.0015 1204.0953 7676.9893 5000003
3453.8408 1185.0051 7555.2749 5460811
3501.47 1185.9772 7561.4722 5526604
3548.3376 1186.67 7565.8901 3881524
3622.0557 1196.2131 7626.7344 4078902
3752.5815 1224.0513 7804.2231 4342330
3790.1147 1221.2478 7786.3486 4539710
3834.3491 1220.645 7782.5049 4868933
3785.7319 1190.8488 7592.5322 4539968
3656.6865 1136.7498 7247.6113 4868425
3552.1279 1091.4302 6958.6665 5
3526.9841 1071.2717 6830.1411 10
3527.9778 1059.4194 6754.5742 14
3559.1138 1056.7828 6737.7637 14
3593.3716 1055.1215 6727.1714 14
3623.3408 1052.2509 6708.8696 14
3655.1218 1049.9633 6694.2842 14
3692.9138 1049.4329 6690.9028 270
3710.7727 1043.3094 6651.8613 1382182
4014.4238 1116.8228 7120.562 3751494
4143.7085 1140.8025 7273.4507 4606793
4349.3931 1185.1056 7555.9155 5329997
4433.2412 1195.647 7623.1245 5066312
4535.3633 1210.8545 7720.083 5264205
4516.2817 1193.7223 7610.8535 5987928
4552.5781 1191.4215 7596.1841 5198155
4650.269 1205.0754 7683.2378 5526864
4680.3193 1201.1062 7657.9307 4869191
4690.2642 1192.103 7600.5288 5000522
4681.4663 1178.5527 7514.1357 5395280
4785.5234 1193.401 7608.8042 5461329
4666.6899 1152.907 7350.626 5790294
4765.4097 1166.4115 7436.7271 5921622
4792.3271 1162.2546 7410.2241 5592657
4677.0361 1123.9976 7166.3066 4474176
4911.1445 1169.642 7457.3237 4868934
4904.9854 1157.7603 7381.5688 4671554
4821.3975 1127.974 7191.6597 4934726
5051.7188 1171.506 7469.2075 4539968
5149.0444 1183.7075 7547.0015 4276540
5059.332 1153.0713 7351.6733 4210490
5239.6484 1183.975 7548.707 5197897
5069.3491 1135.7994 7241.5527 5395277
5087.0732 1130.2059 7205.8896 5263690
5026.9189 1107.547 7061.4229 5461070
5137.5098 1122.5709 7157.2109 5197385
5327.1719 1154.4847 7360.6855 5197898
5286.0352 1136.2687 7244.5444 4013881
5417.1221 1155.0685 7364.4067 6184793
5464.4878 1155.8589 7369.4468 5592656
5493.9878 1152.8879 7350.5044 5790036
5437.3779 1132.036 7217.5576 4934727
5429.5991 1121.5963 7150.9976 5329484
5544.5952 1136.4839 7245.9165 4539455
5590.1777 1137.0242 7249.3608 4341820
5596.6367 1129.6592 7202.4043 5065800
5757.7612 1153.3882 7353.6938 4605504
5853.0029 1163.6622 7419.1982 4736835
5785.7979 1141.7271 7279.3457 4737091
5711.9478 1118.8151 7133.2646 5526607
5726.4502 1113.4181 7098.8555 5592914
5747.79 1109.4198 7073.3628 5066313
5848.1475 1120.6205 7144.7759 5066313
5896.5068 1121.7681 7152.0923 5395534
5917.3101 1117.6943 7126.1191 5000520
5956.2417 1117.0782 7122.1914 5921623
6043.7124 1125.5101 7175.9507 4868934
5963.2793 1102.7743 7030.9927 4473920
5947.3628 1092.2018 6963.5854 4474176
5980.0874 1090.6462 6953.668 4868677
6011.3403 1088.8455 6942.1865 4737605
5896.7451 1060.8307 6763.5723 5065800
5909.6572 1055.9781 6732.6338 4013368
5980.1675 1061.4138 6767.2896 4210233
5975.4448 1053.5128 6716.915 4539455
6119.7676 1071.8203 6833.6387 4408126
6160.0806 1071.7904 6833.4487 5724242
6220.1909 1075.1832 6855.0801 5263692
6164.5112 1058.647 6749.6489 4276797
6251.4688 1066.6614 6800.7471 6645602
6412.8721 1087.1943 6931.6592 2828838
6408.188 1079.4878 6882.5244 4802628
6456.7681 1080.7944 6890.8555 4013112
6346.5845 1055.6763 6730.709 4013112
6314.209 1043.7336 6654.5654 4736834
6230.2354 1023.4626 6525.3237 4671041
0 0 0 0
0 0 0 0
0 0 0 0
-7648.8887 1357.2792 8338.6855 526350
-7926.0601 1415.6053 8697.0225 9080724
-8378.6387 1506.2275 9253.7764 7832714
0 0 0 0
-8339.1182 1519.0009 9332.251 268
-8080.707 1481.7539 9103.418 16
-8078.48 1491.2986 9162.0566 6054002
-8454.4551 1571.2611 9653.3213 7699847
-8577.7383 1605.03 9860.7871 6712947
-8626.4043 1625.2046 9984.7324 6844786
-8553.4795 1622.5919 9968.6807 7106932
-8512.7461 1626.092 9990.1846 7501944
-8408.9316 1617.5071 9937.4414 7501943
-8180.7241 1584.7046 9735.9141 7435895
-8126.6572 1585.4092 9740.2422 7238515
-7813.9194 1535.2993 9432.3838 7764857
-7672.021 1518.2764 9327.7998 7830650
-7467.3643 1488.4965 9144.8418 7371634
-7413.6523 1488.5897 9145.415 6845295
-7122.6113 1440.6801 8851.0732 7700861
-6966.4629 1419.5466 8721.2363 1975852
-6702.5762 1375.9799 8453.5762 11
-6620.5229 1369.3667 8412.9473 920092
-6720.7334 1400.6381 8605.0684 17
-6841.1143 1436.6234 8826.1504 65550
-6629.6084 1402.9302 8619.1504 13486302
-6800.8652 1450.3416 8910.4307 12822466
-6838.9155 1469.8651 9030.377 12603462
-6591.2378 1427.8015 8771.9521 12338248
-6455.3525 1409.4786 8659.3818 12940149
-6732.3887 1481.7427 9103.3486 7237220
-6973.5874 1547.2227 9505.6367 7304301
-7077.0977 1582.9714 9725.2656 6976107
-7332.7051 1653.6064 10159.225 7370353
-7393.5454 1681.1249 10328.289 7370097
-7475.8174 1714.0166 10530.364 6909544
-7338.6069 1696.7163 10424.078 6909800
-7341.6938 1711.8352 10516.963 6909543
-7288.7998 1714.0482 10530.56 7106922
-7241.2891 1717.5765 10552.235 6514785
-7194.5127 1721.3419 10575.369 6646625
-7138.3735 1722.9135 10585.024 6646368
-6726.9517 1638.0021 10063.356 6580572
-6623.3633 1627.1996 9996.9893 6186072
-6473.29 1604.6791 9858.6299 6317402
-6358.3535 1590.5376 9771.749 6186081
-6350.8291 1603.2522 9849.8643 5
-6254.9819 1593.6991 9791.1729 8
-6259.8477 1609.8679 9890.5088 7
-6030.5791 1565.5599 9618.2949 5855574
-6541.6646 1714.4388 10532.959 6118997
-6551.9077 1733.6602 10651.049 6975073
-6452.8145 1724.0435 10591.967 6975073
-6497.0103 1752.8972 10769.235 6909795
-6316.6328 1721.1324 10574.083 6844003
-6318.5781 1738.9077 10683.288 6646623
-6196.2461 1722.4948 10582.451 6383194
-6079.9839 1707.4507 10490.026 6909535
-5906.3628 1675.8217 10295.707 6448983
-6190.4277 1774.7473 10903.475 6317140
-6092.8042 1765.1782 10844.686 5132610
-5952.6528 1742.9531 10708.142 5329735
-5805.3101 1718.1207 10555.579 5922128
-5575.2007 1667.9857 10247.565 5527626
-5685.1133 1719.594 10564.631 6711647
-5454.6157 1668.2402 10249.13 5725009
-5385.7803 1665.7297 10233.706 5659472
-5307.6445 1660.2527 10200.058 7369833
-5155.6382 1631.2769 10022.038 6580574
-5180.3384 1658.1877 10187.371 5790543
-4986.5156 1614.9614 9921.8018 6580572
-4928.2456 1615.1281 9922.8262 6645852
-4862.9688 1612.975 9909.5977 7172453
-4813.4673 1616.0654 9928.585 6185558
-4814.3193 1636.3472 10053.189 5988179
-4872.6064 1676.9033 10302.353 5856335
-5160.0068 1798.3375 11048.406 6909024
-5065.8271 1788.1974 10986.107 6843231
-5008.0815 1790.8215 11002.229 6975072
-4900.2832 1775.3806 10907.366 6316887
-4811.104 1766.3633 10851.966 6974816
-4682.9033 1742.5808 10705.854 7896174
-4493.3335 1694.9954 10413.505 6185556
-4482.9507 1714.6199 10534.071 6448474
-4323.8042 1677.0968 10303.542 6974817
-4262.8989 1677.1499 10303.868 5922130
-4189.3374 1672.1531 10273.169 6580061
-4003.5884 1621.5696 9962.4004 5922130
-3895.9138 1601.5681 9839.5176 6119509
-3788.1917 1580.939 9712.7793 5790798
-3823.2654 1620.1863 9953.9014 5725261
-3887.2803 1673.1196 10279.107 6251349
-3737.8013 1634.3859 10041.14 4606523
-3714.3083 1650.3788 10139.395 7106658
-3630.571 1639.6888 10073.719 4606269
-3559.6523 1634.528 10042.012 6514522
-3459.6577 1615.6133 9925.8066 6251095
-3453.2004 1640.4805 10078.583 5001028
-3339.8528 1614.5502 9919.2744 3290410
-3290.5596 1619.2104 9947.9062 4079929
-3275.9712 1641.4296 10084.414 6382682
-3236.3889 1651.7184 10147.625 6514267
-3208.0791 1668.2588 10249.243 6711647
-3174.2183 1682.4948 10336.704 7040612
-3047.3401 1647.0173 10118.742 6185303
-2964.1304 1634.1912 10039.943 5461581
-2898.6003 1630.7867 10019.027 5856339
-2744.7725 1576.5242 9685.6553 5264201
-2749.2585 1612.8171 9908.6279 5461581
-2664.3345 1597.0981 9812.0547 5922132
-2592.7842 1588.8732 9761.5244 6316891
-2559.208 1604.0748 9854.918 5132617
-2511.2583 1610.7667 9896.0312 4408893
-2417.707 1587.8296 9755.1133 4408893
-2375.5315 1598.3368 9819.666 4343100
-2317.5698 1598.4833 9820.5654 4738628
-2250.9204 1592.4905 9783.748 5791316
-2144.8523 1557.5562 9569.1221 4935753
-2079.2686 1550.9221 9528.3652 5791062
-2023.653 1551.5603 9532.2861 5396048
-1971.121 1554.6677 9551.376 5923418
-1916.3234 1556.1185 9560.29 5792089
-1872.4069 1566.7629 9625.6855 6647398
-1798.0497 1551.8042 9533.7842 6186847
-1715.8596 1528.8958 9393.042 6778984
-1691.7411 1557.9301 9571.4199 6910571
-1635.6591 1558.522 9575.0557 6515298
-1576.9535 1556.5668 9563.0439 4673093
-1518.7314 1554.9611 9553.1787 5133387
-1467.5282 1560.6954 9588.4082 5725268
-1408.5662 1558.3075 9573.7393 3290927
-1313.4493 1514.0433 9301.7939 5922647
-1273.7609 1532.5936 9415.7607 5593684
-1205.6647 1517.0973 9320.5566 6448992
-1138.4636 1501.2942 9223.4668 5856856
-1083.1665 1500.3865 9217.8906 5067598
-1027.2463 1498.4738 9206.1387 5199183
-967.81262 1490.9337 9159.8154 5659478
-912.55511 1489.3136 9149.8623 5330514
-839.66577 1456.8961 8950.6992 5067342
-810.30426 1500.7238 9219.9629 3948860
-745.42639 1480.3549 9094.8223 5001548
-687.86243 1472.4683 9046.3701 5396306
-643.82983 1494.6625 9182.7236 4804168
-580.28381 1471.4716 9040.2461 5396307
-517.87598 1446.7441 8888.3291 4672584
-467.20007 1452.9034 8926.1699 4080193
-406.57153 1425.7338 8759.248 6185569
-360.42349 1448.8221 8901.0957 4014400
-310.08109 1460.0746 8970.2266 5527638
-256.52255 1457.7054 8955.6719 5001295
-207.72549 1488.214 9143.1064 5659224
-156.26547 1514.4371 9304.2129 6251362
-97.901192 1465.8647 9005.7998 5659225
-45.129837 1484.9836 9123.2607 6317155
8.6053267 1432.8506 8802.9717 6646120
62.121033 1465.04 9000.7334 7172464
115.19092 1461.8358 8981.0479 6382948
168.76469 1465.0305 9000.6748 6054496
232.32729 1532.5839 9415.7012 5725531
287.32465 1528.4167 9390.0996 6515047
332.65134 1482.5029 9108.0195 6515047
378.33124 1450.7596 8912.999 5593432
425.27191 1431.0343 8791.8125 5659738
474.2338 1421.6727 8734.2979 3883327
514.82538 1391.5287 8549.1035 5067601
566.15826 1393.2169 8559.4756 6054237
621.44 1403.5463 8622.9355 4014910
672.7597 1404.0378 8625.9551 5198928
724.96667 1406.1808 8639.1211 4738122
787.61823 1426.964 8766.8066 5593686
832.47931 1414.9382 8692.9238 4869964
880.22589 1408.9321 8656.0244 5264721
918.92627 1389.9048 8539.126 5395795
959.4436 1375.4677 8450.4297 2763568
891.18024 1214.2472 7459.9429 8
937.30646 1216.755 7475.3501 13
982.92798 1218.4109 7485.5234 14
1050.7427 1246.2463 7656.5352 65799
1050.1562 1194.0072 7335.5952 7500151
1126.3871 1229.7889 7555.4263 6975087
1180.4446 1239.5518 7615.4062 9078191
1260.0417 1274.4272 7829.6699 13488083
1191.6748 1162.4863 7141.9409 13421007
1303.9735 1228.4193 7547.0117 13288136
1355.1042 1234.2673 7582.9399 1446683
1489.3192 1312.9872 8066.5698 5591643
1534.3951 1310.6704 8052.3364 4803659
1608.3495 1332.4172 8185.9419 3224367
1642.8555 1321.1672 8116.8252 3750710
1682.3265 1314.4363 8075.4727 4671811
1800.4138 1367.8036 8403.3438 5264205
1814.5427 1341.4452 8241.4062 5527119
1864.6743 1342.3865 8247.1895 5198410
1887.7069 1324.2693 8135.8833 4671552
1939.9149 1327.0117 8152.7319 1645332
1982.2119 1323.006 8128.1221 2566178
2005.4215 1306.7528 8028.2676 4079417
