# .PCD v0.7 - Point Cloud Data file format
VERSION 0.7
FIELDS x y z rgb
SIZE 4 4 4 4
TYPE F F F U
COUNT 1 1 1 1
WIDTH 1421
HEIGHT 1
VIEWPOINT 0 0 0 1 0 0 0
POINTS 1421
DATA ascii
0 0 0 0
0 0 0 0
0 0 0 0
0 0 0 0
0 0 0 0
0 0 0 0
0 0 0 0
0 0 0 0
0 0 0 0
0 0 0 0
0 0 0 0
0 0 0 0
0 0 0 0
0 0 0 0
0 0 0 0
0 0 0 0
-7011.7275 1206.2151 9481.0635 19
-6942.3462 1203.9237 9463.0527 21
-6855.6519 1198.5681 9420.957 20
-6851.0176 1207.5889 9491.8613 18
-6854.7119 1218.2391 9575.5752 18
-6741.665 1208.1465 9496.2441 1381404
-7002.2734 1265.4086 9946.335 3619413
-7193.0171 1310.9102 10303.984 13685975
0 0 0 0
0 0 0 0
0 0 0 0
0 0 0 0
0 0 0 0
0 0 0 0
0 0 0 0
0 0 0 0
0 0 0 0
0 0 0 0
0 0 0 0
-6235.5029 1265.2555 9945.1318 5
-6270.9399 1284.5839 10097.056 65539
-6031.9355 1247.5244 9805.7617 7764602
-6409.8403 1338.574 10521.428 10068131
-6323.3516 1333.4795 10481.385 66051
-7099.8823 1512.0841 11885.248 593943
-7429.6855 1598.1726 12561.919 988191
0 0 0 0
0 0 0 0
0 0 0 0
0 0 0 0
0 0 0 0
-9767.1943 2235.3269 17570.064 2501943
-9342.9844 2161.2749 16988.002 1778736
-8685.2285 2030.9963 15963.99 1713201
-8313.043 1965.3635 15448.104 3160383
-7748.3281 1852.2455 14558.976 4477013
-7166.3135 1732.3987 13616.959 5397864
-6601.4614 1614.0189 12686.474 6189181
-5775.9951 1428.4601 11227.948 8228761
-5302.8423 1326.7234 10428.28 525
-5279.6289 1336.4861 10505.017 528411
-5261.0449 1347.6675 10592.904 270
-5221.2832 1353.6285 10639.759 6516089
0 0 0 0
0 0 0 0
0 0 0 0
0 0 0 0
0 0 0 0
0 0 0 0
0 0 0 0
0 0 0 0
0 0 0 0
0 0 0 0
0 0 0 0
0 0 0 0
-5297.1875 1628.9523 12803.852 2964311
-5253.209 1638.8965 12882.015 3095641
-5163.6665 1634.7091 12849.102 3227225
-5148.9722 1654.4464 13004.241 3227222
-5067.814 1653.1031 12993.682 3161429
-5087.644 1685.1686 13245.722 3161172
-5024.7334 1690.403 13286.866 3227990
-4936.5815 1687.1776 13261.514 3622235
-4975.2188 1727.8813 13581.452 3885149
-4860.835 1715.906 13487.324 3884893
-4939.3833 1772.7748 13934.322 3819358
-4805.9072 1754.1865 13788.215 3556699
-4659.9556 1730.323 13600.644 3490652
-4629.0298 1749.0823 13748.096 3096664
-4549.478 1749.8113 13753.825 2833493
-4487.3901 1757.406 13813.521 2438992
-4348.6235 1734.6954 13635.012 2306378
-4132.5293 1679.6947 13202.697 1911621
-3993.8093 1654.6281 13005.668 1714240
-3872.8376 1636.0729 12859.821 1976129
-3814.3398 1643.6943 12919.728 2107714
-3705.5476 1629.5114 12808.246 2303292
-3644.9531 1636.3732 12862.181 2435134
-3567.0432 1635.5884 12856.013 2632507
-3477.8223 1629.4697 12807.919 2701906
-3398.1255 1627.64 12793.538 3820903
-3342.0427 1637.2958 12869.434 4742264
-3278.542 1643.6832 12919.641 6256016
-3205.4097 1645.432 12933.386 6848411
-3178.4341 1671.5403 13138.601 7572392
-3113.3108 1678.3937 13192.471 8624825
-3007.2625 1662.9692 13071.23 9152453
-2901.3315 1646.7959 12944.106 9218503
-2743.7173 1599.6128 12573.238 9218503
-2614.5178 1566.8246 12315.518 9349574
-2454.5061 1513.1587 11893.694 9348801
-2287.0554 1451.5991 11409.825 9480387
-2205.8318 1442.6852 11339.76 9217215
-2195.6672 1481.146 11642.068 8954043
-2122.3777 1478.1378 11618.424 9084858
-2064.9246 1486.327 11682.792 8492978
-1964.5049 1463.0844 11500.101 8427182
-1870.9247 1443.4485 11345.76 8821943
-1772.639 1418.5835 11150.316 8427696
-1697.771 1411.2595 11092.749 7308958
-1620.0504 1400.8788 11011.154 7046042
-1533.9884 1382.1117 10863.642 8230060
-1465.1022 1377.8538 10830.174 8361388
-1399.5621 1376.4969 10819.509 6913424
-1339.3724 1380.5245 10851.166 5991545
-1269.7394 1374.7339 10805.65 5266528
-1215.8511 1386.2803 10896.407 7634818
-1146.2076 1380.1505 10848.227 6845302
-1076.2136 1372.8455 10790.808 5134426
-1031.234 1398.5419 10992.785 5595232
-964.35712 1396.004 10972.838 5594978
-897.78345 1393.5699 10953.705 5331294
-842.53223 1409.701 11080.499 4476243
-741.56024 1345.5956 10576.619 1974822
-669.23718 1326.4399 10426.052 263431
-597.22211 1304.0612 10250.15 395532
-527.18903 1281.4342 10072.299 1843750
-477.76285 1309.5134 10293.006 3818308
-403.08679 1266.4751 9954.7178 3160378
-342.01672 1258.7607 9894.0811 2173484
-284.77148 1264.8436 9941.8945 1449247
-236.85336 1326.3289 10425.179 4278860
-180.04433 1363.8411 10720.031 4871252
-112.93082 1321.644 10388.355 3818304
-49.649078 1276.9244 10036.852 5068627
9.6527815 1256.2676 9874.4844 4936785
69.510025 1281.3105 10071.327 5002834
129.55298 1285.0613 10100.809 5594717
192.2449 1304.4156 10252.938 5463130
261.77823 1349.7512 10609.282 6778735
316.56689 1316.2263 10345.771 6778735
369.15173 1285.9004 10107.403 6778734
426.77783 1279.1493 10054.339 7107698
483.3945 1271.3969 9993.4033 5857631
527.06061 1234.991 9707.2471 5989473
583.68457 1233.1234 9692.5674 6055523
637.04004 1225.3036 9631.1025 6121059
714.42969 1261.1978 9913.2363 5923937
742.58337 1211.3236 9521.2168 6186852
819.96857 1243.1298 9771.2188 6383717
868.89301 1230.438 9671.46 6251618
920.48553 1222.861 9611.9033 5725531
939.37744 1175.2551 9237.7129 5462359
981.3866 1160.2207 9119.5391 6382948
1026.6892 1150.4456 9042.7051 4936015
1084.9177 1155.4055 9081.6914 5725531
1131.0502 1147.6237 9020.5244 6317668
1158.7765 1122.7107 8824.7041 5527895
1202.5879 1114.8602 8762.998 5133136
1246.5104 1107.7583 8707.1758 4541257
1300.4493 1109.7687 8722.9775 5922910
1371.6489 1125.792 8848.9238 5462359
1405.6395 1111.2203 8734.3877 4607051
1425.4603 1086.8794 8543.0635 5593944
1483.6479 1092.4583 8586.9141 5396566
1531.1475 1090.0581 8568.0488 5922397
1553.4932 1070.4791 8414.1543 3422263
1601.0291 1068.9357 8402.0234 4672330
1637.272 1060.1731 8333.1475 6382948
1660.1003 1043.4913 8202.0264 5264466
1715.3499 1047.558 8233.9902 4212035
1767.1074 1049.326 8247.8877 4869709
1791.5701 1035.2272 8137.0679 5330260
1797.0796 1011.2023 7948.228 5330260
1862.0127 1020.9876 8025.1426 4803916
1908.5106 1020.429 8020.752 5659225
1921.6217 1002.48 7879.6704 5725020
1921.5638 978.67542 7692.5615 4408392
1770.6429 880.91754 6924.167 7
1817.6605 883.83362 6947.0884 11
1851.5477 880.37732 6919.9214 14
1902.8191 885.15771 6957.4956 13
1939.6018 883.13831 6941.623 3421755
1894.9297 844.88483 6640.9438 6513770
1971.3395 861.07574 6768.207 5789536
1996.854 854.83337 6719.1411 11316148
2106.0574 883.96118 6948.0913 13619155
2136.8264 879.68274 6914.4609 13422031
2263.1265 914.15326 7185.4058 13948633
2159.304 856.11298 6729.1987 14015454
2155.7202 839.19867 6596.2495 14015454
2248.3647 859.68042 6757.2393 1052698
2331.4836 875.86707 6884.4692 3290425
2481.6418 916.24872 7201.8765 5000778
2532.6475 919.27588 7225.6709 4474687
2598.345 927.44659 7289.8936 4013882
2666.2583 936.12811 7358.1318 5066826
2649.4541 915.26428 7194.1382 4737605
2678.1558 910.53229 7156.9443 4803654
2682.646 897.8446 7057.2173 4079674
2655.7109 875.19012 6879.1484 3816759
2671.761 867.17206 6816.1255 3487279
2625.2952 839.40417 6597.8647 4342842
2715.1111 855.38605 6723.4854 4013621
2795.0842 867.84973 6821.4521 4671807
2785.7932 852.63733 6701.8799 5263689
2770.4719 836.03284 6571.3652 5329481
2797.2114 832.40497 6542.8501 5658446
2817.0979 826.86493 6499.3042 5000771
2849.1606 825.00006 6484.646 5263943
2891.1091 826.00916 6492.5776 5461322
2930.3003 826.21423 6494.1899 5724492
3018.7539 840.12396 6603.5225 5724496
3043.2717 836.112 6571.9873 4869186
3034.3164 823.12109 6469.8765 5264201
2997.2183 802.91504 6311.0537 6448218
2976.5984 787.56689 6190.415 6645597
3052.9446 797.9361 6271.918 5329737
3032.4116 783.03943 6154.8276 4869442
3056.5845 779.90356 6130.1797 5000772
3026.2622 763.09998 5998.1006 5329480
3129.6011 779.99908 6130.9307 4803649
3132.3479 771.72736 6065.9131 4211255
3285.2678 800.22217 6289.8877 4737599
3280.7117 790.15033 6210.7207 6185045
3283.1965 781.9787 6146.4902 4539964
3334.4062 785.46417 6173.8872 4342584
3299.1052 768.71649 6042.2471 4408120
3344.282 770.87885 6059.2437 4144949
3348.5615 763.6684 6002.5684 2697500
3367.7627 759.97668 5973.5508 4078897
3408.4258 761.15454 5982.8091 3947568
3445.0032 761.40515 5984.7788 3815983
3478.0776 760.88434 5980.6851 4671291
3487.6287 755.27979 5936.6323 4671292
3532.8667 757.43835 5953.5991 5197635
3519.804 747.17822 5872.9526 4144948
3577.2825 751.94684 5910.4351 4670775
3542.4421 737.40564 5796.1382 5065534
3643.6882 751.19977 5904.5625 4867899
3545.4094 723.98773 5690.6714 5460035
3590.1062 726.20959 5708.1357 4473397
3662.6025 733.96075 5769.061 3683881
3675.9451 729.82428 5736.5474 4209971
3768.9351 741.43188 5827.7856 4078897
3771.1504 735.13354 5778.2793 4342072
3757.4771 725.87915 5705.5381 5592398
3838.4453 734.90979 5776.5205 5329228
3817.0608 724.35754 5693.5781 4079161
3820.5291 718.6651 5648.8345 5000519
3781.8025 705.20331 5543.0225 4737348
3903.2109 721.57715 5671.7236 4803140
3943.9885 722.89258 5682.0635 5131846
3955.2168 718.81555 5650.0171 4671294
3970.2549 715.49359 5623.9058 2829090
4001.8101 715.17859 5621.4302 2105365
4055.9385 718.86975 5650.4434 5066049
4056.6721 713.11432 5605.2041 5329734
4093.6755 713.77631 5610.4077 5198150
4126.645 713.72998 5610.0435 4342588
4089.3579 701.63019 5514.937 2631970
4063.4778 691.66382 5436.5996 2303005
4022.4248 679.29181 5339.3535 5395019
4097.9604 686.64832 5397.1768 3750450
4182.0151 695.30731 5465.2383 3750192
4120.3877 679.79797 5343.332 3223848
4131.0322 676.35803 5316.2935 4013621
4275.9751 694.79193 5461.187 3487020
4220.999 680.70856 5350.4893 3355433
4208.8452 673.68945 5295.3179 3946800
4235.0215 672.8642 5288.8311 3749678
4242.4277 669.0907 5259.1709 3947057
4284.585 670.81299 5272.7085 3552042
4305.479 669.20544 5260.0728 3158055
4330.2119 668.21344 5252.2754 3552301
4290.0029 657.28552 5166.3799 3617580
4243.0415 645.48517 5073.6274 3420714
4279.4287 646.44141 5081.1436 3551786
4243.8901 636.59515 5003.75 4275506
4345.5781 647.32709 5088.105 2301715
4409.5908 652.33759 5127.4888 2893596
4356.0693 640.01099 5030.5991 3353888
4353.1187 635.23151 4993.0317 3091230
4372.9023 633.81165 4981.8711 3486243
4375.4497 629.9292 4951.355 3815207
4392.8032 628.21606 4937.8892 4012844
4423.647 628.44214 4939.666 4999741
4433.125 625.64966 4917.7168 3552809
4449.4209 623.84973 4903.5688 2894623
4410.1304 614.32996 4828.7417 3355431
4440.2529 614.53979 4830.3911 3881775
4476.9287 615.64807 4839.1021 3223845
4463.2246 609.85834 4793.5942 3289638
4489.7925 609.6098 4791.6406 3815982
4603.7144 621.15051 4882.3525 4210742
4618.3174 619.23029 4867.2593 4079412
4595.9438 612.40686 4813.626 3815984
0 0 0 0
0 0 0 0
0 0 0 0
0 0 0 0
0 0 0 0
0 0 0 0
0 0 0 0
0 0 0 0
0 0 0 0
0 0 0 0
0 0 0 0
0 0 0 0
0 0 0 0
0 0 0 0
0 0 0 0
0 0 0 0
0 0 0 0
0 0 0 0
0 0 0 0
0 0 0 0
0 0 0 0
0 0 0 0
0 0 0 0
0 0 0 0
0 0 0 0
0 0 0 0
0 0 0 0
0 0 0 0
0 0 0 0
0 0 0 0
0 0 0 0
0 0 0 0
0 0 0 0
-6973.1816 1255.4432 9428.9424 19
-6877.7402 1248.2594 9374.9883 19
-6877.0127 1258.2883 9450.3105 17
-6871.3345 1267.5688 9520.0107 18
-6821.1348 1268.7218 9528.6699 25
-7178.7891 1346.3875 10111.974 3816786
-6829.4702 1291.6509 9700.8779 2433335
-7264.501 1385.5875 10406.385 1185065
0 0 0 0
0 0 0 0
0 0 0 0
0 0 0 0
0 0 0 0
0 0 0 0
0 0 0 0
-6297.1802 1288.5695 9677.7354 1843242
-5943.0107 1227.271 9217.3555 1842730
-5880.811 1225.6881 9205.4678 66061
-6105.958 1284.5255 9647.3633 8
-6091.3208 1293.5543 9715.1738 5
-6051.5249 1297.3616 9743.7676 65540
-6020.5562 1303.1528 9787.2627 1
-5670.4375 1239.3048 9307.7354 7698042
-6054.5059 1336.239 10035.755 1119254
-6525.4316 1454.4554 10923.613 2371123
-7266.3647 1635.8251 12285.781 3818572
-7554.814 1717.9698 12902.725 4213074
0 0 0 0
0 0 0 0
-8430.8105 1977.1866 14849.559 7371911
-8229.4297 1950.3099 14647.702 8227477
-7546.3193 1807.4772 13574.965 8425115
-7413.1304 1794.7023 13479.02 8293017
-7222.7915 1767.6625 13275.938 7438220
-6994.3022 1730.5879 12997.492 6253946
-6774.417 1694.8406 12729.014 4674401
-6579.2725 1664.5479 12501.501 3424592
-6212.7007 1589.7006 11939.365 2963015
-5637.229 1459.0608 10958.201 2502207
-5404.7451 1415.1854 10628.678 15
-5212.4131 1380.9128 10371.275 15
-5195.7954 1392.9297 10461.527 16
-5200.8584 1411.1191 10598.138 593693
-5264.917 1445.9556 10859.775 3751505
-5241.502 1457.3331 10945.226 3686228
-5255.8242 1479.6195 11112.606 3291986
-5289.5303 1507.9973 11325.736 3160657
-5212.7231 1505.1932 11304.677 3095378
-5189.7749 1518.0706 11401.392 3358804
-5151.4326 1526.7251 11466.391 3359059
0 0 0 0
0 0 0 0
0 0 0 0
-5087.8799 1591.8542 11955.539 3885146
-5089.0386 1614.6945 12127.08 4016733
-5034.3921 1620.2292 12168.648 3950686
-5029.3052 1642.106 12332.953 3818844
-4925.5474 1631.9363 12256.574 3687257
-4864.3057 1635.7594 12285.287 3357777
-4902.4692 1673.6343 12569.745 3094091
-4831.2178 1674.7488 12578.114 2829889
-4730.0518 1665.3655 12507.643 2500921
-4686.6079 1676.33 12589.991 2237490
-4607.2124 1674.5819 12576.862 1712178
-4572.3398 1689.2252 12686.839 2042430
-4510.7373 1694.3174 12725.084 2898256
-4510.2129 1722.9149 12939.864 4148583
-4448.3257 1728.6552 12982.976 5267834
-4426.2607 1750.3451 13145.877 6781331
-4338.7324 1746.4608 13116.705 8097959
-4268.9741 1749.7185 13141.172 9283006
-4192.6113 1750.3401 13145.839 9481156
-4058.3757 1726.3669 12965.79 9678535
-3758.1333 1629.4897 12238.199 9415365
-3532.605 1561.8337 11730.072 9415365
-3451.3572 1556.532 11690.253 9481159
-3309.2102 1522.9852 11438.303 9350086
-3137.113 1473.9641 11070.132 9284037
-3043.1899 1460.3639 10967.988 9152192
-3081.1121 1510.8202 11346.938 9020605
-2974.7515 1491.2006 11199.586 8690868
-2918.114 1496.1797 11236.981 9085625
-2861.448 1501.3767 11276.013 8756659
-2863.2454 1538.2302 11552.8 8887216
-2866.4116 1577.6423 11848.802 5332846
-2840.5757 1602.67 12036.771 7108999
-2707.1165 1566.7013 11766.63 5134951
-2577.6743 1531.2175 11500.131 7569292
-2484.7844 1516.1096 11386.664 6846596
-2395.8633 1502.6477 11285.559 6319992
-2301.1692 1484.6885 11150.677 4542547
-2126.1531 1412.3129 10607.104 4935763
-2120.9641 1451.7734 10903.471 5593693
-2051.658 1448.4473 10878.489 5857120
-2064.6553 1504.8949 11302.437 5199188
-1993.8448 1501.9929 11280.642 5264725
-1864.0759 1452.9352 10912.195 5725277
-1810.84 1462.1483 10981.391 5462362
-1704.1331 1427.2646 10719.398 5725535
-1678.6923 1460.3778 10968.093 5331033
-1630.9849 1476.0068 11085.474 5264983
-1580.3511 1490.1879 11191.979 2764592
-1498.2253 1474.6154 11075.023 2633519
-1393.282 1434.1299 10770.959 5791327
-1282.4827 1383.4409 10390.263 5001297
-1273.2991 1442.7826 10835.945 263429
-1190.0472 1420.042 10665.153 527373
-1061.8977 1338.173 10050.279 922643
-1013.5327 1353.092 10162.329 5725531
-945.28766 1341.6792 10076.612 5791580
-920.32422 1394.2993 10471.813 5199444
-865.22729 1405.5743 10556.494 5265236
-783.68921 1372.3054 10306.63 4870737
-704.61035 1338.0845 10049.615 3292218
-644.46423 1336.8193 10040.113 4541514
-569.01562 1300.3273 9766.042 4936783
-501.88651 1276.7383 9588.877 4343619
-454.30276 1303.1947 9787.5771 6647144
-397.98563 1308.6752 9828.7383 5791320
-341.3551 1314.827 9874.9414 5462612
-279.23621 1298.0114 9748.6475 4672839
-219.94109 1288.9749 9680.7793 5265232
-164.46844 1303.8671 9792.627 5462610
-105.04639 1286.6178 9663.0771 5265232
-47.355034 1274.6372 9573.0977 5988699
9.389039 1278.8429 9604.6846 5331281
67.811195 1308.2018 9825.1826 6251873
126.39201 1312.0867 9854.3594 6449252
183.94847 1306.2423 9810.4668 5264978
242.76532 1310.0059 9838.7314 5528150
302.34155 1315.6163 9880.8691 5330259
358.00198 1305.1313 9802.1221 5922396
409.67828 1285.0757 9651.4951 5198673
450.45471 1239.9293 9312.4258 5593685
516.03339 1265.457 9504.1504 4803913
557.53754 1232.7324 9258.374 4870219
616.81897 1241.6555 9325.3906 5659222
668.16083 1234.4431 9271.2217 4869453
720.00793 1229.1888 9231.7598 5988447
784.77661 1245.1787 9351.8506 4804172
822.81506 1219.4445 9158.5752 4672587
873.78558 1214.8745 9124.2529 4541258
883.05914 1156.2407 8683.8867 5264467
944.98798 1169.2117 8781.3047 6514534
977.56232 1146.4045 8610.0127 5461590
1034.9891 1153.5591 8663.7471 5791067
1061.4048 1127.1067 8465.0771 6251875
1121.9607 1137.6593 8544.332 6448998
1150.4965 1116.2341 8383.4189 6580840
1185.5459 1102.6404 8281.3242 5988703
1238.3695 1106.0013 8306.5664 6054752
1314.3925 1129.0331 8479.5449 6449511
1335.0883 1104.5939 8295.9951 6054496
1362.2504 1087.0499 8164.2334 3817020
1403.4917 1081.5591 8122.9937 4869709
1442.6196 1074.8574 8072.6616 5593175
1526.8552 1101.1161 8269.876 4540744
1569.2953 1096.5375 8235.4883 4803916
1584.6224 1073.8612 8065.1797 5527639
1606.5359 1056.8452 7937.3818 6514534
1665.8234 1064.684 7996.2544 3948606
1720.3561 1069.1343 8029.6782 5198929
1764.1545 1066.8538 8012.5503 5725019
1783.8838 1050.5183 7889.8643 4803916
1816.556 1042.4447 7829.228 5856604
1850.6555 1035.5718 7777.6089 3948607
1859.8235 1015.4206 7626.2646 5132627
1862.2361 992.62457 7455.0562 131589
1790.3301 932.18848 7001.1538 8
1803.3965 917.73096 6892.5713 11
1839.5846 915.41949 6875.2114 11
1877.4297 914.01483 6864.6616 65800
1864.1487 888.30701 6671.5845 7105652
1929.4321 900.32715 6761.8613 6908273
1970.7096 900.88422 6766.0449 65800
2015.9657 903.2016 6783.4497 5461095
2046.5662 898.99066 6751.8237 13553873
2101.1841 905.28918 6799.1279 13619411
2138.5845 904.0719 6789.9858 13619667
2151.9346 892.92041 6706.2329 13488594
2165.698 882.34149 6626.7803 13488340
2143.8259 857.87927 6443.0581 7171966
2315.2971 910.28827 6836.6733 2303283
2372.0361 916.56219 6883.7939 4672328
2455.2092 932.66577 7004.7383 5724755
2450.2039 915.29425 6874.2705 4671556
2429.2703 892.63782 6704.1104 4343103
2492.4634 901.12555 6767.8569 4211516
2480.2314 882.5069 6628.0229 4343102
2589.5073 907.02942 6812.1982 3816501
2574.8645 888.06024 6669.731 2171420
2576.9221 875.33722 6574.1753 3158315
2591.9456 867.33179 6514.0513 2763556
2628.2559 866.5799 6508.4043 4539966
2668.5974 867.15973 6512.7588 4277048
2682.1658 859.14703 6452.5801 4539964
2686.2651 848.36902 6371.6323 3882288
2698.3545 840.37836 6311.6182 4474425
2668.2505 819.64478 6155.8999 4277045
2749.4163 833.18982 6257.6294 4737596
2740.9272 819.56665 6155.3135 4606010
2867.5881 846.18195 6355.2061 3948080
2872.012 836.50452 6282.5244 3619119
2835.3442 815.25964 6122.9653 5066564
2907.0505 825.31897 6198.5156 5724240
2950.8821 827.31226 6213.4868 5198152
2917.156 807.7804 6066.793 4671805
2959.4514 809.51849 6079.8472 5789775
2976.5781 804.41309 6041.5034 2829089
2981.5491 796.18286 5979.6909 3355433
2958.6746 780.79767 5864.1406 4605501
2996.2563 781.53876 5869.7065 4408635
3062.5251 789.65967 5930.6987 4539963
3108.6404 792.45886 5951.7217 5461065
3163.9915 797.52313 5989.7568 4737084
3177.5413 792.05554 5948.6929 3158052
3156.4229 778.16101 5844.3384 3552552
3238.0322 789.6189 5930.3926 3618086
3153.6492 760.78693 5713.8511 2828571
3280.7517 783.04413 5881.0132 3354916
3312.6897 782.3587 5875.8647 3618090
3329.0405 778.04456 5843.4639 1578507
3293.2358 761.75513 5721.123 3026468
3336.9414 764.00177 5737.9961 4868671
3434.1155 778.32123 5845.542 3881775
3368.4875 755.82526 5676.5869 4210740
3372.0393 749.14307 5626.4009 4342582
3328.5818 732.25024 5499.5278 5921356
3398.8701 740.46515 5561.2256 3881516
3464.7637 747.57404 5614.6167 3552293
3459.781 739.4007 5553.231 4078639
3533.6448 748.073 5618.3638 3749417
3558.9741 746.4046 5605.8335 3354915
3590.9683 746.15192 5603.9355 2762779
3592.9907 739.73315 5555.728 2828316
3604.7957 735.42688 5523.3857 3486505
3686.916 745.41412 5598.3945 5395017
3708.3638 743.0661 5580.7598 4868929
3693.1702 733.4823 5508.7812 5198151
3717.8123 731.90869 5496.9629 4342585
3686.4272 719.42847 5403.2305 4408635
3728.6951 721.41315 5418.1362 4539966
3757.8918 720.85651 5413.9561 4869185
3811.7048 724.99139 5445.0107 5395783
3900.6035 735.67419 5525.2437 5329732
3875.54 724.8642 5444.0557 4869180
3857.7666 715.58496 5374.3643 4408628
3859.2625 710.00262 5332.4385 5855818
3835.3704 699.87811 5256.3989 5592646
3888.2964 703.82159 5286.0161 6842969
3915.4092 703.06702 5280.3486 4473912
3949.708 703.60437 5284.3848 3420969
4026.3938 711.62476 5344.6216 1842194
3983.261 698.50861 5246.1133 3816240
4044.9387 703.83282 5286.1006 4210744
4054.8882 700.14355 5258.3926 3355436
4092.2041 701.19977 5266.3252 3684655
4104.2256 697.9386 5241.832 2434591
4132.1631 697.41266 5237.8818 4342581
4005.3801 670.97595 5039.3306 5132353
3982.8459 662.26483 4973.9062 4408376
4159.5532 686.56818 5156.4351 3750959
4172.9419 683.75653 5135.3184 2500123
4140.0889 673.4635 5058.0132 2434332
4234.231 683.82819 5135.8564 4210745
4246.6104 680.93439 5114.1226 4144694
4202.5142 669.09015 5025.167 3552814
4216.2041 666.54791 5006.0742 2235928
4224.9189 663.26025 4981.3823 3157284
4214.5264 657.03937 4934.6606 3552551
4278.0591 662.34967 4974.5435 4078127
4259.3833 654.94647 4918.9419 4012333
4280.5684 653.73145 4909.8164 5196861
4354.1074 660.47437 4960.459 4144175
4311.769 649.6673 4879.293 4209456
4323.2705 647.06232 4859.7285 3947052
4363.4834 648.76068 4872.4839 3354403
4371.9023 645.74066 4849.8022 2696988
4377.2109 642.30365 4823.9888 1710091
4345.5493 633.52148 4758.0308 2565401
4380.8662 634.55414 4765.7866 3617833
4319.4834 621.65662 4668.9199 3354660
4351.3262 622.25476 4673.4126 3486503
4394.875 624.50885 4690.3418 2828572
4450.1216 628.38635 4719.4639 2236181
4494.7251 630.72198 4737.0054 2038802
4586.311 639.58051 4803.5366 3157539
0 0 0 0
0 0 0 0
0 0 0 0
0 0 0 0
0 0 0 0
0 0 0 0
0 0 0 0
0 0 0 0
0 0 0 0
0 0 0 0
0 0 0 0
0 0 0 0
0 0 0 0
0 0 0 0
0 0 0 0
0 0 0 0
0 0 0 0
0 0 0 0
0 0 0 0
0 0 0 0
0 0 0 0
0 0 0 0
0 0 0 0
0 0 0 0
0 0 0 0
0 0 0 0
0 0 0 0
0 0 0 0
0 0 0 0
0 0 0 0
0 0 0 0
0 0 0 0
0 0 0 0
-7126.1636 1340.0707 9635.8008 19
-6956.1748 1318.6677 9481.9023 19
-6896.9834 1318.0907 9477.7539 18
-6866.3833 1323.0134 9513.1504 18
-6824.5596 1325.8372 9533.4541 18
-6847.0977 1341.316 9644.7559 1777457
-6872.7319 1357.6672 9762.3291 2633278
-7233.6226 1441.0857 10362.151 2436409
0 0 0 0
0 0 0 0
0 0 0 0
0 0 0 0
0 0 0 0
0 0 0 0
0 0 0 0
-6511.4468 1391.698 10007.028 3161680
-6188.458 1334.8185 9598.0342 4871782
-6024.0186 1311.399 9429.6367 263
-6022.165 1323.2667 9514.9717 264
-5947.6523 1319.2422 9486.0332 4
-5911.4209 1323.7131 9518.1816 592139
-5854.6475 1323.626 9517.5547 257
-5869.834 1339.9641 9635.0342 4738384
-5952.4932 1372.177 9866.6621 5069408
-6314.7446 1470.1199 10570.922 2965065
-6622.3525 1557.1761 11196.902 2042684
-6908.3149 1640.8529 11798.581 1910070
-7190.4868 1725.3306 12406.019 1712693
-7288.6348 1766.9412 12705.221 1712955
-7181.939 1759.243 12649.867 2502985
0 0 0 0
-6613.0308 1654.4131 11896.086 3423831
-6599.8872 1668.9104 12000.329 3358040
-6563.4873 1677.7788 12064.097 3227225
-6402.5122 1654.6475 11897.771 3359068
-6358.2744 1661.5062 11947.089 3293275
-6165.3843 1629.2372 11715.058 3359322
-5901.2563 1577.1942 11340.841 3490646
-5690.4165 1538.3584 11061.592 3753303
-5456.252 1492.2388 10729.968 659225
-5151.4785 1425.4932 10250.032 15
-5101.793 1428.584 10272.257 18
-5099.7178 1445.2421 10392.037 17
-5143.9644 1475.5948 10610.29 4541537
-5178.1738 1503.7841 10812.985 3884377
-5172.8301 1521.0488 10937.128 3622232
-5178.9585 1542.168 11088.984 3424597
-5108.8438 1540.8345 11079.396 2964304
-5105.6387 1559.9092 11216.553 2634828
-5048.9087 1562.9177 11238.187 1977409
-5049.8154 1584.0872 11390.405 1846082
-5020.9531 1596.365 11478.689 2304577
-4962.8862 1599.5671 11501.715 2699078
-4949.0786 1617.3223 11629.383 3093576
-4938.0049 1636.4847 11767.171 3489365
-4814.0581 1618.2533 11636.077 4215922
-4827.854 1646.4673 11838.95 5795982
-4805.6548 1663.0565 11958.236 6783134
-4852.5298 1704.4039 12255.546 7572651
-4859.2666 1732.6953 12458.975 8098994
-4731.2344 1713.0627 12317.807 8494524
-4535.6475 1667.9718 11993.58 8691904
-4350.8408 1625.4736 11687.995 9152198
-4198.0576 1593.7579 11459.943 9152197
-4124.3125 1591.4989 11443.7 9283784
-4122.6104 1617.4293 11630.152 9217991
-4087.5769 1630.9419 11727.315 9349576
-4030.4143 1635.9397 11763.252 9283781
-4032.1531 1665.4418 11975.388 9020607
-3897.9121 1638.8298 11784.033 8757691
-3854.9314 1650.3162 11866.626 8955070
-3778.998 1647.8599 11848.964 8164781
-3656.8667 1624.7844 11683.04 7900834
-3573.6499 1618.4424 11637.437 7373718
-3482.1572 1608.0291 11562.56 6386048
-3353.0398 1579.4745 11357.237 7437962
-3231.3733 1553.3318 11169.259 5003621
-3130.0786 1536.0939 11045.31 6385273
-3054.7375 1531.1288 11009.607 6516085
-2994.7715 1533.8214 11028.969 5331291
-2791.2632 1461.4768 10508.773 5396312
-2716.9905 1455.0417 10462.502 5528151
-2686.2786 1472.179 10585.728 6383204
-2721.7468 1527.2717 10981.873 6317412
-2656.583 1527.2114 10981.439 5988449
-2627.8218 1548.6007 11135.239 4672589
-2575.0261 1556.5629 11192.491 2830130
-2504.6335 1554.0278 11174.264 5659742
-2377.0039 1514.8777 10892.754 4080195
-2308.3081 1512.1495 10873.137 3291191
-2179.686 1468.8806 10562.011 4540746
-2058.1838 1427.9939 10268.015 2764845
-2007.1477 1434.9958 10318.362 4870221
-1939.4215 1430.1307 10283.379 5002061
-1934.2258 1472.5553 10588.434 6383457
-1880.0247 1479.2646 10636.678 5593941
-1715.9916 1397.0232 10045.318 5725271
-1704.7072 1437.6958 10337.775 4870220
-1660.2063 1452.3419 10443.089 5923164
-1610.8018 1463.6661 10524.517 5593942
-1563.9047 1478.2726 10629.544 5659736
-1480.8094 1458.453 10487.031 6186080
-1376.1882 1414.7679 10172.913 6975853
-1320.3123 1419.4885 10206.856 6186080
-1226.6115 1382.0442 9937.6123 4870221
-1162.2726 1375.5748 9891.0938 5001806
-1082.1686 1348.7697 9698.3506 4804170
-1046.851 1377.908 9907.8701 6580580
-1009.1514 1407.1865 10118.398 5527892
-952.42316 1411.9534 10152.675 5198927
-903.27179 1429.3527 10277.784 5922393
-832.36444 1412.3517 10155.539 6515556
-751.12567 1373.8055 9878.3721 6778472
-688.9046 1366.4678 9825.6094 6975594
-619.93365 1343.1511 9657.9512 6581093
-544.5636 1299.819 9346.3701 6317665
-498.336 1324.111 9521.042 6778470
-445.68713 1335.3645 9601.9609 5725782
-388.5943 1334.6478 9596.8076 4870474
-329.25198 1324.6357 9524.8154 4673095
-268.57571 1304.005 9376.4697 4541765
-213.16058 1304.8203 9382.333 4410180
-159.97208 1324.6487 9524.9082 5462611
-100.21439 1282.048 9218.5879 5594197
-44.52116 1251.6781 9000.2129 6252127
9.0539465 1288.0707 9261.8945 5396818
62.99559 1269.373 9127.4482 4804681
119.98693 1301.0159 9354.9766 5067596
174.10768 1291.3718 9285.6309 5001549
231.16748 1302.9241 9368.6973 4212033
281.53357 1279.58 9200.8408 4672840
332.81549 1267.296 9112.5137 5593685
371.47482 1217.0851 8751.4707 5264977
418.61954 1203.5692 8654.2852 5856857
464.17133 1188.9229 8548.9697 4738375
513.53131 1185.9529 8527.6143 5067340
555.70648 1168.4084 8401.46 4804169
623.99011 1204.1305 8658.3203 6054237
666.60345 1188.6517 8547.0205 6514789
716.94934 1188.1736 8543.582 6580327
753.74609 1166.7845 8389.7842 6448995
809.72113 1175.8929 8455.2783 5198928
844.86841 1155.4558 8308.3242 6843752
888.5907 1148.3503 8257.2324 4607042
938.03229 1148.9921 8261.8467 6712424
995.80475 1159.2686 8335.7402 5988446
1018.8013 1130.0023 8125.3003 6777963
1049.5618 1111.5995 7992.9751 6120033
1093.458 1108.0974 7967.7925 5001808
1125.248 1093.1244 7860.1294 5067602
1189.2245 1109.3663 7976.9175 6054753
1226.243 1100.1804 7910.8657 6054496
1278.4537 1104.7994 7944.0786 5857117
1343.0015 1119.373 8048.8706 5922397
1390.2755 1119.0437 8046.5024 5001552
1430.1685 1112.9919 8002.9868 6185826
1459.8308 1099.6223 7906.8525 5001295
1517.0256 1107.1782 7961.1831 4935759
1556.3367 1101.6196 7921.2144 4606023
1587.0221 1090.46 7840.9702 4935502
1601.1281 1068.8668 7685.7051 4738123
1671.0358 1084.6895 7799.478 5395796
1694.6348 1070.4099 7696.8008 4474437
1745.8251 1073.8501 7721.5366 4211265
1755.0857 1051.9822 7564.2954 4145730
1799.8762 1051.9692 7564.2021 5132372
1794.2167 1023.1868 7357.2422 2369324
1782.2091 992.23541 7134.6855 10
1762.239 958.38763 6891.3027 10
1793.2906 953.19257 6853.9468 11
1827.647 949.94495 6830.5952 9
1856.6448 944.1134 6788.6631 4935508
1877.7026 934.57703 6720.0923 5921888
1940.1901 945.62927 6799.563 1118741
1956.7599 934.30713 6718.1514 10
2008.0474 939.68292 6756.8057 4
2031.0293 931.86151 6700.5664 13553617
2091.1133 941.03656 6766.5396 13423056
2127.3223 939.32446 6754.2285 13684946
2157.0151 934.85162 6722.0659 13488079
2172.3499 924.43073 6647.1343 13488335
2243.4438 937.68646 6742.4502 6974333
2240.1648 919.93671 6614.8203 4869713
2307.4385 931.27209 6696.3276 5790809
2304.3701 914.31433 6574.3931 5396050
2413.7842 941.80865 6772.0913 4934727
2375.4058 911.68121 6555.459 4014136
2408.7476 909.60651 6540.541 4474688
2455.2739 912.49744 6561.3281 3619379
2488.0427 910.26508 6545.2759 4211516
2475.0154 891.60339 6411.0889 4540481
2466.134 874.97693 6291.5361 5329742
2486.7871 869.16815 6249.7681 5264203
2557.3335 880.71252 6332.7778 6974565
2488.4458 844.59784 6073.0952 7435116
2552.8784 854.1178 6141.5488 7369323
2653.9431 875.45404 6294.9668 6053206
2601.2671 846.18744 6084.5249 6184791
2634.8157 845.38605 6078.7627 5921619
2630.2871 832.55389 5986.4932 3948084
2604.1992 813.3299 5848.2622 5461323
2734.2527 842.73572 6059.7051 5395275
2773.7581 843.83282 6067.5942 6908769
2730.6204 820.08173 5896.812 6777183
2727.7998 808.88629 5816.3105 6250583
2702.1738 791.29187 5689.7974 5790287
2748.6108 794.97351 5716.2705 5790030
2842.8865 812.23346 5840.3784 5592907
2912.0046 821.97693 5910.4395 4869183
2891.3743 806.45648 5798.8394 5987663
2864.8696 789.6814 5678.2173 4934976
2896.9182 789.24811 5675.1021 4606011
2928.3303 788.65338 5670.8252 8093039
3030.4927 806.91028 5802.1021 3421991
3063.7102 806.60608 5799.9146 1250573
3144.5549 818.70874 5886.939 4737593
3100.772 798.45398 5741.2969 3684648
3137.479 799.14026 5746.2314 4210993
3162.9104 796.97058 5730.6304 6053197
3217.437 802.1004 5767.5166 4342580
3187.032 786.17169 5652.9805 3618858
3256.7068 795.00494 5716.4966 3223844
3246.9788 784.47272 5640.7642 3092771
3227.0886 771.72473 5549.0996 3289380
3224.9773 763.44275 5489.5479 5395008
3305.3018 774.64606 5570.1055 4671287
3243.6545 752.68372 5412.1851 6118220
3261.8274 749.49213 5389.2358 6249806
3283.4009 747.13611 5372.2949 7039581
3349.2358 754.80042 5427.4048 8026476
3397.8474 758.4743 5453.8223 4671290
3393.7866 750.43213 5395.9946 6776407
3389.6301 742.51898 5339.0952 4606009
3509.9031 761.75726 5477.4282 4934718
3530.5129 759.21118 5459.1211 4342581
3502.751 746.40381 5367.0293 4934463
3470.4824 732.87518 5269.7515 6513495
3484.6802 729.31274 5244.1357 5329735
3522.335 730.67926 5253.9614 5921873
3519.3469 723.66461 5203.5225 6842975
3574.2991 728.58221 5238.8828 5461320
3602.7498 728.05975 5235.126 6251092
3669.0618 735.13208 5285.9795 4211253
3677.6082 730.6087 5253.4541 4737597
3711.2722 731.10931 5257.0537 5855564
3712.7571 725.31519 5215.3911 4803132
3755.5332 727.61664 5231.9399 5658441
3748.8921 720.38452 5179.937 4605752
3789.5142 722.27814 5193.5532 4408373
3785.6904 715.7381 5146.5269 3947824
3808.0071 714.20532 5135.5054 4408376
3706.1704 689.59595 4958.5513 5527112
3710.8438 685.03589 4925.7622 6250837
3750.2358 686.90613 4939.21 6119251
3938.8481 715.86743 5147.457 5724493
3941.9941 710.93518 5111.9912 6776924
3943.1565 705.72296 5074.5132 5329736
3852.1562 684.21985 4919.8945 5658700
3876.5818 683.38757 4913.9102 6645595
3848.156 673.32025 4841.5205 6777181
3893.6863 676.24628 4862.5605 6974559
3975.1765 685.3291 4927.8701 7040352
3983.4072 681.74133 4902.0723 5987407
4022.4363 683.43842 4914.2754 6513494
4087.5212 689.50629 4957.9067 6710874
4172.6768 698.84906 5025.0859 3355432
4169.6187 693.38995 4985.832 4802877
4165.062 687.76019 4945.3511 5526600
4153.3486 681.03552 4896.9976 5066050
4158.3208 677.12115 4868.8511 3618603
4166.1216 673.71814 4844.3818 4605498
4176.9858 670.85376 4823.7852 3487272
4114.2915 656.29449 4719.0967 5921100
4122.0986 653.10199 4696.1406 5066045
4216.5815 663.59302 4771.5767 4211252
4224.6011 660.42761 4748.8159 3947823
4178.4243 648.88763 4665.8374 5987152
4139.9287 638.68433 4592.4707 7763306
4118.3809 631.21191 4538.7397 4276789
4228.6299 643.90552 4630.0132 1776147
4286.3877 648.4939 4663.0063 2960417
4276.6367 642.87555 4622.6074 4210224
4275.2651 638.5802 4591.7217 6183757
4337.6704 643.80505 4629.291 4802104
4266.3398 629.23969 4524.5586 5262913
4279.0146 627.1687 4509.667 6119249
4406.3223 641.82074 4615.0229 4737085
0 0 0 0
0 0 0 0
0 0 0 0
0 0 0 0
0 0 0 0
0 0 0 0
0 0 0 0
0 0 0 0
0 0 0 0
0 0 0 0
0 0 0 0
0 0 0 0
0 0 0 0
0 0 0 0
0 0 0 0
0 0 0 0
0 0 0 0
0 0 0 0
0 0 0 0
0 0 0 0
0 0 0 0
0 0 0 0
0 0 0 0
0 0 0 0
0 0 0 0
0 0 0 0
0 0 0 0
0 0 0 0
0 0 0 0
0 0 0 0
0 0 0 0
0 0 0 0
-7343.7842 1428.3799 9851.1484 19
-7111.9707 1394.3727 9616.6094 19
-7091.8193 1401.6498 9666.7979 17
-6947.7266 1384.35 9547.4854 17
-6976.5723 1401.5072 9665.8145 16
-6932.1992 1404.1179 9683.8193 14
-6859.0654 1400.8981 9661.6133 5067618
-6746.5693 1389.5171 9583.1221 6845053
-6767.4404 1405.6443 9694.3467 7898513
0 0 0 0
0 0 0 0
0 0 0 0
0 0 0 0
0 0 0 0
-6394.4121 1399.4202 9651.4209 4806756
-6465.6807 1427.7843 9847.04 3622739
-6310.8726 1406.2869 9698.7783 2766402
-6085.5166 1368.5295 9438.376 2568252
-5809.2427 1318.515 9093.4395 263
-5912.9565 1354.6166 9342.4229 263
-5964.2979 1379.2891 9512.582 4
-5848.5493 1365.4229 9416.9502 131846
-5803.8369 1368.0334 9434.9551 526605
-5928.3628 1410.9742 9731.1064 1776677
-5792.626 1392.2065 9601.6709 5531248
-6344.8613 1540.0546 10621.338 3491157
-6534.4443 1601.958 11048.27 3425111
-6583.7065 1630.3656 11244.188 3424857
-6543.9507 1637.0844 11290.526 3556699
-6648.8643 1680.5073 11590.002 3622491
-6596.0566 1684.5562 11617.926 3819872
-6472.5898 1670.4548 11520.673 3885921
-6545.1294 1707.1774 11773.939 3885664
-6502.5679 1714.3457 11823.377 4082272
-6418.2266 1710.5358 11797.1 3884892
-6272.5298 1690.1094 11656.226 3818584
-6108.6318 1664.2695 11478.015 3949909
-5949.6943 1639.2147 11305.219 3620684
-5849.6797 1630.0083 11241.724 3356738
-5647.6191 1591.827 10978.398 2829881
-5416.0137 1544.3319 10650.838 2830398
-5152.876 1486.6199 10252.813 15
-5081.3013 1483.4567 10230.998 17
-5061.5952 1495.5427 10314.352 19
-4994.5142 1493.7554 10302.024 5726327
-5146.3179 1558.1974 10746.464 6781326
-5097.0259 1562.6035 10776.852 7966631
-5066.2163 1572.8595 10847.585 8888247
-5054.5312 1589.3929 10961.61 9151677
-5174.5557 1648.3114 11367.956 9415363
-4976.5112 1606.1295 11077.039 9415364
-4781.5591 1563.8319 10785.323 9217986
-4775.436 1582.9823 10917.398 9086401
-4709.3281 1582.5016 10914.083 9152194
-4629.8315 1577.4454 10879.213 9086402
-4638.6147 1602.7498 11053.729 9283524
-4608.3911 1615.1078 11138.959 9349060
-4554.2949 1619.3365 11168.124 9480643
-4481.8784 1617.0801 11152.562 9480128
-4468.4712 1636.3655 11285.568 9282234
-4412.083 1640.2579 11312.413 9084342
-4389.0117 1656.8474 11426.826 7702428
-4317.7725 1655.4888 11417.456 7505045
-4248.9746 1655.0374 11414.344 7109255
-4173.4702 1651.917 11392.823 6845565
-4196.313 1688.2614 11643.479 5792613
-4134.8511 1691.3358 11664.685 6055269
-4195.5767 1745.3446 12037.168 7304823
-3901.7781 1651.1902 11387.811 6646377
-3924.9507 1690.2216 11656.999 6383205
-3812.4836 1671.1937 11525.769 6514533
-3693.2034 1648.4305 11368.778 6382947
-3605.9758 1639.3943 11306.457 6975597
-3494.3005 1618.6906 11163.669 6251617
-3383.1626 1597.4419 11017.123 6975338
-3259.6167 1569.3833 10823.61 6383202
-3134.1204 1539.2406 10615.725 5462614
-3004.1021 1505.5973 10383.695 6383460
-2970.9751 1520.1224 10483.871 5659737
-2949.8518 1541.5408 10631.588 1514007
-2856.1394 1525.1322 10518.423 2764330
-2707.9451 1478.2504 10195.092 4936012
-2631.741 1469.425 10134.226 5133132
-2589.8635 1479.8014 10205.788 5461841
-2587.3521 1513.7045 10439.608 5659218
-2534.7532 1519.2472 10477.835 6515039
-2536.1067 1558.2174 10746.602 6449248
-2454.9937 1547.2211 10670.764 6449503
-2330.5659 1507.6239 10397.672 6120026
-2203.8044 1464.3259 10099.058 5857109
-2108.5945 1440.1609 9932.3984 5725523
-2073.9512 1457.1628 10049.656 5857365
-2073.5591 1499.9458 10344.719 6711908
-1952.527 1455.4102 10037.568 6514784
-1893.5883 1455.8146 10040.357 6580835
-1882.3125 1494.0775 10304.247 5001546
-1785.1259 1464.4286 10099.766 5264975
-1723.0697 1462.5417 10086.753 5856855
-1653.2721 1453.7124 10025.859 5988442
-1606.9028 1465.593 10107.797 5593683
-1526.2914 1445.9536 9972.3496 5659734
-1489.282 1467.703 10122.349 5791062
-1420.5199 1458.6716 10060.062 6185563
-1376.5044 1475.3737 10175.251 5791062
-1282.4618 1437.5292 9914.248 5725522
-1200.7123 1410.4927 9727.7852 5001541
-1125.124 1388.333 9574.9551 5658959
-1071.0991 1391.8406 9599.1465 5987926
-1014.6922 1392.4728 9603.5059 5264460
-946.61517 1376.2134 9491.3701 4737860
-890.25281 1376.0074 9489.9492 4804168
-843.05359 1390.891 9592.5977 5659476
-785.10645 1388.9125 9578.9521 5527634
-721.76172 1376.3329 9492.1943 4803911
-652.96472 1350.3521 9313.0107 5001547
-585.302 1322.1376 9118.4238 4672582
-516.95026 1286.4711 8872.4414 6317407
-469.06143 1299.418 8961.7324 7238510
-420.4552 1313.4285 9058.3594 6119771
-367.94788 1317.5697 9086.9199 5922649
-306.1571 1284.1902 8856.7109 6119771
-249.93306 1265.1826 8725.6211 6317406
-200.81375 1281.6053 8838.8838 5659220
-148.95679 1285.9788 8869.0459 6054235
-93.547058 1247.7321 8605.2686 5725269
-41.86932 1227.2672 8464.1289 6646115
8.2167387 1218.7603 8405.458 6053978
58.246929 1223.6837 8439.4141 6843751
106.32718 1202.0151 8289.9717 6777702
160.51926 1241.3022 8560.9238 6646372
210.44809 1236.6715 8528.9873 6843753
255.89151 1212.5791 8362.8291 5790551
304.28528 1208.0155 8331.3545 5461073
349.07245 1192.4059 8223.6992 5132365
388.71555 1165.2002 8036.0688 5329487
435.37762 1162.6754 8018.6562 5066572
486.58646 1171.5951 8080.1729 5066572
525.04932 1150.9761 7937.9692 6053467
586.18689 1179.3669 8133.7734 5197901
641.55939 1192.7267 8225.9121 3224368
680.35876 1175.5643 8107.5474 5329489
722.17627 1165.5364 8038.3872 5790038
770.7486 1166.9764 8048.3188 5922137
801.33698 1142.6057 7880.2412 4343362
860.75739 1159.7661 7998.5918 3553844
917.5672 1171.8018 8081.5981 4869190
935.08069 1134.948 7827.4277 5461330
968.13397 1119.5469 7721.2104 5790295
1038.2069 1146.4133 7906.5015 4606279
1063.8417 1124.009 7751.9849 5395794
1105.0869 1119.2697 7719.2988 4408643
1165.6567 1133.7018 7818.833 5987675
1234.5537 1154.8201 7964.4805 5461074
1254.0808 1129.9023 7792.6294 4145471
1319.9263 1147.0044 7910.5771 2303266
1346.2008 1129.7256 7791.4106 4540229
1381.0438 1120.5448 7728.0933 4869194
1401.2476 1100.4564 7589.5488 4408645
1438.8678 1094.8698 7551.0195 4671817
1491.4496 1100.6614 7590.9624 4803403
1541.1294 1104.0349 7614.229 4672073
1583.2875 1101.9816 7600.0669 4737867
1616.1682 1093.7629 7543.3862 4935245
1609.4991 1059.9412 7310.1265 3948606
1627.0698 1043.4366 7196.2993 3947838
1640.6655 1025.2909 7071.1528 131846
1645.1464 1002.4943 6913.9312 5
1697.5208 1009.2811 6960.7373 7
1723.9667 1000.6955 6901.5249 263436
1755.8418 995.58606 6866.2866 328972
1782.9865 988.08649 6814.564 5
1783.2184 966.33496 6664.5498 2
1829.637 970.01233 6689.9116 7698553
1892.1914 981.9071 6771.9463 394760
1922.9048 977.12793 6738.9854 4
1950.5376 971.0094 6696.7881 395020
1988.6691 970.2572 6691.6001 65797
2003.3695 958.32587 6609.3135 13225681
2072.2715 972.28284 6705.5703 12896461
2102.2368 967.78967 6674.5825 13027789
2141.6665 967.73901 6674.2334 12962508
2170.5474 963.01007 6641.6191 12040899
2136.6619 931.09766 6421.5278 5198179
2208.1829 945.43146 6520.3838 4014399
2144.8691 902.53552 6224.542 5724503
2232.1782 923.39844 6368.4282 5921623
2267.592 922.45709 6361.936 6053208
2326.0559 930.7699 6419.2671 5856086
2412.3101 949.75677 6550.2144 4145467
2426.8118 940.33972 6485.2676 3619380
2383.873 909.30615 6271.2373 4079930
2436.9902 915.30237 6312.5918 4145723
2373.6738 878.04736 6055.6538 5001032
2373.5117 864.91528 5965.0854 3355948
2436.3223 874.7793 6033.1152 3487534
2465.0325 872.29114 6015.9551 4079672
2468.5195 861.07556 5938.604 6711135
2510.7261 863.49152 5955.2661 6645596
2547.4941 863.99609 5958.7461 5855824
2456.2969 821.67993 5666.9028 5790033
2624.4509 866.09326 5973.21 6053205
2579.7861 840.02698 5793.438 5066309
2547.7913 818.71661 5646.4658 5987412
2584.4263 819.7265 5653.4312 6711389
2635.7532 825.31091 5691.9453 7040353
2642.2717 816.90106 5633.9448 6447959
2675.9067 816.97986 5634.4883 6316627
2712.6218 817.9856 5641.4243 7566693
2716.3975 809.15491 5580.5215 6514008
2762.7378 813.06311 5607.4756 7237731
2761.9585 803.17621 5539.2881 4606010
2751.0452 790.60901 5452.6157 7106144
2736.1736 777.20923 5360.2007 6119251
2851.7366 800.74176 5522.4985 6711388
2882.3396 800.15509 5518.4521 6579803
2879.063 790.28168 5450.3584 8355957
2901.1096 787.50146 5431.1836 7040354
2962.0647 795.22784 5484.4707 5461319
2968.3931 788.28015 5436.5542 5461318
3067.3704 805.82111 5557.5293 3816234
3159.6135 821.23914 5663.8633 5132347
3161.5178 813.0993 5607.7251 4671541
3131.2554 796.94183 5496.2915 5724230
3091.8484 778.81366 5371.2661 5724233
3146.7427 784.56659 5410.9424 6053198
3118.6553 769.72247 5308.5669 5658441
3110.8064 760.12 5242.3413 5066303
3199.9197 774.16583 5339.2114 5000511
3217.4666 770.79181 5315.9419 5592134
3247.2087 770.37653 5313.0776 7236701
3232.5251 759.5307 5238.2769 5723462
3284.3789 764.37628 5271.6958 4341552
3316.7737 764.64465 5273.5464 5263169
3346.4277 764.28204 5271.0459 4539958
3330.2549 753.5567 5197.0757 5987406
3345.4983 750.07135 5173.0386 6184785
3390.25 753.20514 5194.6514 4671546
3399.5068 748.46771 5161.9785 4342581
3360.1008 733.19611 5056.6543 5921613
3442.5354 744.5459 5134.9307 5461062
3443.9983 738.33789 5092.1157 5395270
3394.76 721.46259 4975.7314 4868927
3451.3154 727.1676 5015.0776 5264200
3435.8242 717.72534 4949.9565 6645593
3476.4895 720.07428 4966.1567 6053457
3520.4443 723.05945 4986.7446 6711386
3545.3979 722.12476 4980.2983 4211252
3596.751 726.53809 5010.7358 5724234
3647.8489 730.82812 5040.3232 5065788
3712.8318 737.80768 5088.459 5394753
3675.2729 724.46198 4996.4175 4868923
3665.2554 716.71509 4942.9893 5921612
3659.8345 709.98267 4896.5576 5197888
3614.0032 695.57849 4797.2158 6514004
3641.8188 695.46313 4796.4204 6579542
3809.5303 721.85809 4978.459 6908506
3746.4751 704.45593 4858.4414 4934717
3730.396 696.08484 4800.708 4737080
3759.3176 696.17395 4801.3228 4671542
3822.5659 702.5708 4845.4399 5724230
3804.47 694.03302 4786.5571 5592647
3902.1265 706.5816 4873.1011 4144945
3894.48 700.01801 4827.834 4342581
3884.5984 693.15125 4780.4761 7105632
3918.3013 694.10474 4787.0518 6381651
3937.1272 692.42798 4775.4878 5394757
4029.23 703.57062 4852.3354 5066049
3983.7566 690.70245 4763.5869 5263173
4007.144 689.87042 4757.8486 6513496
4028.4124 688.68762 4749.6914 5329223
4019.0024 682.31305 4705.7275 7105889
4075.1782 687.08411 4738.6323 7302756
4068.6279 681.2865 4698.6479 5790027
4047.1353 673.0827 4642.0684 5329476
4082.6279 674.40283 4651.1733 5986892
4039.5684 662.81641 4571.2646 5395525
4129.0928 672.9939 4641.4561 4802878
4039.4204 654.02301 4510.6191 4671294
4020.1919 646.63202 4459.6455 3223850
4042.76 646.0166 4455.4009 5790033
4042.2429 641.74402 4425.9341 6579549
4114.5508 649.01379 4476.0718 6053204
4118.0044 645.39911 4451.1421 5329481
4133.6187 643.72412 4439.5903 5000259
4153.6094 642.74768 4432.856 3421228
4213.061 647.85138 4468.0552 3947572
4280.5254 654.11584 4511.2593 4671551
4247.9116 645.10437 4449.1094 5658446
0 0 0 0
0 0 0 0
0 0 0 0
0 0 0 0
0 0 0 0
0 0 0 0
0 0 0 0
0 0 0 0
0 0 0 0
0 0 0 0
0 0 0 0
0 0 0 0
0 0 0 0
0 0 0 0
0 0 0 0
0 0 0 0
0 0 0 0
0 0 0 0
0 0 0 0
0 0 0 0
0 0 0 0
0 0 0 0
0 0 0 0
0 0 0 0
0 0 0 0
0 0 0 0
0 0 0 0
0 0 0 0
0 0 0 0
0 0 0 0
0 0 0 0
0 0 0 0
-7035.2451 1424.277 9437.2656 18
-6846.4771 1397.1643 9257.6172 15
-6998.4951 1439.7196 9539.5889 5329509
-6951.2012 1441.632 9552.2598 11
-7016.0913 1467.033 9720.5664 15
-6999.1489 1475.6017 9777.3438 10
-6744.3667 1433.7523 9500.0498 4015188
-7223.2949 1548.4874 10260.284 3752273
-7100.2583 1535.0288 10171.107 3358541
0 0 0 0
-6913.1626 1520.3851 10074.079 3556179
-6818.2876 1512.5778 10022.347 3753304
-6728.8745 1505.8556 9977.8057 3753305
-6667.4634 1505.3359 9974.3633 3753562
-6532.0498 1487.9502 9859.165 3687769
-6540.3989 1503.2943 9960.835 3753562
-6377.9346 1479.2991 9801.8418 3753302
-6271.2939 1467.9297 9726.5088 3818836
-5847.6592 1381.462 9153.5742 791317
-5724.1348 1364.9381 9044.0859 331282
-5801.0781 1396.3557 9252.2598 268
-5818.5044 1413.9099 9368.5732 1249320
-5878.6045 1442.2719 9556.5 1971512
-5861.625 1452.0907 9621.5596 3087169
-5787.4131 1447.785 9593.0303 3084854
-6004.0908 1516.8848 10050.886 7034217
-6291.6743 1605.4622 10637.8 2499378
-6318.9116 1628.7266 10791.95 2499633
-6306.5269 1642.1494 10880.89 1842475
-6310.1177 1660.0525 10999.515 2236717
-6246.7456 1660.5286 11002.67 2502726
-6206.4521 1667.2142 11046.97 3293273
-6206.1206 1684.8918 11164.101 4412527
-6171.3022 1693.4866 11221.049 5268352
-6209.4487 1722.5089 11413.352 6387860
-6242.7524 1750.8121 11600.89 7177891
-6177.6812 1751.8486 11607.758 7836335
-6000.8115 1720.8481 11402.348 8494779
-5822.4146 1688.6989 11189.326 8889792
-5535.3936 1623.9415 10760.243 9219267
-5042.6748 1496.6259 9916.6494 9810887
-5233.0562 1571.4371 10412.35 66576
-5060.8623 1537.8566 10189.845 22
-5024.9863 1545.3884 10239.751 19
-4743.8901 1476.7678 9785.0703 9742780
-5135.7378 1618.5277 10724.371 9545661
-5106.4956 1629.4697 10796.874 9348798
-5049.3057 1631.6586 10811.377 8953784
-5033.041 1647.2983 10915.006 8625330
-4950.7749 1641.4618 10876.333 8031906
-4940.1372 1659.5334 10996.076 8426661
-4887.9131 1663.9313 11025.217 7702677
-4827.6934 1665.6897 11036.867 8030871
-4807.8667 1681.6244 11142.45 7504010
-4775.4673 1693.5439 11221.43 4871260
-4997.1172 1797.1664 11908.033 4673620
-4884.1655 1781.6974 11805.534 6712689
-4687.0947 1734.647 11493.778 6449260
-4544.0723 1706.5071 11307.323 6383465
-4429.6934 1688.443 11187.631 6778479
-4314.6846 1669.5865 11062.688 7041393
-4323.7134 1698.8851 11256.821 5001551
-4183.3721 1669.4919 11062.061 5593176
-4092.6929 1659.2972 10994.512 3619386
-3987.2053 1642.6724 10884.354 2303782
-3919.8806 1641.4817 10876.465 4080448
-3853.4629 1640.6372 10870.87 4014910
-3736.3579 1617.8171 10719.664 1119761
-3628.0779 1598.095 10588.984 2567208
-3665.615 1643.0382 10886.779 5791064
-3666.5691 1672.9004 11084.646 4540998
-3609.7263 1677.0004 11111.812 6251616
-3516.1819 1663.885 11024.91 6975338
-3446.0583 1661.566 11009.544 6909545
-3281.4783 1612.7355 10685.992 5922908
-3132.158 1569.631 10400.382 6843753
-3077.0063 1572.9347 10422.271 6383202
-2940.5872 1533.9795 10164.155 6514788
-2885.616 1536.7721 10182.659 7567474
-2730.6016 1485.267 9841.3857 6317407
-2674.1541 1486.2981 9848.2178 5988443
-2589.8445 1471.5441 9750.457 5791062
-2523.8987 1466.7889 9718.9502 5987669
-2496.3267 1484.6339 9837.1914 6316890
-2441.0618 1486.4686 9849.3477 4803648
-2391.0767 1491.6869 9883.9238 6711646
-2347.7715 1501.4391 9948.542 4671806
-2308.7783 1514.5222 10035.231 6382680
-2184.2595 1470.7106 9744.9346 5987924
-2157.0486 1491.8185 9884.7959 5395532
-2058.9368 1463.7008 9698.4883 3817526
-1989.989 1455.2969 9642.8037 4804421
-1976.5096 1488.1595 9860.5518 6186074
-1928.9823 1496.6077 9916.5293 5857109
-1853.673 1483.3547 9828.7148 5791062
-1785.8961 1475.4653 9776.4395 7106666
-1726.5419 1474.2386 9768.3125 6448992
-1687.3942 1490.7793 9877.9102 4475202
-1623.4453 1485.8098 9844.9824 5264718
-1552.3613 1473.6962 9764.7178 4475202
-1486.9106 1466.2 9715.0469 1514518
-1392.5651 1428.4602 9464.9834 4409153
-1332.8514 1424.5686 9439.1982 4870215
-1269.666 1416.4631 9385.4912 5133131
-1192.6146 1391.4376 9219.6719 4804167
-1132.2428 1384.4041 9173.0674 5330254
-1079.4777 1386.4312 9186.499 6185306
-1012.8654 1369.9442 9077.2568 4408895
-949.98798 1356.9437 8991.1152 5593169
-887.92181 1343.6262 8902.873 5724755
-834.30237 1342.2157 8893.5273 5593683
-782.67627 1344.0378 8905.6006 5396304
-742.6358 1367.4568 9060.7754 4606788
-663.85748 1317.6373 8730.6709 6317406
-611.49774 1316.2656 8721.582 5396305
-553.39203 1301.1309 8621.2988 4672582
-486.03876 1258.9646 8341.9053 6317407
-444.17447 1280.7493 8486.25 6514786
-400.28378 1301.5057 8623.7832 5133133
-343.86298 1281.634 8492.1133 4869961
-284.85056 1243.6366 8240.3418 5001547
-235.36714 1240.1288 8217.0986 6120028
-183.01726 1215.75 8055.5649 4277824
-137.88153 1238.999 8209.6133 4540996
-90.38958 1254.8763 8314.8164 5659476
-40.278408 1228.8727 8142.5161 5791063
