# .PCD v0.7 - Point Cloud Data file format
VERSION 0.7
FIELDS x y z rgb
SIZE 4 4 4 4
TYPE F F F U
COUNT 1 1 1 1
WIDTH 1265
HEIGHT 1
VIEWPOINT 0 0 0 1 0 0 0
POINTS 1265
DATA ascii
-252.12253 1245.7043 3595.9368 5594728
-229.55043 1238.8561 3576.168 6845563
-205.92986 1224.381 3534.3835 7042685
-188.14993 1245.2864 3594.7302 7766665
-166.46277 1242.3669 3586.3027 9806507
-141.61107 1211.5198 3497.2573 9609386
-120.22197 1204.7999 3477.8591 8294296
-100.95666 1220.9857 3524.5823 8754847
-81.540932 1243.319 3589.0508 10004914
-59.766853 1232.7639 3558.582 9281703
-38.853264 1238.1257 3574.0598 9676205
-17.833906 1248.9232 3605.2285 10136500
3.5484214 1257.4771 3629.9207 10202294
24.997238 1254.6836 3621.8567 10399672
45.967701 1241.5507 3583.9465 9938609
68.04808 1257.223 3629.1873 9938869
87.471359 1228.0647 3545.0171 10070712
109.52977 1240.0308 3579.5588 10464958
131.54674 1247.7217 3601.76 9939385
152.2451 1242.5044 3586.6995 10070972
173.14517 1240.0095 3579.4978 10267836
193.97331 1237.6003 3572.543 10399678
215.57808 1240.1327 3579.8533 10136248
235.15404 1231.5858 3555.1814 9807282
256.43842 1232.6561 3558.271 9477546
276.50931 1228.1741 3545.3325 10201268
293.51657 1211.6776 3497.7129 9741487
321.68237 1240.3832 3580.5764 10267575
343.13879 1241.267 3583.1274 10136243
362.819 1235.9966 3567.9138 10070450
385.74353 1241.7505 3584.5232 9807278
402.10941 1226.8925 3541.6331 10069937
422.2229 1224.3756 3534.3677 10267060
438.42944 1211.3024 3496.6296 10266801
463.18423 1221.9604 3527.396 10266286
481.51163 1215.4738 3508.6711 10069163
503.37756 1218.0867 3516.2136 9147803
531.58026 1235.2164 3565.6616 8950420
553.88226 1237.8495 3573.2625 9542557
564.08618 1214.2466 3505.1287 8818575
575.53052 1194.895 3449.2671 10199971
606.0025 1215.0206 3507.3628 9805729
625.94977 1213.4093 3502.7117 9805472
654.10315 1227.2987 3542.8059 8358796
675.77893 1228.5485 3546.4133 8161416
704.19183 1241.6013 3584.0928 8424588
715.39612 1224.4366 3534.5439 7766145
728.23499 1210.9664 3495.6599 7963013
740.52686 1197.3567 3456.373 8752788
768.95557 1209.8689 3492.4917 10068392
787.50323 1206.5859 3483.0149 10265514
801.02936 1195.9733 3452.3796 10594481
817.77307 1190.5736 3436.7925 10199465
838.63513 1191.2861 3438.8496 9869986
860.85736 1193.8514 3446.2546 9606815
888.89868 1204.1809 3476.0723 8685197
917.4317 1214.6935 3506.4189 11185075
940.01514 1217.0377 3513.1858 7040369
955.2749 1210.0038 3492.8811 8225412
972.61737 1205.8503 3480.8914 8489353
991.89191 1204.2148 3476.1704 8292230
1014.7014 1206.8505 3483.7783 7436921
1028.7722 1199.1943 3461.678 6319208
1070.9077 1223.9122 3533.03 5594459
1090.7047 1222.6417 3529.3625 5068372
1117.3251 1228.9238 3547.4968 4080450
1120.3846 1209.5383 3491.5376 3554619
1131.0983 1198.969 3461.0271 3948091
1147.9669 1195.1842 3450.1018 5263953
1155.8236 1182.3132 3412.9478 3685175
1187.3813 1193.7125 3445.8535 7042158
1206.8105 1192.739 3443.0435 4673098
1231.2283 1196.6466 3454.3232 2501674
1256.0469 1200.8094 3466.3401 3685692
1273.1102 1197.5436 3456.9124 4014403
1306.3829 1209.3867 3491.0999 1184531
1318.618 1201.689 3468.8789 5329756
1319.4994 1184.0391 3417.9294 3093053
1321.3214 1167.754 3370.9199 4211019
1378.1595 1199.8522 3463.5767 1841692
1389.1354 1191.6655 3439.9446 1315345
1410.3572 1192.3781 3442.0015 131586
1426.0054 1188.4253 3430.5908 460292
1431.9526 1176.6124 3396.4912 2038556
1439.9869 1166.8182 3368.2185 1052431
1477.6169 1180.9452 3408.9985 1841690
1492.0399 1176.3937 3395.8599 1445905
1501.0343 1167.7401 3370.8799 2037786
1522.235 1168.6849 3373.6074 2038043
1557.9808 1180.6277 3408.082 328708
1599.2233 1196.3767 3453.5444 2894125
1616.5187 1194.0397 3446.7979 1973791
1625.9767 1186.0438 3423.7166 3289650
1640.4236 1181.8395 3411.5798 1907736
1665.8182 1185.5284 3422.229 2565667
1649.2264 1159.6074 3347.4033 2236443
1696.8799 1178.9376 3403.2031 3552305
1725.4783 1184.7306 3419.9255 2893862
1757.1072 1192.4458 3442.1968 3354415
1779.3799 1193.707 3445.8379 2367776
1784.3701 1183.4775 3416.3083 1973275
1780.0834 1167.3932 3369.8784 460034
1795.1849 1164.2399 3360.7756 1907478
1848.4889 1185.6595 3422.6072 657154
1860.155 1180.1965 3406.8376 2170131
1872.2958 1175.149 3392.2668 1249548
1901.2284 1180.6361 3408.1062 2433304
1925.9395 1183.4138 3416.1245 722948
1946.7712 1183.7749 3417.167 4012338
1929.818 1161.3892 3352.5466 5525320
1962.1263 1168.8036 3373.95 4143666
1978.8071 1166.8534 3368.3201 2564632
2031.0974 1185.7306 3422.8123 2564120
2011.3131 1162.5741 3355.9673 4406840
2066.1929 1182.6057 3413.792 2169623
2065.2529 1170.6097 3379.1633 2103830
2056.8296 1154.6432 3333.0732 2959141
2092.3037 1163.3884 3358.3179 2103831
2107.7727 1160.9504 3351.2803 3024674
2130.7009 1162.6281 3356.1228 1051142
2163.8708 1169.8114 3376.8589 1840397
2180.7798 1168.153 3372.0713 1906189
2185.2087 1159.9 3348.248 2958879
2205.6743 1160.2312 3349.2041 1840142
2253.0928 1174.608 3390.7051 655873
2241.9287 1158.4597 3344.0906 524544
2284.7605 1170.251 3378.1277 1577228
2300.3345 1167.9971 3371.6213 1379591
2303.8904 1159.7324 3347.7642 2300947
2297.9917 1146.8901 3310.6929 4142892
2379.719 1177.6278 3399.4224 4340528
2414.8838 1185.0011 3420.7068 3419429
2401.9392 1168.8407 3374.0566 4538424
2413.0876 1164.5742 3361.741 2301719
2422.3162 1159.4587 3346.9741 4406583
2454.749 1165.443 3364.249 2761758
2457.344 1157.2791 3340.6819 1774865
2469.9558 1153.9248 3330.9998 1183243
2506.1445 1161.5515 3353.0154 590849
2527.6545 1162.3085 3355.2004 327936
2550.0466 1163.4559 3358.5127 1379851
2574.259 1165.4097 3364.1528 985093
2572.6514 1155.7343 3336.2229 2037777
2598.7896 1158.5758 3344.4253 1116676
2618.3733 1158.4742 3344.1321 1906190
2631.3774 1155.4851 3335.5034 2103569
2646.0579 1153.271 3329.1123 2432533
2679.4021 1159.1641 3346.1235 2103569
2700.2407 1159.6001 3347.3823 1051141
2708.5784 1154.7004 3333.2388 262144
2730.543 1155.639 3335.9482 327680
2749.5947 1155.3403 3335.0859 459264
2768.4119 1154.9479 3333.9529 1905678
2772.623 1148.5107 3315.3711 2102799
2787.1519 1146.4081 3309.301 1116418
2800.2661 1143.757 3301.6482 655872
2820.2563 1143.9314 3302.1521 1050625
2835.5635 1142.2173 3297.2039 1708551
2847.3115 1139.1027 3288.2129 1971465
2857.0537 1135.2334 3277.0437 2431762
2884.8542 1138.5432 3286.5979 1642502
2917.8149 1143.8315 3301.8638 1905161
2926.469 1139.5844 3289.6035 2234639
2963.6792 1146.4397 3309.3926 1839625
2924.4463 1123.8287 3244.1223 1379075
2944.9155 1124.3062 3245.5002 1774089
2993.6499 1135.4984 3277.8086 1905674
2975.2275 1121.2377 3236.6426 1774091
2970.5337 1112.3002 3210.8433 1708299
3024.1467 1125.1703 3247.9949 1577227
3011.6257 1113.4274 3214.0969 590336
3081.3423 1132.0448 3267.8394 131072
3048.0193 1112.8109 3212.3174 328192
3071.3877 1114.3848 3216.8606 788226
0 0 0 0
0 0 0 0
0 0 0 0
0 0 0 0
0 0 0 0
0 0 0 0
-3375.5542 1322.2352 3752.6804 2894359
-3383.4629 1334.1199 3786.4106 5065271
-3403.355 1350.9197 3834.0906 4276266
-3359.7368 1342.5662 3810.3823 3683872
-3312.3149 1332.5695 3782.0105 2762257
-3283.2637 1329.8776 3774.3706 6117953
-3283.5525 1339.1144 3800.5859 7499862
-3248.0244 1333.7711 3785.4209 7500375
-3228.5442 1334.989 3788.8774 8092773
-3220.9028 1341.1537 3806.3735 8093029
-3205.3064 1344.0692 3814.6482 7566426
-3143.7251 1327.6069 3767.926 7368790
-3114.5786 1324.7043 3759.688 7960927
-3101.0344 1328.4437 3770.3008 8948080
-3093.6577 1334.8984 3788.6206 9013615
-3101.5483 1348.0837 3826.042 8684394
-3092.4216 1354.0121 3842.8674 8618858
-3101.1677 1367.912 3882.3171 9539959
-3072.5923 1365.4341 3875.2847 8487271
-3058.2634 1369.2979 3886.2502 5526586
-2996.1279 1351.6528 3836.1716 4934449
-2925.696 1329.9668 3774.6238 5920574
-2880.5781 1319.5425 3745.0383 7302736
-2851.886 1316.5393 3736.5146 6447685
-2817.9614 1311.0546 3720.9485 6117692
-2748.8435 1288.9807 3658.2998 6446657
-2749.4873 1299.5284 3688.2356 7696467
-2750.2483 1310.301 3718.8096 6775620
-2763.0022 1327.0074 3766.2246 9144426
-2739.7468 1326.5507 3764.9282 10131321
-2699.2544 1317.6719 3739.729 9671286
-2670.845 1314.5935 3730.9922 9868665
-2677.0452 1328.6406 3770.8599 8355428
-2622.9814 1312.7631 3725.7974 7236949
-2613.5896 1319.1635 3743.9624 6184518
-2600.0137 1323.5435 3756.3933 5986625
-2596.0874 1332.9537 3783.1008 6052932
-2590.3579 1341.5938 3807.6226 6052677
-2544.0771 1329.199 3772.4446 6907990
-2521.5139 1329.0859 3772.1238 7960675
-2498.7573 1328.868 3771.5054 7697502
-2439.6948 1309.1642 3715.5833 8421483
-2447.8535 1325.5016 3761.9507 8948597
-2431.9771 1329.0044 3771.8923 8290153
-2397.0454 1322.0627 3752.1909 9145719
-2381.6006 1325.8394 3762.9094 7829860
-2365.6399 1329.3975 3773.0078 7632225
-2326.4172 1319.8264 3745.844 7434847
-2309.1638 1322.6547 3753.8711 7698020
-2307.7578 1334.7035 3788.0674 7040088
-2262.4578 1321.3533 3750.1775 6053195
-2259.1238 1332.4908 3781.7874 5131324
-2237.0247 1332.6727 3782.3035 2368026
-2212.4719 1331.3816 3778.6389 3749932
-2190.5649 1331.6725 3779.4646 3683623
-2146.5481 1318.3898 3741.7664 4473140
-2128.9346 1321.2157 3749.7869 5262913
-2097.1938 1315.2413 3732.8311 2828574
-2085.259 1321.6934 3751.1423 3025697
-2074.6482 1329.1323 3772.2556 5262664
-2040.3483 1321.3918 3750.2869 4604735
-2015.2335 1319.4949 3744.9028 4472892
-1984.9302 1314.1206 3729.6499 2170649
-1962.1643 1313.6715 3728.3755 854536
-1936.5588 1311.2897 3721.6155 262917
-1914.2382 1311.1027 3721.0847 593173
-1878.9983 1301.9596 3695.1355 2105897
-1871.033 1311.7224 3722.8438 2434080
-1848.3423 1311.2712 3721.5635 394498
-1844.7207 1324.501 3759.1111 1446159
-1815.2726 1319.2839 3744.3044 197637
-1796.9563 1322.1284 3752.3772 1775381
-1770.1383 1318.7103 3742.6763 1907737
-1725.8247 1302.0065 3695.2686 4408126
-1715.0193 1310.4778 3719.311 2829090
-1704.6337 1319.4944 3744.9016 3158054
-1688.8464 1324.5123 3759.1431 1973272
-1661.8375 1320.7461 3748.4541 1973272
-1636.2891 1318.0542 3740.8142 1776405
-1606.6246 1311.9276 3723.426 2565665
-1573.8759 1303.0765 3698.3054 1447188
-1565.2053 1314.1925 3729.854 329222
-1544.8354 1315.663 3734.0273 329481
-1502.5699 1298.2577 3684.6292 2434602
-1477.3223 1295.26 3676.1213 329480
-1466.1943 1304.7375 3703.0195 132100
-1442.2347 1302.9108 3697.835 659472
-1428.6697 1310.5629 3719.5527 1184790
-1408.905 1312.6787 3725.5576 1975076
-1387.8584 1313.6483 3728.3096 2501421
-1357.4325 1305.6281 3705.5469 2304558
-1328.5811 1298.8832 3686.4043 1053976
-1313.4542 1305.5552 3705.3401 4936019
-1293.6699 1307.7456 3711.5571 5397340
-1272.9393 1309.0388 3715.2273 6055528
-1233.3916 1290.6863 3663.1404 6252908
-1201.2207 1279.5341 3631.4888 7042170
-1176.3116 1275.8513 3621.0369 7503489
-1152.522 1273.2687 3613.7068 5727081
-1140.0005 1283.2726 3642.0991 8161424
-1121.8636 1287.2192 3653.3003 6714237
-1097.1227 1283.5948 3643.0139 7767184
-1075.8381 1283.9498 3644.0215 7964821
-1055.0051 1284.8693 3646.6309 7241357
-1041.4926 1294.9291 3675.1819 8162459
-1019.1266 1294.1754 3673.0432 8425631
-994.6463 1290.6456 3663.0249 8096922
-965.77124 1281.1284 3636.0139 7834005
-942.70667 1279.0607 3630.1455 8359836
-917.73065 1274.2424 3616.4707 8162198
-892.40942 1268.703 3600.7488 8886433
-872.27917 1270.4528 3605.7151 9742000
-846.92572 1264.4919 3588.7974 9808561
-826.24933 1265.3871 3591.3381 10268599
-803.5354 1263.1266 3584.9224 10137271
-784.34534 1266.4331 3594.3064 10071222
-769.62109 1277.3361 3625.2505 10202809
-750.87335 1281.9954 3638.4744 10268604
-726.99493 1277.9116 3626.884 10070969
-701.40637 1270.4813 3605.7959 10005431
-678.04669 1266.7485 3595.2017 10399163
-645.28125 1244.6313 3532.4302 10464955
-616.22205 1228.4199 3486.4199 10333626
-584.92303 1206.4641 3424.1067 10005691
-567.14819 1211.828 3439.3298 10005691
-574.53406 1273.3558 3613.9543 9874365
-552.3996 1271.688 3609.2205 9809343
-528.86023 1266.5211 3594.5562 9677757
-506.41916 1263.661 3586.4392 9808573
-467.10394 1216.6012 3452.8767 9808573
-452.33902 1232.1016 3496.8691 9808316
-428.47726 1223.1226 3471.3853 9742780
-406.54874 1219.0348 3459.7839 9808571
-386.62836 1220.8541 3464.9473 10202815
-365.96756 1220.4083 3463.6824 9807285
-355.61188 1256.3158 3565.5925 9215916
-334.20432 1255.2485 3562.5632 9544625
-302.96164 1214.6072 3447.2178 9478832
-284.57242 1223.3463 3472.0205 9675955
-264.60956 1226.155 3479.9922 9939129
-245.5829 1234.1436 3502.6646 9873337
-224.73775 1233.6244 3501.1912 9807543
-202.81406 1226.4774 3480.907 9807285
-182.50209 1228.5624 3486.8242 9741493
-160.70631 1219.9159 3462.2847 9610163
-140.59076 1223.36 3472.0593 9676213
-119.44537 1217.4878 3455.3931 9741494
-98.834991 1215.7675 3450.5107 9675703
-78.446426 1216.5901 3452.8452 9675959
-58.002842 1216.8387 3453.5513 9478837
-37.465748 1214.3275 3446.4241 9609653
-17.135948 1220.567 3464.1326 9610164
3.4014051 1225.9915 3479.5278 9741492
23.826014 1216.3478 3452.1577 9807285
44.459831 1221.36 3466.3831 9807285
64.93306 1220.1873 3463.0547 9807285
85.473282 1220.5343 3464.0398 9675956
105.97921 1220.3521 3463.5225 9873080
126.76884 1222.9658 3470.9407 9938874
147.62654 1225.415 3477.8918 9938618
167.86241 1222.7349 3470.2852 9938619
188.32329 1222.0996 3468.4824 9873083
208.10486 1217.6149 3455.7539 10004667
231.7636 1234.5869 3503.9229 9478322
247.82062 1211.6034 3438.6926 9938101
270.55426 1222.2745 3468.9785 9872308
290.58258 1220.0797 3462.7498 9806514
309.84436 1215.1683 3448.8103 10003893
331.263 1218.8002 3459.1179 10069172
351.46274 1217.7853 3456.2378 9740721
370.65192 1213.5737 3444.2844 9740462
393.04227 1219.7358 3461.7734 10069427
411.65421 1214.1425 3445.8987 9674924
432.20663 1214.5308 3447.0007 9739944
454.46674 1219.4659 3461.0076 9805479
469.39282 1205.1455 3420.3643 9871272
492.89993 1213.1299 3443.0249 9607844
512.46381 1211.1602 3437.4348 9739429
536.03406 1218.4481 3458.1187 9805479
550.03485 1204.2478 3417.8164 10002602
568.87469 1201.2745 3409.3777 10002857
590.40735 1203.9962 3417.1025 10134443
616.8396 1216.198 3451.7327 10068909
636.66144 1215.0013 3448.3364 10331824
651.98871 1205.5685 3421.5647 10267059
669.68848 1200.9591 3408.4824 10464182
686.43878 1194.9667 3391.4753 10661304
708.76324 1198.7427 3402.1921 10924732
724.67902 1191.7705 3382.4041 10859195
746.33453 1194.3588 3389.75 10662074
768.48749 1197.5867 3398.9111 11056832
787.03467 1195.174 3392.0637 11187904
808.22467 1196.7949 3396.6641 11385283
824.52991 1191.2795 3381.0107 11451333
844.62506 1191.3717 3381.2722 11320004
863.77771 1190.1609 3377.8359 11385028
878.6073 1183.1832 3358.0322 11648457
895.63367 1179.4072 3347.3157 11779786
916.66785 1180.9583 3351.7178 11714250
942.28381 1188.2212 3372.3308 11846092
964.80396 1191.3597 3381.2385 11846091
982.4176 1188.4352 3372.9382 11846345
1004.6873 1191.1475 3380.6357 12175565
1020.2585 1185.9672 3365.9333 12241356
1047.5303 1194.3258 3389.6562 12110027
1082.2758 1210.7307 3436.2156 12044234
1100.1083 1207.9589 3428.3486 12043977
1105.1199 1191.4647 3381.5364 11187387
1129.0759 1195.619 3393.3267 5726578
1159.6396 1206.5027 3424.2161 12570315
1179.662 1206.2333 3423.4514 12571342
1209.0563 1215.394 3449.4507 12833229
1231.0518 1216.9363 3453.8281 12833486
1281.8862 1246.4702 3537.6494 12899021
1296.9263 1240.8086 3521.5806 12964814
1265.6486 1191.714 3382.2439 13030606
1268.9832 1176.2323 3338.3047 12964560
1266.179 1155.6228 3279.8123 12635597
1297.0117 1165.8724 3308.9021 12371916
1322.3218 1170.9265 3323.2458 11912139
1340.0033 1169.1759 3318.2776 11912657
1393.871 1198.5928 3401.7666 11254729
1394.7046 1182.2168 3355.2896 10794692
1413.3846 1181.2161 3352.4492 10663106
1435.1265 1182.7665 3356.8496 10860997
1439.4224 1170.0929 3320.8801 11058119
1462.8337 1173.0902 3329.387 10334394
1529.6659 1210.3651 3435.178 10400186
1531.4124 1195.8374 3393.9465 10268344
1559.3488 1201.8723 3411.0745 10070707
1580.8062 1202.823 3413.7725 10202036
1602.3555 1203.8187 3416.5986 9741489
1610.8602 1195.1117 3391.887 9280682
1622.1953 1188.6934 3373.6707 9018024
1635.6907 1183.9949 3360.3357 8886439
1668.1777 1192.991 3385.8679 8952233
1669.0195 1179.4115 3347.3276 8491681
1700.3525 1187.4443 3370.126 9149094
1741.7642 1202.2476 3412.1394 9938609
1733.9417 1183.1172 3357.845 8556439
1744.8439 1177.0525 3340.6323 8424594
1772.6368 1182.3901 3355.7815 7503491
1788.2616 1179.583 3347.8145 5923947
1829.803 1193.7452 3388.0088 6253687
1843.4833 1189.621 3376.3037 6187895
1838.4655 1173.6487 3330.9722 6977411
1860.7603 1175.2665 3335.5637 5528936
1892.2397 1182.5905 3356.3499 3753036
1934.1066 1196.1863 3394.9368 4871514
1979.5917 1211.717 3439.0151 5990252
1956.6101 1185.4495 3364.4644 7305341
2011.2976 1206.2946 3423.6255 5989483
2027.073 1203.6185 3416.0305 6648186
2047.1504 1203.5245 3415.7637 4871518
2033.5323 1183.8165 3359.8296 6187376
2029.76 1170.1669 3321.0901 6582134
2049.7932 1170.3715 3321.6707 6713460
2088.48 1181.1215 3352.1809 8226443
2100.0237 1176.463 3338.9595 6121323
2108.1062 1169.9706 3320.5332 4936277
2149.27 1181.7883 3354.0735 2962489
2150.2498 1171.4963 3324.8635 3950930
2170.3071 1171.6908 3325.4153 2042418
2203.5779 1178.951 3346.0208 2502454
2225.0513 1179.8265 3348.5054 1778216
2236.2253 1175.2733 3335.583 1382943
2233.8958 1163.7653 3302.9216 1315862
2268.7051 1171.6368 3325.262 2105633
2288.9634 1171.923 3326.074 1842718
2332.3586 1183.9487 3360.2048 1316373
2327.5569 1171.5125 3324.9092 460551
2367.7827 1181.7582 3353.9878 65793
2374.8901 1175.4414 3336.0601 65538
2384.3606 1170.3889 3321.7205 2828591
2448.5757 1192.0713 3383.2576 1973535
2445.1606 1180.7435 3351.1082 1118482
2437.0469 1167.3475 3313.0884 1052946
2460.4929 1169.1621 3318.2383 197636
2508.2712 1182.4182 3355.8608 0
2520.8918 1179.0225 3346.2236 263173
2545.2371 1181.1207 3352.1787 131588
2561.9192 1179.6578 3348.0269 460297
2552.3518 1166.2235 3309.8982 328708
2573.2925 1166.8275 3311.6125 1052174
2614.1604 1176.3898 3338.7515 0
2630.1235 1174.6853 3333.9141 131329
2629.7075 1165.7454 3308.5413 394245
2666.4973 1173.3088 3330.0076 1117968
2679.3013 1170.2847 3321.4246 1
2687.2817 1165.2131 3307.0308 131075
2687.614 1156.9227 3283.5015 131077
2711.6223 1158.8698 3289.0273 131589
2734.1882 1160.177 3292.7378 0
2742.3538 1155.3989 3279.1765 65537
2748.2913 1149.7556 3263.1602 197125
2764.9224 1148.6338 3259.9763 65539
2756.7551 1137.2969 3227.8005 65540
2806.1472 1149.6986 3262.9985 262658
2838.3291 1154.9279 3277.8396 131073
2818.1284 1138.9161 3232.3962 327937
2834.7964 1137.9199 3229.5691 1445644
2857.417 1139.3107 3233.5161 656643
2864.9514 1134.7078 3220.4524 196608
2871.5142 1129.7833 3206.4763 131072
2893.6592 1131.0143 3209.97 459780
2912.2031 1130.8307 3209.449 1314828
2905.1975 1120.7928 3180.9602 1643793
2919.4756 1119.0425 3175.9922 1379852
2974.262 1132.7418 3214.873 2103316
3010.3054 1139.1743 3233.1292 3025189
3008.085 1131.1368 3210.3179 1709585
3071.304 1147.6532 3257.1934 2630429
3094.2905 1149.0236 3261.0828 2959651
3089.9456 1140.2906 3236.2974 2828323
0 0 0 0
0 0 0 0
0 0 0 0
0 0 0 0
0 0 0 0
0 0 0 0
0 0 0 0
-3350.8206 1343.4639 3749.8806 3881514
-3320.6777 1340.264 3740.9495 5131320
-3281.4375 1333.325 3721.5808 3420703
-3248.4514 1328.8502 3709.0911 5065783
-3221.415 1326.7651 3703.271 7631198
-3239.1887 1343.2333 3749.2368 4999478
-3235.0352 1350.7731 3770.2822 4802100
-3226.6406 1356.6349 3786.6436 5854789
-3220.1606 1363.3892 3805.4961 6578773
-3172.5784 1352.7136 3775.6985 6118222
-3159.1819 1356.566 3786.4514 5789260
-3096.9358 1339.3474 3738.3909 5855312
-3013.375 1312.5962 3663.7227 6118740
-3008.1152 1319.8115 3683.8621 4999485
-2951.4368 1304.4072 3640.8657 4671544
-3031.1738 1349.51 3766.7566 5658437
-3047.0344 1366.6322 3814.5481 5592903
-3022.24 1365.6399 3811.7783 7500131
-3028.906 1378.9553 3848.9446 7302240
-3016.5503 1383.7473 3862.3198 7894889
-2979.2493 1377.0822 3843.7161 4473909
-2911.4312 1356.0999 3785.1504 2762779
-2831.8857 1329.2872 3710.3108 1644301
-2790.9521 1320.321 3685.2844 3157289
-2757.1216 1314.6003 3669.3167 4802627
-2703.8269 1299.4344 3626.9856 2894119
-2685.8333 1301.1268 3631.7095 2894120
-2719.0422 1327.8513 3706.303 3552560
-2709.8108 1334.1165 3723.7903 3487020
-2651.2988 1316.0232 3673.2881 4474430
-2666.9021 1334.7234 3725.4841 5000265
-2666.2366 1345.5254 3755.635 6579301
-2667.7585 1357.6227 3789.4006 2960691
-2622.6843 1346.0111 3756.9907 2565929
-2592.9341 1342.1327 3746.165 2960941
-2588.0161 1351.1519 3771.3391 1118481
-2616.9778 1378.1697 3846.7517 1446932
-2563.6592 1361.9508 3801.4814 2631462
-2524.8699 1353.2314 3777.144 3947072
-2485.3264 1343.9485 3751.2334 3420479
-2465.3503 1345.1746 3754.6555 4933719
-2405.8733 1324.6737 3697.4336 4670545
-2304.2251 1280.3634 3573.7544 4078664
-2314.5708 1298.0387 3623.0898 3881793
-2357.353 1334.406 3724.5984 5001293
-2337.1255 1335.4562 3727.5298 7041390
-2327.9402 1342.8962 3748.2964 6712168
-2300.1426 1339.6394 3739.2058 7171694
-2255.9756 1326.6927 3703.0691 8289917
-2252.2278 1337.4951 3733.2207 8157324
-2238.4958 1342.5237 3747.2563 6578287
-2234.698 1353.6705 3778.3696 7499892
-2211.0903 1352.9216 3776.2793 8092282
-2144.2581 1325.439 3699.5696 10198687
-2139.0354 1335.8649 3728.6704 9542297
-2133.2983 1346.184 3757.4729 9543326
-2111.625 1346.5582 3758.5176 10267306
-2098.1128 1352.2 3774.2649 10399918
-2091.8489 1362.6852 3803.5312 11979467
-2077.1904 1367.8706 3818.0049 10728118
-2043.4143 1360.4424 3797.271 9675178
-2015.2507 1356.6271 3786.6218 10070195
-1964.944 1337.6516 3733.6575 10004663
-1938.7897 1334.8733 3725.9026 10137019
-1921.8862 1338.4736 3735.9519 10597565
-1909.5188 1345.3538 3755.1558 10992321
-1888.234 1346.0392 3757.0688 10334647
-1839.6927 1327.0792 3704.1479 11914704
-1822.8682 1330.817 3714.5806 11519946
-1791.7606 1324.0911 3695.8071 10993862
-1782.2415 1333.3497 3721.6499 11191500
-1780.3651 1348.6296 3764.2993 10796748
-1756.6735 1347.5625 3761.3208 10401992
-1729.6128 1343.8505 3750.9597 10467014
-1699.8168 1337.8887 3734.3191 10203842
-1667.4255 1329.7002 3711.4634 10203582
-1638.5519 1324.1354 3695.9309 10664131
-1608.1768 1317.1902 3676.5454 10203066
-1588.566 1318.9919 3681.5745 10400445
-1573.7916 1324.9153 3698.1077 10598080
-1560.2852 1332.0883 3718.1292 10860996
-1516.1769 1312.9667 3664.7566 10663875
-1500.7931 1318.5253 3680.272 10203582
-1484.2845 1323.2451 3693.446 10138303
-1442.4968 1305.2324 3643.1689 10007231
-1406.796 1292.2639 3606.9714 9941440
-1379.1747 1286.4316 3590.6921 9875392
-1361.5446 1289.8818 3600.3225 9611707
-1330.4135 1280.4481 3573.991 9545656
-1322.333 1293.2528 3609.7314 9874106
-1306.0765 1298.3511 3623.9614 10268607
-1290.86 1304.6703 3641.6001 10071228
-1251.3986 1286.2841 3590.28 9939642
-1223.0815 1278.9149 3569.7114 10070972
-1194.5448 1271.0526 3547.7664 10070972
-1173.7618 1271.307 3548.4763 10004925
-1146.6776 1264.6212 3529.8147 10005181
-1121.1179 1259.3997 3515.2402 9808572
-1101.6317 1260.932 3519.5176 9808059
-1081.6962 1261.9994 3522.4968 9808056
-1058.7998 1259.5864 3515.7617 9873592
-1047.0369 1270.5873 3546.467 10070457
-1026.8075 1271.554 3549.1655 10004663
-1001.9733 1266.7395 3535.7275 9873334
-975.27563 1259.3135 3514.9998 10004663
-958.71802 1264.942 3530.7102 10202042
-928.01373 1251.7404 3493.8616 10202301
-913.66974 1260.5068 3518.3308 10136765
-886.34967 1251.363 3492.8086 10136510
-862.56512 1246.8928 3480.3313 10005181
-839.10156 1242.6791 3468.5698 9939388
-811.48114 1231.943 3438.6033 10004925
-793.41901 1235.5386 3448.6392 9939131
-775.06409 1238.8562 3457.8992 9938875
-752.0061 1234.6324 3446.1101 9873337
-730.72589 1233.1732 3442.0371 9675958
-708.21887 1229.5005 3431.7856 10004923
-687.74207 1229.2393 3431.0566 9807800
-665.69269 1226.0658 3422.199 9807799
-642.04633 1219.6593 3404.3171 9807543
-621.87695 1219.6565 3404.3091 9873079
-601.1449 1218.5129 3401.1172 9807544
-581.74268 1220.0791 3405.4888 9807802
-563.11139 1223.4327 3414.8496 9807802
-543.69604 1225.2695 3419.9761 9873338
-521.59277 1220.9564 3407.9373 9807802
-501.72458 1221.7385 3410.1206 9807545
-480.74707 1219.7717 3404.6306 9807546
-460.47971 1219.5133 3403.9094 9807546
-440.35147 1219.6167 3404.198 9807546
-421.54507 1223.5665 3415.2229 9610167
-401.70712 1224.7697 3418.5811 9807288
-383.02353 1229.807 3432.6411 11386061
-362.86957 1230.4233 3434.3616 6516866
-345.16812 1239.923 3460.877 10070204
-320.18454 1222.8113 3413.1147 9938874
-300.45346 1224.8046 3418.6787 9938617
-280.66418 1226.8318 3424.3369 9807288
-260.00107 1225.0574 3419.384 9873083
-239.65547 1224.6058 3418.1238 9807803
-219.36591 1224.3835 3417.5032 9742010
-198.92744 1223.2004 3414.2009 9742010
-178.41541 1221.246 3408.7456 9741753
-158.08043 1220.1591 3405.7119 9807802
-137.77255 1218.9943 3402.4607 9741752
-117.48033 1217.5923 3398.5474 9741752
-97.343376 1217.5522 3398.4358 9741753
-77.235481 1217.9497 3399.5452 9741753
-57.079586 1217.6038 3398.5793 9675960
-36.938519 1217.3691 3397.9248 9675959
-16.844633 1219.9905 3405.2412 9807288
3.3244882 1218.415 3400.844 9872568
23.510698 1220.4313 3406.4717 9938617
43.617062 1218.3545 3400.675 9807288
63.696865 1217.0826 3397.125 9741238
83.505379 1212.4825 3384.2852 9741239
104.20037 1220.043 3405.3877 9807031
124.55479 1221.8099 3410.3198 9872824
144.74274 1221.6787 3409.9534 9741241
164.89212 1221.2938 3408.8794 9938875
185.0905 1221.3163 3408.9419 9873082
205.22989 1220.9835 3408.0129 9807801
225.55106 1221.6948 3409.9983 9544373
244.75092 1216.7148 3396.0984 9741752
266.13574 1222.5286 3412.3254 9741495
286.10196 1221.4646 3409.3557 9807286
304.82388 1215.5791 3392.9285 9741235
327.34436 1224.6327 3418.1987 9674929
345.12604 1215.9357 3393.9236 9938358
364.91211 1214.8693 3390.9473 9938101
385.0582 1215.0503 3391.4524 9806514
404.73563 1213.8079 3387.9844 9674672
423.77484 1210.8591 3379.7542 9805998
441.61188 1204.8965 3363.1111 9739692
462.83331 1208.2841 3372.5664 9213602
484.31799 1212.0502 3383.0781 9213602
505.41074 1214.5748 3390.1252 9542567
523.5517 1210.0842 3377.5908 9739945
543.16626 1209.2047 3375.1362 9674666
559.91418 1202.2325 3355.6753 9674667
583.78601 1210.5103 3378.78 10003120
603.17773 1209.2574 3375.2832 9411239
621.01044 1205.0597 3363.5664 10068915
638.76819 1200.9821 3352.1848 10003635
660.47729 1204.3555 3361.6008 9806256
681.59308 1206.4812 3367.5342 9806512
704.73755 1211.9747 3382.8679 9872049
723.97241 1210.6271 3379.106 9806254
736.52435 1198.4772 3345.1934 10201012
757.91034 1200.9623 3352.1299 10200755
784.82556 1211.8583 3382.5427 10134449
804.05255 1210.6356 3379.1301 10199985
820.68286 1205.6578 3365.2358 10002861
840.45728 1205.4255 3364.5876 9870761
862.43756 1208.2943 3372.5952 10002859
878.80225 1203.3439 3358.7771 10266030
897.4942 1201.7288 3354.269 10332080
916.40985 1200.4767 3350.7744 10463923
931.96735 1194.9718 3335.4092 10595508
953.44171 1197.1249 3341.4187 10596021
972.35345 1196.0378 3338.3848 10661814
989.28699 1192.6097 3328.8159 10859451
1007.1924 1190.4642 3322.8274 10859707
1027.7473 1191.4723 3325.6414 10990782
1047.2727 1191.2716 3325.0811 11253954
1066.4004 1190.6343 3323.302 11254211
1089.0652 1193.8977 3332.4111 11516098
1118.7349 1204.5873 3362.2478 8423053
1126.5293 1191.7609 3326.4468 7899027
1159.9487 1206.0184 3366.2424 11780807
1178.3 1204.3921 3361.7031 12109000
1194.1104 1200.2657 3350.1855 12371914
1209.0519 1195.4152 3336.6467 12700876
1218.0043 1184.8945 3307.2815 12700876
1234.1801 1181.6228 3298.1494 12700876
1252.3397 1180.3228 3294.5208 12372682
1268.1212 1176.8557 3284.8435 12438475
1283.6392 1173.2524 3274.7861 12372940
1303.0502 1173.2618 3274.8123 12307148
1319.1381 1170.3229 3266.6089 12373712
1338.4484 1170.2861 3266.5066 12308177
1358.256 1170.6793 3267.6038 12242128
1373.7365 1167.3842 3258.4065 12110801
1393.8003 1168.0214 3260.1851 11781326
1420.3468 1173.9994 3276.8708 11386567
1464.5435 1194.2084 3333.2783 11320522
1477.0419 1188.3763 3317 11386571
1505.6554 1195.4929 3336.8638 11255242
1510.3584 1183.686 3303.9082 11057864
1529.0692 1183.0188 3302.0459 10663363
1553.1802 1186.4938 3311.7451 10334141
1556.6454 1174.3074 3277.7305 10268092
1573.7734 1172.6011 3272.968 10267578
1599.7609 1177.457 3286.5217 10201529
1616.2124 1175.2621 3280.3953 10135480
1634.4801 1174.4242 3278.0564 10135479
1650.6851 1172.1414 3271.6846 9872564
1675.3964 1175.8815 3282.1243 9675186
1682.9203 1167.6112 3259.0403 9872564
1708.1915 1171.7021 3270.459 9609906
1737.7025 1178.5768 3289.6472 10201786
1747.6434 1172.173 3271.7729 10333370
1756.913 1165.4644 3253.0479 10267320
1772.8641 1163.2854 3246.9661 10069687
1812.9463 1176.8173 3284.7361 9740979
1830.4272 1175.5466 3281.1895 9346478
1853.5166 1177.8666 3287.665 9280943
1828.4746 1149.8701 3209.521 9807286
1840.8091 1145.7128 3197.9172 10135736
1880.5507 1158.5244 3233.6772 10004150
1897.5219 1157.1915 3229.9568 9937845
1920.0096 1159.2158 3235.6069 9937845
1939.4716 1159.3911 3236.0964 9807029
1948.9607 1153.6599 3220.0994 9609906
1974.3478 1157.3591 3230.4246 9281455
1998.4783 1160.2578 3238.5154 9478321
1998.7184 1149.3632 3208.106 9412015
2014.9425 1147.7787 3203.6836 9346478
2032.9572 1147.2343 3202.1641 9280940
2049.978 1146.1443 3199.1218 9346733
2081.8862 1153.3217 3219.155 9150123
2103.0984 1154.4971 3222.4358 9084075
2122.3049 1154.5602 3222.6123 9149610
2138.8831 1153.2052 3218.8298 9478318
2104.3025 1124.5349 3138.8054 9741489
2168.3425 1148.6079 3205.998 9610415
2191.812 1150.9585 3212.5591 9412780
2250.2695 1171.4834 3269.8481 9018279
2213.2527 1142.3784 3188.6104 8886694
2278.2314 1165.9658 3254.4478 8558500
2263.312 1148.6099 3206.0037 8887464
2282.7664 1148.8422 3206.6519 9085098
2334.0366 1164.9502 3251.6128 9216169
2385.8857 1181.0811 3296.6372 9413034
2341.2896 1149.5945 3208.752 9018277
2458.9739 1197.6545 3342.8972 8557985
2438.6606 1178.2715 3288.7952 8755109
2404.1487 1152.3895 3216.5535 8820902
2465.2368 1172.3788 3272.3472 8952487
2454.2463 1158.0453 3232.3398 8689825
2483.4702 1162.7625 3245.5063 8886690
2527.5864 1174.3258 3277.7822 9215140
2531.5806 1167.2145 3257.9329 8360345
2569.5703 1175.7661 3281.802 7965588
2583.9395 1173.4623 3275.3716 7767953
2607.3591 1175.2722 3280.4238 4015951
2644.1272 1183.0278 3302.071 4477530
2656.5613 1179.8621 3293.2346 9609383
2670.7119 1177.4991 3286.6394 9544103
2687.2351 1176.209 3283.0383 7833743
2660.7961 1156.2679 3227.3787 7505551
2669.0234 1151.5682 3214.261 8360859
2702.6538 1157.8179 3231.7051 9084581
2747.8904 1168.9167 3262.6843 8952735
2783.1072 1175.6281 3281.417 8360340
2809.2263 1178.4298 3289.2373 7504261
2824.0203 1176.4751 3283.7812 6714489
2835.4707 1173.1638 3274.5386 5135719
2831.5771 1163.592 3247.8218 2899014
2828.5088 1154.4863 3222.406 4411735
2829.2866 1147.062 3201.6831 5134941
2839.8174 1143.6644 3192.1997 6187624
2858.9321 1143.7457 3192.4268 5463389
2851.5361 1133.2899 3163.2422 5332321
2858.4382 1128.616 3150.1963 4674905
2885.6729 1131.9785 3159.582 4345169
2924.9072 1139.9747 3181.9011 5332319
2942.9556 1139.6642 3181.0342 9015699
2977.5632 1145.7294 3197.9634 6515823
3018.3828 1154.093 3221.3083 5332064
3080.616 1170.4877 3267.0691 5464420
3073.918 1160.6508 3239.6121 6318703
3122.6223 1171.7246 3270.5217 5923688
0 0 0 0
0 0 0 0
0 0 0 0
0 0 0 0
0 0 0 0
0 0 0 0
0 0 0 0
-3289.2837 1340.5986 3681.0149 725266
-3314.7749 1360.0045 3734.2998 2436653
-3220.7256 1330.2958 3652.7253 4804943
-3181.7712 1323.0958 3632.9556 4870221
-3144.8818 1316.662 3615.2898 4738637
-3152.4277 1328.8715 3648.8145 4805459
-3198.1702 1357.4619 3727.3181 6648179
-3199.3076 1367.3856 3754.5667 4740955
-3199.7769 1377.1606 3781.407 4807260
-3204.9075 1389.0941 3814.1738 7307391
-3181.0906 1388.5613 3812.7107 8952216
-3095.9553 1361.0635 3737.2073 10531247
-3015.4622 1335.2251 3666.2603 11847363
-2952.5969 1316.874 3615.8721 10662579
-2925.9141 1314.5101 3609.3813 10794424
-2957.1599 1338.3285 3674.7815 10071217
-2974.0247 1355.9432 3723.1482 11321281
-3011.9739 1383.506 3798.8301 12374224
-3012.6023 1394.2122 3828.2271 13031898
-2988.0034 1393.3171 3825.7693 12308689
-2920.0637 1372.0438 3767.3569 10269110
-2856.5847 1352.5549 3713.8445 10137270
-2872.6213 1370.7053 3763.6819 8952994
-2852.8679 1371.9285 3767.0405 10926266
-2788.3567 1351.4774 3710.886 13030867
-2696.0825 1317.1381 3616.5969 13096659
-2660.7466 1310.288 3597.7878 13293267
-2670.5876 1325.7542 3640.2551 13555926
-2640.8191 1321.6489 3628.9829 13686486
-2608.5652 1316.2222 3614.082 13159628
-2583.6848 1314.4569 3609.2351 13620180
-2634.7754 1351.6353 3711.3193 13816788
-2607.8025 1349.0558 3704.2366 13685972
-2580.5945 1346.3099 3696.697 13488848
-2581.668 1358.3978 3729.8882 13357261
-2598.7954 1379.2147 3787.0469 13685970
-2631.1309 1408.5354 3867.5557 13750993
-2613.0515 1411.1453 3874.7219 13487567
-2480.8735 1351.6378 3711.3264 13684944
-2527.6377 1389.4299 3815.0959 13685202
-2427.6213 1346.4915 3697.1956 13619152
-2406.0071 1346.6531 3697.6394 13619150
-2377.7305 1343.0544 3687.7581 13554126
-2377.5637 1355.4141 3721.6953 13553869
-2327.9746 1339.5667 3678.1812 13619659
-2319.3674 1347.2241 3699.2073 13619659
-2307.2419 1352.9646 3714.9695 13685196
-2279.9548 1349.8394 3706.3882 13685196
-2276.0425 1360.6267 3736.0081 13684940
-2246.0496 1355.882 3722.9797 13684939
-2240.7866 1366.1199 3751.0913 13685196
-2215.0623 1363.9634 3745.1699 13619659
-2192.3567 1363.641 3744.2847 13684939
-2141.3281 1345.515 3694.5144 13684940
-2122.6616 1347.5596 3700.1284 13685197
-2134.79 1369.4009 3760.1001 13684939
-2079.3315 1347.8907 3701.0376 13488588
-2072.7891 1357.9689 3728.7102 13423053
-2046.7985 1355.3859 3721.6177 13226701
-2037.2975 1363.7848 3744.6794 13161422
-1999.0841 1352.9365 3714.8923 13095373
-1987.4197 1360.0148 3734.3276 13095630
-1960.4231 1356.6421 3725.0671 13095373
-1928.1339 1349.4884 3705.4246 13095889
-1875.076 1327.4668 3644.9578 12899280
-1889.3708 1353.1702 3715.5339 12440015
-1856.5681 1345.3505 3694.0625 12308686
-1839.8992 1349.1748 3704.5635 12112078
-1828.1053 1356.7097 3725.2529 12111823
-1772.6866 1331.6573 3656.4639 12112081
-1762.257 1340.1993 3679.9187 12112338
-1736.2985 1336.9977 3671.1277 12112081
-1705.1443 1329.6633 3650.9888 11980753
-1683.0194 1329.2717 3649.9138 11914704
-1641.5157 1313.3654 3606.2378 11980242
-1623.3632 1315.9689 3613.3865 11783121
-1612.6387 1324.7438 3637.4807 11256779
-1579.4585 1315.0599 3610.8909 11454413
-1556.0321 1313.3425 3606.1753 11454157
-1531.7551 1310.8496 3599.3301 11388620
-1506.0966 1307.0872 3588.999 11257035
-1481.9025 1304.5061 3581.9121 11059401
-1450.1494 1295.0992 3556.0828 10993098
-1427.5586 1293.7183 3552.291 10927561
-1408.2703 1295.3337 3556.7266 10993354
-1376.8973 1285.7139 3530.3123 10993098
-1353.4441 1283.3065 3523.7024 10861768
-1334.4705 1285.1378 3528.7307 10729927
-1305.5652 1277.3108 3507.2393 10466498
-1281.0242 1273.5692 3496.9658 10598087
-1257.9733 1271.2106 3490.4893 10466502
-1236.4591 1270.3519 3488.1316 10400453
-1216.8806 1271.4867 3491.2476 10268867
-1192.2067 1267.2446 3479.5994 10202819
-1169.9642 1265.483 3474.7627 10137023
-1147.7816 1263.7244 3469.9336 10137279
-1125.583 1261.8835 3464.8792 10202816
-1102.4756 1258.9366 3456.7874 10071487
-1081.3439 1258.1771 3454.7019 10137022
-1061.2589 1258.6294 3455.9438 10071229
-1040.4296 1258.1993 3454.7632 10071486
-1019.1642 1257.2144 3452.0586 10137022
-998.97357 1257.5417 3452.9575 10071229
-976.81824 1255.3582 3446.9617 10071229
-955.15698 1253.7295 3442.4897 10071486
-934.62177 1253.5402 3441.97 10071229
-912.40155 1251.0322 3435.0835 10005438
-889.3147 1247.1942 3424.5452 10005439
-867.99866 1245.7185 3420.4932 10005182
-849.56262 1248.4044 3427.8682 10005182
-828.67224 1247.5267 3425.4583 9676217
-805.47162 1243.0398 3413.1382 9939389
-784.42041 1241.7244 3409.5261 10071232
-763.09821 1239.899 3404.5142 10136768
-743.65527 1241.1111 3407.842 10005439
-720.24988 1235.593 3392.6907 10005436
-697.92206 1231.6598 3381.8906 9939643
-675.92322 1228.0918 3372.0938 9939644
-655.80048 1227.8191 3371.345 9808057
-635.83215 1227.8274 3371.3677 9742521
-615.64233 1227.3947 3370.1794 9676728
-594.44031 1224.847 3363.1846 9676728
-574.23767 1224.2537 3361.5549 9742011
-552.91132 1221.1357 3352.9939 9807803
-534.37567 1224.1785 3361.3486 9742010
-514.06702 1223.2379 3358.7661 9742267
-494.28271 1223.5197 3359.5398 9676217
-474.52423 1223.8916 3360.5608 9675960
-453.35498 1220.4979 3351.2427 9741753
-433.55933 1220.6609 3351.6899 9675960
-414.59879 1223.3036 3358.9463 9873084
-393.00217 1218.0426 3344.5007 11123406
-379.18753 1237.6224 3398.2629 7701401
-353.99731 1220.1876 3350.3904 9938618
-336.27307 1227.9445 3371.6892 10135739
-317.61655 1233.0618 3385.7405 10004410
-296.19162 1227.397 3370.1858 9872824
-275.53351 1224.3203 3361.738 9939130
-254.80534 1220.429 3351.053 9873340
-234.65523 1218.8824 3346.8066 10004926
-215.095 1220.3975 3350.9666 9939133
-194.96532 1218.661 3346.1987 10070718
-174.97746 1217.5184 3343.0613 9939132
-154.78296 1214.4626 3334.6709 9939132
-135.33516 1217.2288 3342.2659 9873339
-114.8424 1209.9337 3322.2354 9873339
-95.584991 1215.3281 3337.0471 9939132
-75.755051 1214.358 3334.3835 9873339
-56.018696 1214.7329 3335.4128 9741753
-36.24268 1214.1876 3333.9158 9741753
-16.495054 1214.4266 3334.5718 9675958
3.2545078 1212.4907 3329.2563 9741752
23.000439 1213.6866 3332.54 9873337
42.676727 1211.8002 3327.3604 9742008
62.203976 1208.2112 3317.5054 9741751
82.241196 1213.8726 3333.0505 9675958
102.19009 1216.2904 3339.6895 9676215
122.12635 1217.798 3343.8289 9675958
141.78679 1216.5182 3340.3149 9609653
161.61501 1216.8151 3341.1301 9609653
181.75108 1219.1123 3347.4377 9543861
202.09956 1222.2419 3356.0312 9741240
221.12163 1217.5077 3343.032 9280687
240.15739 1213.621 3332.3599 9609652
260.31464 1215.5616 3337.6885 9675446
280.93646 1219.2445 3347.801 9741238
299.38791 1213.6434 3332.4216 9675698
320.01096 1216.9941 3341.6216 9675955
338.00482 1210.5378 3323.8943 9807285
358.30124 1212.5852 3329.5159 9872822
378.14081 1212.9532 3330.5266 9938100
397.32346 1211.2823 3325.9382 9937843
416.28116 1209.1157 3319.9893 9872048
436.03806 1209.3612 3320.6633 9806511
458.79248 1217.5404 3343.1218 9740459
477.39539 1214.4813 3334.7222 9543081
497.70804 1215.842 3338.4583 9608874
515.36841 1210.8672 3324.7983 9740460
533.65564 1207.677 3316.0388 9806254
553.76971 1208.7009 3318.8503 9806254
573.39984 1208.6346 3318.6682 9806256
594.85992 1212.3019 3328.738 9740462
612.12646 1207.4619 3315.4482 9806514
632.89716 1209.6202 3321.3745 9872050
653.64874 1211.6128 3326.8459 9806257
672.76752 1210.5508 3323.9299 9740721
691.84729 1209.4811 3320.9924 9609135
712.45929 1211.0751 3325.3691 9674928
728.50909 1205.0367 3308.7893 9609135
753.15442 1213.1604 3331.0952 9674929
769.75867 1208.2476 3317.6055 9740462
788.60986 1207.0184 3314.2305 9740462
803.08154 1199.3088 3293.0613 9740719
821.65222 1197.9409 3289.3057 9739947
840.76959 1197.415 3287.8616 9805739
858.02301 1194.3186 3279.3591 9871532
881.22968 1199.4622 3293.4827 10003117
895.88678 1192.998 3275.7334 9937325
913.51086 1190.6753 3269.3557 9937837
931.11969 1188.4296 3263.1892 9675177
953.27435 1191.9591 3272.8806 9740715
972.59015 1191.869 3272.6333 9806253
991.70947 1191.5465 3271.7476 9740460
1011.9709 1192.5822 3274.5916 9740462
1029.2463 1190.1261 3267.8477 9674669
1051.3397 1193.229 3276.3677 9740461
1070.0958 1192.5002 3274.3667 9871790
1097.504 1201.2677 3298.4404 10069684
1124.02 1208.769 3319.0374 988187
1138.6152 1203.413 3304.3308 9279397
1167.9668 1213.5708 3332.2219 10332343
1183.8662 1209.6458 3321.4446 10398136
1197.6276 1203.7001 3305.1189 10660795
1205.309 1191.9333 3272.8098 10858942
1219.7675 1187.1348 3259.634 11122112
1239.4833 1187.5228 3260.6995 11188162
1253.9855 1182.9805 3248.2273 11450821
1270.9536 1180.8667 3242.4231 11386054
1292.4114 1182.925 3248.075 11517382
1307.8196 1179.4673 3238.5806 11518152
1326.7865 1179.2725 3238.0457 11583945
1345.6704 1179.0105 3237.3264 11583690
1359.2377 1174.1631 3224.0164 11649740
1381.1051 1176.5208 3230.49 11517900
1405.5883 1181.012 3242.8218 11188936
1426.9421 1182.7878 3247.6982 11386315
1438.8579 1176.7976 3231.25 11518156
1456.0165 1175.196 3226.8528 11518157
1472.2672 1172.913 3220.5837 11386829
1487.8276 1170.1453 3212.9841 11254986
1506.2126 1169.6409 3211.5994 11189451
1528.1255 1171.8546 3217.6777 11123658
1545.0341 1170.2234 3213.1987 10991816
1563.375 1169.7035 3211.7712 10860230
1583.246 1170.3273 3213.4839 10860487
1600.5432 1169.0562 3209.9939 10794437
1620.7985 1169.9503 3212.4487 10794437
1640.8224 1170.6584 3214.3931 10728644
1655.2236 1167.3848 3205.4045 10597315
1672.05 1165.8765 3201.2632 10596801
1687.7317 1163.6129 3195.0476 10662852
1706.8016 1163.7095 3195.3127 10662853
1722.7404 1161.6926 3189.7749 10662597
1741.2742 1161.4503 3189.1096 10728390
1763.2065 1163.4558 3194.6165 10465475
1782.9224 1163.9717 3196.033 10531011
1800.6349 1163.1826 3193.8662 10399680
1816.8734 1161.4677 3189.1575 10268093
1839.1688 1163.6201 3195.0676 10202300
1861.0618 1165.4768 3200.1655 10202300
1880.226 1165.6042 3200.5156 10202300
1898.8308 1165.386 3199.916 10201786
1915.7888 1164.1713 3196.5808 10069944
1934.7406 1164.1799 3196.6047 10135480
1951.6869 1162.9934 3193.3469 10201273
1969.522 1162.3542 3191.5918 10004151
1986.937 1161.4817 3189.1958 9741492
2004.0365 1160.4429 3186.3435 9675699
2021.959 1159.8955 3184.8406 9544114
2038.0275 1158.3047 3180.4724 9478320
2055.51 1157.5392 3178.3706 9281199
2071.2969 1155.8413 3173.7085 9412527
2084.1274 1152.5392 3164.6416 9215147
2100.9192 1151.4669 3161.6973 9214890
2128.8608 1156.4709 3175.437 8754595
2151.2659 1158.4054 3180.749 9412782
2156.1475 1150.9528 3160.2854 9346990
2176.6484 1151.8939 3162.8699 9281710
2190.5051 1149.3331 3155.8381 9347246
2206.885 1148.1281 3152.5295 9215660
2225.9976 1148.3533 3153.1477 9215916
2244.4646 1148.2443 3152.8484 9281453
2273.9453 1153.7252 3167.8979 9281710
2274.835 1144.7288 3143.1958 9281710
2290.7957 1143.401 3139.5498 9281709
2316.5535 1146.9452 3149.2815 9280684
2329.364 1144.0736 3141.3967 9280684
2348.957 1144.5525 3142.7114 9280427
2370.0225 1145.7356 3145.96 9214634
2390.4463 1146.5925 3148.313 9148842
2453.4329 1167.6935 3206.2522 9083049
2471.8826 1167.4362 3205.5457 9083562
2427.1062 1137.5497 3123.4832 9083561
2502.5757 1164.0464 3196.238 9017767
2518.022 1162.4358 3191.8154 8951973
2540.6147 1164.1237 3196.45 8819875
2567.1211 1167.5665 3205.9036 9149096
2608.8877 1177.8485 3234.1357 9082533
2564.1838 1149.2258 3155.5437 6450813
2599.865 1156.7841 3176.2969 7241356
2595.6758 1146.6211 3148.3916 8754850
2590.7603 1136.2848 3120.01 8492192
2600.7539 1132.5875 3109.8582 8623779
2645.1509 1143.819 3140.6975 8557731
2655.053 1140.0814 3130.4351 8623523
2673.4827 1140.0321 3130.2996 8623522
2704.6736 1145.3875 3145.0044 8623007
2685.1362 1129.3341 3100.925 8426398
2701.5857 1128.5316 3098.7214 8492191
2736.8845 1135.5608 3118.0222 8426655
2750.5684 1133.5875 3112.604 8689827
2768.6541 1133.4425 3112.2058 9084583
2793.4316 1136.0209 3119.2856 9150120
2816.5413 1137.8916 3124.4221 8952485
2842.3198 1140.809 3132.4326 8820645
2852.4851 1137.4625 3123.2441 8821157
2874.8997 1139.0123 3127.4995 8821157
2901.2649 1142.0975 3135.9707 8689058
2909.917 1138.215 3125.3101 8820128
2935.1697 1140.8339 3132.5007 8755105
2964.6138 1145.0386 3144.0461 8491933
2993.7549 1149.0743 3155.1279 8294557
3014.7075 1149.9369 3157.4958 9215403
0 0 0 0
0 0 0 0
0 0 0 0
0 0 0 0
0 0 0 0
0 0 0 0
0 0 0 0
-2980.2854 1234.42 3335.217 9810361
-3063.6375 1277.4131 3451.3777 9744057
-3070.72 1288.9688 3482.5994 10270141
-3115.5195 1316.6201 3557.3091 10664128
-3051.7344 1298.4476 3508.2097 10796228
-3069.5728 1314.993 3552.9128 10862279
-3072.5491 1325.3562 3580.9124 10730950
-3041.9529 1321.281 3569.9021 10533830
-3031.2998 1325.8718 3582.3057 10533316
-3000.6147 1321.7037 3571.0442 10664645
-2973.5125 1319.0657 3563.9167 10795974
-2980.7327 1331.7246 3598.1189 10861512
-2938.0703 1322.1188 3572.1658 10993098
-2905.0212 1316.7311 3557.6086 10992586
-2920.334 1333.3452 3602.4978 11058632
-2914.896 1340.6602 3622.2615 11321802
-2869.6492 1329.6382 3592.4817 11387080
-2872.53 1340.9178 3622.9578 11387338
-2848.082 1339.514 3619.1648 11322057
-2822.9392 1337.7596 3614.4248 11584459
-2790.0203 1332.2653 3599.5798 11650764
-2771.6331 1333.6787 3603.3989 11716298
-2741.1218 1329.235 3591.3926 11781832
-2719.6431 1329.136 3591.125 12044746
-2676.2097 1318.2212 3561.635 12241866
-2643.438 1312.4264 3545.978 12439246
-2624.4241 1313.424 3548.6736 12504780
-2602.376 1312.9069 3547.2764 12570061
-2584.418 1314.4615 3551.4771 12635595
-2571.116 1318.4293 3562.1973 12767182
-2545.5732 1316.134 3555.9958 12898508
-2521.3218 1314.4736 3551.5095 12898508
-2504.2539 1316.5619 3557.1516 13094860
-2487.1995 1318.6927 3562.9089 13160653
-2474.3345 1323.1003 3574.8174 13095373
-2452.2544 1322.6136 3573.5027 13291726
-2438.2339 1326.5035 3584.0125 13291982
-2418.2173 1327.1707 3585.8152 13357262
-2393.332 1325.1542 3580.3667 13488080
-2372.3257 1325.2684 3580.6755 13488335
-2358.3525 1329.3494 3591.7014 13619407
-2334.783 1328.0458 3588.1794 13685200
-2315.0083 1328.8969 3590.4788 13684941
-2279.1265 1320.4318 3567.6077 13619149
-2288.9148 1338.5154 3616.4668 13684942
-2278.7732 1345.1759 3634.4624 13750479
-2240.0254 1334.9159 3606.7415 13750479
-2219.6545 1335.5154 3608.3611 13750479
-2191.7988 1331.5793 3597.7266 13684942
-2168.4463 1330.3286 3594.3472 13684942
-2155.0474 1335.2198 3607.5627 13684942
-2131.7048 1333.9868 3604.2312 13750735
-2103.9548 1329.9427 3593.3047 13750735
-2079.6328 1328.005 3588.0693 13750735
-2053.2979 1324.7286 3579.217 13684942
-2025.5598 1320.469 3567.7083 13619662
-2003.3906 1319.7883 3565.8689 13685199
-1976.502 1315.9509 3555.501 13554639
-1956.7614 1316.8413 3557.9065 13488846
-1934.63 1316.1245 3555.97 13488846
-1913.0267 1315.7552 3554.9724 13554128
-1889.2517 1313.8674 3549.8716 13554385
-1868.1827 1313.8402 3549.7981 13488592
-1843.9692 1311.5757 3543.6799 13488851
-1823.3448 1311.8413 3544.3975 13554131
-1803.5839 1312.7416 3546.8298 13488851
-1780.0099 1310.855 3541.7324 13488850
-1759.433 1311.1569 3542.5481 13423314
-1738.354 1311.0874 3542.3606 13488594
-1716.0514 1310.0822 3539.6443 13423314
-1695.0688 1310.0721 3539.6174 13357521
-1673.4375 1309.5542 3538.218 13292498
-1652.4366 1309.5228 3538.1331 13161168
-1634.1381 1311.6595 3543.9062 13161425
-1609.5063 1308.7025 3535.9167 13029840
-1589.2118 1309.2405 3537.3704 12964561
-1579.301 1318.4614 3562.2839 12833233
-1540.7705 1303.7161 3522.4441 12702161
-1518.0127 1302.0947 3518.0637 12571345
-1502.8359 1307.0217 3531.3755 12439760
-1477.5737 1303.1926 3521.0298 12374992
-1449.9813 1297.1691 3504.7551 12243666
-1427.2557 1295.3879 3499.9426 12243408
-1403.6133 1292.7095 3492.7061 12243667
-1377.3975 1287.5457 3478.7542 12112594
-1359.3463 1289.9729 3485.3123 12112339
-1336.2936 1287.6555 3479.0508 11849169
-1309.4832 1281.5878 3462.657 11783633
-1289.613 1282.2275 3464.3855 11915219
-1263.828 1276.9117 3450.0232 11717588
-1237.2538 1270.611 3432.999 11388624
-1215.3754 1269.0024 3428.6533 11256527
-1193.9977 1267.8708 3425.5959 11190735
-1168.9417 1262.7269 3411.6975 11190736
-1146.7546 1260.5555 3405.8311 11256016
-1126.0151 1259.9259 3404.1299 11190479
-1104.9904 1258.9485 3401.489 11190223
-1079.9561 1253.2817 3386.1782 11124431
-1057.3665 1250.2911 3378.0981 10927052
-1037.9192 1250.9725 3379.939 10795721
-1018.3666 1251.5513 3381.5029 10926796
-995.18121 1247.599 3370.8245 10926538
-976.26617 1248.9481 3374.4695 10597574
-957.56165 1250.6285 3379.0095 10597573
-935.31934 1247.6614 3370.9929 10531781
-913.13922 1244.6495 3362.8555 10465987
-894.71515 1246.7374 3368.4963 10399940
-873.99481 1245.6476 3365.5518 10399940
-854.01672 1245.5895 3365.395 10334147
-834.76697 1246.6165 3368.1697 10334147
-808.21069 1236.515 3340.8772 10137025
-791.77008 1241.7714 3355.0789 10202561
-769.25842 1237.5316 3343.6238 10268610
-748.91742 1236.6521 3341.2476 10202561
-727.62299 1234.1079 3334.3733 10136767
-706.00732 1230.8615 3325.6018 9939899
-684.60223 1227.8064 3317.3477 9939643
-664.47833 1226.9363 3314.9968 9873594
-644.17084 1225.6639 3311.5591 9873594
-625.70685 1227.9294 3317.6802 9807544
-604.86133 1225.5167 3311.1614 9807544
-583.56891 1222.0065 3301.677 9807544
-563.70288 1221.3431 3299.8848 9807546
-543.18665 1219.1729 3294.021 9873084
