# .PCD v0.7 - Point Cloud Data file format
VERSION 0.7
FIELDS x y z rgb
SIZE 4 4 4 4
TYPE F F F U
COUNT 1 1 1 1
WIDTH 1280
HEIGHT 1
VIEWPOINT 0 0 0 1 0 0 0
POINTS 1280
DATA ascii
-251.56195 990.52264 3069.2651 7165785
-231.63562 983.12366 3046.3384 6179404
-211.0139 971.2735 3009.6189 6508114
-194.23044 976.53333 3025.9172 4995134
-176.53185 977.79431 3029.8245 5258305
-157.42711 970.67029 3007.75 4929600
-138.9398 966.02087 2993.3433 3745325
-119.40157 951.63501 2948.7666 5455943
-99.307953 927.13336 2872.845 3284776
-81.751709 921.08466 2854.1021 3351085
-64.860222 921.32397 2854.844 3483187
-49.202435 945.43835 2929.5654 2826029
-32.280468 958.30591 2969.4373 2102047
-14.595463 952.21332 2950.5583 2562597
2.9044592 958.86444 2971.168 2233118
20.361097 952.07343 2950.125 2036760
37.806969 951.28497 2947.6819 1509907
55.047657 947.46307 2935.8394 1510675
72.510368 948.38043 2938.6819 1050382
90.751373 957.15112 2965.8591 1444884
109.16348 964.58844 2988.9045 655628
127.7876 971.56171 3010.512 1115921
146.89183 980.03003 3036.7522 1708311
164.80814 979.5896 3035.3875 1774632
183.10486 981.27441 3040.6082 721943
200.35338 977.54327 3029.0466 590608
217.45969 973.78876 3017.4128 853521
233.64325 966.78625 2995.7146 853781
253.49329 974.87292 3020.7722 788502
270.91696 973.17725 3015.5181 1973300
288.44922 972.05725 3012.0474 1841716
308.36447 978.63031 3032.4153 2105146
329.46484 988.03394 3061.5535 1380642
347.31149 987.2077 3058.9932 2237248
366.66324 990.52936 3069.2856 2566214
384.63687 989.99005 3067.6147 1514032
397.99612 978.15869 3030.9539 6449797
419.84732 987.31848 3059.3367 7634840
437.72543 986.76373 3057.6177 7306390
454.36667 983.57556 3047.7388 7504025
473.52673 985.87531 3054.8647 7372439
489.76871 982.15393 3043.3335 8162468
508.47559 983.46429 3047.3938 9149362
528.43634 987.02679 3058.4329 9149104
542.36688 979.46313 3034.9956 8820908
563.28424 984.59741 3050.905 9413045
579.03082 980.6554 3038.6899 9807802
594.8559 977.07977 3027.6106 9742267
611.83185 975.54871 3022.8662 9676217
629.99951 975.95062 3024.1118 9479094
645.17395 971.82184 3011.3181 9742009
661.43658 969.51019 3004.155 9610424
680.06329 970.69403 3007.8235 9675446
699.61292 973.10107 3015.282 9675960
711.29132 964.71277 2989.2898 9280944
721.16669 954.34595 2957.1667 9478321
751.72443 971.19147 3009.3647 9412785
772.39337 974.77655 3020.4736 9741493
790.89374 975.52454 3022.7915 9807542
809.2547 976.07117 3024.4854 9610163
827.92877 976.96368 3027.2507 9741491
842.80554 973.4325 3016.3088 9544369
855.96979 968.11102 2999.8198 9675185
876.85919 971.56549 3010.5239 9740978
892.20099 968.85815 3002.1348 9675185
911.75519 970.74139 3007.9702 9675699
928.60602 969.72937 3004.8345 9741492
945.68774 968.99219 3002.55 9675699
962.74255 968.255 3000.2659 9610163
981.21875 968.94812 3002.4136 9806516
999.20007 969.13666 3002.9978 9740723
1018.2945 970.37927 3006.8481 9477551
1035.0797 969.4165 3003.8647 9740722
1053.9257 970.38361 3006.8616 9674931
1071.2357 969.92792 3005.4495 9609395
1087.583 968.62958 3001.4265 9674931
1106.6171 969.72754 3004.8286 9543346
1125.1996 970.40131 3006.9165 9674674
1141.3789 969.01385 3002.6172 9412273
1160.542 970.16315 3006.1785 9149102
1174.1815 966.73004 2995.5405 9412274
1190.7501 965.77496 2992.5811 9412273
1210.2235 967.16919 2996.9014 9346481
1232.6919 970.88208 3008.4062 9412273
1249.5072 970.10022 3005.9834 9215408
1260.9836 965.25336 2990.9648 9215152
1275.7816 963.04822 2984.1321 9280432
1298.0988 966.50189 2994.8335 1646126
1312.4199 963.9892 2987.0476 9214898
1356.3258 982.98462 3045.9075 9346740
1372.8258 981.87988 3042.4841 9346739
1381.8633 975.53546 3022.8252 9346995
1396.2853 973.10602 3015.2974 9610167
1414.5137 973.35724 3016.0757 9873341
1428.2394 970.54248 3007.3538 9741498
1444.2448 969.32709 3003.5879 9609913
1463.1487 970.06299 3005.8682 9742013
1478.1884 968.25006 3000.2505 9807036
1494.1985 967.10828 2996.7126 9807292
1505.9147 963.24677 2984.7471 9938878
1522.0813 962.28857 2981.7778 10268098
1544.7805 965.43488 2991.5273 10334148
1561.0844 964.55829 2988.811 10531269
1579.3876 964.92297 2989.9412 10728647
1598.0354 965.48779 2991.6912 10794440
1615.8986 965.57123 2991.9497 10860489
1627.2812 961.82257 2980.334 10992074
1641.4215 959.76666 2973.9636 11058123
1658.5264 959.4696 2973.0432 11058124
1678.9783 961.09473 2978.0786 10860745
1693.4357 959.29016 2972.4871 11058124
1704.0748 955.3822 2960.3777 10926283
1717.416 953.05322 2953.1611 10794699
1731.9941 951.45081 2948.1958 10860235
1748.8816 951.13629 2947.2212 10859978
1760.8165 948.16113 2938.0022 10794441
1776.0273 946.99097 2934.3765 10662856
1793.4364 947.00433 2934.4177 10662856
1812.7958 948.03735 2937.6187 10597062
1826.7322 946.24158 2932.0542 10531269
1844.9117 946.6568 2933.3411 10531267
1862.202 946.6123 2933.2031 10597060
1878.0649 945.84985 2930.8403 10465733
1892.7917 944.53436 2926.7644 10597062
1911.9904 945.45404 2929.614 10597062
1932.9971 947.24316 2935.1577 10268098
1948.2412 946.20166 2931.9307 10136511
1970.6631 948.63385 2939.467 10333377
1996.0968 952.46051 2951.3245 10136510
1996.2872 944.28021 2925.9766 10004925
2011.0981 943.09692 2922.3101 10004924
2027.7092 942.77081 2921.2996 9873595
2044.8668 942.70221 2921.0872 9873340
2066.9407 944.88214 2927.842 9807547
2078.0884 942.07257 2919.1362 9741753
2083.6606 936.8028 2902.8069 9741496
2102.937 937.73004 2905.6802 9807289
2120.864 938.04541 2906.6575 9478836
2128.6353 933.90002 2893.8125 9412786
2151.0481 936.19342 2900.9187 9346993
2165.1394 934.85724 2896.7786 9346737
2178.1226 933.0675 2891.2327 9215151
2186.5452 929.36725 2879.7668 9215407
2202.1921 928.77112 2877.9199 9149357
2220.7864 929.4176 2879.9231 9083821
2242.6497 931.41205 2886.103 9084077
2270.0396 935.65405 2899.2476 9083821
2294.6565 938.69812 2908.6799 9149615
2315.2207 940.05121 2912.8728 9281201
2317.6125 934.06036 2894.3091 9281458
2342.3845 937.11102 2903.7622 9149869
2367.332 940.18695 2913.2932 9084075
2372.48 935.4118 2898.4968 8821160
2381.718 932.3064 2888.8743 8624038
2405.8022 935.01526 2897.2681 8295587
2421.0786 934.28674 2895.0107 8690344
2394.2556 917.43689 2842.7991 8690600
2456.7756 934.81793 2896.6565 8822185
2512.6382 949.44208 2941.9714 9215914
2535.9055 951.63306 2948.7605 9150120
2562.199 954.92188 2958.9512 9149864
2566.9392 950.18774 2944.282 9149609
2601.2627 956.3941 2963.5134 8688801
2488.6672 908.86267 2816.2307 7965080
2634.4548 955.69739 2961.3542 6386818
2669.0718 961.85004 2980.4192 5135978
2676.209 958.08398 2968.7498 5069409
2707.2722 962.87683 2983.6008 3489605
2739.085 967.87231 2999.0801 4409928
2720.6194 955.15179 2959.6638 4409669
2744.3916 957.32794 2966.4067 5331033
2752.9414 954.2002 2956.7151 3224368
2755.9707 949.21051 2941.2542 1184788
2767.3882 947.15454 2934.8833 197383
2802.1885 953.07721 2953.2354 4474704
2821.9109 953.82983 2955.5676 2302760
0 0 0 0
0 0 0 0
0 0 0 0
0 0 0 0
0 0 0 0
0 0 0 0
0 0 0 0
0 0 0 0
0 0 0 0
-2719.6567 1013.6954 3084.4478 13482139
-2706.4185 1015.5847 3090.1963 12691600
-2674.3813 1010.3974 3074.4126 7822669
-2713.7444 1032.2993 3141.0552 8217428
-2710.803 1038.3 3159.3142 8480347
-2684.3752 1035.326 3150.2646 8414296
-2660.241 1033.2009 3143.7988 7756370
-2628.3655 1028.0182 3128.0288 8282458
-2614.9368 1030.0281 3134.1443 8414299
-2583.0022 1024.725 3118.0083 8151127
-2536.8774 1013.6757 3084.3875 8874079
-2498.7839 1005.6982 3060.114 10189681
-2460.9443 997.70709 3035.7988 11965064
-2399.771 980.06879 2982.1294 12885648
-2336.0693 961.12872 2924.499 12622221
-2320.606 961.90057 2926.8477 12227719
-2288.8079 955.86212 2908.4741 12293512
-2274.3623 957.03406 2912.0398 10451308
-2248.6089 953.42926 2901.0713 10319210
-2240.7729 957.4245 2913.2278 9793377
-2204.229 949.1203 2887.9602 10648686
-2185.2378 948.30347 2885.4749 11109493
-2183.6235 955.07416 2906.0764 11570299
-2180.156 961.13538 2924.5193 11176052
-2148.7219 954.86566 2905.4421 10649710
-2167.136 970.82562 2954.0046 11439998
-2151.4836 971.6601 2956.5437 10716277
-2168.9072 987.56879 3004.9502 10650998
-2161.9258 992.53644 3020.0657 11571329
-2169.793 1004.461 3056.3494 11111034
-2159.8906 1008.291 3068.0032 11111805
-2127.6621 1001.675 3047.8723 10651256
-2129.5791 1011.1585 3076.7285 11177601
-2124.3716 1017.3939 3095.7014 11046272
-2092.5425 1010.8774 3075.873 9006689
-2083.8433 1015.5182 3089.9939 7625552
-2075.9053 1020.6155 3105.5039 7822418
-2068.0298 1025.8351 3121.3857 7690576
-2063.4709 1032.8087 3142.6052 7163977
-2036.1378 1028.4067 3129.2109 6637634
-2029.0929 1034.2649 3147.0361 6439998
-2028.4049 1043.5022 3175.1431 6769989
-2029.0267 1053.5925 3205.8457 6112060
-1998.5868 1047.592 3187.5874 6506307
-1979.8665 1047.6786 3187.8508 6177341
-1951.5968 1042.665 3172.5957 6637379
-1927.7548 1039.9425 3164.3115 5321004
-1889.3754 1029.2471 3131.7678 5978935
-1864.2379 1025.6249 3120.7461 6506048
-1856.3589 1031.5198 3138.6833 7295310
-1863.7301 1046.094 3183.0295 7229517
-1843.9695 1045.5815 3181.4702 6900807
-1808.424 1036.0157 3152.3635 6835013
-1765.9613 1022.2462 3110.4658 6966598
-1757.2549 1027.9325 3127.7681 7492943
-1752.6169 1036.1453 3152.7573 6176825
-1723.3633 1029.8253 3133.5276 5979448
-1699.9532 1026.8978 3124.6196 6440255
-1703.2917 1040.2417 3165.2222 5716789
-1670.7706 1031.7388 3139.3496 6703939
-1655.6848 1033.932 3146.0234 6703940
-1655.1764 1045.3823 3180.8638 6769733
-1625.7983 1038.6527 3160.3872 6309181
-1579.1864 1020.6279 3105.5417 6703938
-1568.0374 1025.3682 3119.9651 6703681
-1546.712 1023.4877 3114.2432 6703681
-1526.475 1022.2904 3110.6003 6440255
-1521.7914 1031.6075 3138.9502 6506305
-1497.1443 1027.4547 3126.3142 5717045
-1480.187 1028.5413 3129.6204 5914167
-1479.5146 1041.1149 3167.8792 6769478
-1462.582 1042.4225 3171.8579 6177341
-1426.5698 1029.9886 3134.0244 6769734
-1413.5911 1034.0763 3146.4622 6572355
-1388.905 1029.5946 3132.8254 6901062
-1368.8297 1028.4558 3129.3601 6111033
-1350.3082 1028.4692 3129.4009 5781297
-1314.2942 1014.9742 3088.3386 4991781
-1300.1594 1018.233 3098.2546 6504506
-1280.9261 1017.5352 3096.1313 6044470
-1263.5737 1018.3328 3098.5583 7097158
-1248.5396 1021.0499 3106.8257 6900293
-1226.2356 1017.8141 3096.98 7097669
-1208.6957 1018.4943 3099.0496 8150100
-1180.5747 1010.1422 3073.6357 8084304
-1169.3665 1016.226 3092.1475 7952718
-1163.6863 1027.384 3126.0991 8018768
-1140.9775 1023.6259 3114.6638 8084560
-1116.5786 1018.2029 3098.1628 8347989
-1097.1282 1017.1865 3095.0703 8413783
-1085.0928 1023.1271 3113.1462 7755594
-1072.9618 1029.1816 3131.5688 9465699
-1047.7507 1022.6819 3111.7917 8216144
-1026.9506 1020.332 3104.6414 8347474
-1015.6402 1027.4969 3126.4426 9071197
-989.3667 1019.509 3102.1372 9531493
-968.93219 1017.3495 3095.5662 8939613
-954.2793 1021.2943 3107.5693 8676956
-934.07745 1019.3389 3101.6194 9071714
-914.83002 1018.3674 3098.6633 8545370
-892.32397 1013.6544 3084.3228 9203302
-874.27502 1013.9133 3085.1106 8479579
-845.83704 1001.8776 3048.4888 7756113
-826.13916 999.89526 3042.4568 9663340
-805.80029 997.03125 3033.7424 8544859
-787.9856 997.23102 3034.3503 9532010
-774.14972 1002.5932 3050.666 9794667
-742.17444 984.15771 2994.5713 9729132
-722.11603 981.00891 2984.99 9531755
-702.30249 978.04291 2975.9651 8808544
-691.9574 988.44965 3007.6306 7821649
-673.32361 987.25336 3003.9905 9729386
-651.7475 981.56091 2986.6694 9071457
-630.15491 975.52515 2968.304 8939615
-608.48016 969.01196 2948.4861 9334630
-609.4209 999.19373 3040.3223 9137506
-571.17145 965.00159 2936.2832 9861744
-566.62335 987.38873 3004.4023 9006691
-552.45569 993.92151 3024.28 8480350
-538.62646 1001.5214 3047.4048 7428947
-519.73792 999.91486 3042.5166 6507590
-501.95178 1000.39 3043.9622 8021348
-484.1478 1000.8638 3045.4038 5718592
-452.03067 970.63965 2953.4387 8086368
-441.54858 986.30878 3001.1165 9598576
-418.121 973.16266 2961.1157 8545625
-404.48987 982.66449 2990.0273 8544853
-384.28271 976.32916 2970.7505 8282195
-369.70889 984.38507 2995.2629 8413525
-349.17813 976.59259 2971.5522 8084561
-331.59946 976.66766 2971.7805 8216147
-314.34747 977.76727 2975.1265 7952977
-296.14279 975.85815 2969.3174 7559502
-277.2991 971.46924 2955.9629 8282970
-261.73962 978.76996 2978.1772 7624526
-247.37903 991.93317 3018.2302 6571840
-225.28548 973.72443 2962.825 7229513
-208.45857 977.12524 2973.1729 6637890
-192.41803 985.18011 2997.6821 6966855
-170.59749 962.27032 2927.9727 7295820
-155.55325 976.7229 2971.9487 6046010
-137.43869 973.12561 2961.0029 6835528
-111.15559 902.17706 2745.1226 6769995
-94.122772 894.85559 2722.8447 6967891
-76.641335 879.35809 2675.6895 3349537
-62.064102 897.78943 2731.772 1575436
-45.356853 887.5434 2700.5955 10587020
-29.207071 882.98315 2686.7195 8284005
-13.568969 901.49487 2743.0466 8941165
2.7972906 940.43677 2861.5381 5848893
20.102829 957.2525 2912.7046 5981249
37.295731 955.64795 2907.8223 4797490
54.694012 958.65717 2916.9788 1838606
72.60965 967.11224 2942.7056 5455676
91.336708 981.00848 2984.9885 4533037
108.84275 979.40936 2980.123 6440007
127.76236 989.20129 3009.9175 4071716
146.55093 995.70435 3029.7048 5189940
163.4819 989.54431 3010.9614 4992818
179.84035 981.47174 2986.3984 6440521
197.49693 981.29523 2985.8613 5783105
217.36452 991.23053 3016.092 4533038
234.41707 987.79431 3005.6365 4796210
250.24153 980.03363 2982.0225 4993589
268.49097 982.16718 2988.5144 4072744
287.63254 987.09845 3003.5193 4401453
304.82059 985.14178 2997.5654 4073257
327.92291 1001.4622 3047.2249 5060665
345.96542 1001.4335 3047.1375 5126972
359.66687 989.46509 3010.7202 3942700
375.45901 984.10748 2994.4182 4074284
396.12686 991.43628 3016.7183 4138796
413.81952 991.00751 3015.4136 4994362
434.66635 997.8551 3036.2493 5257280
456.03629 1005.3118 3058.938 5257539
479.49719 1016.6317 3093.3821 3021348
492.18481 1005.1174 3058.3467 3153192
498.23553 981.34845 2986.0232 3220014
518.21967 985.7124 2999.3015 2365477
537.76086 988.97247 3009.2212 2168868
555.76672 989.29034 3010.1885 3222324
568.15479 979.89923 2981.6135 3420993
584.71832 978.05896 2976.0139 3354688
604.37292 981.3454 2986.0139 3289410
620.6864 979.17419 2979.4072 3026495
621.71344 953.67438 2901.8171 3881550
651.20874 972.04059 2957.7014 4670810
666.81934 969.26221 2949.2473 3158854
685.14514 970.4715 2952.927 2764356
702.22559 969.90051 2951.1897 5857144
721.83783 972.76935 2959.9189 6384515
736.39331 968.849 2947.99 6779531
755.59113 971.0766 2954.7681 6648459
764.12396 959.80701 2920.4775 7307159
789.61908 969.87097 2951.0999 8885937
801.7384 963.4256 2931.488 7767714
823.44946 968.53528 2947.0356 8688301
843.62408 971.66327 2956.5532 8688558
856.95404 966.94073 2942.1836 8622761
878.97321 972.0155 2957.625 9741754
901.94824 977.92834 2975.6165 9413048
915.39777 973.48431 2962.0945 9675962
934.92566 975.55023 2968.3804 9544377
950.38556 973.37335 2961.7566 9544121
967.51813 972.95752 2960.4915 9544121
986.80829 974.6875 2965.7554 9544377
1004.5564 974.8606 2966.282 9412534
1020.5848 973.38739 2961.7996 9478583
1036.3849 971.75006 2956.8174 9543862
1055.1847 972.93298 2960.4167 9609654
1076.3414 976.2149 2970.4031 9675447
1094.1458 976.39978 2970.9653 9543604
1107.5703 972.73193 2959.8049 9609397
1125.4058 972.99207 2960.5964 9478324
1134.873 966.1203 2939.6875 9281202
1155.49 968.80475 2947.8555 9478324
1175.7192 971.08887 2954.8057 9346996
1192.1687 970.22986 2952.1919 9346740
1210.6259 971.00604 2954.5535 9412277
1227.7749 970.72583 2953.7009 9280948
1243.6453 969.45685 2949.8396 9083570
1256.8132 966.14539 2939.7637 8951725
1276.0095 967.49548 2943.8716 7502995
1284.8308 961.04852 2924.2551 4081759
1308.7339 965.90417 2939.0298 9150387
1336.0465 973.11572 2960.9729 9149620
1349.9647 970.51099 2953.0471 9215667
1359.9521 965.18311 2936.8354 9149875
1385.3811 970.81036 2953.9583 7702429
1405.019 972.28992 2958.4602 9084082
1416.1899 967.94592 2945.2422 9149876
1436.9646 970.19177 2952.0759 9084084
1456.2942 971.41974 2955.8123 9018033
1472.1434 970.32446 2952.4797 9018033
1483.9724 966.63617 2941.2571 9083826
1503.2961 967.85883 2944.9773 9215156
1521.6218 968.41827 2946.6794 9346742
1539.3639 968.59784 2947.2258 9346487
1553.8077 966.72125 2941.5159 9280950
1568.9655 965.32556 2937.269 9281719
1590.5266 967.85706 2944.9719 9347256
1601.6318 964.03998 2933.3574 9544635
1618.208 963.56262 2931.9048 9610427
1632.1818 961.56219 2925.8181 9873598
1649.7594 961.70483 2926.252 9742012
1664.2655 960.07245 2921.2849 9807805
1674.007 955.7533 2908.1428 10268356
1690.54 955.36023 2906.9468 10399942
1704.2394 953.38989 2900.9517 10531527
1721.457 953.40759 2901.0054 10531526
1736.9818 952.49652 2898.2332 10597319
1751.7974 951.2182 2894.3435 10597320
1769.1439 951.32556 2894.6704 10531526
1783.3466 949.75659 2889.8962 10597319
1798.0541 948.48383 2886.0234 10663112
1815.1688 948.49286 2886.051 10662854
1832.0869 948.39984 2885.7681 10728646
1846.204 946.87213 2881.1194 10926027
1863.0333 946.75061 2880.7498 10991820
1876.6166 944.99677 2875.4131 10926027
1894.8551 945.59747 2877.241 11057613
1911.923 945.60858 2877.2749 10991820
1929.7291 945.98145 2878.4094 10992333
1940.8654 943.10675 2869.6621 11058127
1958.3882 943.35822 2870.4275 11123663
1972.9778 942.20477 2866.9177 10992077
1986.0007 940.32922 2861.2107 10794698
1999.9136 938.90314 2856.8716 10662856
2013.9697 937.56769 2852.8081 10465733
2028.307 936.38422 2849.207 10334147
2037.5645 932.89459 2838.5889 10334147
2055.7356 933.50977 2840.4607 10202561
2070.019 932.36389 2836.9741 10070975
2086.9971 932.44037 2837.2068 9939645
2095.3806 928.70642 2825.8452 9742264
2115.9678 930.39752 2830.991 9676217
2132.4822 930.2854 2830.6499 9478838
2149.4663 930.37836 2830.9326 9413046
2166.2517 930.38446 2830.9512 9281459
2180.4329 929.2807 2827.5928 9149873
2198.5269 929.84857 2829.3206 9215409
2220.0374 931.84192 2835.3857 8952494
2234.5591 930.89374 2832.501 9149360
2261.3623 935.03815 2845.1113 8820394
2283.9524 937.39191 2852.2732 8820394
2287.7266 932.04535 2836.0049 9215151
2300.043 930.23145 2830.4856 9149358
2318.5774 930.94061 2832.6433 9215150
2328.3691 928.15424 2824.1653 9215405
2345.8599 928.45502 2825.0803 8952233
2356.7268 926.14844 2818.062 9083818
2361.9155 921.65863 2804.4004 9215405
2404.9019 931.87762 2835.4946 9215406
2412.6201 928.38373 2824.8633 9149613
2389.7666 913.25482 2778.8296 9018029
2405.2192 912.87152 2777.6633 8952235
2437.6221 918.88312 2795.9551 9018026
2471.4004 925.32843 2815.5667 8886439
2485.0591 924.20477 2812.1477 8820645
2479.0139 915.81696 2786.6255 8755110
2525.7512 926.91034 2820.3804 8689574
2556.105 931.88507 2835.5171 8689575
2598.2644 941.07068 2863.4668 8886696
2621.7615 943.42157 2870.6201 8820901
2631.6323 940.87054 2862.8579 8755876
2643.3193 938.99725 2857.158 8821154
2659.1724 938.61847 2856.0054 8557726
2681.814 940.62531 2862.1118 8688798
2677.9275 933.36102 2840.0081 8819613
2761.124 956.34967 2909.9575 5595755
2768.9138 953.09711 2900.0605 5267045
0 0 0 0
0 0 0 0
0 0 0 0
0 0 0 0
0 0 0 0
0 0 0 0
0 0 0 0
0 0 0 0
0 0 0 0
-2710.1724 1028.3696 3073.6912 13679519
-2655.9382 1014.6075 3032.5579 9730918
-2662.0947 1023.8853 3060.2881 9335648
-2676.094 1036.3273 3097.4761 8809051
-2640.7039 1029.683 3077.6169 9203811
-2642.386 1037.5022 3100.9878 8282707
-2603.7231 1029.4791 3077.0076 8677210
-2610.3071 1039.359 3106.5376 8545369
-2558.9111 1026.1292 3066.9946 8347218
-2522.0408 1018.5763 3044.4202 8873051
-2435.8047 990.83386 2961.501 9859429
-2392.0173 980.0816 2929.3633 9530208
-2344.0183 967.43365 2891.5601 11569276
-2306.0327 958.7627 2865.6436 12292999
-2293.7178 960.71527 2871.4795 12951442
-2279.4661 961.87976 2874.96 12228232
-2259.8438 960.7785 2871.6685 11635838
-2261.5508 968.79742 2895.6362 10188390
-2224.5837 960.24536 2870.075 10319715
-2206.6133 959.82452 2868.8171 10056025
-2180.8284 955.97168 2857.3013 11437411
-2170.7363 958.99127 2866.3267 11897697
-2152.2903 958.33887 2864.3767 11436109
-2164.9143 971.62042 2904.0737 11238726
-2145.6506 970.68872 2901.2891 10252349
-2128.375 970.6488 2901.1699 10580809
-2124.9243 976.96436 2920.0464 10515018
-2126.1702 985.56055 2945.7395 9660736
-2106.0925 984.33307 2942.0706 9661765
-2115.3169 996.89447 2979.6152 10714716
-2107.9077 1001.762 2994.1641 10518110
-2095.2271 1004.186 3001.4089 10452833
-2070.1091 1000.6395 2990.8088 10254942
-2040.0966 994.64545 2972.8933 10979438
-2062.7175 1014.4318 3032.0325 11768699
-2054.9531 1019.4912 3047.1548 8019014
-2034.5607 1018.3198 3043.6536 7361859
-2029.2646 1024.7509 3062.8755 7756108
-2014.5742 1026.5112 3068.137 8018770
-2000.3712 1028.5543 3074.2434 7361608
-1988.6931 1031.9451 3084.3779 6703423
-1959.1346 1026.0343 3066.7114 7558477
-1929.0103 1019.714 3047.8206 7821904
-1940.3099 1035.3785 3094.6406 6703422
-1914.1284 1031.1508 3082.0039 6505787
-1913.6212 1040.8055 3110.8611 5847860
-1880.7582 1032.8789 3087.1689 6111033
-1873.2533 1038.8595 3105.0447 6045499
-1853.2726 1037.9713 3102.3899 5979705
-1844.4684 1043.3878 3118.5793 6308670
-1823.0231 1041.6907 3113.5066 6308669
-1782.2303 1028.7905 3074.9495 7558479
-1769.9865 1032.2739 3085.3611 6768963
-1742.354 1026.7616 3068.8853 5123882
-1719.8318 1024.1763 3061.1577 6571585
-1709.665 1028.972 3075.4919 6374462
-1695.4337 1031.3984 3082.7441 6439998
-1686.7581 1037.2942 3100.3662 6506047
-1673.6575 1040.5686 3110.1528 5716273
-1647.3887 1035.6378 3095.415 6045239
-1637.666 1041.1149 3111.7854 6307897
-1623.2155 1043.6766 3119.4424 6242874
-1588.3781 1033.0383 3087.6458 6505788
-1559.7906 1026.2645 3067.3994 6834754
-1545.4141 1028.7911 3074.9512 7032132
-1522.8429 1025.8577 3066.1836 6835266
-1510.0527 1029.522 3077.1355 6440253
-1488.043 1026.9133 3069.3386 6769218
-1488.8274 1040.1652 3108.947 6703169
-1454.5173 1028.9232 3075.3459 7229512
-1431.6562 1025.5978 3065.4067 6571583
-1408.7465 1022.1516 3055.1062 2627089
-1415.7974 1040.6373 3110.3584 5781038
-1385.5952 1031.8678 3084.1472 6307639
-1340.3127 1011.4835 3023.2205 6966339
-1337.0488 1022.6861 3056.7041 6045238
-1302.2709 1009.7609 3018.072 5913652
-1296.6941 1019.4333 3046.9817 6044212
-1277.035 1018.1512 3043.1497 5386539
-1231.8176 996.16364 2977.4309 6110262
-1244.3829 1020.9444 3051.4983 5058085
-1216.3055 1012.6194 3026.6155 5913394
-1190.1804 1005.695 3005.9192 5518126
-1184.0889 1015.7454 3035.959 6439741
-1168.3423 1017.6958 3041.7883 6308410
-1154.2656 1021.1847 3052.2163 7360585
-1143.3409 1027.6177 3071.4438 5189157
-1119.4884 1022.4513 3056.0022 6439222
-1100.0449 1021.2083 3052.2869 5649450
-1089.1281 1027.9714 3072.5015 6044207
-1056.9036 1014.5116 3032.2712 7689545
-1037.5786 1013.1824 3028.2986 5978925
-1034.6674 1028.1163 3072.9343 7557702
-1008.2536 1019.8134 3048.1174 7426116
-985.53741 1015.0156 3033.7773 7426117
-975.87262 1023.7309 3059.8269 7163202
-949.14734 1014.5404 3032.3572 6242358
-936.20166 1020.0084 3048.7004 6966338
-920.0412 1022.12 3055.012 8545369
-899.75659 1019.6426 3047.6074 8742493
-875.52509 1012.4995 3026.2573 7953235
-870.65631 1027.9178 3072.3411 8019029
-836.53955 1008.7263 3014.9797 7295562
-820.258 1010.673 3020.7981 6900290
-797.62183 1004.7019 3002.9512 7558477
-776.42151 1000.3085 2989.8196 7097928
-751.6203 990.96228 2961.8848 7755857
-731.11182 986.96436 2949.9353 10189170
-712.97083 986.0448 2947.1868 7886674
-697.20667 988.44879 2954.3721 8742494
-682.24164 992.13861 2965.4006 8807774
-661.03894 986.71265 2949.1831 9728874
-636.58142 976.00214 2917.1702 9335143
-621.52448 979.50861 2927.6509 9795440
-577.71222 936.59796 2799.3953 9400941
0 0 0 0
-506.75964 871.61047 2605.1545 4206894
-525.88385 932.91577 2788.3896 5783869
0 0 0 0
-470.65005 890.90125 2662.8125 8350313
-454.01489 889.21674 2657.7776 4205354
-428.32092 869.03149 2597.446 4863283
-412.31537 867.73163 2593.5608 5520184
-393.56546 860.33185 2571.4438 5585459
-409.71884 931.70679 2784.7761 8216406
-403.48346 956.0224 2857.4529 8809054
-385.72888 953.9787 2851.3445 8743005
-373.20453 965.27539 2885.1091 7360583
-355.00192 962.26501 2876.1116 7820876
-341.6731 972.82812 2907.6836 7689035
-319.72778 958.677 2865.3872 6965312
-305.54947 967.53345 2891.8582 8544602
-290.61404 974.90222 2913.8828 8873310
-273.07571 973.91852 2910.9426 8347993
-253.24765 964.08527 2881.552 8282200
-240.63255 982.27441 2935.9175 8545630
-221.0408 972.59985 2907.0012 8677217
-203.19792 969.63586 2898.1423 8874339
-184.32495 960.75555 2871.5999 9138023
-168.55719 967.90039 2892.9548 8743265
-146.74281 938.01123 2803.6194 7098184
-129.17479 931.10052 2782.9641 8151132
-111.07169 917.7464 2743.05 4138018
-94.244514 912.16461 2726.3665 983811
-76.833176 897.45032 2682.387 1048577
-60.370514 889.03278 2657.228 983040
-44.708939 890.63538 2662.0178 3282971
-28.687653 882.91376 2638.9387 1049347
-12.993295 878.80927 2626.6707 10652038
2.596123 888.53833 2655.75 7755859
19.655079 952.80273 2847.8298 4465693
36.823895 960.56653 2871.0349 4202524
53.953613 962.72668 2877.4912 4071452
71.309212 966.91229 2890.0017 5189932
89.517532 978.80103 2925.5359 5255724
107.81625 987.66101 2952.0176 6045240
124.9495 984.86145 2943.6499 7097928
142.47693 985.47418 2945.4814 5847861
159.89626 985.28705 2944.9219 5255724
176.14671 978.64264 2925.0625 5979703
192.9695 976.0835 2917.4133 6440257
211.81738 983.34637 2939.1216 5848120
229.27054 983.52283 2939.6489 4860968
244.91196 976.45105 2918.5122 5848120
265.17886 987.53741 2951.6482 5387827
282.78296 987.94934 2952.8792 6046526
297.66599 979.36041 2927.2078 5388086
315.33588 980.38153 2930.2598 5586234
332.8349 980.7926 2931.4885 4270377
351.02032 983.08527 2938.3411 4730671
369.95013 987.14764 2950.4829 4993843
385.12524 981.27655 2932.9351 3743263
402.46646 981.1933 2932.6863 5717309
420.73383 983.28143 2938.9272 5190966
435.71948 977.83881 2922.6599 4796208
456.345 984.98535 2944.0203 5059636
473.99637 985.42255 2945.3271 4993589
490.47498 983.47729 2939.5127 4534064
508.2403 984.1568 2941.5439 5060666
523.89606 980.84186 2931.6357 4140079
545.53448 988.58099 2954.7673 4140594
558.16241 980.01843 2929.1748 4074802
581.42657 990.08417 2959.26 3942959
595.05542 983.63336 2939.9792 3415588
603.30896 968.91656 2895.9922 4665913
619.48322 967.38275 2891.4077 4600121
641.47369 974.76959 2913.4863 4140084
663.79187 982.25421 2935.8572 1904408
680.94855 981.91382 2934.8398 1378839
696.565 979.42493 2927.4006 262156
710.65344 974.96045 2914.0569 131086
728.41394 975.6261 2916.0464 262415
745.17072 974.94757 2914.0186 197136
764.19885 977.20435 2920.7637 131593
773.40631 967.08124 2890.5066 328462
788.89752 965.08386 2884.5366 65806
802.27679 960.64215 2871.261 1973808
822.07959 963.91687 2881.0488 2302514
838.93524 963.67297 2880.3196 2171186
862.88477 971.42493 2903.4895 2697269
876.54797 967.52002 2891.8181 2236463
903.59308 978.25238 2923.8962 1775649
926.00787 983.66254 2940.0664 2369335
935.83667 975.75006 2916.417 2566974
940.57416 962.91223 2878.0459 2960705
980.521 985.9353 2946.8596 2106941
997.08014 985.04749 2944.2058 2633031
1016.285 986.75891 2949.3213 2764875
1027.0439 980.35059 2930.1675 4542060
1045.5398 981.41779 2933.3572 4147558
1053.7852 972.9856 2908.1541 6187397
1071.8571 973.75171 2910.4441 6384777
1090.0063 974.56268 2912.8682 6582155
1106.9747 974.30914 2912.1104 7371927
1118.551 969.39038 2897.4084 8161699
1148.5306 980.32837 2930.1011 8820143
1161.2542 976.43097 2918.4521 8885935
1178.1193 976.07928 2917.4009 9412278
1191.4922 972.88635 2907.8577 9412791
1215.3545 978.22729 2923.821 9346999
1226.7413 973.51776 2909.7446 9413048
1238.6934 969.38098 2897.3804 8886962
1259.5757 972.25049 2905.957 9742271
1277.8088 973.02539 2908.2732 3291978
1293.5458 971.90411 2904.9219 6188935
1291.4534 957.5921 2862.1448 9478583
1304.8284 954.97131 2854.3113 9084340
1266.5886 915.12524 2735.2156 8821168
1261.974 900.2735 2690.8252 8886961
1263.354 890.0155 2660.165 9018548
1367.8816 951.78088 2844.7756 8952498
1400.5149 962.62732 2877.1943 8557484
1409.3002 957.01819 2860.4292 8294569
1448.6433 972.04694 2905.3486 8689326
1457.5472 966.53772 2888.8821 8754864
1476.3561 967.64819 2892.2014 8820656
1493.7808 967.83661 2892.7644 8820656
1514.1298 969.8938 2898.9131 8952242
1526.7081 966.98322 2890.2136 8886707
1541.9956 965.83392 2886.7786 8820913
1558.1959 965.27539 2885.1091 9018037
1570.4241 962.29492 2876.2009 9149877
1589.6683 963.63159 2880.196 9215671
1602.5906 961.14825 2872.7734 9215671
1618.3314 960.38971 2870.5066 9413049
1636.2275 960.91284 2872.0698 9478842
1663.5363 966.89594 2889.9529 9544635
1662.6819 956.55475 2859.0439 9742014
1678.178 955.73364 2856.5901 9675963
1695.9382 956.20575 2858.001 9675708
1709.8796 954.53662 2853.012 9741758
1725.4352 953.7923 2850.7874 9873088
1747.179 956.45001 2858.7312 10070465
1755.8827 951.98694 2845.3914 10070462
1775.9309 953.70081 2850.5139 10070719
1791.7579 953.1369 2848.8286 10268098
1806.2484 951.87921 2845.0693 10334147
1820.6826 950.6153 2841.2917 10334150
1842.8367 953.36835 2849.5203 10597319
1850.6863 948.73834 2835.6816 10663112
1866.8601 948.42065 2834.7322 10729161
1880.6493 946.90796 2830.2109 11058124
1895.0645 945.73444 2826.7031 11255246
1913.2795 946.46112 2828.8752 11320783
1925.2506 944.11322 2821.8577 11320783
1939.9163 943.11572 2818.8762 11386574
1953.9613 941.83618 2815.0518 11386574
1967.749 940.45526 2810.9243 11189452
1977.4935 937.1814 2801.1392 11189710
1992.1312 936.26178 2798.3904 11255503
2003.2922 933.73676 2790.8433 10992331
2016.547 932.22095 2786.313 10860746
2029.5092 930.5957 2781.4551 10860748
2042.5875 929.04938 2776.8333 10728905
2052.519 926.10797 2768.0417 10597319
2064.9404 924.3277 2762.7207 10597319
2076.2952 922.10162 2756.0674 10860234
2087.3054 919.75861 2749.0642 10597064
2107.4763 921.45721 2754.1411 10465476
2129.2104 923.80792 2761.1672 10399683
2146.3301 924.13599 2762.1477 10136511
2170.4272 927.44055 2772.0249 9939132
2191.2717 929.31604 2777.6304 9610168
2210.3108 930.40369 2780.8813 9347252
2228.542 931.1377 2783.075 9412788
2244.929 931.09601 2782.9504 9281203
2256.0967 928.90588 2776.4045 9281202
2273.3337 929.22839 2777.3684 9346996
2278.5808 924.68054 2763.7754 9346996
2287.7371 921.77277 2755.0842 9346996
2298.3147 919.47473 2748.2156 9150130
2315.5935 919.87097 2749.4001 9083824
2329.7156 919.0166 2746.8464 9149873
2333.9897 914.31622 2732.7974 9084080
2361.0713 918.55359 2745.4626 9149362
2356.3867 910.45923 2721.2693 9149106
2369.6272 909.35364 2717.9648 9149361
2384.4167 908.85339 2716.4697 9083824
2403.5627 910.00928 2719.9246 9083823
2415.4573 908.42273 2715.1824 8952493
2431.7471 908.49896 2715.4104 8886445
2451.9937 910.04291 2720.0249 8886444
2466.0696 909.2915 2717.7791 8820907
2482.894 909.55664 2718.5715 8886443
2497.3813 908.96765 2716.811 8952236
2529.3127 914.6947 2733.9287 8886443
2539.1572 912.41223 2727.1064 8754857
2567.1616 916.64282 2739.7515 8623270
2653.0254 941.3501 2813.5989 8426403
2681.9358 945.66663 2826.5007 8557732
2742.2554 960.93597 2872.1392 9281198
0 0 0 0
0 0 0 0
0 0 0 0
0 0 0 0
0 0 0 0
0 0 0 0
0 0 0 0
0 0 0 0
0 0 0 0
-2646.4697 1021.9789 3001.4441 10256232
-2676.7209 1040.653 3056.2876 9466204
-2656.4729 1039.8146 3053.8252 8939603
-2631.5234 1037.1117 3045.8875 9531999
-2610.0217 1035.7399 3041.8584 9465697
-2556.7646 1021.6597 3000.5063 9465953
-2529.0166 1017.6469 2988.7214 9268576
-2485.3625 1007.1321 2957.8403 9136989
-2463.1365 1005.2127 2952.2034 9794406
-2385.5674 980.51868 2879.6797 10583407
-2353.6572 974.37091 2861.6243 9003093
-2354.9722 981.98846 2883.9961 9003349
-2319.4043 974.22522 2861.1963 10318438
-2285.4607 967.03497 2840.0793 12555399
-2277.208 970.68903 2850.811 12950155
-2266.4058 973.30298 2858.4878 12094844
-2241.6567 969.92175 2848.5574 11437168
-2227.45 971.08521 2851.9744 10187100
-2219.801 975.14716 2863.9041 9858384
-2193.2373 970.89868 2851.4268 11701338
-2182.4219 973.60974 2859.3889 12160854
-2162.2817 972.1709 2855.1631 11240001
-2158.8584 978.28442 2873.1179 11173693
-2147.8105 981.01263 2881.1301 11502146
-2148.8494 989.34937 2905.6145 10055472
-2143.668 994.93384 2922.0154 9003043
-2114.4048 989.34125 2905.5906 9332781
-2096.1626 988.8559 2904.1653 10121793
-2101.1895 999.43042 2935.2214 11043412
-2090.8921 1002.8315 2945.2102 11241564
-2088.6284 1010.1757 2966.7791 11439200
-2061.3511 1005.4438 2952.8818 9860679
-2061.5059 1014.1254 2978.3792 9597763
-2043.2103 1013.8025 2977.4307 9861193
-2021.0951 1011.5622 2970.8511 10518873
-2011.7728 1015.7415 2983.1255 8215877
-2016.2263 1027.0121 3016.2258 6834744
-1983.3989 1019.3244 2993.6479 6966079
-1964.5662 1018.7551 2991.9761 6045234
-1947.8438 1019.2799 2993.5171 7954001
-1917.1144 1012.4172 2973.3623 7822158
-1900.3363 1012.8632 2974.6721 7361608
-1899.3914 1021.8354 3001.0227 7164231
-1879.7124 1020.8036 2997.9922 7295560
-1881.1053 1031.3044 3028.832 7756112
-1857.5687 1028.2085 3019.7397 6835009
-1859.8661 1039.4912 3052.8757 6900547
-1846.2511 1042.0145 3060.2864 6769217
-1833.9883 1045.3586 3070.1079 6769216
-1803.9857 1038.5571 3050.1323 7492941
-1788.8562 1040.267 3055.1538 7887442
-1751.3831 1028.8854 3021.7275 7164231
-1745.5647 1036.0573 3042.7903 7295818
-1725.972 1035.1177 3040.031 5584944
-1675.877 1015.6722 2982.9219 6769218
-1666.1122 1020.5153 2997.1453 6571838
-1651.1848 1022.2662 3002.2878 6440254
-1652.2833 1034.0854 3036.9995 6703424
-1632.8157 1033.1515 3034.2568 6703422
-1627.631 1041.3351 3058.2908 6571580
-1597.759 1033.7302 3035.9565 6439994
-1576.7202 1031.7325 3030.0894 6505273
-1561.9305 1033.825 3036.2346 6439994
-1523.557 1020.1744 2996.1443 6768702
-1499.6505 1016.0032 2983.894 6374201
-1480.8285 1015.2184 2981.5891 7032130
-1480.8906 1027.5176 3017.7102 6505789
-1464.4489 1028.5259 3020.6716 6440252
-1447.5422 1029.2286 3022.7358 6637374
-1420.1523 1022.4022 3002.6868 6637375
-1400.0026 1020.6807 2997.6311 5913651
-1392.1223 1027.9751 3019.054 6308154
-1375.0304 1028.5688 3020.7976 3611414
-1354.8575 1026.8431 3015.7295 4005144
-1321.4911 1014.9382 2980.7659 6636864
-1303.219 1014.4607 2979.3638 5716529
-1276.9631 1007.67 2959.4204 6703167
-1273.5044 1018.9302 2992.4905 6110260
-1241.4001 1007.2656 2958.2324 5847344
-1224.1635 1007.5031 2958.9299 6965825
-1208.2819 1008.879 2962.9707 7690058
-1176.3047 996.65784 2927.0786 11177338
-1174.1124 1009.6849 2965.3376 10518636
-1159.8928 1012.6075 2973.9211 10651249
-1155.9006 1024.6868 3009.3965 5716525
-1137.2815 1023.9747 3007.3054 6242613
-1105.3804 1011.091 2969.4673 6308407
-1088.5294 1011.7795 2971.4895 6242615
-1078.9348 1019.3464 2993.7126 6505530
-1056.8376 1015.1567 2981.408 6308151
-1037.3778 1013.401 2976.2515 6637373
-1022.8885 1016.5241 2985.4238 6506044
-1010.8534 1022.239 3002.2078 7162690
-987.51471 1016.523 2985.4204 6570553
-960.50934 1006.7551 2956.7334 6899775
-942.57135 1006.305 2955.4114 5847087
-921.01141 1001.8978 2942.468 6504761
-913.65942 1013.0745 2975.2927 6636603
-890.59894 1006.9305 2957.2483 7426119
-875.49658 1009.7181 2965.4353 6703422
-859.1225 1011.123 2969.5615 8216149
-838.69763 1007.7197 2959.5662 6373690
-817.31189 1002.9919 2945.6812 6307383
-797.15973 999.60468 2935.7332 6176054
-776.05829 994.8493 2921.7671 6570812
-755.89392 991.10571 2910.7727 7557707
-738.56543 990.99243 2910.4399 6505019
-717.45544 985.67859 2894.8337 7886415
-703.08459 989.58972 2906.3203 7689293
-685.79572 989.48694 2906.0186 7820621
-657.10785 972.50879 2856.1553 8018258
-651.31665 989.41522 2905.8079 8216663
-616.15112 961.40576 2823.5469 7032904
-533.64075 855.8974 2513.6802 3414550
-530.76184 875.71747 2571.8896 2954002
-517.9306 879.80334 2583.8892 7757150
-507.72934 888.74139 2610.1394 5848891
-487.54596 880.21924 2585.1108 7166034
-472.64114 880.98346 2587.3552 4073767
-453.51007 873.65723 2565.8389 2494736
-439.96359 876.95435 2575.522 2231564
-424.19641 875.90289 2572.4341 5850177
-404.48483 866.32495 2544.3047 6507589
-390.55301 868.86389 2551.7612 5848886
-380.40521 880.36444 2585.5374 7756109
-376.89938 908.8465 2669.1858 8282710
-364.14664 916.54858 2691.8064 8545370
-368.25702 969.3443 2846.8616 9202529
-352.94632 973.63324 2859.4578 9070687
-336.24158 974.31519 2861.4607 9136736
-320.18692 977.05322 2869.502 8478806
-303.06168 976.64819 2868.3125 8478807
-284.93649 972.78125 2856.9558 9465702
-266.77255 968.28534 2843.7517 8545370
-249.93762 968.33228 2843.8894 8742752
-233.77696 971.18701 2852.2734 8677215
-216.27022 968.45892 2844.2612 8874594
-196.71344 955.31409 2805.6562 8808544
-181.51044 962.83777 2827.7524 10190197
-163.85965 957.58667 2812.3308 5126194
-141.22908 918.75153 2698.2759 2296071
-126.17926 925.61316 2718.428 2362895
-108.38071 911.36859 2676.5933 1443335
-92.198524 908.16309 2667.1787 589824
-76.152504 905.25 2658.6235 851969
-60.258915 903.10236 2652.3162 655360
-44.325699 898.63617 2639.1992 2956317
-28.722668 899.64423 2642.1599 851968
-13.069459 899.61292 2642.0679 8085852
2.5918026 902.76685 2651.3306 11572619
18.455969 910.51648 2674.0906 8282969
35.617348 945.54462 2776.9646 7296077
52.59642 955.12756 2805.1086 7032905
70.762413 976.48773 2867.8411 7098185
87.316483 971.63977 2853.603 7690322
104.93408 978.27942 2873.1033 7427663
121.73976 976.55298 2868.0327 7821906
139.82489 984.25555 2890.6545 5124137
157.93056 990.40625 2908.7183 6702654
172.89206 977.56891 2871.0164 8215380
189.23219 974.12799 2860.9109 6307899
205.84277 972.53058 2856.2195 5453104
223.59361 976.15393 2866.8608 786946
240.09862 974.21069 2861.1536 7756116
262.0166 993.03882 2916.45 5387826
280.11444 995.95471 2925.0137 4730666
291.61926 976.45502 2867.7451 5651769
310.80334 983.39978 2888.1411 6046017
327.39337 981.84052 2883.5618 5915456
346.67233 988.09985 2901.9446 5191479
361.70758 982.24365 2884.7456 4336427
377.72144 979.45343 2876.551 5586237
394.26166 978.21008 2872.8994 5191223
409.73984 974.54364 2862.1316 4730415
427.7016 976.84094 2868.8784 4927537
446.59799 981.01569 2881.1392 5124915
463.93121 981.57568 2882.7839 5255987
480.03006 979.57703 2876.9141 5519671
495.31433 976.11023 2866.7324 5059375
514.03577 979.42224 2876.4595 5980220
535.6507 987.85785 2901.2341 5717304
551.86487 986.11859 2896.126 4928046
567.91577 984.20117 2890.4946 4467242
586.91779 987.3606 2899.7737 3546655
601.83405 983.66254 2888.9126 4402480
612.34082 973.16101 2858.0708 5323582
637.77496 986.30969 2896.6873 3743781
651.69434 981.42841 2882.3516 5125950
669.90527 983.09442 2887.2444 4140852
683.39557 977.9223 2872.0544 1445394
699.11108 976.1084 2866.7271 262148
712.45056 971.14166 2852.1404 854292
729.25366 971.01709 2851.7744 131083
747.13544 972.30188 2855.5476 8
770.85571 980.95947 2880.9741 15
777.97687 968.57635 2844.6062 12
793.74615 967.25677 2840.7307 789527
819.1402 977.47717 2870.7471 460563
841.81689 984.10535 2890.2131 328971
850.39124 974.31177 2861.4504 1973804
866.02209 972.82782 2857.0925 2170926
885.8139 975.98529 2866.3655 2631479
900.60309 973.61578 2859.4065 3816010
923.4823 979.91821 2877.916 1250077
930.33875 969.2984 2846.7268 328971
947.71124 969.81812 2848.2532 2566193
962.41187 967.63312 2841.8362 3092538
981.51129 969.87006 2848.4058 394767
1004.6904 975.99451 2866.3926 7
1024.3618 978.56445 2873.9402 10
1044.4023 981.3974 2882.2603 7
1056.068 976.39587 2867.5713 131599
1072.5726 975.95593 2866.2793 529
1088.0533 974.61249 2862.3337 271
1106.0791 975.55511 2865.1021 263447
1123.0254 975.53149 2865.0327 592932
1146.0582 980.71698 2880.262 658983
1173.3206 989.31647 2905.5178 789801
1186.9393 986.32971 2896.7461 1380903
1197.299 980.75854 2880.384 1315104
1199.8528 969.03955 2845.9668 1644588
1219.1082 970.94714 2851.5691 3618901
1231.3853 967.32092 2840.9192 1579056
1249.5759 968.37524 2844.0156 3685201
1258.3679 962.21478 2825.9229 1646135
1274.9937 962.1275 2825.6665 3752538
1274.7056 949.44434 2788.4177 6253445
1283.3156 943.62872 2771.3376 5397878
1287.3131 934.61121 2744.8542 5990530
1293.8585 927.64545 2724.3965 7372186
1274.1141 902.23474 2649.7681 7439008
1307.1366 914.35352 2685.3596 8096938
1363.7075 942.45508 2767.8909 8360110
1411.8389 964.12561 2831.5349 8491952
1421.0807 959.04199 2816.6047 8689331
1442.4592 962.17194 2825.7971 9018295
1456.3994 960.32538 2820.374 8886709
1481.3308 965.68579 2836.1172 8952501
1500.202 967.01978 2840.0347 9084343
1503.2329 958.22675 2814.2107 9216183
1524.5765 961.17194 2822.8604 8624047
1545.0277 963.49683 2829.6882 9084599
1568.7185 967.7702 2842.2388 9150136
1583.8563 966.73248 2839.1909 9149879
1595.4038 963.54797 2829.8386 9281208
1608.1716 961.15924 2822.823 9412795
1624.1326 960.70856 2821.4993 9478587
1640.5973 960.56189 2821.0686 9347002
1655.9572 959.77777 2818.7659 9675966
1670.5361 958.56128 2815.1931 9741759
1686.2583 958.01837 2813.5986 9610173
1702.196 957.6073 2812.3914 9610173
1716.116 956.08008 2807.906 9609916
1731.1663 955.20587 2805.3386 9741501
1753.7299 958.45447 2814.8794 9412793
1761.1306 953.43311 2800.1323 9347000
1787.5106 958.68451 2815.5549 9346742
1798.5291 955.67609 2806.7195 9675963
1813.3756 954.7384 2803.9656 9741755
1824.4727 951.86145 2795.5164 9675706
1839.199 950.91272 2792.7302 9938622
1852.8069 949.4079 2788.3105 10267843
1867.3984 948.4292 2785.4363 10399940
1879.3348 946.13086 2778.6863 10663111
1893.5754 945.02246 2775.4309 10794952
1909.3798 944.70685 2774.5039 10860488
1921.0835 942.38501 2767.6851 10662853
1943.7142 945.41736 2776.5908 10992074
1949.5273 940.28754 2761.5249 11189710
1963.7239 939.25275 2758.4858 11255502
1977.5297 938.04974 2754.9529 11189710
1990.5781 936.51013 2750.4312 11189710
2005.1138 935.68951 2748.021 11057870
2021.2053 935.60229 2747.7649 11057871
2032.1376 933.14728 2740.5549 11123663
2044.569 931.41437 2735.4653 11057870
2057.467 929.91943 2731.075 10992077
2066.5613 926.74207 2721.7434 10992077
2079.4958 925.32275 2717.575 11057870
2094.5225 924.849 2716.1836 10992077
2106.9512 923.24408 2711.4702 10860491
2117.9805 921.05493 2705.0408 10597319
2125.0339 917.18268 2693.6685 10399942
2141.8906 917.56769 2694.7991 10465732
2144.3728 911.83459 2677.9617 10399683
2174.1394 917.70251 2695.1953 10333889
2190.2346 917.75623 2695.353 10399683
2196.9604 913.91168 2684.062 10399940
2223.5432 918.3233 2697.0183 10531269
2226.7368 913.08112 2681.6226 10334148
2235.144 910.03595 2672.6792 10136768
2261.4297 914.26147 2685.0894 10005181
2266.3867 909.86554 2672.1787 9939133
2275.0996 907.02783 2663.8447 9807803
2289.0813 906.31537 2661.7522 9675963
2317.4263 911.26062 2676.2759 9478840
2333.5325 911.35864 2676.564 9281461
2348.3132 910.94135 2675.3384 9478840
2362.2214 910.19348 2673.1418 9478581
2374.9558 909.00623 2669.655 9346996
2396.1733 911.06018 2675.6873 9281460
2413.0315 911.44037 2676.804 9215412
2435.0635 913.75708 2683.6079 9018546
2448.9644 913.01251 2681.4211 8952752
2461.5295 911.78265 2677.8091 8952496
2485.2847 914.68701 2686.3389 8820908
2502.8853 915.30353 2688.1497 8952494
2516.8589 914.59436 2686.0669 8886701
2537.4077 916.26843 2690.9834 8755371
2556.4685 917.38751 2694.2703 8623272
2572.0471 917.2511 2693.8694 8557733
0 0 0 0
0 0 0 0
0 0 0 0
0 0 0 0
0 0 0 0
0 0 0 0
0 0 0 0
0 0 0 0
0 0 0 0
-2653.5872 1042.5565 3009.5161 10650478
-2642.407 1045.1863 3017.1077 10518893
-2601.7681 1036.1207 2990.938 10189928
-2581.0005 1034.8983 2987.4092 9992295
-2557.825 1032.6868 2981.0254 10189673
-2520.2654 1024.5969 2957.6726 10058087
-2506.626 1026.1863 2962.2607 10123625
-2472.8684 1019.5039 2942.9709 9465181
-2433.2644 1010.2993 2916.4001 6635825
-2381.1599 995.73553 2874.3594 9202012
-2353.1204 991.09778 2860.9717 10254185
-2325.8013 986.69843 2848.2722 9925217
-2314.7207 989.17407 2855.4187 10713447
-2261.1257 973.38434 2809.8389 13016455
-2250.2383 975.88177 2817.0481 12555645
-2239.8701 978.64337 2825.02 12029299
-2231.8904 982.49792 2836.147 11898216
-2180.458 967.1377 2791.8069 11174224
-2215.8408 990.34375 2858.7952 11635015
-2196.073 989.06848 2855.1138 12292942
-2172.1758 985.89911 2845.9648 12687442
-2167.7551 991.58911 2862.3901 11832390
-2153.1343 992.6665 2865.5 11963976
-2147.4888 997.93164 2880.699 12555860
-2135.4578 1000.29 2887.5066 10384440
-2117.5806 999.92609 2886.4561 8938024
-2103.3806 1001.3066 2890.4412 9200687
-2082.8042 999.64929 2885.6572 9990722
-2066.6497 1000.1046 2886.9717 10384971
-2077.2341 1013.6152 2925.9722 10846810
-2072.6416 1019.885 2944.0708 10057297
-2044.046 1014.3496 2928.0923 9005382
-2050.8462 1026.4351 2962.9788 9399889
-2011.0786 1015.2209 2930.6074 7952705
-2001.3307 1019.0979 2941.7988 8151115
-1974.3416 1014.1865 2927.6211 8019275
-1979.1064 1025.6439 2960.6953 7624520
-1964.412 1027.1318 2964.99 7624521
-1936.0151 1021.4171 2948.4937 6966848
-1913.3428 1018.6462 2940.4949 8085074
-1890.0618 1015.4973 2931.405 8084818
-1871.9789 1015.1086 2930.2832 7887438
-1854.3485 1014.9604 2929.8555 7821389
-1816.8451 1003.8294 2897.7236 7690061
-1810.8179 1010.0428 2915.6599 7492938
-1799.7703 1013.5488 2925.7803 5979443
-1793.5365 1019.8602 2943.9993 7427146
-1785.8832 1025.4802 2960.2227 6835009
-1777.3817 1030.7201 2975.3484 7426890
-1753.5228 1027.0697 2964.8108 7097926
-1738.698 1028.6906 2969.4895 7097668
-1708.3075 1021.041 2947.4077 7492682
-1725.8921 1042.2037 3008.4976 6966341
-1677.8373 1023.7574 2955.2493 5913651
-1653.1052 1019.3027 2942.3899 7229512
-1632.9165 1017.5844 2937.4299 6571582
-1628.938 1026.0396 2961.8374 6637373
-1598.7687 1018.0022 2938.636 6571580
-1583.8671 1019.6165 2943.2959 7098180
-1568.2053 1020.7718 2946.6309 6308921
-1551.3127 1021.1431 2947.7026 6309177
-1532.6125 1020.3193 2945.3247 6768959
-1510.215 1016.9868 2935.7046 6703424
-1493.1752 1017.2266 2936.397 6374201
-1478.9459 1019.4093 2942.6978 6308153
-1463.4681 1020.7731 2946.6348 6702911
-1447.1498 1021.5766 2948.9541 6702911
-1434.7299 1025.1853 2959.3713 6571582
-1421.1598 1028.0514 2967.6445 6900545
-1398.8713 1024.6034 2957.6914 6768960
-1381.3088 1024.5734 2957.6047 6308408
-1364.1858 1024.8727 2958.4688 7361608
-1349.6821 1027.1733 2965.1101 7032387
-1316.2898 1014.9699 2929.8828 6242872
-1297.2728 1013.673 2926.1392 5913906
-1280.1315 1013.8265 2926.5823 6243127
-1256.724 1008.9534 2912.5151 8151381
-1226.1276 998.09283 2881.1641 9072739
-1207.953 997.17981 2878.5286 9467494
-1167.0305 977.19318 2820.8337 10717298
-1155.0977 981.25244 2832.5515 10190952
-1140.335 982.99194 2837.573 11243127
-1131.6521 990.10291 2858.0999 11177591
-1124.12 998.45197 2882.2009 9730147
-1123.5266 1013.3168 2925.1106 11046265
-1107.9561 1014.9276 2929.7605 5848368
-1097.163 1021.0355 2947.3921 6308407
-1075.3656 1016.9349 2935.5549 6900544
-1067.9714 1026.5438 2963.2927 6242358
-1034.7296 1011.2137 2919.0398 6242615
-1026.5518 1020.2731 2945.1914 6374201
-1004.538 1015.6569 2931.8657 5979442
-988.35382 1016.8759 2935.3848 6307381
-971.23193 1017.1565 2936.1948 6110260
-943.77319 1006.4244 2905.2146 6176053
-922.0462 1001.5193 2891.0554 5583403
-899.62622 995.66156 2874.146 6176054
-891.63556 1005.8556 2903.5728 6241848
-879.81989 1012.0508 2921.4563 5912626
-857.5636 1006.2438 2904.6934 6176054
-838.9118 1004.5151 2899.7031 5912884
-820.77838 1003.3478 2896.3335 6307899
-810.01343 1011.3304 2919.3767 5912883
-781.1571 996.58075 2876.7993 5518125
-764.05701 996.50604 2876.5837 4663073
-744.70618 993.42554 2867.6912 6044468
-726.68372 992.01453 2863.6182 6175797
-705.54309 986.17773 2846.769 4794144
-688.18732 985.47479 2844.74 5781297
-663.40906 973.84076 2811.1565 6242103
-651.88739 981.56866 2833.4644 6440254
-612.45459 946.56738 2732.4272 4927272
-558.46075 886.55029 2559.1777 4072479
-543.89984 887.52979 2562.0051 2560011
-528.93933 887.89471 2563.0586 2429456
-510.00504 881.41339 2544.3494 3810851
-492.36777 876.84729 2531.1685 4205353
-482.97824 887.14398 2560.8916 3548192
-465.87454 883.47937 2550.313 2626835
-449.35358 880.7113 2542.3225 2298386
-434.56821 881.27087 2543.9377 2890010
-418.23264 878.61401 2536.2683 3219226
-399.85657 871.31268 2515.1919 7297876
-385.79767 873.21783 2520.6912 6770501
-370.32568 871.9491 2517.0288 7954257
-368.13489 903.1571 2607.116 8940894
-349.87454 895.94794 2586.3057 8940383
-362.513 970.82703 2802.4568 8084562
-344.1666 965.93225 2788.3271 8149586
-331.6636 977.77075 2822.5012 7557448
-316.50305 982.61584 2836.4873 7689034
-296.15424 970.99347 2802.9373 8873307
-281.33542 977.19855 2820.8491 8873821
-265.15329 979.15277 2826.4905 7294788
-246.35658 971.06476 2803.1431 8018511
