# .PCD v0.7 - Point Cloud Data file format
VERSION 0.7
FIELDS x y z rgb
SIZE 4 4 4 4
TYPE F F F U
COUNT 1 1 1 1
WIDTH 1316
HEIGHT 1
VIEWPOINT 0 0 0 1 0 0 0
POINTS 1316
DATA ascii
1180.2612 926.45807 1808.4348 131081
1187.6855 923.89929 1803.4401 65548
1194.369 920.81506 1797.4197 12
1209.2117 924.0202 1803.676 10
1210.542 916.93414 1789.8442 7
1236.0159 928.10004 1811.6398 525840
1260.8304 938.58295 1832.1024 3158073
1280.9554 945.4256 1845.4592 2368557
1291.0337 944.80011 1844.2383 3486783
1309.8623 950.53516 1855.4329 789270
1319.2778 949.4007 1853.2184 591890
1329.5018 948.86194 1852.1667 1117979
1343.1206 950.73499 1855.823 197134
1347.6088 946.16699 1846.9062 263180
1366.1412 951.45367 1857.2258 1578532
1366.7031 944.2403 1843.1455 1315359
1370.0697 939.06366 1833.0406 1052442
1384.6625 941.60242 1837.9965 2565684
1411.0552 952.06323 1858.4158 3026235
1411.1752 944.77277 1844.1848 2434354
1419.225 942.86224 1840.4556 2368304
1429.8567 942.68335 1840.1062 855833
1455.7708 952.50616 1859.2803 4868951
1460.3135 948.30328 1851.0763 2171696
1459.8513 940.93726 1836.6979 856093
1469.9456 940.4339 1835.7153 2434870
1486.53 944.05969 1842.7928 2435128
1492.6794 941.05389 1836.9257 1776683
1500.1613 938.92554 1832.7711 986909
1506.0977 935.86749 1826.8019 920861
1520.6473 938.16705 1831.2905 1973805
1524.5665 933.92206 1823.0043 1184546
1532.3871 932.1098 1819.4668 3421511
1546.5217 934.1366 1823.4232 197396
1558.7256 934.97742 1825.0643 1710895
1567.8859 933.99341 1823.1437 658205
1570.1417 928.93805 1813.2755 592148
1589.778 934.16412 1823.4769 6252148
0 0 0 0
1618.4194 938.2431 1831.4391 17
1625.9753 936.34637 1827.7366 17
1640.9846 938.73828 1832.4055 525846
1649.3225 937.3075 1829.6127 4671837
1673.8405 945.03046 1844.6879 3619405
1672.9141 938.38086 1831.7079 4343384
1684.0878 938.56042 1832.0583 3422279
1691.0552 936.40857 1827.8579 1185311
1703.2922 937.18341 1829.3705 725017
1702.197 930.6593 1816.6354 6450037
1715.1696 931.86017 1818.9796 2368042
1727.9763 932.9566 1821.1198 658192
1737.3953 932.22162 1819.6852 3421506
0 0 0 0
0 0 0 0
0 0 0 0
0 0 0 0
0 0 0 0
0 0 0 0
0 0 0 0
0 0 0 0
0 0 0 0
0 0 0 0
0 0 0 0
-1758.1002 1047.3666 2021.075 6900545
-1729.1093 1037.1591 2001.3778 6702141
-1726.9619 1043.0232 2012.6935 6833982
-1714.27 1042.5558 2011.7917 6702650
-1697.7898 1039.7621 2006.4006 7426117
-1685.1365 1039.2892 2005.488 7360580
-1673.3494 1039.3473 2005.6003 7492165
-1659.0205 1037.8164 2002.6462 7097406
-1645.9978 1037.0864 2001.2377 7228993
-1632.0994 1035.79 1998.7361 7228993
-1615.1001 1032.4927 1992.373 7097406
-1595.5824 1027.5247 1982.7865 7097150
-1607.5818 1042.9299 2012.5137 7426115
-1571.8461 1027.3655 1982.4795 7294785
0 0 0 0
0 0 0 0
0 0 0 0
0 0 0 0
-1257.2589 853.64154 1647.249 9466445
-1274.1453 871.87421 1682.4321 9860174
-1261.1401 869.77905 1678.389 8807485
-1260.6069 876.32043 1691.0118 8675894
-1256.0142 880.12195 1698.3475 9860679
-1245.7222 879.95911 1698.0332 8939320
-1233.4973 878.41705 1695.0576 7821096
-1223.9661 878.78369 1695.7651 9268289
-1219.5581 882.8653 1703.6412 9992014
-1205.8818 880.24939 1698.5935 7162660
-1195.9583 880.35199 1698.7914 7294247
-1190.0905 883.4671 1704.8025 7689005
-1182.7527 885.53491 1708.7927 7755316
-1179.2104 890.5047 1718.3828 7427892
-1167.0282 888.97955 1715.4398 9534317
-1166.9196 896.70544 1730.3481 11508879
-1158.1506 897.85437 1732.5652 11180945
-1149.7828 899.33765 1735.4275 10259842
-1130.7246 892.41046 1722.0603 9601138
-1128.4369 898.71338 1734.2229 9532775
-1125.0178 904.22296 1744.8546 8414294
-1114.0231 903.68927 1743.8247 9006942
-1109.1138 908.12842 1752.3909 9861994
-1095.347 905.33044 1746.9916 11309440
-1097.1874 915.50189 1766.6191 11045239
-1095.9408 923.26855 1781.6062 9663075
-1190.2274 1012.4503 1953.6979 8018507
-1185.9948 1018.7565 1965.8668 8281423
-1168.7262 1013.879 1956.455 8084045
-1162.2568 1018.3663 1965.1138 7360835
-1149.4744 1017.3566 1963.1655 9597286
-1127.4878 1008.097 1945.2974 7228995
-1121.3969 1013.0053 1954.7688 8347476
-1113.8728 1016.7078 1961.9135 9531750
-1099.3029 1013.9894 1956.6678 8939867
-1086.49 1012.851 1954.4712 8741975
-1077.4106 1015.2061 1959.0159 9268834
-1064.2209 1013.6972 1956.1041 8544853
-1052.129 1013.2123 1955.1683 8347474
-1040.8748 1013.5323 1955.786 7557704
-1040.7274 1024.7964 1977.522 7953486
-1016.3413 1012.1775 1953.1715 7756363
-1016.3978 1023.8907 1975.774 8414293
-1000.294 1019.4079 1967.1238 8676695
-981.45703 1012.001 1952.8308 8808025
-976.4704 1018.8691 1966.0842 8742232
-969.28271 1023.5789 1975.1725 8479060
-950.41638 1015.9201 1960.3934 8677208
-940.24738 1017.4835 1963.4105 8677210
-921.04059 1009.1835 1947.394 8216913
0 0 0 0
0 0 0 0
-775.74066 883.16571 1704.2208 4793625
-766.60529 884.27399 1706.3595 7229504
-755.35968 882.94519 1703.7954 9399642
-749.31842 887.74622 1713.0598 9531226
-741.17126 890.1499 1717.6981 9268054
-734.34387 894.22772 1725.5669 9138014
-728.086 899.12378 1735.0148 8217428
-719.11316 900.75946 1738.171 8480603
-710.26282 902.59827 1741.7194 9664877
-702.57483 905.99017 1748.2646 8546139
-700.21033 916.45105 1768.4508 8743774
-692.15265 919.6651 1774.653 8677724
-683.42706 922.07739 1779.3079 9072482
-676.71509 927.32452 1789.433 7756622
-672.46179 936.16132 1806.4852 8349014
-666.62878 943.04932 1819.7769 7888461
-668.78601 961.65302 1855.6758 8677718
-652.67712 954.17456 1841.2448 9466978
-665.76086 989.84497 1910.0771 7756105
-655.09735 990.83167 1911.981 6966590
-644.34534 991.71649 1913.6885 8347730
-628.68701 984.94659 1900.6248 8150351
-621.33276 991.17682 1912.6471 6702648
-612.05835 994.51837 1919.0952 7163200
-602.36475 997.2926 1924.4485 7294529
-591.90601 998.88239 1927.5164 7294529
-581.91974 1001.348 1932.274 6899770
-570.18378 1000.8411 1931.2959 7229509
-558.81769 1000.9761 1931.5564 6900544
-547.68909 1001.551 1932.6658 6176564
-536.22101 1001.5164 1932.599 5189669
-526.59399 1004.9939 1939.3094 4860705
-515.52667 1005.8163 1940.8966 2362117
-497.23895 992.26782 1914.7523 4860192
-485.64304 991.75214 1913.7572 4728350
-471.91794 986.75977 1904.1237 6044209
-459.96576 985.32092 1901.347 5517866
-447.82318 983.39166 1897.6243 5254693
-436.98666 984.30493 1899.3865 3478286
-423.39182 978.88904 1888.9357 6373432
-412.89987 980.54791 1892.1368 5188900
-401.41052 979.86469 1890.8184 4991520
-390.53531 980.68439 1892.4 6505016
-380.07397 982.6225 1896.1401 5781037
-365.86475 974.69409 1880.8407 4662812
-353.36206 970.9566 1873.6287 5913393
-347.38638 985.49316 1901.6794 6900289
-332.06265 973.59595 1878.7218 6044209
-323.99634 982.89001 1896.6562 5912880
-311.75943 979.74518 1890.5878 5649197
-299.87796 977.52472 1886.303 5386538
-290.48926 983.57251 1897.9733 6439483
-278.91922 982.42432 1895.7576 5650736
-267.44681 981.5379 1894.0471 4465949
-255.22952 977.72052 1886.6808 5978418
-243.08093 973.82855 1879.1707 5189159
-232.96883 978.11328 1887.4387 5583919
-220.65767 973.13184 1877.826 4728610
-210.13548 975.92993 1883.2255 3544336
-199.63156 979.13141 1889.4033 5584436
-187.10464 972.20154 1876.031 3873301
-175.21762 967.93146 1867.7911 4925989
-164.2489 968.50049 1868.8892 3150865
-153.17854 968.50909 1868.9058 4728351
-142.46596 970.95734 1873.6301 6110004
-130.25214 962.72345 1857.7413 4728351
-117.69085 950.16455 1833.5067 4136986
-103.75684 922.84216 1780.7836 1311234
-91.151825 902.4931 1741.5165 1179648
-79.958305 892.70862 1722.6356 1770501
-69.474861 889.14862 1715.766 3217175
-57.681297 864.72791 1668.642 4005661
-53.638466 970.43243 1872.6172 5847349
-42.333908 965.62524 1863.3409 2952971
-31.33728 966.92816 1865.8551 4136472
-20.266415 966.11218 1864.2805 5123366
-9.2172899 965.61914 1863.3291 5649710
1.8291911 969.69977 1871.2034 4334363
12.925221 970.49554 1872.7389 3610643
24.002966 969.81738 1871.4303 1245184
34.924271 965.24408 1862.6053 3084558
46.213627 970.59674 1872.9342 3413779
57.280575 970.10999 1871.995 4071194
67.882256 963.1795 1858.6215 5452847
79.554855 971.258 1874.2103 4465695
90.547653 970.07483 1871.9271 5583918
101.45525 968.33655 1868.5728 4071707
112.79323 970.64404 1873.0254 6570558
123.63116 968.62036 1869.1204 4333341
134.27655 965.54474 1863.1855 5057064
146.53433 973.65009 1878.8262 4530720
157.07274 969.99298 1871.7693 4925735
168.73175 973.28223 1878.1165 3741717
179.30672 970.29828 1872.3584 4399645
191.91135 978.00549 1887.2307 7425866
202.33086 974.34149 1880.1604 5057575
213.14926 972.88043 1877.3411 6176056
225.82382 979.61627 1890.339 6044984
234.92911 970.96381 1873.6426 4136473
247.58954 977.12262 1885.527 5123366
258.53345 976.26776 1883.8774 4662817
269.05768 973.96448 1879.4329 4004887
280.2533 974.17798 1879.8448 4465182
289.67966 968.46027 1868.8115 5781297
302.57156 974.32294 1880.1246 3938838
311.72519 968.159 1868.2302 5188646
323.17484 969.30432 1870.4402 6241336
335.31381 972.3725 1876.3608 5386539
346.41815 972.33972 1876.2977 5715248
361.44812 982.98523 1896.8398 5978677
371.31906 979.38123 1889.8855 5386027
381.81793 977.59607 1886.4407 4004628
392.30972 975.89484 1883.1578 5649197
402.84872 974.40186 1880.2767 5386538
411.5976 968.77576 1869.4203 4070678
424.12476 972.10443 1875.8436 5057575
432.5947 966.20129 1864.4525 2428426
448.00055 975.69775 1882.7776 4530461
455.97327 968.93768 1869.7327 4267290
466.44571 967.68402 1867.3137 5386284
480.07327 972.88245 1877.3448 5978677
489.71069 969.94238 1871.6715 5912884
499.09561 966.64343 1865.3057 6044213
509.39316 965.2168 1862.5526 6833729
517.62976 960.0282 1852.5403 6307643
532.52216 967.14288 1866.2695 6307131
545.45392 970.4801 1872.7091 6372924
551.80273 962.20496 1856.7408 4859685
562.53021 961.73956 1855.8428 4662306
568.27173 952.93097 1838.845 5320235
582.75403 958.83545 1850.2388 4464927
582.59705 940.87976 1815.5902 5452080
587.4234 931.47717 1797.4463 3151126
593.32581 924.08533 1783.1824 6373699
595.35553 911.02606 1757.9823 6438466
610.82611 918.62958 1772.6547 5649205
619.24292 915.5473 1766.7069 5451831
628.92096 914.40106 1764.495 4003870
635.18176 908.40527 1752.9252 4399140
645.87433 908.83844 1753.7609 2755855
653.21747 904.61932 1745.6195 9859952
669.81744 913.15155 1762.0839 5122090
677.43201 909.36011 1754.7676 7557456
684.36896 904.78754 1745.944 3677211
709.50854 924.05792 1783.1296 11835538
732.93573 940.56549 1814.9839 1443848
744.24316 941.26752 1816.3385 7557453
754.52161 940.66669 1815.1791 5978165
772.32385 949.33099 1831.8982 6043960
784.18134 950.54907 1834.2487 5451823
792.73859 947.78809 1828.921 6241595
806.64496 951.41077 1835.9115 5649202
811.60059 944.52032 1822.6152 5320493
821.7287 943.75134 1821.1315 4859943
832.61676 943.86395 1821.3486 3480860
841.39294 941.61011 1816.9996 5715252
851.93335 941.36279 1816.5222 6767682
865.38562 944.29901 1822.1881 5780787
877.87982 946.13013 1825.7217 4925221
888.70593 946.14093 1825.7426 3938327
898.93634 945.5249 1824.5538 4136219
905.98877 941.62061 1817.0197 6044730
911.34882 936.06952 1806.308 6900295
932.09247 946.26489 1825.9818 4794920
948.33911 951.71326 1836.4954 8150364
955.97766 948.49744 1830.2898 6111038
957.16583 939.02551 1812.0121 6439491
972.40405 943.39459 1820.4431 5584439
971.4209 932.10303 1798.6541 6571335
985.19159 935.05957 1804.3593 6242371
998.35938 937.3866 1808.8496 5716539
1008.3857 936.74585 1807.6132 7163727
1019.5889 937.20038 1808.4901 5716281
1040.1067 946.11835 1825.699 5782073
1050.8727 946.07349 1825.6123 6966094
1063.1837 947.40643 1828.1844 4334117
1069.676 943.57941 1820.7996 4202276
1072.8773 936.95496 1808.0166 4728877
1082.0961 935.66443 1805.5264 5321014
1096.1553 938.54376 1811.0825 5387065
1094.623 928.14703 1791.0203 4401452
1113.6464 935.21204 1804.6534 4337202
1117.4456 929.47943 1793.5913 4534839
1123.707 925.88354 1786.6523 1839636
1152.3231 940.60211 1815.0543 4340284
1159.5979 937.78937 1809.6268 722440
1163.8634 932.61676 1799.6454 1117457
1174.9486 932.95319 1800.2944 328200
1179.6083 928.22742 1791.1753 65543
1186.7177 925.49634 1785.9052 131081
1194.6721 923.46661 1781.9885 65547
1205.7244 923.84613 1782.7209 65547
1217.9023 925.07422 1785.0907 65547
1230.8185 926.83704 1788.4923 9
1268.7509 947.24664 1827.8762 65801
1283.4807 950.13452 1833.4489 723478
1287.7246 945.27667 1824.0747 1053216
1291.1283 939.88782 1813.6761 2368818
1310.5631 946.16168 1825.7826 2039596
1328.7179 951.41638 1835.9225 3487041
1339.7579 951.53253 1836.1466 2763062
1340.3036 944.25354 1822.1005 789527
1349.3687 943.0448 1819.7681 328716
1359.9133 942.88116 1819.4523 3815751
1373.6182 944.89392 1823.3362 2829367
1389.441 948.32098 1829.9492 1776423
1397.6074 946.50958 1826.4539 1052957
1405.5875 944.60077 1822.7705 986905
1417.796 945.54114 1824.5851 1381665
1434.141 949.20496 1831.6552 1381154
1457.1823 957.21259 1847.1072 2302256
1455.4011 948.91675 1831.099 2170927
1460.87 945.43567 1824.3816 3289921
1469.1653 943.82135 1821.2665 3421765
1486.6423 948.08624 1829.4963 2763580
1477.3788 935.35931 1804.9375 2434615
1485.812 933.9389 1802.1965 2632251
1507.4155 940.75836 1815.3558 987170
1520.7206 942.33862 1818.4054 65809
1517.4565 933.70172 1801.739 3487305
1537.3363 939.32672 1812.5933 723996
1542.3856 935.87482 1805.9324 921376
1562.0598 941.28339 1816.369 2303543
1571.9827 940.78192 1815.4015 1579305
1587.9299 943.86835 1821.3573 3092803
1592.6957 940.31158 1814.4939 3487564
1609.1439 943.6535 1820.9426 1645103
1625.1354 946.68488 1826.7922 4408151
1619.309 937.05072 1808.2014 2829116
1629.0013 936.46448 1807.0702 1710636
1654.8761 945.12793 1823.7877 1184292
1657.2186 940.32654 1814.5226 1250339
1669.1422 940.98828 1815.7996 2698043
1659.9935 929.83813 1794.2834 2040109
1665.3446 926.90009 1788.614 2237486
1669.15 923.14441 1781.3667 5792623
1694.9617 931.53015 1797.5486 5724769
1715.8959 937.1474 1808.3881 3686228
1730.0023 938.98932 1811.9421 4014934
0 0 0 0
0 0 0 0
0 0 0 0
0 0 0 0
0 0 0 0
0 0 0 0
0 0 0 0
0 0 0 0
0 0 0 0
0 0 0 0
0 0 0 0
-1708.4214 1029.406 1963.9651 6439994
-1688.6074 1024.444 1954.4983 6900545
-1693.7091 1034.6337 1973.9388 7032131
-1675.4042 1030.5671 1966.1805 6703165
-1675.1366 1037.6166 1979.6299 6768446
-1657.1255 1033.697 1972.152 6965822
-1647.0966 1034.7365 1974.135 7294788
-1635.9274 1035.0692 1974.7699 7097407
-1628.5098 1037.7977 1979.9753 7031870
-1618.067 1038.6239 1981.5518 6702649
-1607.082 1039.1115 1982.4819 9071968
-1589.5009 1035.3099 1975.229 7295558
-1577.2494 1034.9492 1974.5408 7229763
-1523.8096 1007.3544 1921.8938 6900794
0 0 0 0
0 0 0 0
0 0 0 0
-1289.5386 878.74695 1676.5284 9794894
-1279.0557 878.36871 1675.8069 8741690
-1264.8479 875.40674 1670.1556 9136445
-1260.7167 879.42688 1677.8256 8676148
-1252.637 880.73462 1680.3206 8347689
-1251.6775 887.10974 1692.4835 9465913
-1236.7625 883.61725 1685.8202 9334583
-1227.0812 883.83765 1686.2407 7886888
-1224.3998 889.14471 1696.366 7820584
-1216.9933 891.08008 1700.0583 7491619
-1200.2826 886.17834 1690.7064 8017964
-1197.4004 891.48962 1700.8397 7755307
-1188.4801 892.3576 1702.4957 6044692
-1178.7714 892.64325 1703.0406 5848352
-1172.0356 895.20465 1707.9275 6309931
-1161.0494 894.53577 1706.6514 10653050
-1168.4242 908.12585 1732.5793 11310470
-1154.3893 905.16919 1726.9384 9731436
-1142.858 904.14044 1724.9756 8282963
-1131.5962 903.30798 1723.3875 10783096
-1123.0996 904.68805 1726.0204 9269856
-1109.3363 901.81189 1720.5332 9269597
-1104.0555 905.84204 1728.2222 8808790
-1099.5095 910.55615 1737.2161 10123880
-1093.3787 914.03455 1743.8523 10387308
-1085.4647 916.0744 1747.7441 12295304
-1075.6676 916.54889 1748.6493 8807763
-1178.9335 1014.3076 1935.1595 8215884
-1171.6843 1017.9697 1942.1464 8610389
-1159.423 1017.3066 1940.8813 8939867
-1132.3761 1003.5273 1914.5922 9202784
-1127.4207 1009.2449 1925.5005 8281680
-1111.5848 1005.2398 1917.8595 8281681
-1108.444 1012.7511 1932.1899 8215631
-1098.6036 1014.2342 1935.0194 8610390
-1086.3035 1013.4535 1933.53 8741719
-1083.6699 1021.7708 1949.3982 8544340
-1069.3965 1019.174 1944.444 8346962
-1043.3217 1005.151 1917.6899 6768187
-1028.6371 1001.9136 1911.5135 8149840
-1020.3097 1004.8651 1917.1445 8413012
-1013.1928 1009.0886 1925.2024 8939610
-996.63629 1003.8998 1915.303 7820617
-997.0603 1015.893 1938.1842 8675926
-984.39099 1014.6694 1935.8496 8544340
-970.57312 1012.2191 1931.1749 9070684
-965.08984 1018.5062 1943.1699 7755337
-946.08478 1010.5027 1927.9003 8347472
-941.83392 1018.2551 1942.6907 8544851
-913.56299 999.90875 1907.6885 7491647
-901.83258 999.43353 1906.7819 7295039
0 0 0 0
0 0 0 0
-775.42432 892.89764 1703.5259 6373936
-765.36029 892.9303 1703.5883 8808015
-747.98743 884.32288 1687.1665 10649189
-741.77014 888.84979 1695.8033 9334612
-734.35962 892.05164 1701.912 10650735
-726.88367 895.26202 1708.0369 8414548
-719.87445 899.14594 1715.4469 8612698
-714.79462 905.58557 1727.7328 9270112
-711.20483 914.12738 1744.0294 9532770
-705.18585 919.75281 1754.7618 9006425
-697.08044 922.78442 1760.5459 8480340
-688.72345 925.57031 1765.8608 8349013
-683.13287 932.21698 1778.5419 7691083
-676.82751 938.0813 1789.7302 7033154
-672.75757 947.27991 1807.2798 7098945
-655.27454 937.58417 1788.7817 8085324
-656.02759 954.09137 1820.2751 8545619
-647.90387 958.0246 1827.7792 8282446
-641.58698 964.80847 1840.7219 8019018
-643.26709 984.06079 1877.4529 8019277
-634.46967 987.68018 1884.358 6571833
-625.62585 991.35577 1891.3705 6111282
-615.79474 993.57227 1895.5992 7295042
-606.90106 997.41187 1902.9248 7228993
-594.71429 995.88226 1900.0065 6439220
-587.06201 1002.0334 1911.7421 6702905
-574.95282 1000.6697 1909.1403 7032126
-564.38763 1001.9922 1911.6636 6242869
-549.31622 995.20514 1898.7146 6176306
-542.37604 1003.1736 1913.9174 5912878
-529.24933 999.79547 1907.4723 5057570
-515.42139 994.91632 1898.1636 4530971
-505.81665 998.15344 1904.3396 1967617
-491.60202 992.23376 1893.0457 5320229
-479.03372 989.43823 1887.7122 5320229
-467.79184 989.31421 1887.4756 4728348
-452.92838 981.33734 1872.2568 4926240
-443.38617 984.77887 1878.8226 5123363
-429.84756 979.29266 1868.3558 7031105
-418.73611 979.19238 1868.1646 3873814
-410.15347 985.16071 1879.5513 6176053
-401.0249 990.1142 1889.0018 4662816
-386.62921 981.97455 1873.4725 5583917
-373.90918 977.73541 1865.3848 5518124
-363.06812 978.30096 1866.4639 6373174
-351.74057 977.54999 1865.0311 5517865
-341.42432 979.6521 1869.0416 5912622
-329.05066 975.79395 1861.6808 5386279
-319.52618 980.41046 1870.4884 5978415
-308.28812 979.91174 1869.537 6767932
-296.65317 978.06744 1866.0182 6175795
-285.62491 978.15808 1866.1912 6109746
-273.914 975.82404 1861.7382 5452331
-261.50043 970.68585 1851.9352 5452331
-251.63712 974.9787 1860.1254 5320744
-240.68988 975.27277 1860.6864 5649711
-229.08733 972.81219 1855.9919 5320490
-217.93114 972.0946 1854.6229 5057832
-207.30298 973.78125 1857.8408 4465695
-195.59296 970.29016 1851.1802 3741715
-184.46181 969.42633 1849.5322 5057576
-174.0186 972.29736 1855.0098 5189675
-162.88589 971.44324 1853.3802 4202525
-152.17796 973.18219 1856.6979 4662307
-141.17242 973.1405 1856.6184 3808022
-130.19342 973.29028 1856.9041 3940380
-116.91666 954.70471 1821.4454 3809312
0 0 0 0
-91.331161 914.60614 1744.9427 655361
-79.734734 900.38928 1717.819 589828
-68.644806 888.56866 1695.2668 655362
-57.528442 872.29559 1664.2201 786432
-47.753433 873.83649 1667.1599 2297361
-38.043728 877.68756 1674.5072 5652284
-28.070133 876.0199 1671.3256 9204590
-20.160898 972.06897 1854.5741 5387313
0 0 0 0
1.8091432 970.03589 1850.6951 2821641
12.682914 963.18835 1837.631 3216656
23.842411 974.3429 1858.9124 1966593
34.759632 971.67615 1853.8246 1048576
45.558502 967.77594 1846.3835 4532774
56.85025 973.82886 1857.9316 1442048
67.758636 972.41638 1855.2368 4860712
78.954018 974.94202 1860.0554 5188906
90.138206 976.72784 1863.4624 5320493
100.53201 970.4939 1851.569 4334113
111.75175 972.67529 1855.7307 4532519
123.00581 974.73785 1859.6659 6702403
133.60922 971.72925 1853.9259 4071453
144.7571 972.83679 1856.0389 4860713
154.49606 964.98785 1841.0642 4597798
166.59358 971.9342 1854.3169 4464928
178.27771 975.75854 1861.6133 4860196
189.70563 977.81677 1865.54 5123369
200.46382 976.38635 1862.8109 7228487
210.74248 972.89142 1856.1431 5254954
221.8284 973.28491 1856.8939 5057575
233.70682 976.95416 1863.8943 4728610
244.62347 976.45337 1862.9388 4399644
255.66269 976.46381 1862.9587 4859681
267.47491 979.30365 1868.3768 6044470
277.82181 976.76599 1863.5353 4465438
288.1824 974.46869 1859.1522 5583664
296.83795 966.78705 1844.4968 5386285
308.69925 969.72131 1850.0951 6044214
317.61865 963.52985 1838.2826 5452076
330.31482 968.82623 1848.3872 5912627
341.31387 968.96466 1848.6515 5517612
354.14117 974.12347 1858.4938 5122598
366.41516 977.49512 1864.9263 6109748
378.00601 978.90027 1867.6072 5122853
388.75842 978.11603 1866.111 4925474
398.298 974.40796 1859.0365 4859937
409.18561 974.1087 1858.4655 5123368
418.11569 969.28699 1849.2664 4860195
429.0278 969.18909 1849.0795 4662818
441.32092 972.13806 1854.7057 3478032
450.46997 968.18622 1847.1663 3873044
458.69568 962.48444 1836.288 4794403
468.70392 960.7005 1832.8845 5715505
485.90656 973.40979 1857.1322 6308156
491.97919 963.7533 1838.7089 7229002
499.79193 957.85022 1827.4465 6175545
511.1777 958.8999 1829.4492 2362122
523.30682 961.27155 1833.9739 4465440
534.74695 962.3067 1835.9489 2756880
539.03815 950.69214 1813.7899 4202013
550.05688 951.16498 1814.692 7491663
559.17407 948.39447 1809.4064 4004892
568.00549 945.25281 1803.4124 1442306
574.31012 938.09949 1789.7649 4333601
580.02771 930.26422 1774.8163 3411985
590.15051 929.64734 1773.6394 6109499
594.41583 919.98633 1755.2075 7228490
610.01721 927.90082 1770.3073 4728871
615.07227 919.77673 1754.8077 9663607
625.03632 919.14197 1753.5964 6044736
632.8324 915.39172 1746.4415 3413530
642.13977 913.91296 1743.6204 4729134
653.91052 915.93158 1747.4716 9202802
662.39923 913.36176 1742.5687 5189686
670.67859 910.58661 1737.2742 4858924
682.91315 913.18414 1742.2299 2822164
704.11804 927.52081 1769.5823 10781313
722.3512 937.57959 1788.7731 655360
739.0094 945.33295 1803.5654 4991785
742.13409 935.80005 1785.3779 7492431
750.19012 932.66595 1779.3984 6571074
769.11096 942.93903 1798.998 5057065
788.02264 952.92023 1818.0408 5912630
799.19781 953.40302 1818.962 6109752
803.8642 946.21149 1805.2416 5254443
812.52271 943.84631 1800.7291 6241338
817.33392 937.13123 1787.9176 4070426
832.8667 942.72363 1798.587 6767682
844.52527 943.84497 1800.7264 5057321
846.74512 934.52112 1782.938 5451822
863.59473 941.37457 1796.0132 4728099
883.26514 951.09833 1814.5649 5254443
889.40808 946.19727 1805.2144 6899525
891.84119 937.51276 1788.6456 5649971
910.22333 945.60132 1804.0773 6504510
918.51685 943.14282 1799.387 6438974
925.10016 939.00488 1791.4922 5583665
935.08984 938.37921 1790.2986 5254701
941.47229 934.18817 1782.3027 6505538
963.45624 945.39923 1803.6918 6110524
958.22534 929.95245 1774.2216 7031625
975.01202 935.97705 1785.7156 7295054
984.54095 934.9798 1783.813 6044989
995.06287 934.93677 1783.7308 6110526
1005.9681 935.25104 1784.3304 6899785
1019.6445 938.10834 1789.7817 5386804
1039.4683 946.50427 1805.8002 5453110
1041.5077 938.7005 1790.9115 5913662
1055.7806 941.96881 1797.147 7098191
1065.5529 941.19635 1795.6732 5321526
1073.8953 939.18872 1791.843 6111042
1083.9304 938.68634 1790.8845 4992047
1093.3063 937.62823 1788.8658 4137508
1100.3363 934.59796 1783.0845 3150614
1111.9972 935.5213 1784.8462 3414304
1122.054 935.09045 1784.024 4006442
1128.6696 931.82648 1777.7969 1904146
1149.4114 940.17786 1793.7301 4139569
1157.9651 938.49786 1790.5249 1969682
1166.5094 936.84094 1787.3638 2364185
1169.8357 931.06073 1776.3359 2299166
1178.8654 929.88245 1774.088 196612
1188.5294 929.22107 1772.8262 131079
1196.8784 927.55212 1769.642 65547
1207.73 927.83466 1770.181 65548
1217.3518 927.17572 1768.924 65548
1225.385 925.32849 1765.3995 12
1239.0825 927.75354 1770.0262 12
1251.6458 929.29572 1772.9685 11
1265.5574 931.80505 1777.7561 65803
1280.3877 934.94391 1783.7444 3749959
1292.8237 936.2973 1786.3265 2237231
1301.4152 934.86688 1783.5975 1579302
1321.9745 941.98755 1797.1827 4934488
1325.4314 936.90509 1787.4862 5395039
1338.5977 938.71216 1790.9337 921114
1346.1646 936.59491 1786.8944 1184285
1361.6187 939.95551 1793.3059 2894904
1379.1841 944.71033 1802.3774 1513251
1395.0494 948.23639 1809.1046 1447458
1403.3058 946.57623 1805.9374 197388
1412.9956 945.90082 1804.6488 657938
1422.6428 945.20721 1803.3256 1052699
1433.9833 945.64056 1804.1522 1052445
1446.8501 947.06659 1806.8729 3289663
1466.2733 952.73187 1817.6814 3026490
1457.2533 939.96783 1793.3295 2565428
1461.0421 935.59076 1784.9786 1776167
1474.5378 937.448 1788.5219 3092799
1479.2484 933.73315 1781.4344 3093056
1494.6821 936.79169 1787.2699 1448229
1507.1893 937.98608 1789.5485 855836
1514.7317 936.0954 1785.9414 2566203
1527.7687 937.60303 1788.8177 394779
1537.3668 936.99402 1787.6559 2105909
1559.5204 943.99335 1801.0095 1646129
1567.7019 942.49744 1798.1556 4212311
1582.3035 944.85547 1802.6544 4147033
1582.8967 938.87311 1791.241 6447991
1582.1097 932.15717 1778.4279 3027268
1578.9431 924.13727 1763.1268 3750735
1606.0944 933.85089 1781.6592 1184292
1619.1288 935.28314 1784.3917 2763324
1624.3616 932.21948 1778.5466 197390
1626.843 927.62653 1769.7839 921117
1647.2885 933.26984 1780.5505 2105905
1644.4575 925.73792 1766.1808 3356229
1660.1677 928.6731 1771.7806 2500920
1675.385 931.29724 1776.7872 3553351
1687.9191 932.40637 1778.9033 3750988
1696.3041 931.22412 1776.6476 592143
0 0 0 0
0 0 0 0
0 0 0 0
0 0 0 0
0 0 0 0
0 0 0 0
0 0 0 0
0 0 0 0
0 0 0 0
0 0 0 0
0 0 0 0
-1666.41 1015.4411 1915.6699 6768959
-1673.048 1026.4766 1936.489 6571323
-1667.5466 1030.1652 1943.4476 6308408
-1663.4905 1034.8042 1952.1992 6834494
-1651.9357 1034.8108 1952.2117 7098177
-1646.687 1038.7955 1959.7291 6835261
-1628.5316 1034.6371 1951.8839 7162943
-1619.7255 1036.4014 1955.2123 6834235
-1593.9443 1027.2511 1937.9501 6505785
-1591.798 1033.3105 1949.3815 7163459
-1575.8099 1030.4076 1943.9049 7426631
-1540.0365 1014.4293 1913.7611 7492934
0 0 0 0
0 0 0 0
0 0 0 0
-1297.709 880.74268 1661.556 9794888
-1289.8346 882.08917 1664.0963 9532227
-1286.5594 886.6261 1672.6553 10847570
-1280.3788 889.21552 1677.5404 9992263
-1272.6394 890.75446 1680.4437 10453074
-1264.6104 892.1134 1683.0073 9400385
-1251.4117 889.81805 1678.6771 9531970
-1250.8079 896.51306 1691.3076 8742192
-1245.0267 899.57562 1697.0852 9202743
-1229.1429 895.32916 1689.074 8413231
-1222.1719 897.55823 1693.2793 7294237
-1204.5074 891.90613 1682.6165 7755047
-1202.1732 897.60608 1693.3696 7623461
-1191.2449 896.93121 1692.0963 6702878
-1189.5247 903.23669 1703.9919 6241820
-1178.5404 902.55548 1702.7069 4137484
-1166.8905 901.34845 1700.4297 9071447
-1153.6312 898.86646 1695.7473 10189417
-1151.8263 905.34393 1707.9674 9925991
-1146.8252 909.40179 1715.6227 7360320
-1140.6553 912.59717 1721.6508 9204064
-1130.1345 912.33771 1721.1614 9335647
-1122.2379 914.21143 1724.6962 8940890
-1107.1044 910.16968 1717.0714 9335135
-1095.6316 909.09076 1715.0359 9334878
-1097.475 919.14386 1734.0015 9664099
-1093.2441 924.25177 1743.6377 10255723
-1085.8209 926.73242 1748.3176 10913653
-1080.3313 930.927 1756.2307 10320747
-1144.6959 995.9823 1878.9602 8544336
-1128.2761 991.33575 1870.1943 8084043
-1124.3102 997.64795 1882.1024 8281165
-1107.2338 992.33643 1872.082 8479058
-1113.6064 1008.1459 1901.9073 8018509
-1101.8116 1007.6636 1900.9974 7886668
-1091.0199 1008.098 1901.8169 7688776
-1083.746 1011.8258 1908.8496 7491653
-1065.9393 1005.6949 1897.2834 7754569
-1063.047 1013.6547 1912.2999 8412755
-1042.2452 1004.5247 1895.0758 7952716
-1030.7241 1004.2379 1894.5348 8018509
-1021.0542 1005.7685 1897.4222 8347474
-1012.5378 1008.4819 1902.5413 9005404
-1002.0063 1009.2269 1903.9467 6768186
-993.62946 1012.1836 1909.5245 6702135
-984.15332 1014.0757 1913.0942 8280911
-980.59369 1022.1794 1928.3821 6702134
-963.17743 1015.8597 1916.4596 5386275
-945.25122 1008.8447 1903.2257 6504502
-933.86578 1008.7256 1903.0009 7096639
-925.63647 1012.0543 1909.2806 4859679
0 0 0 0
0 0 0 0
-792.96222 899.98621 1697.8597 1048576
-785.0199 902.41888 1702.4491 3085838
-770.22742 896.93787 1692.1089 4334099
-765.09454 902.70917 1702.9967 8085058
-750.91058 897.81305 1693.76 10518631
-739.79364 896.50092 1691.2847 11112313
-730.4021 897.27246 1692.7402 9401697
-726.02094 904.30621 1706.0095 10190957
-718.49707 907.56879 1712.1646 9532513
-711.30853 911.35455 1719.3065 9664099
-706.16205 917.90454 1731.6633 9729635
-701.80835 925.69342 1746.3574 8348499
-695.46075 931.04596 1756.4552 8151122
-688.53149 935.77069 1765.3685 8152149
-682.09802 941.32532 1775.8475 7691854
-675.26758 946.49762 1785.6053 7625291
-664.69885 946.51123 1785.631 7954254
-657.26599 951.06299 1794.2181 7362114
-654.8241 963.10498 1816.9358 7361857
-647.7359 968.60144 1827.3052 8216651
-639.82251 973.02991 1835.6597 7230013
-638.9704 988.53601 1864.9125 6835006
-628.47021 989.39862 1866.5398 7229761
-617.263 989.15918 1866.0881 7361346
-602.24451 982.69214 1853.8877 5584423
-595.75745 990.16425 1867.9843 6439476
-586.28339 992.86078 1873.0713 6242098
-576.40875 994.96991 1877.0503 6176305
-564.27527 993.18616 1873.6852 5978156
-553.6272 993.99786 1875.2166 5057055
-547.71936 1003.5276 1893.1948 5057311
-527.02936 985.80603 1859.7623 5254434
-519.04425 991.59961 1870.692 4662297
-508.83206 993.29834 1873.8969 5188898
-497.40897 992.65631 1872.6855 6110001
-485.38333 990.75519 1869.099 3544591
-475.06403 992.32935 1872.0688 5320998
-463.306 990.90179 1869.3757 4728347
-450.23022 986.51697 1861.1035 5781548
-439.91147 988.10468 1864.0988 5057826
-425.94098 981.3606 1851.3757 6505272
-412.83423 976.30267 1841.8339 5518122
-405.17032 984.19116 1856.7157 5847087
-392.65567 980.40826 1849.5792 5057573
-381.02087 978.66821 1846.2964 5649710
-368.50458 974.49414 1838.4219 5583917
-359.75369 980.32654 1849.4249 6570553
-348.63736 979.87701 1848.577 6636346
-337.0614 978.0647 1845.158 5912879
-325.97733 977.60608 1844.2927 5583659
-316.51471 982.14691 1852.8593 5780783
-306.7887 986.16742 1860.4441 5912369
-292.54837 975.43573 1840.1982 6109748
-282.96985 980.01843 1848.8438 5583148
-271.63504 978.64276 1846.2484 5649712
-258.82214 971.60291 1832.9675 5254954
-248.25229 972.73566 1835.1044 3150608
-236.03592 967.22479 1824.7081 4597023
-224.9861 966.19501 1822.7653 6307642
-216.43256 976.32184 1841.8699 5912627
-205.33452 975.43628 1840.1993 4728351
-193.38417 970.17572 1830.2751 5517865
-182.21655 968.45032 1827.0199 6636091
-171.39757 968.47687 1827.0701 6307640
-159.83072 963.99628 1818.6173 4136216
-149.52521 967.02545 1824.3319 4860453
-139.05968 969.41125 1828.8328 3939866
-127.74307 965.76581 1821.9556 3611929
0 0 0 0
0 0 0 0
-90.41497 915.66498 1727.4384 655361
-80.084015 914.55475 1725.3439 655364
-68.649734 898.67633 1695.3887 655364
-57.970798 888.93799 1677.0168 720898
-47.512241 879.24969 1658.7395 786433
-37.314224 870.58752 1642.3979 3940901
-27.731155 875.22278 1651.1426 9795447
-17.963036 875.88702 1652.3958 5190448
-8.2192049 880.745 1661.5604 12163991
1.77839 964.32397 1819.2356 7098183
12.720366 976.95117 1843.0573 3613727
23.710835 979.91772 1848.6538 4729637
34.648678 979.52203 1847.9072 1902596
45.291565 972.97986 1835.5652 4137759
56.414085 977.27979 1843.6771 3281938
67.309448 976.88788 1842.9379 2558214
77.696754 970.26099 1830.4359 4531490
89.096321 976.3501 1841.9232 5386799
99.626015 972.61792 1834.8823 4860455
110.40992 971.85785 1833.4485 3939354
121.43222 973.14441 1835.8756 5386801
132.58444 975.17505 1839.7064 6505281
142.61543 969.27661 1828.579 3085072
153.34697 968.63647 1827.3711 5255726
164.46693 970.37225 1830.6458 4532001
175.99625 974.15906 1837.7897 6834240
187.45676 977.14606 1843.4248 6241849
197.04886 970.60095 1831.0774 4859940
207.95784 970.88702 1831.6169 6373178
221.18613 981.43573 1851.5175 5518125
229.10887 968.55859 1827.2242 4004887
241.87465 976.39349 1842.0051 5057575
253.51953 979.22247 1847.3422 4925988
263.60892 976.05786 1841.3719 5057575
273.97064 974.11304 1837.703 3675667
283.13196 968.21185 1826.5702 3609618
293.16452 965.61499 1821.671 4794150
303.61432 964.52783 1819.6201 4596767
315.14603 966.83447 1823.9717 5846833
325.86356 966.57318 1823.4786 6109492
335.1496 962.21887 1815.264 5122854
350.5188 975.05701 1839.4839 5122341
360.73941 973.2309 1836.0387 2231818
370.19247 969.5014 1829.0029 4004372
382.01608 972.01587 1833.7465 5451562
393.47003 973.47656 1836.5022 4794143
404.61099 974.10516 1837.6881 5452332
415.96399 975.198 1839.7498 3807765
425.36273 971.77026 1833.2833 3873301
437.57404 974.77887 1838.9591 3939608
447.64273 972.98407 1835.5731 3479058
456.56207 968.83545 1827.7466 3610386
464.71408 963.28851 1817.2821 4399644
469.72064 951.62042 1795.2698 5452076
484.26157 959.35718 1809.8655 6373434
493.77231 957.0094 1805.4363 4465438
504.77112 957.58417 1806.5206 7426380
511.75256 950.67224 1793.481 6966084
520.92029 948.02014 1788.4777 8019287
530.36554 945.96881 1784.6077 6111807
542.1441 948.07806 1788.5869 4269089
553.27771 949.00012 1790.3265 2755337
556.93658 937.30792 1768.2687 2820875
568.9361 939.82526 1773.0177 5255474
579.78021 940.37726 1774.0591 1376513
585.8493 933.30261 1760.7124 1507329
591.75134 926.21411 1747.3397 5584441
603.27197 928.01239 1750.7322 7492441
613.62982 927.99133 1750.6926 5123891
622.67151 926.01367 1746.9617 11441301
631.75037 924.15515 1743.4553 1836297
639.8465 920.94189 1737.3934 2954008
648.32111 918.36633 1732.5347 7557720
656.3382 915.23334 1726.624 8479079
663.25311 910.68298 1718.0397 9070700
678.42719 917.43909 1730.7854 5122350
694.70941 925.47034 1745.9365 9597298
718.48358 943.09998 1779.1957 1574148
726.47864 939.80731 1772.9838 5386797
736.03571 938.60034 1770.7068 7360586
746.5769 938.66461 1770.8281 5912629
759.20312 941.31226 1775.823 5912373
774.08252 946.64301 1785.8798 5780788
787.98761 950.65454 1793.4476 5715251
792.63239 943.53613 1780.0184 5780787
801.57941 941.65857 1776.4762 5188650
816.37512 946.61139 1785.8201 5320237
818.61328 937.06311 1767.8068 7228233
832.7486 941.20245 1775.6158 4793891
842.45026 940.29004 1773.8945 4924963
857.42255 945.21033 1783.1768 4595999
858.3031 934.66547 1763.2834 3411470
874.79742 941.17255 1775.5594 5516845
884.97174 940.8064 1774.8687 5319978
888.51184 933.47876 1761.0448 4398107
905.33746 940.11713 1773.5684 5516846
915.52106 939.7851 1772.9419 6241595
916.71106 930.33344 1755.111 5254701
926.85657 930.08038 1754.6337 6373695
940.0686 932.87604 1759.9077 5979194
953.76453 936.08521 1765.962 7821401
963.59644 935.47357 1764.8081 5584438
966.49365 928.2149 1751.1144 7360337
980.61255 931.77344 1757.8275 5584182
992.85791 933.49542 1761.0763 6373697
1000.5994 930.99115 1756.3518 5058094
1022.5884 941.65833 1776.476 7492692
1034.6438 943.05396 1779.1089 6637382
1040.1367 938.50018 1770.5178 7887450
1045.2515 933.69952 1761.4613 7230032
1066.1785 942.979 1778.9673 6374467
1075.9788 942.33197 1777.7467 6176833
1085.9696 941.86285 1776.8617 5716794
1099.048 944.05481 1780.9968 6505798
1104.6379 939.83386 1773.0339 6637642
1113.7168 938.63281 1770.7682 4269352
1123.39 937.95062 1769.4811 4926769
1136.8088 940.37939 1774.063 4993075
1140.4684 934.76453 1763.4703 4533553
1149.7347 933.80542 1761.661 2429717
1158.7305 932.64587 1759.4734 2825504
1173.9335 936.45837 1766.666 3418415
1183.219 935.5249 1764.905 590342
1187.2856 930.51764 1755.4585 196615
1199.0706 931.59393 1757.4889 9
1209.4918 931.60114 1757.5026 65545
1215.6597 928.36011 1751.3883 11
1227.0757 929.14789 1752.8744 12
1238.2194 929.71808 1753.9501 12
1251.2279 931.66724 1757.6272 65547
1266.5629 935.30212 1764.4846 65548
1265.8344 927.11255 1749.0347 8
1277.6112 928.14056 1750.9741 986651
1303.068 939.01013 1771.4799 1841961
1311.5504 937.57166 1768.7662 1578533
1318.8038 935.28436 1764.4512 1184543
1319.1495 928.17279 1751.0348 1250081
1340.9637 936.15973 1766.1027 1776168
1359.8167 941.9718 1777.0671 3420993
1374.0808 944.5401 1781.9125 723481
1384.3936 944.3739 1781.5989 1512998
1395.0566 944.44739 1781.7374 2105390
1414.5508 950.45331 1793.068 2895419
1423.174 949.12 1790.5526 987160
1451.653 960.95032 1812.871 1776166
1441.1216 946.97278 1786.5018 2631477
1444.108 942.01697 1777.1525 1184030
1449.1708 938.4776 1770.4753 2236719
1444.2639 928.57916 1751.8015 3092029
1456.7444 929.92114 1754.3333 1447974
1475.0642 934.9455 1763.8118 3817034
1479.6418 931.25006 1756.8402 3620945
1496.9276 935.54865 1764.9496 7569299
1518.97 942.7395 1778.5156 263696
1525.9381 940.54022 1774.3666 1513762
1535.1576 939.74921 1772.8741 1052953
1530.743 930.67944 1755.7638 1315879
1567.3239 946.48883 1785.5889 4473429
1570.7552 942.2019 1777.5013 2763070
1575.2422 938.60089 1770.7079 2960961
1573.5999 931.41974 1757.1603 1711150
1578.6882 928.29059 1751.2572 3816273
1583.5466 925.06812 1745.1777 4342614
1597.9856 927.44769 1749.667 2303030
1606.7303 926.51318 1747.9039 2237493
1609.6321 922.2428 1739.8478 657945
1624.7286 924.96942 1744.9916 526102
1634.676 924.74866 1744.5751 1183776
1653.2902 929.40259 1753.355 3815753
1680.627 938.8714 1771.2181 3092288
1660.4591 921.84912 1739.1051 1184546
0 0 0 0
0 0 0 0
0 0 0 0
0 0 0 0
0 0 0 0
0 0 0 0
0 0 0 0
0 0 0 0
0 0 0 0
0 0 0 0
0 0 0 0
0 0 0 0
-1641.6399 1018.4634 1900.1353 6572092
-1653.2124 1032.7244 1926.7417 6571835
-1632.4348 1026.8348 1915.7537 6308407
-1618.1199 1024.9563 1912.249 6111281
-1622.8064 1035.1722 1931.3087 5847598
-1612.0071 1035.5847 1932.0784 7228995
-1597.47 1033.5847 1928.347 6636858
-1588.6101 1035.2559 1931.4647 4860447
0 0 0 0
0 0 0 0
0 0 0 0
0 0 0 0
-1313.3712 887.86536 1656.48 9334858
-1304.8246 888.72815 1658.0897 9663563
-1295.5916 889.13287 1658.8448 9465926
-1289.9907 892.05573 1664.2979 10584145
-1284.6001 895.16992 1670.108 11044181
-1278.8599 898.08704 1675.5504 10321228
-1278.3112 904.72394 1687.9329 9926472
-1261.9336 900.17444 1679.4449 9729093
-1251.4482 899.78918 1678.7261 9795143
-1243.9814 901.58533 1682.0771 8808502
-1236.4695 903.37756 1685.421 8807733
-1230.7255 906.50122 1691.2487 9268280
-1217.7682 904.31946 1687.1782 6043917
-1206.8164 903.60327 1685.842 7689254
-1202.9714 908.24072 1694.494 4728072
-1195.407 910.12433 1698.0083 6307103
-1185.2618 910.05841 1697.8854 5978396
-1174.8352 909.7735 1697.3539 7162160
-1166.4296 911.06219 1699.7581 7425079
-1161.2023 914.8775 1706.8762 10320484
-1147.6251 912.12323 1701.7377 12295045
-1149.9636 922.08203 1720.3176 9531996
-1141.6144 923.57251 1723.0984 11242101
-1122.0397 915.92645 1708.8333 9268824
-1114.5424 918.08972 1712.8693 8085321
-1113.9854 926.06238 1727.7437 9927526
-1095.3342 919.00153 1714.5703 8940375
-1089.1556 922.37109 1720.8571 8019275
-1084.7557 927.32495 1730.0994 9597793
-1079.8376 931.92603 1738.6836 10979446
-1072.3198 934.35065 1743.207 11045239
-1086.1188 955.57697 1782.8087 7689796
-1108.0581 984.45258 1836.6815 8610644
-1107.8657 994.04285 1854.5741 8149835
-1103.8756 1000.3839 1866.4043 7886409
-1091.0184 998.73578 1863.3296 8215631
-1089.8162 1007.8323 1880.301 8544852
-1073.3994 1002.9016 1871.1018 7755336
-1062.9911 1003.5403 1872.2933 7886921
-1049.0852 1000.8557 1867.2847 7294271
-1037.8022 1000.6427 1866.8875 9202524
-1028.1456 1002.0104 1869.4391 8084556
-1017.8836 1002.8113 1870.9333 8940122
-1004.4417 1000.4626 1866.5513 9269346
-995.14215 1002.2334 1869.8551 6439734
-991.68231 1009.9916 1884.3296 8018510
-986.44928 1016.1 1895.726 7688775
-977.02948 1017.9869 1899.2462 6702399
-966.50299 1018.7512 1900.672 2953745
-943.83331 1006.5829 1877.97 918789
-925.75256 999.0769 1863.9659 327683
0 0 0 0
0 0 0 0
-822.64368 920.74982 1717.8322 720902
-817.13409 926.03912 1727.7003 786437
-808.04657 927.35645 1730.158 1048576
-775.81494 901.80481 1682.4867 1901313
-763.61194 899.17242 1677.5753 4202263
-759.37317 905.97229 1690.2618 5781798
-742.8418 898.09216 1675.5599 7821637
-733.51331 898.82483 1676.9269 9335646
-730.68909 907.6571 1693.4053 9861734
-725.38831 913.61621 1704.5231 7953738
-715.99347 914.51428 1706.1986 7756104
-708.50659 917.90997 1712.5339 9203549
-707.35663 929.73346 1734.5928 8677461
-701.39191 935.48383 1745.3212 9204063
-691.36066 935.90131 1746.1001 8546649
-689.16943 947.1059 1767.0043 8612441
-682.96942 953.06183 1778.1163 6902336
-674.40564 955.85431 1783.326 7692108
-664.91577 957.40198 1786.2137 7559496
-656.73749 960.91895 1792.7753 7164738
-647.95239 963.64917 1797.8689 7361601
-644.45465 974.46533 1818.0486 7690310
-637.53217 980.38281 1829.0886 6768436
-627.01819 980.88647 1830.0283 7361087
-615.20667 979.34229 1827.1473 7295295
-611.38153 990.68402 1848.3075 7098175
-595.86267 983.14526 1834.2426 7492163
-586.54535 985.74878 1839.1 6241841
-577.25732 988.50092 1844.2346 6176048
-560.68365 978.64264 1825.842 6307376
-556.00604 989.56885 1846.2271 4925723
-546.13116 991.49792 1849.8262 4991771
-535.88873 992.82513 1852.3022 5254687
-523.31769 989.80353 1846.6648 5715495
-510.17432 985.54724 1838.7239 6175789
-502.71591 992.32684 1851.3726 5386276
-491.9826 992.80042 1852.2561 5846827
-480.24524 991.22314 1849.3134 3741710
-469.76505 992.22754 1851.1873 4070676
-452.0235 977.57617 1823.8525 5781036
-443.52142 982.67834 1833.3715 5386791
-432.41708 982.12646 1832.3418 5781548
-422.33942 983.93787 1835.7214 6505272
-410.27234 981.08777 1830.4041 6044465
-399.46558 981.17859 1830.5734 5913136
-388.21518 980.15436 1828.6625 5452072
-376.07184 976.7522 1822.3151 5583658
-366.74887 980.69055 1829.663 5649708
-355.69751 980.10632 1828.5729 6833726
-344.88705 980.1701 1828.6918 7623499
-333.5701 978.75177 1826.0457 6044466
-322.69455 978.57703 1825.7196 6570553
-312.28748 979.85999 1828.1133 5320742
-301.20151 979.02844 1826.5619 5846829
-290.65616 979.95776 1828.2957 6438967
-280.33026 981.72742 1831.5974 6044210
-269.91794 983.32471 1834.5775 4662559
-257.31604 976.74487 1822.3014 4333594
-245.36606 972.17163 1813.7692 4333595
-233.1324 966.00385 1802.2621 3017736
-221.64412 962.48102 1795.6896 3214857
-211.052 962.69055 1796.0804 4859680
-202.3154 971.83551 1813.1422 2755848
-189.29002 960.24951 1791.5262 1180675
-180.01674 967.45172 1804.9633 3018761
-168.81377 964.5379 1799.5271 3678233
-157.89601 962.97083 1796.6035 3084813
-147.84834 966.86725 1803.8729 3940376
-136.92487 965.19714 1800.7571 3875100
-126.88158 969.97357 1809.6683 4600112
0 0 0 0
-102.09528 939.2063 1752.2661 655362
-90.126907 922.94879 1721.9348 458756
-79.674416 920.0462 1716.5194 458756
-68.715149 909.58606 1697.004 458756
-57.075146 884.98535 1651.1068 655362
-47.291069 884.93768 1651.0179 786432
-37.322289 880.50763 1642.7528 5520704
-27.731844 885.02655 1651.1836 10848390
-17.945671 884.82001 1650.7983 6570816
-8.1648245 884.69611 1650.5671 8149590
1.6266738 891.91467 1664.0348 7755604
11.53123 895.52106 1670.7632 8019032
21.976763 918.4032 1713.4541 6242620
34.088352 974.45184 1818.0233 4729125
44.800583 973.18866 1815.6667 4597540
55.627876 974.43018 1817.9829 4794919
66.432541 974.93689 1818.9282 5123114
76.968239 971.9057 1813.2731 4859942
87.701172 971.80255 1813.0807 3676181
98.394859 971.33453 1812.2075 5584434
109.20783 972.02026 1813.4868 5716279
119.25726 966.39587 1802.9935 6242623
130.5688 971.08289 1811.7379 3742745
141.49413 972.4035 1814.2019 5255728
152.81241 976.04773 1821.0009 5387571
163.00531 972.49719 1814.3766 6176572
173.66173 971.98029 1813.4122 5057064
184.73482 973.71991 1816.6577 4794406
195.20485 972.26422 1813.9419 5320236
206.93011 976.88623 1822.5652 5122857
217.85629 977.46448 1823.644 4663077
226.34846 967.58331 1805.2089 4531491
237.76263 970.52112 1810.6898 4465955
253.7955 991.24438 1849.353 3545110
259.14636 970.25848 1810.2 4663077
270.47354 972.42694 1814.2455 3414553
279.93753 967.987 1805.962 1114112
291.54971 971.02875 1811.6368 4531748
301.36844 968.0932 1806.1602 5386799
311.72736 967.03485 1804.1855 5254698
324.52042 973.34729 1815.9628 5781298
335.08209 972.77692 1814.8984 5780785
343.33762 965.75507 1801.7979 5386027
354.38821 966.7818 1803.7134 4465951
365.24649 967.23895 1804.5664 3677978
372.83057 959.24615 1789.6543 6570813
384.84894 962.78876 1796.2637 4795427
396.7229 965.789 1801.8613 4860197
405.04416 960.21008 1791.4528 4991781
423.33456 977.9458 1824.542 4728353
430.92584 970.69769 1811.0193 4860196
441.98087 971.41437 1812.3564 4267802
452.41098 970.75641 1811.1288 3807508
455.25323 954.22437 1780.2852 5649713
468.1937 959.12787 1789.4337 5321006
482.36359 966.2771 1802.772 4859685
489.01642 958.38446 1788.0468 4334884
493.87799 947.3905 1767.5353 8610141
504.11218 946.94519 1766.7045 6965316
517.20685 951.78186 1775.7283 9070436
527.84766 952.00012 1776.1355 5912887
536.99249 949.56439 1771.5912 7295309
548.81372 951.86414 1775.8818 4466215
554.24573 943.20422 1759.7251 1179905
562.24652 939.15491 1752.1703 3150872
578.51923 948.81909 1770.2006 1638660
583.44495 939.86047 1753.4866 1376257
589.3811 932.81433 1740.3407 1508101
599.76123 932.92328 1740.5439 2559763
608.94769 931.20294 1737.3345 1114113
621.29138 934.28772 1743.0896 9334130
625.83893 925.7395 1727.1414 3675933
636.28125 926.04559 1727.7125 5320244
641.63824 919.05811 1714.6759 6767434
652.00433 919.35132 1715.223 5320755
663.10571 920.65643 1717.658 8938852
672.3418 919.3714 1715.2605 9859953
693.93243 934.76697 1743.9839 7885394
710.94977 943.64075 1760.5396 1245441
716.88171 937.75708 1749.5624 4464414
728.0694 938.81818 1751.542 9071465
740.45667 941.37445 1756.3113 6505280
749.06317 939.11993 1752.105 6636353
762.71881 943.17072 1759.6626 6241595
774.39783 944.70093 1762.5175 6241595
784.50189 944.29474 1761.7596 6636353
796.90173 946.62628 1766.1096 6504767
800.42218 938.48639 1750.9231 5846837
812.15802 940.06403 1753.8663 5122858
819.58698 936.67963 1747.5521 3741460
825.72095 931.91809 1738.6687 5188908
837.40149 933.45673 1741.5393 4530978
847.46735 933.17987 1741.0227 5583666
856.12476 931.37744 1737.6599 3544085
866.62939 931.60358 1738.0818 3675416
875.99805 930.61755 1736.2422 3280400
887.10638 931.48108 1737.8534 4596258
896.82837 930.8858 1736.7428 4398879
902.81628 926.47223 1728.5084 5714482
922.23413 935.78485 1745.8828 5056552
929.80713 933.00531 1740.697 5188908
943.74792 936.60638 1747.4155 6965575
952.66833 935.20093 1744.7935 6637126
965.48419 937.6087 1749.2855 6111039
971.2345 933.17664 1741.0166 4663849
976.89648 928.75372 1732.7649 5453109
984.87817 926.60516 1728.7565 5518903
1001.0397 932.11755 1739.0409 4466473
1017.8146 938.08307 1750.1705 7361108
1029.7434 939.50659 1752.8264 6505541
1033.3469 933.38196 1741.3997 6571590
1048.0488 937.30408 1748.7172 7032143
1062.8154 941.2066 1755.9982 3610907
1071.1636 939.40454 1752.6361 6505799
1086.0739 943.33685 1759.9725 6571081
1097.2524 943.98383 1761.1796 7229264
1103.1063 940.08093 1753.8979 6505795
1113.9664 940.47742 1754.6377 5387060
1123.8884 940.08185 1753.8998 4992816
1131.5814 937.84619 1749.7286 5058353
1144.3994 939.86005 1753.486 4005924
1149.8717 935.85925 1746.0217 5125432
1160.6898 936.24194 1746.7356 1312522
1170.9534 936.17426 1746.6094 4074802
1181.6449 936.44708 1747.1184 2365983
1190.224 935.05554 1744.5222 1248528
1199.9047 934.54602 1743.5715 131078
1209.4404 933.93317 1742.4282 131081
1219.8671 934.01294 1742.577 196619
1230.7598 934.44513 1743.3834 65548
1241.1533 934.49432 1743.4751 65549
1251.5034 934.51031 1743.505 14
1262.198 934.78107 1744.0101 14
1272.7538 934.94556 1744.3169 65549
1281.8191 934.0213 1742.5927 196620
1294.0958 935.43317 1745.2268 13
1282.532 919.7262 1715.9224 197389
1308.5966 931.03809 1737.0269 986652
1318.6577 930.8761 1736.7246 1447457
1335.1514 935.22241 1744.8335 8420745
1342.9922 933.48749 1741.5967 920849
1354.3987 934.23865 1742.998 1381152
1379.0183 944.0235 1761.2537 2104877
1391.8733 945.6684 1764.3224 1447972
1401.7688 945.29297 1763.6219 5329763
1375.6691 920.82898 1717.9797 5330017
1410.8267 937.427 1748.9465 2765381
1430.6521 943.66956 1760.5933 10330278
1428.4379 935.38971 1745.1455 1710882
1434.2593 932.45282 1739.6664 1382180
1442.6964 931.24646 1737.4155 3552323
1456.3761 933.41711 1741.4653 1578792
1476.3986 939.59387 1752.9893 2434617
1487.3317 939.94012 1753.6354 1447458
1491.0779 935.77136 1745.8577 6842750
1499.088 934.3175 1743.1451 6580605
