# .PCD v0.7 - Point Cloud Data file format
VERSION 0.7
FIELDS x y z rgb
SIZE 4 4 4 4
TYPE F F F U
COUNT 1 1 1 1
WIDTH 1273
HEIGHT 1
VIEWPOINT 0 0 0 1 0 0 0
POINTS 1273
DATA ascii
-5236.9805 1143.4561 7025.0254 3619109
-5175.0298 1138.981 6997.5317 3552544
-5102.9888 1132.1949 6955.8398 6841935
-5116.606 1144.458 7031.1807 6381643
-5117.0156 1153.9438 7089.4585 6776401
-5014.8042 1140.2531 7005.3467 6842194
-4773.9536 1094.5472 6724.5449 7236952
-4868.71 1125.666 6915.7285 6907986
-4666.7705 1088.1334 6685.1406 7434331
-4662.0322 1096.3325 6735.5132 7302488
-4684.978 1111.2397 6827.0981 6644814
-4637.0571 1109.451 6816.1094 6776399
-4746.1006 1145.5159 7037.6802 6249800
-4608.9043 1122.261 6894.8096 6578765
-4472.6841 1098.8301 6750.8569 6842194
-4454.6313 1104.269 6784.2725 6974037
-4525.5405 1132.0607 6955.0156 6710608
-4469.4375 1128.2992 6931.9062 5657662
-4375.2549 1114.7657 6848.7607 6052419
-4369.79 1123.7948 6904.2324 6841935
-4298.0308 1115.7843 6855.0186 6381384
-4268.9946 1118.8176 6873.6543 6973521
-4240.001 1121.9208 6892.7192 6052419
-4271.1401 1141.1503 7010.8594 6315591
-4186.0518 1129.3992 6938.6646 6249539
-4121.8257 1123.0996 6899.9619 5196852
-4094.7092 1126.8867 6923.228 5262388
-4020.2273 1117.5831 6866.0703 6183490
-3955.7354 1110.8949 6824.98 5525561
-3925.249 1113.717 6842.3184 4933425
-3969.2524 1137.9536 6991.2197 4275751
-3791.5425 1098.4678 6748.6313 5459769
-3799.2119 1112.4197 6834.3477 4604718
-3816.3733 1129.4814 6939.1699 4736047
-3735.0173 1117.4406 6865.1938 3946788
-3653.5803 1105.1097 6789.438 4078375
-3553.3447 1086.7554 6676.6738 6578510
-3536.5979 1093.8092 6720.0107 7631710
-3471.0881 1085.7705 6670.6235 7171158
-3484.1633 1102.4115 6772.8604 6710351
-3429.6204 1097.796 6744.5044 5262391
-3354.0151 1086.2505 6673.5723 4538668
-3331.9512 1091.9764 6708.751 4867376
-3286.3069 1090.0194 6696.7275 7302230
-3233.5867 1085.639 6669.8154 6973523
-3289.1812 1117.9653 6868.4185 7171159
-3191.3928 1098.3152 6747.6938 6711122
-3079.4402 1073.2297 6593.5776 6184264
-3080.8633 1087.5206 6681.376 5197112
-3029.9563 1083.4709 6656.4961 4999733
-3043.4919 1102.6622 6774.4009 6643787
-2944.697 1081.1249 6642.0825 5262135
-2873.3899 1069.2329 6569.0215 5657662
-2847.604 1074.186 6599.4521 6117957
-2780.1667 1063.3464 6532.8574 6315593
-2777.6614 1077.3862 6619.1133 6381387
-2710.8567 1066.531 6552.4219 6578766
-2656.5386 1060.3441 6514.4121 7171160
-2621.9741 1061.9758 6524.4365 6579022
-2543.8948 1045.7677 6424.8594 6710609
-2567.3503 1071.4412 6582.5889 7105366
-2484.1028 1052.689 6467.3813 5328956
-2482.6746 1068.5651 6564.9189 5986627
-2471.4941 1080.6821 6639.3628 5855042
-2410.9656 1071.2644 6581.5029 6052421
-2297.2083 1037.4971 6374.0474 4802354
-2309.8894 1060.6594 6516.3491 4144168
-2254.9219 1053.0179 6469.4028 5723457
-2208.8335 1049.3304 6446.7476 6250059
-2143.1174 1036.0249 6365.0024 7237211
-2060.1909 1013.7736 6228.2979 6842711
-2065.0525 1034.6973 6356.8457 6842711
-2007.1847 1024.3837 6293.4829 6973783
-1964.2213 1021.4304 6275.3384 5855302
-1964.2209 1041.1355 6396.4009 5855044
-1916.2341 1035.6804 6362.8862 6973525
-1866.7322 1029.1713 6322.8955 6315595
-1870.7957 1052.5317 6466.4155 7302232
-1795.5193 1031.2985 6335.9648 5986629
-1736.9955 1018.986 6260.3213 5986885
-1713.7719 1027.2965 6311.3784 5789506
-1670.5426 1023.7181 6289.394 5657920
-1660.9927 1041.0864 6396.0991 4670768
-1629.3156 1045.0726 6420.5889 6315850
-1606.7163 1055.2113 6482.8779 6315852
-1501.7102 1010.4007 6207.5757 5460542
-1514.1082 1044.3165 6415.9438 4605235
-1484.0598 1049.9489 6450.5469 4210477
-1419.6122 1030.8988 6333.5098 4012585
-1401.282 1045.2134 6421.4536 3881001
-1318.5406 1010.9418 6210.9004 4144430
-1264.6348 997.44598 6127.9863 5197374
-1222.5803 992.77612 6099.2959 5724231
-1198.9614 1003.248 6163.6318 6052941
-1184.756 1022.5019 6281.9219 6908250
-1104.7261 984.35266 6047.5449 6052941
-1056.2704 972.72296 5976.0957 6513492
-1031.7179 983.06238 6039.6182 6315857
-986.70331 973.94727 5983.6177 6249808
-975.94446 999.22571 6138.9204 5460292
-954.42542 1015.0178 6235.9419 6249808
-926.85297 1025.3846 6299.6323 5855049
-877.48853 1011.5013 6214.3374 3223585
-865.21619 1041.0312 6395.7598 5329220
-804.56085 1012.3853 6219.7686 5461574
-779.45972 1027.875 6314.9326 6448213
-713.73206 988.65137 6073.9546 6645335
-673.85229 982.96771 6039.0366 5790025
-639.10736 984.55707 6048.8008 5724233
-608.33948 992.82581 6099.6016 4539958
-570.62823 990.09161 6082.8032 6447955
-547.00781 1013.0856 6224.0713 4934715
-503.80179 1000.5085 6146.8013 3750699
-456.40735 977.00543 6002.4062 7698021
-427.57617 992.62567 6098.3721 5132094
-387.46292 982.52032 6036.2876 5395269
-353.36893 987.17548 6064.8877 5132097
-317.69852 987.98199 6069.8428 5263427
-288.00836 1009.9655 6204.9023 4671290
-246.86972 992.36133 6096.7476 4408119
-209.83313 988.03839 6070.189 2960673
-170.64091 969.67773 5957.3872 5131843
-136.51706 978.05316 6008.8433 7040352
-98.767036 957.19464 5880.6948 5790284
-63.428036 949.7016 5834.6602 3290152
-28.573704 940.20917 5776.3418 6053457
5.7677464 960.37244 5900.2183 5987664
40.441978 953.76917 5859.6499 6316885
75.544632 958.70282 5889.9604 6185042
111.60092 968.79712 5951.9771 5066306
146.91391 969.14105 5954.0898 6513751
180.19368 958.53613 5888.9365 6842463
216.45226 964.64697 5926.4795 6381912
247.85979 950.45007 5839.2588 5987410
280.08627 942.48657 5790.333 6381912
317.22794 950.99567 5842.6104 6710877
350.91431 948.49121 5827.2236 5395017
383.50464 943.73822 5798.0229 5460809
422.60474 954.46912 5863.9502 5592653
456.93713 953.61981 5858.7324 6381912
486.17435 943.00757 5793.5342 6842462
525.64679 952.3385 5850.8604 5658445
552.17297 938.51056 5765.9062 6184275
589.59619 943.73608 5798.0103 4276279
626.76501 948.00171 5824.2168 2236697
648.92603 930.3067 5715.5039 4737088
692.12585 943.03241 5793.687 6052949
731.11835 949.09393 5830.9268 6711135
776.65198 962.71674 5914.6211 8092531
811.08582 961.99823 5910.207 6382169
838.70374 953.58972 5858.5479 6645340
872.90198 953.03387 5855.1328 5987412
899.99799 945.06268 5806.1602 5855828
945.85962 956.6582 5877.3994 6514269
978.8363 954.86102 5866.3579 6909026
1012.2139 953.56476 5858.394 4803651
1051.0486 957.32477 5881.4946 6119253
1091.4471 962.22235 5911.5835 6513757
1094.1674 934.63074 5742.0698 6777186
1145.2734 948.78772 5829.0454 6448222
1158.1964 931.40942 5722.2793 5724242
1205.0022 941.49292 5784.229 4803138
1230.314 934.68951 5742.4307 5658448
1242.755 918.73718 5644.4243 5395276
1286.1746 925.9223 5688.5679 5395019
1323.2743 928.30688 5703.2183 5461068
1349.533 923.1571 5671.5791 6185047
1380.2263 921.21729 5659.6616 4276794
1417.0923 923.39154 5673.02 3947829
1470.9745 936.2962 5752.3018 3224106
1476.7692 918.70117 5644.2036 4144951
1475.5576 897.62311 5514.707 5000518
1532.2211 911.90265 5602.4355 5263179
1573.9041 916.85004 5632.8306 5658450
1592.4148 908.37366 5580.7544 4671557
1621.5698 906.19049 5567.3418 6316381
1638.0927 897.17572 5511.9585 1513493
1642.1841 881.83783 5417.7271 2
1667.2256 878.12231 5394.9004 5
1695.4293 876.18091 5382.9727 8
1717.892 871.39886 5353.5938 9
1732.4083 862.83252 5300.9648 131594
1769.0938 865.41614 5316.8374 10
1795.4347 862.9375 5301.6094 8
1811.7683 855.81689 5257.8628 8
1823.4526 846.77789 5202.3301 131589
1805.6208 824.56055 5065.834 6841953
1863.7886 837.20844 5143.5381 4933186
1944.6162 859.46436 5280.2715 262400
1943.509 845.37616 5193.7183 131073
1973.4431 845.01868 5191.522 8
2021.6235 852.36536 5236.6577 13
0 0 0 0
2062.4978 843.70459 5183.4487 13685201
2094.6545 844.28851 5187.0361 13685203
2120.7859 842.4621 5175.8149 13685203
2145.1548 839.9975 5160.6738 13619920
2170.9265 838.1438 5149.2852 13619404
2205.1587 839.56274 5158.0024 13684941
2204.3284 827.77594 5085.5884 10262957
2232.9668 827.22406 5082.1978 4276040
2244.5796 820.4635 5040.6631 5196873
2344.5342 845.74811 5196.0034 4473401
2396.9224 853.44098 5243.2661 5131326
2418.5266 850.11658 5222.8418 3157794
2402.9136 833.95923 5123.5767 4143919
2349.7927 805.34998 4947.8105 3683624
2482.5149 840.35541 5162.8721 3288610
2489.4263 832.43884 5114.2358 2696730
2474.1829 817.39337 5021.8013 4209968
2560.9785 836.0155 5136.2095 3880746
2565.156 827.54681 5084.1807 3617575
2596.7778 828.0257 5087.1226 3749162
2633.4705 830.09204 5099.8174 2301716
2626.8096 818.60107 5029.2207 1841166
2613.4802 805.31305 4947.5835 3025439
2582.407 786.91284 4834.5386 3814955
2593.9304 781.75397 4802.8442 3354404
2677.5 798.18469 4903.7891 3157025
2683.1887 791.29492 4861.4604 3880235
2700.6804 787.9953 4841.189 4538163
2694.0918 777.81274 4778.6304 4801334
2762.2537 789.19885 4848.583 5261884
2788.3469 788.4549 4844.0127 5656642
2854.073 798.81885 4907.6855 5262141
2866.9016 794.31775 4880.0322 4932919
2881.7979 790.47375 4856.4155 4012074
2911.8342 790.81757 4858.5278 4735795
2923.5713 786.2334 4830.3643 5525314
2869.2646 764.14917 4694.686 6315085
2917.2981 769.48279 4727.4541 6051913
2911.4805 760.646 4673.1636 4999738
2974.8923 769.89203 4729.9683 4999483
3012.4216 772.32965 4744.9443 5460035
3108.0615 789.48303 4850.3291 5920584
3092.6765 778.37878 4782.1084 6315342
3072.3032 766.23212 4707.4829 5920328
3119.5569 771.01849 4736.8887 5393469
3097.1643 758.6593 4660.958 4669747
3135.032 761.14917 4676.2549 4735540
3152.2356 758.62238 4660.731 5130555
3162.5076 754.48566 4635.3164 6643538
3154.1436 746.01251 4583.2603 4603956
3185.272 746.94489 4588.9883 4275247
3210.0225 746.37848 4585.5088 2695701
3238.9788 746.7915 4588.0459 6248780
3284.4463 750.9726 4613.7334 5722437
3352.7532 760.26385 4670.8159 4998459
3315.1353 745.58026 4580.6045 4472369
3376.9937 753.32587 4628.1909 4537906
3408.5374 754.23865 4633.7988 3879977
3433.9915 753.80017 4631.105 3813927
3443.3665 749.86707 4606.9414 4735029
3461.1167 747.80536 4594.2749 4143147
3508.2476 752.07422 4620.5015 3353374
3452.2371 734.3374 4511.5322 3024922
3514.21 741.77716 4557.2393 2695957
3513.2527 735.92133 4521.2632 3748645
3532.3958 734.33264 4511.5029 4406317
3590.0144 740.70636 4550.6606 3090455
3608.719 739.01593 4540.2754 2958870
3638.7346 739.64972 4544.1689 3287835
3619.332 730.30261 4486.7437 2959126
3628.7627 726.86737 4465.6387 3813665
3629.1692 721.68738 4433.8145 3747871
3622.447 715.17438 4393.8008 3945249
3636.4031 712.80768 4379.2603 3616285
3715.9539 723.24133 4443.3613 3221270
3743.0034 723.38165 4444.2236 4866610
3758.0188 721.21051 4430.8848 4801074
3798.4846 723.9198 4447.5298 5590846
3821.0488 723.20367 4443.1299 3946022
3831.5452 720.22882 4424.8535 4209193
3842.969 717.46759 4407.8892 5196604
3907.9448 724.67407 4452.1636 5722696
3916.877 721.46112 4432.4243 1972753
3934.9014 719.95453 4423.1685 1578000
3989.3069 725.08032 4454.6597 1249035
4020.2561 725.9035 4459.7168 1775381
4051.3047 726.7337 4464.8174 1446672
4015.0229 715.55359 4396.1304 855050
4046.4854 716.51312 4402.0254 2893860
4021.5647 707.54047 4346.9004 2104603
4016.759 702.19849 4314.0811 262657
3987.8911 692.74408 4255.9961 1051142
4012.0959 692.57007 4254.9268 196865
4042.3127 693.42944 4260.2065 262144
4036.8862 688.20166 4228.0889 328194
0 0 0 0
0 0 0 0
0 0 0 0
0 0 0 0
-6357.4062 1176.7677 6975.7866 7631710
0 0 0 0
-6613.5454 1240.3047 7352.4292 5592381
-6463.4673 1220.1953 7233.2222 5723967
-6306.9565 1198.5951 7105.1777 7237206
-6340.7344 1213.1107 7191.2246 7500378
-6413.3276 1235.2991 7322.7554 6776655
-6303.627 1222.4381 7246.5171 5526588
-6138.021 1198.485 7104.5244 5724223
-6186.6841 1216.327 7210.2915 6447949
-6076.3994 1202.9502 7130.9946 7631709
-6009.4819 1198.0317 7101.8384 8158823
-5863.6719 1177.2052 6978.3804 7171928
-5836.1924 1180.0081 6994.9951 7106136
-5869.0737 1195.1423 7084.7095 7237722
-5874.79 1204.9231 7142.6895 7566687
-5750.7026 1188.0299 7042.5479 6579536
-5719.7607 1190.2732 7055.8457 6053191
-5698.5273 1194.5845 7081.4033 7040600
-5622.3472 1187.356 7038.5532 7632480
-5567.0127 1184.4547 7021.3545 7303263
-5446.5664 1167.552 6921.1562 7764327
-5557.4004 1200.3473 7115.5645 7369829
-5489.0015 1194.6353 7081.7046 7238761
-5462.0679 1197.9294 7101.2319 1251100
-5535.8755 1223.5406 7253.0527 3817288
-5455.8184 1215.2793 7204.0801 1842722
-5368.9883 1205.3671 7145.3213 7632997
-5198.2856 1176.3177 6973.1191 6119500
-4890.2266 1115.4717 6612.4287 7500125
-4994.3945 1148.4323 6807.8164 6907988
-5024.6055 1164.785 6904.7544 6118471
-4833.4883 1129.6776 6696.6406 6381643
-4837.3057 1139.9263 6757.3936 6579021
-4801.7427 1140.9882 6763.6885 7039573
-4735.1567 1134.6344 6726.0234 7434331
-4576.9268 1106.0266 6556.4395 7500124
-4505.5474 1098.0967 6509.4307 7631454
-4480.0605 1101.3112 6528.4858 7039573
-4464.6538 1107.0812 6562.6904 6447437
-4392.397 1098.7319 6513.1963 7302746
-4375.6172 1104.2349 6545.8174 7302745
-4340.3291 1105.1237 6551.0864 7368538
-4344.7573 1116.2323 6616.9375 7302745
-4321.019 1120.2408 6640.6997 7368539
-4292.6143 1123.1022 6657.6611 7500123
-4186.1519 1105.4044 6552.7505 6315593
-4153.1494 1106.955 6561.9419 6644815
-4169.1123 1121.7091 6649.4033 6052421
-4071.6985 1105.9495 6555.9814 6973523
-4052.3618 1111.2976 6587.6851 6578764
-4060.3032 1124.3032 6664.7817 5920578
-4054.9355 1133.8428 6721.3311 6052164
-3909.0703 1103.896 6543.8086 5986370
-3793.2183 1081.9097 6413.4756 6117958
-3772.8816 1086.9971 6443.6333 6973524
-3715.7661 1081.484 6410.9521 7171161
-3757.033 1104.7871 6549.0913 7499869
-3681.2539 1093.7992 6483.9556 6973525
-3668.156 1101.4001 6529.0137 6842196
-3615.9736 1097.3025 6504.7231 7763297
-3590.9912 1101.4596 6529.3657 7960419
-3479.7683 1078.9668 6396.0303 6512972
-3442.1287 1079.0457 6396.498 6381386
-3445.561 1092.1451 6474.1504 6249799
-3425.5227 1098.0162 6508.9536 5920835
-3343.3411 1083.8746 6425.124 5986629
-3368.843 1104.7194 6548.6895 5657664
-3265.0095 1083.1436 6420.79 6315337
-3211.689 1078.0139 6390.3823 5657407
-3206.5364 1089.1227 6456.2334 6249800
-3206.4822 1102.2521 6534.064 5591102
-3147.4014 1095.1636 6492.0439 4407080
-3141.1255 1106.501 6559.251 5196595
-3081.4907 1099.0906 6515.3228 6183236
-2994.9551 1081.7756 6412.6812 6381129
-3027.5991 1107.6165 6565.8638 6446922
-2907.4448 1077.5027 6387.3516 6315079
-2858.0063 1073.1476 6361.5347 6315335
-2798.7407 1064.9369 6312.8623 5328184
-2777.7007 1071.2458 6350.2612 5657148
-2695.9329 1053.9861 6247.9473 5262391
-2702.1821 1071.1357 6349.6084 6117443
-2712.446 1090.3833 6463.7065 6446666
-2631.7976 1073.1128 6361.3281 6841936
-2532.6729 1047.6971 6210.666 6578508
-2484.699 1043.0039 6182.8452 6446922
-2431.7339 1036.0438 6141.5859 6381642
-2412.1243 1043.299 6184.5947 5262391
-2407.782 1057.4835 6268.6797 6248771
-2420.6184 1079.7754 6400.8237 5985856
-2397.4663 1086.4678 6440.4961 6644300
-2233.6082 1028.5812 6097.3486 6315335
-2223.7788 1040.8882 6170.3032 6512714
-2172.6882 1033.9703 6129.2949 5394748
-2191.5286 1060.663 6287.5264 5196856
-2155.9548 1061.4875 6292.4146 5920837
-2067.2881 1035.7408 6139.7905 5723458
-2012.5258 1026.3628 6084.1982 5197115
-1947.4224 1011.2727 5994.7451 4473134
-1902.5686 1006.3328 5965.4614 5657408
-1870.4524 1008.0706 5975.7632 5459773
-1834.6595 1007.8558 5974.4897 5328442
-1837.1346 1029.0682 6100.2354 6578766
-1821.1073 1040.5599 6168.3574 7104854
-1755.3029 1023.4977 6067.2139 4538670
-1722.922 1025.6184 6079.7856 5065014
-1669.2919 1014.9105 6016.3096 5986372
-1626.3599 1010.3816 5989.4629 5591358
-1604.5491 1019.0649 6040.937 6184009
-1580.2968 1026.5583 6085.3574 5723714
-1510.0703 1003.8398 5950.6836 6052679
-1454.6827 990.13519 5869.4438 5855556
-1419.7833 990.04633 5868.917 5986116
-1388.3235 992.41168 5882.9385 6118215
-1317.88 966.3147 5728.2378 6446668
-1367.3958 1029.1211 6100.5493 5131319
-1307.3745 1010.6607 5991.1172 5262649
-1258.3699 999.92389 5927.4702 5723457
-1207.4702 987.02155 5850.9863 5460286
-1169.4469 984.19318 5834.2197 5920580
-1141.927 990.30133 5870.4287 6381130
-1104.7927 988.19354 5857.9336 5065271
-1068.3134 986.55383 5848.2134 6052166
-1025.1979 978.4704 5800.2959 5591358
-978.18268 965.97534 5726.2261 6249288
-946.78223 968.55646 5741.5269 5197112
-920.82434 977.10492 5792.2017 5591614
-916.66248 1010.3388 5989.2095 4999734
-860.42804 986.54401 5848.1553 6907475
-825.71881 986.46826 5847.7065 6052681
-805.81073 1004.8428 5956.6294 6776405
-757.28064 987.57428 5854.2627 6118218
-729.40082 996.87073 5909.3716 6118474
-680.59906 977.06903 5791.9883 6184010
-637.76703 964.18988 5715.6416 5657409
-617.29498 985.5661 5842.3584 5986375
-570.82605 965.51001 5723.4678 5920581
-550.26501 989.50952 5865.7349 5921352
-522.45764 1002.8355 5944.7305 5658438
-487.41068 1003.1874 5946.8159 5921869
-444.91269 987.0636 5851.2354 5987407
-413.15613 994.05908 5892.7041 5855820
-365.37756 960.23865 5692.2197 5921613
-338.53317 980.15149 5810.2607 4868925
-305.88989 985.88196 5844.231 5197889
-276.00278 1003.0922 5946.252 5395269
-232.94601 970.47247 5752.8848 6645336
-202.17804 986.64221 5848.7373 5395269
-164.07086 966.27704 5728.0142 4539449
-131.57071 976.92395 5791.1284 6513495
-96.362358 967.88019 5737.5176 7368547
-61.989395 961.94293 5702.3218 5789257
-27.924942 952.3053 5645.1909 5460293
5.6138248 968.76483 5742.7617 5328450
38.986691 952.91278 5648.7925 5394499
73.113007 961.61438 5700.3745 7105117
105.42118 948.45972 5622.395 6118222
140.42668 960.06281 5691.1768 6381394
175.54988 967.82184 5737.1719 6973532
208.62956 963.625 5712.2935 4999742
239.98788 953.75867 5653.8066 5723465
272.19046 949.25342 5627.0996 5986893
305.44623 949.00348 5625.6182 5920843
344.74188 965.72217 5724.7256 4933948
375.16614 956.82056 5671.957 4933948
408.68445 956.62482 5670.7969 5131071
445.46649 963.51794 5711.6587 4933950
471.93182 948.69885 5623.812 4473913
492.30319 924.39148 5479.7197 5789517
527.81726 929.76575 5511.5786 5329223
562.34515 932.87799 5530.0273 5461066
587.62311 921.14758 5460.4902 6579292
617.26233 917.12115 5436.6221 7895151
673.013 950.36615 5633.6958 5066050
697.54114 938.46326 5563.1367 4210741
722.33459 927.97534 5500.9648 4539193
770.83514 947.53436 5616.9092 5986126
811.79272 956.5863 5670.5684 5986126
804.72894 910.58069 5397.8511 5459783
828.70782 901.87524 5346.2456 5724237
905.60278 949.27887 5627.2505 6250324
946.94342 957.37048 5675.2173 5461064
977.01544 953.90521 5654.6753 5263429
1007.486 951.04596 5637.7256 5131586
1032.5366 943.41803 5592.5078 4605494
1073.1998 950.08594 5632.0347 5592134
1087.0266 933.31018 5532.5894 6447705
1121.844 935.01129 5542.6733 5723982
1156.5471 936.52313 5551.6357 2171158
1194.783 940.73297 5576.5913 2763296
1221.5868 935.95728 5548.2812 5197639
1254.0964 935.68896 5546.6904 5920848
1273.7239 926.06818 5489.6597 6184277
1301.9547 923.026 5471.6255 6052946
1346.3539 931.3158 5520.7666 5526344
1374.579 928.28949 5502.8271 5328966
1435.0535 946.67773 5611.8315 4934464
1440.4452 928.71899 5505.3735 6710876
1463.3286 922.58344 5469.0024 5658188
1490.9875 919.65948 5451.6689 4473401
1487.8025 898.23767 5324.6826 4407608
1502.4093 888.22412 5265.3228 4670780
1541.1859 892.61633 5291.3594 5065795
1582.1418 898.0705 5323.6914 5592651
1576.8252 877.55927 5202.1021 6184791
1581.9043 863.50903 5118.8135 5855829
1597.7844 855.77228 5072.9507 4342081
1644.9045 864.74451 5126.1377 4013116
1649.0984 851.23364 5046.0464 3487286
1737.8647 881.08136 5222.9814 5592151
1768.4482 880.90271 5221.9224 2302502
1759.9576 861.60132 5107.5049 460810
1785.0098 859.09576 5092.6523 262915
1852.7286 876.86707 5197.999 5986904
1905.0524 886.89008 5257.4146 131585
1907.0112 873.52057 5178.1616 131072
1938.2048 873.75378 5179.5435 65536
1926.291 854.8493 5067.4795 1250068
1973.2091 862.23279 5111.2485 2
1954.8112 841.28345 4987.0625 9017246
1941.0944 822.94263 4878.3389 13619666
2086.8987 871.77777 5167.8301 13685202
2113.4082 870.0874 5157.8101 13619409
2136.8469 867.19897 5140.6875 13619663
2166.8247 867.00812 5139.5562 13619661
2161.4648 852.87903 5055.7998 13224916
2188.5085 851.74719 5049.0908 5657724
2179.3223 836.73578 4960.104 1710622
2267.1963 858.89349 5091.4531 3552562
2265.7781 847.08661 5021.4629 4670525
2286.8418 843.8819 5002.4653 6118222
2303.0396 838.98645 4973.4458 5197120
2348.6501 844.79431 5007.8745 5394756
2360.2161 838.36438 4969.7583 4276275
2425.8896 851.07562 5045.1094 2960415
2424.488 840.23163 4980.8271 3815468
2444.0623 836.83057 4960.666 3947311
2456.7651 831.18549 4927.2026 4275505
2474.217 827.26099 4903.938 3683624
2518.9045 832.42804 4934.5679 4209969
2534.0603 827.82904 4907.3057 4933692
2524.0974 815.22174 4832.5708 4868154
2502.2024 799.08667 4736.9229 4736569
2503.592 790.66309 4686.9888 5131330
2509.0537 783.69611 4645.689 6645597
2498.0891 771.80536 4575.2017 5658447
2542.0261 776.95013 4605.6992 5460032
2611.0146 789.56097 4680.4556 2762263
2633.0608 787.8609 4670.3774 3551266
2635.7317 780.45886 4626.499 4735285
2716.5627 796.11493 4719.3066 3024410
2744.6089 796.1405 4719.458 4603441
2751.3091 790.03595 4683.271 4142889
2781.3381 790.68536 4687.1206 5064248
2791.115 785.62146 4657.1021 4405805
2810.2202 783.25665 4643.084 4076584
2833.675 782.13831 4636.4546 3879720
2852.2007 779.69391 4621.9644 4669749
2838.939 768.68909 4556.7285 4143404
2891.6523 775.5871 4597.6196 5261885
2963.9106 787.54987 4668.5337 5919813
3001.3779 790.13226 4683.8423 4077610
2996.5884 781.64502 4633.5303 4406575
2952.5784 763.17419 4524.0366 3485473
3056.3862 782.89954 4640.9673 4471855
3015.3674 765.50629 4537.8613 4669234
3019.4116 759.7594 4503.7939 4142633
3052.1541 761.27112 4512.7554 5327163
3101.9409 766.97095 4546.5435 4340267
3090.5427 757.57452 4490.8423 3813923
3130.7422 760.87848 4510.4277 3813923
3166.6433 763.09076 4523.542 3682593
3202.0342 765.14392 4535.7134 4735025
3200.7151 758.46387 4496.1143 5327164
3191.4573 750.02844 4446.1099 4669234
3233.1716 753.61212 4467.3535 4866870
3229.9565 746.75006 4426.6758 3419938
3251.4021 745.65405 4420.1787 3946025
3303.2598 751.49432 4454.7993 4274735
3333.4692 752.35608 4459.9077 4012076
3406.6211 762.82007 4521.9375 4209195
3425.4514 761.05182 4511.4556 4011817
3372.5256 743.492 4407.3623 3353631
3408.9834 745.75574 4420.7812 3222043
3432.5251 745.18085 4417.3735 3550496
3485.1946 750.8902 4451.2183 4077351
3476.4038 743.3717 4406.6489 4340779
3527.1626 748.604 4437.6655 4011558
3515.0393 740.5116 4389.6943 2037769
3524.625 737.07782 4369.3394 3024662
3541.0188 735.10742 4357.6592 1445380
3540.3171 729.6424 4325.2627 2958100
3560.7473 728.57965 4318.9629 4011045
3486.998 708.39911 4199.3345 4011045
3626.157 731.45142 4335.9863 3682849
3667.9185 734.67096 4355.0718 3879972
3670.5439 730.06158 4327.7476 4603440
3669.1343 724.71906 4296.0776 5063990
3644.4492 714.88452 4237.7793 4208683
3725.1609 725.71741 4301.9956 5063992
3767.7209 729.02106 4321.5796 4340524
3754.0029 721.46436 4276.7842 4866611
3838.6667 732.78973 4343.9199 3682852
3893.1748 738.24597 4376.2642 4998457
3872.3831 729.44568 4324.0967 2170131
3825.3955 715.85895 4243.5557 2038804
3904.167 725.82971 4302.6616 2630686
3904.4336 721.17084 4275.0439 4868419
3774.2578 692.63385 4105.8789 3947061
3874.6169 706.49805 4188.0649 3947316
3941.4856 714.11798 4233.2354 2894372
3915.4812 704.92133 4178.7183 2367515
3928.5432 702.82928 4166.3169 2762530
3952.6248 702.72253 4165.6841 1644050
3975.656 702.43146 4163.9585 789254
0 0 0 0
0 0 0 0
0 0 0 0
0 0 0 0
-6047.042 1158.6273 6635.2334 6973780
0 0 0 0
0 0 0 0
-6486.7373 1267.5939 7259.2637 7171413
-6158.8525 1211.5532 6938.3296 7039827
-6263.5186 1240.4214 7103.6523 6579276
-6101.7188 1216.5525 6966.96 6644813
-6061.6958 1216.8037 6968.3979 6710863
-6000.6631 1212.8119 6945.5376 6447435
-5926.2256 1206.037 6906.7393 6249800
-5891.9375 1207.3954 6914.5186 5921091
-5741.23 1184.7487 6784.8257 7039316
-5678.5015 1180.0659 6758.0083 7434074
-5720.1187 1197.1552 6855.8745 6907988
-5740.4932 1210.0109 6929.4966 7171159
-5710.0962 1212.2731 6942.4517 7565917
-5556.7734 1188.281 6805.0542 7236952
-5455.7075 1175.1948 6730.1118 6842195
-5586.356 1212.196 6942.0107 6644816
-5568.4277 1217.2672 6971.0522 6512975
-5442.083 1198.537 6863.7881 6447184
-5384.8491 1194.8599 6842.73 6118988
-5328.2666 1191.2727 6822.187 5987663
-5399.0371 1216.3213 6965.6357 7172709
-5715.0864 1297.4392 7430.1816 5
-5554.3667 1270.7399 7277.2803 6712950
-5617.5063 1295.2385 7417.5791 526343
-5001.0864 1162.2009 6655.6987 6580565
-4832.4229 1131.9296 6482.3408 6316621
-4780.6392 1128.7703 6464.2476 5855299
-4798.4458 1142.1237 6540.7202 4934452
-4815.4316 1155.4976 6617.3096 6974037
-4810.5176 1163.7928 6664.8154 5657921
-4674.6821 1140.2899 6530.2188 5658177
-4599.8809 1131.407 6479.3477 6052678
-4520.3647 1121.2052 6420.9238 6184008
-4380.6733 1095.7778 6275.3066 5592127
-4394.0562 1108.533 6348.353 6249802
-4250.4692 1081.566 6193.918 6052679
-4318.7456 1108.5092 6348.2163 6052678
-4186.2261 1083.934 6207.479 6381645
-4227.4243 1104.3024 6324.1245 6381643
-4252.3857 1120.7554 6418.3481 6381643
-4236.0938 1126.5348 6451.4458 5855299
-4129.9438 1108.3052 6347.0483 5789506
-3964.0215 1073.5527 6148.0278 5855040
-4006.1946 1095.0356 6271.0562 6052420
-3978.5903 1097.6696 6286.1406 5855041
-3830.6692 1066.845 6109.6133 5065269
-3951.2185 1110.9147 6361.9927 5591613
-3942.1934 1119.0516 6408.5913 4999475
-3820.1428 1094.9508 6270.5703 6052163
-3759.0034 1088.0067 6230.8032 5591355
-3655.6152 1068.5753 6119.5229 5526075
-3549.97 1048.0881 6002.1973 6183493
-3579.5276 1067.5074 6113.4072 6841937
-3620.5083 1090.7653 6246.6001 6315592
-3595.0312 1094.2745 6266.6973 7170901
-3472.4905 1068.0039 6116.251 7697246
-3494.7144 1086.173 6220.3018 6841937
-3420.8403 1074.5433 6153.7007 6052679
-3465.1021 1100.1711 6300.4663 5723457
-3334.76 1070.3168 6129.4956 6644303
-3298.6428 1070.3801 6129.8589 5920580
-3231.4939 1060.2633 6071.9219 4078631
-3162.9155 1049.4445 6009.9644 6841937
-3164.4221 1061.8979 6081.2832 6447178
-3151.8201 1069.8491 6126.8184 6447436
-3071.113 1054.599 6039.4834 5789249
-3049.1892 1059.413 6067.0522 5460284
-3060.7029 1076.0979 6162.6035 4868147
-3011.5107 1071.5847 6136.7573 5855042
-2954.7773 1064.245 6094.7246 7170902
-3013.5405 1098.8376 6292.8301 6118212
-2915.9312 1076.5641 6165.2734 6315077
-2859.4753 1069.1122 6122.5972 5591098
-2817.7441 1067.0447 6110.7573 6052160
-2714.3003 1041.2495 5963.0332 5854268
-2720.4609 1057.3744 6055.3774 5065009
-2682.2129 1056.4391 6050.021 5327668
-2644.4036 1055.6536 6045.5229 5196339
-2580.9875 1044.4839 5981.5562 5656635
-2507.9451 1029.0533 5893.1885 5854015
-2468.9392 1027.3501 5883.4346 6381129
-2432.6482 1026.7439 5879.9629 6710351
-2403.7852 1029.3008 5894.6055 5723457
-2361.0681 1025.9133 5875.2061 5525308
-2324.1057 1024.9624 5869.7603 5854270
-2323.1482 1040.1023 5956.4634 6643786
-2274.0291 1033.8141 5920.4526 6183235
-2235.196 1032.0785 5910.5127 5788220
-2213.4387 1038.2976 5946.1284 5130290
-2173.6577 1036.1265 5933.6948 5459254
-2093.3618 1014.2541 5808.436 5458998
-2099.7927 1034.3729 5923.6523 5064497
-2054.6497 1029.3379 5894.8184 4735534
-1995.6243 1017.054 5824.4707 4209190
-2013.0361 1043.9789 5978.6641 4603947
-1924.0665 1015.7096 5816.7715 5656634
-1909.2017 1026.2424 5877.0908 5064498
-1830.9601 1002.4672 5740.9346 5064754
-1824.8372 1018.025 5830.0308 3683103
-1770.1969 1006.5942 5764.5698 6643787
-1754.9674 1017.5652 5827.3979 5788994
-1692.6377 1001.1187 5733.2119 6512716
-1669.6859 1007.7657 5771.2788 5591870
-1640.5802 1010.8989 5789.2212 5722945
-1580.1075 994.42523 5694.8799 5986117
-1567.6353 1008.1005 5773.1953 6644303
-1506.1156 990.14117 5670.3462 6380874
-1487.627 1000.2972 5728.5073 5854787
-1453.6899 1000.2972 5728.5073 5394749
-1424.5919 1003.7065 5748.0317 5526335
-1376.1333 993.30804 5688.4824 5064756
-1320.012 976.71765 5593.4722 6182981
-1280.5393 971.90906 5565.9341 4801327
-1243.7024 968.89954 5548.6992 5788222
-1220.8783 976.93964 5594.7432 5393721
-1199.2906 986.44543 5649.1812 4867892
-1177.2694 996.13013 5704.6436 6117959
-1135.1086 988.84296 5662.9111 5722945
-1074.4784 964.53217 5523.688 6184008
-1043.2937 965.95691 5531.8477 6512719
-968.06549 925.37305 5299.4316 6381389
-928.65881 917.45801 5254.1035 6183754
-956.32806 977.55908 5598.2905 4867635
-912.03796 965.77905 5530.8286 4735792
-873.93604 959.91791 5497.2632 3485469
-850.66724 970.52631 5558.0151 5130294
-824.40253 978.43335 5603.2974 4275755
-791.77283 979.13263 5607.3022 5328444
-761.93604 983.49829 5632.3032 7302491
-731.02985 986.82013 5651.3271 6315596
-687.24103 972.23596 5567.8062 4999479
-645.17316 958.73853 5490.5093 3946534
-612.41162 958.37164 5488.4077 4736308
-577.6416 954.64404 5467.061 5591615
-535.28064 937.18335 5367.0669 5657409
-508.44421 946.41461 5419.9321 4670770
-485.75272 965.12561 5527.0869 5526079
-455.65909 970.77167 5559.4204 4210221
-419.52444 963.42444 5517.3442 4736568
-385.99826 961.33179 5505.3604 4144175
-358.92551 976.40875 5591.7031 5526855
-320.95676 961.89679 5508.5957 6645336
-287.13828 957.94562 5485.9683 5592905
-253.73669 954.55438 5466.5474 8422004
-214.81694 926.37421 5305.165 6513492
-180.35803 911.06891 5217.5142 6447955
-155.29778 946.72845 5421.73 6250577
-124.06126 953.51544 5460.5972 4802361
-88.531403 920.45276 5271.2539 5196863
-58.99255 947.58691 5426.646 5065534
-26.366098 930.72156 5330.0615 4868412
5.329843 952.05908 5452.2573 5197634
37.67503 953.19208 5458.7456 6974044
67.706848 921.78339 5278.8745 7040094
101.12511 941.75952 5393.2739 6513749
133.93658 947.84918 5428.1479 6052171
168.62546 962.29449 5510.8735 3288867
200.9187 960.60004 5501.1699 2763039
223.51151 919.47327 5265.6445 5592395
265.59506 958.78076 5490.751 6447703
295.04672 948.88556 5434.083 6710876
326.95218 948.05255 5429.3125 5921103
363.56619 959.79919 5496.583 4934464
396.75327 961.31116 5505.2422 4407862
436.17337 976.54883 5592.5049 3355174
451.20813 938.89276 5376.8564 4802878
469.57913 912.68738 5226.7832 4210485
512.29816 934.12024 5349.5249 3421228
535.63788 919.77832 5267.3916 5921362
563.96613 915.11005 5240.6572 6184534
601.5705 925.19537 5298.4141 7171683
623.75964 911.74792 5221.4033 6579033
666.35754 927.99323 5314.4365 3684138
687.8064 914.6485 5238.0142 4210226
730.25043 929.17029 5321.1772 4999998
759.49921 926.39526 5305.2852 5328707
766.80701 898.14178 5143.4834 5723979
804.24786 905.99329 5188.4473 6052946
843.26337 914.97516 5239.8848 5921360
879.31549 920.21814 5269.9102 5395016
914.54773 924.27289 5293.1309 5723980
949.13721 927.43066 5311.2153 3420456
989.11096 935.47821 5357.3018 3815213
1020.9158 935.53955 5357.6533 3025440
1029.3888 914.86133 5239.2329 2302489
1065.3962 919.14813 5263.7827 4539708
1122.3491 940.74768 5387.479 4935235
1147.4075 935.15802 5355.4683 4540478
1181.1935 936.79108 5364.8203 4079670
1224.0028 945.30719 5413.5908 3486247
1227.0869 923.4917 5288.6577 3420453
1257.9979 923.18347 5286.8921 4867898
1264.9778 905.75476 5187.0815 6051916
1303.3164 911.07391 5217.543 3486246
1305.3994 891.38947 5104.814 3815212
1307.366 872.51886 4996.7456 4933948
1346.1803 878.53088 5031.1758 5196864
1417.3247 904.92462 5182.3271 5394244
1442.6819 901.58478 5163.2007 4143663
1487.4105 910.23828 5212.7578 4998714
1518.4778 910.34967 5213.3955 4274991
1530.9664 899.54047 5151.4932 5065021
1539.0465 886.61407 5077.4663 4143920
1551.3999 876.59784 5020.1055 3880752
1563.428 866.77802 4963.8691 5526604
1577.8617 858.62994 4917.207 5592397
1608.0663 859.2038 4920.4927 5460811
1635.2958 858.19592 4914.7212 4934466
1717.9945 885.82391 5072.9414 4540224
1722.8887 873.07452 4999.9282 4013626
1742.0938 867.88562 4970.2124 2368801
1783.4467 873.7196 5003.6221 6382172
1837.1284 885.30396 5069.9639 6250328
1868.5157 885.94482 5073.6338 4342074
1875.1318 875.00629 5010.9907 4408123
1880.0844 863.64447 4945.9238 4474174
1867.8821 844.87195 4838.4175 5000521
1929.9803 859.76636 4923.7148 5066065
2001.9027 878.52838 5031.1616 6513003
2016.8199 872.09045 4994.2925 6118247
2047.9863 872.76343 4998.1465 8025482
2049.8748 861.11792 4931.4551 8288653
2054.1335 850.78156 4872.2607 8683153
2143.8848 875.65027 5014.6787 5130837
2128.8965 857.64392 4911.5601 5327955
2148.9521 854.0506 4890.9819 4407870
2182.8186 855.96857 4901.9658 4078647
2182.8235 844.73218 4837.6172 4407866
2139.6768 817.30402 4680.5415 6908258
2202.4688 830.52618 4756.2617 5526859
2246.8115 836.54498 4790.7305 5394503
2307.7578 848.51862 4859.3008 3683628
2348.9473 853.02228 4885.0928 1578256
2359.4768 846.41772 4847.2695 1183241
2331.2537 826.23737 4731.7007 2367768
2420.0867 847.53033 4853.6416 3157284
2365.7502 818.77325 4688.9551 2433815
2390.3721 817.69336 4682.771 2631196
2410.5674 815.1416 4668.1572 5328707
2432.7217 813.30249 4657.625 4342069
2448.4209 809.37085 4635.1094 4473656
2456.8438 803.14771 4599.4707 4144948
2472.7368 799.47638 4578.4458 6381911
2472.5366 790.73798 4528.4023 6710620
2457.978 777.64441 4453.4185 6907740
2488.3816 778.90302 4460.626 7565666
2493.0818 772.17401 4422.0903 6183755
2546.8262 780.61725 4470.4434 6117959
2621.5652 795.25543 4554.2734 5525054
2621.3813 787.09906 4507.5635 5985607
2636.5764 783.67841 4487.9736 4077610
2637.4526 776.1123 4444.6445 3879718
2633.3157 767.23517 4393.8066 4142890
2666.7046 769.35828 4405.9653 3419167
2675.0618 764.28851 4376.9316 3551010
2728.0291 771.93915 4420.7456 3814438
2783.0276 780.01361 4466.9863 4801590
2767.6804 768.40546 4400.5088 5788486
2765.4387 760.61865 4355.915 5854278
2867.7842 781.47589 4475.3604 4406318
2859.5188 772.08557 4421.584 3946024
2846.5249 761.60052 4361.5381 3682851
2966.9097 786.66919 4505.1016 5130041
2925.177 768.68903 4402.1328 2695444
2958.2395 770.50787 4412.5488 2695444
2983.4663 770.27185 4411.1973 2959385
2998.853 767.52155 4395.4468 4406575
2998.959 760.94128 4357.7627 4143404
3068.9275 772.04858 4421.3721 3880230
3089.739 770.70612 4413.6841 4011817
3079.4778 761.70056 4362.1108 4274732
3086.708 757.13525 4335.9663 5064248
3054.8196 743.12909 4255.7559 4406062
3104.3252 748.99048 4289.3228 4800562
3153.5408 754.68726 4321.9473 3419165
3225.0588 765.58661 4384.3657 4011303
3250.0608 765.35779 4383.0552 4406318
3293.1045 769.34747 4405.9033 3814181
3325.3167 770.76385 4414.0146 3419422
3294.5044 757.66376 4338.9932 2893076
3303.9407 753.95129 4317.7324 3879972
3325.1504 752.96179 4312.0659 3616797
3369.196 757.11914 4335.874 3287832
3388.8538 755.77454 4328.1738 3879970
3332.9041 737.71503 4224.7505 4340523
3379.9011 742.54138 4252.3901 4011558
3457.3618 753.93945 4317.6646 4208937
3417.9941 739.8808 4237.1533 3748385
3414.2815 733.68884 4201.6934 4603695
3431.1877 731.98529 4191.9375 4077351
3451.6467 731.05865 4186.6309 3813922
3459.7922 727.55585 4166.5708 4011558
3520.2451 735.02448 4209.3423 3945764
3555.3347 737.12933 4221.3965 5195832
3535.7129 727.9408 4168.7754 4472365
3533.0359 722.34412 4136.7241 3353884
3578.3401 726.56689 4160.9072 3814435
3561.4714 718.19434 4112.9595 5064245
3656.3369 732.31445 4193.8223 7169620
3677.9656 731.6745 4190.1577 4867121
3687.6658 728.68616 4173.0439 4998965
3780.592 742.07361 4249.7114 4735538
3882.4631 757.02808 4335.3525 4603698
3856.7756 747.07727 4278.3662 4999485
3795.1812 730.34637 4182.5518 4472886
3834.0457 733.03949 4197.9746 4867902
3811.9512 724.11823 4146.8843 5065280
3858.0737 728.18671 4170.1836 5196867
3842.9211 720.71167 4127.3755 4341558
3788.4404 706.00208 4043.1367 2894113
3859.6135 714.74664 4093.2151 3091494
3905.3521 718.70142 4115.8633 2433818
3851.8989 704.46606 4034.3401 4868672
0 0 0 0
0 0 0 0
0 0 0 0
0 0 0 0
-5718.2451 1132.8004 6274.4546 7237208
0 0 0 0
-5814.2402 1166.9891 6463.8228 5394747
-6001.2627 1212.5127 6715.9722 5855298
-6089.8335 1238.6195 6860.5752 4736819
-6003.6787 1229.3008 6808.9595 6513229
-5794.8213 1194.5616 6616.5435 6578763
-5747.3315 1192.8407 6607.0112 7039571
-5742.5264 1200.0159 6646.7539 7434073
-5601.0508 1178.5331 6527.7632 5065526
-5586.3789 1183.6182 6555.9287 4473391
-5466.9961 1166.4333 6460.7441 7434074
-5492.8599 1180.2142 6537.0752 7302489
-5493.5918 1188.7528 6584.3691 5197369
-5311.519 1157.5737 6411.6714 7631711
-5147.2734 1129.8584 6258.1597 7565918
-5249.0654 1160.5619 6428.2222 7434333
-5198.7319 1157.8333 6413.1094 7894883
-5224.8604 1172.2191 6492.7905 8158569
-5248.3955 1186.2322 6570.4072 7434590
-5175.3931 1178.4724 6527.4268 7237471
-5110.9517 1172.5599 6494.6782 7303776
-5101.7891 1179.3359 6532.2104 6843742
-5126.5244 1194.1115 6614.0503 8094330
-5282.2197 1239.8538 6867.4116 2
-5280.0181 1248.9565 6917.8311 6779000
-5496.7578 1310.3961 7258.1377 3421237
0 0 0 0
-4663.8613 1129.5099 6256.2285 6908762
-4592.9556 1121.2479 6210.4673 7369311
-4480.4648 1102.6189 6107.2832 7237211
-4408.02 1093.6219 6057.4497 9013363
-4644.1226 1161.6556 6434.2808 7105366
-4534.8892 1143.72 6334.937 6513229
-4500.396 1144.4922 6339.2144 6118470
-4402.2007 1128.941 6253.0781 6250057
-4245.3901 1097.9664 6081.5137 7697246
-4166.8218 1086.8704 6020.0537 7960419
-4134.4775 1087.7439 6024.8916 7236952
-4111.9541 1091.2388 6044.2495 7237466
-4138.0771 1107.8185 6136.0825 7303003
-4090.4568 1104.7748 6119.2241 6579536
-4030.8264 1098.4042 6083.938 6711122
-4046.8674 1112.725 6163.2593 6908501
-4012.9209 1113.437 6167.2031 7565918
-3931.2246 1100.7915 6097.1611 7829090
-3834.3892 1083.6331 6002.1226 5723713
-3791.7798 1081.6216 5990.9814 6249544
-3785.4365 1090.015 6037.4712 6446923
-3657.8838 1063.3333 5889.6841 6578766
-3691.8359 1083.5387 6001.5996 7039060
-3662.0872 1085.2593 6011.1299 7302233
-3626.3525 1085.2224 6010.9258 6446924
-3550.4021 1073.0304 5943.3955 6184008
-3411.5146 1041.3822 5768.1001 7302488
-3453.1738 1064.7643 5897.6104 5986628
-3468.241 1080.3408 5983.8872 6775887
-3354.3643 1055.6589 5847.1772 6184263
-3275.9038 1041.7242 5769.9946 7500124
-3284.4233 1055.4465 5846.0005 7236953
-3304.2769 1073.1425 5944.0161 6184265
-3260.793 1070.4276 5928.979 6447694
-3244.3552 1076.6287 5963.3262 6052679
-3166.5029 1062.3618 5884.3037 6578510
-3118.3657 1057.8578 5859.356 6447180
-3096.1008 1062.1278 5883.0073 5986628
-3014.7651 1045.9999 5793.6768 6052421
-2953.1436 1036.4196 5740.6118 6052421
-2882.2661 1023.3295 5668.1074 5526077
-2938.7515 1055.6831 5847.311 6512972
-2961.7017 1076.6183 5963.2681 4999733
-2925.1033 1076.1508 5960.6792 5789249
-2798.0312 1041.9797 5771.4097 5855042
-2800.8306 1055.9253 5848.6523 5920833
-2726.0601 1040.6097 5763.8213 6183748
-2654.252 1026.0509 5683.1812 5657661
-2616.1694 1024.3226 5673.6084 5460282
-2661.0344 1055.4489 5846.0132 6315335
-2563.6023 1030.2124 5706.2314 5591611
-2511.011 1022.562 5663.8564 4933168
-2498.0317 1031.0541 5710.8936 6117440
-2488.3352 1041.153 5766.8301 5788477
-2437.7839 1034.2009 5728.3232 6249028
-2373.2734 1021.0469 5655.4648 7960161
-2352.5596 1026.6285 5686.3809 6052420
-2282.2273 1010.4047 5596.519 6775630
-2274.9248 1022.0192 5660.8501 6117442
-2229.9143 1016.787 5631.8701 5327926
-2190.7622 1014.1079 5617.0308 5525305
-2165.2341 1017.7501 5637.2041 6906701
-2173.0366 1037.4185 5746.145 5656890
-2112.5979 1024.6157 5675.2324 5920317
-2077.3757 1023.8269 5670.8628 5591098
-2026.9948 1015.4181 5624.2876 4735789
-1993.3447 1015.2498 5623.3555 5196340
-1954.7448 1012.5118 5608.1899 5986114
-1930.7626 1017.3818 5635.1641 5328442
-1864.6433 999.8291 5537.9414 5328955
-1809.3367 987.54907 5469.9238 6578509
-1748.2008 971.58173 5381.4824 6908244
-1741.4277 985.79492 5460.208 7368796
-1699.8361 980.46289 5430.6743 5657663
-1699.8993 999.4151 5535.6489 5657919
-1669.7755 1001.0161 5544.5166 6776144
-1628.7626 996.0224 5516.8569 6447179
-1623.0259 1012.8382 5609.9976 6249800
-1573.3119 1002.3397 5551.8472 7039316
-1551.0764 1009.2726 5590.2485 7499868
-1489.7338 990.50635 5486.3042 5855297
-1460.1423 992.4848 5497.2622 6512970
-1424.3986 990.27618 5485.0293 7039316
-1398.3909 994.8913 5510.5918 6578766
-1361.3951 991.72278 5493.0415 7434076
-1294.6222 966.17621 5351.542 7960419
-1272.0032 973.12634 5390.0381 4539438
-1216.4435 954.58472 5287.3384 5986370
-1201.3784 967.68042 5359.874 5788991
-1164.6824 963.59094 5337.2227 5394747
-1144.2719 973.12292 5390.019 4802353
-1133.2301 991.39832 5491.2446 6183750
-1062.1802 956.70459 5299.0801 5591613
-1017.8108 944.66083 5232.3706 7039316
-991.43494 949.08521 5256.877 7105110
-952.32306 941.20929 5213.2534 6644302
-923.01917 942.82385 5222.1958 6907475
-895.86786 946.8255 5244.3604 6776402
-870.04938 952.57367 5276.1992 6710097
-843.4801 957.89777 5305.6885 6249546
-820.75122 968.16406 5362.5527 5262653
-803.16034 985.56213 5458.9185 5723205
-765.85223 979.20972 5423.7334 4144430
-727.388 970.75818 5376.9209 4078637
-691.05475 964.50653 5342.2939 4670775
-671.57361 982.30438 5440.874 5789254
-619.7981 952.27856 5274.5645 5131835
-575.51117 931.18097 5157.7075 6052679
-538.95349 920.92474 5100.8994 4605234
-518.78265 939.11401 5201.6475 6447437
-488.98605 941.07538 5212.5112 6710610
-449.39032 923.17108 5113.3413 5657923
-429.32928 945.70868 5238.1748 5591874
-401.46176 953.22272 5279.7939 3091743
-366.17337 942.89771 5222.605 2696987
-336.78192 947.25293 5246.728 4868155
-303.88632 941.63568 5215.6147 4210222
-268.99002 927.84583 5139.2344 4802102
-233.40666 907.86334 5028.5537 5065528
-207.32726 924.40906 5120.1982 4999736
-172.85306 902.78137 5000.4053 6841940
-142.60925 898.87183 4978.7505 6447183
-116.22852 923.62152 5115.8364 5196858
-85.982361 924.27966 5119.4814 4999479
-57.21907 950.28198 5263.5059 5460031
-25.661665 936.58789 5187.6558 4473136
5.0520883 933.06146 5168.123 4078890
35.584 930.83228 5155.7759 6184009
65.013115 915.13904 5068.853 7039320
97.783936 941.53912 5215.0801 7039577
129.38815 946.72614 5243.8105 7368287
159.10551 938.77161 5199.751 5987661
190.05992 939.51257 5203.8555 6184783
218.22484 928.18225 5141.0977 5263683
252.11133 940.98236 5211.9961 5921614
280.6665 933.26178 5169.2329 6316371
311.146 932.82941 5166.8379 6776665
348.0882 950.11462 5262.5786 6250066
375.8847 941.64667 5215.6758 6052687
405.07373 937.68878 5193.7534 4999999
428.69653 922.31421 5108.5952 5065535
461.4921 927.40057 5136.7681 5131842
475.16748 895.81122 4961.7983 5263428
503.97342 894.76581 4956.0078 5395014
534.27588 896.34607 4964.7607 6250325
569.49969 905.58716 5015.9458 6908253
604.38043 913.39313 5059.1826 5395014
641.87189 924.22058 5119.1548 6118991
673.85614 926.49921 5131.7754 4670773
716.82025 943.02576 5223.3145 3224101
728.26208 918.43097 5087.0864 4539705
743.18713 900.00903 4985.0493 4737081
776.81702 904.78125 5011.4824 7698025
803.56842 901.4856 4993.228 7171936
838.83057 907.63263 5027.2759 5461061
859.90637 898.53461 4976.8828 6184784
923.54486 933.0401 5168.0049 5723978
951.82782 930.75836 5155.3662 4539192
965.87634 915.13171 5068.8125 4210229
1016.5479 934.10022 5173.877 2829092
1018.338 908.35626 5031.2837 3749936
1083.9653 939.39972 5203.23 6315862
1098.9397 926.04285 5129.2476 6447704
1101.828 903.49414 5004.353 6842205
1140.5509 910.74139 5044.4946 5723980
1167.5237 908.47559 5031.9448 4605241
1197.448 908.56201 5032.4233 4604984
1226.6365 908.09955 5029.8618 4868413
1268.7472 916.9986 5079.1528 5394243
1271.4703 897.67706 4972.1333 5393986
1259.2264 868.90295 4812.7563 4407347
1294.5555 873.50293 4838.2349 4407089
1319.8724 871.29419 4826.001 5196349
1382.2284 893.11145 4946.8447 3748904
1409.541 891.85004 4939.8579 3683625
1433.3253 888.45294 4921.0415 3749930
1456.1691 884.61981 4899.8105 5197121
1485.2295 884.63934 4899.9185 5657672
1519.0239 887.42383 4915.3413 4210741
1524.1495 873.66998 4839.1606 4276535
1530.2656 860.98138 4768.8799 7632236
1529.5139 844.95868 4680.1318 5921873
1579.9283 857.26941 4748.3193 5592907
1630.552 869.26086 4814.7388 5394757
1675.9159 878.08417 4863.6104 2039317
1716.2449 884.01593 4896.4653 2566170
1737.3151 879.9953 4874.1958 4539446
1767.5253 880.66022 4877.8784 7039835
1763.1084 864.32843 4787.4185 6052938
1796.4532 866.73254 4800.7349 6447954
1771.7245 841.4798 4660.8623 4868668
1789.2729 836.77356 4634.7949 5328965
1842.0034 848.41388 4699.27 5000259
1902.1238 863.06091 4780.3979 5526864
1928.005 861.97046 4774.3584 6908774
1951.613 859.91003 4762.9458 5263951
1981.0151 860.42493 4765.7974 5987415
1968.0573 842.78534 4668.0938 5723984
1993.8804 842.01184 4663.8096 5526346
2017.8857 840.50226 4655.4482 5986639
2101.9797 863.72443 4784.0732 5789517
2107.9998 854.67426 4733.9453 5394500
2100.1301 840.30408 4654.3506 4868411
2124.5469 839.05731 4647.4448 5789255
2139.7222 834.23956 4620.7598 4473397
2165.0466 833.45044 4616.3887 5986893
2246.3601 853.96545 4730.019 5526600
2238.6689 840.55627 4655.7471 6776411
2225.3718 825.39429 4571.7666 6710618
2248.002 823.76208 4562.7261 4933439
2284.5996 827.2262 4581.9136 4604985
2265.0942 810.53326 4489.4531 2565401
2337.6936 826.80371 4579.5732 4407604
2346.0227 820.23022 4543.1636 4210738
2394.7463 827.7688 4584.9189 4407861
2362.4517 807.44739 4472.3608 1907217
2384.333 805.88794 4463.7231 1644302
2428.2471 811.72784 4496.0698 2038801
2351.5837 777.57117 4306.8799 4802363
2395.4224 783.565 4340.0791 4012847
2435.4558 788.20007 4365.752 5986636
2457.3247 786.92078 4358.6665 6644052
2528.8311 801.39844 4438.8564 4933689
2536.1292 795.43958 4405.8511 7302237
2569.9685 797.84192 4419.1572 5657156
2572.5342 790.58484 4378.9609 2893853
2599.4319 790.87561 4380.5718 3617576
2641.6692 795.78162 4407.7451 4144175
2610.2581 778.62274 4312.7041 6184015
2603.5781 769.10205 4259.9702 5197633
2618.604 766.11462 4243.4233 6052429
2672.8738 774.55627 4290.1807 6184014
2706.4641 776.90265 4303.1772 5722950
2746.0371 780.90668 4325.355 6512977
2788.6594 785.6958 4351.8813 6511950
2849.5039 795.48419 4406.0981 5393210
2773.2183 767.16034 4249.2153 5393211
2822.5205 773.77515 4285.854 4537902
2903.3132 788.82782 4369.2295 3090456
2896.9446 780.14221 4321.1206 2498318
2936.6885 783.91797 4342.0342 3222042
2956.1777 782.26837 4332.897 4406063
2945.5996 772.75916 4280.2266 5195578
3004.446 781.46997 4328.4746 2893337
3055.1653 787.93719 4364.2959 4867126
3034.5374 776.04962 4298.4521 3946024
3054.2527 774.59143 4290.3755 5261885
3003.3501 755.39569 4184.0522 5195832
3049.7979 760.79901 4213.981 5195832
3071.228 759.92456 4209.1372 2629649
3165.1365 776.85321 4302.9033 2958611
3175.8684 773.25958 4282.9985 3353369
3166.8086 764.94226 4236.9297 3155991
3146.2402 753.99768 4176.3091 2958867
3165.0413 752.58521 4168.4854 3287833
3221.4758 760.07379 4209.9639 3419163
3245.6406 759.89215 4208.9575 3287833
3300.0388 766.73773 4246.8745 3156250
3287.2913 757.99695 4198.4604 1840391
3303.5073 756.01581 4187.4873 3813923
3333.7739 757.25586 4194.3555 4406575
3358.1284 757.14447 4193.7388 4801587
3363.2229 752.72424 4169.2554 5064502
3384.0144 751.8559 4164.4458 3090456
3406.4983 751.37347 4161.7739 4077350
3383.115 740.8537 4103.5059 3551005
3393.9033 737.91376 4087.2219 3616800
3436.1416 741.80499 4108.7749 4472108
3381.4395 724.8609 4014.9233 4537901
3392.7847 722.21277 4000.2561 4077351
3429.051 724.86951 4014.9714 4998453
3458.8489 726.13171 4021.9624 4735281
3530.4739 736.09753 4077.1619 3287577
3574.2424 740.1593 4099.6597 4603181
3548.0801 729.78265 4042.1846 3353113
3615.4238 738.6488 4091.2932 4208935
3694.3293 749.74335 4152.7446 3748130
3706.394 747.21588 4138.7451 3617314
3694.4133 739.90588 4098.2559 4406574
3636.9084 723.6333 4008.124 5590849
3668.7915 725.24207 4017.0347 3354402
3606.9556 708.42316 3923.8767 4999741
3710.2402 724.04248 4010.3906 3749675
3807.7424 738.3418 4089.5928 5855051
3750.1362 722.5741 4002.2573 5986638
3788.8359 725.44409 4018.1538 6183759
3812.5935 725.43524 4018.1047 4933693
3812.2107 720.86163 3992.772 6512981
0 0 0 0
0 0 0 0
0 0 0 0
0 0 0 0
-5503.2026 1125.9733 6038.4951 8290410
0 0 0 0
-5486.7778 1137.4 6099.7754 6842705
-5896.0439 1230.3433 6598.2227 7105621
-5591.3848 1174.5564 6299.042 7829599
-5553.1587 1174.3641 6298.0107 7829343
-5643.4448 1201.5305 6443.7017 6842448
-5480.0732 1174.6934 6299.7769 6974035
-5506.895 1188.5371 6374.02 7105365
-5467.5737 1188.1981 6372.2017 6973780
-5439.0884 1190.2256 6383.0747 7039573
-5208.0063 1147.6371 6154.6768 7105366
-5188.8359 1151.4744 6175.2554 7697503
-5039.4614 1126.2667 6040.0688 6381643
-4951.3184 1114.4811 5976.8638 6184264
-5026.3237 1139.5129 6111.1069 7697503
-4994.9146 1140.6077 6116.978 8355433
-4967.8838 1142.7257 6128.3369 8355433
-5044.0352 1168.7837 6268.084 8487018
-4992.1528 1165.3408 6249.6201 8355690
-5016.4658 1179.7661 6326.9814 8224364
