# .PCD v0.7 - Point Cloud Data file format
VERSION 0.7
FIELDS x y z rgb
SIZE 4 4 4 4
TYPE F F F U
COUNT 1 1 1 1
WIDTH 1285
HEIGHT 1
VIEWPOINT 0 0 0 1 0 0 0
POINTS 1285
DATA ascii
-155.97612 1073.78 2224.6338 9675702
-142.79532 1073.7682 2224.6094 9610166
-129.71494 1074.5858 2226.3035 9478837
-116.56752 1074.9705 2227.1003 9543861
-103.27428 1073.937 2224.959 9543861
-90.128571 1074.3595 2225.8345 9543861
-77.017754 1075.4142 2228.0195 9543861
-63.870392 1076.2893 2229.8325 9478582
-50.705349 1077.2451 2231.8127 9544374
-37.473106 1076.9438 2231.1887 9478581
-24.209127 1074.9053 2226.9653 9412788
-11.003051 1073.634 2224.3313 9609913
2.175921 1074.3895 2225.8967 9544120
15.356038 1073.9281 2224.9407 9346997
28.603008 1076.4088 2230.0801 9412788
41.765903 1075.1576 2227.4878 9215409
54.893394 1073.8146 2224.7056 9281202
68.016342 1072.92 2222.8523 9346995
81.204613 1073.179 2223.3887 9346997
94.314293 1072.4719 2221.9238 9478584
107.24591 1070.1613 2217.1367 9412532
120.30753 1069.5106 2215.7886 10728645
133.83757 1072.7424 2222.4841 9740465
148.74152 1085.4211 2248.7517 6188162
160.27071 1073.4131 2223.8735 9675699
174.20409 1078.1082 2233.6008 9610163
187.4843 1078.3834 2234.1711 9872566
199.53426 1072.0127 2220.9724 9674930
213.56842 1076.4312 2230.1265 9740723
226.67862 1075.949 2229.1274 9478065
239.58904 1074.6238 2226.3821 9675187
252.97554 1075.4609 2228.1165 9740980
266.32712 1076.074 2229.3865 9675700
279.5278 1076.0481 2229.3328 9609907
292.89609 1076.6406 2230.5605 9478064
305.73859 1075.3329 2227.8511 9478321
319.19995 1076.2198 2229.6887 9675956
332.61569 1076.8887 2231.0742 9544114
345.73911 1076.5961 2230.468 9544113
358.66193 1075.7233 2228.6599 9544113
372.5849 1077.8058 2232.9744 9675442
384.90152 1075.2579 2227.6958 9544113
398.48114 1076.2904 2229.8347 9478320
410.9718 1074.4097 2225.9385 9412274
424.22736 1074.5835 2226.2983 9346737
438.44098 1077.1002 2231.5127 9412016
451.18542 1075.9663 2229.1633 9215151
463.95218 1074.9484 2227.0544 9149359
477.17316 1075.0101 2227.1824 9214894
489.34094 1072.7598 2222.52 9280687
502.332 1072.3848 2221.7432 9412530
516.53058 1074.5409 2226.2102 9280430
528.39471 1071.8544 2220.6443 9346223
542.1026 1072.9473 2222.9087 9477552
551.73016 1066.1041 2208.7312 9609138
563.19946 1063.0544 2202.4128 9346223
576.44067 1063.4117 2203.1531 9412274
589.29456 1063.0543 2202.4126 9346480
602.12805 1062.6765 2201.6299 9543859
614.77179 1061.9869 2200.2012 9412530
628.07666 1062.4442 2201.1487 9543861
641.33191 1062.8008 2201.8872 9544374
654.54834 1063.08 2202.4658 9478581
666.84283 1061.8804 2199.9805 9413045
680.02386 1062.1112 2200.4587 9412789
692.42065 1061.1316 2198.4292 9610167
705.45483 1061.147 2198.4609 9478325
716.62415 1058.4075 2192.7854 9609654
729.93134 1058.8667 2193.7368 9609910
744.02124 1060.4255 2196.9663 9543860
753.27942 1055.1627 2186.063 8754597
776.4834 1069.2823 2215.3157 9478320
782.13672 1059.1655 2194.356 9215404
793.76367 1057.3367 2190.5669 9149612
806.72968 1057.3217 2190.5359 9280941
823.36713 1062.043 2200.3174 9018026
833.29657 1058.0995 2192.1472 9281455
844.38702 1055.7285 2187.2351 9345964
856.79218 1055.0481 2185.8254 9148584
871.3504 1056.9998 2189.8689 9280426
884.78418 1057.5502 2191.0093 9345962
897.99054 1057.8168 2191.5615 9477292
909.56848 1056.1848 2188.1807 9410727
922.65485 1056.3258 2188.4727 9739692
936.78381 1057.64 2191.1953 9410727
947.31134 1054.9077 2185.5347 9607589
959.38928 1053.9523 2183.5552 9607845
976.17151 1058.1215 2192.1929 9739685
992.4787 1061.6731 2199.551 9739427
997.66125 1053.3867 2182.3835 9871269
1008.3158 1051.0161 2177.4719 9871527
1023.7413 1053.6154 2182.8572 9806244
1036.686 1053.6287 2182.8848 10332332
1048.2942 1052.2998 2180.1316 9082264
1057.6434 1048.7633 2172.8049 10266281
1060.3478 1038.8021 2152.1675 10069157
1073.3638 1039.0596 2152.7009 9477018
1101.465 1053.7428 2183.1211 10529190
1116.1953 1055.442 2186.6416 10859181
1127.2145 1053.6333 2182.8945 11319732
1136.8983 1050.6317 2176.6758 9608345
1144.8834 1046.1451 2167.3806 8686988
1165.5747 1053.2396 2182.0789 7172979
1175.561 1050.6115 2176.6338 3751998
1170.4723 1034.7137 2143.6973 6909547
1186.8333 1037.9154 2150.3306 657929
1209.6597 1046.6436 2168.4131 4276545
1223.7959 1047.748 2170.7014 4670792
1234.58 1045.9894 2167.0579 1709852
1245.4292 1044.3217 2163.6028 3683639
1259.8008 1045.6113 2166.2747 2301727
1266.6335 1040.6812 2156.0603 3354925
1276.5724 1038.3757 2151.2842 2105115
1288.7084 1037.8856 2150.2686 3354406
1301.3245 1037.7877 2150.0659 3419938
1314.8165 1038.3837 2151.3005 3090206
1329.1418 1039.62 2153.8618 1446412
1329.645 1030.1241 2134.1887 1445641
1352.2286 1037.7527 2149.9932 3156001
1368.726 1040.6115 2155.916 2761240
1361.9177 1025.8627 2125.3599 4076845
1374.1532 1025.5973 2124.8098 1576970
1395.8519 1032.3354 2138.7698 1576967
1416.8385 1038.4303 2151.3972 9604223
1428.8906 1037.9269 2150.354 7893604
1427.2996 1027.6094 2128.9788 2893854
1440.8617 1028.2872 2130.3828 5525318
1452.2784 1027.4353 2128.6179 2630428
1465.8273 1028.0935 2129.9814 1710100
1485.6431 1033.0984 2140.3506 3485996
1489.4546 1026.9836 2127.6821 920841
1502.4902 1027.2782 2128.2922 788227
1516.0084 1027.8949 2129.5701 722177
1523.3497 1024.348 2122.2217 3090463
1533.2828 1022.5876 2118.5747 3287326
1541.5449 1019.7507 2112.697 4077100
1559.2419 1023.1503 2119.7402 3616549
1567.2524 1020.1902 2113.6077 2827033
1578.1282 1019.1274 2111.4058 3287328
1589.0804 1018.1303 2109.3401 2761500
1598.6094 1016.2441 2105.4321 1182983
1601.4631 1010.1764 2092.8613 1118219
1634.1514 1022.8763 2119.1729 8289909
1639.3435 1018.3032 2109.6982 9144445
1636.4087 1008.7892 2089.9873 6841431
1658.3363 1014.6298 2102.0876 5656901
1675.4688 1017.4713 2107.9749 4603956
1694.2715 1021.2777 2115.8608 4801847
1694.0585 1013.6499 2100.0576 3222816
1695.7523 1007.2661 2086.8318 3288612
1693.4913 998.64246 2068.9656 3485992
1701.1069 995.92517 2063.3359 3815213
1732.6307 1007.1439 2086.5786 6315089
1729.337 998.10846 2067.8591 3222820
1747.6456 1001.5803 2075.0522 2827034
1765.5405 1004.7683 2081.657 3418914
1764.4955 997.20813 2065.9939 3024156
1775.0554 996.26544 2064.041 2366226
1786.1874 995.6546 2062.7754 2365712
1779.7438 985.32178 2041.368 4997430
1784.6801 981.38593 2033.2139 4536108
1798.5225 982.36761 2035.2477 4470311
1819.61 987.26721 2045.3986 2890511
1833.2511 988.08838 2047.0999 4799020
1830.1403 979.9292 2030.1959 5918015
1846.1333 982.0387 2034.5663 5458491
1863.1719 984.67352 2040.0249 5919556
1888.8009 991.78497 2054.7583 7367258
1912.2628 997.6748 2066.9607 6577745
1926.6744 998.79791 2069.2876 8354927
1926.0118 992.14166 2055.4973 7105118
1903.7469 974.51105 2018.9706 5460037
1934.0083 983.82031 2038.2574 5591109
1920.795 971.03613 2011.7714 5524801
0 0 0 0
0 0 0 0
0 0 0 0
0 0 0 0
0 0 0 0
0 0 0 0
0 0 0 0
0 0 0 0
0 0 0 0
0 0 0 0
-1951.8585 1088.9155 2228.6377 10782591
-1930.3455 1084.2478 2219.0845 9861489
-1928.0939 1090.4092 2231.6948 8084564
-1956.057 1113.8612 2279.6929 8479577
-1942.417 1113.7841 2279.5352 8084562
-1966.2059 1135.3179 2323.6074 7953233
-1944.229 1130.5431 2313.8352 8216405
-1969.3993 1153.3105 2360.4324 8742749
-1946.0774 1147.803 2349.1602 7887952
-1924.4518 1143.2235 2339.7876 7427402
-1903.9099 1139.2262 2331.6064 6966851
-1886.8564 1137.2731 2327.6091 6966850
-1876.3263 1139.252 2331.6592 6835264
-1871.9368 1145.0164 2343.4568 6440506
-1846.3074 1137.7776 2328.6418 7163973
-1835.7039 1139.7595 2332.698 6506043
-1826.9971 1142.958 2339.2441 6769472
-1814.8856 1144.059 2341.4976 6374714
-1810.2688 1149.9379 2353.5295 7624781
-1788.6118 1144.9995 2343.4226 7295047
-1765.415 1138.9906 2331.1243 7032131
-1749.0852 1137.3522 2327.771 7097410
-1731.6802 1134.983 2322.9221 6767932
-1729.5386 1142.66 2338.6343 6767932
-1691.5804 1126.6068 2305.7788 6767675
-1681.5269 1129.0282 2310.7346 7032131
-1689.8539 1143.932 2341.2375 6243384
-1678.0658 1145.3529 2344.1458 6637885
-1660.8613 1143.0699 2339.4731 6440506
-1642.3795 1139.8619 2332.9077 6176825
-1630.5194 1141.2341 2335.7161 5255722
-1607.1674 1134.5177 2321.9697 5124396
-1615.4387 1150.2012 2354.0684 6637635
-1581.947 1136.1633 2325.3379 7163978
-1572.6788 1139.4291 2332.0217 7361870
-1565.9753 1144.6276 2342.6611 6703940
-1554.8998 1146.6946 2346.8918 6309181
-1543.8859 1148.8448 2351.2925 6309438
-1533.5129 1151.5155 2356.7585 6046010
-1514.979 1148.0508 2349.6675 6045498
-1505.4987 1151.4465 2356.6172 5979704
-1492.4658 1152.1631 2358.0837 6111548
-1474.0139 1148.6703 2350.9353 5848376
-1455.6392 1145.1714 2343.7744 5979961
-1435.0576 1139.8527 2332.8884 6441026
-1430.6191 1147.3771 2348.2886 7165006
-1423.0118 1152.483 2358.7388 5914939
-1405.2709 1149.4019 2352.4324 6770762
-1405.2148 1160.8685 2375.9009 6573385
-1396.265 1165.1455 2384.6545 6574158
-1388.0995 1170.1714 2394.9407 6244938
-1377.1696 1172.9463 2400.6201 7692640
-1354.532 1165.7039 2385.7971 6179661
-1340.8186 1166.0697 2386.5459 5521990
-1320.9103 1160.9983 2376.1665 5850961
-1321.7106 1174.2153 2403.2173 4403516
-1301.1759 1168.5597 2391.6421 4140087
-1278.958 1161.2512 2376.6843 4995655
0 0 0 0
0 0 0 0
0 0 0 0
0 0 0 0
0 0 0 0
-1174.3668 1141.6995 2336.6685 1839898
-1162.0095 1143.1611 2339.6599 1972258
-1153.308 1148.2979 2350.1731 2433332
-1149.3831 1158.3741 2370.7957 2565177
-1109.8978 1132.4178 2317.6719 2695480
-1099.7823 1136.1522 2325.3152 3353407
-1085.6516 1135.7809 2324.5552 5129818
-1073.1897 1137.1681 2327.3943 6051945
-1045.7236 1122.4861 2297.3452 8092299
-1021.9847 1111.4703 2274.7996 6776698
-1005.429 1108.0767 2267.854 6776440
-997.87891 1114.6505 2281.3083 6447216
-995.5155 1127.278 2307.1526 8685718
-990.61072 1137.3394 2327.7446 8488341
-977.6684 1138.3264 2329.7649 10264499
-970.46759 1146.1224 2345.7207 6909057
-961.9856 1152.6101 2358.9985 10133935
-965.01758 1173.2877 2401.3188 10857400
-952.31482 1175.1674 2405.1658 11383741
-945.00696 1183.8625 2422.9619 11975877
-927.71301 1180.1229 2415.3081 12239561
-915.01672 1182.2064 2419.5723 12436935
-888.39075 1166.0726 2386.5518 12963023
-896.57697 1195.849 2447.4939 13095377
-878.68634 1191.2517 2438.0847 13029584
-854.17657 1177.377 2409.688 13029584
-837.03967 1173.3657 2401.4785 13095377
-828.59729 1181.6147 2418.3613 13161169
-801.07599 1162.468 2379.1743 13095631
-782.63983 1156.0552 2366.0496 13095889
-768.27612 1155.5337 2364.9824 13161168
-752.44519 1152.7452 2359.2751 13161170
-735.22943 1147.6892 2348.9275 13161171
-717.46527 1141.5658 2336.3948 13095635
-701.82001 1138.639 2330.4048 13029842
-684.80475 1133.3275 2319.5339 13030098
-669.6424 1130.9279 2314.6226 13030098
-653.11554 1126.0753 2304.6909 12964561
-637.46826 1122.5642 2297.5051 12899025
-621.53564 1118.3866 2288.9551 12701904
-605.52563 1113.8802 2279.7319 12571344
-590.79358 1111.5729 2275.0095 12374479
-574.67804 1106.4939 2264.6145 12374478
-559.18817 1102.4055 2256.2471 12308943
-543.18115 1097.0724 2245.332 12177870
-528.05865 1093.3029 2237.6172 12112335
-513.51904 1090.5771 2232.0386 12046287
-497.28391 1084.0114 2218.6006 11980495
-482.99481 1081.4463 2213.3508 11914960
-467.04013 1074.9048 2199.9624 11849169
-455.37579 1078.1453 2206.5947 11848913
-441.88907 1077.1354 2204.5276 11717072
-427.57709 1073.9908 2198.092 11650512
-414.00531 1072.5665 2195.177 11387340
-402.81729 1077.4258 2205.1221 11321293
-389.74091 1077.3905 2205.05 11650516
-377.14313 1078.7218 2207.7747 10663622
-366.2384 1085.1653 2220.9622 10399938
-352.40387 1083.0844 2216.7034 11058380
-339.07758 1082.4648 2215.4355 10992332
-324.09851 1076.3069 2202.832 10795468
-311.25549 1077.0233 2204.2983 10795468
-295.90964 1068.7628 2187.3921 10663885
-284.34808 1074.0398 2198.1921 10598348
-270.97266 1072.6429 2195.3335 10335173
-257.88095 1072.2852 2194.6011 10203331
-244.7794 1071.8463 2193.7029 10071232
-231.89622 1072.368 2194.7705 10268098
-218.57082 1070.7852 2191.531 10202304
-205.4427 1070.03 2189.9856 10005182
-192.43652 1069.8511 2189.6191 9939132
-179.56398 1070.4427 2190.8301 9741754
-166.62915 1070.7263 2191.4106 9610168
-153.48099 1069.5713 2189.0466 9610167
-140.71208 1071.0898 2192.1545 9478582
-127.74397 1071.2468 2192.4758 9544374
-114.83975 1072.0355 2194.0901 9478324
-101.6379 1069.8928 2189.7046 9544118
-88.848152 1072.0955 2194.2129 9412532
-75.799522 1071.3944 2192.7778 9478069
-62.85717 1072.2157 2194.459 9412532
-49.847626 1072.0206 2194.0598 9610168
-36.839588 1071.7318 2193.4685 9544374
-23.849459 1071.9329 2193.8799 9610167
-10.861079 1072.7883 2195.6309 9215666
2.1454463 1072.3444 2194.7222 9346995
15.144943 1072.1649 2194.355 9412788
28.166853 1073.0051 2196.0745 9478581
41.052128 1069.7539 2189.4204 9347252
54.081417 1070.9156 2191.7981 9478582
66.841972 1067.3363 2184.4724 9346995
79.900337 1068.9023 2187.6775 9281459
92.843948 1068.7102 2187.2844 9346997
106.07304 1071.4489 2192.8894 9939131
118.42919 1065.7344 2181.1938 12240598
132.21925 1072.7784 2195.6106 2831169
0 0 0 0
157.08817 1065.0111 2179.7136 9675702
171.14534 1072.1783 2194.3823 9741238
183.88672 1070.6725 2191.3003 9609652
196.92128 1070.9595 2191.8879 9741238
209.76521 1070.2386 2190.4124 9543859
222.45074 1068.8405 2187.551 9675445
235.36739 1068.6458 2187.1523 9741238
248.40494 1068.9916 2187.8601 9741238
261.34686 1068.9121 2187.6975 9675445
274.39404 1069.2501 2188.3894 9675702
287.41425 1069.4574 2188.8135 9675445
300.33704 1069.2999 2188.4912 9609909
313.31683 1069.35 2188.5938 9675958
326.48203 1070.0037 2189.9316 9675959
339.63708 1070.5754 2191.1018 9544372
351.99179 1068.6753 2187.2129 9544372
365.76102 1071.0521 2192.0774 9544372
378.45578 1070.2275 2190.3899 9675701
391.59891 1070.6833 2191.3228 9412274
404.27753 1069.8809 2189.6804 9412275
416.91599 1069.0254 2187.9292 9412276
431.4021 1072.816 2195.6875 9412274
443.56686 1070.7809 2191.5225 9412274
456.12936 1069.7946 2189.5037 9346480
469.20886 1070.0417 2190.0095 9280687
481.65286 1068.8652 2187.6018 9280688
493.85016 1067.2175 2184.2292 9543859
506.40186 1066.4 2182.5562 9346480
519.56415 1066.8771 2183.5325 9609138
530.8786 1063.6288 2176.8845 9543345
545.05499 1066.1326 2182.0088 9674931
556.44904 1063.204 2176.0151 9411759
568.09338 1060.8757 2171.2498 9346737
580.10419 1059.3195 2168.0647 9149101
592.75122 1058.9675 2167.3442 9609652
605.40802 1058.6473 2166.6892 9412273
617.89862 1058.056 2165.4788 9346480
629.95715 1056.7639 2162.8345 9478323
643.33563 1057.6935 2164.7368 9478581
656.76654 1058.671 2166.7375 9413045
669.58588 1058.6443 2166.6829 9281459
681.32312 1056.9399 2163.1946 9544374
694.00793 1056.7412 2162.7881 9478069
706.84485 1056.7773 2162.8618 9543861
719.44702 1056.4673 2162.2273 9478068
733.19189 1057.8168 2164.9893 9609652
744.93445 1056.2808 2161.8455 9017258
762.8952 1063.4646 2176.5483 9609136
769.73364 1055.163 2159.5579 9280172
781.4494 1053.7096 2156.583 9346221
794.64459 1054.2656 2157.7212 9411757
808.04315 1055.0696 2159.3665 9411500
821.84839 1056.3712 2162.0305 9214891
833.47864 1054.88 2158.9788 9345964
847.19086 1056.0293 2161.3308 9411757
861.25958 1057.582 2164.5088 9148585
872.96143 1056.2253 2161.7322 9280171
886.07465 1056.5911 2162.4807 9345451
896.93463 1054.2977 2157.7869 9477292
912.14313 1057.1085 2163.5396 9608878
923.98456 1055.9932 2161.2568 9345704
936.84143 1056.053 2161.3794 9279911
951.01111 1057.5712 2164.4866 9410981
963.82617 1057.5626 2164.469 9476774
974.03876 1054.7362 2158.6843 9345186
987.26294 1055.2018 2159.6372 9410979
1001.1551 1056.3602 2162.0083 9476772
1012.0213 1054.337 2157.8674 9345185
1023.5443 1053.0402 2155.2129 9608100
1031.3069 1047.9539 2144.8032 9476514
1046.6072 1050.5576 2150.1321 9739172
1055.5879 1046.8317 2142.5063 9936037
1067.5942 1046.1591 2141.1299 10199209
1082.3116 1048.1278 2145.1592 10265260
1095.6104 1048.6927 2146.3154 10134187
1109.8051 1050.0927 2149.1804 10594738
1122.7484 1050.2902 2149.5847 10660531
1131.2765 1046.3992 2141.6213 10858421
1142.8282 1045.3604 2139.4951 11055800
1178.0687 1065.775 2181.2769 9082266
1176.1567 1052.5002 2154.1082 10661555
1181.2744 1045.7336 2140.259 10069676
1195.0865 1046.7257 2142.2896 9872806
1212.1428 1050.5085 2150.0317 9740706
1237.5513 1061.3759 2172.2734 9279639
1248.4326 1059.6886 2168.8203 9542551
1262.2614 1060.5122 2170.5059 11187117
1263.79 1051.0891 2151.22 7634554
1270.5703 1046.1783 2141.1694 7238771
1288.1881 1050.2001 2149.4004 4870997
1306.225 1054.4813 2158.1626 6581615
1317.9304 1053.6179 2156.3955 5462620
1307.3013 1035.0872 2118.4695 2238248
1320.2148 1035.3721 2119.0525 2895921
1333.2537 1035.7489 2119.8237 658443
1348.121 1037.5259 2123.4607 2105376
1367.4729 1042.6895 2134.0288 986637
1374.7347 1038.6244 2125.709 2433310
1387.5587 1038.7972 2126.0627 4603705
1402.8706 1040.8127 2130.1877 3485477
1428.9484 1050.7085 2150.4409 4077098
1446.1923 1053.9911 2157.1594 5788485
1436.7651 1037.9486 2124.3259 5064252
1448.1091 1037.0598 2122.5068 1380621
1476.9567 1048.6136 2146.1536 2104088
1481.0432 1042.5403 2133.7236 2038551
1485.105 1036.5526 2121.4688 5723215
1504.2931 1041.1344 2130.8459 3288616
1511.092 1037.1366 2122.6641 1710097
1523.2341 1036.8419 2122.0608 4340787
1535.1724 1036.4142 2121.1855 5327426
1539.0283 1030.5814 2109.2478 3090464
1549.0853 1028.9617 2105.9326 525572
1559.2793 1027.4579 2102.855 1511691
1569.693 1026.1216 2100.1201 3485224
1584.6855 1027.7761 2103.5063 2893344
1589.9263 1023.1294 2093.9961 3551017
1596.798 1019.5962 2086.7646 2762014
1612.1171 1021.4695 2090.5989 1117450
1628.0383 1023.693 2095.1494 591107
1631.798 1018.2935 2084.0986 3616806
1647.411 1020.3165 2088.239 2498844
1665.9474 1024.1063 2095.9956 6446157
1677.1943 1023.3925 2094.5344 4669745
1684.6726 1020.4061 2088.4224 5262398
1676.9489 1008.3228 2063.6919 4933691
1682.2279 1004.176 2055.2048 1973012
1706.1484 1011.1367 2069.4509 7368032
1719.566 1011.8179 2070.8452 4143665
1725.1438 1007.909 2062.845 3157027
1732.0355 1004.8174 2056.5176 2366999
1749.3209 1007.7566 2062.5332 1051400
1757.7627 1005.5958 2058.1108 854276
1759.797 999.82434 2046.2986 1840399
1764.3623 995.56 2037.5709 3814185
1764.9281 989.11212 2024.3744 3551013
1773.8944 987.42743 2020.9263 1314567
1784.243 986.52966 2019.0889 2827032
1800.4012 988.83453 2023.8062 1840393
1807.1285 985.9635 2017.9302 1182211
1830.1381 991.95538 2030.1935 3352605
1822.2478 981.23022 2008.2428 5129272
1848.8193 989.08075 2024.3102 5063991
1874.3485 996.27594 2039.0361 6643280
1877.2834 991.44629 2029.1515 4143146
1891.3444 992.51672 2031.3423 7104090
1885.1857 983.03003 2011.9263 4340784
1887.0802 977.83563 2001.2952 7828070
1900.7056 978.7467 2003.1598 5722953
1907.9476 976.37976 1998.3154 5657160
0 0 0 0
0 0 0 0
0 0 0 0
0 0 0 0
0 0 0 0
0 0 0 0
0 0 0 0
0 0 0 0
0 0 0 0
0 0 0 0
-1904.7096 1075.4958 2174.803 10190197
-1901.9243 1081.2368 2186.4121 10716798
-1902.2487 1088.8367 2201.78 10454141
-1888.7412 1088.5695 2201.2397 7493452
-1892.9669 1098.59 2221.5027 8150869
-1919.3307 1121.6887 2268.2114 8808541
-1914.3507 1126.6663 2278.2769 8019283
-1919.7885 1137.8893 2300.9712 8019026
-1919.2029 1145.677 2316.7192 8150610
-1900.8926 1142.9199 2311.144 7558730
-1868.058 1131.3267 2287.7007 7690060
-1859.1494 1134.1599 2293.4299 7755596
-1838.2019 1129.6365 2284.283 7689803
-1818.6714 1125.9233 2276.7744 8611675
-1814.1653 1131.5255 2288.1028 7624523
-1801.0631 1131.8102 2288.6785 7295559
-1786.702 1131.3021 2287.6511 6702909
-1781.9648 1136.9265 2299.0244 7229509
-1776.0435 1141.8761 2309.0332 7097923
-1758.967 1139.675 2304.5823 6175795
-1732.4596 1131.2811 2287.6086 6702396
-1720.6771 1132.4458 2289.9639 6241845
-1714.3518 1137.2494 2299.6772 6636603
-1705.2363 1140.2639 2305.7732 6833725
-1684.9895 1135.8239 2296.7947 7097154
-1677.6387 1140.0752 2305.3916 7163717
-1676.4758 1148.636 2322.7026 7427402
-1646.9215 1137.7251 2300.6394 6111285
-1630.1639 1135.5461 2296.2332 6308408
-1599.8068 1123.7777 2272.4355 5848372
-1602.6797 1135.3496 2295.8357 6374460
-1582.6365 1130.7469 2286.5286 6703681
-1594.9968 1149.416 2324.2798 6309180
-1563.0549 1136.2063 2297.5679 7032648
-1545.5375 1133.3418 2291.7756 6901062
-1535.0809 1135.6504 2296.4438 6966598
-1530.0664 1142.0621 2309.4094 6374460
-1522.4403 1146.6228 2318.6316 6045238
-1489.2621 1131.8467 2288.7522 6966597
-1497.9233 1148.8894 2323.2151 6439998
-1476.6787 1143.098 2311.5042 7032391
-1468.37 1147.3058 2320.0127 7558478
-1452.1055 1145.318 2315.9932 7492941
-1422.2941 1132.5055 2290.0845 6901317
-1418.0659 1140.0132 2305.2661 5782837
-1403.4653 1139.2471 2303.717 6046009
-1387.6998 1137.5112 2300.2068 7493455
-1386.1138 1147.4791 2320.3633 7098698
-1378.4885 1152.5972 2330.7126 6835269
-1356.9111 1146.0349 2317.4429 6900808
-1350.7007 1152.45 2330.415 5848120
-1315.3967 1133.918 2292.9407 6440513
-1296.7352 1129.4951 2283.9971 6637635
-1285.0536 1131.1228 2287.2886 8546402
-1280.3779 1139.0178 2303.2534 6440768
-1263.0291 1135.6874 2296.5188 6374717
-1245.5868 1132.1995 2289.4658 6111289
-1229.8408 1130.1938 2285.4099 5717303
-1218.8373 1132.5499 2290.1743 7164750
-1205.2699 1132.55 2290.1746 7098699
-1189.4641 1130.4229 2285.8733 5257519
-1176.5946 1131.0693 2287.1804 6902853
0 0 0 0
-1152.4912 1134.0176 2293.1421 7627356
-1154.2122 1149.2578 2323.9602 7166809
-1132.329 1141.0797 2307.4226 6113351
-1117.7422 1140.1442 2305.531 7560283
-1097.5869 1133.4353 2291.9646 5980994
-1083.6659 1133.0767 2291.2395 7230803
-1061.1378 1123.5955 2272.0671 5585718
-1050.869 1127.0181 2278.988 7099727
-1035.9387 1125.4656 2275.8486 7823197
-1015.8809 1118.2279 2261.2131 8414309
-1006.746 1122.9808 2270.8245 1049861
-991.85577 1121.356 2267.5386 7362653
-983.14008 1126.7627 2278.4719 6114643
-973.19989 1130.8973 2286.8325 4933198
-962.31055 1134.0302 2293.1675 4538953
-945.8205 1130.558 2286.1462 4736590
-940.33746 1140.3329 2305.9126 4473934
-943.05011 1160.4813 2346.6555 4211279
-930.31543 1161.9395 2349.604 6645622
-918.71973 1164.8861 2355.5625 7369603
-904.10004 1164.0302 2353.8318 6513527
-889.74243 1163.49 2352.7395 8289938
-885.33813 1176.1556 2378.3511 7368581
-872.50061 1177.8462 2381.7698 8421523
-853.63525 1171.3214 2368.5757 6447992
-831.80896 1160.4476 2346.5874 8225175
-817.08862 1159.2863 2344.2388 8883616
-802.82013 1158.7367 2343.1277 9015456
-787.6579 1156.8552 2339.323 9739946
-771.91351 1154.036 2333.6223 10331827
-758.11798 1154.0807 2333.7126 10397105
0 0 0 0
-720.55243 1138.4164 2302.0371 11976646
-709.56561 1142.6854 2310.6697 12503244
-696.94794 1144.4446 2314.2271 12898256
-681.1391 1140.929 2307.1179 13292755
-664.42456 1135.7212 2296.5872 13095632
-649.31873 1133.1031 2291.293 13029841
-632.81036 1127.8733 2280.7175 13030096
-616.11761 1122.0796 2269.0017 12899025
-600.091 1117.2677 2259.2715 12767953
-585.14136 1114.2869 2253.2439 12767953
-569.61456 1110.0424 2244.6609 12636881
-555.39648 1108.2063 2240.9482 12505296
-539.96985 1103.8097 2232.0576 12439760
-524.77673 1099.6818 2223.7104 12374481
-509.71594 1095.6256 2215.5083 12374482
-495.0307 1092.1837 2208.5481 12308690
-480.55301 1089.0251 2202.1611 12046034
-464.34021 1081.6486 2187.2446 11518921
-452.00949 1083.1511 2190.283 8622235
-434.73471 1072.5447 2168.8354 11386570
-423.50568 1076.6622 2177.1616 11518414
-411.15286 1078.0918 2180.0525 11518158
-395.89911 1071.7609 2167.2502 10595514
-384.53268 1075.8817 2175.5833 6973047
-371.26224 1074.7764 2173.3481 8026507
-358.20908 1074.2434 2172.2703 11188426
-345.97476 1076.2177 2176.2627 10992330
-332.39548 1073.9991 2171.7766 11584211
-319.37088 1073.4666 2170.6995 11386832
-306.38452 1073.0229 2169.8025 11124175
-293.52356 1072.9989 2169.7539 11124431
-280.73907 1073.2651 2170.2922 11058640
-267.38116 1071.2594 2166.2363 10795466
-254.50092 1071.0618 2165.8367 10927052
-241.47859 1070.2134 2164.1211 10795469
-228.78894 1070.8269 2165.3618 10532296
-215.71487 1069.6073 2162.8955 10531785
-202.76286 1068.8771 2161.4189 10465992
-189.5585 1066.6284 2156.8718 10202818
-177.08675 1068.475 2160.6057 10004926
-164.13921 1067.5149 2158.6643 10005182
-151.2724 1066.9618 2157.5461 9873339
-138.64728 1068.1688 2159.9868 9741753
-125.82962 1067.9873 2159.6196 9675960
-113.12552 1068.8373 2161.3386 9675960
-100.27271 1068.3202 2160.2927 9807033
-87.450417 1068.0242 2159.6943 9609911
-74.666077 1068.1698 2159.9888 9412532
-61.895004 1068.6046 2160.8679 9412788
-49.046856 1067.5886 2158.8135 9610167
-36.229233 1066.7546 2157.1272 9610167
-23.481291 1068.1816 2160.0127 9478581
-10.678913 1067.5844 2158.8049 9412788
2.1093075 1067.0645 2157.7534 9412533
14.905716 1068.0238 2159.6934 9478326
27.666622 1066.728 2157.0732 9544376
40.490093 1067.9012 2159.4456 9544630
53.450741 1071.2603 2166.238 9083823
65.89328 1064.9453 2153.4683 9346995
78.528198 1063.2837 2150.1082 9412788
91.394936 1064.7866 2153.1475 9412787
104.20855 1065.3784 2154.3442 11518160
117.23588 1067.7876 2159.2158 6844026
131.91118 1083.2559 2190.4949 8623788
142.94453 1068.7242 2161.1099 9544374
155.09613 1064.255 2152.0725 9544116
168.08151 1065.7516 2155.0986 9544116
181.16127 1067.593 2158.8223 9543859
193.80537 1066.7935 2157.2056 9543859
206.73288 1067.5564 2158.7483 9412274
219.71718 1068.5063 2160.6694 9741238
232.30923 1067.5494 2158.7344 9807031
245.09225 1067.5243 2158.6833 9609652
257.90884 1067.6404 2158.9182 9609908
270.34076 1066.2284 2156.063 9675445
282.81528 1065.1042 2153.7898 9741237
295.63098 1065.3068 2154.1992 9740981
308.36624 1065.2145 2154.0127 9740981
321.3381 1065.9144 2155.428 9741238
333.4866 1063.934 2151.4233 9609652
346.61758 1065.1185 2153.8186 9610165
359.51062 1065.5137 2154.6177 9478323
371.80496 1064.1681 2151.8967 9676214
384.66217 1064.4694 2152.5061 9610165
397.87576 1065.7061 2155.0066 9544118
411.427 1067.7419 2159.1235 9544118
423.37848 1065.6285 2154.8499 9478325
435.88144 1064.9863 2153.5513 9478069
448.66684 1065.051 2153.6821 9543861
461.17416 1064.4705 2152.5081 9346480
473.76184 1064.1014 2151.762 9478067
486.08878 1063.1814 2149.9016 9478066
498.71091 1062.9377 2149.4087 9412016
511.15854 1062.3435 2148.207 9477552
522.90607 1060.3584 2144.1929 9543345
535.29791 1059.743 2142.9485 9806517
547.61658 1059.0146 2141.4756 9477553
560.80011 1059.9539 2143.375 9478066
571.17462 1055.6597 2134.6917 9346737
584.65308 1057.1643 2137.7341 9478067
596.25507 1055.2839 2133.9319 9280688
608.18909 1054.0571 2131.4509 9214894
621.05042 1054.4547 2132.2549 9346993
634.24805 1055.3959 2134.1582 9346994
646.40271 1054.5989 2132.5464 9215410
659.52173 1055.3755 2134.1169 8952494
671.40735 1054.1864 2131.7122 9413045
683.65808 1053.6038 2130.5342 9346995
696.43243 1053.8346 2131.001 9544374
708.85101 1053.5286 2130.3821 9478068
722.38275 1054.8586 2133.0718 9478066
732.3493 1051.0264 2125.3225 9280687
746.0683 1052.618 2128.541 9544116
754.86725 1047.3306 2117.8489 9280431
770.37207 1051.3678 2126.0127 9544114
777.95172 1044.6332 2112.3943 9609907
794.7019 1050.2311 2123.7141 9346734
809.66833 1053.3339 2129.9885 9018025
821.23529 1051.9869 2127.2646 9149355
836.96906 1055.9374 2135.2532 9544370
848.41486 1054.4412 2132.2275 9477807
860.04993 1053.2206 2129.7593 9477551
871.1261 1051.3607 2125.9985 9477037
887.18036 1055.4763 2134.3208 9477292
897.56073 1052.8209 2128.9512 9477292
912.065 1055.0094 2133.3765 9345704
923.54688 1053.6897 2130.7078 9279911
937.8833 1055.6183 2134.6079 9345187
947.47028 1052.2213 2127.7385 9213859
961.66199 1053.96 2131.2544 9345186
973.27344 1052.8624 2129.0352 9411236
987.39008 1054.4683 2132.2825 9410979
998.49176 1052.8546 2129.0193 9279393
1012.6588 1054.473 2132.292 9344929
1024.4397 1053.5975 2130.5215 9147549
1032.744 1049.2114 2121.6521 9081756
1042.7277 1046.6162 2116.4043 9345184
1056.9403 1048.277 2119.7627 9278878
1069.1268 1047.913 2119.0266 9476001
1084.314 1050.4642 2124.1855 9476258
1093.7839 1047.4819 2118.155 10002345
1105.9326 1047.1035 2117.3896 9739942
1121.5894 1050.0176 2123.2825 9805479
1134.7878 1050.5913 2124.4426 10134701
1148.0566 1051.2168 2125.7075 10068908
1158.4431 1049.2183 2121.666 10463667
1167.7675 1046.3108 2115.7869 10595766
1177.868 1044.1533 2111.4241 10792889
1189.278 1043.1896 2109.4753 10727097
1200.3171 1041.9241 2106.9163 10661305
1209.0775 1038.7269 2100.4512 10924734
1224.7169 1041.4446 2105.9465 10990524
1234.2715 1038.9854 2100.9736 10924986
1250.9288 1042.4944 2108.0696 10990521
1268.8595 1046.9849 2117.1497 11187387
1283.3401 1048.5684 2120.3518 10924215
1288.4982 1042.578 2108.2385 11253694
1316.0624 1054.6583 2132.6667 11319485
1320.1593 1047.8817 2118.9634 11779778
1329.5477 1045.3932 2113.9314 11779775
1338.616 1042.7019 2108.489 11779773
1344.3601 1037.495 2097.96 10924721
1372.6515 1049.6246 2122.4878 9872033
1383.9117 1048.629 2120.4746 9016727
1403.5964 1053.9774 2131.2898 5660773
1418.2037 1055.4518 2134.2712 2765880
1425.7219 1051.6709 2126.6255 460809
1428.775 1044.6913 2112.512 4540749
1449.9265 1050.9513 2125.1707 1908771
1459.8578 1049.0409 2121.3074 197640
1471.9849 1048.7274 2120.6733 5791069
1473.4578 1040.8927 2104.8308 5132369
1485.5941 1040.6594 2104.3589 2631971
1509.3362 1048.4921 2120.1975 5592398
1516.6908 1044.9055 2112.9451 4868159
1528.3318 1044.3066 2111.7339 526083
1537.8326 1042.2667 2107.6091 788743
1548.057 1040.7463 2104.5347 4143668
1558.8922 1039.6576 2102.333 328192
1566.1207 1036.1997 2095.3408 722691
1571.8429 1031.8076 2086.4592 3551531
1585.5007 1032.6523 2088.1675 2433050
1582.8636 1022.9534 2068.5547 2959395
1607.7552 1031.0574 2084.9424 3157288
1612.0033 1025.9001 2074.5137 4604733
1622.0889 1024.5079 2071.6982 3026469
1629.5496 1021.4911 2065.5979 6052431
1646.5287 1024.4417 2071.5642 4078901
1665.7908 1028.7584 2080.2932 3156767
1664.9568 1020.6917 2063.9814 2959131
1673.2186 1018.2784 2059.1013 4670262
1678.1428 1013.8835 2050.2141 4144430
1695.1921 1016.8246 2056.1616 4013102
1715.1132 1021.434 2065.4824 5460295
1723.1954 1018.9777 2060.5154 3486764
1734.4789 1018.4353 2059.4187 2696477
1736.8925 1012.7289 2047.8795 1512209
1749.3241 1012.9023 2048.2302 4538428
1752.4617 1007.729 2037.769 1182986
1762.9901 1006.8474 2035.9861 328450
1766.2311 1001.8441 2025.8688 1117190
1774.494 999.73773 2021.6095 1708811
1786.2462 999.61218 2021.3556 1445894
1796.8788 998.86591 2019.8466 1313793
1807.7308 998.25079 2018.6028 1445379
1813.1401 994.6579 2011.3374 1576708
1820.9213 992.4046 2006.7809 2497809
1836.0354 994.15118 2010.3127 3418910
1847.3546 993.83356 2009.6705 3024408
1857.4885 992.88654 2007.7554 4998199
1864.0717 990.06549 2002.0509 2037260
1869.4539 986.6463 1995.1368 3879207
1882.3235 987.19702 1996.2505 2432276
1886.1866 983.04688 1987.8582 6050634
1886.4797 977.099 1975.8308 2365972
0 0 0 0
0 0 0 0
0 0 0 0
0 0 0 0
0 0 0 0
0 0 0 0
0 0 0 0
0 0 0 0
0 0 0 0
0 0 0 0
-1870.7957 1069.0009 2136.0798 9729903
-1873.1913 1077.6594 2153.3813 10585468
-1860.569 1077.7374 2153.5374 10454139
-1841.8717 1074.2734 2146.6155 10322039
-1825.2402 1071.9744 2142.0215 10782331
-1809.5631 1070.2076 2138.4912 10782331
-1810.1505 1078.1029 2154.2676 10321780
-1806.8364 1083.7703 2165.592 9203299
-1854.7864 1120.4874 2238.9604 7426631
-1848.3398 1124.6356 2247.2493 6505786
-1839.2495 1127.2238 2252.4209 7163716
-1825.1971 1126.7861 2251.5466 7755853
-1815.9718 1129.3444 2256.6582 8150611
-1792.9493 1123.2964 2244.5732 7821646
-1788.4161 1128.8281 2255.627 7624267
-1773.754 1128.002 2253.9758 7229509
-1758.4833 1126.7731 2251.5205 6505786
-1757.7236 1134.8948 2267.7493 6110772
-1745.7997 1135.8777 2269.7134 6242613
-1742.6996 1142.6617 2283.269 7031360
-1719.9084 1136.5394 2271.0356 6109745
-1704.3798 1135.1577 2268.2747 6176307
-1695.9266 1138.504 2274.9612 5320997
-1684.0735 1139.6031 2277.1575 7426117
-1674.7263 1142.4296 2282.8052 6636346
-1662.1791 1143.1011 2284.147 6965825
-1641.6642 1138.2594 2274.4724 6636602
-1632.1732 1141.0441 2280.0369 6637116
-1605.1335 1131.5049 2260.9756 6505786
-1581.7584 1124.4102 2246.7988 7295304
-1593.8818 1142.6436 2283.2329 7887698
-1572.559 1137.0066 2271.969 6440506
-1549.1946 1129.7833 2257.5354 6177590
-1555.6333 1144.358 2286.6587 6703679
-1544.3315 1146.0239 2289.9875 8085077
-1517.5155 1136.1045 2270.1665 6703425
-1502.7299 1135.0948 2268.1489 6637632
-1499.0876 1142.5602 2283.0662 7229768
-1484.6688 1141.873 2281.6931 7361355
-1471.7933 1142.3711 2282.6885 7097672
-1453.7253 1138.8108 2275.5742 7032392
-1428.5208 1129.541 2257.0513 6834757
-1423.3311 1136.0713 2270.1001 6308669
-1412.786 1138.4109 2274.7751 6835527
-1401.2557 1139.9941 2277.9387 6440514
-1376.4872 1130.7334 2259.4338 6308927
-1364.0804 1131.545 2261.0559 6506049
-1354.9139 1135.0875 2268.1345 6769218
-1355.4708 1146.9285 2291.7949 6572095
-1339.3162 1144.7255 2287.3928 7295818
-1311.2986 1132.2344 2262.4331 7032390
-1297.8954 1132.2344 2262.4331 7164231
-1260.8962 1111.4352 2220.8723 6440252
-1276.4747 1137.0316 2272.019 5716530
-1259.5396 1133.9031 2265.7676 5847604
-1246.2328 1134.0087 2265.9788 4399903
-1228.5712 1130.111 2258.1902 6045240
-1225.459 1139.6581 2277.2671 4927016
-1198.8259 1127.3 2252.5735 6177340
-1179.2609 1121.3849 2240.7539 6769476
-1172.1514 1127.3146 2252.6023 7032649
-1161.1843 1129.6278 2257.2246 6111547
-1153.7935 1135.5144 2268.9873 6638147
-1129.4318 1124.641 2247.2603 7098440
-1117.0485 1125.5781 2249.1326 6374200
-1111.8555 1133.8705 2265.7024 6505787
-1088.58 1123.6996 2245.3792 6637115
-1072.4701 1120.7654 2239.5159 7031873
-1059.2412 1120.8063 2239.5974 6900288
-1047.1996 1122.1201 2242.2229 7032643
-1048.8306 1138.3069 2274.5674 8019540
-1029.0067 1131.3269 2260.6199 7230280
-1018.2835 1134.3002 2266.561 7493454
-1009.9874 1140.0928 2278.136 6375491
-988.82397 1131.3207 2260.6074 4072737
-980.93378 1137.702 2273.3586 7494487
-967.36475 1137.5831 2273.1211 8547434
-959.95319 1144.804 2287.5498 9205879
-935.46765 1131.5784 2261.1223 8219501
-922.90686 1132.6025 2263.1689 7627880
-911.48755 1135.0786 2268.1165 7430757
-893.27698 1129.0448 2256.0598 6838107
-878.26013 1126.9259 2251.8257 6970722
-866.40375 1128.8593 2255.689 7694703
-845.42761 1118.7849 2235.5583 7234411
-834.10791 1121.3718 2240.7275 6905962
-818.41205 1118.0641 2234.1179 5656152
-801.88226 1113.4894 2224.9771 5524309
-787.16113 1111.3154 2220.6328 4998220
-778.19611 1117.3322 2232.6555 5788506
-774.08838 1130.6516 2259.2705 4868688
-752.52942 1118.5017 2234.9924 5000277
-739.18018 1118.3373 2234.6641 5461088
-729.9201 1124.4663 2246.9111 6514291
-720.93152 1131.2493 2260.4646 7106174
-718.42627 1148.6547 2295.2444 7106688
-701.39313 1143.0557 2284.0564 7501189
-676.30408 1123.8496 2245.6787 7961740
-660.69708 1119.9456 2237.8777 8027276
-647.29163 1119.6899 2237.3669 8883101
-643.79602 1136.9242 2271.8044 9146789
-635.45282 1146.1509 2290.2412 8160150
-619.80743 1142.322 2282.5903 8686491
-605.45642 1140.7611 2279.4714 9871274
-589.61713 1136.261 2270.4792 10989498
-569.58728 1123.2864 2244.5535 10529460
-555.08997 1120.8633 2239.7114 11056835
-538.21033 1113.3931 2224.7844 11386055
-522.75256 1108.5631 2215.1331 10662845
-504.64893 1097.7289 2193.4841 11386826
-490.94247 1096.1398 2190.3088 11321287
-475.78476 1091.136 2180.3103 11781582
-464.59061 1095.1965 2188.4241 11913168
-446.86267 1083.6458 2165.3433 12110291
-431.58511 1077.5299 2153.1226 11913170
-418.68506 1077.1582 2152.3799 11847121
-406.30148 1078.1338 2154.3291 11847122
-391.98291 1073.8713 2145.812 11977937
-381.08142 1078.9984 2156.0569 9805485
-368.41721 1079.317 2156.6936 9213351
-356.69171 1082.5074 2163.0686 9936818
-342.2388 1077.3499 2152.7627 9476011
-328.36774 1073.6954 2145.4604 9608107
-316.16364 1075.4167 2148.9001 10859204
-301.65411 1069.1119 2136.3018 10926790
-290.18317 1073.4956 2145.0613 11783380
-277.78445 1074.6915 2147.4509 11651535
-264.63263 1072.9489 2143.9688 11651282
-251.60825 1071.5731 2141.2197 11388112
-238.97041 1071.785 2141.6431 11190734
-226.06662 1070.7609 2139.5967 11058637
-213.32401 1070.4237 2138.9231 10992847
-200.40251 1069.09 2136.2578 10861262
-187.51814 1067.7877 2133.6558 10663884
-174.3369 1064.4846 2127.0554 10598091
-161.94872 1065.8862 2129.8562 10400712
-149.11604 1064.3522 2126.791 10399943
-136.47206 1064.0061 2126.0994 10202563
-123.91846 1064.366 2126.8184 10268357
-111.23783 1063.5928 2125.2732 10137027
-98.526741 1062.2936 2122.6772 10136770
-85.991493 1062.7875 2123.6643 9807547
-73.503853 1064.1401 2126.3672 9741499
-60.926975 1064.4932 2127.0725 9676217
-48.286659 1063.6327 2125.3533 9544631
-35.701744 1063.8163 2125.72 9544374
-23.112431 1063.9973 2126.0818 9478581
-10.505776 1062.8575 2123.8042 9544374
2.0793262 1064.4987 2127.0835 9478838
14.683924 1064.736 2127.5579 9544374
27.27482 1064.2195 2126.5256 9544377
39.877598 1064.3464 2126.7795 9544377
52.423069 1063.2502 2124.5889 9412534
65.005531 1063.1835 2124.4556 9478327
77.619446 1063.5693 2125.2266 9413045
90.502296 1067.0182 2132.1182 10531269
102.33819 1058.7904 2115.6772 10990530
116.84548 1076.9808 2152.0254 5726842
126.78085 1053.5978 2105.3013 9610425
140.23085 1060.9952 2120.083 9610165
152.93719 1062.0126 2122.1157 9544374
165.71629 1063.342 2124.7725 9544374
178.0654 1061.9197 2121.9302 9346995
190.74313 1062.5153 2123.1204 9346995
203.47366 1063.3132 2124.7146 9281202
215.58255 1060.9589 2120.0103 9675960
228.5858 1063.0228 2124.1345 9741496
240.92461 1061.9426 2121.9761 9544118
253.94476 1063.824 2125.7354 9675447
266.22849 1062.5883 2123.2661 9543861
278.65964 1062.0259 2122.1423 9609911
290.88019 1060.744 2119.5811 9544374
303.77151 1061.9133 2121.9175 9478581
316.54608 1062.5975 2123.2847 9544374
328.84393 1061.6906 2121.4722 9610167
341.38779 1061.615 2121.3215 9610424
352.77374 1058.0721 2114.2422 9478581
366.03192 1060.1951 2118.4841 9412788
378.71729 1060.5731 2119.2395 9478838
391.19934 1060.3757 2118.8452 9609913
403.75241 1060.3772 2118.8481 9544377
416.13852 1059.9532 2118.001 9609911
429.05658 1060.8695 2119.8318 9543861
441.12308 1059.6879 2117.4707 9478068
453.62045 1059.5782 2117.2515 9478069
465.77832 1058.7025 2115.5017 9346483
478.35849 1058.8076 2115.7117 9280689
490.82123 1058.6541 2115.4048 9412275
503.13855 1058.2023 2114.502 9346481
514.47382 1055.7571 2109.6162 9543604
526.28564 1054.3826 2106.8696 9806518
538.14575 1053.1665 2104.4395 9674931
549.77258 1051.5591 2101.2278 9478323
562.98639 1052.9912 2104.0894 9412273
576.16559 1054.2979 2106.7002 9609652
587.8584 1052.887 2103.8811 9214894
600.07147 1052.4471 2103.0022 9281202
612.75891 1052.8402 2103.7876 9215666
625.84149 1053.8831 2105.8713 9215667
636.30261 1050.5569 2099.2251 9281203
649.93225 1052.4894 2103.0867 9281203
662.15741 1052.1177 2102.3438 9215409
674.88904 1052.5494 2103.2065 9281202
687.43835 1052.6864 2103.4802 9281203
699.29358 1051.7745 2101.6582 9478069
710.98138 1050.6472 2099.4055 9346480
722.8111 1049.7646 2097.6421 9346480
732.7005 1046.1417 2090.4026 9214894
744.06635 1044.712 2087.5459 9280687
759.20624 1048.5416 2095.198 9478322
772.3562 1049.5438 2097.2007 9544369
785.26691 1050.1945 2098.5007 9281197
799.84448 1053.019 2104.145 9280943
810.6911 1050.9205 2099.9517 9280687
823.09656 1050.8757 2099.8621 8951721
835.40808 1050.714 2099.5391 9214378
847.8725 1050.7465 2099.604 9280171
859.3913 1049.6233 2097.3596 9477550
873.6413 1051.8203 2101.7495 9543342
885.07086 1050.6074 2099.3262 9477292
898.60272 1051.8893 2101.8875 9345706
911.28821 1052.1587 2102.4258 9214121
919.54553 1047.3772 2092.8713 9213861
936.56555 1052.571 2103.2498 9279399
948.43079 1051.9111 2101.9312 9213603
961.62549 1052.7239 2103.5552 8884637
970.84546 1049.2202 2096.5542 8554902
984.32825 1050.3539 2098.8193 9081502
995.51904 1049.0438 2096.2017 9015709
1003.7221 1044.6566 2087.4353 9213087
1022.0664 1050.8026 2099.7161 9015708
1034.0975 1050.3881 2098.8877 8949915
1047.3228 1051.182 2100.4741 9147294
1059.1799 1050.6001 2099.3115 9410466
1071.3315 1050.3206 2098.7529 9542052
1082.3038 1048.9045 2095.9233 9344672
1096.6543 1050.7573 2099.6255 9081503
1109.4564 1051.1017 2100.3137 9673640
1124.6538 1053.6825 2105.4707 9542053
1136.0549 1052.689 2103.4854 9476516
1146.382 1050.7327 2099.5762 9805737
1161.5242 1053.1842 2104.4751 9739946
1167.8718 1047.6943 2093.5051 10003117
1177.4778 1045.212 2088.5449 10134703
1191.3268 1046.5084 2091.1355 10266546
1203.1647 1046.0299 2090.1792 10529459
1215.1267 1045.6678 2089.4558 10529203
1228.5312 1046.5421 2091.2026 10858425
1242.1454 1047.5754 2093.2676 10792888
1253.2971 1046.5323 2091.1831 10727353
1265.7426 1046.5793 2091.2771 10990525
1278.2346 1046.6635 2091.4453 10661816
1288.3407 1044.8112 2087.7439 10990524
1300.7939 1044.8795 2087.8804 11187903
1311.7971 1043.7926 2085.7087 11319233
1322.2996 1042.3314 2082.7888 11253696
1332.2618 1040.4752 2079.0798 11253695
1348.8331 1043.7673 2085.6582 11385024
1368.0922 1049.0607 2096.2354 11384765
1369.0464 1040.3489 2078.8274 11187386
1387.2654 1044.795 2087.7117 11582656
1393.0553 1039.8846 2077.8997 11648962
1406.0833 1040.4159 2078.9612 11780545
1432.7362 1050.932 2099.9746 12372169
1436.9626 1044.9586 2088.0386 12240069
1454.4355 1048.6377 2095.3901 12437446
1469.2382 1050.3457 2098.803 9871519
1485.277 1052.9011 2103.9094 10464684
1499.4224 1054.0833 2106.2715 8819604
1515.1466 1056.3464 2110.7937 8029318
1517.5641 1049.3712 2096.856 8226439
1531.4908 1050.4031 2098.9177 6186341
1539.2366 1047.2131 2092.5437 4936017
1559.0103 1052.192 2102.4924 3159092
1573.8895 1053.8147 2105.7349 2237218
1562.9185 1038.2397 2074.6128 4277061
1573.9364 1037.4009 2072.9368 1973531
1580.6282 1033.746 2065.6333 328451
1589.0317 1031.2578 2060.6616 3025451
1599.6139 1030.2108 2058.5696 65793
1614.6803 1032.0459 2062.2363 1380113
1622.4167 1029.2035 2056.5566 921101
1644.4713 1035.4187 2068.9758 5986644
1642.6761 1026.6362 2051.4268 6840925
1662.2545 1031.2429 2060.6318 985860
1659.5574 1022.0634 2042.2894 2564889
1675.863 1024.6355 2047.4288 3288867
1687.4915 1024.3314 2046.8212 3355687
1711.8313 1031.6925 2061.5303 6580310
1713.3723 1025.3063 2048.7693 3222819
1749.6718 1039.6635 2077.4578 3618351
1741.3344 1027.4819 2053.1167 2960679
1740.0645 1019.6107 2037.3884 2236954
1758.6099 1023.3791 2044.9182 1315851
1757.9275 1015.9832 2030.1396 1644045
1753.4243 1006.4944 2011.1794 3617578
1765.7682 1006.7392 2011.6685 2103826
1786.697 1011.8424 2021.8657 1643019
1794.3613 1009.4158 2017.0168 1116676
1805.3246 1008.8648 2015.9159 1182468
1815.8195 1008.061 2014.3097 1050628
1816.5563 1001.8858 2001.9703 1577226
1832.485 1004.1152 2006.4253 2958879
1835.3989 999.23035 1996.6643 3353379
1847.8857 999.58636 1997.3756 2498324
1859.3441 999.38513 1996.9735 2563348
1865.8704 996.55206 1991.3125 1971211
1853.845 983.90863 1966.0483 3945257
1857.9374 979.92383 1958.0861 4076844
1864.97 977.52985 1953.3021 3287841
0 0 0 0
0 0 0 0
0 0 0 0
0 0 0 0
0 0 0 0
0 0 0 0
0 0 0 0
0 0 0 0
0 0 0 0
0 0 0 0
-1852.3574 1070.995 2115.0271 10716024
-1840.3409 1071.2937 2115.6172 10584438
-1842.7043 1080.0249 2132.8596 10321008
-1814.7631 1070.9921 2115.0215 9926508
-1805.2374 1072.7773 2118.5471 10321266
-1803.3613 1079.1653 2131.1621 10518388
-1784.4315 1075.3661 2123.6594 9597801
-1781.4144 1081.1707 2135.1223 9926509
-1760.6725 1076.2238 2125.353 9663592
-1800.8844 1108.7324 2189.552 8940382
-1803.4469 1118.3654 2208.5754 7427142
-1799.7603 1124.2357 2220.1682 7756107
-1780.7668 1120.5603 2212.9102 7690314
-1762.1324 1117.0581 2205.9939 7295045
-1763.261 1126.1255 2223.9001 7755853
-1749.5377 1125.7726 2223.2034 8019025
-1736.2533 1125.6989 2223.0579 7229508
-1731.4568 1131.1693 2233.8608 8216404
-1720.2819 1132.5247 2236.5376 7163971
-1707.9507 1133.1342 2237.7412 6636600
-1702.4031 1138.2889 2247.9209 6702651
-1685.245 1135.7006 2242.8093 6702395
-1666.9049 1132.2681 2236.0308 6110258
-1655.8163 1133.7456 2238.9487 6110258
-1655.5232 1142.6986 2256.6294 5847087
-1634.6045 1137.4452 2246.2546 6176307
-1614.9946 1133.0233 2237.5225 6702396
-1605.6149 1135.765 2242.9368 5518891
-1578.8339 1126.1406 2223.9302 5782064
-1566.6504 1126.8539 2225.3386 6966340
-1552.7045 1126.3008 2224.2463 6901060
-1540.6021 1127.0868 2225.7988 6703682
-1525.2549 1125.4922 2222.6497 7887955
-1497.4371 1114.5876 2201.115 5848116
-1519.6135 1141.0304 2253.335 4532256
-1495.3329 1132.7495 2236.9817 6637375
-1476.897 1128.7878 2229.158 6900547
-1478.361 1140.1012 2251.5 6966597
-1458.6675 1135.1558 2241.7334 6768704
-1452.2426 1140.5397 2252.366 6966342
-1422.7976 1127.7771 2227.1619 6176569
-1405.0256 1124.1146 2219.9292 7031622
-1385.7628 1119.1787 2210.1816 6308669
-1375.8239 1121.7509 2215.2612 6703427
-1340.2794 1103.2946 2178.8132 6966599
-1348.7059 1121.0272 2213.8323 6111289
-1346.1443 1129.8855 2231.3257 6045497
-1333.1591 1130.0835 2231.7168 6308666
-1334.9609 1142.9457 2257.1172 6769218
-1313.7817 1136.1936 2243.783 5782322
-1306.7198 1141.6372 2254.5332 7821902
-1291.8882 1140.3348 2251.9614 6965568
-1268.5648 1131.4319 2234.3794 6373688
-1256.1089 1132.1357 2235.7695 5979188
-1247.9303 1136.751 2244.8838 6373946
-1228.5502 1131.1522 2233.8271 6308410
-1219.8125 1135.3369 2242.0911 6637373
-1196.8317 1126.2109 2224.0691 7163719
-1187.1335 1129.5199 2230.6038 7229511
-1172.6708 1128.3188 2228.2319 6242615
-1159.2816 1128.1354 2227.8694 6176821
-1146.2267 1128.2766 2228.1484 7492682
-1138.6815 1133.9078 2239.269 6703165
-1123.4969 1131.9747 2235.4514 6900287
-1112.3489 1134.111 2239.6702 6966337
-1098.6284 1133.6444 2238.7488 6308150
-1082.3574 1130.5024 2232.5439 7097923
-1070.386 1131.8291 2235.1638 6966080
-1052.3934 1126.7426 2225.1189 7295302
-1032.4396 1119.4005 2210.6196 7426888
-1028.6875 1129.6617 2230.8838 6966852
-1018.9218 1133.5002 2238.4641 7427146
-1004.7589 1132.4839 2236.457 7164489
-985.1358 1125.204 2222.0803 7493713
-974.9325 1128.6315 2228.8491 8349024
-964.47272 1131.8522 2235.2095 8348510
-951.5802 1132.2679 2236.0305 7097930
-936.31146 1129.828 2231.2122 7427151
-922.10138 1128.614 2228.8147 8150874
-908.68524 1128.3506 2228.2944 8348253
-899.77582 1133.7582 2238.9734 8940133
-882.1969 1128.2399 2228.0759 8875368
-869.58978 1129.0093 2229.5952 8348767
-849.17627 1119.5106 2210.8372 9400684
-837.84381 1121.874 2215.5044 7097671
-830.00287 1129.0623 2229.7 5978676
-813.0014 1123.8202 2219.3477 6175801
-801.07831 1125.5411 2222.7463 8413020
-779.69012 1113.7985 2199.5566 7361104
-769.86804 1118.46 2208.7622 7954013
-755.43921 1116.4741 2204.8406 8086370
-737.96161 1109.8335 2191.7263 8086371
-721.03149 1103.793 2179.7974 7757663
-705.1308 1099.1368 2170.6023 5324353
-695.54736 1104.3376 2180.8733 7364964
-689.27783 1115.0967 2202.1204 6510687
-682.05786 1124.7035 2221.092 5328213
-672.82806 1131.3088 2234.1365 5986143
-652.25714 1118.7274 2209.2905 6775403
-641.48163 1122.7755 2217.2847 5591129
-629.98627 1125.7065 2223.073 5197141
-615.18555 1122.7305 2217.1958 4671055
-606.48999 1131.0096 2233.5457 3618883
-591.61163 1127.8711 2227.3477 3816521
-580.60724 1132.1432 2235.7842 4079692
-562.68695 1122.8145 2217.3616 5264221
-545.17926 1113.8828 2199.7231 6185066
-525.74835 1100.4879 2173.2705 5264741
-512.06714 1098.7578 2169.854 9212319
-498.86627 1097.9961 2168.3496 7106429
-485.15674 1096.0447 2164.4961 7434624
-471.90881 1095.0586 2162.5486 7697539
-459.6991 1096.4938 2165.3828 8289677
-446.8273 1096.387 2165.1719 8290450
-433.04968 1093.9854 2160.4292 8817567
-419.99863 1093.3289 2159.1326 8357530
-405.72577 1089.3506 2151.2764 7305357
-390.31284 1081.9541 2136.6697 8358302
-378.89209 1085.4991 2143.6704 9344682
-364.19583 1079.5804 2131.9819 9410732
-352.94702 1083.8228 2140.3599 9674416
-339.59488 1081.6818 2136.1318 10858691
-326.23813 1079.3597 2131.5461 11056584
-315.05011 1084.3149 2141.3318 11254220
-300.23773 1076.6885 2126.271 11123917
-286.40536 1072.0625 2117.1355 11255758
-274.00528 1072.6196 2118.2356 11518930
-261.76138 1073.871 2120.7068 11256015
-249.62289 1075.7026 2124.324 11322065
-237.0054 1075.5552 2124.0327 11388114
-223.54498 1071.3512 2115.7307 11322063
-210.14056 1066.9323 2107.0039 11124944
-197.5636 1066.4216 2105.9956 11190737
-184.98943 1065.8583 2104.8831 11255760
-172.86502 1067.9922 2109.0972 11189966
-160.29596 1067.4974 2108.1201 11255761
-147.34978 1064.1953 2101.5991 10926797
-135.01648 1065.1189 2103.4229 10926540
-122.49896 1064.6289 2102.4553 10992079
-109.80659 1062.3365 2097.9282 10794443
-97.44384 1063.0549 2099.3469 10794700
