# .PCD v0.7 - Point Cloud Data file format
VERSION 0.7
FIELDS x y z rgb
SIZE 4 4 4 4
TYPE F F F U
COUNT 1 1 1 1
WIDTH 1272
HEIGHT 1
VIEWPOINT 0 0 0 1 0 0 0
POINTS 1272
DATA ascii
3446.3594 984.65723 4965.1343 4010793
3527.8545 999.41125 5039.5312 3813412
3546.8169 996.3512 5024.1011 4668465
3636.2439 1012.972 5107.9111 5326652
3671.864 1014.4528 5115.3779 5129273
3626.7483 993.78638 5011.168 5852996
3677.1506 999.41663 5039.5581 5458240
3733.5898 1006.5835 5075.6978 5524290
3696.3533 988.58264 4984.9282 4997946
3782.4685 1003.5958 5060.6318 5326911
3718.6846 978.91321 4936.1699 4208428
3827.4583 999.68561 5040.9146 3813671
3772.5542 977.7168 4930.1372 4208428
3793.1899 975.51233 4919.021 3155484
3830.4917 977.59497 4929.5229 2234126
3861.7397 978.11292 4932.1343 2563090
3902.3015 980.96423 4946.5122 2365709
3922.3264 978.64893 4934.8374 3418654
4005.6001 992.03217 5002.3223 3747619
3979.3765 978.2998 4933.0767 4866359
4020.2925 981.15302 4947.4644 2760727
4130.9746 1000.8682 5046.8779 2629399
4095.5554 985.15643 4967.6514 1510917
4029.6494 962.38776 4852.8403 1839625
4074.063 966.10236 4871.5713 2234382
4075.0327 959.5351 4838.4556 3352864
4113.2075 961.75891 4849.6694 2168589
4123.7461 957.53461 4828.3687 5129273
4083.3506 941.62329 4748.1353 4339758
4093.7195 937.55573 4727.625 4010793
4185.1191 951.97528 4800.3354 4405551
4197.1382 948.26575 4781.6299 4339759
4223.314 947.7829 4779.1953 4602931
4250.0664 947.43506 4777.4414 3550243
4272.9688 946.23907 4771.4106 3747622
4271.3784 939.67065 4738.2896 3681829
4360.9194 953.10547 4806.0342 4471345
4448.5986 965.96155 4870.8613 4339759
4352.1167 938.92126 4734.5107 4734773
4365.2529 935.72479 4718.3921 3221278
4343.981 925.24017 4665.5239 3484450
4344.0039 919.3952 4636.0503 3155485
4386.6094 922.57959 4652.1074 3813415
4446.9727 929.43549 4686.6787 3615779
4440.8477 922.3963 4651.1836 3221535
0 0 0 0
0 0 0 0
0 0 0 0
0 0 0 0
-5511.8667 1235.2352 6048.0024 1315084
-5718.3462 1289.8931 6315.6201 2433308
-6125.5913 1390.8562 6809.959 8751493
-6456.0298 1475.6029 7224.8994 3750969
-6564.4976 1510.4081 7395.3135 789775
-6033.8589 1397.6428 6843.188 3
-6043.1631 1409.2666 6900.1011 3
-6080.7524 1427.6898 6990.3052 0
-5841.9038 1381.0161 6761.7798 3486784
-5835.9404 1389.1318 6801.5161 1249820
-5932.0508 1421.8258 6961.5938 12
-5768.3687 1392.2732 6816.8975 13
-5951.7632 1446.6663 7083.2183 4606301
-5919.4253 1449.0222 7094.7539 7173519
-5681.96 1400.8396 6858.8403 3291213
-5596.6304 1389.7406 6804.4971 11846353
-5776.1123 1444.7151 7073.665 0
-5764.4907 1452.3452 7111.0239 5391680
-5788.5757 1469.1499 7193.3037 5655096
-5814.1499 1486.5848 7278.6694 6115639
-5676.4058 1462.2103 7159.3257 5655089
-5678.6924 1473.8115 7216.1279 5457970
-5668.79 1482.4011 7258.1851 5129005
-5625.7905 1482.4011 7258.1851 5130031
-5585.3232 1483.0735 7261.4766 4932396
-5549.4941 1484.9973 7270.896 5919291
-5454.2432 1470.926 7202 5985341
-5329.0664 1448.4988 7092.1909 5919802
-5244.6108 1436.8715 7035.2607 5656631
-5221.7915 1442.0797 7060.7617 4537893
-5304.0791 1476.6334 7229.9448 4274465
-5235.9409 1469.531 7195.1694 4603173
-5228.5308 1479.4957 7243.959 4537381
-5197.5928 1482.9128 7260.6904 3616023
-5146.6851 1480.6418 7249.5708 4405539
-5042.0869 1462.7566 7162.0005 5261106
-4951.7607 1448.7434 7093.3887 5721914
-4958.7793 1463.2144 7164.2417 5655864
-4881.9644 1452.9843 7114.1528 5721914
-4783.8828 1436.1915 7031.9316 5721912
-4739.0791 1435.2391 7027.2686 5590583
-4627.292 1413.804 6922.3169 5458997
-4697.1567 1447.9829 7089.665 5261618
-4657.3872 1448.6769 7093.063 3682587
-4653.0918 1460.5181 7151.0405 4143137
-4500.7017 1425.6659 6980.3955 5327410
-4426.48 1415.1578 6928.9458 6051390
-4295.5742 1386.1614 6786.9722 5853752
-4253.6763 1385.6108 6784.2764 5985339
-4234.6504 1392.571 6818.3555 5130286
-4120.6865 1368.1443 6698.7563 5656373
-4166.314 1396.7452 6838.793 5393200
-4159.7026 1408.2228 6894.9897 5655863
-4125.8145 1410.6021 6906.6396 5722165
-4035.106 1393.4078 6822.4526 5393200
-4006.3594 1397.479 6842.3857 6116924
-3839.0061 1352.7909 6623.5825 5722166
-3778.0439 1345.0573 6585.7168 6182717
-3724.6794 1339.8953 6560.4429 5393201
-3832.8296 1393.3396 6822.1187 5327407
-3781.929 1389.4874 6803.2578 4735016
-3794.9019 1409.2725 6900.1294 4800809
-3774.6948 1417.0321 6938.123 5590326
-3740.053 1419.4844 6950.1299 5194543
-3697.906 1419.1113 6948.3027 5457715
-3630.9438 1409.099 6899.2808 5260848
-3633.165 1426.0135 6982.0981 5063469
-3495.3479 1387.7196 6794.6021 5129776
-3510.6428 1410.03 6903.8389 4274467
-3454.9673 1404.0255 6874.4395 3616281
-3449.9873 1418.7251 6946.4121 3024144
-3400.3352 1415.1875 6929.0908 4273440
-3389.4102 1427.8783 6991.228 4273439
-3323.2236 1417.3145 6939.5054 4340259
-3282.1929 1417.3492 6939.6753 4735019
-3197.2561 1398.1844 6845.8403 6116672
-3046.9968 1349.5942 6607.9307 4537896
-3082.0005 1382.8649 6770.832 4077088
-3066.1792 1393.9076 6824.8994 5064240
-2951.9827 1359.9257 6658.5161 6116672
-2882.4478 1345.8768 6589.7295 5788218
-2871.9263 1359.375 6655.8198 4998449
-2840.9407 1363.4279 6675.6641 4866862
-2910.7544 1416.6541 6936.2715 5721658
-2767.9734 1366.4536 6690.4785 5590328
-2777.7292 1391.1909 6811.5977 4998449
-2791.1099 1418.4998 6945.3086 3089940
-2743.0715 1414.9442 6927.8999 4668967
-2558.4001 1339.7316 6559.6411 4405537
-2532.4895 1346.6176 6593.3564 4405794
-2536.0632 1369.6428 6706.0938 5722168
-2569.8274 1409.9653 6903.5225 6182977
-2418.9753 1348.6624 6603.3682 6117185
-2481.1741 1406.0795 6884.4961 6380103
-2302.6611 1326.725 6495.9575 5524794
-2309.8191 1353.4691 6626.9033 5656380
-2176.0669 1297.1423 6351.1138 4472107
-2146.8086 1302.2177 6375.9644 4866608
-2119.8538 1308.8972 6408.6689 4010529
-2114.063 1329.1263 6507.7153 4866094
-2080.1394 1332.0908 6522.2305 3944736
-2039.4727 1330.7679 6515.7529 3287576
-1987.2321 1321.6962 6471.3354 3814176
-1973.7148 1338.5289 6553.7524 4472106
-1877.2454 1298.6519 6358.5049 4866864
-1827.495 1290.1232 6316.7466 6906447
-1810.6577 1304.9586 6389.3848 4866863
-1785.5885 1314.368 6435.4556 6248771
-1721.5459 1294.8741 6340.0083 6248773
-1725.9948 1327.1758 6498.165 5064501
-1700.0778 1337.0695 6546.6064 4801332
-1612.8788 1298.1029 6355.8169 6446413
-1603.2306 1321.1813 6468.814 5525054
-1549.2987 1308.0031 6404.291 5064503
-1525.1073 1319.9022 6462.5518 4603952
-1469.5892 1304.6044 6387.6499 6643535
-1417.8184 1291.9122 6325.5063 5854275
-1392.343 1303.1421 6380.4902 5985604
-1385.6683 1333.0857 6527.1011 4867124
-1375.0731 1360.8685 6663.1328 3814179
-1311.0493 1335.8541 6540.6562 3814436
-1278.0795 1341.9213 6570.3623 5130296
-1231.3514 1333.4703 6528.9849 4932405
-1186.7903 1326.894 6496.7856 1709062
-1170.7939 1352.8842 6624.0391 3616800
-1090.1622 1303.3989 6381.748 4406314
-1067.1641 1321.7405 6471.5522 5788223
-1013.5119 1302.0675 6375.2285 5327673
-972.41351 1297.6237 6353.4707 5393724
-928.9931 1289.5986 6314.1782 5064504
-869.19287 1257.2083 6155.5874 6315085
-830.01398 1253.1141 6135.542 5854790
-803.71033 1268.9736 6213.1934 5722691
-758.29547 1254.7327 6143.4663 4143405
-724.60284 1259.4303 6166.4668 6380365
-691.43042 1265.5786 6196.5708 6248779
-651.82715 1259.9857 6169.1865 5130552
-607.68304 1244.4294 6093.0195 4932660
-582.71515 1268.6581 6211.6484 4669488
-551.41644 1281.4406 6274.2349 4801332
-514.81232 1282.8507 6281.1392 5524799
-470.96292 1265.0195 6193.8335 5064505
-426.4512 1242.2456 6082.3271 5525054
-394.19125 1254.2511 6141.1084 4932918
-361.63245 1267.6504 6206.7144 4472882
-322.60516 1258.8422 6163.5874 8025960
-281.74283 1239.7109 6069.9165 6710100
-246.71544 1244.4127 6092.9375 6578513
-211.64127 1250.4497 6122.4956 5723202
-175.43997 1250.947 6124.9312 5460031
-140.2477 1260.7745 6173.0488 6907479
-100.95188 1227.6335 6010.7827 6184013
-66.896828 1256.8331 6153.7505 6117965
-31.278355 1291.4214 6323.103 6775894
6.0143514 1256.5751 6152.4873 6841943
41.724289 1234.7128 6045.4443 5261884
75.488136 1202.0573 5885.5552 5458493
112.23274 1222.5054 5985.6738 3616545
148.02243 1225.2302 5999.0156 4997942
182.92628 1220.9873 5978.2412 5261627
216.31856 1209.668 5922.8188 5195578
250.3273 1204.4745 5897.3901 5722178
284.34244 1200.58 5878.3223 5130299
323.14633 1215.549 5951.6138 6117195
359.49231 1219.2365 5969.6685 2629913
396.43283 1224.0992 5993.478 4932409
430.62549 1220.3754 5975.2446 4669494
465.38351 1218.6975 5967.0298 5327425
502.33203 1222.588 5986.0786 4801595
537.75903 1222.5065 5985.6792 5656904
571.12036 1218.0294 5963.7588 5919819
601.60767 1208.3018 5916.1299 4998714
633.72205 1202.733 5888.8643 4208941
675.55713 1215.2319 5950.0615 4077870
711.53583 1216.4785 5956.165 6249299
752.95337 1226.4666 6005.0688 6775899
790.10303 1228.9152 6017.0581 4998977
823.54828 1225.6392 6001.0181 6709852
862.74432 1230.839 6026.4775 6183764
887.31183 1215.5847 5951.7891 5854800
926.80829 1221.1671 5979.1216 4604733
944.69153 1198.9091 5870.1411 5459783
996.33514 1219.5558 5971.2319 5131074
1027.6385 1214.7429 5947.6675 5130816
1045.4711 1194.8535 5850.2837 5986124
1063.4114 1176.3597 5759.7339 5131842
1114.0321 1194.0435 5846.3179 5131331
1146.7072 1192.0061 5836.3428 5393477
1166.7228 1177.3138 5764.4053 3288103
1197.7218 1174.225 5749.2817 3156002
1238.8007 1180.9158 5782.0415 6380369
1282.6647 1189.8302 5825.6885 4867643
1313.2231 1186.2583 5808.1997 3288100
1326.4568 1167.6184 5716.9346 3617578
1379.6603 1184.2145 5798.1929 5722700
1421.2223 1190.2546 5827.7666 6841438
1417.7938 1159.2229 5675.8281 5854542
1468.4476 1172.8237 5742.4209 3617578
1500.8761 1171.5818 5736.3403 4801851
1515.5443 1156.8381 5664.1519 4078130
1562.2334 1166.646 5712.1733 4143668
1599.9437 1169.4749 5726.0239 2630683
1614.1338 1155.3511 5656.8706 5065024
1626.7738 1140.715 5585.209 2893854
1679.1713 1153.985 5650.1821 3813929
1711.1359 1152.9689 5645.2065 3287842
1730.047 1143.3645 5598.1816 4603956
1736.3357 1125.9365 5512.8501 4603699
1738.1777 1106.3218 5416.8115 5195325
1713.1078 1070.5996 5241.9077 2958627
1640.3312 1006.8663 4929.8545 196609
1653.1863 997.00562 4881.5742 65541
1663.5405 986.00165 4827.6963 65543
1679.7057 978.75574 4792.2188 9
1702.0454 975.28882 4775.2437 10
1721.3232 970.20941 4750.3735 11
1740.308 965.13086 4725.5078 10
1753.9979 957.32324 4687.2798 6
1790.2609 961.88721 4709.626 7499370
1778.3241 940.81128 4606.4336 6117965
1816.5066 946.48718 4634.2236 7367772
1856.6348 952.99249 4666.0757 9803933
1878.8857 950.2655 4652.7236 13422030
1926.498 960.25867 4701.6523 13619409
1944.0819 955.21259 4676.9458 14473183
1921.8049 930.99829 4558.3867 8223870
2038.5801 973.88391 4768.3647 1049126
2062.4851 971.8371 4758.3433 196634
2091.3604 972.15582 4759.9038 525081
2194.9736 1006.7454 4929.2627 4274751
2295.8982 1039.2097 5088.2153 2498587
2346.7388 1048.4565 5133.4897 3616808
2374.7053 1047.3779 5128.209 3879980
2457.4731 1070.1918 5239.9106 3748393
2495.4136 1073.1582 5254.4351 4340014
2530.6643 1074.9092 5263.0083 4340530
2546.48 1068.4629 5231.4458 5327682
2595.4841 1075.9294 5268.0039 5853513
2566.6575 1051.3381 5147.5991 4603704
2671.5527 1081.4554 5295.0605 4472117
2698.092 1079.5229 5285.5986 3288099
2715.7542 1074.1239 5259.1631 2630172
2710.6672 1059.9517 5189.7725 3156002
2690.314 1040.1946 5093.0376 1906450
2711.4717 1036.7478 5076.1611 1511177
2720.8735 1028.931 5037.8882 4142637
2783.2688 1041.1064 5097.5024 2432274
2792.4741 1033.338 5059.4663 3221791
2859.6719 1046.9664 5126.1938 3813670
2877.1992 1042.3143 5103.4165 3550497
2843.6387 1019.4442 4991.4385 4405548
2861.1621 1015.1697 4970.5098 5984325
2904.9705 1020.2135 4995.2056 2695185
2956.0535 1027.6847 5031.7861 2957844
2995.6646 1031.0583 5048.3042 3154967
2972.5486 1012.989 4959.8325 3418138
2973.6519 1003.446 4913.1079 5194034
3016.1938 1007.9359 4935.0913 2957587
3055.2454 1011.1843 4950.9961 3220757
3076.6711 1008.5928 4938.3081 2826001
3094.125 1004.7604 4919.5435 3483931
3143.2576 1011.1906 4951.0273 5721150
3197.9302 1019.2678 4990.5747 4339756
3167.3401 1000.2701 4897.5581 3221275
3141.4287 983.08173 4813.3994 3155484
3210.3315 995.60675 4874.7251 3681828
3228.1216 992.19855 4858.0376 3616292
3278.5198 998.78436 4890.2832 4076842
3318.4258 1002.0864 4906.4507 2563604
3328.4661 996.39069 4878.5635 5919043
3315.6306 984.00409 4817.9155 4668976
3353.4302 986.72791 4831.252 4208168
3391.8909 989.59857 4845.3076 4010534
3404.4114 984.91638 4822.3823 3944998
3483.8997 999.52509 4893.9102 3878948
3437.7593 978.14752 4789.2402 4076328
3391.2551 957.01721 4685.7812 4141609
3454.7551 967.02124 4734.7637 4405551
3469.8916 963.43573 4717.208 4010794
3562.0581 981.12451 4803.8164 5392446
3596.6489 982.80005 4812.0205 5326653
3699.1016 1002.8471 4910.1753 3418399
3711.5256 998.36432 4888.2266 5919046
3662.3462 977.50861 4786.1123 3352863
3612.2163 956.72162 4684.334 4537393
3664.3958 963.14227 4715.7715 4800822
3666.5828 956.42542 4682.8838 3550754
3713.4346 961.37262 4707.1064 4208428
3760.5945 966.3252 4731.3555 4208171
3793.2612 967.50806 4737.147 4800565
3892.0779 985.42157 4824.856 4668980
3857.8135 969.62543 4747.5142 4602931
3818.5947 952.82166 4665.2388 4602930
3809.5334 943.7301 4620.7246 4339758
3824.1831 940.6004 4605.4009 3616035
3867.0564 944.40778 4624.0425 2760726
3950.3425 957.96167 4690.4058 2958106
3961.4648 953.94873 4670.7573 2958105
3967.6414 948.80859 4645.5903 3550242
3949.825 938.04132 4592.8711 5392446
4039.9238 952.87488 4665.4995 4800309
4074.0278 954.38916 4672.9141 4405809
4078.7761 949.05261 4646.7852 3747365
4092.7307 945.91534 4631.4243 3352607
4148.2607 952.36481 4663.0024 1971210
4149.9248 946.44421 4634.0137 2300431
4138.9272 937.73279 4591.3604 2629397
4179.4282 940.72656 4606.0186 4208170
4247.707 949.89331 4650.9014 4799792
4263.8726 947.36322 4638.5132 3944741
4278.5249 944.53149 4624.6484 4734257
4275.6689 937.8952 4592.1553 4273450
4222.0288 920.27338 4505.875 4273452
4189.5078 907.44751 4443.0767 3550243
4183.4111 900.46954 4408.9106 3747622
4272.314 913.89954 4474.6675 3089692
0 0 0 0
0 0 0 0
0 0 0 0
0 0 0 0
-5151.21 1187.8956 5652.2646 4999225
-5437.5918 1262.1414 6005.5415 6051400
-6255.3926 1461.5272 6954.2627 6579033
-6414.3569 1508.6038 7178.2632 8355961
-6403.1128 1516.01 7213.5039 9079939
-6104.9697 1455.1329 6923.8374 7040360
-6175.0991 1481.8043 7050.7456 7501420
-6171.1777 1490.9485 7094.2559 4474427
-5963.6636 1450.693 6902.7119 5987148
-5902.3525 1445.6921 6878.916 6842198
-5832.8379 1438.5983 6845.1621 4473398
-5860.1626 1455.4564 6925.377 4736573
-5954.4165 1489.2925 7086.376 5263437
-5805.5205 1462.3616 6958.2329 4934472
-5719.6938 1451.0458 6904.3896 6184794
-5783.6831 1477.8477 7031.9194 6250074
-5793.4761 1491.0901 7094.9297 7105124
-5402.6479 1400.6631 6664.6582 7301985
-5520.8901 1441.855 6860.6587 6380107
-5479.7251 1441.718 6860.0068 7696473
-5484.5781 1453.7769 6917.3848 7893338
-5360.5586 1431.6001 6811.8633 5656119
-5377.7822 1447.0938 6885.5854 6248256
-5245.2905 1422.2299 6767.2773 5524790
-5242.0566 1432.3004 6815.1953 5853497
-5192.52 1429.7776 6803.1914 5919802
-5087.4209 1411.7964 6717.6328 5919547
-5036.1333 1408.5825 6702.3408 6314305
-4933.4941 1390.8406 6617.9209 6182720
-5032.5562 1430.1331 6804.8828 5919547
-4915.9595 1408.2802 6700.9019 7235151
-5037.4155 1454.8219 6922.3579 5919291
-4822.0698 1404.0598 6680.8208 6445637
-4939.4321 1450.135 6900.0566 5195570
-4951.6548 1465.8545 6974.8535 4866604
-4875.125 1455.3438 6924.8408 4406054
-4795.2026 1443.6332 6869.1191 5195313
-4760.1196 1445.3369 6877.2261 6116672
-4545.978 1392.2323 6624.543 5787706
-4517.7695 1395.6418 6640.7661 5525305
-4368.2339 1361.3013 6477.3662 6051391
-4391.0444 1380.5375 6568.8965 6709321
-4392.5449 1393.3578 6629.8984 6182978
-4390.2422 1405.1923 6686.209 7104337
-4365.563 1410.0149 6709.1562 6643530
-4184.1973 1363.8536 6489.5107 6051391
-4214.8623 1386.5892 6597.6919 5854012
-4131.3193 1371.8271 6527.4507 5722169
-4136.063 1386.3792 6596.6924 5326898
-4086.0652 1382.6848 6579.1138 4603685
-4052.6226 1384.5753 6588.1094 5853752
-4046.5842 1395.9563 6642.2627 5656116
-3974.0713 1384.4037 6587.293 5919544
-3809.0186 1340.0653 6376.3213 5195821
-3792.7549 1347.709 6412.6914 5261615
-3792.863 1361.3838 6477.7588 4998442
-3773.3303 1368.2164 6510.27 5788215
-3724.0083 1364.2767 6491.5239 6314048
-3687.0308 1364.8245 6494.1304 4932396
-3663.8044 1370.5277 6521.2676 3287570
-3551.29 1342.5964 6388.3643 3352595
-3535.0632 1350.8578 6427.6738 3352851
-3538.8779 1367.041 6504.6772 3813402
-3536.6753 1381.2306 6572.1943 3484439
-3496.9683 1380.9258 6570.7437 5392436
-3409.8984 1361.7003 6479.2651 5392178
-3387.0215 1367.9636 6509.0674 4603176
-3341.5571 1365.1434 6495.6479 5721400
-3308.0791 1367.2113 6505.4878 5524277
-3306.658 1382.7333 6579.3442 5129775
-3352.76 1418.735 6750.6484 4998445
-3194.4473 1368.0627 6509.5391 5393205
-3179.6797 1378.3785 6558.6235 5195827
-3133.2307 1375.0457 6542.7651 4406055
-3073.3054 1365.6411 6498.0161 3945248
-3050.4375 1372.6736 6531.478 3615769
-2943.0635 1341.371 6382.5337 3681561
-2894.1609 1336.2501 6358.1675 4998448
-2897.488 1355.427 6449.4155 5787707
-2897.2261 1373.4153 6535.0068 5261874
-2846.1938 1367.4971 6506.8472 5459256
-2813.0015 1370.1056 6519.2593 4406567
-2775.5012 1370.6593 6521.894 3880225
-2750.3799 1377.4282 6554.1021 5064243
-2669.8877 1356.2634 6453.3955 7169875
-2615.4646 1347.9189 6413.6899 4866864
-2606.9844 1363.3545 6487.1357 4603692
-2557.406 1357.4377 6458.9829 4406569
-2489.292 1341.3533 6382.4497 6511943
-2433.8499 1331.7063 6336.5474 5327925
-2399.5999 1333.5343 6345.2451 7828318
-2419.094 1365.7629 6498.5962 5196343
-2368.2319 1358.6702 6464.8472 4866864
-2303.2986 1343.139 6390.9463 6380361
-2234.6772 1324.902 6304.1704 5327416
-2151.9429 1297.5354 6173.9546 5721916
-2081.8054 1276.9492 6076.001 4537642
-2063.6865 1288.1074 6129.0938 4208163
-2017.7271 1281.9767 6099.9224 5787707
-2026.8123 1311.233 6239.1309 4932400
-1975.4373 1301.7355 6193.9395 5787709
-1927.8276 1294.4066 6159.0669 6116932
-1918.3977 1312.9246 6247.1797 5459001
-1892.0709 1320.3795 6282.6519 3879714
-1834.734 1306.0593 6214.5127 4011556
-1796.7582 1305.2169 6210.5049 3748384
-1724.772 1279.1166 6086.314 4932400
-1707.6302 1293.4438 6154.4858 5985601
-1657.4591 1282.8322 6103.9932 6183237
-1637.6494 1295.7701 6165.5552 5854273
-1593.658 1289.7288 6136.8086 6446668
-1533.642 1270.1338 6043.5713 6775891
-1493.6456 1266.5782 6026.6538 6578511
-1448.116 1258.0417 5986.0352 5591100
-1422.4448 1266.7616 6027.5259 5920065
-1390.4819 1270.1831 6043.8062 5327417
-1355.5781 1271.0278 6047.8257 5195831
-1315.3774 1266.8173 6027.791 4274987
-1294.0139 1281.0197 6095.3691 4538159
-1289.172 1312.8628 6246.8853 6314572
-1263.1494 1324.3807 6301.6899 4603953
-1190.1733 1285.8712 6118.4536 4340779
-1153.1067 1284.9579 6114.1079 4998451
-1103.0116 1268.9965 6038.1602 4274727
-1063.5581 1264.6183 6017.3276 4735022
-1043.0022 1283.1858 6105.6758 3879457
-996.99109 1270.6453 6046.0054 4998452
-963.16376 1273.2769 6058.5269 6116933
-923.46466 1268.0492 6033.6528 3485214
-884.22473 1263.0566 6009.897 4603953
-838.14594 1247.4662 5935.7144 5985607
-802.11969 1246.1276 5929.3447 5920327
-767.45367 1246.8761 5932.9067 6183500
-739.86743 1259.7511 5994.1685 3551267
-702.70508 1256.7972 5980.1138 4011817
-660.38959 1243.8241 5918.3843 5524797
-636.86597 1266.7745 6027.5874 5261368
-575.00696 1211.67 5765.3887 4406573
-547.86987 1227.3932 5840.2026 4932917
-515.24475 1232.1127 5862.6592 5130298
-484.76181 1243.0073 5914.4976 5196091
-452.6991 1251.233 5953.6377 3420195
-421.67181 1263.9525 6014.1602 3090973
-380.51477 1245.8539 5928.0425 4143916
-337.26236 1216.5166 5788.4497 3485985
-304.04327 1220.8251 5808.9502 4867126
-271.48254 1229.2142 5848.8672 6182986
-238.80995 1239.4774 5897.7021 5393469
-201.03415 1222.2323 5815.646 4735282
-168.72243 1237.9447 5890.4092 4998452
-128.73601 1190.8575 5666.3579 4866355
-100.58469 1258.6479 5988.9194 3813410
-65.826279 1272.5927 6055.2715 4142377
-30.349863 1289.4333 6135.4028 3419166
5.8582315 1259.4597 5992.7817 3024152
40.611935 1236.6555 5884.2749 3156508
74.169632 1215.3201 5782.7563 4472366
109.71216 1229.7139 5851.2446 4932916
143.57944 1222.9269 5818.9512 3156249
177.96159 1222.3044 5815.9893 4341296
215.45264 1239.7733 5899.1099 6117963
245.3963 1214.9978 5781.2227 6512210
277.35767 1205.0574 5733.9238 6841176
310.49014 1201.8191 5718.5156 5130302
344.7724 1203.2307 5725.2324 4472116
376.60831 1196.6165 5693.7603 4603959
415.78119 1212.4855 5769.2686 3222564
447.07956 1204.7247 5732.3413 2762013
480.43045 1203.2001 5725.0864 6512216
509.50745 1191.8787 5671.2163 5196612
543.45648 1192.6499 5674.8867 5656905
582.216 1203.2733 5725.4351 3682599
610.51038 1192.2892 5673.1699 4142893
656.20526 1214.6603 5779.6167 2038805
685.09741 1205.2527 5734.853 5328195
716.70972 1201.2931 5716.0127 5986124
756.69153 1211.0864 5762.6113 5327941
806.95831 1235.7847 5880.1309 5591113
833.64172 1223.8176 5823.189 6248788
843.02454 1188.4127 5654.7251 6644573
907.96887 1231.0459 5857.583 5985874
924.57935 1207.4203 5745.1675 2103828
958.633 1207.443 5745.2754 3617579
983.62457 1196.4414 5692.9272 4670266
1011.0219 1188.9984 5657.5117 5065023
1046.8645 1191.6464 5670.1113 6512469
1072.0261 1182.3495 5625.875 5525830
1107.4658 1184.6073 5636.6177 5657415
1151.172 1195.3163 5687.5737 5657160
1170.5833 1180.9071 5619.0117 5131075
1216.2511 1193.0505 5676.7925 5920593
1236.6328 1180.4041 5616.6182 6775645
1282.0088 1191.653 5670.1426 4999491
1311.5117 1187.95 5652.5229 5130820
1341.09 1184.4977 5636.0962 5130820
1372.8622 1183.104 5629.4648 4736063
1394.2208 1173.0149 5581.459 5722958
1413.9752 1162.075 5529.4043 4867647
1454.647 1168.4321 5559.6528 5525834
1485.2635 1166.6096 5550.9814 5065026
1531.0599 1176.5311 5598.1899 4473146
1543.1143 1160.6527 5522.6372 6183763
1541.0615 1135.0436 5400.7827 5986383
1559.5459 1125.2946 5354.395 5525833
1612.4026 1140.2413 5425.5151 4604218
1667.3363 1156.0438 5500.707 4866618
1632.3997 1110.1238 5282.209 4142895
1666.3027 1111.8652 5290.4956 3879979
1715.9167 1123.8324 5347.438 3748142
1647.655 1059.563 5041.6299 196608
1602.9347 1012.4514 4817.4629 196612
1629.4218 1011.1775 4811.4014 65544
1646.9561 1004.4871 4779.5669 9
1667.217 999.65784 4756.5884 9
1688.1471 995.38361 4736.2505 10
1709.0471 991.23163 4716.4946 8
1726.3097 985.13763 4687.498 4
1742.5142 978.64221 4656.5913 3552822
1752.1482 968.71661 4609.3633 6380888
1788.9347 973.87714 4633.9185 6709341
1825.7731 978.90961 4657.8638 4537656
1863.0488 984.02313 4682.1953 262669
1927.6215 1003.1928 4773.4087 13354696
1895.0516 971.98328 4624.9067 13750734
1940.4612 981.08923 4668.2354 13816019
1967.2411 980.65271 4666.1582 13749713
1908.7727 938.32166 4464.7373 13684434
2057.2532 997.48981 4746.2725 14079189
2052.5488 981.78998 4671.5693 14079446
2084.0725 983.60632 4680.2119 13750227
2170.3374 1010.8713 4809.9448 1
2147.2778 987.17004 4697.1689 2696485
2234.4399 1014.0992 4825.3037 3682864
2348.1179 1052.2303 5006.7397 2827807
2403.8457 1063.7655 5061.6265 3419426
2406.1274 1051.6566 5004.0098 4735031
2418.957 1044.3966 4969.4648 5985354
2490.8926 1062.5234 5055.7168 4735030
2519.5479 1061.9773 5053.1177 5195324
2517.3608 1048.5966 4989.4497 4603443
2524.437 1039.3403 4945.4062 4142892
2599.6633 1058.0326 5034.3486 4471857
2587.7402 1041.2346 4954.4199 5524288
2632.071 1047.1945 4982.7778 5327166
2661.7781 1047.2683 4983.1294 4800310
2669.1843 1038.6627 4942.1821 5195580
2686.1357 1033.9178 4919.605 2037258
2733.8657 1040.9948 4953.2783 1905930
2781.8088 1048.0015 4986.6177 2366481
2773.7646 1033.9904 4919.9502 4471857
2804.8867 1034.719 4923.417 4932408
2795.9241 1020.7975 4857.1758 5525315
2831.0344 1023.087 4868.0698 7103831
2817.9224 1008.0793 4796.6597 6314317
2866.7493 1015.308 4831.0557 4142887
2901.7805 1017.5561 4841.7524 4076581
2895.6284 1005.46 4784.1968 3351832
2952.1064 1015.1349 4830.2314 3287067
2990.5298 1018.4752 4846.1255 4273706
3018.0076 1018.0597 4844.1484 3812897
3044.5112 1017.3265 4840.6597 3747619
3053.6013 1010.8425 4809.8076 4471342
3023.4912 991.62189 4718.3516 5590079
3101.6404 1007.9341 4795.9688 3089690
3103.1191 999.26099 4754.7002 3220761
3188.252 1017.4397 4841.1982 2892053
3165.75 1001.2519 4764.1733 3615776
3137.7554 983.62836 4680.3169 3352347
3202.0442 994.98956 4734.3755 3220761
3227.8257 994.2915 4731.0542 3154968
3223.8198 984.50873 4684.5059 4142377
3293.4307 997.1828 4744.8115 4471342
3293.2673 988.69476 4704.4238 4471599
3293.9912 980.61346 4665.9712 4866100
3275.1936 966.9035 4600.7363 4010277
3323.9055 973.18549 4630.6274 3813155
3363.5203 976.7229 4647.459 3221275
3343.2615 962.95764 4581.9609 3945000
3367.1614 962.03058 4577.5498 4405551
3417.5291 968.62006 4608.9038 4076586
3471.1562 976.02155 4644.1221 4668723
3530.2612 984.83478 4686.0571 5326654
3583.123 991.78247 4719.1157 5786947
3553.9819 976.1004 4644.4971 4076585
3565.6604 971.78424 4623.96 2958104
3515.9648 950.93475 4524.7534 3550240
3543.4761 951.12408 4525.6543 3155225
3579.6782 953.62592 4537.5586 4010534
3714.7239 982.22595 4673.644 4602929
3710.1812 973.76685 4633.3936 4405551
3740.3196 974.46747 4636.7271 3945257
3751.2163 970.1814 4616.333 4208429
3709.3132 952.40045 4531.7275 2365968
3682.4272 938.70306 4466.5527 2629140
3684.3225 932.48578 4436.9692 5457981
3749.9963 942.38409 4484.0674 5195323
3818.1794 952.76935 4533.4829 4932152
3830.2537 949.1062 4516.0527 4537393
3890.8501 957.4339 4555.6777 4471858
3865.3066 944.59613 4494.5928 5063738
3844.4795 933.0788 4439.791 4405552
3918.2607 944.5238 4494.249 4471344
3981.605 953.31555 4536.082 4734516
4017.0679 955.35852 4545.8027 3418399
4051.7786 957.19647 4554.5483 2563090
4053.7939 951.3374 4526.6694 2562833
4081.0032 951.42889 4527.1045 2891542
4118.3271 953.86169 4538.6807 2628885
4156.7402 956.51379 4551.2998 2496528
4130.7817 944.41443 4493.7285 2497040
4118.3306 935.53845 4451.4946 3022871
4062.5496 916.995 4363.2607 3286044
4009.5129 899.30164 4279.0718 3088664
4069.9023 907.11133 4316.2319 3352350
4169.0278 923.40314 4393.752 3353120
4088.9788 900.05334 4282.6489 2563347
0 0 0 0
0 0 0 0
0 0 0 0
0 0 0 0
0 0 0 0
-5802.8994 1384.9027 6409.0049 6709325
-5813.3135 1396.5255 6462.793 6446667
-5883.0479 1422.6473 6583.6787 5921094
-6051.959 1473.2611 6817.9072 5526079
-5890.1973 1443.5167 6680.2568 7631456
-5919.54 1460.5208 6758.9473 4868149
-5963.9526 1481.4999 6856.0342 6315081
-5511.6528 1378.5328 6379.5269 6183238
-5734.4082 1444.1493 6683.1846 6446410
-5778.7354 1465.4305 6781.6694 6709582
-5571.7031 1422.8213 6584.4834 7564892
-5507.0835 1416.235 6554.0034 5985603
-5457.7476 1413.5132 6541.4077 5788223
-5338.1553 1392.4268 6443.8247 6643788
-5377.5547 1412.8071 6538.1406 6380617
-5342.6753 1413.827 6542.8604 6643789
-5246.0381 1398.3995 6471.4653 6709324
-5263.2197 1413.308 6540.4585 6775117
-5164.6987 1397.1382 6465.6284 7169872
-5008.4253 1364.9871 6316.8403 6446149
-5095.395 1399.1439 6474.9102 5722682
-4771.9775 1320.2759 6109.9277 5129774
-4837.9263 1348.7528 6241.7119 7037772
-4727.3203 1328.068 6145.9873 6116669
-4862.6226 1376.6824 6370.9634 5721656
-4749.8604 1355.2772 6271.9053 6510915
-4748.1108 1365.4592 6319.0254 5721653
-4696.9878 1361.4917 6300.6646 4010521
-4715.1489 1377.7046 6375.6938 4734244
-4765.4561 1403.6477 6495.7524 5919545
-4750.083 1410.5098 6527.5088 5656375
-4678.6016 1400.6868 6482.0498 5985085
-4630.3936 1397.7264 6468.3506 6116414
-4664.1943 1419.6785 6569.9395 5919291
-4583.269 1406.786 6510.2759 5195568
-4510.6426 1396.2434 6461.4873 5064239
-4499.0532 1404.5758 6500.0479 6249028
-4311.188 1357.5449 6282.3994 6380357
-4272.9121 1357.209 6280.8447 6709578
-4218.8687 1351.8149 6255.8828 5525304
-4193.0737 1355.4569 6272.7368 6709579
-4050.1899 1320.9752 6113.1636 7104337
-4177.8965 1374.9211 6362.813 6511943
-4127.1426 1370.5844 6342.7432 6380357
-4018.667 1346.823 6232.7808 6248770
-4009.1536 1356.0946 6275.688 5656632
-4077.4131 1392.0928 6442.2793 6051391
-3988.1758 1374.4915 6360.8242 6577736
-3944.9285 1372.5554 6351.8647 7235665
-3935.7546 1382.5514 6398.124 6775114
-3814.3386 1352.9299 6261.043 7038287
-3683.5054 1319.3538 6105.6602 5590838
-3732.1211 1350.0239 6247.5942 4998701
-3666.8457 1339.6979 6199.8076 4406051
-3632.0835 1340.4237 6203.167 4405282
-3642.4834 1358.002 6284.5146 5128747
-3490.6934 1314.8505 6084.8198 5458227
-3548.6072 1350.6127 6250.3188 5590326
-3521.5134 1354.4336 6268.0015 4603433
-3404.1023 1323.2283 6123.5903 4998191
-3328.29 1307.6949 6051.7056 5721916
-3348.813 1330.0859 6155.3262 4208933
-3344.9351 1343.1716 6215.8838 5722173
-3294.0774 1337.4739 6189.5156 5722426
-3302.6584 1356.0529 6275.4946 6314306
-3171.176 1316.8909 6094.2622 6314049
-3144.9585 1321.0436 6113.48 5853498
-3182.3848 1352.3383 6258.3047 3682330
-3079.5632 1324.0704 6127.4878 4735016
-3210.908 1397.0103 6465.0356 5919290
-3152.4492 1388.1335 6423.957 4011293
-3065.2522 1366.2312 6322.5977 4405797
-3026.5183 1365.6548 6319.9302 4340260
-2952.4243 1348.9086 6242.4326 3945505
-2857.6152 1322.1531 6118.6147 3353368
-2842.8948 1332.2413 6165.3008 3089426
-2783.2 1321.2421 6114.3984 4273957
-2732.1609 1314.1157 6081.4199 5392438
-2720.5066 1325.9956 6136.397 4274469
-2754.4927 1360.7439 6297.2041 4472105
-2747.6946 1376.0221 6367.9077 6182978
-2708.0042 1375.024 6363.2891 5985598
-2619.1453 1348.6794 6241.3726 6511689
-2598.668 1357.2965 6281.25 6314310
-2547.4417 1349.8702 6246.8828 6906447
-2473.2402 1329.8711 6154.3315 6709326
-2464.0222 1344.738 6223.1328 5459515
-2385.1631 1321.473 6115.4673 7696477
-2306.0337 1297.3383 6003.7773 7038546
-2319.3093 1325.2471 6132.9331 5393208
-2297.1174 1333.4559 6170.9214 4932657
-2229.427 1315.0916 6085.9351 4472106
-2167.0776 1299.3257 6012.9751 6577226
-2166.4707 1320.6708 6111.7549 6840654
-2073.0898 1285.2258 5947.7236 5195829
-2071.8418 1306.6609 6046.9204 5590587
-2012.53 1291.5868 5977.1606 4669228
-1974.3262 1289.7616 5968.7144 4142886
-1933.5708 1286.1727 5952.106 4011557
-1875.4633 1270.6937 5880.4731 3748384
-1897.0433 1309.6421 6060.7163 5787968
-1861.3817 1309.8134 6061.5093 6314310
-1832.6864 1314.9899 6085.4648 5064757
-1789.0977 1309.4733 6059.9355 4275241
-1728.8307 1291.2738 5975.7124 5656638
-1692.3979 1290.4875 5972.0737 4735793
-1631.0194 1270.2399 5878.3721 6051653
-1602.6616 1275.3861 5902.188 6775120
-1568.6222 1276.1399 5905.6763 6446411
-1544.4142 1285.1086 5947.1816 5261370
-1477.6954 1258.2974 5823.105 1774604
-1451.9714 1265.9467 5858.5044 7827297
-1381.0751 1233.6212 5708.9097 7104087
-1350.6814 1236.7593 5723.4321 6314571
-1320.3302 1240.0989 5738.8872 6511692
-1294.0391 1247.5292 5773.2729 5393211
-1289.058 1276.4648 5907.1802 4669488
-1257.4153 1279.8776 5922.9736 6051141
-1230.097 1288.0144 5960.6284 4406316
-1202.6455 1296.4882 5999.8438 4537904
-1133.899 1259.6052 5829.1582 5722179
-1113.3004 1275.5709 5903.0435 5919812
-1074.1968 1270.6823 5880.4199 6840913
-1004.7712 1228.3958 5684.7275 6314312
-981.20172 1241.1821 5743.8999 5064244
-969.03558 1269.8302 5876.4766 5459003
-929.68817 1263.6676 5847.9575 5919554
-885.78485 1250.5957 5787.4639 5590590
-829.7865 1218.707 5639.8906 3748130
-798.8772 1222.5371 5657.6152 5656642
-776.16199 1239.7911 5737.4629 4801333
-744.7439 1244.0876 5757.3457 4735540
-702.89691 1230.5388 5694.645 6380620
-671.43988 1234.7303 5714.043 5196089
-637.69165 1234.9299 5714.9663 5393468
-596.21509 1219.3463 5642.8491 4603952
-559.57709 1212.3948 5610.6787 4735540
-532.68896 1227.0236 5678.3774 5656642
-494.58441 1216.0464 5627.5776 4735540
-473.57648 1248.5566 5778.0273 4801077
-446.38361 1268.556 5870.5801 4538161
-400.28818 1233.6779 5709.1724 3419682
-364.32816 1226.4821 5675.8711 3222303
-327.26355 1213.726 5616.8394 6051402
-292.06204 1205.7743 5580.0405 3353890
-258.90091 1205.2914 5577.8062 6051146
-228.97511 1221.9327 5654.8184 4274734
-192.8589 1205.5813 5579.1475 4405805
-158.34512 1194.5546 5528.1187 4998199
-127.31657 1210.9258 5603.8804 3813924
-94.595322 1217.0681 5632.3062 3616804
-61.601673 1224.4906 5666.6558 3485219
-28.09572 1227.3125 5679.7148 3090717
5.5640531 1229.9341 5691.8467 2893338
38.771801 1213.9027 5617.6572 2827545
72.489235 1221.2678 5651.7412 3485475
105.29951 1213.5243 5615.9058 3156254
138.89349 1216.3625 5629.0405 2827546
173.73839 1226.9355 5677.9702 2629913
207.11691 1225.4028 5670.8774 4143149
234.60811 1194.3273 5527.0664 4537651
267.00562 1192.7811 5519.9116 4932922
294.38528 1171.6023 5421.9009 6117451
320.62216 1150.4899 5324.1973 6906199
367.53793 1200.7155 5556.6299 4340272
397.65359 1192.3109 5517.7354 4998459
427.82642 1185.3416 5485.4824 4999229
470.47043 1211.4696 5606.397 2038805
497.13409 1195.7156 5533.4912 3617318
542.49634 1224.1028 5664.8608 5788231
573.84058 1219.3945 5643.0718 4077612
605.95862 1216.7584 5630.8726 5853511
635.14636 1208.8206 5594.1382 4538678
663.65314 1200.438 5555.3457 4998972
683.3703 1177.7 5450.1191 5459780
719.19775 1183.525 5477.0762 5459781
756.96844 1191.907 5515.8657 5788745
793.11578 1197.1447 5540.105 4736058
834.37225 1209.3717 5596.689 4143921
877.86176 1223.7769 5663.3525 5064512
893.6886 1199.9783 5553.2183 4209715
936.05206 1212.236 5609.9438 4341301
960.10516 1200.7531 5556.8037 6249045
994.16626 1202.1332 5563.1904 5722956
1027.4036 1202.4606 5564.7056 5525062
1055.2684 1196.6752 5537.9321 5393219
1077.1085 1184.6125 5482.1094 2366999
1100.0245 1174.4048 5434.8701 2893343
1142.2021 1184.757 5482.7773 2103572
1172.3203 1182.3737 5471.748 3946029
1197.7458 1175.5131 5439.9985 4143408
1228.271 1173.8857 5432.4683 3551015
1250.566 1164.6768 5389.8511 3090980
1264.797 1148.603 5315.4658 4143411
1291.3745 1144.2502 5295.3218 4275254
1301.6865 1126.0332 5211.0181 4670012
1366.3832 1154.6162 5343.2935 4472634
1396.5471 1153.3849 5337.5952 3946289
1432.4506 1156.8433 5353.5996 4801598
1451.8409 1147.105 5308.5327 4077875
1465.985 1133.722 5246.6001 3288359
1499.0385 1135.2151 5253.5093 4341047
1564.8726 1160.9669 5372.6826 4933695
1584.8152 1152.3243 5332.687 3879726
1602.0737 1142.1061 5285.3994 6183250
1605.1388 1122.3551 5193.9966 5327684
1653.587 1134.4836 5250.124 4472377
1692.0381 1139.4318 5273.0229 590853
1621.709 1072.2753 4962.2383 196612
1594.8632 1035.7493 4793.2046 196614
1615.533 1030.8195 4770.3906 65545
1637.3773 1026.7955 4751.769 9
1656.17 1021.0265 4725.0713 11
1678.1974 1017.4102 4708.3359 9
1697.8325 1012.4854 4685.5454 7
1713.854 1005.5991 4653.6768 328966
1631.9762 942.39789 4361.1963 6973027
1749.8 994.68872 4603.186 4275254
1774.6273 993.32123 4596.8579 7301221
1813.6124 999.79993 4626.8398 196610
1838.9946 998.69855 4621.7427 131077
1878.9033 1005.4025 4652.7671 13223879
1910.1571 1007.3483 4661.772 13750480
1928.0688 1002.3029 4638.4229 13816019
1951.4585 1000.2068 4628.7227 13816019
1976.2933 998.89941 4622.6724 13816019
1999.5015 996.81671 4613.0342 13816019
2021.0107 993.95465 4599.7891 13750225
2047.5546 993.61194 4598.2031 13684430
1989.7861 952.90125 4409.8037 3815484
2141.375 1012.207 4684.2568 3
2151.4253 1003.9473 4646.0327 4077877
2269.6484 1045.7367 4839.4243 4867899
2307.3867 1049.8628 4858.519 4801591
2319.155 1042.2166 4823.1338 3813929
2411.7971 1070.6582 4954.7554 2761241
2437.2314 1068.9396 4946.8018 2761498
2466.5613 1068.9498 4946.8496 4142637
2562.5994 1097.5304 5079.1133 4471600
2530.0598 1071.0183 4956.4214 4537393
2541.6555 1063.5834 4922.0146 3682340
2579.6309 1067.2307 4938.8936 3287583
2567.8896 1050.4585 4861.2759 4537137
2612.5613 1056.8795 4890.9907 5195068
2632.302 1053.1847 4873.8921 3681829
2579.1821 1020.7349 4723.7217 4142124
2671.2637 1045.8297 4839.8545 3023898
2689.9429 1041.9587 4821.9409 4076841
2653.7224 1017.127 4707.0254 3419169
2710.9353 1028.2509 4758.5039 3090204
2714.114 1018.8616 4715.0527 2234638
2716.4919 1009.3661 4671.1099 2827036
2698.7354 992.65625 4593.7803 4142121
2713.4006 988.0863 4572.6318 6708557
2759.2634 994.8551 4603.9565 4405803
2830.4106 1010.5185 4676.4429 4537132
2871.0005 1015.0743 4697.5259 3616287
2880.4504 1008.6385 4667.7427 4076583
2908.103 1008.6385 4667.7427 4208428
2903.2012 997.45374 4615.9819 2103313
2959.707 1007.3786 4661.9121 1774089
2948.7249 994.36194 4601.6738 2234383
2971.9312 993.00696 4595.4033 2102797
3039.4436 1006.3463 4657.1348 2365713
3003.1514 985.38544 4560.1328 2300175
3036.7588 987.52905 4570.0532 2037002
3063.6763 987.47864 4569.8198 3944999
3098.4111 989.92676 4581.1489 2563089
3141.5356 994.98944 4604.5781 2629137
3164.8064 993.7309 4598.7539 2563087
3175.2419 988.49823 4574.5381 2957588
3200.5576 987.9472 4571.9883 1905157
3195.9648 978.25092 4527.1157 1839366
3236.3093 982.3562 4546.1143 1773572
3252.2288 979.04108 4530.7725 1181953
3240.3169 967.4704 4477.2261 2826519
3287.9307 973.71613 4506.1299 4208172
3248.7871 954.375 4416.6235 3944998
3274.2747 954.17755 4415.71 5260858
3288.4055 950.69983 4399.6162 4537136
3458.2393 991.93781 4590.4556 4800308
3475.0051 988.96979 4576.7202 4142635
3453.123 975.13373 4512.6904 3747363
3483.3328 976.10773 4517.1978 3286812
3444.7129 957.92609 4433.0576 3747363
3472.6619 958.3916 4435.2119 3550239
3484.2815 954.37738 4416.6348 3220504
3472.3926 944.03168 4368.7573 3352347
3564.5884 961.927 4451.5728 4010277
3557.783 953.03961 4410.4438 2431245
3558.8245 946.36841 4379.5713 3023382
3563.9546 940.87323 4354.1406 2826261
3546.8572 929.63116 4302.1152 2563347
3598.9023 936.54242 4334.0986 3286813
3637.6108 939.90979 4349.6821 4800822
3670.0042 941.60956 4357.5483 5392703
3706.4673 944.32251 4370.103 4208685
3759.0388 951.07324 4401.3442 3945514
3764.0186 945.77283 4376.8149 4208430
3800.0271 948.28815 4388.4551 3616550
3845.8667 953.20581 4411.2129 4011308
3873.7808 953.64429 4413.2422 4142381
3918.6909 958.23285 4434.4771 3813415
3958.6213 961.55078 4449.8315 4734517
3974.2634 958.96411 4437.8613 3945258
3960.7524 949.42346 4393.709 3813672
4011.3984 955.28564 4420.8379 3616036
3952.5198 935.15845 4327.6943 2629140
3946.8843 927.80688 4293.6729 2563348
3905.103 912.10693 4221.0171 2234640
3889.6633 902.72028 4177.5776 1708038
3944.0713 909.56 4209.2305 2628884
3921.3921 898.64807 4158.7329 2958105
3918.4194 892.36035 4129.6348 2629140
3819.7314 864.48828 4000.6489 3616036
0 0 0 0
0 0 0 0
0 0 0 0
0 0 0 0
-5365.0181 1306.9512 5886.8696 6314821
-5646.4473 1384.509 6236.2119 6577994
-5700.0229 1406.8508 6336.8452 6512202
-5702.5356 1416.8021 6381.6689 6709581
-5716.2002 1429.6754 6439.6538 6643789
-5771.5547 1453.2191 6545.7007 6906960
-5712.2241 1448.0092 6522.2339 6511946
-5671.1753 1447.3942 6519.4639 6511946
-5524.8662 1419.7222 6394.8213 5788480
-5462.8511 1413.4783 6366.6973 6644302
-5362.3496 1397.1206 6293.0176 6248773
-5457.7163 1431.923 6449.7773 5722686
-5339.3901 1410.7549 6354.4302 4537641
-5302.2798 1410.8971 6355.0713 4932400
-5138.7051 1377.1497 6203.0635 4274213
-5047.6929 1362.5024 6137.0879 5195829
-5069.1099 1378.2103 6207.8408 6445896
-4939.8374 1352.8785 6093.7393 5525050
-4839.9258 1335.2738 6014.4429 5524790
-4795.9209 1332.9465 6003.96 5985341
-4806.8799 1345.9747 6062.6426 5590324
-4724.335 1332.8201 6003.3901 5656374
-4737.9297 1346.7942 6066.3335 5722167
-4635.1221 1327.6406 5980.061 6314048
-4801.6328 1385.9275 6242.6006 6577220
-4766.7603 1386.5411 6245.3652 5195824
-4612.126 1352.0562 6090.0352 5787704
-4539.5952 1341.2859 6041.5225 6445632
-4543.9785 1353.2504 6095.4141 6116924
-4413.9375 1325.0526 5968.4038 6182716
-4411.7095 1335.0786 6013.5635 5130028
-4459.9561 1360.6669 6128.8198 5392945
-4396.9575 1352.4572 6091.8413 5326127
-4426.1802 1372.7128 6183.0781 4668199
-4411.5527 1379.5935 6214.0708 4536612
-4232.8765 1334.8563 6012.5625 5261619
-4231.7642 1345.8309 6061.9946 5787707
-4199.3037 1346.9381 6066.9819 6379844
-4166.188 1347.8527 6071.1011 6182208
-4083.4329 1332.5837 6002.3257 5524792
-4050.2551 1333.3676 6005.8564 5853499
-3974.4763 1320.0166 5945.7202 5854013
-3917.7837 1312.8226 5913.3164 6709322
-3946.635 1334.4225 6010.6084 7038287
-3873.1299 1321.4923 5952.3672 5064497
-3846.9849 1324.632 5966.5088 4801067
-3791.718 1317.7094 5935.3276 5524534
-3830.9773 1343.8146 6052.9126 5195312
-3778.6321 1337.9769 6026.6187 5458740
-3636.8926 1300.0723 5855.8853 5920061
-3645.3245 1315.6361 5925.9888 7433043
-3597.948 1311.1648 5905.8491 6775113
-3592.7341 1322.1215 5955.2007 6445891
-3631.5386 1349.6548 6079.2183 5393204
-3619.604 1358.6938 6119.9326 4669224
-3568.5122 1353.0684 6094.5942 5063725
-3508.1079 1343.761 6052.6714 5063981
-3419.2449 1323.2478 5960.2744 5853755
-3354.855 1311.8765 5909.0547 6314304
-3331.0469 1316.3018 5928.9873 5721910
-3223.678 1287.4493 5799.0278 5984570
-3174.854 1281.6085 5772.7192 5458227
-3173.5427 1295.0289 5833.1685 6182465
-3154.7891 1301.5487 5862.5356 5195569
-3071.0723 1281.114 5770.4922 6840395
-3072.8152 1296.2706 5838.7612 6576967
-3065.5051 1307.9098 5891.1875 6116414
-3038.9094 1311.4939 5907.3315 5063981
-3009.7197 1314.0291 5918.7505 4800810
-2943.1719 1300.1213 5856.1064 5195567
-2997.9385 1340.1108 6036.23 4932398
-2995.8367 1355.338 6104.8174 4735018
-2897.9592 1327.0784 5977.5278 4866606
-2907.3452 1347.8467 6071.0747 4142884
-2868.0098 1346.2653 6063.9512 3616540
-2802.5764 1332.2377 6000.7671 5458488
-2800.29 1348.2531 6072.9048 4208677
-2718.3469 1325.834 5971.9229 4669484
-2694.9124 1331.7366 5998.5098 5195828
-2601.0493 1302.5282 5866.9478 5854013
-2565.5564 1302.1548 5865.2656 5985599
-2479.2549 1275.629 5745.7861 4274980
-2551.885 1331.2767 5996.439 4012065
-2507.4033 1326.5378 5975.0933 6709321
-2398.0195 1286.8352 5796.2622 6577736
-2506.196 1364.4232 6145.7397 6446150
-2433.3914 1344.3164 6055.1729 5656379
-2388.7 1339.3713 6032.8989 5919549
-2312.8491 1316.5394 5930.0576 5919548
-2259.1926 1305.8314 5881.8257 5064239
-2266.6562 1330.6692 5993.7026 5327155
-2154.8066 1285.1388 5788.6206 5590327
-2095.3376 1269.881 5719.895 5524533
-2134.7961 1315.062 5923.4033 5655608
-2029.504 1271.095 5725.3633 4405284
-2046.1218 1303.2841 5870.3521 3747354
-1995.984 1293.3309 5825.5205 4603433
-1955.2887 1289.2537 5807.1553 6116673
-1925.345 1292.2467 5820.6367 3616798
-1842.1337 1258.9448 5670.6357 3748383
-1841.0686 1281.5885 5772.6294 4406314
-1849.7786 1312.0228 5909.7139 4471851
-1828.2821 1321.7931 5953.7217 3879971
-1796.4631 1324.3381 5965.1851 4011557
-1737.7124 1306.7329 5885.8862 5063989
-1695.4934 1301.0928 5860.4819 4143144
-1630.7831 1277.5967 5754.6489 4274728
-1567.6263 1254.3405 5649.8965 4340521
-1543.3947 1261.8948 5683.9229 4800816
-1516.9877 1267.9679 5711.2783 3419421
-1450.099 1239.7098 5583.9961 656897
-1406.9838 1230.9309 5544.4536 262400
-1393.0154 1247.8419 5620.625 4011562
-1344.0909 1233.501 5556.0298 5656641
-1311.7201 1234.0131 5558.3364 5985605
-1268.438 1224.0223 5513.3354 6445899
-1266.5908 1254.5442 5650.8145 6116933
-1242.0687 1263.6545 5691.8496 5590590
-1195.0715 1249.7695 5629.3076 2761234
-1153.9579 1241.4166 5591.6841 3945252
-1125.934 1247.068 5617.1396 4340010
-1099.1729 1254.5049 5650.6372 5195832
-1055.6539 1242.6824 5597.3853 4405803
-1035.9465 1259.0322 5671.0293 3484957
-995.14532 1249.9824 5630.2666 6182470
-961.60223 1249.7379 5629.1655 5524794
-936.88861 1261.3633 5681.5293 4866865
-879.75983 1228.5872 5533.8965 5656382
-852.06537 1235.97 5567.1504 5590590
-824.56195 1244.2355 5604.3809 3682338
-778.54895 1224.0925 5513.6514 5788228
-753.80511 1237.0907 5572.1987 5130297
-725.20233 1244.6564 5606.2769 3551266
-685.82623 1233.5708 5556.3442 3814438
-643.5 1215.7935 5476.2705 5261884
-610.59253 1214.8688 5472.105 4077866
-576.01636 1210.334 5451.6792 4867126
-554.38788 1234.0823 5558.6484 5196091
-520.82916 1232.5959 5551.9531 6906708
-483.26102 1220.781 5498.7354 5064505
-449.63419 1217.934 5485.9116 4735798
-396.99509 1159.1318 5221.0508 6381138
-375.05957 1187.6149 5349.3457 5854537
-349.51303 1208.8658 5445.0664 4407091
-311.70172 1187.7048 5349.751 5393986
-287.27283 1218.5172 5488.5391 7104604
-253.97546 1214.777 5471.6914 5393986
-220.55067 1209.2434 5446.7671 5393472
-187.52634 1204.385 5424.8833 5261884
-154.0388 1193.9268 5377.7769 5722178
0 0 0 0
-88.957375 1175.9083 5296.6167 5196349
-59.929543 1223.912 5512.8384 5985865
-27.332699 1226.7153 5525.4653 5722695
5.4033332 1227.1527 5527.4355 4078126
38.091122 1225.2875 5519.0337 4209455
70.265778 1216.2632 5478.3857 5854280
103.72852 1228.1929 5532.1206 6183503
135.34824 1217.8114 5485.3594 5986123
162.8532 1181.5947 5322.2295 4670006
195.43791 1188.0055 5351.1055 3551267
226.29721 1183.6023 5331.272 4274990
255.92784 1174.6384 5290.8965 5262142
283.57928 1159.5378 5222.8794 3485732
317.04935 1168.8599 5264.8682 5064250
351.39233 1179.4418 5312.5322 6248269
380.12296 1170.9949 5274.4849 4867128
409.53769 1165.7784 5250.9888 4735542
448.44388 1186.4093 5343.916 4078125
483.88919 1195.767 5386.0654 5525315
513.77887 1191.0874 5364.9873 4341040
552.46741 1206.1628 5432.8911 4011818
576.84302 1190.0503 5360.3159 5853767
611.26642 1195.2667 5383.812 6117709
633.20166 1176.7574 5300.4409 7565155
666.25073 1179.6754 5313.5845 4736056
687.87805 1163.0192 5238.5601 4604470
736.91766 1192.147 5369.7598 5393989
760.72253 1179.7301 5313.8306 5986126
777.69269 1158.1219 5216.5015 5065025
840.63336 1204.0071 5423.1812 5064770
868.84436 1198.6031 5398.8403 5130818
894.17725 1189.7537 5358.9795 3551786
918.40375 1180.0892 5315.4482 4472633
973.16266 1208.9971 5445.6577 6578008
995.87213 1197.5114 5393.9224 5064768
1047.8392 1220.8274 5498.9443 3222819
1044.5144 1180.2598 5316.2168 2696475
1079.2814 1183.8494 5332.3853 2959650
1092.9603 1164.7614 5246.4077 4143923
1120.9889 1161.5985 5232.1611 3551789
1164.2621 1173.9777 5287.9199 4933441
1198.2736 1176.6138 5299.7939 4209974
1200.3535 1148.5614 5173.4385 4209717
1241.0712 1157.9561 5215.7549 4933184
1263.0089 1149.7979 5179.0078 4077875
1289.0896 1145.7087 5160.5889 3880496
1324.1718 1149.6239 5178.2241 5196099
1338.4224 1135.6858 5115.4429 4340276
1385.0238 1149.2075 5176.3486 4077104
1422.3489 1154.6132 5200.6973 4735291
1441.2983 1145.1893 5158.2495 3156774
1502.0994 1168.7196 5264.2363 2169878
1526.5493 1163.5847 5241.1079 854020
1541.9911 1151.9253 5188.5898 262144
1534.7964 1124.1416 5063.4448 327936
1537.7227 1104.6942 4975.8481 393729
1583.4482 1116.1467 5027.4336 328196
1601.9287 1108.3264 4992.209 262148
1563.7799 1062.3197 4784.9819 196615
1578.531 1053.2478 4744.1196 65545
1601.1619 1049.6592 4727.9551 65545
1624.1377 1046.416 4713.3472 10
1643.4624 1040.9697 4688.8159 8
1668.0129 1038.9598 4679.7622 6
1685.4489 1032.6564 4651.3701 1
1744.015 1051.3506 4735.5737 5329485
1723.8049 1022.7156 4606.5938 5656903
1749.5067 1021.7877 4602.4146 6511958
1794.0886 1031.746 4647.269 920587
1718.674 973.43823 4384.6353 65542
1840.8737 1027.1272 4626.4648 10
1878.5731 1032.785 4651.9492 10132395
1940.7266 1051.5288 4736.377 13685454
1921.3904 1026.215 4622.356 13684944
1944.5917 1024.0125 4612.4355 13750737
1967.7643 1021.856 4602.7222 13750737
1992.1422 1020.376 4596.0557 13685203
2014.229 1017.7781 4584.354 13619664
2041.9749 1018.0709 4585.6729 13619410
2069.1604 1018.0802 4585.7148 11447477
2113.0696 1026.2111 4622.3384 131077
2137.4006 1024.7474 4615.7461 2236191
2212.1973 1047.2103 4716.9248 6710624
2252.4199 1052.9501 4742.7788 4670009
2280.9338 1053.1425 4743.645 4472115
2362.8101 1077.6685 4854.1172 3287841
2422.0312 1091.3961 4915.9502 3879977
2347.6245 1045.2987 4708.3145 4011307
2362.0244 1039.3612 4681.5703 3814185
2443.4683 1062.7205 4786.7871 3945770
2442.1956 1049.9812 4729.4062 4669236
2538.4739 1078.9958 4860.0957 2826777
2528.3533 1062.6411 4786.4297 1379588
2536.3352 1054.173 4748.2871 1708554
2505.1228 1029.7793 4638.4106 2300433
2512.9043 1021.7702 4602.3354 2432019
2551.4185 1026.2949 4622.7163 3353376
2568.6108 1022.2381 4604.4434 3155740
2562.5391 1009.1053 4545.2896 3484962
2615.1936 1019.1311 4590.4487 4735028
2614.6008 1008.4138 4542.1748 4537906
2635.8662 1006.2593 4532.4707 4866357
2603.6917 983.95306 4431.9971 5655872
2609.7336 976.39032 4397.9321 5129527
2678.9116 992.36481 4469.8857 5326905
2747.259 1007.722 4539.0586 4273706
2794.926 1015.2692 4573.0532 4405292
2839.8303 1021.6776 4601.9185 4339757
2798.5881 997.26611 4491.9624 5063993
2841.9963 1003.1951 4518.6685 4537649
2886.4084 1009.3646 4546.4575 3748133
2859.6138 990.74963 4462.6104 3747877
