# .PCD v0.7 - Point Cloud Data file format
VERSION 0.7
FIELDS x y z rgb
SIZE 4 4 4 4
TYPE F F F U
COUNT 1 1 1 1
WIDTH 1288
HEIGHT 1
VIEWPOINT 0 0 0 1 0 0 0
POINTS 1288
DATA ascii
-1738.6753 1266.1265 5554.7588 6511693
-1744.6959 1295.0214 5681.5269 4208939
-1712.4618 1296.0996 5686.2573 4406319
-1673.5582 1292.0719 5668.5869 5393470
-1627.1487 1281.9656 5624.2485 7498846
-1600.0256 1286.9493 5646.1133 6841172
-1582.6945 1300.1901 5704.2031 6512206
-1530.873 1285.0566 5637.8096 5920068
-1484.25 1273.709 5588.0249 5459004
-1441.7682 1265.4785 5551.916 6577998
-1396.7395 1254.5759 5504.0845 6972756
-1357.976 1248.9144 5479.2456 5920327
-1339.5808 1262.1666 5537.3862 6051913
-1313.8702 1269.0186 5567.4473 6577486
-1284.2531 1272.3531 5582.0762 6774864
-1250.8101 1271.9733 5580.4097 5459003
-1230.5366 1285.3289 5639.0034 5852990
-1204.1213 1292.8353 5671.936 4406057
-1170.8206 1293.1677 5673.3945 5261109
-1140.6616 1297.0927 5690.6138 5063731
-1094.0861 1282.02 5624.4873 5261625
-1052.5259 1272.062 5580.7993 5459004
-1038.5933 1295.931 5685.5176 5788226
-994.13336 1282.0325 5624.5415 5261115
-971.13 1295.7996 5684.9404 5590336
-946.30469 1308.0374 5738.6304 4932663
-913.09143 1309.161 5743.5601 4932921
-864.46307 1287.4144 5648.1533 5722437
-859.11646 1330.9701 5839.2412 5985610
-826.99579 1334.9609 5856.7495 5393472
-795.96228 1341.1332 5883.8286 5590852
-736.36371 1297.5366 5692.5615 4801591
-697.23914 1287.5636 5648.8076 6182987
-662.84198 1285.7551 5640.8735 5327678
-630.75006 1288.4635 5652.7559 3814696
-599.09619 1292.4208 5670.1172 5854537
-561.30573 1282.8231 5628.0107 6051918
-542.38025 1317.851 5781.6851 6249809
-503.12088 1304.8641 5724.709 6447191
-475.46201 1322.2609 5801.0322 7565415
-445.78275 1336.3123 5862.6782 6446937
-417.2944 1356.6095 5951.7266 6907485
-370.75397 1316.5503 5775.9785 5065281
-332.24271 1299.7556 5702.2969 5196867
-303.29605 1320.8116 5794.6738 6381141
-271.61819 1333.8303 5851.7896 6249555
-234.62881 1320.7593 5794.4438 5788747
-198.90347 1311.5425 5754.0083 6183505
-164.744 1310.9742 5751.5151 2893599
-135.01549 1354.5637 5942.7515 4537653
-98.131409 1331.7924 5842.8486 4537654
-63.40443 1329.431 5832.4888 5261377
-28.817347 1327.8597 5825.5952 4603702
5.7066088 1330.6135 5837.6768 5064252
40.048809 1322.6372 5802.6831 5919817
75.985405 1350.3639 5924.3257 6380367
109.2277 1327.8168 5825.4072 4078126
145.32507 1342.4711 5889.6982 3881004
184.04504 1370.9871 6014.8037 4867129
215.78471 1346.6887 5908.2021 5854024
245.03644 1315.813 5772.7441 4603444
281.67529 1327.3101 5823.1836 4011308
312.70355 1312.7444 5759.2812 4538163
346.57608 1311.8104 5755.1836 4406832
387.23898 1334.4438 5854.481 4406319
422.00217 1334.6964 5855.5894 6249037
455.24258 1330.4604 5837.0054 3683364
485.11807 1317.6829 5780.9473 4537903
511.4353 1297.5625 5692.6753 5195577
553.64478 1317.7574 5781.2749 1840654
567.61041 1272.2915 5581.8057 4537656
0 0 0 0
579.41467 1163.2169 5103.2734 196611
596.80786 1138.7185 4995.7935 65543
623.7663 1133.9233 4974.7563 8
651.37848 1130.6958 4960.5962 11
678.46722 1126.8773 4943.8442 9
705.48077 1123.2552 4927.9531 5
719.4361 1099.9562 4825.7354 0
753.80591 1108.4572 4863.0308 7104867
788.08594 1116.2051 4897.0225 6906972
818.79517 1118.5249 4907.2002 8157301
866.26398 1142.795 5013.6787 65548
892.51636 1138.395 4994.3745 13816279
930.21277 1148.4056 5038.293 1116950
977.24719 1168.9636 5128.4854 196621
1013.5176 1175.7946 5158.4541 3091250
1140.6904 1284.5958 5635.7876 5130820
1184.178 1295.6464 5684.2686 2958876
1275.4722 1356.9464 5953.2046 4077101
1320.3633 1366.9084 5996.9102 4603443
1330.4055 1341.2166 5884.1948 5195580
1372.5215 1348.3455 5915.4707 4077099
1419.3488 1359.6324 5964.9888 3484707
1444.3441 1349.9657 5922.5786 4998459
1462.6833 1334.6837 5855.5337 3484450
1510.7104 1346.5721 5907.6909 5063739
1519.9382 1324.1216 5809.1953 4734516
1575.6163 1342.2351 5888.6631 3484704
1588.8555 1324.1942 5809.5142 4800052
1647.1156 1343.6447 5894.8467 5326649
1651.7365 1319.4392 5788.6528 5918272
1693.7811 1325.5051 5815.2651 5589306
1702.4146 1305.7039 5728.3931 4141861
1734.3077 1304.1674 5721.6523 4076068
1781.2609 1313.7976 5763.9019 4865584
1829.9872 1324.3489 5810.1924 4010532
1814.0535 1288.5803 5653.2686 4339240
1906.3733 1329.6107 5833.2773 4734254
1864.235 1277.071 5602.7749 3681310
1908.4813 1284.5112 5635.4165 3681311
1977.5032 1308.0841 5738.8354 4471084
1988.97 1293.4318 5674.5527 4536878
2041.5319 1305.5468 5727.7036 4536621
2079.4082 1308.0278 5738.5884 4405034
2079.5701 1287.0868 5646.7158 3483677
2116.9299 1289.4668 5657.1577 4536621
2211.8623 1326.2948 5818.73 5654848
2240.6519 1322.9402 5804.0122 4471085
2234.5508 1299.3977 5700.7266 4471342
2333.6931 1336.8446 5865.0137 4076840
2305.7922 1301.4843 5709.8809 5458750
2333.7246 1298.2054 5695.4961 5458750
2371.7708 1300.5659 5705.8521 5129785
2390.5911 1292.4657 5670.3145 4669237
2434.9458 1298.2039 5695.4888 6708817
2484.8809 1306.7195 5732.8491 4471855
2493.8669 1293.7622 5676.0024 4537647
2527.0623 1293.5419 5675.0356 4076839
2583.595 1305.1161 5725.8145 3352862
2723.2795 1357.851 5957.1729 3418911
2754.6924 1355.9415 5948.7959 4866356
2748.4238 1335.767 5860.2861 4273706
2780.4661 1334.4829 5854.6528 3944999
2777.24 1316.512 5775.8101 3287070
2901.3662 1358.6134 5960.5181 4602928
2864.0017 1324.9907 5813.0088 5129015
2986.2812 1365.1469 5989.1816 2826516
3042.8455 1374.6716 6030.9688 4405549
3065.2832 1368.7367 6004.9312 4866100
3068.3335 1354.3802 5941.9463 4931636
3039.9207 1326.6191 5820.1523 3944998
3051.8296 1316.8796 5777.4233 3812639
3086.8284 1317.209 5778.8687 5062962
3125.6594 1319.1488 5787.3784 5062963
3231.6606 1349.0868 5918.7231 5128756
3262.9131 1347.5129 5911.8179 3878689
3323.0215 1357.7625 5956.7852 5129014
3312.022 1339.0481 5874.6807 5721408
3343.115 1337.5636 5868.1685 5129528
3420.4626 1354.4258 5942.146 3878947
3413.0012 1337.7039 5868.7837 4207399
3439.3877 1334.4519 5854.5166 4207656
3489.5654 1340.4034 5880.6274 4602670
3564.5942 1355.6888 5947.6875 4668208
3454.8362 1301.0846 5708.1274 4536365
3542.2134 1321.0601 5795.7637 5194041
3693.5996 1364.2948 5985.4434 3220507
3740.1443 1368.3505 6003.2368 3352093
3771.8496 1366.9519 5997.1006 3023384
3800.2368 1364.3879 5985.8525 3615523
3823.9182 1360.1978 5967.4688 3154713
3907.991 1377.3691 6042.8032 2891797
3978.4548 1389.4758 6095.918 3549471
4083.6565 1413.3878 6200.8247 2957334
4074.2344 1397.5549 6131.3623 4075815
4041.5371 1374.0883 6028.4097 4338730
4052.3511 1365.6968 5991.5942 4470317
4078.0889 1362.4369 5977.2925 3417631
3823.9724 1266.5422 5556.583 1511182
3380.2087 1110.0073 4869.8315 393218
3398.8655 1106.6884 4855.271 196612
3425.416 1105.9738 4852.1357 65546
3449.6594 1104.5323 4845.812 11
3462.053 1099.3519 4823.0845 14
3483.3711 1097.067 4813.0601 14
3474.7395 1085.4633 4762.1519 14
3487.2029 1080.5833 4740.7422 14
3497.5676 1075.1361 4716.8442 14
3503.2778 1068.3558 4687.0981 14
3517.4463 1064.2413 4669.0469 14
3525.7891 1058.442 4643.6045 11
3550.0952 1057.4878 4639.418 9
3536.3198 1045.2917 4585.9111 4
3484.7783 1022.2036 4484.6187 1250322
0 0 0 0
0 0 0 0
4802.6279 1377.2727 6042.3804 4471600
4862.2793 1384.063 6072.1709 4142634
4849.9888 1370.4255 6012.3403 3879208
5046.7446 1415.625 6210.6401 4076587
4986.4355 1388.5847 6092.0083 4602417
5027.8364 1390.053 6098.4497 4536625
4972.3354 1364.9006 5988.1016 3812644
5041.9229 1374.1982 6028.8921 4141610
5031.5698 1361.7301 5974.1914 3549216
4994.9419 1342.3749 5889.2764 4865333
5210.1494 1390.4985 6100.4048 3746595
5251.1182 1391.7784 6106.02 3943973
5283.2407 1390.7122 6101.3418 3681057
5335.4907 1394.9225 6119.8135 3812387
5448.293 1414.7999 6207.02 3549216
5458.0972 1407.844 6176.5029 3746852
5482.4902 1404.7186 6162.7915 3878437
5468.5557 1391.8795 6106.4634 4273452
5476.6646 1384.7826 6075.3276 4207660
5491.8262 1379.55 6052.3716 4207146
5467.4634 1364.5212 5986.437 4272939
5520.7026 1368.9286 6005.7729 3813415
5497.8164 1354.5242 5942.5776 4076587
5455.8198 1335.6246 5859.6616 4076587
5390.1519 1311.2058 5752.5308 4339759
5587.5371 1350.6819 5925.7207 3945001
5619.6499 1349.963 5922.5669 3681574
5738.3789 1369.931 6010.1709 5589572
0 0 0 0
0 0 0 0
0 0 0 0
0 0 0 0
0 0 0 0
-4527.021 1169.2662 4999.8628 5063983
-4481.1963 1165.0533 4981.8477 5129777
-4514.2495 1181.4277 5051.8657 5130289
-4329.9331 1140.7531 4877.938 6248769
-4292.3711 1138.4552 4868.1123 6314562
-4205.4614 1122.9493 4801.8081 6445891
-4233.1948 1138.0527 4866.3916 4669224
-4115.792 1114.0774 4763.8711 4405539
-4203.9604 1145.8 4899.5195 4931625
-4185.6851 1148.7505 4912.1357 4865576
-4183.0791 1156.0728 4943.4463 5787191
-4163.1904 1158.6884 4954.6304 5524533
-4135.6255 1159.1893 4956.7729 3024401
-4204.418 1186.8988 5075.2607 4406054
-4185.1455 1189.9681 5088.3853 3419159
-4086.4224 1170.3278 5004.4014 4274470
-4105.2783 1184.3202 5064.2344 3945505
-4095.886 1190.3096 5089.8452 3287575
-4019.4109 1176.7482 5031.8555 4208677
-3935.8215 1160.8856 4964.0264 3945505
-3993.4473 1186.7498 5074.6235 3616540
-3888.4226 1164.3042 4978.6445 4800812
-3870.2114 1167.7087 4993.2021 4011295
-3901.6794 1186.27 5072.5718 4603433
-3804.1619 1165.5981 4984.1777 4866605
-3837.4895 1185.0076 5067.1738 4406053
-3885.9392 1209.4297 5171.604 5130290
-3730.1035 1170.1544 5003.6602 6380357
-3715.1318 1174.7938 5023.4985 5722171
-3687.4736 1175.4639 5026.3638 6906702
-3755.9292 1207.0326 5161.354 6051391
-3719.23 1205.049 5152.8721 6446149
-3648.7942 1192.0114 5097.1221 6840654
-3636.0435 1197.7582 5121.6958 5853759
-3575.6816 1187.786 5079.0542 6248515
-3482.7019 1166.7175 4988.9644 7893341
-3515.5537 1187.8032 5079.1279 8485732
-3545.8875 1208.3949 5167.1792 6643529
-3548.9155 1219.9587 5216.627 5459513
-3434.6631 1191.0557 5093.0356 4669740
-3410.7839 1193.2573 5102.4502 4406568
-3358.7676 1185.5667 5069.564 5919549
-3412.3547 1215.349 5196.9155 5854012
-3377.8716 1214.0209 5191.2363 6972493
-3360.0552 1218.7134 5211.3018 5919805
-3213.177 1176.2474 5029.7144 5590583
-3267.738 1207.4174 5162.9995 5590328
-3168.906 1181.9629 5054.1538 4669226
-3168.9297 1193.2462 5102.4023 4866092
-3196.6348 1215.2706 5196.5801 4603433
-3155.8479 1211.4315 5180.1641 4340262
-3173.8032 1230.2877 5260.7944 3879968
-3213.2402 1257.9277 5378.9849 5985344
-3158.6226 1248.9318 5340.5176 6511946
-3197.3901 1277.0521 5460.7622 5657150
-3066.7078 1237.3766 5291.1069 4209448
-2995.1973 1221.0032 5221.0933 4801585
-2967.4224 1222.3032 5226.6523 6380617
-2903.5417 1208.6017 5168.0635 3024919
-2923.748 1229.9822 5259.4883 5985345
-2915.7954 1239.8496 5301.6821 6906705
-2868.3289 1232.9471 5272.1665 6511946
-2894.1777 1257.7542 5378.2427 6248517
-2865.46 1259.1357 5384.1504 5787709
-2827.8562 1256.5997 5373.3066 4274727
-2704.71 1215.5613 5197.8232 7367255
-2678.7119 1217.7411 5207.144 7433049
-2683.9597 1234.3416 5278.1289 6906703
-2617.7515 1218.0836 5208.6089 6906704
-2612.7566 1230.2614 5260.6816 6511946
-2575.8281 1227.5149 5248.938 5459001
-2602.9612 1255.603 5369.0444 6116931
-2599.2639 1269.3303 5427.7437 3748383
-2554.8423 1263.2651 5401.8081 5196086
-2568.8909 1286.3239 5500.4087 5590588
-2478.2852 1256.8982 5374.5825 4867378
-2481.3252 1274.8184 5451.2109 5393208
-2416.885 1258.0852 5379.6582 5787710
-2462.4639 1298.9393 5554.3535 4340520
-2382.5935 1273.83 5446.9839 5722173
-2304.2229 1248.8439 5340.1416 5656636
-2297.7407 1262.6666 5399.249 4406056
-2284.0613 1272.8687 5442.8735 4340263
-2315.0232 1308.5973 5595.6514 3352861
-2216.5532 1271.1377 5435.4717 2761492
-2154.7295 1253.8994 5361.7598 2958870
-2126.9822 1256.272 5371.9048 5327417
-2150.0525 1289.1873 5512.6528 5985604
-2132.8188 1298.5785 5552.8105 4867124
-2082.1963 1287.6167 5505.937 5853763
-2084.6519 1309.6512 5600.1587 4669233
-2021.6598 1290.6173 5518.7681 4077352
-2006.1213 1301.7496 5566.3706 2827285
-1970.1017 1299.7418 5557.7852 4932660
-1915.8912 1285.4609 5496.7188 4406316
-1870.7212 1276.8567 5459.9263 4077351
-1820.0942 1264.1593 5405.6318 4603695
-1804.1329 1275.5157 5454.1924 5722176
-1790.1449 1288.7068 5510.5986 5327675
-1774.2908 1301.0197 5563.249 3353630
-1736.818 1297.6465 5548.8252 3090714
-1703.9849 1297.6764 5548.9531 2630164
-1662.0792 1290.6626 5518.9614 3748131
-1593.3423 1262.1135 5396.8838 4340268
-1542.2568 1246.6637 5330.8193 5064245
-1552.1143 1280.8601 5477.0454 5985346
-1510.8116 1273.3964 5445.1299 5393211
-1489.6007 1282.9108 5485.814 4801074
-1448.906 1275.6949 5454.959 5261625
-1400.8931 1261.5596 5394.5151 4274728
-1355.455 1249.1372 5341.396 4011556
-1334.9778 1259.6738 5386.4512 4274471
-1321.0736 1277.0804 5460.8833 4471595
-1287.4982 1275.8677 5455.6973 3748128
-1262.3716 1283.1803 5486.9668 3484701
-1223.7114 1276.7594 5459.5107 4208424
-1205.6227 1292.0358 5524.8335 4537132
-1156.3312 1273.7924 5446.8237 4668972
-1135.2416 1286.4601 5500.9912 3353113
-1106.572 1291.0328 5520.5449 4932401
-1068.2351 1284.262 5491.5923 6182981
-1045.6382 1296.5833 5544.2788 6116934
-1012.9563 1296.7928 5545.1748 5853762
-961.63367 1272.3525 5440.6665 5327420
-942.95398 1290.9053 5519.9995 5195835
-904.9812 1283.4301 5488.0347 4669492
-879.95801 1294.4468 5535.1431 4603443
-841.88263 1286.373 5500.6191 2169874
-800.43524 1272.2894 5440.3965 4011565
-777.22137 1287.222 5504.2495 7038299
-750.71057 1297.7629 5549.3232 4867643
-714.18719 1291.168 5521.1226 5261888
-688.4339 1304.3455 5577.4702 3288096
-655.41406 1304.39 5577.6611 4077099
-624.31317 1308.4609 5595.0688 2893338
-583.7511 1292.0476 5524.8838 6051402
-544.10138 1275.8235 5455.5088 7038812
-526.07269 1311.4497 5607.8486 5197121
-494.26816 1315.2219 5623.979 6184017
-474.01025 1352.4854 5783.3198 6315092
-428.73468 1318.6112 5638.4717 5460039
-395.00671 1317.5292 5633.8447 3946543
-363.32388 1323.6986 5660.2256 4472887
-328.61618 1318.9814 5640.0547 4670523
-291.06165 1300.4766 5560.9268 5130815
-259.30057 1306.4376 5586.4165 6183505
-226.53316 1308.3307 5594.5112 4407351
-193.08754 1306.2844 5585.7617 5262661
-162.37378 1325.6958 5668.7661 6709594
-127.76185 1315.1052 5623.48 1775377
-96.037804 1337.2549 5718.1934 3222821
-60.847496 1308.978 5597.2798 6183504
-27.584005 1304.0643 5576.2681 6051403
5.480444 1311.0917 5606.3174 3156511
38.720642 1312.01 5610.2446 3551268
71.358849 1301.1039 5563.6089 5788746
105.81568 1319.7719 5643.4346 6907227
139.44708 1321.6525 5651.4766 6183761
174.86392 1336.4506 5714.7539 4341300
207.14961 1326.3989 5671.7725 6117712
242.18506 1334.3026 5705.5693 4998717
276.79752 1338.2255 5722.3438 5065023
310.45349 1337.1722 5717.8403 3551525
342.27341 1329.1963 5683.7344 5130557
377.92572 1336.1989 5713.6777 3419683
410.22449 1331.168 5692.1655 3287583
445.86841 1336.932 5716.8125 4998455
476.00159 1326.5245 5672.3096 4603695
501.31479 1304.9431 5580.0259 5261882
530.41528 1295.2804 5538.7075 6051917
536.64465 1234.1459 5277.292 1644307
542.16632 1178.2045 5038.083 131074
565.9339 1165.683 4984.54 65542
591.97198 1158.848 4955.3135 65543
619.58807 1155.6021 4941.4336 11
647.85809 1153.8137 4933.7861 12
674.59351 1149.5646 4915.6172 12
701.16461 1145.3989 4897.8042 5
732.44824 1148.9564 4913.0166 3157809
757.78613 1143.2719 4888.7085 6842208
791.41785 1150.058 4917.7266 7170401
824.42664 1155.489 4940.9502 2895158
854.11993 1156.0602 4943.3926 3091540
872.97638 1142.412 4885.0317 13684434
929.40356 1177.2285 5033.9097 13684690
948.58838 1164.174 4978.0874 7693947
984.27612 1171.5493 5009.625 262163
1021.0152 1179.7076 5044.5107 2365988
1159.292 1301.385 5564.8115 1511953
1183.7815 1292.1315 5525.2422 1971470
1234.3577 1311.084 5606.2847 4208686
1275.7821 1319.5774 5642.603 5129276
1326.3907 1336.894 5716.6504 4406064
1382.147 1358.4075 5808.6436 4405552
1414.0342 1355.9866 5798.2915 5063482
1430.9609 1339.6746 5728.54 4997946
1472.6689 1346.7811 5758.9282 2826777
1521.2167 1359.6792 5814.0815 2497815
1561.809 1365.0531 5837.0605 853508
1545.9192 1321.8969 5652.5215 721408
1566.3945 1311.0068 5605.9551 2958363
1588.2979 1301.7393 5566.3262 4207913
1647.0898 1322.4672 5654.96 6116420
1666.7024 1311.5381 5608.2266 5720894
1686.1127 1300.8801 5562.6523 4471083
1730.5591 1309.5764 5599.8384 4076582
1781.3975 1322.6918 5655.9204 5062962
1800.8722 1312.4652 5612.1909 2168072
1827.2253 1307.5315 5591.0938 2299661
1841.0801 1293.989 5533.1855 3352344
1841.5254 1271.6604 5437.707 3878689
1891.6377 1283.8074 5489.6484 3483417
1931.8169 1288.9164 5511.4946 3483161
1971.9473 1293.8235 5532.4775 3417370
2026.0088 1307.561 5591.2207 5062710
2011.5793 1277.3646 5462.0986 6049862
2036.0747 1272.4504 5441.085 4931125
2090.5527 1286.1351 5499.6021 5062711
2119.1575 1283.7263 5489.3018 4470828
2188.9521 1305.9652 5584.3965 3812898
2221.2915 1305.5281 5582.5273 4076069
2194.0776 1270.6157 5433.2397 4602413
2261.7058 1290.843 5519.7329 4273448
2275.6606 1280.2966 5474.6362 3878947
2339.5034 1297.7197 5549.1382 4800306
2368.2537 1295.4637 5539.4917 5260858
2397.3132 1293.4364 5530.8228 5524286
2436.8057 1297.0167 5546.1323 5261370
2461.7183 1292.8446 5528.292 5261112
2506.1118 1298.8789 5554.0952 5918787
2576.1826 1317.8925 5635.3984 4734513
2645.3943 1335.9854 5712.7651 3353117
2624.386 1308.6339 5595.8081 3615518
2677.2605 1318.3463 5637.3389 3023383
2675.0305 1301.0189 5563.2461 3023382
2723.448 1308.4463 5595.0059 2562831
2758.2893 1309.2509 5598.4463 4010277
2782.5044 1305.0526 5580.4941 3812898
2868.3884 1329.5371 5685.1919 2957332
2940.2222 1347.0166 5759.9351 3220761
2949.9448 1335.9661 5712.6821 1905158
2951.8708 1321.6754 5651.5747 2299915
2959.7134 1310.3247 5603.0381 2299658
2945.6978 1289.656 5514.6572 3220502
2968.3354 1285.3119 5496.0815 5523513
3065.8525 1313.1335 5615.0488 4405032
3086.2947 1307.7006 5591.8169 5260087
3123.0955 1309.2405 5598.4019 3550240
3175.1887 1317.0916 5631.9736 4603185
3215.9792 1320.1395 5645.0073 4208169
3288.2903 1335.9309 5712.5317 2760467
3276.3057 1317.5023 5633.7305 4273708
3273.052 1302.9213 5571.3804 4076328
3376.699 1330.7609 5690.4248 3616034
3377.7891 1318.032 5635.9946 3484192
3432.593 1326.3063 5671.3765 3681313
3432.7144 1313.4967 5616.6016 3352604
3558.0718 1348.3932 5765.8218 4470574
3512.6355 1318.5165 5638.0664 4733746
3657.9495 1360.1287 5816.0034 3615777
3608.2266 1329.121 5683.4121 4405294
3704.7542 1352.061 5781.5059 4470829
3678.8838 1330.3207 5688.542 3878691
3757.6689 1346.4757 5757.6226 4075816
3786.9895 1344.7753 5750.3511 3746851
3754.3291 1321.2916 5649.9331 4207401
3835.5015 1337.9309 5721.0845 4273194
3777.647 1306.2072 5585.4312 4141357
3809.6145 1305.8226 5583.7871 3747116
0 0 0 0
3374.1489 1136.8157 4861.1016 327684
3405.9731 1137.8267 4865.4243 131080
3415.0854 1131.2969 4837.5024 65547
3438.8008 1129.673 4830.5586 65547
3449.8621 1123.9532 4806.1011 11
3461.7893 1118.6071 4783.2402 11
3461.6958 1109.4949 4744.2759 11
3475.585 1104.975 4724.9482 12
3479.0586 1097.2422 4691.8828 12
3487.9216 1091.3184 4666.5522 12
3506.8127 1088.6008 4654.9316 13
3518.5564 1083.7241 4634.0786 11
3496.5945 1068.6221 4569.501 10
3492.4399 1059.1523 4529.0078 65540
3437.2654 1034.472 4423.4736 591880
0 0 0 0
0 0 0 0
4720.7129 1388.9673 5939.3193 4471857
4841.0527 1413.8365 6045.6621 4734772
4765.7915 1381.6348 5907.9648 4010793
4782.1572 1376.2719 5885.0327 4273965
4857.4277 1387.8164 5934.3979 3879463
4844.4165 1374.1531 5875.9727 4470574
4822.7075 1358.2354 5807.9072 4010280
4847.3379 1355.5013 5796.2163 5326396
4840.1743 1343.9775 5746.9399 4996662
4828.4136 1331.3472 5692.9312 4536367
4983.1968 1364.4948 5834.6729 4207402
4994.2397 1358.0983 5807.3208 4010024
5152.5117 1391.5515 5950.3696 4931125
5231.644 1403.3219 6000.7007 4470574
5315.731 1416.2537 6055.9976 5062711
5293.311 1400.8259 5990.0273 3681059
5195.3975 1365.7579 5840.0747 3680802
5178.1406 1352.2167 5782.1709 3746852
5306.6323 1376.6639 5886.709 2957337
5319.9819 1371.1163 5862.9873 3615266
5189.0874 1328.7061 5681.6377 4536111
5169.8569 1315.2505 5624.1011 4405552
5220.7554 1319.6942 5643.103 4932153
5377.083 1350.5623 5775.0967 4865847
5407.1191 1349.5198 5770.6387 3023643
5422.709 1344.9075 5750.9165 2958105
5542.7622 1366.0995 5841.5347 3879207
5557.6582 1361.2717 5820.8906 4471601
0 0 0 0
0 0 0 0
0 0 0 0
0 0 0 0
0 0 0 0
0 0 0 0
-4316.5562 1150.6782 4798.8135 5261874
-4177.2466 1120.9247 4674.7285 6314562
-4153.8032 1122.0729 4679.5171 6446148
-4236.4214 1152.0796 4804.6577 6709320
-4159.2676 1138.7491 4749.064 6511428
-4103.6792 1131.1814 4717.5034 5458996
-4045.8752 1122.895 4682.9453 4471845
-4128.0532 1153.613 4811.0527 5261361
-4029.5776 1133.9225 4728.9351 5458483
-3980.2317 1127.8781 4703.7271 4800810
-4128.9321 1178.2644 4913.8594 5129774
-3996.7678 1148.6475 4790.3442 5393206
-4014.0349 1161.8597 4845.4448 4274468
-3895.2805 1135.6073 4735.9614 5985086
-4013.2734 1178.4949 4914.8203 3616538
-3988.9985 1179.9269 4920.7925 3945503
-3945.0808 1175.527 4902.4434 4077088
-3758.6516 1128.2826 4705.4141 5656122
-3801.7114 1149.7355 4794.8813 4537640
-3749.6079 1142.5146 4764.7676 4471847
-3755.042 1152.8491 4807.8672 4537640
-3773.3896 1167.3367 4868.2861 5392692
-3718.6016 1159.2479 4834.5522 5853500
-3714.3425 1166.9077 4866.4971 5985086
-3718.5923 1177.3816 4910.1777 5721914
-3646.2173 1163.5684 4852.5703 4340260
-3683.0386 1184.6587 4940.5264 3616538
-3589.2302 1163.7332 4853.2578 6972237
-3560.8433 1163.8523 4853.7549 6445895
-3522.7415 1160.7723 4840.9102 6314309
-3550.207 1179.4242 4918.6963 6380103
-3481.7717 1166.2616 4863.8027 6116931
-3453.8186 1166.5525 4865.0156 5524793
-3403.1707 1159.1184 4834.0122 5854013
-3398.9263 1167.4973 4868.9561 6249027
-3381.3162 1171.3892 4885.187 5262133
-3412.1577 1192.2784 4972.3042 5524535
-3363.2229 1185.4133 4943.6733 5458742
-3263.1426 1160.2422 4838.6992 5590325
-3275.0308 1174.7893 4899.3667 6248255
-3322.457 1202.4585 5014.7588 5919292
-3327.5413 1215.1642 5067.7471 4669225
-3289.594 1212.2438 5055.5679 4273696
-3210.9058 1194.1185 4979.9775 4141853
-3209.1123 1204.5189 5023.3516 4142110
-3165.259 1199.1793 5001.0835 5129261
-3120.9534 1193.566 4977.6733 5721656
-3109.6531 1200.5883 5006.959 3813660
-3057.0596 1191.6495 4969.6812 4208677
-3094.8389 1218.1073 5080.021 3748126
-3127.9949 1243.2469 5184.8638 4077091
-3117.8411 1251.5006 5219.2856 4603178
-3149.4446 1276.8492 5324.9995 4340520
-3122.8518 1278.8777 5333.4595 4801072
-3019.6643 1249.2601 5209.9414 5393208
-3012.7324 1259.2637 5251.6602 4077349
-2897.7122 1223.8256 5103.8687 4011558
-2828.2085 1207.0665 5033.9766 4537901
-2907.3655 1254.0742 5230.0181 5524796
-2838.1667 1237.4128 5160.5332 5853503
-2801.0203 1234.5153 5148.4492 5130293
-2817.1567 1255.2963 5235.1147 4209447
-2793.821 1258.7557 5249.542 3221785
-2589.6052 1179.8801 4920.5977 196608
-2630.4165 1212.1194 5055.0488 4143144
-2636.4556 1228.8931 5125.0024 5985346
-2585.801 1219.324 5085.0952 7169362
-2538.2271 1210.9991 5050.377 4998706
-2521.4954 1217.3662 5076.9302 6116931
-2548.1201 1245.072 5192.4756 5919552
-2527.1975 1249.9382 5212.7695 5130037
-2510.7498 1257.1655 5242.9102 5787710
-2492.4949 1263.6576 5269.9849 4406313
-2452.939 1259.3782 5252.1377 3748384
-2431.3889 1264.3519 5272.8804 3682590
-2355.2017 1240.6733 5174.1309 6116675
-2329.0056 1243.052 5184.0508 5524794
-2315.7703 1252.504 5223.4702 5459000
-2305.1741 1263.6589 5269.9907 6051138
-2219.4324 1233.3611 5143.6357 5787966
-2221.8838 1251.9116 5220.9995 5261623
-2179.9373 1245.6171 5194.7485 4866865
-2149.2041 1245.6412 5194.8491 6973267
-2107.4814 1239.2042 5168.0044 5262394
-2111.949 1260.1377 5255.3057 4143655
-2098.4316 1270.8063 5299.7979 3485213
-2053.1702 1262.2826 5264.2505 5853506
-2011.1672 1255.53 5236.0898 5261625
-1988.8516 1261.0491 5259.1064 4340522
-1969.4823 1268.6415 5290.77 4932660
-1922.5389 1258.4305 5248.186 5722175
-1867.7119 1242.6387 5182.3271 5261625
-1873.6277 1267.4081 5285.626 5261625
-1818.0132 1250.6902 5215.9053 5064246
-1801.9315 1261.0608 5259.1553 4406316
-1796.1959 1279.1642 5334.6543 4472109
-1745.0123 1264.9706 5275.4609 4867124
-1702.9912 1257.0225 5242.3135 5261882
-1718.1335 1291.7565 5387.1694 5261881
-1683.9336 1290.0059 5379.8687 3748388
-1641.3163 1281.6152 5344.876 3485474
-1603.3445 1276.593 5323.9312 3024923
-1540.3679 1251.061 5217.4517 4998457
-1489.2527 1234.314 5147.6099 4143403
-1484.6625 1256.2336 5239.0239 5525056
-1458.8033 1260.7085 5257.686 4538160
-1425.5598 1258.8578 5249.9678 4143401
-1388.5878 1253.5585 5227.8677 4538159
-1360.7335 1256.4365 5239.8701 4669488
-1318.6907 1246.0419 5196.52 3879975
-1294.1027 1252.0377 5221.5254 3551268
-1280.1133 1268.8325 5291.5669 3288353
-1243.5015 1263.4846 5269.2637 2038287
-1207.1223 1258.1038 5246.8232 2958875
-1195.5278 1278.9526 5333.7715 2498065
-1174.8859 1290.9918 5383.9805 3418911
-1132.8441 1279.5322 5336.189 3287581
-1094.5962 1271.8228 5304.0371 3353374
-1061.4086 1269.7112 5295.231 2892826
-1038.6931 1280.3796 5339.7227 3287839
-1008.5711 1282.3015 5347.7383 5722435
-968.10504 1270.7703 5299.6479 5130298
-923.16949 1252.4025 5223.0464 6248777
-890.61029 1250.1332 5213.5825 7498589
-849.73553 1235.609 5153.0107 6051400
-825.77893 1245.52 5194.3438 4866870
-807.08289 1264.4401 5273.248 4800566
-776.12463 1264.8989 5275.1621 4142637
-756.70764 1284.9954 5358.9722 4208943
-734.9325 1302.6718 5432.6904 5392960
-709.84534 1315.8279 5487.5571 6248781
-661.71277 1285.4778 5360.9844 3880490
-637.72742 1301.342 5427.145 4998971
-604.87292 1299.8315 5420.8457 4274991
-560.97424 1273.0879 5309.3135 4340783
-522.61298 1256.4803 5240.0527 4669748
-495.62009 1266.8333 5283.229 4735798
-480.88702 1312.0311 5471.7231 5722693
-447.08923 1307.9879 5454.8608 5591365
-410.24817 1293.7175 5395.3477 5196609
-377.68112 1291.6527 5386.7363 5657161
-349.5582 1305.8079 5445.7695 3617580
-315.03961 1296.5211 5407.0396 2498844
-278.60016 1276.3319 5322.8423 5196352
-248.15521 1281.9564 5346.2988 3485477
-217.65123 1288.8772 5375.1616 5195838
-186.0903 1290.8385 5383.3408 3945515
-156.54712 1310.5022 5465.3472 4933180
-124.89707 1318.1846 5497.3857 5196096
-92.282059 1317.51 5494.5723 5656647
-60.32621 1330.6394 5549.3276 5459780
-26.930958 1305.4438 5444.251 5789001
5.2741809 1293.7101 5395.3169 5065022
38.18755 1326.7253 5533.0044 4867386
71.286987 1332.7203 5558.0059 4538679
103.39429 1322.2393 5514.2954 4472886
135.79755 1319.6671 5503.5684 5130816
166.55069 1305.16 5443.0679 4933436
199.77817 1311.6041 5469.9419 5855051
233.91618 1321.3928 5510.7651 4670266
264.96619 1313.4762 5477.7495 3617577
295.88495 1306.7075 5449.5215 5722699
329.39493 1311.5884 5469.8765 5722698
356.79749 1293.4545 5394.2505 4407349
394.0206 1310.9764 5467.3247 4735543
426.04883 1309.8652 5462.6904 4077612
455.87491 1302.6185 5432.4683 4340784
485.47668 1295.7288 5403.7354 3945772
502.94775 1259.3176 5251.8857 3288360
505.45474 1191.8638 4970.5747 196609
533.91425 1189.6638 4961.3999 6
560.57288 1183.8904 4937.3218 8
588.25983 1180.7534 4924.2393 9
614.41937 1174.9918 4900.2114 11
643.64368 1175.3467 4901.6914 11
669.79462 1170.301 4880.6484 7
694.75903 1163.6855 4853.0596 131587
724.89691 1165.9167 4862.3647 6907490
755.98633 1169.4493 4877.0972 6446677
796.23297 1186.366 4947.6465 5526095
833.00372 1197.0863 4992.3545 12632525
872.82928 1211.3109 5051.6772 13617358
885.35266 1187.9584 4954.2876 13684693
910.42841 1182.4069 4931.1353 13685202
943.521 1187.2886 4951.4941 13749716
976.14117 1191.2994 4968.2207 13880021
1014.4075 1201.7643 5011.8638 11708080
1056.9492 1216.5552 5073.5479 5391958
1103.2358 1234.7192 5149.2998 656132
1137.0262 1238.2966 5164.2188 5261636
1215.1182 1288.6694 5374.2949 3353636
1272.9236 1315.505 5486.2104 3945771
1302.8436 1312.9036 5475.3613 4274992
1358.9867 1336.2122 5572.5679 4603699
1402.9408 1346.7146 5616.3677 5984839
1426.8734 1337.9565 5579.8428 5063993
1467.7395 1345.1138 5609.6919 4603699
1496.7855 1341.3617 5594.0435 5130043
1475.8694 1293.9677 5396.3906 4734517
1487.2809 1276.3256 5322.8159 3484706
1511.5081 1270.1857 5297.21 2760980
1583.8282 1303.8882 5437.7637 3616034
1598.4723 1289.7118 5378.6416 2892564
1613.6661 1276.5242 5323.644 3353115
1620.2472 1257.1595 5242.8853 3879716
1651.1385 1257.0311 5242.3496 4405803
1680.1146 1255.4762 5235.8652 5457976
1808.9373 1327.2362 5535.1348 4076067
1793.1371 1292.2188 5389.0972 3418137
1806.9615 1279.402 5335.646 3681051
1854.6866 1290.6163 5382.4141 4010016
1858.6051 1271.483 5302.6206 3088657
1928.3627 1297.2783 5410.1973 2891535
1975.4196 1307.2079 5451.6084 3023122
1981.1208 1289.8921 5379.394 5523513
1994.9954 1278.3617 5331.3071 4865327
2015.7363 1271.522 5302.7827 3286553
2036.8911 1265.1493 5276.2061 3681312
2074.5962 1269.0935 5292.6548 3483933
2152.2976 1297.0229 5409.1328 4865844
2149.3733 1276.2588 5322.5376 4339757
2175.2598 1272.9552 5308.7598 5655101
2177.0977 1255.873 5237.52 4076068
2202.7476 1252.8142 5224.7632 4470826
2249.7463 1261.814 5262.2959 4865842
2295.2505 1269.7408 5295.3545 3156256
2368.979 1292.8572 5391.7598 5195322
2373.842 1278.2756 5330.9482 5392444
2400.313 1275.5597 5319.6216 5261115
2425.4597 1272.2195 5305.6919 4734514
2448.488 1267.8679 5287.5439 5194808
2512.6106 1284.6366 5357.4766 5590334
2526.4441 1275.5962 5319.7744 5589568
2586.3354 1289.7466 5378.7871 4076329
2556.0464 1259.1289 5251.0986 3353118
2599.0903 1264.9377 5275.3237 4208170
2703.6577 1300.1951 5422.3618 4339242
2772.1099 1317.4606 5494.3662 5062965
2829.1731 1328.9755 5542.3882 4931636
2886.9392 1340.5527 5590.6699 4207912
2897.1711 1330.0449 5546.8481 3615775
2904.0439 1318.248 5497.6499 2957335
2872.1448 1289.3081 5376.9585 2825749
2859.8293 1269.6976 5295.1748 3812644
2862.6118 1257.1434 5242.8179 4470827
2942.5808 1278.3917 5331.4326 4338985
2961.917 1273.127 5309.4761 5194550
3017.1597 1283.2444 5351.6704 4010791
3147.2363 1324.6486 5524.3433 3550752
3184.8167 1326.6702 5532.7739 3352861
3231.2502 1332.3008 5556.2563 5919045
3186.0093 1300.4 5423.2163 4997687
3110.1528 1256.7651 5241.2402 4076328
3338.498 1335.7009 5570.436 3616034
3346.7251 1325.8862 5529.5044 4076586
3371.5908 1322.7898 5516.5913 3879207
3407.4194 1324.0127 5521.6909 3287069
3423.2271 1317.5067 5494.5586 4800309
3465.7017 1321.29 5510.3364 4405549
3552.4377 1341.72 5595.5381 4800053
3560.9128 1332.4868 5557.0322 4602928
3551.948 1316.9568 5492.2651 3746849
3597.1765 1321.6196 5511.7109 3878690
3673.0964 1337.3733 5577.4106 3088919
3643.9265 1314.9237 5483.7866 3680800
3646.6877 1304.2919 5439.4473 3483679
3761.6863 1333.6381 5561.833 4141612
3522.7549 1238.0845 5163.3345 3023649
0 0 0 0
3377.1096 1166.6367 4865.3667 262147
3373.2078 1155.4272 4818.6187 131080
3409.2368 1157.9686 4829.2173 131081
3424.325 1153.4143 4810.2241 65547
3444.5317 1150.645 4798.6748 11
3459.0476 1146.0355 4779.4517 12
3451.2925 1134.1823 4730.0181 12
3465.7786 1129.7699 4711.6167 12
3473.0066 1123.0809 4683.7212 12
3484.9109 1117.9983 4662.5244 12
3362.0576 1070.1038 4462.7842 12
3377.3091 1066.571 4448.0508 10
3415.0396 1070.1367 4462.9214 11
3494.9639 1086.7681 4532.2808 8
3390.0867 1046.1193 4362.7583 1251099
0 0 0 0
0 0 0 0
4585.2832 1383.2965 5768.9297 4734775
4583.5073 1372.5305 5724.0312 5853513
4627.6133 1375.5614 5736.6709 4405552
4670.3193 1378.1346 5747.4023 4405552
4696.3389 1375.7825 5737.5928 3943973
4703.7422 1368.0497 5705.3438 3615265
4754.666 1372.9944 5725.9658 4865331
4647.1274 1332.4347 5556.8145 5457723
4721.3516 1344.1942 5605.8569 4733744
4728.9697 1336.9589 5575.6821 4405036
4752.7275 1334.3551 5564.8237 4010278
4871.8843 1358.3867 5665.0454 4536365
4896.1636 1355.8164 5654.3262 4404781
4852.9541 1334.7196 5566.3433 4601903
5061.4438 1382.6656 5766.2988 5062711
5165.4346 1401.6136 5845.3198 4404782
5047.3071 1360.4399 5673.6084 4010024
5028.2524 1346.3383 5614.7983 4207403
5136.5854 1366.3065 5698.0742 4799541
5079.5874 1342.3237 5598.0562 3747109
5117.6733 1343.616 5603.4453 3812645
5181.623 1351.6382 5636.9009 3549986
5210.874 1350.5643 5632.4224 4734517
5211.8091 1342.2118 5597.5889 5260860
5246.1802 1342.5214 5598.8804 3813414
5363.7285 1363.9786 5688.3662 4076587
5412.9272 1367.8955 5704.7012 3813672
5443.0952 1366.9844 5700.9014 3681829
0 0 0 0
0 0 0 0
0 0 0 0
0 0 0 0
0 0 0 0
0 0 0 0
-4125.0298 1126.7904 4585.8896 6314562
-4073.4583 1120.0801 4558.5796 6117183
-4101.311 1135.2653 4620.3813 5985340
-3968.5432 1105.8953 4500.8491 6972492
-4073.2151 1142.7415 4650.8086 7169871
-4069.552 1149.4894 4678.2715 6709319
-3862.1809 1098.3955 4470.3262 6182975
-3877.874 1110.4733 4519.481 6248766
-3740.3892 1078.5497 4389.5562 6840903
-3676.8276 1067.6442 4345.1724 6775110
-3698.8574 1081.6135 4402.0254 6380352
-3726.8152 1097.5269 4466.791 4998189
-3808.5718 1129.6248 4597.4248 6248256
-3763.043 1124.16 4575.1846 5721912
-3735.7141 1124.0925 4574.9097 5590326
-3736.812 1132.6403 4609.6978 5656119
-3694.5779 1128.083 4591.1504 5853500
-3546.4717 1090.892 4439.7881 5655865
-3516.4255 1089.7319 4435.0664 4603433
-3667.1494 1144.9961 4659.9844 4142882
-3729.9607 1173.4415 4775.7534 3945503
-3608.0137 1143.7528 4654.9243 6511429
-3584.6926 1145.1123 4660.4575 5984829
-3606.1094 1160.8951 4724.6914 5919806
-3605.0598 1169.6357 4760.2646 7038030
-3521.1172 1151.4081 4686.0806 6775373
-3492.0571 1150.9801 4684.3384 6972496
-3493.6165 1160.7183 4723.9717 7038801
-3362.1194 1126.0499 4582.876 6314565
-3417.2185 1153.8213 4695.9019 6249028
-3376.3635 1149.3838 4677.8418 6117184
-3306.8916 1135.0504 4619.5068 5524791
-3278.5171 1134.7018 4618.0879 5721916
-3298.3767 1151.1815 4685.1582 6511686
-3289.6814 1157.8905 4712.4629 6314051
-3249.7798 1153.6362 4695.1489 5985341
-3258.9443 1166.8768 4749.0366 7037771
-3188.0815 1151.4447 4686.2295 6708293
-3149.7078 1147.5785 4670.4946 5063981
-3260.281 1198.3926 4877.3013 5524532
-3194.4912 1184.7096 4821.6133 5918520
-3134.2607 1172.8597 4773.3862 5524274
-3159.9771 1193.249 4856.3677 4931624
-3131.5012 1193.3612 4856.8242 5327154
-3131.5571 1204.4492 4901.9512 4142879
-3123.1917 1212.4757 4934.6177 4932396
-3060.0598 1199.1915 4880.5527 6248256
-3056.897 1209.379 4922.0146 4932141
-3092.2358 1235.1416 5026.8652 4932398
-3142.0249 1267.2334 5157.4741 4406056
-3030.4897 1234.2516 5023.2427 4208677
-2932.0859 1206.0167 4908.3306 4274213
-2893.9824 1202.2672 4893.0703 4735279
-3009.6677 1262.9778 5140.1548 3419419
-2942.9895 1247.6202 5077.6514 4208934
-2896.7773 1240.7112 5049.5322 4735279
-2832.7727 1225.9578 4989.4878 4340520
-2768.0911 1210.5972 4926.9722 4735279
-2710.8848 1198.2133 4876.5713 3945763
-2721.603 1215.9087 4948.5898 4932656
-2719.4863 1228.193 4998.585 5261367
-2692.3865 1229.3402 5003.2544 2564375
-2644.4626 1220.8992 4968.8999 656899
-2637.1589 1231.2327 5010.9561 196608
-2610.1965 1232.5188 5016.1904 2432273
-2540.3293 1213.3418 4938.1426 5524797
-2525.6868 1220.4022 4966.8779 6182468
-2489.5872 1217.1392 4953.5972 5919552
-2484.5913 1229.1859 5002.626 6051138
-2444.5435 1223.973 4981.4102 5722173
-2423.0928 1228.058 4998.0356 5656379
-2391.3354 1226.9561 4993.5508 4472106
-2362.2568 1227.2181 4994.6172 3287319
-2329.6316 1225.6208 4988.1167 4076836
-2330.0493 1241.5897 5053.1079 3945250
-2332.4287 1259.0333 5124.1011 4800302
-2244.166 1227.3636 4995.2095 4997939
-2222.1687 1231.5731 5012.3418 5261110
-2239.6951 1258.0983 5120.2954 3353627
-2137.907 1217.4093 4954.6968 6577482
-2125.6516 1227.2809 4994.8726 5656381
-2069.6113 1211.7941 4931.8438 5393208
-2039.3445 1211.1709 4929.3071 5459002
-2026.5865 1221.0791 4969.6323 5853759
-2057.7974 1258.1626 5120.5571 4998450
-1982.9786 1230.5579 5008.21 3945506
-1985.179 1250.6355 5089.9233 5787710
-1972.6212 1261.892 5135.7354 5261622
-1954.3319 1269.7769 5167.8262 4274470
-1931.0114 1274.592 5187.4229 3024661
-1871.8326 1255.5112 5109.7666 4472106
-1833.7479 1250.1844 5088.0874 5919552
-1806.5115 1252.1992 5096.2871 3222040
-1772.9258 1249.8064 5086.5488 5195829
-1778.9039 1275.7035 5191.9463 5196089
-1742.3032 1271.4398 5174.5942 7367003
-1673.6073 1243.1829 5059.5918 5261884
-1679.9949 1270.6855 5171.5239 5130298
-1660.0917 1278.9552 5205.1807 5525057
-1633.0372 1281.9242 5217.2642 5919815
-1581.0343 1265.0455 5148.5703 4208940
-1536.179 1253.3344 5100.9072 3946024
-1504.9821 1252.5205 5097.5947 6117193
-1461.1472 1240.9399 5050.4634 6314828
-1421.5222 1232.5253 5016.2168 5788226
-1425.7253 1262.5638 5138.4697 4340781
-1411.5291 1277.2638 5198.2964 5130295
-1335.1512 1235.0977 5026.686 4275242
-1291.686 1222.1484 4973.9844 4340524
-1275.1558 1234.6744 5024.9634 3879973
-1249.8103 1239.0599 5042.812 3946023
-1232.1025 1251.4177 5093.1064 5196346
-1211.3727 1261.2494 5133.1201 4538160
-1200.1465 1281.7371 5216.5024 3156252
-1164.1603 1276.1655 5193.8271 4077353
-1132.1777 1274.7996 5188.2676 5195578
-1097.9775 1270.7906 5171.9521 3879975
-1086.037 1293.0544 5262.5625 4011304
-1031.1677 1264.0118 5144.3628 4932150
-987.22333 1246.9999 5075.1265 4274476
-933.69843 1216.4375 4950.7417 4340269
-939.96393 1264.3149 5145.5967 3682339
-902.55371 1254.686 5106.4082 6116936
-874.23871 1257.4713 5117.7441 5459262
-837.53015 1247.9502 5078.9941 6709074
-806.46112 1246.4357 5072.8301 4603698
-776.64484 1246.8151 5074.3745 4866614
-741.30817 1238.0057 5038.5215 4734774
-728.20917 1267.153 5157.147 2169360
-682.22369 1239.1213 5043.062 5787718
-679.34491 1290.4025 5251.7695 3419684
-635.04041 1264.1422 5144.8936 4998714
-622.93268 1302.5577 5301.2397 5393985
-582.90533 1283.5729 5223.9736 5065277
-545.46466 1268.4741 5162.5239 4407091
-509.28152 1254.6798 5106.3828 7038811
-486.61896 1274.5564 5187.2783 6183502
-444.83728 1243.6603 5061.5352 4933435
-422.42255 1266.3568 5153.9067 4801849
-388.79913 1256.3701 5113.2622 5262401
-363.32437 1273.2524 5181.9707 4473144
-335.92236 1285.8735 5233.3369 6907229
-304.97903 1286.1271 5234.3691 4209973
-272.2832 1278.2112 5202.1523 5854540
-242.14282 1281.802 5216.7671 5722952
-212.88309 1291.7875 5257.4062 4735800
-185.29646 1317.088 5360.3765 5393473
-148.76875 1276.1565 5193.79 2235153
-118.00312 1276.1948 5193.9463 3024669
-88.821762 1299.438 5288.5425 3156256
-57.285179 1294.7805 5269.5874 3354149
-26.064398 1294.6534 5269.0703 5459011
5.0836535 1277.7838 5200.4131 2893341
36.019855 1282.3329 5218.9272 3090977
67.072807 1284.916 5229.4404 4406581
98.010338 1284.3546 5227.1553 4472375
126.9075 1263.7445 5143.2754 4471861
158.80554 1275.2124 5189.9478 4406324
190.99733 1284.936 5229.522 4340274
225.79355 1307.0215 5319.4067 4341044
258.06805 1310.8877 5335.1416 3881006
287.17325 1299.568 5289.0718 2499100
314.15164 1281.7976 5216.749 4012080
346.23074 1286.1584 5234.4971 5590855
377.77905 1287.9926 5241.9614 4801594
409.97922 1291.6017 5256.6499 6380370
440.69797 1290.3636 5251.6113 4735546
472.97565 1293.5522 5264.5889 2630174
494.51328 1268.7905 5163.8115 131073
505.44113 1221.2777 4970.4409 131076
528.96411 1207.7542 4915.4014 65544
555.38831 1201.92 4891.6577 9
583.48419 1200.1031 4884.2632 9
611.27173 1197.8536 4875.1079 11
639.33972 1196.3319 4868.9146 11
661.90521 1185.0898 4823.1606 4
689.40717 1183.2506 4815.6753 5920339
708.27997 1167.3357 4750.9038 5262148
754.89075 1196.6057 4870.0293 7367014
789.33716 1205.1486 4904.7974 328196
825.31091 1215.3339 4946.25 328221
857.32318 1219.187 4961.9321 8683680
878.96216 1208.5222 4918.5273 13750737
899.07092 1196.5052 4869.6201 13750227
927.8186 1196.375 4869.0898 13816019
956.27832 1195.8923 4867.1255 13750226
988.31866 1199.7848 4882.9673 13750228
1034.8235 1220.516 4967.3403 13750224
1058.2874 1213.6765 4939.5049 197380
1084.9215 1210.743 4927.5659 1644055
1179.1096 1281.3765 5215.0347 4999231
1228.0066 1300.4402 5292.6216 4406321
1264.3574 1305.5994 5313.6187 4603957
1300.1744 1309.9698 5331.4062 5130044
1327.15 1305.4364 5312.9556 4143150
1353.4827 1300.4952 5292.8457 4471602
1417.5959 1331.2574 5418.0439 4668979
1437.5358 1320.0929 5372.6055 4734771
1472.7123 1323.1006 5384.8467 4471856
1479.8374 1301.3136 5296.1763 5327422
1502.2177 1293.5676 5264.6509 5787460
1523.9486 1285.5889 5232.1787 4735028
1536.9022 1270.6714 5171.4663 3221531
1565.6456 1269.1364 5165.2192 4010789
1585.7413 1260.7849 5131.2295 3747873
1619.17 1263.1487 5140.8501 4735024
1671.1416 1279.624 5207.9023 5392956
1683.589 1265.786 5151.5835 6314057
1713.3167 1265.2014 5149.2046 6181698
1759.2262 1276.3779 5194.6914 4733995
1791.5028 1277.4491 5199.0508 4207138
1822.7557 1277.7662 5200.3418 4404774
1875.4866 1292.879 5261.8486 4207908
1891.8948 1282.8676 5221.1035 3944482
1915.3877 1277.9052 5200.9067 4076068
1902.0448 1248.9127 5082.9116 5852480
1968.0924 1272.1406 5177.4463 3286553
1995.6678 1270.1694 5169.4238 3023381
1996.7573 1251.6554 5094.0742 3352089
2017.993 1246.1333 5071.5996 3680797
2081.8438 1266.7023 5155.3125 3680797
2120.1921 1271.3838 5174.3657 3352089
2126.8279 1257.1864 5116.5845 4536106
2135.6316 1244.6514 5065.5684 4733484
2166.7695 1245.2999 5068.208 4601899
2157.5972 1223.0801 4977.7759 4470313
2260.208 1263.9714 5144.1987 3680540
2211.8489 1220.4716 4967.1597 4009762
2235.3918 1217.2676 4954.1201 4405035
2364.2639 1270.7598 5171.8262 4668464
2345.8433 1244.7281 5065.8809 4273707
2362.1357 1237.5406 5036.6289 5984580
2451.7424 1268.4633 5162.48 3287068
2493.3413 1274.092 5185.3882 4405549
2512.426 1268.219 5161.4858 3352861
2559.3289 1276.3606 5194.6206 4537135
2605.832 1284.1115 5226.166 4734000
2693.7712 1311.8597 5339.0977 4273706
2734.7927 1316.3804 5357.4961 5326394
2692.842 1281.317 5214.793 3484188
2722.239 1280.6129 5211.9272 4339242
2743.2195 1276.0098 5193.1929 4273963
2797.5769 1286.8618 5237.3594 3484192
2796.5269 1272.2683 5177.9658 3287070
2805.782 1262.6289 5138.7349 5524033
2833.9817 1261.6302 5134.6704 5129270
2879.895 1268.4548 5162.4453 5129014
2950.5769 1285.9307 5233.5698 3483933
2986.0762 1287.869 5241.4585 2694159
2977.5305 1270.9668 5172.6689 2957332
3042.8279 1285.6082 5232.2568 3812898
3045.239 1273.6521 5183.5977 3681827
3077.8955 1274.4586 5186.8799 4208428
3174.2507 1301.3641 5296.3818 3944743
3203.2292 1300.3904 5292.4189 3813414
3280.3345 1318.7838 5367.2778 4339756
3286.5315 1308.5908 5325.7935 3550240
3363.9441 1326.6777 5399.4048 3747619
3421.3076 1336.5913 5439.752 2958103
3376.8711 1306.9213 5318.9985 4076328
3343.8994 1282.1958 5218.3691 4339244
3385.8982 1286.4069 5235.5078 3155228
3438.8511 1294.6656 5269.1196 3286557
3446.5007 1285.8733 5233.3364 3879462
3465.9785 1281.6115 5215.9912 5194810
3529.1934 1293.4546 5264.1914 4339501
3574.323 1298.5201 5284.8071 4273967
3548.9443 1278.1051 5201.7207 3879468
3290.9565 1174.9915 4782.062 262401
3335.032 1180.5652 4804.7461 262149
3360.3101 1179.4468 4800.1943 196615
3379.429 1176.2035 4786.9946 8
3403.1289 1174.5952 4780.4492 9
3421.1252 1171.0613 4766.0664 9
3434.6245 1166.0585 4745.7056 11
3434.3381 1156.4946 4706.7817 9
3448.6216 1151.9517 4688.2925 9
3454.5632 1144.717 4658.8486 9
3468.082 1140.0879 4640.0088 11
3472.8022 1132.662 4609.7861 12
3366.0691 1089.2849 4433.2471 10
3384.9573 1086.9166 4423.6084 10
3416.1831 1088.516 4430.1177 10
3481.2104 1100.7792 4480.0273 2107708
3649.6692 1145.3149 4661.2822 8419707
3521.7249 1096.865 4464.0972 3747626
4133.2236 1277.7253 5200.1753 5129533
4371.7266 1341.4565 5459.5527 5260608
4425.7607 1348.0635 5486.4419 5195325
4410.2515 1333.5458 5427.3569 4800310
4509.5757 1353.7097 5509.4214 5195067
4568.7812 1361.6271 5541.6445 5063481
4384.4375 1297.365 5280.106 5063738
4446.5137 1306.4128 5316.9297 5918790
4537.2529 1323.6957 5387.2686 4997429
4548.1992 1317.6208 5362.5449 4470830
4619.0449 1328.863 5408.2988 4470574
4740.7935 1354.4937 5512.6123 3483679
4765.5698 1352.2572 5503.5103 4141609
4719.5747 1330.1058 5413.3569 4404781
4809.6899 1346.3542 5479.4858 4733746
4951.9429 1376.8816 5603.728 4273196
4836.2012 1335.7448 5436.3066 4470575
4938.0854 1354.8625 5514.1133 4010024
4978.9854 1357.1066 5523.2466 3746852
4862.9639 1316.829 5359.3218 4207403
4838.8027 1301.7872 5298.104 4338989
4997.7915 1335.8947 5436.917 3023386
4956.2202 1316.2997 5357.1675 4010794
5054.1138 1333.7579 5428.2207 4208173
4985.4844 1307.3289 5320.6577 4405038
5048.5298 1315.5436 5354.0903 4141609
5055.5176 1309.1393 5328.0259 4405038
5129.2842 1319.9999 5372.2271 4602673
0 0 0 0
0 0 0 0
0 0 0 0
0 0 0 0
0 0 0 0
0 0 0 0
-3994.4026 1117.4158 4440.668 6248257
-3922.9211 1104.6948 4390.1143 5854011
-3920.3752 1111.3458 4416.5459 7169871
-3995.0291 1140.1178 4530.8872 6972748
-3915.4155 1124.9558 4470.6328 7038284
-3919.8125 1133.889 4506.1338 7169871
-3807.3428 1108.907 4406.8535 6051390
-3735.5476 1095.5081 4353.606 6643527
-3653.1375 1078.7885 4287.1611 6511685
-3580.4189 1064.7168 4231.2397 5196080
-3582.1877 1072.7533 4263.1768 5393459
-3659.2986 1103.6266 4385.8691 6182461
-3715.0916 1128.4661 4484.5825 6380097
-3673.7905 1123.9585 4466.6694 6051131
-3646.4175 1123.6777 4465.5532 6774855
-3600.9358 1117.7716 4442.082 6840137
-3534.5981 1105.257 4392.3481 5919290
-3510.739 1105.938 4395.0547 6314049
-3521.6982 1117.6796 4441.7163 5458740
-3521.7063 1126.0962 4475.1646 4800296
-3620.0583 1166.3254 4635.0376 4866089
-3531.5376 1146.502 4556.2578 5853497
-3566.9319 1166.9115 4637.3667 5721913
-3513.792 1158.4493 4603.7378 7300689
-3485.0063 1157.947 4601.7412 5656121
-3447.3296 1154.4591 4587.8804 6577479
-3453.0796 1165.5745 4632.0532 6511430
-3394.8352 1155.0938 4590.4023 6248259
-3333.9146 1143.5258 4544.4302 7498326
-3291.3279 1138.1091 4522.9043 6971979
-3278.7461 1143.0641 4542.5957 5985084
-3226.5417 1134.1733 4507.2632 5261362
-3229.7234 1144.7655 4549.3574 6050878
-3183.8496 1138.0021 4522.479 6511430
-3212.0461 1157.8236 4601.2505 6577736
-3201.531 1163.9106 4625.4409 5854012
-3151.1292 1155.4771 4591.9253 5985341
-3159.7891 1168.7421 4644.6416 6708293
-3108.614 1159.9143 4609.5591 7168844
-3131.4119 1178.776 4684.5166 5919032
-3037.5686 1153.6744 4584.7617 5458995
-3052.2329 1169.7031 4648.4604 7564115
-3031.4639 1172.3209 4658.8643 6642500
-3031.3115 1183.0331 4701.4346 5063982
-3029.2852 1193.2057 4741.8608 4998189
-3062.9253 1217.7489 4839.397 5787705
-2982.7051 1197.0599 4757.1782 6247999
-2941.4072 1191.7461 4736.0605 6314565
-3009.7832 1231.1935 4892.8267 6248769
-2968.4807 1226.1064 4872.6104 6248258
-2958.4907 1233.9797 4903.8994 6248258
-2918.4492 1229.3506 4885.5024 5327156
-2887.2241 1228.3795 4881.6436 4142884
-2886.2947 1240.4087 4929.4482 3682333
-2858.021 1240.8121 4931.0518 3353113
-2743.3389 1203.3225 4782.0654 3616285
-2716.3408 1203.9127 4784.4116 3287578
-2679.7039 1200.1984 4769.6504 5787967
-2631.5146 1191.1758 4733.7939 4998450
-2576.7366 1178.9438 4685.1841 6380873
-2588.2134 1197.0898 4757.2969 6446410
-2621.2734 1225.7275 4871.105 6183494
-2609.6584 1233.8802 4903.5039 7170390
-2611.5732 1248.6853 4962.3398 7039061
-2584.3442 1249.7343 4966.5083 5328441
-2452.3359 1199.5547 4767.0923 5854273
-2475.2217 1224.8547 4867.6362 6248774
-2431.9109 1217.608 4838.8374 6841168
-2395.0681 1213.4653 4822.374 5854272
-2411.1946 1236.3837 4913.4526 5130293
-2407.5808 1249.6163 4966.0396 6051392
-2360.3389 1240.2517 4928.8242 5064243
-2344.939 1247.5936 4958.0015 5590331
-2319.7239 1249.8334 4966.9023 3288090
-2270.9568 1239.2783 4924.9561 3682850
-2247.2991 1242.3292 4937.0806 5130037
-2175.6052 1218.5555 4842.6025 5590586
-2160.8552 1226.4668 4874.0425 6117444
-2131.052 1225.9329 4871.9204 7038546
-2083.4944 1215.0303 4828.5933 7038290
-2000.1084 1182.6394 4699.8701 6116930
-2023.9329 1213.6211 4822.9927 5656378
-2013.2727 1224.5159 4866.2891 5590330
-1994.0322 1230.4324 4889.8018 4471849
-1961.2981 1228.0745 4880.4312 5261108
-1957.847 1244.2559 4944.7373 3748127
-1925.6272 1242.368 4937.2349 4998706
-1903.2233 1246.8525 4955.0566 5196343
-1892.527 1259.2679 5004.396 7433307
-1886.1311 1274.9854 5066.8574 6051142
-1838.8778 1263.1456 5019.8062 2498840
-1793.9583 1252.5461 4977.6831 4866610
-1780.9137 1264.2195 5024.0737 5985348
-1777.8092 1283.4658 5100.5596 4998452
-1756.0752 1289.6958 5125.3179 4866866
-1703.5923 1273.165 5059.624 4208169
-1662.3702 1264.6088 5025.6206 3879719
-1635.2029 1266.6268 5033.6406 5064505
-1605.8251 1266.9762 5035.0288 3748647
-1555.0415 1250.13 4968.0815 4998713
-1559.5968 1277.9803 5078.7598 5986123
-1491.4128 1246.149 4952.2607 6512208
-1460.677 1244.9578 4947.5269 4735540
-1462.223 1271.7958 5054.1821 5920069
-1385.1068 1229.9073 4887.7153 5327418
-1419.6946 1287.536 5116.7344 6577742
-1395.2935 1293.0142 5138.5049 6051655
