# .PCD v0.7 - Point Cloud Data file format
VERSION 0.7
FIELDS x y z rgb
SIZE 4 4 4 4
TYPE F F F U
COUNT 1 1 1 1
WIDTH 1275
HEIGHT 1
VIEWPOINT 0 0 0 1 0 0 0
POINTS 1275
DATA ascii
2982.1523 1144.1636 3751.9663 3748138
3016.1846 1148.6593 3766.7085 2432019
3032.0818 1146.233 3758.7527 3747879
3049.3875 1144.371 3752.6465 3287330
3088.6919 1150.7317 3773.5044 2695193
3138.1516 1160.7572 3806.3806 2957852
3047.4739 1119.1748 3670.0227 2760473
3085.2236 1125.0121 3689.1641 2891803
3108.1304 1125.3927 3690.4124 3024159
3136.7764 1127.8315 3698.4097 3024159
3138.0037 1120.4467 3674.1929 3023904
3150.2444 1117.0687 3663.116 3089953
3165.6699 1114.8585 3655.8684 4274227
3215.1243 1124.5811 3687.7507 2564122
3268.9778 1135.7007 3724.2144 2563868
3289.032 1135.0073 3721.9409 3615787
3354.8027 1149.9946 3771.0874 3549994
3359.8062 1144.0908 3751.7275 2432023
3311.1738 1120.1205 3673.1235 2365972
3386.5454 1138.1379 3732.2068 2892059
3402.3 1136.0159 3725.248 2892312
3424.0835 1135.9209 3724.9368 2695191
3435.2305 1132.3213 3713.1328 2891286
3462.6758 1134.1056 3718.9841 2694163
3463.9385 1127.3462 3696.8184 3023128
3488.4265 1128.183 3699.5623 3023385
3510.051 1128.089 3699.2539 3089434
3524.4048 1125.6738 3691.3342 3549986
0 0 0 0
0 0 0 0
0 0 0 0
0 0 0 0
0 0 0 0
0 0 0 0
0 0 0 0
-2927.0969 1018.3303 3275.6943 6512205
-2898.4182 1015.0828 3265.248 6972757
-2884.5835 1017.0251 3271.4963 4011815
-2872.7263 1019.6959 3280.0872 4472366
-2864.3418 1023.6439 3292.7869 4208937
-2812.7666 1012.1051 3255.6697 3879972
-2742.7485 993.72479 3196.5452 4801074
-2731.5017 996.5304 3205.5701 4603436
-2739.0503 1006.2805 3236.9333 6182468
-2740.0068 1013.7291 3260.8936 4208936
-2670.76 995.12567 3201.0515 3946022
-2715.2505 1018.9377 3277.6487 2893334
-2690.6924 1016.9948 3271.3987 3156507
-2668.0566 1015.7555 3267.4121 3616802
-2671.3027 1024.4237 3295.2952 4076839
-2643.5447 1021.2419 3285.0605 3221529
-2570.8035 1000.5063 3218.3599 3813666
-2591.5566 1016.1192 3268.582 4472109
-2612.8062 1032.1631 3320.1909 2695958
-2600.4099 1035.0581 3329.5034 4735284
-2602.6165 1043.8544 3357.7983 4537904
-2578.5342 1042.1609 3352.3513 4933176
-2564.4607 1044.5178 3359.9329 3749161
-2491.3533 1022.6786 3289.6819 3354403
-2468.5518 1021.3081 3285.2734 5525573
-2498.0613 1041.7303 3350.9661 6315087
-2472.7092 1039.4183 3343.5291 7170394
-2453.8062 1039.8016 3344.7622 3749413
-2425.7407 1036.2771 3333.4246 3946791
-2414.2173 1039.8196 3344.8196 3683620
-2412.29 1047.5878 3369.8081 4078121
-2397.0911 1049.6742 3376.5195 3420450
-2381.272 1051.5219 3382.4629 3881000
-2330.1392 1037.6747 3337.9202 1512453
-2295.9895 1031.2183 3317.1519 1841420
-2242.8425 1016.0443 3268.3411 4604723
-2279.9006 1041.8263 3351.2749 6249550
-2256.6675 1040.2684 3346.2634 4473136
-2215.0725 1030.1437 3313.6948 4208937
-2126.9832 998.02173 3210.3672 4801329
-2146.6953 1016.3591 3269.3535 4538157
-2130.0391 1017.6548 3273.5217 4472109
-2134.7974 1029.2994 3310.9792 5788225
-2085.7375 1014.9708 3264.8882 6446156
-2093.5269 1028.2972 3307.7556 6776150
-2075.3308 1028.9912 3309.9878 6446928
-2079.8867 1041.087 3348.8967 6052170
-2061.1975 1041.6685 3350.7671 5920584
-2060.426 1051.4043 3382.0847 7039064
-2020.6527 1041.2339 3349.3691 6907735
-2061.7258 1072.9348 3451.3423 6183757
-2025.2797 1064.5249 3424.2903 5393985
-2085.3694 1107.1995 3561.5627 3880747
-2010.1699 1078.1824 3468.2224 1643531
-1977.5793 1071.6556 3447.2275 4735798
-1951.2446 1068.4182 3436.8137 4340783
-1924.6171 1064.9504 3425.6587 3814697
-1897.6106 1061.1968 3413.5845 3157281
-1857.0775 1049.7164 3376.6553 4538677
-1884.9255 1077.0593 3464.6101 4012334
-1846.7428 1066.8585 3431.7969 4604213
-1825.3829 1066.2574 3429.8633 3353632
-1798.8289 1062.5746 3418.0166 3419678
-1759.576 1051.2213 3381.4958 2958871
-1701.5422 1028.2568 3307.6255 3682591
-1684.0159 1029.5216 3311.6938 5261367
-1690.0647 1045.3987 3362.7664 4537900
-1650.6666 1033.2078 3323.5513 5524794
-1630.2091 1032.7212 3321.9863 6314054
-1617.6659 1037.2977 3336.7075 5591101
-1600.2963 1038.8542 3341.7146 5854016
-1607.9191 1056.8772 3399.6895 4405801
-1601.0435 1065.7068 3428.092 6777179
-1621.3491 1093.0884 3516.1711 6183758
-1566.705 1069.9951 3441.8865 4012844
-1551.8613 1073.8334 3454.2332 5196863
-1513.891 1061.5575 3414.7446 7894119
-1498.1051 1064.7157 3424.9041 4407088
-1485.9545 1070.5798 3443.7671 3419935
-1457.751 1064.8806 3425.4343 4407345
-1400.4548 1037.4684 3337.2566 5131068
-1405.566 1056.165 3397.3987 4407345
-1394.075 1062.7485 3418.5759 5130555
-1386.8942 1072.8602 3451.1028 3551011
-1356.0515 1064.6967 3424.8428 2037771
-1320.2816 1052.3578 3385.1519 2826260
-1309.5583 1059.91 3409.4456 4866097
-1303.5334 1071.5612 3446.9241 4800560
-1283.7694 1072.1095 3448.6875 4274729
-1259.854 1069.1522 3439.175 5196088
-1268.687 1094.3461 3520.2168 5064504
-1236.6173 1084.5104 3488.5781 4275757
-1216.1726 1084.7087 3489.2161 4801846
-1179.1471 1069.8698 3441.4832 3881000
-1170.1638 1080.3999 3475.3555 3486244
-1142.0559 1073.3331 3452.624 6775639
-1116.3398 1068.2977 3436.426 5591366
-1076.6731 1049.4768 3375.8845 4604471
-1068.2855 1061.0096 3412.9827 3946541
-1050.2822 1063.2531 3420.199 5722951
-1036.8627 1070.3162 3442.9192 6446418
-1012.9695 1066.6345 3431.0762 5722950
-1000.3785 1074.9465 3457.8137 5262396
-974.24945 1068.755 3437.897 4670260
-959.04132 1074.5349 3456.4895 4801331
-945.44061 1082.4073 3481.813 3617058
-946.82483 1108.1694 3564.6829 4077610
-929.48676 1112.6945 3579.2385 6445903
-909.53119 1114.2241 3584.1592 5722696
-887.72668 1113.5077 3581.8545 2762269
-858.95172 1103.7988 3550.6238 2762012
-819.94745 1080.1272 3474.4785 3420456
-796.59357 1076.384 3462.4377 6249558
-774.70789 1074.479 3456.3101 5394247
-752.4483 1071.9381 3448.1365 5262663
-732.66107 1072.8759 3451.1528 6644314
-711.90662 1072.4103 3449.6553 5394244
-691.59167 1072.5989 3450.2617 4604728
-667.05463 1066.0514 3429.2004 5986379
-650.59821 1072.4122 3449.6616 6709848
-632.35431 1076.1438 3461.6648 7170400
-609.86292 1072.6547 3450.4414 4801852
-599.89929 1091.7223 3511.7766 4801341
-577.84875 1089.3733 3504.2207 4801083
-557.56628 1090.3066 3507.2231 5327681
-538.10797 1092.9863 3515.843 4538422
-514.64996 1087.4305 3497.9714 4538679
-489.46689 1077.6108 3466.384 4999231
-472.13339 1084.9695 3490.0547 4143922
-448.33023 1077.4537 3465.8787 3354406
-424.29929 1068.6429 3437.5366 3420198
-406.28839 1074.8701 3457.5681 4143922
-392.05826 1092.2921 3513.6101 4341557
-369.92233 1088.4069 3501.1121 6578007
-348.72025 1086.9708 3496.4927 6643546
-327.16159 1084.1719 3487.489 5854799
-304.58389 1077.3907 3465.6763 5460041
-283.15567 1073.9894 3454.7349 5262662
-265.48782 1085.4323 3491.5432 5723212
-244.93091 1085.9987 3493.3652 6183764
-226.0612 1094.8412 3521.8093 4999490
-207.03941 1104.6703 3553.427 6052177
-183.22334 1088.249 3500.6045 5262662
-159.51732 1068.3732 3436.6687 5657421
-138.43269 1062.8068 3418.7634 5196612
-120.68207 1085.3158 3491.1689 5459272
-102.46048 1112.0244 3577.0833 3879725
-81.867859 1120.2184 3603.4409 4932412
-60.455452 1119.0187 3599.582 3880495
-38.726604 1107.4624 3562.4084 2893601
-17.465319 1097.6102 3530.7166 3551529
3.3917317 1078.6205 3469.6318 3420199
24.091873 1085.1633 3490.6782 5327940
45.29808 1097.9279 3531.7385 3749421
66.490143 1102.392 3546.0981 5262403
87.629128 1104.0436 3551.4111 4867646
108.18336 1099.1149 3535.5566 5787979
131.23482 1117.0408 3593.2195 5327428
155.33374 1137.6344 3659.4639 4208948
174.34044 1120.4569 3604.2083 2563865
196.51054 1125.1401 3619.2732 3682346
219.90575 1135.2263 3651.7178 4933184
240.30821 1129.4399 3633.1045 4670527
262.85898 1133.8719 3647.3611 5854801
285.72375 1138.8822 3663.4775 5920851
307.32462 1138.5029 3662.2573 4802113
329.94412 1141.6984 3672.5364 4933699
348.39401 1130.9629 3638.0034 4473146
377.05927 1152.7078 3707.9507 4736061
402.32306 1162.2323 3738.5886 4078131
415.19571 1136.8351 3656.8923 4275253
433.68811 1128.5811 3630.3416 4867901
453.84595 1125.2362 3619.5818 5130814
472.67828 1119.0548 3599.6982 6117709
491.86166 1114.2025 3584.0896 5130814
520.1637 1129.5533 3633.4692 5064764
542.41394 1131.0645 3638.3301 4143662
575.24664 1153.684 3711.0911 4867643
598.58899 1156.3053 3719.5229 5986639
616.70264 1148.9988 3696.0198 6447192
638.30859 1148.4767 3694.3406 2893857
655.55737 1140.4097 3668.3911 4209718
686.69391 1156.2443 3719.3267 2762017
697.35889 1137.6962 3659.6624 4867391
711.35339 1125.5349 3620.5427 3748910
734.38843 1127.9711 3628.3792 3946290
751.09021 1120.8177 3605.3691 4143667
793.46899 1151.3174 3703.478 5591113
801.78711 1132.0835 3641.6079 2564635
821.15302 1129.048 3631.8433 2498585
838.44965 1123.3948 3613.6587 3419428
866.7204 1132.3607 3642.4998 5064252
886.77551 1130.4181 3636.2507 5393216
922.66522 1148.2742 3693.689 5524801
936.37939 1138.3444 3661.7473 5656901
944.00482 1121.6298 3607.9812 3288098
966.35236 1122.7603 3611.6177 4473144
994.75403 1130.7235 3637.2334 8025709
1011.3217 1125.1826 3619.4099 6907996
1020.233 1111.5304 3575.4941 6117968
1036.132 1105.8917 3557.356 5921103
1069.0717 1118.3032 3597.2805 4934465
1093.4294 1121.4279 3607.3315 3025699
1109.2786 1115.8734 3589.4646 5328711
1134.4611 1119.7404 3601.9036 5986896
1145.4718 1109.7349 3569.7185 6710621
1174.9017 1117.613 3595.0605 7105125
1167.2722 1090.5861 3508.1221 6380888
1213.9706 1114.3755 3584.646 5789005
1229.8026 1109.4999 3568.9624 3288870
1246.47 1105.5299 3556.1924 5459528
1266.3844 1104.5242 3552.957 5131075
1299.5173 1114.8916 3586.3064 5985872
1324.3112 1117.8864 3595.9397 7762540
1349.5505 1121.1564 3606.4585 8419957
1370.0731 1120.4672 3604.2412 7170400
1400.9856 1128.1655 3629.0049 5789003
1400.4542 1110.6934 3572.8018 7631210
1426.5507 1114.5453 3585.1924 8025968
1436.6844 1105.996 3557.6914 6578522
1469.5525 1114.9421 3586.4688 5854800
1502.3895 1123.61 3614.3511 5525835
1529.6193 1127.8997 3628.1497 8223346
1524.2008 1108.3301 3565.1997 6051660
1526.401 1094.7598 3521.5476 4735537
1548.8031 1095.8491 3525.0518 5656381
1596.4751 1114.5514 3585.2117 5130033
1617.0903 1114.1211 3583.8279 4801577
1638.967 1114.5599 3585.2395 5656887
1658.1899 1113.2061 3580.8843 4932911
1700.5542 1127.2256 3625.9814 6380356
1714.413 1122.2362 3609.9316 6840656
1713.0133 1107.5046 3562.5444 6117450
1751.6691 1118.7133 3598.5996 6644054
1724.0298 1087.8218 3499.23 7762536
1748.6932 1090.2742 3507.1187 5591367
1807.899 1113.9524 3583.2849 5590853
1784.74 1086.9202 3496.3298 8090729
1843.4109 1109.7716 3569.8367 5195324
1874.4689 1115.6697 3588.8088 7564125
1893.4327 1114.3177 3584.4604 6379849
1932.314 1124.5876 3617.4958 3748132
1939.9275 1116.6343 3591.9119 4537649
1929.6879 1098.6887 3534.1858 3748902
1957.5896 1102.6115 3546.8042 3550498
1956.4763 1090.2815 3507.1423 3090203
2026.1691 1117.2543 3593.9062 2958875
2052.0952 1119.7836 3602.0422 4405809
2073.1926 1119.653 3601.6221 4011306
2110.5825 1128.2341 3629.2256 3484706
2125.5659 1124.7856 3618.1326 2892825
2146.3594 1124.4497 3617.0522 2563861
2157.3931 1119.0579 3599.7083 1379848
2195.4631 1127.6586 3627.374 2629653
2195.3552 1116.6731 3592.0369 3813670
2229.3979 1123.1024 3612.7183 2563344
2242.9192 1119.1699 3600.0684 1840392
2269.0281 1121.5331 3607.6702 3945762
2261.2336 1107.251 3561.7283 4866610
2297.9651 1114.8342 3586.1216 6708817
2320.8772 1115.6356 3588.6995 8222829
2366.9546 1127.4568 3626.7251 4735801
2409.6543 1137.4708 3658.9377 3945516
2435.4041 1139.3766 3665.0676 4274223
2438.3364 1130.6681 3637.0549 2168849
2443.7725 1123.2628 3613.2344 4011051
2448.448 1115.6398 3588.7129 3879465
2497.6541 1128.2637 3629.3203 3814186
2523.3193 1130.1288 3635.3201 3748395
2556.3079 1135.2145 3651.6794 2892832
2633.2898 1159.5875 3730.0808 4932160
2667.2458 1164.7659 3746.7385 3222825
2698.0984 1168.5148 3758.7976 4538428
2648.2559 1137.5402 3659.1604 3484970
2670.1804 1137.6454 3659.499 2037522
2780.3484 1175.0427 3779.7961 3155745
2763.4736 1158.58 3726.8401 2957852
2779.0942 1155.894 3718.2 2695191
2741.2056 1131.1693 3638.6672 2233611
2719.1589 1113.3168 3581.2405 3746850
2778.6697 1128.8745 3631.2856 3681311
2806.5601 1131.4458 3639.5564 4141604
2819.9331 1128.1698 3629.0186 3944482
2880.6492 1143.7406 3679.1057 3286809
2889.1331 1138.4948 3662.2312 3221277
2965.126 1159.7316 3730.5447 2760984
2965.239 1151.1953 3703.0857 1905677
2970.8337 1144.8971 3682.8259 2695193
2958.6423 1131.8862 3640.9734 2760729
3022.9534 1148.1193 3693.1907 2892571
3041.156 1146.7329 3688.7312 3484453
3043.6296 1139.4777 3665.3931 3089438
3057.9102 1136.7142 3656.5039 1773578
3053.9961 1127.2738 3626.1365 3221024
3107.7891 1139.1169 3664.2324 459265
3064.4446 1115.4382 3588.0647 2563607
3139.6189 1134.9288 3650.7607 3221537
3133.063 1124.8105 3618.2126 3879468
3167.2214 1129.3473 3632.8062 2695195
3231.615 1144.5311 3681.6487 2563609
3205.7998 1127.7766 3627.7539 2563609
3236.3059 1130.9268 3637.887 2760988
3239.6252 1124.5977 3617.5278 2497301
3300.5508 1138.2175 3661.3394 2431508
3313.1917 1135.1171 3651.366 2365715
3311.801 1127.2806 3626.1584 1839369
3335.9041 1128.167 3629.0095 2300433
3368.5642 1131.9174 3641.0737 2365198
3372.3872 1125.9918 3622.0125 2036233
3392.4004 1125.5126 3620.4709 2233355
3383.6152 1115.5448 3588.4072 1246978
3394.3694 1112.1031 3577.3367 2365198
3444.7498 1121.6067 3607.9067 2365198
0 0 0 0
0 0 0 0
0 0 0 0
0 0 0 0
0 0 0 0
0 0 0 0
0 0 0 0
-2848.6794 1009.935 3187.9377 5064503
-2836.7258 1012.4092 3195.7478 4077609
-2859.6377 1027.4435 3243.2046 4932917
-2833.8611 1025.0695 3235.7107 3156507
-2796.3281 1018.3815 3214.5999 3353628
-2764.2546 1013.6039 3199.5188 3287836
-2710.4858 1000.75 3158.9446 4077608
-2711.8374 1008.2101 3182.4929 4866867
-2679.3782 1003.1165 3166.4146 5787969
-2639.2437 995.05719 3140.9749 4998709
-2658.5811 1009.4651 3186.4543 4077865
-2668.9495 1020.6491 3221.7576 6248520
-2649.3801 1020.4631 3221.1704 3353373
-2639.7151 1024.1168 3232.7039 4669745
-2596.8965 1014.8676 3203.5081 5327674
-2601.438 1024.127 3232.7356 4867893
-2535.4753 1005.5617 3174.1331 3552289
-2543.1592 1016.1453 3207.541 4210219
-2559.4543 1030.355 3252.3948 6250058
-2510.9985 1018.5157 3215.0232 2894617
-2525.3706 1032.1747 3258.1389 4210223
-2525.2903 1040.0916 3283.1289 3617574
-2481.8867 1030.149 3251.7451 4407347
-2464.7366 1031.0333 3254.5364 2301456
-2447.8652 1032.0492 3257.7429 4012843
-2449.8535 1041.0957 3286.2991 5130815
-2451.24 1050.0294 3314.4988 6315600
-2464.082 1064.0542 3358.769 6907736
-2417.2632 1052.3345 3321.7749 5789254
-2389.3403 1048.7161 3310.353 2762780
-2382.3052 1054.2817 3327.9214 131328
-2356.5342 1051.5793 3319.3911 262656
-2346.1755 1055.7671 3332.6104 854533
-2306.4121 1046.6815 3303.9312 2960159
-2270.4961 1039.2015 3280.3198 3485990
-2221.1533 1025.3939 3236.7349 4275760
-2214.9019 1031.412 3255.7317 3618085
-2228.7004 1046.9547 3304.7932 3223071
-2204.574 1044.7992 3297.9893 4999225
-2133.4326 1020.1245 3220.1016 4472366
-2105.0154 1015.6178 3205.876 5195832
-2107.4021 1026.0266 3238.7322 4208938
-2101.157 1032.3856 3258.8047 4209194
-2068.9629 1025.9943 3238.6301 5327677
-2052.6997 1027.4574 3243.2485 6643793
-2058.7959 1040.2457 3283.616 6183756
-2046.0526 1043.6682 3294.4194 5723205
-2051.0366 1056.2863 3334.249 6052170
-2042.182 1061.9535 3352.1382 6381135
-1996.7122 1048.5048 3309.686 7960168
-1994.2832 1057.6149 3338.4429 4209967
-2001.5638 1072.1083 3384.1924 6710099
-2011.1718 1088.1541 3434.842 7038550
-2003.5989 1095.1372 3456.885 4670258
-1962.9746 1084.0126 3421.7693 6578767
-1937.8851 1081.3241 3413.283 5065274
-1876.2308 1057.9609 3339.5352 5131067
-1841.177 1049.2589 3312.0667 4276014
-1837.429 1058.4023 3340.9287 3551779
-1797.4208 1046.6309 3303.771 2959386
-1793.8826 1056.0703 3333.5671 3287837
-1776.1121 1057.2479 3337.2844 3616802
-1742.3041 1048.7979 3310.6116 2366992
-1697.6787 1033.5699 3262.5432 2892821
-1683.8494 1036.9562 3273.2322 2365964
-1662.2742 1035.5957 3268.938 3089943
-1661.713 1047.4492 3306.3542 5853760
-1648.1851 1051.3145 3318.5549 4801331
-1602.3666 1034.4274 3265.2498 6906705
-1588.6733 1038.12 3276.9055 4801074
-1571.6981 1039.7327 3281.9966 5130039
-1567.5221 1049.9591 3314.2769 3813924
-1573.6741 1067.4504 3369.4895 3353374
-1590.7416 1092.8906 3449.7935 4800820
-1529.5856 1064.5515 3360.3391 4537903
-1518.0063 1070.4242 3378.8765 4997941
-1483.2897 1059.9204 3345.7202 3748131
-1464.9905 1061.0222 3349.1987 3024663
-1440.78 1057.8147 3339.0735 3090972
-1413.0475 1051.8958 3320.3899 5131318
-1365.5782 1030.9099 3254.1465 6710865
-1376.4752 1054.0162 3327.0835 4604471
-1348.3441 1047.4745 3306.4341 986117
-1326.5046 1045.6996 3300.8315 1446669
-1331.759 1065.5497 3363.4897 525056
-1295.1503 1051.999 3320.7161 2037769
-1281.537 1056.9967 3336.4917 2630162
-1280.9659 1073.0765 3387.249 5261624
-1246.9751 1061.2267 3349.844 3353628
-1244.7423 1076.458 3397.9229 4406063
-1243.9749 1093.4781 3451.6482 3419680
-1223.3522 1093.3224 3451.1562 4143146
-1213.8898 1103.3048 3482.6667 4274735
-1183.5419 1094.3214 3454.3101 3617575
-1144.2532 1076.6097 3398.4016 3420454
-1120.9521 1073.5754 3388.8237 6315347
-1096.4323 1069.2418 3375.1443 6512984
-1067.0768 1059.9442 3345.7957 5526602
-1054.2802 1067.0538 3368.2378 4341557
-1025.8701 1058.3306 3340.7019 5064764
-1029.1536 1082.6034 3417.321 2366995
-997.99017 1070.8875 3380.3389 3090458
-969.75946 1061.9031 3351.9788 5590843
-969.81573 1084.1653 3422.2512 7169875
-953.23383 1088.381 3435.5586 5524795
-930.87311 1086.0387 3428.1648 5722430
-930.6214 1109.9615 3503.6792 3814180
-905.33667 1104.4374 3486.2419 4866870
-897.47314 1120.4043 3536.6426 5130814
-871.16748 1113.5608 3515.0405 4341299
-835.67487 1094.3514 3454.4048 4670009
-811.2478 1089.0322 3437.6145 4802111
-790.30212 1088.233 3435.0916 3618864
-761.04004 1075.6372 3395.3318 4999747
-747.20154 1084.7487 3424.093 4735544
-713.44519 1064.6461 3360.6377 5525059
-700.86584 1075.8981 3396.1553 3485732
-679.47681 1073.8918 3389.8223 4209456
-657.30646 1070.4908 3379.0869 5986383
-637.99579 1071.6798 3382.8398 7565417
-604.99658 1049.2067 3311.9019 6644828
-597.84625 1071.5577 3382.4546 5394761
-585.50366 1085.8297 3427.5054 6315350
-563.67627 1082.9056 3418.2754 6381142
-548.19135 1092.4025 3448.2527 4209716
-519.92401 1076.1766 3397.0344 4933696
-503.026 1083.1245 3418.9661 4012593
-469.25967 1052.8104 3323.2773 5525832
-454.49487 1064.3394 3359.6692 6249556
-440.64951 1079.1759 3406.5017 986374
-421.82629 1082.6605 3417.5012 3420202
-404.2243 1089.7888 3440.0024 1643536
-384.51273 1091.6848 3445.9871 3354405
-365.25125 1095.1428 3456.9028 5591110
-349.5849 1110.4314 3505.1624 5130048
-323.69391 1093.1221 3450.5242 5525062
-302.42026 1090.1229 3441.0574 2893855
-282.44153 1091.6957 3446.0217 6051921
-263.383 1097.3474 3463.8616 5394248
-241.64255 1091.8361 3446.4646 5986642
-221.88326 1095.0852 3456.7209 5131076
-200.65782 1091.0233 3443.8994 7433572
-179.45248 1086.1637 3428.5596 6117970
-155.94028 1064.3187 3359.6042 4867644
-138.0571 1080.1217 3409.4875 5328194
-118.47028 1085.7283 3427.1851 4341301
-99.129646 1096.3767 3460.7976 5722954
-78.739586 1097.9452 3465.7488 4275508
-57.174747 1078.4611 3404.2454 4538679
-38.007725 1107.6174 3496.2798 4604215
-17.243591 1104.3269 3485.8931 4012336
3.3628676 1089.8213 3440.105 4406581
23.903049 1097.1757 3463.3196 3551528
44.343163 1095.2645 3457.2869 4801341
66.231789 1119.0345 3532.3191 2038035
84.64389 1086.755 3430.4263 4011823
105.52885 1092.5771 3448.804 4340532
126.37979 1096.2155 3460.2886 3879980
148.97774 1111.8767 3509.7246 4406324
167.14584 1094.6893 3455.4714 2499101
192.75285 1124.6565 3550.0649 1906705
215.07524 1131.448 3571.5029 2696478
236.54897 1132.9584 3576.2705 4538425
263.54062 1158.4762 3656.8193 5393735
274.86902 1116.4946 3524.3013 3748912
292.42896 1103.9655 3484.7522 5394250
322.76883 1138.1537 3592.6697 5262663
342.18918 1131.9893 3573.2114 2433565
361.48163 1126.1447 3554.7625 1578256
374.95322 1103.8076 3484.2542 4867651
391.73364 1093.0343 3450.2471 2170135
415.01083 1100.5581 3473.9966 2959393
438.39081 1107.6305 3496.3213 3946287
466.57111 1125.6462 3553.189 4669493
485.66635 1121.134 3538.9458 4406321
511.71689 1132.3867 3574.4658 4209199
528.40717 1122.8547 3544.3777 5722695
557.73163 1139.8727 3598.0962 2170132
592.82123 1166.9866 3683.6831 5986126
611.21698 1160.4796 3663.1433 7039073
632.63788 1159.9655 3661.5205 5328456
652.31232 1156.3893 3650.2319 4802369
675.69403 1159.4039 3659.748 3157030
689.02277 1145.5178 3615.9155 4275254
687.96075 1109.2655 3501.4819 3946289
720.8808 1128.3241 3561.6423 3880496
727.21704 1105.873 3490.7737 4933182
771.55695 1140.8575 3601.2046 2827807
788.46729 1134.4919 3581.1113 3156772
810.02112 1134.9662 3582.6084 3814702
831.16522 1134.8569 3582.2634 5327941
878.61188 1169.7719 3692.4751 4736060
877.12372 1139.422 3596.6733 4340791
908.54053 1152.243 3637.144 3024931
926.17889 1147.4004 3621.8579 1511950
923.39471 1118.0496 3529.2095 1643538
942.04187 1115.3729 3520.7605 4012084
979.10474 1134.1439 3580.0129 5393736
1000.0429 1133.8372 3579.0444 5196871
1016.2972 1128.3428 3561.7009 5130823
1035.7094 1126.5065 3555.9048 4933185
1051.6541 1121.0475 3538.6729 3354667
1060.3793 1108.2561 3498.2959 3090980
1082.3798 1109.5638 3502.4241 5459528
1123.2567 1129.8092 3566.3298 3157027
1140.1993 1125.6774 3553.2874 4143923
1167.2314 1131.4757 3571.5903 4604219
1165.6467 1109.8214 3503.2368 5986385
1212.4473 1134.1866 3580.1477 4867648
1222.9984 1124.3876 3549.2161 6644059
1219.0121 1101.7805 3477.855 6183762
1249.5686 1110.6266 3505.7786 3946800
1262.0306 1103.364 3482.8535 6973023
1298.631 1117.0992 3526.2097 9144448
1326.457 1122.9711 3544.7449 4736059
1339.4962 1116.3368 3523.803 6971993
1348.2428 1106.3833 3492.3843 5064251
1400.657 1132.0233 3573.3191 5525316
1417.8411 1128.8505 3563.3037 8354674
1434.6067 1125.4426 3552.5461 7697002
1433.924 1108.6428 3499.5166 7236450
1460.8103 1113.3333 3514.3223 5196612
1501.6077 1128.345 3561.708 4867647
1489.8485 1103.9957 3484.8477 7762540
1508.7205 1102.6998 3480.7571 5920336
1558.2856 1123.5696 3546.634 6907484
1578.3953 1122.9282 3544.6096 7763048
1602.3943 1125.0347 3551.2585 7631201
1598.2107 1107.5558 3496.0852 5919808
1619.251 1107.7806 3496.7949 5196339
1661.2767 1122.1753 3542.2327 6051137
1644.8926 1097.2477 3463.5469 5656381
1678.7191 1106.0154 3491.2229 7827810
1687.4822 1098.2577 3466.7351 7630689
1706.8647 1097.5149 3464.3906 9143931
1728.0685 1097.9469 3465.7539 6775127
1768.5347 1110.4635 3505.2639 10327692
1770.9047 1099.0469 3469.2263 5854021
1810.7024 1110.8538 3506.4954 5261369
1855.5823 1125.4751 3552.6492 5064243
1881.5258 1128.412 3561.9194 6248521
1896.2374 1124.6222 3549.9565 7827554
1879.8151 1102.6531 3480.6096 4538161
1901.2666 1103.1355 3482.1326 5131070
1930.3308 1107.9774 3497.416 5722695
1933.2853 1097.8888 3465.5708 6709073
1968.4247 1106.0977 3491.4827 4142890
2026.6123 1126.9523 3557.312 3747876
2063.8955 1135.873 3585.4707 3484960
2086.6699 1136.7084 3588.1074 3945255
2115.4026 1140.7396 3600.8325 2827032
2129.7744 1137.0238 3589.1033 2958617
2135.1863 1128.645 3562.6553 2235153
2172.2537 1136.9996 3589.0271 4999232
2140.5056 1109.522 3502.2915 6973279
2177.676 1117.9526 3528.9038 6973021
2233.6096 1135.7637 3585.1257 5130558
2214.0449 1115.2109 3520.2493 3945256
2213.9763 1104.7701 3487.2922 4932151
2299.894 1137.0328 3589.1318 4471345
2321.1602 1137.0344 3589.137 3550500
2313.3806 1122.937 3544.6372 5063739
2340.9463 1126.0957 3554.6079 6248272
2390.9641 1139.9022 3598.1892 6445393
2404.3206 1136.1407 3586.3162 3747878
2434.8701 1140.4987 3600.0718 3879719
2456.8892 1140.8196 3601.0852 3550501
2474.0159 1138.8829 3594.9719 4076844
2504.8557 1143.2382 3608.7195 6511698
2529.5271 1144.7283 3613.4229 4274739
2586.5903 1160.729 3663.9307 3814188
2579.7478 1148.0247 3623.8281 3156004
2634.8416 1162.8649 3670.6726 3880242
2611.8965 1143.3024 3608.9221 4275767
2616.1223 1135.8542 3585.4119 6380373
2643.8098 1138.6309 3594.176 3683115
2685.8804 1147.5079 3622.1973 4142896
2703.9041 1146.052 3617.6016 2563863
2703.3062 1136.7883 3588.3599 2233870
2675.4604 1116.3003 3523.688 2825489
2715.2905 1124.1477 3548.459 3286554
2787.561 1145.2019 3614.9182 4207656
2799.8198 1141.4689 3603.1345 4405033
2827.595 1144.0702 3611.3457 3944226
2842.8337 1141.5983 3603.543 3418138
2865.6926 1142.2003 3605.4436 5589824
2907.9373 1150.4631 3631.5256 4010792
2918.7185 1146.2482 3618.2207 3945257
2970.7395 1158.1724 3655.8604 3221536
2968.2515 1148.8269 3626.3606 2695447
2979.897 1145.0466 3614.4277 2563864
3000.1626 1144.6089 3613.0464 2695192
3014.2754 1141.8468 3604.3274 3747624
3004.2993 1130.0625 3567.1294 2957853
3042.2703 1136.3519 3586.9827 1774091
3070.2463 1138.8469 3594.8579 1247491
3084.0564 1136.089 3586.1523 2036750
3083.6726 1128.1759 3561.1741 3286817
3106.9331 1128.9619 3563.6553 3155231
3138.3691 1132.6882 3575.4175 2826523
3131.4023 1122.597 3543.564 2694680
3178.8843 1132.03 3573.3401 2695193
3189.105 1128.1569 3561.1143 3089951
3233.5767 1136.3716 3587.0444 3024414
3273.1572 1142.7711 3607.2451 2694680
3294.8521 1142.8838 3607.6008 1970957
3252.8845 1121.0547 3538.6956 2629401
3298.6418 1129.5447 3565.4946 1905419
3325.0537 1131.3442 3571.1753 3484707
3369.4543 1139.203 3595.9822 3353121
3308.3013 1111.4999 3508.5352 2563348
3325.4829 1110.2968 3504.7373 2103054
3405.5115 1129.9613 3566.8098 1576453
0 0 0 0
0 0 0 0
0 0 0 0
0 0 0 0
0 0 0 0
0 0 0 0
0 0 0 0
-2773.3374 1001.6108 3103.623 5459262
-2791.7927 1015.0052 3145.1277 4801331
-2751.7625 1007.1735 3120.8596 4209193
-2746.2056 1011.9387 3135.6255 2564370
-2726.9885 1011.7009 3134.8887 5788996
-2725.1292 1017.9436 3154.2324 4669744
-2685.9438 1010.2336 3130.342 4801073
-2627.5227 995.13116 3083.5452 5458746
-2622.4211 1000.1524 3099.1042 3353628
-2586.1436 993.27069 3077.7803 4406315
-2575.5952 996.24335 3086.9915 6577997
-2560.4421 997.46466 3090.7756 6117701
-2580.8203 1012.645 3137.814 5459772
-2537.2522 1002.7728 3107.2236 5131065
-2499.0681 994.89966 3082.8279 6315081
-2525.6194 1012.8721 3138.5178 5788995
-2486.5017 1004.58 3112.8237 5460029
-2452.1211 998.09204 3092.72 4999221
-2482.3022 1017.983 3154.3547 6973782
-2498.0393 1032.2073 3198.4304 6381645
-2469.8342 1028.3531 3186.4878 5592129
-2454.6526 1029.9038 3191.2927 5065014
-2434.3037 1029.2937 3189.4021 4932916
-2452.6882 1045.1798 3238.6272 3880228
-2431.7673 1044.4348 3236.3188 4538160
-2435.4805 1054.3423 3267.0186 3748645
-2429.0095 1059.9644 3284.4395 2695957
-2382.0857 1047.882 3247.0005 5723459
-2395.2251 1062.24 3291.4905 5855048
-2366.1914 1057.9769 3278.281 3420707
-2309.3191 1041.0933 3225.9646 4079152
-2312.3403 1051.1543 3257.1404 3684394
-2291.7917 1050.5802 3255.3611 3947567
-2233.8701 1032.7186 3200.0149 2828831
-2247.5684 1047.9447 3247.1948 4473394
-2237.876 1052.4333 3261.1035 4275760
-2185.8589 1036.9225 3213.041 2499348
-2151.9321 1029.7959 3190.9583 3749411
-2136.949 1031.6888 3196.824 4867894
-2103.9043 1024.8179 3175.5332 5920581
-2093.4128 1028.9075 3188.2056 5065272
-2098.782 1040.9382 3225.4844 4867893
-2075.4363 1038.8174 3218.9128 526083
-2060.8157 1041.0651 3225.8772 5723204
-2043.6167 1042.0398 3228.8977 5262653
-2023.3849 1041.472 3227.1384 6512464
-2045.1893 1062.7366 3293.0295 6381137
-2030.8518 1065.4495 3301.4358 5591364
-1988.0856 1053.1555 3263.3413 6117707
-1968.8379 1053.201 3263.4824 6446672
-1928.5237 1041.8667 3228.3611 4604468
-1927.0081 1051.4755 3258.1353 3881003
-1961.4974 1081.1237 3350.0044 3486245
-1963.8851 1093.5037 3388.3652 3354146
-1927.3973 1084.2698 3359.7527 2827545
-1883.6133 1070.6956 3317.6914 4603697
-1850.3982 1062.9062 3293.5552 4077354
-1832.2775 1063.7139 3296.0576 2499350
-1770.074 1038.6713 3218.46 3157023
-1748.5305 1037.2021 3213.9077 2828059
-1753.8413 1051.8057 3259.1584 4407091
-1726.8116 1047.1233 3244.6497 2170386
-1695.2852 1039.578 3221.2695 854017
-1663.4792 1031.6875 3196.8198 656641
-1642.8461 1030.6246 3193.5261 2169100
-1648.7622 1046.3862 3242.3657 3221787
-1629.1462 1046.1246 3241.5552 4406060
-1600.9385 1040.2738 3223.4258 3879974
-1580.3368 1039.2838 3220.3582 3024409
-1555.9346 1035.7397 3209.3762 4208172
-1526.8884 1028.9785 3188.4255 2629394
-1504.389 1026.5149 3180.7917 3221531
-1504.0089 1039.2733 3220.3254 3089689
-1517.5579 1062.1082 3291.0823 3353117
-1500.598 1063.9071 3296.6562 3879716
-1498.3955 1076.3541 3335.2253 5524542
-1465.6576 1066.9061 3305.9492 3484959
-1448.2312 1068.4988 3310.8845 3024925
-1411.7327 1055.8707 3271.7549 6577744
-1361.2897 1032.3165 3198.7688 4735538
-1338.7517 1029.5574 3190.2195 4669745
-1316.4159 1026.877 3181.9136 3946025
-1323.8232 1047.657 3246.3035 3683621
-1304.5359 1047.6124 3246.1653 6182985
-1297.546 1057.5898 3277.0815 2170383
-1259.9199 1042.5204 3230.3867 4209452
-1265.6346 1063.4015 3295.0898 3814948
-1258.007 1073.5508 3326.5388 3025178
-1239.5927 1074.6718 3330.0122 2301196
-1226.5623 1080.5719 3348.2947 3353886
-1191.6489 1067.0709 3306.4597 4472367
-1172.2965 1067.2855 3307.125 5394496
-1170.4208 1083.6891 3357.9536 2630680
-1160.1937 1092.7938 3386.1655 3091232
-1122.2251 1075.6292 3332.9788 2696477
-1092.4307 1065.8247 3302.5986 5657162
-1077.0702 1070.002 3315.5422 6249298
-1057.3378 1069.9106 3315.259 3880748
-1031.2269 1063.2393 3294.5869 3880748
-1020.3781 1072.3497 3322.8171 3354660
-1006.0222 1078.0607 3340.5132 3814950
-982.21234 1073.6665 3326.8972 3090971
-951.54248 1061.4401 3289.0117 4472366
-948.20093 1079.8242 3345.9775 3222042
-929.31567 1080.9142 3349.3552 4735539
-919.89551 1093.3009 3387.7371 5656643
-893.99396 1086.2152 3365.781 5723206
-876.36401 1089.0854 3374.675 4605241
-860.80933 1094.7291 3392.1624 7236450
-820.1272 1067.923 3309.1001 7236451
-790.55811 1054.629 3267.907 5328196
-777.94135 1063.8503 3296.4805 3552298
-765.33514 1073.5613 3326.571 5328453
-742.55725 1069.1403 3312.8721 5591625
-725.21368 1072.5161 3323.3325 3223334
-703.23438 1069.0331 3312.54 6579033
-687.3028 1074.8077 3330.4336 6118481
-665.10089 1070.8284 3318.1028 6513241
-641.87164 1064.902 3299.7393 5986382
-615.42816 1053.1034 3263.1797 7697002
-604.70117 1068.3053 3310.2847 6249813
-587.40332 1072.5284 3323.3711 5657933
-564.98914 1067.3789 3307.4146 6973793
-542.12616 1060.9812 3287.5901 6908256
-518.3208 1052.1934 3260.3599 5394761
-506.74377 1068.5098 3310.9182 6381399
-485.26221 1064.4147 3298.229 4934212
-473.4444 1082.0626 3352.9136 7039074
-448.10013 1068.9874 3312.3987 2170649
-431.26901 1075.9539 3333.9846 4802110
-418.90222 1095.2612 3393.8113 5196869
-401.07895 1101.5298 3413.2354 4012592
-372.46478 1077.254 3338.0139 5788492
-352.37222 1076.2847 3335.0098 4670266
-334.34073 1081.8694 3352.3147 2038547
-314.70728 1082.6482 3354.728 3880750
-293.03561 1076.0476 3334.2756 4407094
-277.32449 1091.9624 3383.5896 4604216
-258.26849 1096.1606 3396.5984 5328196
-237.82071 1094.6621 3391.9551 5657416
-216.88037 1090.4105 3378.7808 5657160
-196.57228 1088.7963 3373.7791 4077359
-175.62524 1082.8772 3355.4377 2564120
-155.06641 1078.1461 3340.7778 4208944
-135.04021 1076.2755 3334.9817 4669751
-115.25466 1076.0109 3334.1616 5393987
-93.994949 1059.0273 3281.5359 6841432
-73.654747 1046.2482 3241.938 3880747
-55.265903 1061.9496 3290.5908 5788744
-36.010807 1069.048 3312.5859 3157026
-16.54599 1079.4664 3344.8689 5459780
3.3035653 1090.6235 3379.4407 4472887
23.57235 1102.2297 3415.4043 5591368
43.73513 1100.4471 3409.8806 5131075
63.736591 1097.0144 3399.2439 5723212
83.277611 1089.2078 3375.054 5394248
101.91872 1074.9327 3330.8208 2696737
122.25583 1080.2749 3347.374 5261893
143.68369 1092.4187 3385.0034 4735804
165.30147 1102.8551 3417.3418 4999489
184.37828 1095.911 3395.8247 4275765
213.14725 1142.2742 3539.4871 3288872
234.91344 1146.1652 3551.5437 3091492
251.15245 1124.6655 3484.9246 3881009
270.03122 1117.3552 3462.2722 4079160
289.9375 1115.0284 3455.0625 5394506
311.80743 1120.0624 3470.6609 4735809
329.16687 1109.2733 3437.2297 4012597
351.77563 1116.4008 3459.3147 5657423
367.28674 1101.4583 3413.0137 3354668
386.66708 1099.0731 3405.6228 4933699
408.80054 1104.3619 3422.011 4933699
431.56757 1110.7817 3441.9036 2959907
455.58942 1119.7063 3469.5576 3288872
475.24857 1117.6008 3463.0337 5460037
497.04767 1120.4938 3471.9978 5328195
517.03937 1119.2444 3468.1262 5920334
536.52075 1117.028 3461.2583 7039072
579.60333 1162.3031 3601.5496 6315864
586.98071 1135.3043 3517.8904 5657679
616.12476 1150.8135 3565.9473 5723728
638.12714 1152.3971 3570.8542 4867907
648.6911 1133.8851 3513.4927 4670271
659.98645 1117.7629 3463.5359 4012597
679.32471 1115.824 3457.5278 6578522
700.92047 1117.598 3463.0247 1578770
723.65887 1121.041 3473.6936 2301719
745.5824 1123.0665 3479.9695 3683628
761.97424 1116.8746 3460.7834 3156771
791.11108 1129.199 3498.9719 3090721
798.53839 1110.6979 3441.644 4867386
828.31384 1123.4285 3481.0913 4735544
858.0788 1135.5266 3518.5791 5261632
877.57996 1133.7908 3513.2 3156257
893.51965 1127.6405 3494.1428 3024932
913.31647 1126.5264 3490.6904 722178
933.6239 1126.0774 3489.2993 3617325
957.10431 1129.3921 3499.5703 3419431
987.20502 1140.2125 3533.0989 3288101
1002.6627 1134.0223 3513.9177 3551530
1006.1319 1114.8005 3454.3564 3748912
1026.5516 1114.7521 3454.2061 5196358
1031.7415 1098.4902 3403.8169 3946803
1068.3544 1115.6665 3457.0398 3223081
1114.1213 1141.5764 3537.325 3683116
1120.4801 1126.8956 3491.835 2959138
1151.957 1137.5513 3524.8525 2761758
1161.8621 1126.9044 3491.8621 4603705
1167.9786 1113.02 3448.8394 4669498
1188.9664 1113.5409 3450.4534 5063743
1198.58 1103.5714 3419.5615 3814190
1228.4648 1112.2877 3446.5701 4800828
1241.473 1105.6881 3426.1204 4670269
1274.1364 1116.5245 3459.6987 4143928
1282.6135 1106.1592 3427.5801 3287848
1308.7277 1111.0905 3442.8604 5590343
1339.2434 1119.5499 3469.073 4537910
1360.9407 1120.493 3471.9956 4340272
1372.698 1113.3464 3449.8506 4406323
1414.8119 1130.6693 3503.5278 3748911
1418.1055 1116.9159 3460.9111 7565417
1435.9485 1114.8506 3454.5115 5394504
1446.2694 1107.0852 3430.4497 4341046
1459.4854 1101.7206 3413.8264 4341301
1487.6088 1107.6018 3432.0505 5393476
1494.943 1098.0547 3402.4673 7696487
1523.4594 1104.1132 3421.24 5065021
1539.1605 1100.8467 3411.1184 6315087
1556.3722 1098.7312 3404.5635 4933175
1565.8134 1091.2544 3381.3958 6117449
1623.5405 1117.1932 3461.7703 6051399
1645.991 1118.5129 3465.8596 7367004
1659.139 1113.5568 3450.5022 6182987
1642.401 1088.9067 3374.1211 7301469
1685.0604 1103.7563 3420.1345 6840919
1704.592 1103.2839 3418.6707 6577491
1738.0096 1111.7046 3444.7632 5524547
1739.4172 1099.6924 3407.5417 5722182
1774.6803 1109.1144 3436.7371 5854025
1819.9437 1124.5017 3484.4167 6445904
1829.1694 1117.5266 3462.8035 8156520
1841.8835 1112.8138 3448.2004 8222569
1856.51 1109.3472 3437.4585 9209466
1822.3561 1077.1237 3337.6096 8946550
1861.7396 1088.5903 3373.1409 7499619
1901.1438 1099.8256 3407.9546 8618359
1920.0232 1099.0757 3405.6309 6841434
1964.5515 1112.8707 3448.3767 4209974
2001.0759 1121.8947 3476.3384 6446679
2058.6021 1142.3893 3539.8438 4340533
2114.5579 1161.6078 3599.3948 2828319
2121.4631 1153.7662 3575.0967 2893342
2127.6934 1145.7163 3550.1531 3945772
2114.9788 1127.7224 3494.3967 6577235
2115.624 1117.1318 3461.5803 5985611
2118.4265 1107.8729 3432.8901 4998716
2151.2908 1114.3618 3452.9971 4998460
2199.5896 1128.6482 3497.2654 4603188
2197.6189 1117.1147 3461.5273 2563605
2224.5969 1120.3738 3471.6257 2695191
2231.2458 1113.4285 3450.105 6511184
2250.4316 1112.8088 3448.1848 5721925
2309.989 1131.9838 3507.6008 6643027
2329.2881 1131.2646 3505.3726 4800822
2360.7256 1136.4012 3521.2893 5458496
2357.3816 1124.8517 3485.5012 4997944
2389.6743 1130.3594 3502.5676 4274222
2445.7773 1146.9381 3553.939 4406064
2475.1978 1150.8279 3565.9919 4734773
2478.0459 1142.4017 3539.8823 5985612
2475.6763 1131.7317 3506.8198 5327427
2517.3511 1141.2063 3536.1782 5393735
2544.5613 1144.0212 3544.9006 4144440
2582.2705 1151.4718 3567.9873 6249044
2575.0498 1138.9292 3529.1221 5064513
2585.4053 1134.2996 3514.7769 4603189
2590.2324 1127.3381 3493.2058 4800310
2584.5188 1115.9355 3457.8735 4207915
2578.9731 1104.7844 3423.3203 5260859
2616.801 1112.2428 3446.4312 4931121
2636.9065 1112.1113 3446.0234 4602155
2649.6487 1108.9001 3436.0732 4799790
2694.2336 1118.9629 3467.2539 4141603
2693.5801 1110.2271 3440.1848 4602153
2740.6292 1121.1366 3473.9895 4207652
2762.1155 1121.5044 3475.1292 4338983
2784.2422 1122.1248 3477.0515 4471341
2803.4089 1121.5518 3475.2759 4076329
2833.5415 1125.3423 3487.0212 3550240
2856.4717 1126.2382 3489.7976 4208170
2851.9631 1116.3805 3459.2522 4537136
2869.6377 1115.2849 3455.8574 6840147
2915.9895 1125.2714 3486.8018 3813670
2946.9363 1129.2144 3499.0195 4668724
2978.6526 1133.3951 3511.9744 4734774
3025.3477 1143.1779 3542.2874 3023900
3037.041 1139.691 3531.4827 2366227
3022.9336 1126.6359 3491.0298 3024157
3028.5444 1121.0573 3473.7437 2563862
3044.8918 1119.5013 3468.9224 2497812
3077.584 1123.9354 3482.6621 4076844
3083.5547 1118.6167 3466.1812 2760985
3133.7546 1129.3073 3499.3074 3221791
3148.3765 1127.1201 3492.5305 3418916
3162.0913 1124.6392 3484.8428 3352867
3171.7971 1120.7737 3472.8652 3023900
3191.6335 1120.5148 3472.063 3813674
3254.9023 1135.4098 3518.217 1444359
3277.8354 1136.1344 3520.4622 2300435
3279.5432 1129.5392 3500.0261 1774865
3273.3379 1120.3188 3471.4556 3945258
3306.8279 1124.7146 3485.0764 3813929
3290.7244 1112.293 3446.5862 2168848
0 0 0 0
0 0 0 0
0 0 0 0
0 0 0 0
0 0 0 0
0 0 0 0
0 0 0 0
-2763.3545 1016.3257 3092.4512 4143400
-2729.3206 1010.5079 3074.749 5261882
-2658.5637 990.92419 3015.1602 5064247
-2689.0828 1009.0795 3070.4023 4735538
-2662.8245 1006.0311 3061.127 5459261
-2617.9614 995.86371 3030.1899 4867124
-2601.3635 996.3822 3031.7676 4340779
-2569.3518 990.96307 3015.2783 3880228
-2591.8481 1006.6381 3062.9739 3814435
-2559.4473 1001.0626 3046.0088 6380363
-2529.2666 996.28241 3031.4639 6447182
-2517.8472 998.87683 3039.3582 6512974
-2450.8157 979.28729 2979.7515 5657665
-2500.1189 1006.2355 3061.7488 5064759
-2474.5857 1003.2375 3052.6267 5459516
-2463.2417 1005.9904 3061.0029 4209191
-2426.908 998.5025 3038.219 4077608
-2409.4292 998.71808 3038.875 4932918
-2410.2629 1006.5848 3062.8118 5262397
-2414.0725 1015.823 3090.9214 5788997
-2402.5039 1018.6819 3099.6206 5788997
-2429.8918 1038.2301 3159.1013 5788483
-2393.0808 1030.4382 3135.3923 2959382
-2364.5764 1026.1292 3122.2808 4012071
-2363.1865 1033.6116 3145.0481 3354395
-2339.2463 1031.2714 3137.9272 6775631
-2368.7319 1052.6355 3202.9336 5723458
-2295.4561 1028.3099 3128.9165 5460542
-2298.5374 1038.073 3158.6233 6512976
-2272.5237 1034.7484 3148.5073 4210736
-2274.0264 1044.0017 3176.6631 5987406
-2219.071 1027.2732 3125.762 5724489
-2175.7139 1015.6777 3090.4792 5790024
-2154.5767 1014.346 3086.4272 5066046
-2160.7883 1025.9772 3121.8186 4407602
-2163.4221 1036.0958 3152.6072 3486243
-2119.759 1024.0253 3115.8792 3946792
-2123.708 1034.9454 3149.1069 4473135
-2085.9385 1025.5482 3120.5132 4736308
-2061.177 1022.4357 3111.0425 4012585
-2062.7522 1032.449 3141.5105 4802102
-1999.4673 1009.8852 3072.854 4999481
-2054.4072 1047.1682 3186.2979 5196861
-2030.8329 1044.7512 3178.9438 3947051
-2016.348 1047.0089 3185.8132 5854791
-2011.3289 1054.271 3207.9099 5920586
-1984.6794 1050.2255 3195.6003 8420977
-1965.0223 1049.8378 3194.4209 6973788
-1927.1517 1039.6171 3163.3215 5986636
-1914.5563 1042.9646 3173.5071 5394500
-1898.021 1044.2108 3177.2991 3552039
-1892.5452 1051.6274 3199.8665 4407093
-1884.0448 1057.4965 3217.7246 4473144
-1891.5518 1072.5621 3263.5659 1315081
-1866.0172 1069.01 3252.7576 1117962
-1810.6415 1048.1099 3189.1631 3815213
-1797.6613 1051.5687 3199.6877 4013104
-1810.4604 1070.3422 3256.811 2565143
-1771.9 1058.8292 3221.7798 3946540
-1756.3704 1060.9779 3228.3179 2104592
-1715.9009 1047.9425 3188.6538 3749417
-1700.8495 1050.3131 3195.8672 854276
-1669.5105 1042.5659 3172.2939 2893336
-1645.2052 1039.0847 3161.7017 1051651
-1637.853 1046.3539 3183.8201 854273
-1606.3347 1038.174 3158.9304 4011301
-1591.5654 1040.7535 3166.7795 3879972
-1579.3538 1045.0872 3179.9658 3880229
-1555.0635 1041.4363 3168.8569 4801587
-1503.7954 1019.4083 3101.8306 7564380
-1499.3341 1028.9575 3130.887 3879970
-1475.213 1025.0851 3119.1038 3879969
-1484.0966 1044.3392 3177.6899 4340268
-1475.309 1051.4933 3199.4583 4077353
-1461.0745 1054.901 3209.8271 3024922
-1477.7567 1081.0151 3289.2864 4801332
-1428.6711 1059.0732 3222.5222 2564373
-1398.6494 1050.8606 3197.533 3814440
-1368.4518 1042.2883 3171.4495 2761753
-1337.8109 1033.1351 3143.5984 5130300
-1330.5577 1042.0399 3170.6936 4077612
-1317.2375 1046.3801 3183.8997 4012331
-1296.9833 1045.2581 3180.4858 4999480
-1294.358 1058.5201 3220.8391 5722690
-1260.7607 1046.4711 3184.1768 4933175
-1220.3125 1028.2831 3128.8347 7959653
-1230.3325 1052.7166 3203.1804 5657153
-1231.8282 1070.5077 3257.3147 3814434
-1235.5336 1090.8158 3319.1079 5130550
-1214.0715 1089.2019 3314.1973 4209449
-1186.2848 1081.7675 3291.5759 3748387
-1150.8123 1066.9587 3246.5164 4407601
-1150.9438 1085.2178 3302.074 3025439
-1141.1115 1094.5507 3330.4719 2696733
-1106.0073 1079.5447 3284.8123 2367256
-1088.9541 1081.936 3292.0886 2235670
-1055.323 1067.6432 3248.5984 2499099
-1038.1393 1069.7676 3255.0625 3288611
-1024.9556 1076.1724 3274.551 7104604
-1003.4246 1073.8909 3267.6089 6512465
-984.72748 1074.6122 3269.8037 3683624
-958.61829 1067.1115 3246.9807 4604980
-935.21375 1062.3759 3232.5713 4472368
-937.51947 1087.259 3308.2854 4077866
-898.9718 1064.8148 3239.9924 3749160
-898.66571 1087.6758 3309.5532 6249294
-884.23004 1094.0739 3329.021 4867642
-858.59558 1086.5912 3306.2532 5394243
-837.23175 1084.2899 3299.251 5525831
-796.99512 1056.8527 3215.7654 5855050
-770.06299 1046.1458 3183.187 4999743
-749.97131 1044.4276 3177.959 5196607
-748.19775 1068.7882 3252.0825 4999229
-719.88867 1055.5288 3211.7375 4604471
-712.56079 1073.1484 3265.3499 4538934
-691.84576 1071.027 3258.8948 5130817
-676.30469 1077.0234 3277.1406 6644313
-648.40973 1063.119 3234.8325 3946802
-631.52643 1066.972 3246.5566 4473144
-612.61877 1067.5396 3248.2834 7565415
-591.10583 1063.4568 3235.8604 4538937
-580.3399 1079.0833 3283.4082 3025441
-545.96533 1050.3733 3196.0503 4999482
-527.70074 1051.7076 3200.1104 6644056
-506.13174 1046.3104 3183.6877 6446677
-490.06448 1052.3092 3201.9407 6775899
-469.68982 1049.1693 3192.3867 5065536
-446.64001 1039.5397 3163.0859 5789259
-430.91916 1046.8715 3185.395 6117970
-411.25711 1044.8617 3179.2798 5789518
-391.62515 1042.7391 3172.821 6380884
-374.49509 1047.3999 3187.0029 6249555
-363.94662 1071.9406 3261.6746 6776156
-347.95813 1082.3121 3293.2329 5394246
-329.81903 1086.8291 3306.9771 4341815
-311.25861 1090.4404 3317.9656 2959646
-291.22641 1089.0352 3313.6897 3025438
-272.88644 1094.212 3329.4419 3419940
-252.11652 1089.6929 3315.6912 3617575
-232.25966 1088.6901 3312.6396 2630680
-213.0022 1090.571 3318.3628 3551782
-191.18712 1078.408 3281.3533 4670009
-173.18228 1087.416 3308.7632 4209202
-152.16486 1077.3932 3278.2659 2894112
-132.4837 1075.2833 3271.8459 4933181
-114.03772 1084.1932 3298.957 4274994
-91.703369 1052.175 3201.5327 3814956
-72.81559 1053.3153 3205.0022 4999486
-53.636734 1049.5642 3193.5884 5789258
-35.217762 1064.6973 3239.635 6842206
-16.064512 1067.2937 3247.5354 5657675
3.1981483 1075.2034 3271.6025 5328707
22.782221 1084.8392 3300.9224 4144173
42.508053 1089.2061 3314.2095 6381143
62.180233 1089.8729 3316.239 7499881
80.766495 1075.756 3273.2842 5789519
98.5457 1058.437 3220.5867 6973022
120.21832 1081.7711 3291.5869 4999229
139.71164 1081.7186 3291.427 4538678
160.08797 1087.6783 3309.5613 5986124
180.04839 1089.8201 3316.0779 5262658
205.65581 1122.3588 3415.0857 4472888
227.82394 1131.98 3444.3611 6841951
247.07733 1126.7275 3428.3792 2302236
267.60715 1127.6517 3431.1912 4275768
286.66635 1122.6859 3416.0815 4933444
301.30295 1102.1968 3353.7378 4933444
322.61761 1107.1605 3368.8411 3025190
346.2384 1118.9988 3404.8623 3946548
362.11725 1105.8903 3364.9758 4801600
386.81961 1119.6902 3406.9661 4143926
408.33286 1123.348 3418.0962 5064770
428.96796 1124.3586 3421.1709 4472634
447.57104 1120.192 3408.4932 4078130
469.94073 1125.4055 3424.3564 5131075
486.22943 1116.2275 3396.4299 4407353
506.9603 1117.5715 3400.5193 4144181
526.2431 1115.7424 3394.9539 6183764
547.59625 1118.276 3402.6631 6249554
577.77222 1138.0077 3462.7021 4933182
593.99219 1129.8402 3437.8503 4670007
613.17224 1127.6581 3431.2107 5853511
635.92059 1131.9678 3444.3242 3879981
652.85797 1125.9872 3426.1265 4209461
671.62183 1123.4225 3418.3225 5722956
674.19141 1094.7126 3330.9648 4604988
710.98419 1121.6249 3412.8528 4604731
719.73602 1104.0356 3359.3328 3683371
757.40375 1130.5549 3440.0249 3157284
778.59039 1131.728 3443.5947 2170387
791.2251 1120.7281 3410.1243 3485734
809.11108 1117.5288 3400.3894 5131846
845.9519 1140.0291 3468.8525 6907486
854.50012 1124.2382 3420.8047 3157286
878.91522 1129.5712 3437.0315 4472888
900.72491 1131.3899 3442.5657 4998721
922.64453 1133.2631 3448.2654 4012082
950.41211 1142.0825 3475.1008 5986130
954.70129 1122.9127 3416.7715 2959395
965.96387 1112.5709 3385.3035 2169366
976.65405 1102.0038 3353.1501 3024673
1004.4616 1110.7872 3379.8765 4011824
1018.7887 1104.6115 3361.0847 4208693
1048.9175 1115.4767 3394.1453 3814960
1042.2887 1087.5785 3309.2571 3090981
1068.5157 1094.3608 3329.8945 2959653
1083.675 1089.7675 3315.9177 1314827
1114.1516 1100.4666 3348.4729 2762016
1127.734 1094.3967 3330.0039 2498073
1129.61 1077.3707 3278.1973 1511949
1167.2953 1094.4962 3330.3062 4339763
1201.5613 1107.8994 3371.0896 3221793
1216.9532 1103.7463 3358.4526 5064254
1231.8224 1099.2603 3344.8022 5327427
1242.3546 1091.1072 3319.9946 3682603
1285.3956 1111.3146 3381.481 2367257
1301.1459 1107.6688 3370.3879 3288360
1317.0526 1104.2646 3360.0295 4077876
1329.1993 1097.8562 3340.5303 3617326
1382.9346 1125.4821 3424.5896 3288360
1388.6141 1113.7651 3388.9373 3090982
1379.8584 1090.9689 3319.5735 3683118
1394.2207 1086.8346 3306.9937 3419690
1418.1715 1090.1858 3317.1907 4340791
1458.6664 1105.9895 3365.2778 5854285
1458.1091 1090.6602 3318.634 3156511
1480.2672 1092.5035 3324.2432 3616547
1481.9365 1079.3755 3284.2974 3813413
1518.7762 1091.8722 3322.3223 4471340
1526.0911 1083.0948 3295.6147 4865585
1553.5981 1088.6891 3312.6367 3944741
1572.7098 1088.334 3311.5562 4405549
1646.8568 1125.6035 3424.959 5590080
1626.4019 1098.0938 3341.2529 4077100
1647.4916 1098.9579 3343.8821 4867131
1673.4093 1102.9835 3356.1316 5985869
1693.5067 1103.1235 3356.5574 6840923
1683.8248 1084.0876 3298.6355 5130301
1738.6482 1106.5422 3366.9597 4867900
1773.9174 1116.1833 3396.2957 4143925
1765.0282 1098.1348 3341.3777 5788751
1830.7864 1126.4142 3427.4255 4867392
1854.8743 1128.7162 3434.4299 4472628
1856.8162 1117.6382 3400.7224 1512200
1864.4805 1110.2057 3378.1067 2103824
1919.7357 1130.968 3441.282 6512203
1931.6458 1126.0266 3426.2463 6249549
1989.472 1147.6758 3492.1196 6381137
2004.5078 1144.4486 3482.3003 6052429
2006.4874 1133.9089 3450.2305 7960687
2011.6277 1125.3499 3424.1873 5000258
2101.4204 1163.8456 3541.321 6184276
2074.1277 1137.3748 3460.7764 4604985
2096.6328 1138.4624 3464.0854 5526087
2101.2178 1129.8925 3438.009 7499365
2117.8848 1127.9216 3432.0125 4999229
2106.2375 1111.0524 3380.6831 5525573
2133.0901 1114.6184 3391.5337 6907227
2144.9028 1110.3325 3378.4927 7893609
2172.5305 1114.2369 3390.3728 6248271
2212.6453 1124.4153 3421.3435 1906447
2221.7856 1118.8115 3404.2925 6051403
2271.6677 1133.6399 3449.4119 4274735
2310.3083 1142.6442 3476.8098 5327420
2320.822 1137.7009 3461.7686 3024411
2296.6987 1116.0134 3395.7786 4142892
2353.8252 1133.8409 3450.0234 2366739
2392.5007 1142.5499 3476.5232 4274988
2417.3757 1144.576 3482.6882 4933174
2477.2412 1162.995 3538.7329 5985353
2461.0972 1145.7198 3486.1685 6841178
2491.3691 1150.1605 3499.6807 5195842
2491.1035 1140.5466 3470.4272 6314066
2502.2166 1136.2568 3457.3745 3682605
2534.9949 1141.795 3474.2263 4011053
2496.374 1115.3441 3393.7417 3945002
2535.5505 1123.7968 3419.4614 4471600
2539.282 1116.5303 3397.3508 5458237
2525.6646 1101.8094 3352.5588 3549724
2541.188 1099.9319 3346.8457 5325621
