# .PCD v0.7 - Point Cloud Data file format
VERSION 0.7
FIELDS x y z rgb
SIZE 4 4 4 4
TYPE F F F U
COUNT 1 1 1 1
WIDTH 1286
HEIGHT 1
VIEWPOINT 0 0 0 1 0 0 0
POINTS 1286
DATA ascii
-423.96683 1099.575 4824.0625 4341819
-396.19812 1101.828 4833.9473 6249562
-364.87994 1093.7919 4798.6909 1776153
-326.91821 1062.7997 4662.7222 2434082
-295.35086 1048.7933 4601.2734 4276543
-272.05347 1064.2913 4669.2661 3684149
-243.07228 1058.5454 4644.0581 2697253
-217.02475 1065.7393 4675.6187 3618096
-189.22108 1065.1526 4673.0444 3420460
-165.44083 1090.8944 4785.9795 3683889
-135.07169 1074.8524 4715.6001 4078904
-107.05856 1074.0814 4712.2178 4934213
-82.50798 1119.7588 4912.6133 4473662
-52.548553 1101.8107 4833.8711 4605248
-23.802948 1096.8038 4811.9053 3749168
4.7894812 1116.7664 4899.4849 4209720
33.592533 1109.4146 4867.2314 4078392
62.438881 1109.6238 4868.1489 3617584
91.056908 1106.925 4856.3096 3487027
121.60892 1123.3879 4928.5356 4605251
150.66051 1122.2992 4923.7588 4342079
177.44971 1107.4442 4858.5869 4473665
210.28671 1129.2115 4954.085 3881527
241.58086 1138.377 4994.2954 3881014
268.34689 1126.5332 4942.334 2038810
294.37576 1114.2292 4888.3545 5394253
318.60205 1097.9176 4816.7915 3157035
345.31628 1092.1565 4791.5166 3618356
373.92172 1092.7977 4794.3301 4605249
405.55481 1101.5721 4832.8252 3618097
427.54691 1084.7292 4758.9316 3288619
461.02481 1097.3082 4814.1182 3749171
488.29501 1094.507 4801.8281 2696484
510.58255 1081.4603 4744.5903 3354416
526.77045 1057.5298 4639.6021 591882
529.60114 1010.4871 4433.2158 7
544.40564 989.65637 4341.8271 11
567.81952 985.64978 4324.2495 12
589.94861 979.85535 4298.8281 14
613.97784 977.56573 4288.7832 13
635.39221 971.46039 4261.9976 18
657.74719 967.20465 4243.3267 19
680.17212 963.36139 4226.4658 16
701.67334 958.52917 4205.2656 11
728.60822 961.19653 4216.9683 5657946
744.59021 949.7168 4166.604 6512738
768.93237 949.29486 4164.7529 7368556
788.37689 943.04071 4137.3149 4342355
853.61017 990.28394 4344.5806 13486544
899.23865 1012.6833 4442.8516 14342366
903.60242 988.65985 4337.4556 9929135
939.35321 999.35681 4384.3853 4861782
970.33746 1004.5436 4407.1406 3088443
991.98401 1000.045 4387.4043 1117726
1011.2222 993.41016 4358.2959 131083
1050.8796 1006.6659 4416.4517 1907229
1133.9666 1059.8693 4649.8657 4209986
1168.5538 1066.2936 4678.0503 1709331
1203.3336 1072.5918 4705.6821 2235930
1256.8444 1094.9227 4803.6523 3091495
1296.0834 1104.1067 4843.9448 4999237
1312.6915 1094.032 4799.7446 3946034
1347.1753 1098.9666 4821.3936 4406585
1400.0013 1118.3481 4906.4248 4867392
1414.2972 1106.7891 4855.7124 4275255
1448.2996 1110.8048 4873.3306 4538171
1455.3546 1094.3998 4801.3584 4670525
1485.4261 1095.6 4806.624 4867903
1520.4852 1100.3645 4827.5269 4604475
1523.4712 1082.1704 4747.7056 3551531
1566.5817 1092.6211 4793.5547 1117704
1605.6854 1099.955 4825.73 2762016
1627.6873 1095.5215 4806.2798 1182984
1640.3773 1085.0812 4760.4756 4077361
1647.1361 1071.1365 4699.2974 3617065
1670.0007 1067.955 4685.3394 3682344
1693.3188 1065.1626 4673.0889 6050892
1712.2665 1059.7554 4649.3662 3879977
1738.375 1058.881 4645.5298 2629398
1778.2157 1066.2682 4677.939 3353121
1774.5997 1047.7706 4596.7866 3089690
1826.5408 1062.1387 4659.8223 2628883
1879.5602 1076.6968 4723.6914 2234638
1912.0479 1079.2388 4734.8438 4011050
1945.5284 1082.2595 4748.0962 3419172
1952.6479 1070.7389 4697.5532 3353635
1952.209 1055.4558 4630.5029 3156259
1967.1532 1048.7979 4601.293 2498329
2008.2365 1056.0675 4633.1865 2037521
2049.5945 1063.2837 4664.8457 3682346
2082.1301 1065.7919 4675.8491 3880239
2111.6494 1066.7104 4679.8794 3156516
2127.001 1060.5411 4652.8135 3945775
2142.9631 1054.8302 4627.7583 3945772
2178.3235 1058.6914 4644.6982 4076847
2212.7847 1062.0245 4659.3213 3353121
2225.7654 1055.093 4628.9116 3089949
2254.6328 1055.7697 4631.8799 3155741
2300.8162 1064.4409 4669.9224 4274481
2328.6792 1064.5311 4670.3184 3682603
2370.4041 1070.8815 4698.1787 5458757
2365.2822 1056.1664 4633.6201 5196099
2401.4448 1060.0117 4650.4907 2564636
2426.8557 1059.0781 4646.3945 5393478
2436.166 1051.2178 4611.9097 3813932
2481.658 1058.9712 4645.9258 4209204
2506.2651 1057.7405 4640.5259 4406583
2537.2603 1059.203 4646.9424 4340791
2554.1638 1054.8147 4627.6904 3419947
2609.6768 1066.295 4678.0571 4012082
2640.8354 1067.6879 4684.1675 4867134
2701.6587 1080.9203 4742.2207 3551531
2777.1704 1099.6967 4824.5967 3617582
2757.1497 1080.6471 4741.0225 2696224
2846.6333 1104.4685 4845.5317 3551276
2890.6531 1110.3507 4871.3384 2433052
2883.4265 1096.6267 4811.1284 2762016
2853.2009 1074.5099 4714.0972 4472891
2979.0637 1111.0347 4874.3389 4340536
2990.6956 1104.665 4846.394 3287591
3023.5195 1106.1698 4852.9956 3616556
3049.8337 1105.2869 4849.1221 1576973
3086.4431 1108.1168 4861.5376 1970962
3128.1707 1112.715 4881.7104 4471094
3181.2544 1121.2312 4919.0732 4471350
3221.2095 1125.0078 4935.6421 4603449
3246.7715 1123.7349 4930.0576 4537656
3205.9697 1099.7205 4824.7012 3879726
3242.7219 1102.4979 4836.8867 3616811
3346.4824 1127.8096 4947.9341 2366743
3347.3215 1118.2969 4906.2002 3090464
3442.916 1140.332 5002.8726 3090207
3452.1511 1133.632 4973.478 2563863
3382.1367 1101.2413 4831.3735 2563863
3475.3225 1122.0872 4922.8286 3945773
3500.707 1120.8771 4917.52 4208945
3500.4114 1111.5323 4876.5225 2695706
3522.7898 1109.4817 4867.5259 3353893
3562.0208 1112.7288 4881.7715 3748650
3546.1667 1098.8545 4820.9019 4932668
3581.9719 1101.0815 4830.6729 4077360
3696.7971 1127.3712 4946.0107 3419429
3716.6326 1124.5072 4933.4458 4143154
3662.908 1099.6052 4824.1953 2761247
3549.8752 1057.4222 4639.1304 3287849
3416.0559 1009.7433 4429.9526 196866
3296.3401 966.92834 4242.1147 262151
3306.6279 962.60718 4223.1567 196620
3319.658 959.14325 4207.96 12
3357.1858 962.75629 4223.811 15
3327.0251 947.0481 4154.896 12
3340.5942 943.92712 4141.2036 14
3316.7517 930.35754 4081.6711 12
3324.5789 925.80347 4061.6914 12
3373.3354 932.63074 4091.6443 12
3370.2375 925.12659 4058.7217 12
3374.8643 919.83417 4035.5027 12
3389.5735 917.34467 4024.5811 11
3425.02 920.46332 4038.2629 11
3448.2695 920.28345 4037.4739 11
3456.7979 916.20428 4019.5776 11
3483.1089 916.86176 4022.4624 11
3499.8167 914.99969 4014.2932 12
3529.8562 916.62488 4021.4229 266
3539.8992 913.07019 4005.8279 2696490
0 0 0 0
4094.1465 1042.0591 4571.729 3881528
4150.4209 1049.4401 4604.1104 4472635
4677.1099 1174.8928 5154.498 4670013
4502.4893 1123.6917 4929.8677 5064515
4567.5542 1132.5833 4968.8774 4932415
4601.356 1133.6588 4973.5957 3814191
4618.4307 1130.6255 4960.2881 3156003
4609.6982 1121.3529 4919.6074 3418918
4554.1216 1100.8732 4829.7583 3418917
4602.769 1105.6859 4850.873 3485225
4593.626 1096.6426 4811.1978 4011057
0 0 0 0
0 0 0 0
0 0 0 0
0 0 0 0
0 0 0 0
0 0 0 0
-3716.0442 966.12366 4131.2109 4275505
-3625.8394 948.92126 4057.6523 4604213
-3622.417 954.35278 4080.8777 6051916
-3698.76 981.01318 4194.8794 6380625
-3680.8562 982.86829 4202.812 5328706
-3659.9878 983.95166 4207.4448 5855307
-3607.3318 976.44562 4175.3481 5657672
-3564.6814 971.56293 4154.4697 7565668
-3498.7607 960.22589 4105.9917 5262658
-3532.6187 976.30585 4174.7505 5986637
-3465.7549 964.57983 4124.6094 5921101
-3376.2866 946.35138 4046.6633 5525573
-3496.7485 987.12524 4221.0151 5393987
-3423.9094 973.52484 4162.8589 4407091
-3392.2668 971.52551 4154.3096 5196607
-3425.1458 988.11066 4225.229 4538675
-3405.6648 989.72363 4232.126 5065532
-3421.418 1001.676 4283.2349 5657412
-3412.3135 1006.4749 4303.7559 5525824
-3381.1169 1004.781 4296.5122 6249546
-3279.822 982.07196 4199.4067 3815208
-3243.679 978.67322 4184.8735 3946538
-3234.8701 983.53271 4205.6533 4209196
-3207.6257 982.81903 4202.6016 2893076
-3224.7603 995.7984 4258.1021 3814434
-3192.1926 993.51337 4248.3311 5196858
-3206.3657 1005.8549 4301.1045 5788997
-3156.6392 998.18787 4268.3198 3354657
-3104.7231 989.69922 4232.0215 4275504
-3058.9153 983.03522 4203.5259 3420453
-3104.1545 1005.7615 4300.7051 3814954
-3078.9993 1005.8671 4301.1562 3354403
-3112.9966 1025.46 4384.937 4341298
-3096.0037 1028.4443 4397.6987 4604214
-3060.7673 1025.368 4384.5439 3420710
-3019.4897 1020.1977 4362.4351 3683882
-3007.3828 1024.8792 4382.4536 4407094
-3016.0955 1036.799 4433.4233 4341558
-2997.3386 1039.4025 4444.5562 3223077
-2944.4006 1030.0939 4404.752 3749421
-2907.313 1026.2136 4388.1597 4275509
-2872.5164 1023.0793 4374.7573 4144176
-2836.2471 1019.3588 4358.8477 5789257
-2812.1853 1019.9974 4361.5791 6052428
-2879.2004 1053.9885 4506.9272 3354916
-2865.8362 1058.9161 4527.998 3025697
-2727.8877 1017.4684 4350.7646 1578254
-2651.7332 998.49817 4269.6465 131072
-2666.6255 1013.776 4334.9756 3222819
-2669.8091 1024.8563 4382.356 4933688
-2590.4395 1004.1536 4293.8296 5657410
-2587.4734 1012.9507 4331.4468 6579288
-2585.1628 1022.1834 4370.9263 4539705
-2533.312 1011.8163 4326.5957 5328452
-2532.0369 1021.6439 4368.6191 5854797
-2523.1113 1028.5557 4398.1743 4473399
-2498.3035 1029.0697 4400.3726 4867642
-2476.7566 1030.952 4408.4214 5526087
-2440.8235 1026.8223 4390.7622 2499609
-2371.2556 1008.3015 4311.5659 2762780
-2372.635 1019.8738 4361.0503 3420453
-2355.9373 1023.8452 4378.0317 5393987
-2354.1753 1034.4679 4423.4551 4736315
-2342.5017 1040.9253 4451.0679 5657417
-2321.4019 1043.2935 4461.1943 4078640
-2319.8159 1054.5872 4509.4868 4144433
-2191.9551 1008.0707 4310.5791 4933949
-2220.1587 1033.0769 4417.5078 4736313
-2233.7214 1051.7861 4497.5093 4407348
-2177.3962 1037.6416 4437.0264 6052430
-2205.1133 1063.6912 4548.4165 4802363
-2092.3584 1021.787 4369.2314 5262658
-2101.0876 1038.9021 4442.4165 5131330
-2101.1147 1052.0938 4498.8252 3091746
-2048.0066 1038.6763 4441.4507 3881007
-2021.1656 1038.4045 4440.2891 5986384
-1999.8619 1041.0081 4451.4219 5657162
-2014.9709 1062.8887 4544.9849 3881007
-1975.0311 1055.9307 4515.2319 4078129
-1971.9976 1068.7842 4570.1943 4868156
-1902.6073 1045.5308 4470.7612 4407348
-1866.2231 1040.0145 4447.1733 5328707
-1852.3273 1047.0522 4477.2671 4999742
-1860.8732 1067.1642 4563.2671 5657930
-1815.0148 1056.2097 4516.4248 5066049
-1809.426 1068.7119 4569.8853 6710877
-1769.5897 1061.059 4537.1606 6052948
-1705.4882 1038.3959 4440.252 5131075
-1720.8396 1064.156 4550.4038 4276279
-1709.4875 1073.96 4592.3262 5000003
-1685.1012 1075.76 4600.0234 4868417
-1648.9924 1070.0127 4575.4478 3749939
-1608.6832 1061.3021 4538.2007 2895142
-1576.2375 1057.5714 4522.2476 5395275
-1521.4392 1038.455 4440.5044 4013364
-1516.4608 1053.2684 4503.8481 5460810
-1493.6829 1056.0286 4515.6504 6710878
-1464.3605 1054.178 4507.7373 3683630
-1450.3065 1063.4545 4547.4038 4144181
-1401.1617 1046.8641 4476.4629 3419945
-1371.9017 1044.7773 4467.5391 3288870
-1338.7454 1039.5825 4445.3257 3354663
-1346.8528 1066.865 4561.9878 3420458
-1317.3794 1064.8868 4553.5293 2894115
-1290.9261 1065.3184 4555.374 3815216
-1267.0084 1067.9054 4566.4365 4144181
-1244.3243 1071.6678 4582.5249 3683631
-1209.4154 1064.8345 4553.3052 3223081
-1177.4781 1060.3657 4534.1963 3881266
-1156.3086 1065.6112 4556.6265 3815216
-1135.3123 1071.271 4580.8281 3025701
-1108.5278 1071.6128 4582.2896 3091494
-1075.4225 1065.7076 4557.0391 2894115
-1044.2173 1061.4301 4538.7476 2959907
-989.89691 1032.8091 4416.3623 3946803
-969.4873 1038.9755 4442.73 4012596
-947.43311 1043.6742 4462.8223 2696993
-918.88861 1041.288 4452.6187 5263177
-887.34106 1035.2571 4426.8301 4802881
-855.53387 1028.5468 4398.1362 6710878
-822.3894 1019.7566 4360.5488 4342331
-811.3454 1038.6892 4441.5063 4999746
-780.4549 1032.6321 4415.6055 4538941
-760.41473 1041.0088 4451.4248 3091239
-747.69086 1060.3633 4534.186 1117962
-707.80176 1041.1993 4452.2397 3881268
-696.78076 1064.6615 4552.5654 4012854
-656.56763 1043.6123 4462.5576 3157545
-652.31183 1080.3488 4619.645 5460044
-621.96045 1075.1909 4597.5903 3881526
-589.71387 1066.1346 4558.8643 5592144
-552.57904 1046.9473 4476.8184 3420205
-540.45343 1075.598 4599.3306 5394765
-513.32751 1075.8528 4600.4199 5723986
-486.30057 1076.3552 4602.5684 6117973
-462.17459 1083.7195 4634.0586 4604734
-428.96692 1069.3743 4572.7173 4078391
-402.52411 1071.0957 4580.0786 3814964
-378.73434 1080.6362 4620.8745 4144185
-350.57901 1078.2366 4610.6133 5131340
-325.55481 1085.8751 4643.2764 3684148
-293.78998 1070.3655 4576.9561 5395024
-265.75439 1066.6702 4561.1548 4342079
-238.18088 1064.203 4550.605 4934217
-207.46365 1045.2668 4469.6328 4671044
-185.89093 1073.6035 4590.8022 2894631
-158.77968 1074.1833 4593.2812 2235931
-133.3416 1088.6635 4655.1997 2828324
-105.08466 1081.6797 4625.3364 2762786
-78.774849 1096.8811 4690.3384 3025703
-51.066288 1098.5604 4697.5195 5394507
-23.580273 1114.7834 4766.8901 2762787
4.6795883 1119.5022 4787.0679 2368286
32.44746 1099.4495 4701.3213 2696995
58.848156 1072.9932 4588.1924 4604992
87.602997 1092.6166 4672.1035 2236702
115.05588 1090.4773 4662.9556 3618353
143.10999 1093.7614 4676.9985 4276543
172.17853 1102.4757 4714.2617 4539202
199.78937 1100.7263 4706.7812 3947321
229.69711 1110.5104 4748.6182 5723990
257.61746 1109.5992 4744.7222 2960684
285.38474 1108.2728 4739.0508 2631719
313.50153 1108.4199 4739.6792 3355441
337.50836 1095.2059 4683.1758 4737350
371.43137 1113.7333 4762.3994 4144953
394.31021 1098.8665 4698.8281 5592400
418.79507 1090.141 4661.5171 3947319
444.60995 1085.7428 4642.7104 3420461
468.57233 1077.5968 4607.8779 2433312
488.69382 1062.0011 4541.1895 3090989
502.02725 1034.0511 4421.6733 65541
519.32153 1016.627 4347.1665 9
538.15125 1003.7133 4291.9463 11
562.72369 1002.1922 4285.4424 11
585.24359 997.30487 4264.5439 13
609.71942 996.01703 4259.0371 14
630.6676 989.29803 4230.3062 16
653.54803 986.00775 4216.2368 16
676.1452 982.54822 4201.4434 12
692.85309 971.0799 4152.4043 328714
710.00702 961.00195 4109.3101 6974060
745.36871 975.41949 4170.9604 6447199
772.81836 978.89008 4185.8008 7236720
815.94843 1001.3889 4282.0073 27
842.44739 1002.7355 4287.7656 13684945
872.34351 1007.9285 4309.9712 13684434
913.67047 1025.658 4385.7837 13685202
920.13184 1004.3503 4294.6704 13685202
954.5741 1013.9094 4335.5459 13619409
973.93158 1007.3649 4307.561 13553873
992.52509 1000.3846 4277.7129 13684949
1017.7325 1000.2521 4277.1465 13750743
1062.7732 1019.1453 4357.9351 3
1098.4738 1028.3979 4397.5 722960
1140.854 1043.3306 4461.353 4341827
1212.2455 1083.5176 4633.1953 4013112
1254.0923 1096.1024 4687.0088 4275770
1300.642 1112.1633 4755.6865 4407099
1299.4777 1087.6085 4650.6885 3485741
1334.8866 1094.0482 4678.2251 4209463
1353.9249 1087.0817 4648.4355 4275255
1429.0065 1124.4937 4808.4121 4209462
1450.0114 1118.7217 4783.7305 3814702
1456.6411 1102.2928 4713.4795 3814958
1498.7227 1112.8051 4758.4307 5657419
1502.8759 1095.2871 4683.5229 5722701
1504.3782 1076.5076 4603.2197 3814704
1528.3906 1074.2175 4593.4277 4012083
1585.4949 1094.8593 4681.6934 3946546
1596.4883 1083.4968 4633.1064 3288616
1605.7793 1071.3827 4581.3057 4209719
1617.7545 1061.4324 4538.7578 4341562
1665.5599 1074.9319 4596.4824 5065027
1651.4257 1048.6649 4484.1631 5591113
1686.8522 1054.2029 4507.8433 5591111
1708.7355 1051.2362 4495.1577 4735032
1748.1312 1058.9691 4528.2246 2892827
1760.6919 1050.458 4491.8306 3879723
1832.0629 1076.7653 4604.3218 3945773
1833.5966 1061.8569 4540.5728 4341044
1897.9722 1083.2461 4632.0342 3090465
1904.4379 1071.4451 4581.5728 3025184
1929.1099 1070.0748 4575.7134 4998464
1939.095 1060.7087 4535.6631 2827548
1936.7717 1044.9578 4468.311 2958878
1996.7238 1062.7783 4544.5127 2366483
1991.5214 1045.9067 4472.3691 3879207
2030.9561 1052.613 4501.0454 3155485
2058.9958 1053.3163 4504.0522 3089949
2071.6555 1046.2341 4473.769 3418914
2117.3315 1055.7943 4514.6489 3155743
2169.3748 1068.2513 4567.916 4471858
2183.7141 1062.0638 4541.458 4340272
2188.0281 1051.2106 4495.0483 3813928
2250.249 1068.1042 4567.2871 3287328
2278.8699 1068.8375 4570.4224 3550244
2289.0325 1060.9978 4536.8994 3024670
2319.4102 1062.6013 4543.7559 5459269
2375.3831 1075.7594 4600.021 2762270
2421.4404 1084.1797 4636.0264 5525321
2410.4163 1067.1398 4563.1626 3880239
2378.373 1041.2755 4452.5654 3419174
2465.0166 1067.371 4564.1514 3024673
2499.978 1070.7643 4578.6611 3156259
2553.3777 1081.8971 4626.2661 3814189
2588.9504 1085.3203 4640.9038 4340276
2580.8804 1070.5681 4577.8228 4340276
2634.7747 1081.5587 4624.8193 4998463
2636.0852 1070.9601 4579.4985 2432792
2667.0549 1072.5042 4586.1011 2958880
2716.8694 1081.5187 4624.6479 4208948
2761.8853 1088.462 4654.3384 4209462
2808.1946 1095.7729 4685.6001 4538427
2844.6135 1099.1193 4699.9092 5393737
2842.7314 1087.745 4651.2725 4867392
2864.7917 1085.6627 4642.3682 4275253
2932.366 1100.7042 4706.6865 4669498
2927.5613 1088.5498 4654.7134 3156259
2978.2993 1097.0819 4691.1973 3155746
3029.3254 1105.5613 4727.4561 2497816
3029.8049 1095.6073 4684.8921 2958367
3069.7368 1099.9709 4703.5508 2300437
3104.7771 1102.5189 4714.4463 2695195
3104.9001 1092.7328 4672.6001 3156002
3160.8232 1102.5842 4714.7256 3287843
3221.8459 1114.0264 4763.6533 3748394
3268.7659 1120.4359 4791.0605 2432791
3292.2429 1118.7687 4783.9312 3748395
3347.6011 1127.8711 4822.854 3748395
3307.2476 1104.8455 4724.3945 3353636
3340.4548 1106.5743 4731.7876 3814189
3380.1721 1110.4128 4748.2017 3419430
3315.6997 1080.2437 4619.1958 2564121
3371.9326 1089.5715 4659.0825 2629401
3397.3406 1088.8685 4656.0762 2892573
3457.5161 1099.2303 4700.3843 3287329
3482.9033 1098.4547 4697.0679 3814186
3490.4297 1092.1033 4669.9082 4406067
3404.6628 1056.891 4519.3384 3682600
3576.8149 1101.668 4710.8076 4406325
3539.1594 1081.6306 4625.1265 3814193
3345.8472 1014.6951 4338.9058 919564
3294.9224 991.63293 4240.29 262150
3284.3062 980.95905 4194.6479 196619
3304.6267 979.61627 4188.9062 65548
3325.9758 978.59619 4184.5444 14
3346.688 977.40521 4179.4517 12
3329.0579 965.11609 4126.9023 12
3296.1433 948.6073 4056.3098 11
3152.6067 900.73169 3851.5901 12
3353.6978 951.30023 4067.825 12
3361.8022 946.79565 4048.5632 12
3365.063 941.00049 4023.7825 12
3382.8406 939.31781 4016.5872 12
3424.6201 944.27661 4037.7913 12
3436.2463 940.91016 4023.396 12
3450.3779 938.27124 4012.1123 12
3472.0872 937.71503 4009.7339 11
3491.6709 936.59631 4004.95 14
3517.938 937.27332 4007.845 261
3649.2786 965.7478 4129.604 10791874
3562.1694 936.41754 4004.1855 10522003
3606.9958 941.92883 4027.752 2760996
3931.4802 1019.9175 4361.2368 3090473
4212.1284 1085.59 4642.0566 5065030
4253.5742 1089.1605 4657.3252 5065285
4298.2134 1093.4978 4675.8716 4867393
4327.2324 1093.8309 4677.2959 4077360
4328.4448 1087.1758 4648.8379 3814189
4373.5527 1091.5602 4667.5859 3748396
4362.6763 1082.0046 4626.7261 3879729
4578.9185 1128.5453 4825.7368 2826784
4434.9341 1086.2759 4644.9897 3813678
0 0 0 0
0 0 0 0
0 0 0 0
0 0 0 0
0 0 0 0
0 0 0 0
-3535.1677 942.3811 3930.1265 5525572
-3504.3049 940.34705 3921.6438 5591621
-3473.5239 938.30792 3913.1399 6052685
-3491.3923 949.47168 3959.6973 5920844
-3499.9319 958.23212 3996.2319 5591365
-3527.5256 972.36426 4055.1692 5393986
-3477.4805 965.14233 4025.0505 5854537
-3453.6355 965.14233 4025.0505 6709846
-3395.2559 955.42438 3984.5227 5328193
-3372.8682 955.76947 3985.9617 3814954
-3334.3911 951.52795 3968.2727 5591366
-3280.8425 942.89478 3932.2686 5130557
-3322.2212 961.61475 4010.3389 4735799
-3354.8745 978.06049 4078.9248 5196348
-3295.6333 967.76031 4035.9685 4406575
-3333.1008 985.91547 4111.6831 4274988
-3336.5486 994.20099 4146.2373 5261881
-3288.4148 987.12549 4116.7295 4801330
-3218.5952 973.38593 4059.4297 5064503
-3184.9441 970.46021 4047.228 4998710
-3208.1428 984.9436 4107.6304 4143402
-3192.9468 987.77087 4119.4209 5130298
-3148.6467 981.56836 4093.5542 4866869
-3157.9514 992.11035 4137.5186 3683622
-3135.7227 992.83319 4140.5332 3749414
-3151.012 1005.54 4193.5259 4604723
-3170.6355 1019.843 4253.1753 5657155
-3114.2476 1009.7299 4210.9995 4209709
-3059.5271 999.99835 4170.415 4736566
-3075.6802 1013.462 4226.564 4407861
-3018.5713 1002.808 4182.1323 4341298
-2994.1135 1002.9146 4182.5767 3354403
-2997.5823 1012.4554 4222.3657 2564887
-3003.946 1023.1426 4266.936 3552295
-2981.9094 1024.2561 4271.5801 2696987
-2915.3635 1009.9693 4211.998 3947054
-2969.4487 1037.5868 4327.1748 4012847
-2957.0095 1042.2379 4346.5718 4473398
-2894.1589 1029.0464 4291.5576 3683883
-2774.7102 995.31891 4150.8994 4144432
-2796.2747 1012.0234 4220.564 4341812
-2790.2229 1018.9442 4249.4272 3420710
-2743.8286 1011.1246 4216.8159 3289124
-2729.2942 1015.0097 4233.0186 3683628
-2744.5105 1030.1337 4296.0918 3091491
-2739.4556 1037.8608 4328.3174 1644047
-2663.6394 1018.6724 4248.2935 131072
-2633.5178 1016.7599 4240.3174 196608
-2606.6758 1016.0889 4237.519 920326
-2538.9236 999.30286 4167.5142 4143922
-2515.8989 999.96448 4170.2734 5065279
-2497.6323 1002.549 4181.0522 5723722
-2482.4666 1006.4426 4197.29 5723465
-2476.7683 1014.2922 4230.0259 6118480
-2426.592 1003.9011 4186.6909 5921101
-2416.3757 1009.998 4212.1177 5855051
-2386.4404 1007.894 4203.3433 4670264
-2387.9966 1019.186 4250.4355 2301716
-2373.3474 1023.7287 4269.3804 3024668
-2329.7888 1015.7651 4236.1685 4406065
-2296.4202 1012.119 4220.9629 4077100
-2358.8875 1051.0961 4383.5142 4143664
-2326.2388 1048.0865 4370.9629 4209457
-2306.123 1050.7195 4381.9434 2762268
-2301.9944 1060.7794 4423.8975 3880748
-2249.1702 1048.3733 4372.1587 3486247
-2120.0085 999.68146 4169.0933 5328450
-2123.9143 1013.3288 4226.0083 5855051
-2126.9487 1026.881 4282.5264 5131327
-2137.0613 1044.2189 4354.833 5328707
-2091.2793 1034.3353 4313.6147 5328707
-2059.8286 1031.3833 4301.3032 5197121
-2063.6731 1046.2513 4363.3091 4802363
-1993.6361 1023.5647 4268.6963 3289124
-2024.8479 1052.9456 4391.2271 4604730
-1971.1906 1038.3839 4330.499 5065281
-1978.6484 1056.057 4404.2031 5394248
-1979.7856 1070.7839 4465.6206 3946546
-1922.4596 1053.8612 4395.0454 2499612
-1853.9005 1030.2313 4296.499 3815213
-1869.3099 1053.2554 4392.519 5657159
-1842.2125 1052.641 4389.957 4670007
-1834.8969 1063.4744 4435.1362 2762524
-1817.7819 1068.8602 4457.5977 4802365
-1796.5751 1071.9636 4470.54 4144179
-1760.7686 1066.3181 4446.9961 6381142
-1733.4358 1065.7108 4444.4634 5526603
-1689.6066 1054.7864 4398.9038 5263433
-1668.5165 1057.9376 4412.0464 3684402
-1637.3062 1054.6703 4398.4199 5526093
-1606.4565 1051.5333 4385.3374 5131592
-1586.318 1055.4198 4401.5454 3420974
-1551.2583 1049.3424 4376.2007 3421228
-1471.504 1012.3114 4221.7656 5723985
-1490.0845 1042.8182 4348.9917 6381913
-1470.7728 1047.4136 4368.1562 7105636
-1440.0049 1043.8689 4353.373 4539707
-1422.0105 1049.6232 4377.3711 5525833
-1406.2017 1057.2345 4409.1138 5657672
-1367.3616 1047.4906 4368.4775 4144432
-1342.9396 1048.6289 4373.2251 5788747
-1316.3604 1048.0945 4370.9961 3552300
-1316.1198 1068.9304 4457.8906 3684144
-1276.6136 1058.0758 4412.6221 4868676
-1246.3744 1054.6084 4398.1616 5592400
-1239.4156 1071.1122 4466.9893 6052694
-1208.2354 1066.9469 4449.6182 3947319
-1194.0431 1077.9319 4495.4302 3223596
-1168.5443 1078.9783 4499.7939 4276026
-1128.5636 1066.3893 4447.293 5460813
-1100.9116 1065.1265 4442.0264 5526863
-1069.2961 1059.8733 4420.1187 3421485
-1037.4287 1054.1002 4396.0425 4276537
-1001.0264 1043.3036 4351.0161 4934212
-969.09021 1036.714 4323.5347 3618351
-922.14185 1013.2709 4225.7666 3091492
-925.31927 1045.1357 4358.6567 3946800
-900.06305 1045.7928 4361.397 5328453
-882.71533 1055.9492 4403.7534 4143924
-852.41565 1050.7584 4382.106 5196612
-825.47705 1049.5151 4376.9204 6644058
-798.2605 1047.826 4369.8765 5131075
-772.20801 1047.6031 4368.9468 4275765
-742.77954 1042.6259 4348.1895 4538939
-738.18018 1073.3954 4476.5112 4276025
-699.25476 1054.684 4398.4771 5789521
-682.4071 1069.113 4458.6519 4407868
-652.71106 1063.7642 4436.3452 5000007
-630.49487 1070.6683 4465.1382 4013112
-611.19379 1083.3442 4518.002 4671042
-577.76715 1070.9969 4466.5088 6973797
-557.70581 1083.4285 4518.3535 6447454
-538.25592 1098.3612 4580.6294 4210490
-502.28445 1079.3759 4501.4526 5328971
-468.78137 1063.8634 4436.7588 4144697
-440.91782 1060.0665 4420.9243 5197386
-416.56622 1064.7671 4440.5278 5789780
-393.54898 1073.7419 4477.9565 5460560
-367.33438 1074.6599 4481.7852 5592146
-341.95233 1078.3467 4497.1602 7894392
-320.45523 1095.9426 4570.543 3420977
-285.69592 1067.2444 4450.8589 4604996
-260.18549 1070.7732 4465.5757 4802376
-237.46423 1087.8787 4536.9126 6118490
-209.84875 1084.0674 4521.0181 4737094
-185.84549 1100.5315 4589.6802 2105117
-158.84451 1101.8447 4595.1572 2038809
-130.91641 1095.9399 4570.5317 2105116
-102.94794 1086.5298 4531.2876 3684146
-76.503418 1092.2385 4555.0952 3223595
-49.759281 1097.5604 4577.29 6184279
-22.780495 1104.2554 4605.2104 3683888
4.4631181 1094.7635 4565.6255 4605249
31.256592 1085.9277 4528.7764 4868421
58.124283 1086.6417 4531.7544 3618097
85.769119 1096.843 4574.2979 5394509
112.23151 1090.6549 4548.4907 4211004
140.50821 1101.0804 4591.9697 4670785
167.98079 1102.8446 4599.3271 3552563
194.07266 1096.3168 4572.103 3618356
222.703 1103.9714 4604.0264 4407871
247.65628 1093.7168 4561.2603 5855318
273.17529 1087.7324 4536.3027 4341822
303.74948 1101.1459 4592.2427 3618099
331.11069 1101.6641 4594.4033 1907737
359.87732 1106.4244 4614.2563 1841431
383.24887 1095.0967 4567.0146 1578258
407.16513 1086.7166 4532.0664 2169882
434.64697 1088.3011 4538.6748 2104092
456.3414 1076.0544 4487.6006 1775387
470.73303 1048.884 4374.2886 4
490.78754 1036.5085 4322.6777 10
512.79419 1029.2788 4292.5269 11
533.68604 1020.6005 4256.3345 12
557.00702 1017.1409 4241.9067 14
580.58038 1014.4212 4230.564 14
604.21771 1012.0335 4220.6064 14
626.06958 1006.964 4199.4644 14
648.57178 1003.2878 4184.1333 13
672.00299 1001.2666 4175.7041 8
670.14825 963.05127 4016.3298 7105132
719.29718 998.23926 4163.0786 4736838
745.89185 1000.8311 4173.8877 6906981
774.79034 1006.2487 4196.4814 197380
791.31702 995.76135 4152.7446 65545
833.19598 1016.8466 4240.6792 14277080
871.03387 1031.9103 4303.501 13685201
893.81226 1028.7834 4290.4609 13619664
917.97449 1027.3784 4284.6011 13619667
939.5401 1023.2211 4267.2632 13684947
963.53467 1021.8577 4261.5771 13685456
986.54364 1019.5452 4251.9331 13619664
1009.9782 1017.7767 4244.5581 13619405
1037.4332 1020.0474 4254.0278 5658983
1080.0908 1036.8036 4323.9082 10
1110.3796 1041.1853 4342.1821 5394773
1170.9171 1073.0903 4475.2388 4539459
1221.6118 1094.7616 4565.6172 2433312
1249.0052 1095.0646 4566.8813 2564641
1275.5435 1094.621 4565.0308 591108
1297.8706 1090.6569 4548.499 2367773
1337.4974 1101.0961 4592.0352 3157032
1347.3143 1087.0673 4533.5288 3552046
1365.0587 1079.858 4503.4634 2433308
1384.8635 1074.5239 4481.2178 3485738
1434.1371 1091.8253 4553.3721 2762015
1473.2961 1100.9298 4591.3413 3551531
1474.3064 1081.714 4511.2036 3091237
1481.1067 1067.3551 4451.3208 3748910
1488.2351 1053.7308 4394.502 2827807
1518.3358 1056.5608 4406.3037 2893345
1548.1992 1059.1326 4417.0293 2564379
1578.0867 1061.635 4427.4658 2827808
1603.7921 1061.2883 4426.02 2761501
1620.7024 1055.2264 4400.7393 2762013
1633.6823 1046.8379 4365.7554 2235154
1655.4154 1044.2323 4354.8892 5787976
1705.9402 1059.5897 4418.936 4340530
1726.2438 1055.9956 4403.9473 4143151
1777.547 1071.1898 4467.313 3879723
1807.4252 1073.2163 4475.7642 3353636
1842.8098 1078.4065 4497.4097 2629912
1869.0856 1078.1942 4496.5244 2037776
1874.7649 1066.2737 4446.811 1314312
1883.5861 1056.4458 4405.8242 1708812
1880.984 1040.5671 4339.6035 1906190
1923.46 1049.7177 4377.7651 2169362
1976.3794 1064.2484 4438.3647 2169361
1995.4279 1060.3981 4422.3071 3287585
2010.9601 1054.8032 4398.9741 2498068
2047.1539 1060.0505 4420.8574 2432276
2048.2424 1047.2166 4367.3345 1380102
2083.1382 1051.7721 4386.333 2168592
2114.075 1054.2411 4396.6299 1643536
2145.8047 1057.0406 4408.3052 1708297
2179.1438 1060.5562 4422.9663 2168336
2205.917 1060.8304 4424.1104 2365715
2221.0225 1055.5532 4402.1021 4076845
2276.4033 1069.3175 4459.5049 4142639
2328.4258 1081.2064 4509.0869 4603191
2378.9111 1092.12 4554.6011 4274226
2377.3491 1079.1627 4500.5635 4077104
2337.9351 1049.501 4376.8613 3156002
2380.7534 1056.9991 4408.1323 3287845
2408.9182 1057.8994 4411.8867 3551017
2431.3579 1056.2931 4405.1875 3682603
2483.8682 1067.6462 4452.5352 3156259
2463.5693 1047.7941 4369.7427 3287845
2495.2788 1050.2445 4379.9624 1642764
2513.9878 1047.2291 4367.3867 2366230
2576.9121 1062.5059 4431.0972 2300434
2679.1658 1093.527 4560.4688 3222306
2685.7578 1085.2736 4526.0483 4800828
2706.6792 1082.9163 4516.2173 4998979
2744.4036 1087.262 4534.3408 4143671
2778.5276 1090.111 4546.2222 3946291
2825.6731 1097.9648 4578.9766 3353897
2769.3252 1065.8378 4444.9927 2893347
2860.9595 1090.7336 4548.8193 3813935
2871.5178 1084.5433 4523.0029 4143157
2957.6125 1106.733 4615.5435 4077107
2982.2808 1105.7411 4611.4067 2300440
2982.6221 1095.8293 4570.0708 1708304
3023.0664 1100.6974 4590.3726 2102805
3076.052 1110.0043 4629.186 525057
3092.0408 1105.9142 4612.1284 985348
3147.3203 1115.8256 4653.4634 2893085
3147.762 1106.292 4613.7041 2300947
3200.5422 1115.1584 4650.6812 3222050
3243.9834 1120.6477 4673.5732 4143152
3228.7134 1105.9333 4612.2085 3617324
3231.8169 1097.7068 4577.9004 3288361
3261.6816 1098.6312 4581.7554 3814705
3298.8684 1101.9862 4595.7471 4406586
3314.6948 1098.2094 4579.9961 4537401
3361.2253 1104.5837 4606.5801 1379593
3346.1667 1090.7789 4549.0078 2102803
3365.571 1088.3391 4538.833 1773580
3373.1511 1082.1445 4512.999 1642249
3360.2271 1069.5212 4460.3545 3944746
3377.1484 1066.5203 4447.8389 3616298
3415.5415 1070.2939 4463.5771 3682095
3373.1404 1048.8867 4374.2998 393987
3287.2283 1014.3792 4230.3887 131080
3266.6836 1000.4122 4172.1406 131084
3279.658 996.84314 4157.2563 65548
3296.5527 994.50995 4147.5259 12
3282.4839 982.93927 4099.2715 12
3315.9431 985.66638 4110.6445 12
3280.271 967.95416 4036.7771 11
3319.2822 972.37659 4055.2205 11
3337.1714 970.59235 4047.7795 11
3349.0398 967.09497 4033.1936 11
3355.0549 961.96881 4011.8154 11
3367.4067 958.71881 3998.262 11
3390.2495 958.48029 3997.2668 11
3429.22 962.77283 4015.1689 12
3436.1394 958.06995 3995.5557 11
3462.4258 958.79437 3998.5767 12
3478.3647 956.66296 3989.688 13
3498.3142 955.65588 3985.488 12
3490.6094 947.15851 3950.0503 65540
3553.5261 957.80957 3994.4697 1644061
3753.0125 1004.8868 4190.8018 2762282
3913.1228 1040.8713 4340.8726 3287853
4055.1069 1071.5962 4469.0078 3747886
4113.8877 1080.0778 4504.3799 4076594
4102.395 1070.1191 4462.8477 4142385
4185.584 1084.8275 4524.1885 4340020
4225.3042 1088.1544 4538.063 4142641
4250.6118 1087.7509 4536.3799 3550504
4221.2002 1073.4375 4476.687 4274227
4262.7202 1077.2279 4492.4946 3155746
4304.8574 1081.1263 4508.7524 2827294
0 0 0 0
0 0 0 0
0 0 0 0
0 0 0 0
0 0 0 0
0 0 0 0
-3293.2981 899.59515 3661.2346 6315859
-3359.8208 923.85095 3759.9529 6974045
-3318.9619 918.70679 3739.0166 6973531
-3313.3538 923.31665 3757.7783 5197120
-3316.2249 930.36768 3786.4751 5921100
-3289.0459 929.02686 3781.0181 6052429
-3355.1675 954.20197 3883.4775 4275504
-3340.489 956.58691 3893.1838 5591365
-3314.4387 955.72583 3889.6792 5591365
-3270.157 949.55878 3864.5803 6775641
-3227.9275 943.90509 3841.5703 6249295
-3266.0693 961.83978 3914.5623 5920330
-3258.812 966.56567 3933.7959 6183759
-3279.3489 979.66272 3987.0991 6512211
-3242.2168 975.59692 3970.5522 6380881
-3208.7227 972.57458 3958.2515 4209453
-3292.7983 1005.4058 4091.8701 5196092
-3170.2156 975.15607 3968.7576 5327933
-3146.7039 975.15607 3968.7576 5393727
-3117.8542 973.48938 3961.9746 5854532
-3107.9739 977.76514 3979.3765 2696985
-3111.083 986.224 4013.8027 5262652
-3052.6594 975.15692 3968.761 5591105
-3093.1494 995.76062 4052.6157 3617829
-3116.0789 1010.9894 4114.5947 4012585
-3081.6399 1007.6987 4101.2021 4670518
-3095.241 1020.1896 4152.0386 5394754
-3028.3572 1006.1406 4094.8608 4671286
-2993.2954 1002.5224 4080.1353 3683881
-2950.5413 996.24805 4054.5994 4868155
-2890.1943 983.88171 4004.27 5197119
-2948.5215 1012.0442 4118.8877 2828571
-2880.7583 997.03656 4057.8083 3749673
-2858.9702 997.82227 4061.0061 3420708
-2886.355 1015.929 4134.6982 3815468
-2892.0347 1026.6407 4178.2935 3552296
-2846.4985 1019.1993 4148.0078 3354660
-2822.4849 1019.4015 4148.8311 3288870
-2829.8193 1031.0289 4196.1528 4078385
-2769.5034 1017.9958 4143.1099 3881006
-2732.4158 1013.3442 4124.1782 2696986
-2669.4602 998.92859 4065.509 3223588
-2661.9485 1005.187 4090.9795 3354916
-2586.1641 985.5426 4011.0298 5591878
-2632.8564 1012.6407 4121.3154 5131328
-2677.7346 1039.5416 4230.7988 6710615
-2619.7512 1026.6412 4178.2954 5197637
-2595.3726 1026.7893 4178.8984 1381648
-2540.0767 1014.5909 4129.2524 1710612
-2472.8586 997.34698 4059.072 3552044
-2422.3748 986.57971 4015.2505 3617835
-2487.5955 1023.1902 4164.2505 5920589
-2444.2354 1015.4257 4132.6499 5986638
-2424.6987 1017.5012 4141.0972 6513495
-2379.2793 1008.6467 4105.0605 5262914
-2388.5691 1023.0417 4163.6465 5591879
-2310.9751 1000.136 4070.4229 4736057
-2333.7993 1020.664 4153.9692 4407092
-2301.2329 1017.1469 4139.6548 4472885
-2298.1521 1026.7269 4178.6445 2564888
-2267.5198 1024.0728 4167.8423 3420197
-2259.9446 1031.8879 4199.6489 4538935
-2234.5342 1031.6428 4198.6514 5986638
-2207.9695 1030.8533 4195.4385 5460808
-2178.4473 1028.6494 4186.4688 5592651
-2122.0122 1013.5403 4124.9766 7434598
-2051.2493 991.15588 4033.875 6908254
-2040.6099 997.63776 4060.2554 3684396
-2061.7468 1019.9947 4151.2451 5328707
-2035.2249 1019.0287 4147.314 3157538
-2015.6041 1021.5369 4157.522 4143919
-2027.7517 1040.4071 4234.3208 4209715
-2020.6097 1049.7286 4272.2583 3946797
-1962.2668 1032.35 4201.5293 3091744
-1924.8748 1025.6886 4174.4185 3618345
-1919.0319 1035.8838 4215.9116 4144945
-1901.7501 1040.0919 4233.0381 5723722
-1910.1583 1058.6503 4308.5684 6513496
-1869.1396 1049.9471 4273.1475 5789776
-1864.6694 1061.817 4321.4565 1973781
-1828.4463 1055.6842 4296.4971 2105367
-1828.257 1070.4769 4356.7012 5790032
-1778.9863 1056.5436 4299.9941 4934722
-1767.4977 1064.9703 4334.29 3881008
-1738.3396 1062.8422 4325.6284 4473146
-1691.6686 1049.7823 4272.4771 3552044
-1672.1511 1053.4324 4287.332 3025700
-1621.7001 1037.4065 4222.1089 5394507
-1639.7583 1065.3907 4336.001 4671041
-1595.6855 1053.2552 4286.6113 4473662
-1533.5638 1028.6211 4186.3535 4408123
-1512.2633 1031.0076 4196.0659 5723472
-1492.7335 1034.7012 4211.0986 5724239
-1462.7401 1031.1442 4196.6221 4868931
-1439.8298 1032.5436 4202.3174 4473917
-1416.8429 1033.9363 4207.9858 3815988
-1390.979 1033.2419 4205.1597 4802882
-1373.7032 1039.0178 4228.667 6513498
-1342.874 1034.5668 4210.5518 4737086
-1330.895 1044.7444 4251.9731 4605244
-1343.6689 1075.1205 4375.6001 3355433
-1301.7666 1062.0825 4322.5371 4013365
-1247.4294 1038.1724 4225.2261 2894628
-1229.7286 1044.3982 4250.564 6908003
-1180.2893 1023.3653 4164.9629 5789522
-1163.1049 1029.9978 4191.9565 6250073
-1129.1752 1021.7674 4158.46 6315866
-1174.9233 1086.8768 4423.4468 5263178
-1134.5579 1073.4791 4368.9199 5263948
-1112.5664 1077.2468 4384.2534 4868421
-1080.938 1071.6403 4361.4355 6447452
-1032.9929 1049.1866 4270.0527 4539452
-1020.7536 1062.7817 4325.3828 4342329
-985.72943 1052.743 4284.5269 4145208
-937.75403 1027.9764 4183.73 4079414
-915.17853 1030.4647 4193.8569 3289642
-895.51685 1036.4644 4218.2744 4737089
-882.5116 1050.7336 4276.3486 4934469
-874.37915 1071.8195 4362.165 3552814
-840.79755 1062.0438 4322.3794 2631198
-805.22601 1049.0615 4269.5435 2170392
-785.76086 1056.9014 4301.4502 1710097
-763.90424 1061.9423 4321.9663 4473146
-739.79132 1064.0874 4330.6968 2828321
-700.09735 1043.1704 4245.5674 3749423
-690.72644 1067.5605 4344.832 6249814
-658.27368 1056.7836 4300.9712 4868419
-640.71832 1070.0179 4354.833 4144698
-619.36237 1077.7493 4386.2983 4868421
-582.909 1058.7363 4308.9185 5065800
-559.07471 1061.9515 4322.0039 6118488
-540.13666 1075.2222 4376.0137 5789523
-518.37701 1083.9309 4411.4575 6184281
-491.09836 1081.4114 4401.2031 5328972
-462.84949 1076.3531 4380.6167 4408127
-432.00906 1064.3093 4331.5996 5526351
-408.22357 1069.2225 4351.5962 5921879
-385.31033 1077.2371 4384.2139 5460817
-357.23907 1070.947 4358.6143 4999753
-334.33109 1080.3615 4396.9297 5197133
-309.59216 1084.9504 4415.6064 5460560
-280.28705 1072.9077 4366.5942 4868680
-253.62909 1069.5792 4353.0479 3618356
-230.51694 1082.1428 4404.1802 6381918
-206.08118 1090.907 4439.8486 3947577
-185.10951 1123.2557 4571.5044 3881528
-154.77306 1100.1276 4477.3755 4210493
-129.11972 1107.6046 4507.8062 5065800
-100.68044 1088.8513 4431.4824 3881526
-73.888786 1080.9727 4399.4175 4605249
-48.231167 1090.1383 4436.7207 3289646
-22.208794 1103.1405 4489.6377 2630944
4.3497305 1093.3113 4449.6338 4670528
30.585663 1088.8717 4431.5654 3618354
56.368858 1079.8601 4394.8896 4210491
82.980545 1087.4 4425.5757 3092010
109.18185 1087.2327 4424.8945 4210748
136.46477 1095.8154 4459.8257 3026217
163.98866 1103.2351 4490.0225 4210490
191.08775 1106.1245 4501.7822 3420976
216.87775 1101.6566 4483.5986 3092011
242.53282 1097.5532 4466.8979 1578773
273.28485 1115.0535 4538.1221 1381395
294.86407 1095.3445 4457.9087 394756
316.31464 1078.437 4389.0977 197125
341.94885 1077.2782 4384.3818 65542
365.54074 1070.3033 4355.9946 65544
387.28171 1059.1859 4310.7485 11
410.19431 1052.4503 4283.335 13
434.25262 1049.2677 4270.3828 13
458.24551 1046.2863 4258.2485 65549
483.55164 1046.4578 4258.9468 11
508.39313 1045.6567 4255.6865 11
529.79205 1038.1853 4225.2783 12
552.78693 1034.3744 4209.7686 13
575.87439 1031.0582 4196.272 13
599.71875 1029.3156 4189.1802 13
620.43292 1022.5526 4161.6553 13
643.73785 1020.4131 4152.9482 11
660.82745 1008.9418 4106.2612 1447450
690.23505 1016.4242 4136.7139 5986393
724.50854 1030.3134 4193.2407 5920599
753.26233 1035.6923 4215.1318 3288627
772.3139 1027.814 4183.0684 11
798.3042 1029.3727 4189.4126 65553
824.4906 1031.0826 4196.3716 4210765
865.99701 1051.2906 4278.6152 13619666
887.60736 1046.8828 4260.6763 13685203
911.95538 1045.8584 4256.5073 13685203
932.83356 1041.017 4236.8032 13684947
956.67487 1039.6494 4231.2373 13685457
981.03815 1038.9043 4228.2051 13685454
1002.7151 1035.4225 4214.0342 13619665
995.77142 1003.2736 4083.1921 13686232
1042.0133 1024.9647 4171.4727 11
1091.8839 1049.1377 4269.8535 2894639
1151.5017 1081.3696 4401.0332 3684152
1176.5758 1080.4526 4397.3008 4013114
1216.4418 1092.8645 4447.8159 4341308
1254.8533 1103.4709 4490.9829 4671041
1265.1852 1089.4576 4433.9502 4276026
1287.6404 1086.2415 4420.8608 4341820
1311.0551 1083.9467 4411.5215 4539199
1338.7539 1085.2146 4416.6816 4144440
1367.0587 1086.9155 4423.604 3025701
1391.9744 1085.9086 4419.5059 2236186
1405.8673 1076.4984 4381.208 1051656
1418.8342 1066.7333 4341.4653 1643535
1448.8262 1069.8881 4354.3047 1972500
1461.4863 1060.3577 4315.5171 1906449
1500.9291 1070.2526 4355.7881 3551016
1529.9865 1072.5327 4365.0679 2958879
1550.7739 1069.0361 4350.8374 3945775
1561.1213 1058.5747 4308.2607 4143668
1598.5751 1066.5345 4340.6562 3485737
1613.8672 1059.6907 4312.8027 5130306
1622.7859 1048.9406 4269.0508 4735291
1666.9246 1060.9365 4317.873 4866876
1696.4044 1063.381 4327.8218 4603704
1733.1566 1070.2437 4355.7515 3222051
1751.4872 1065.696 4337.2437 3616811
1754.4305 1052.053 4281.7183 2762017
1802.8268 1065.6666 4337.1235 2827811
1806.2429 1052.6829 4284.2817 2433053
1844.0267 1059.811 4313.2925 3881011
1875.3221 1063.0663 4326.541 4472632
1897.0656 1060.892 4317.6919 3157030
1934.5146 1067.4418 4344.3486 1906961
1956.5118 1065.4054 4336.0605 3485480
1966.188 1056.7993 4301.0352 1512204
1982.7163 1052.0493 4281.7031 2169364
2032.5585 1064.8727 4333.8926 1380106
2057.9265 1064.714 4333.2466 2827550
2061.4575 1053.4003 4287.2017 3419689
2088.2959 1054.1273 4290.1602 1248267
2104.7441 1049.6549 4271.9585 984579
2114.5063 1041.9941 4240.7803 1313287
2179.8972 1061.6044 4320.5913 1576713
2202.6255 1060.224 4314.9731 2366228
2234.7507 1063.3466 4327.6812 2300435
2187.3708 1028.9969 4187.8828 3287330
2254.0066 1048.4521 4267.0635 3221536
2305.2715 1060.4055 4315.7119 3287332
2361.9448 1074.557 4373.3066 3090209
2365.103 1064.3192 4331.6401 2892572
2413.6733 1074.5177 4373.1465 2037263
2411.3101 1062.0658 4322.4688 2629400
2389.6443 1041.463 4238.6187 2168849
2414.3579 1041.2919 4237.9219 1905677
2458.9458 1049.6075 4271.7656 2037263
2496.1958 1054.6536 4292.3022 2168592
2536.1704 1060.7373 4317.0625 1839884
2592.2358 1073.3624 4368.4448 2958878
2639.7468 1082.2307 4404.5376 3814189
2658.519 1079.2585 4392.4414 4012083
2688.4136 1080.8154 4398.7778 3485740
2713.6467 1080.4865 4397.439 3024932
2688.0161 1060.1041 4314.4854 3222055
2735.9172 1068.832 4350.0068 4274997
2824.3196 1093.0719 4448.6597 4143411
2942.9089 1128.4386 4592.5977 4735292
2904.7561 1103.6062 4491.5327 4537659
2908.4451 1094.9773 4456.4146 3419434
2939.467 1096.7014 4463.4312 2564382
2978.4771 1101.3485 4482.3442 3156005
3007.9666 1102.4243 4486.7227 2761502
3023.6504 1098.4656 4470.6113 2366743
3040.1804 1094.8805 4456.0205 3353638
3096.2458 1105.4727 4499.1294 3156261
3188.0676 1128.5414 4593.0161 3090468
3178.0608 1115.4785 4539.8516 1775123
3146.6062 1095.1699 4457.1987 2038551
3213.6958 1109.2122 4514.3486 5657679
3237.1997 1108.1031 4509.835 5196359
3302.4709 1121.1923 4563.106 6644062
3308.8337 1114.2317 4534.7773 3946290
3283.8652 1096.9176 4464.3115 2630687
3326.4153 1102.2534 4486.0273 3814191
3341.2336 1098.3881 4470.2959 3748139
3340.769 1089.599 4434.5259 2300435
3356.103 1086.0597 4420.1211 2563608
3338.1133 1071.8749 4362.3906 3419178
3334.8762 1062.6088 4324.6787 591109
3262.2537 1031.5437 4198.248 196612
3248.1055 1019.2988 4148.4131 131082
3258.6182 1014.9187 4130.5864 65547
3285.0874 1015.5365 4133.1011 11
3279.4832 1006.3037 4095.5244 12
3279.5181 998.92389 4065.4897 11
3261.6917 986.25092 4013.9126 11
3273.7778 982.74084 3999.627 11
3315.9631 988.25165 4022.0549 11
3332.9878 986.23865 4013.8623 11
3345.4329 982.90863 4000.3098 11
3364.2312 981.47894 3994.4912 11
3131.0986 907.08459 3691.7156 11
3387.9438 974.68488 3966.8401 11
3425.9646 978.8335 3983.7244 12
3442.1665 976.73413 3975.1802 11
3460.2756 975.20074 3968.9397 13
3472.7087 972.09924 3956.3169 11
3505.5156 974.70422 3966.9189 1908265
3556.4255 982.27448 3997.7288 2236969
3653.0852 1002.2971 4079.218 3026226
3814.3 1039.6519 4231.2476 2630694
3890.9714 1053.6257 4288.1191 3353642
4001.5649 1076.5444 4381.395 4076851
4030.1355 1077.2433 4384.2393 3550504
4069.3428 1080.7579 4398.5439 4142641
4069.8608 1074.0181 4371.1133 4405813
4142.1104 1086.1735 4420.584 3747883
4145.2886 1080.1774 4396.1807 3945260
4193.5767 1085.9376 4419.624 3550758
4207.8628 1082.8759 4407.1636 3090209
0 0 0 0
0 0 0 0
0 0 0 0
0 0 0 0
0 0 0 0
0 0 0 0
-3354.1606 938.3111 3728.8967 6052429
-3344.5767 941.83313 3742.8933 6052429
-3259.6038 924.0307 3672.1458 7105117
-3264.7722 931.71417 3702.6802 5854793
-3267.2185 938.71948 3730.5195 6051916
-3280.2212 948.87378 3770.8733 3946540
-3310.2026 964.11249 3831.4326 4735542
-3227.2756 946.4494 3761.2388 4998714
-3216.9873 949.99133 3775.3147 5722694
-3213.6531 955.65082 3797.8057 6380881
-3191.2256 955.67218 3797.8909 6710102
-3144.8792 948.48016 3769.3093 5393730
-3147.5232 956.06616 3799.4563 5525828
-3142.8484 961.52228 3821.1392 6117193
-3166.0312 975.64221 3877.2527 7499102
-3139.8003 974.62988 3873.2295 5591106
-3090.2676 966.31628 3840.1907 5788996
-3094.7244 974.8869 3874.2507 5197115
-3017.521 957.66907 3805.8264 6183754
-3058.7832 978.07251 3886.9106 6315340
-2982.6919 960.97595 3818.9683 6381133
-2998.8721 973.57373 3869.0325 6249547
-3027.6157 990.47571 3936.2017 3552034
-3015.1926 994.06793 3950.4775 5000249
-2984.8711 991.76935 3941.3425 5592130
-2896.3853 969.95618 3854.656 6382161
-2885.9666 974.14752 3871.3127 5395266
-2942.6548 1001.2392 3978.9763 6447700
-2873.2842 985.53052 3916.5491 7105886
-2877.2024 994.90857 3953.8181 6118477
-2849.0591 993.263 3947.2786 6315856
-2844.7244 999.95929 3973.8901 5262911
-2836.8625 1005.5172 3995.9773 3683880
-2841.0874 1015.4888 4035.6047 3223074
-2792.2686 1006.5092 3999.9197 2893852
-2829.4263 1028.6326 4087.8391 3419940
-2785.8982 1021.5518 4059.6992 2038287
-2765.0798 1022.7472 4064.4502 2368279
-2734.8989 1020.4702 4055.4014 4342067
-2685.0042 1010.7319 4016.7012 4012589
-2661.8452 1010.9738 4017.6624 4736569
-2640.708 1011.9949 4021.7202 5986636
-2590.3499 1001.7344 3980.9441 6118222
-2522.3562 984.40247 3912.0664 5789255
-2489.7427 980.68524 3897.2937 6447186
-2470.7256 982.30383 3903.7263 6381395
-2388.9763 958.77661 3810.2275 6512726
-2382.2192 965.18439 3835.6926 5328708
-2421.7568 990.65326 3936.9072 5526086
-2431.7754 1004.4248 3991.636 5591878
-2393.5454 998.34247 3967.4644 6184015
-2357.3008 992.97565 3946.1365 5657671
-2315.6577 985.20459 3915.2539 4999741
-2308.9919 992.30811 3943.4836 4867642
-2309.6506 1002.7368 3984.9277 4801849
-2365.9778 1037.799 4124.2666 4933436
-2335.1912 1034.9829 4113.0757 5722695
-2275.6763 1019.2405 4050.5146 4604984
-2267.4419 1026.3754 4078.8687 5263171
-2249.7778 1029.3494 4090.6875 3288868
-2221.988 1027.7048 4084.1521 4078386
-2197.8455 1027.7295 4084.2502 5394246
-2175.2927 1028.5065 4087.3379 4670523
-2180.4072 1042.5295 4143.0664 4736316
-2145.2107 1037.3785 4122.5957 6052431
-2099.6006 1027.015 4081.4106 5460293
-2043.0334 1010.9879 4017.7183 6052429
-2034.8379 1018.8016 4048.7703 5723464
-2030.3147 1028.6625 4087.9578 5197120
-2010.6344 1030.9893 4097.2046 4670263
-1960.6575 1017.6479 4044.1855 4801849
-1966.1512 1033.1239 4105.6875 4077869
-1944.715 1034.6597 4111.791 5920843
-1922.697 1035.9211 4116.8042 5394500
-1921.1061 1048.3621 4166.2451 6710877
-1893.005 1046.4719 4158.7334 3421228
-1888.9388 1057.9938 4204.522 4934466
-1871.9811 1062.5065 4222.4556 6052948
-1846.6991 1062.3527 4221.8447 6382171
-1806.5769 1053.5404 4186.8242 4145208
-1799.4247 1063.9775 4228.3018 7303015
-1761.324 1056.1515 4197.2007 2697502
-1750.3839 1064.6211 4230.8594 4736826
-1721.0712 1061.9998 4220.4419 4867900
-1732.4639 1084.7889 4311.0073 5131074
-1669.5579 1061.0416 4216.6343 4012594
-1628.9917 1050.9861 4176.6729 4604732
-1593.6398 1044.0363 4149.0537 3354921
-1571.1064 1045.3981 4154.4658 1776656
-1544.7434 1044.2144 4149.7617 4934465
-1522.95 1046.1313 4157.3799 5197640
-1476.5527 1030.9329 4096.9805 5066309
-1457.4266 1034.5853 4111.4956 6645085
-1440.277 1039.7889 4132.1748 5000006
-1423.3042 1045.3024 4154.0854 1841941
-1385.7493 1035.6279 4115.6387 2499871
-1359.1067 1033.9081 4108.8042 5065537
-1341.8977 1039.433 4130.7603 5789772
-1313.5214 1036.3522 4118.5171 5987153
-1306.1528 1050.0433 4172.9263 6316119
-1203.8574 986.47681 3920.3096 6579290
-1248.5596 1043.2332 4145.8623 6381913
-1232.7966 1050.7319 4175.6626 4736317
-1179.8123 1026.1637 4078.0276 5854799
-1155.5931 1026.1105 4077.8159 6381142
-1138.9403 1032.9169 4104.8652 6579035
-1122.7759 1040.4729 4134.8931 5920848
-1110.7852 1052.3201 4181.9741 5855057
-1092.7759 1058.8759 4208.0273 3289642
-1098.16 1088.9346 4327.4824 4342074
-1060.8447 1077.0775 4280.3618 5460812
-1027.4305 1068.6978 4247.0601 5460300
-990.0271 1055.6433 4195.1812 4276282
-956.51605 1046.174 4157.5493 5789264
-894.34186 1004.0256 3990.0496 5197382
-899.71649 1037.4806 4123.0015 4999746
-881.6629 1045.0332 4153.0161 4408123
-857.54126 1045.6206 4155.3506 6184279
-842.72998 1057.9308 4204.2715 6513757
-811.96899 1050.3582 4174.1772 4079417
-800.71326 1068.3341 4245.6152 4605760
-766.81342 1056.2841 4197.7275 5131591
-746.79633 1063.1907 4225.1743 3617838
-713.15247 1050.5033 4174.7544 3354152
-682.67572 1041.7373 4139.918 2828065
-674.40112 1067.4602 4242.1421 3814704
-644.52753 1059.6636 4211.1577 3749425
-615.91461 1053.3951 4186.2471 5328972
-605.80316 1079.5714 4290.2725 6710881
-574.2193 1068.0997 4244.6831 6579038
-547.40802 1064.8611 4231.813 6842212
-530.34338 1081.1816 4296.6719 5592402
-509.66553 1091.4104 4337.3213 6447709
-481.36218 1085.5288 4313.9478 6184281
-451.758 1075.8898 4275.6416 3486768
-431.60681 1088.9557 4327.5664 4539711
-396.78821 1064.3287 4229.6973 6316636
-376.59653 1078.2609 4285.0645 5658450
-353.55084 1085.4451 4313.6147 6119001
-326.90338 1081.8291 4299.2451 5197646
-303.30276 1088.5372 4325.9033 7303021
-280.25418 1098.6475 4366.082 5592403
-247.25261 1067.8291 4243.6079 5855575
