# .PCD v0.7 - Point Cloud Data file format
VERSION 0.7
FIELDS x y z rgb
SIZE 4 4 4 4
TYPE F F F U
COUNT 1 1 1 1
WIDTH 1295
HEIGHT 1
VIEWPOINT 0 0 0 1 0 0 0
POINTS 1295
DATA ascii
-1445.271 951.74683 1836.5602 5459774
-1433.0137 950.83313 1834.7969 1710091
-1438.4176 961.7135 1855.7926 4604465
-1428.1718 962.21765 1856.7654 6052422
-1403.4141 952.87659 1838.7402 6184266
-1390.5353 951.51782 1836.1182 4209961
-1371.0096 945.55347 1824.6089 5526077
-1358.9202 944.66357 1822.8917 3552290
-1346.4252 943.47534 1820.5989 3091992
-1341.0228 947.27802 1827.9368 4933684
-1333.5264 949.65137 1832.5165 3025942
-1337.3375 960.18219 1852.8376 4078631
-1313.9912 951.22754 1835.558 3683358
-1297.5006 947.12781 1827.6469 3881506
-1306.2432 961.53339 1855.4449 6052932
-1305.6082 969.22192 1870.2812 6580049
-1305.1079 977.14307 1885.5665 2829338
-1303.7935 984.58606 1899.9291 2237200
-1284.0651 978.13196 1887.4747 3157536
-1265.0431 972.1073 1875.8491 1381127
-1260.7542 977.39752 1886.0576 1183749
-1243.1162 972.34125 1876.3005 1249283
-1242.9265 980.96442 1892.9404 1314564
-1213.5793 966.52277 1865.0729 328704
-1201.889 966.00751 1864.0785 722432
-1193.5143 968.17212 1868.2556 525312
-1182.2139 967.98181 1867.8883 1512453
-1179.1628 974.6062 1880.6711 2170381
-1160.256 968.12677 1868.168 3354655
-1147.2074 966.4577 1864.9473 3157277
-1145.3024 974.23547 1879.9558 3157275
-1122.5262 964.23773 1860.6633 3749413
-1104.9133 958.521 1849.632 1447176
-1087.817 953.14227 1839.2529 5723205
-1088.7611 963.62158 1859.4745 3157535
-1086.5055 971.45435 1874.5891 4144429
-1069.4724 966.09967 1864.2563 3091741
-1070.6836 977.28607 1885.8425 4604979
-1054.3032 972.48199 1876.5721 2170646
-1051.6035 980.3291 1891.7145 4934199
-1046.5157 986.09497 1902.8407 4933690
-1045.6727 996.0296 1922.0114 2828570
-1029.6693 991.58337 1913.4316 1973010
-1015.8077 989.12384 1908.6854 3748653
-996.8656 981.60596 1894.1785 5459266
-1002.483 998.37604 1926.5392 1906959
-985.36066 992.62476 1915.4412 3223076
-974.57214 993.1944 1916.5404 4670778
-954.25464 983.95203 1898.7056 6513494
-948.04626 989.21082 1908.8534 6250066
-948.39209 1001.5179 1932.6021 2171159
-920.09979 983.51404 1897.8604 6382164
-912.21021 987.14337 1904.8638 4803132
-888.34058 973.35419 1878.2552 5329476
-873.09247 968.78162 1869.4316 6183756
-860.82794 967.44464 1866.8517 5197117
-859.71564 978.76953 1888.7051 4210223
-849.24225 979.59515 1890.2982 6447441
-839.21136 980.96002 1892.932 9606270
-831.10608 984.64313 1900.0393 8553326
-825.15918 991.01978 1912.344 4211245
-824.8515 1004.4409 1938.2423 4736819
-813.961 1005.1721 1939.6533 7433819
-802.67499 1005.4288 1940.1486 3683365
-790.91028 1005.0846 1939.4846 3552032
-781.33936 1007.5593 1944.2598 4012584
-770.34705 1008.2476 1945.588 3749414
-749.84906 996.32654 1922.5844 7302747
-735.43829 992.25079 1914.7195 6908250
-740.7334 1015.0508 1958.7161 7697252
-727.05865 1012.1678 1953.1528 6907481
-703.25671 994.86523 1919.7644 5986893
-696.25146 1001.1458 1931.884 8619126
-682.51953 997.80225 1925.432 8290418
-676.13708 1005.2723 1939.8468 8619383
-663.53479 1003.5932 1936.6066 4474681
-652.39349 1004.1036 1937.5914 7369570
-641.38031 1004.8329 1938.9989 7172449
-635.00671 1012.9901 1954.7395 5527629
-622.34717 1011.2365 1951.3556 3750705
-613.26038 1015.3317 1959.2579 1908248
-599.16974 1011.1404 1951.1704 3948085
-586.5976 1009.3973 1947.8068 4277047
-575.80298 1010.7045 1950.3291 7369061
-568.69348 1018.6661 1965.6923 6645593
-552.8078 1010.9114 1950.7285 5658698
-539.67163 1007.9612 1945.0354 6514005
-523.77148 999.60718 1928.9149 6381648
-517.40778 1009.4865 1947.9788 6645078
-504.42703 1006.6119 1942.4319 7697765
-490.6048 1001.8847 1933.3098 6842455
-476.25687 995.83234 1921.6307 9474177
-468.69266 1004.0153 1937.4211 8026729
-461.35089 1013.0976 1954.947 4276529
-440.20319 991.55005 1913.3673 8223595
-433.62051 1002.538 1934.5704 9605504
-420.47079 998.52734 1926.8311 6842451
-414.58624 1012.0274 1952.8818 3092005
-402.47922 1010.6771 1950.2761 4802612
-389.15829 1006.1086 1941.4606 3157537
-376.633 1003.3816 1936.1982 3485985
-362.16095 995.13391 1920.2831 1248515
-346.60934 983.28882 1897.4258 327680
-333.95346 979.13983 1889.4196 2498323
-322.56516 978.5484 1888.2783 4603433
-309.80634 973.60742 1878.7439 4340519
-302.46503 985.95789 1902.5762 2959121
-290.34668 983.08978 1897.0417 7104593
-278.44254 980.7453 1892.5176 7170908
-266.29507 977.31097 1885.8906 6973529
-255.65089 979.33466 1889.7955 7828840
-245.33556 982.86108 1896.6003 6578773
-236.93394 994.76074 1919.5629 6315344
-227.57013 1003.6167 1936.652 7302496
-217.18974 1008.692 1946.4456 6973529
-206.40582 1012.3571 1953.5181 7697509
-194.80553 1012.2156 1953.245 7368546
-183.08189 1011.375 1951.623 6974301
-171.50304 1011.2748 1951.4296 6579288
-159.21703 1006.689 1942.5803 6381909
-149.05064 1015.8345 1960.2283 6973278
-137.54752 1016.6454 1961.793 6118482
-125.30243 1011.6158 1952.0875 8026477
-111.28144 989.76807 1909.9286 4078640
-99.721458 987.341 1905.2451 7040354
0 0 0 0
-78.607986 1006.0356 1941.3197 7039841
-67.207756 1007.5435 1944.2295 5131842
-55.165169 998.05365 1925.9171 7565929
-43.340084 988.57581 1907.6281 7697262
-32.03231 988.37366 1907.2378 9276806
-20.243999 965.04358 1862.2185 9013891
-9.3587723 980.4411 1891.9307 7961206
1.8090012 958.9967 1850.5499 10856097
13.327767 1000.7208 1931.064 10198166
25.036585 1011.5797 1952.0179 8290421
38.077133 1052.3835 2030.756 10066318
49.210007 1033.5278 1994.3707 7631980
60.929752 1031.913 1991.2544 6579548
72.810188 1033.1018 1993.5486 9605770
84.033142 1025.932 1979.713 6579291
93.331734 999.90186 1929.4835 7698029
101.87485 972.34131 1876.3007 8290165
116.66055 1003.9242 1937.2454 6447706
128.51811 1006.9084 1943.0039 6578778
139.18173 1000.8166 1931.2487 6644826
149.33177 992.23773 1914.6943 7565413
161.74698 998.85858 1927.4705 7566183
175.85728 1014.384 1957.4292 6841950
185.90894 1006.0255 1941.3002 8092273
196.67787 1002.2963 1934.1041 9671562
209.51212 1008.9234 1946.8921 8092531
222.90749 1017.42 1963.2878 8290166
236.87514 1027.5566 1982.848 5328711
247.44072 1022.6744 1973.4271 10000271
257.72955 1017.1405 1962.7485 8158582
273.32544 1032.1249 1991.6635 7697519
283.61966 1026.6775 1981.1517 8224118
296.68277 1031.2878 1990.0482 8092534
307.86157 1029.2461 1986.1084 6842212
316.76544 1020.0292 1968.3228 11710375
328.45404 1020.1157 1968.4895 6447448
345.76968 1037.0734 2001.2124 8092014
357.65039 1037.146 2001.3527 5394504
367.94501 1032.7622 1992.8932 6776160
372.83798 1013.9608 1956.6125 9013122
386.89554 1020.4654 1969.1643 6381659
396.05942 1014.0596 1956.8033 5986387
406.63992 1011.5421 1951.9453 7170661
418.9798 1013.4193 1955.5677 9802380
429.6091 1011.1693 1951.2261 5000263
443.94727 1017.5381 1963.5156 6579548
456.86392 1020.4068 1969.0513 5263175
473.41153 1031.0402 1989.5704 8552312
481.28418 1022.7231 1973.521 2630943
493.37692 1023.5552 1975.1268 2761757
502.85327 1019.0468 1966.427 4143921
510.60574 1011.328 1951.5322 4999232
521.82574 1010.6669 1950.2566 5262403
530.98981 1006.1389 1941.5188 7236193
543.49414 1007.9979 1945.1062 7564644
552.42694 1003.2933 1936.0278 7300960
562.88721 1001.4977 1932.5629 7761770
572.55896 998.39862 1926.5829 9209215
583.15063 996.99359 1923.8716 2827294
595.69989 998.92499 1927.5985 4208430
611.67389 1006.4188 1942.0591 4931896
619.20319 999.99774 1929.6686 5064509
624.87488 990.86407 1912.0435 6051920
636.29187 991.00354 1912.3127 6380884
648.01276 991.60327 1913.47 7828330
662.99115 997.08136 1924.0409 6974307
673.43372 995.66815 1921.3138 9211011
701.08069 1019.3156 1966.9458 4276026
708.98059 1013.9486 1956.5892 7237480
731.04834 1028.6906 1985.0363 6908004
741.39819 1026.738 1981.2686 5393478
749.52368 1021.8138 1971.7664 4867648
763.55804 1024.9727 1977.8619 5197382
776.99646 1027.248 1982.2527 8880764
789.1626 1027.7987 1983.3153 9012861
796.89728 1022.6464 1973.3732 7763051
810.82416 1025.4746 1978.8304 10065551
816.03088 1017.3506 1963.1539 9473415
822.0636 1010.4704 1949.8773 6841693
838.10742 1015.9158 1960.3851 6710878
850.37195 1016.6938 1961.8865 6974049
856.67554 1010.4201 1949.7803 7500395
878.32367 1022.1709 1972.4556 8355450
884.96814 1016.3817 1961.2842 9474186
889.75336 1008.6347 1946.335 8027253
887.49213 993.20026 1916.5515 7236968
907.24304 1002.4785 1934.4556 8618621
912.59985 995.81854 1921.6041 8092277
926.66534 998.7085 1927.1807 8092278
943.41815 1004.389 1938.1423 9671309
951.19617 1000.4932 1930.6245 7960948
961.75537 999.58032 1928.863 8553342
980.80981 1007.4146 1943.9807 9079686
978.59949 993.47906 1917.0896 9276552
975.74384 979.21552 1889.5658 7433835
997.56299 989.75732 1909.908 8815998
1003.3931 984.37677 1899.5251 7433830
1020.5174 990.07263 1910.5164 8289397
1028.3523 986.73016 1904.0664 7960177
1032.4586 979.92145 1890.9279 8487036
1044.0331 980.27087 1891.6022 8421243
1046.896 972.52032 1876.6461 8881795
1079.5325 992.30029 1914.8149 10329499
1091.1167 992.51886 1915.2368 7894903
1103.2842 993.2583 1916.6636 7960953
1127.381 1004.6127 1938.574 8487039
1146.6354 1011.4666 1951.7997 9539726
1164.38 1016.8652 1962.2172 6513503
1180.769 1020.9849 1970.1667 6381403
1192.1862 1020.7668 1969.7461 6775646
1202.1141 1019.2904 1966.8972 2236187
1209.5129 1015.7184 1960.0043 6446936
1227.0906 1020.681 1969.5806 5986385
1232.5469 1015.5626 1959.7036 5393992
1238.9685 1011.3277 1951.5317 5131330
1256.1719 1015.8907 1960.3367 4275765
1270.437 1018.0153 1964.4366 3749164
1273.8595 1011.4922 1951.8491 1315338
1277.207 1005.0273 1939.3739 3419948
1288.3499 1004.7572 1938.8527 6052180
1305.1691 1008.8795 1946.8074 3946802
1312.0406 1005.3075 1939.9147 5460810
1319.5188 1002.2584 1934.0308 7434341
1335.3788 1005.5735 1940.428 4604214
1346.6194 1005.3831 1940.0607 5524800
1363.7103 1009.5269 1948.0568 5919042
1353.0615 993.23828 1916.625 5919039
1349.9285 982.69196 1896.274 5195828
1379.7124 996.08411 1922.1166 5787965
1381.1135 988.93365 1908.3186 4867120
1397.855 992.79462 1915.7689 9077875
1406.9506 991.20673 1912.7048 6577489
1408.5096 984.3772 1899.5261 6249295
1421.1676 985.3512 1901.4055 7894378
1421.5973 977.89825 1887.0237 9209984
1445.7286 986.73828 1904.0822 5066050
1491.845 1010.3305 1949.6074 5525574
1484.1958 997.42816 1924.7101 3485990
1507.0674 1005.077 1939.4698 6315348
1524.585 1009.0665 1947.1683 7565419
1539.0217 1010.9725 1950.8461 6974567
1562.9277 1019.0237 1966.3826 5987672
1596.8313 1033.4261 1994.1743 6776677
1601.1399 1028.6045 1984.8702 4408129
1611.125 1027.4733 1982.6874 4013371
1622.8124 1027.4363 1982.6161 6316126
1631.7733 1025.686 1979.2385 8289916
1648.3713 1028.7269 1985.1066 9474190
1647.0776 1020.6379 1969.4973 6316126
1673.9906 1030.0184 1987.5986 6250846
1666.9227 1018.5052 1965.3818 7631729
1683.4374 1021.4609 1971.0854 4606019
1706.4412 1028.2863 1984.2562 4934470
1700.6886 1017.8083 1964.0372 6316383
1695.8318 1008.0054 1945.1208 5263438
1726.0618 1019.0497 1966.4326 6842469
1747.3567 1024.7061 1977.3474 3157806
1780.9194 1037.4332 2001.9069 8617851
1780.1973 1030.1525 1987.8574 6578526
1767.2242 1015.9247 1960.4025 4539456
1771.2511 1011.5916 1952.0409 4539712
1765.1425 1001.5638 1932.6906 4605249
1793.605 1011.1548 1951.1981 6512989
1801.3989 1009.0457 1947.1281 5131078
0 0 0 0
1738.516 961.50812 1855.3961 6117460
1723.1703 947.03339 1827.4646 5525321
1724.9966 942.11792 1817.9795 2499359
1735.7788 942.12451 1817.9922 9408134
0 0 0 0
0 0 0 0
0 0 0 0
0 0 0 0
0 0 0 0
0 0 0 0
0 0 0 0
0 0 0 0
0 0 0 0
0 0 0 0
0 0 0 0
0 0 0 0
-1614.5536 979.51703 1868.7839 2566682
-1600.2494 977.54205 1865.0159 3026202
-1572.823 967.4679 1845.7958 2631443
-1545.3383 957.21655 1826.2377 1578504
-1542.7489 962.35022 1836.032 2828569
-1525.3816 958.27283 1828.2529 3815208
-1502.4882 950.64075 1813.692 4275758
-1496.0505 953.38562 1818.9287 4538673
-1484.0786 952.6178 1817.4639 5131321
-1469.0903 949.88843 1812.2566 4539439
-1467.4674 955.82428 1823.5814 5789507
-1455.7587 955.23022 1822.4479 5460542
-1448.3728 957.48505 1826.7498 5460541
-1434.6078 955.52484 1823.01 2828822
-1429.0724 959.05792 1829.7506 3420701
-1422.9043 962.2171 1835.778 1052165
-1411.2203 961.6662 1834.7269 2827538
-1390.0775 954.61102 1821.2667 4077862
-1384.4867 958.20917 1828.1313 3354138
-1378.9226 961.88263 1835.1399 5854272
-1373.9298 966.01617 1843.0261 5262134
-1348.7317 955.89575 1823.7177 2498572
-1336.3977 954.80261 1821.6322 3420701
-1326.4224 955.39081 1822.7543 2302222
-1320.1547 958.68091 1829.0314 3486239
-1309.5529 958.85193 1829.3578 3025688
-1300.1024 959.8761 1831.3116 5393978
-1291.8617 961.81812 1835.0167 3749926
-1294.6222 972.05322 1854.5439 5328703
-1294.822 980.52441 1870.7059 3354659
-1275.8809 974.52197 1859.254 3092001
-1257.3724 968.74829 1848.2386 2565914
-1237.6509 961.93042 1835.231 2302742
-1215.2476 952.88873 1817.9808 2105620
-1224.9442 969.08051 1848.8724 1250311
-1217.0425 971.51636 1853.5198 789765
-1195.5974 963.08704 1837.4377 5263682
-1193.488 970.22125 1851.0488 394498
-1184.515 971.85657 1854.1687 526080
-1167.8317 967.13708 1845.1646 1578246
-1166.9243 975.51672 1861.1517 2894106
-1156.1699 975.74573 1861.5887 3881255
-1138.1951 969.82697 1850.2965 3289377
-1109.276 954.37701 1820.8202 4407856
-1093.5428 950.07965 1812.6215 3815466
-1087.2916 954.01685 1820.1331 986374
-1073.8188 951.63306 1815.5851 3486243
-1070.2441 958.06152 1827.8497 3683621
-1061.0138 959.50684 1830.6072 3025949
-1051.1566 960.40924 1832.329 4078636
-1049.2151 968.63849 1848.0291 5921610
-1047.822 977.55267 1865.0361 3224098
-1047.8395 987.987 1884.9434 4408631
-1041.528 992.61432 1893.7716 1710609
-1032.9094 995.11969 1898.5516 788997
-1009.9494 983.71136 1876.7861 1841169
-1003.5447 988.35394 1885.6434 65536
-993.86469 989.83881 1888.4763 65536
-990.84338 998.06488 1904.1705 3815214
-984.56317 1003.1598 1913.891 7171938
-967.98822 997.76208 1903.5929 3290148
-954.52783 995.48529 1899.2491 4210739
-943.69092 995.92285 1900.084 3619372
-935.08221 998.75098 1905.4796 4737083
-920.66412 995.36749 1899.0244 3947567
-902.63934 987.95264 1884.8779 3091234
-893.53522 990.23822 1889.2384 4670776
-867.89209 974.02026 1858.2969 5328963
-860.76691 978.435 1866.7195 4342069
-848.08771 976.56909 1863.1597 3355685
-832.49146 971.25085 1853.0132 9145722
-827.97803 978.89331 1867.5939 6842968
-830.63568 995.33575 1898.9639 5658435
-819.15155 995.05127 1898.4211 7368795
-808.73364 996.07202 1900.3684 7434334
-807.55945 1008.6673 1924.3986 8289643
-793.28186 1005.0224 1917.4446 5986885
-788.1795 1013.0647 1932.7882 4210476
-771.13605 1005.7696 1918.8701 6315596
-763.44147 1010.6322 1928.1473 7302491
-744.15973 1000.0707 1907.9973 5986633
-727.39044 992.61169 1893.7667 2039315
-720.2749 998.29926 1904.6178 7697255
-695.55621 979.38171 1868.5256 7697770
-685.96619 981.49847 1872.5643 7434854
-684.62323 995.67932 1899.6193 6381909
-674.29913 997.05396 1902.2418 6250323
-666.12415 1001.7072 1911.1195 6579802
-655.95526 1003.4709 1914.4846 2303262
-649.02258 1010.3348 1927.5798 6053198
-640.75549 1015.3299 1937.1099 4277306
-629.94031 1016.3958 1939.1436 2435357
-617.18726 1014.3167 1935.1769 5264712
-606.47021 1015.5682 1937.5647 5593166
-589.43549 1006.0846 1919.4712 4408891
-582.36896 1013.577 1933.7655 4145208
-571.16467 1014.024 1934.6184 7829357
-556.85687 1008.8666 1924.7789 10329493
-541.89832 1002.2899 1912.2314 6776156
-527.35168 996.21069 1900.6331 5131328
-515.80579 995.6582 1899.5791 5657672
-505.9277 998.37262 1904.7578 6315601
-495.60379 1000.3108 1908.4556 4999740
-484.87585 1001.505 1910.7339 4539187
-471.50677 997.17078 1902.4647 8092264
-458.68039 993.79999 1896.0338 7763296
-449.67017 998.73578 1905.4506 5263423
-438.41763 998.81732 1905.6062 6775892
-425.66226 995.38885 1899.0652 7500385
-414.31058 995.14587 1898.6016 6447185
-409.60352 1011.2944 1929.4108 7105114
-394.0159 1000.7356 1909.2659 7631200
-389.13248 1017.5429 1941.3319 6381389
-374.71304 1009.6786 1926.3281 2236177
-358.90372 997.4577 1903.0122 2762266
-344.00076 987.0448 1883.1458 393728
-332.33841 985.54382 1880.2821 393472
-318.91794 978.54419 1866.9277 2958616
-312.38922 992.94733 1894.4071 3616288
-299.74667 988.26672 1885.4771 1906185
-288.27563 987.23584 1883.5103 3419675
-274.39767 977.54712 1865.0255 7565403
-266.65964 989.83673 1888.4724 5459256
-253.98178 984.06323 1877.4574 7565670
-241.69878 979.36078 1868.4858 6710873
-235.18829 998.71979 1905.42 8289391
-225.69637 1006.7319 1920.7061 6052429
-214.79108 1008.9557 1924.9489 8749942
-201.95743 1001.8627 1911.4164 6973018
-192.89835 1013.764 1934.1224 4867642
-182.43497 1019.3224 1944.7269 5525825
-170.25244 1015.377 1937.1997 7236701
-157.91957 1009.8999 1926.7501 6250065
-146.2951 1008.4525 1923.9889 6776668
-134.82745 1007.933 1922.9977 5460810
-122.21758 997.99054 1904.0287 8618874
-109.66759 986.56476 1882.2299 6777183
-98.246429 983.85681 1877.0636 8816510
-88.261292 996.67377 1901.5166 3881776
-77.017838 996.95288 1902.0491 6776155
-65.951515 1000.0135 1907.8883 7434598
-54.73782 1001.6432 1910.9977 7631975
-43.269302 998.24408 1904.5126 4934465
-31.960131 997.42004 1902.9403 8684926
-20.191427 973.54095 1857.3823 9803409
-9.1862631 973.3703 1857.0568 8553342
1.8206933 976.22882 1862.5104 3881783
13.247043 1006.0305 1919.3678 8092531
24.599924 1005.2994 1917.973 5658447
35.655483 996.71906 1901.6029 7763564
47.453941 1008.0398 1923.2014 9539977
59.927921 1026.5485 1958.5133 6579291
71.344673 1023.8802 1953.4229 8158323
81.129913 1001.8105 1911.3168 5197639
92.58535 1003.2448 1914.0531 7368809
103.36195 997.81287 1903.6898 8421494
116.13905 1010.8618 1928.5854 2697247
127.83715 1013.0229 1932.7086 6512474
137.18178 997.71216 1903.4977 8157557
148.79144 999.94952 1907.7662 7828846
159.82741 998.28766 1904.5956 8025969
173.75165 1013.6957 1933.9919 8815484
185.50346 1015.3069 1937.066 7697004
194.55286 1002.8013 1913.207 7828588
205.58745 1001.3416 1910.4221 7894123
217.3261 1003.2845 1914.1292 9867909
233.37642 1023.9526 1953.5608 7763047
245.42621 1025.9442 1957.3606 6250065
258.00226 1029.8569 1964.8254 8092526
268.59631 1025.8618 1957.2034 5196867
279.6694 1023.9511 1953.5581 5065281
293.20605 1030.854 1966.7277 5920588
304.7933 1030.6372 1966.3141 9276293
314.33978 1023.7897 1953.25 8881534
326.88708 1026.855 1959.0983 7565417
339.38181 1029.5507 1964.2411 7236453
354.3512 1039.3258 1982.8907 6644830
360.08578 1022.2568 1950.3254 6973539
366.58383 1008.3491 1923.7915 8355192
375.18979 1000.9034 1909.5862 7894383
387.48306 1003.4425 1914.4303 9276037
406.12363 1021.8068 1949.4669 7368297
415.41315 1016.2789 1938.9205 9078912
425.79562 1013.6505 1933.9059 7829101
438.48196 1016.5007 1939.3436 9934734
447.71219 1011.3977 1929.6078 10395288
464.2037 1022.5441 1950.8735 8619647
476.96558 1025.1327 1955.8124 9869201
485.40717 1018.5334 1943.2218 4933955
495.26746 1015.1476 1936.7622 4867648
500.81577 1003.2772 1914.115 4275509
512.98358 1004.8995 1917.2102 4407094
525.57312 1007.2598 1921.7134 6183251
534.81311 1003.2367 1914.0377 4867648
546.0578 1003.0632 1913.7067 1907478
549.57416 988.98901 1886.8551 5459528
560.1059 987.849 1884.6801 5657420
578.62128 1000.5588 1908.9287 6446166
587.16406 995.86731 1899.978 4142897
598.46912 995.9491 1900.134 4011568
605.42841 988.92932 1886.7412 3814189
619.42578 993.45203 1895.3699 6972767
634.74536 999.89636 1907.6648 4867904
641.72394 993.20581 1894.9001 5986385
655.4549 997.01648 1902.1703 9407365
667.1817 997.70117 1903.4767 7303016
689.29517 1013.6371 1933.8804 8421499
701.68207 1014.9826 1936.4474 10658718
706.2757 1005.1932 1917.7705 11119269
725.01361 1015.5256 1937.4833 2960425
740.20044 1020.6394 1947.2397 6183765
753.11078 1022.5056 1950.8002 5920336
767.34473 1026.0852 1957.6296 2762787
781.71442 1029.7371 1964.5968 6775642
793.51825 1029.9514 1965.0056 7301986
800.91754 1024.5251 1954.6532 5985615
814.24628 1026.7306 1958.8608 4735805
821.34204 1021.1248 1948.1658 5196096
829.9071 1017.4758 1941.204 7038045
842.43219 1018.7152 1943.5687 5327685
842.78925 1005.4053 1918.1752 5460041
853.75903 1004.9418 1917.2908 7039846
866.39886 1006.4302 1920.1305 5526094
888.04919 1018.2112 1942.6071 7368554
896.09357 1014.2903 1935.1265 6841955
901.2915 1007.2872 1921.7655 8158071
911.51837 1006.009 1919.3269 10263447
932.7226 1016.7283 1939.778 9473930
929.76355 1001.1678 1910.0906 7565676
939.03937 998.99762 1905.9502 6973539
954.72394 1003.6158 1914.7611 5394251
963.94446 1001.4104 1910.5535 4341563
960.67487 986.43109 1881.975 6709598
968.54285 983.10065 1875.6208 7235942
987.45929 990.9328 1890.5636 6841184
989.78851 982.13055 1873.7701 4670783
1003.9438 985.12793 1879.4888 7762797
1007.8227 978.08643 1866.0544 7894383
1019.7429 978.91699 1867.6392 2827811
1028.28 976.51703 1863.0604 8946817
1043.4945 980.44196 1870.5486 8025715
1056.313 982.05676 1873.6294 7564907
1067.05 981.72308 1872.9927 8420473
1079.5939 983.04138 1875.5078 5920854
1091.9185 984.13525 1877.5947 8355965
1094.7646 976.75043 1863.5055 7302763
1101.3949 972.85535 1856.0743 8487293
1157.604 1012.3973 1931.5149 6184280
1176.2662 1018.6493 1943.443 6249559
1195.7413 1025.4774 1956.4701 6644317
1203.8844 1022.5492 1950.8833 5328457
1222.8715 1028.7997 1962.8085 4473145
1230.7439 1025.6697 1956.8369 4933439
1231.7777 1016.9523 1940.2053 6775901
1246.5309 1019.618 1945.2911 6775901
1258.2236 1019.7546 1945.5516 3157544
1271.8284 1021.4241 1948.7368 2170392
1272.215 1012.5435 1931.7938 1710100
1275.1115 1005.8009 1918.9298 3815216
1302.2135 1018.1021 1942.3988 2498587
1301.7686 1008.8394 1924.7269 6577236
1315.3156 1010.4869 1927.87 4208432
1322.7924 1007.4828 1922.1387 4734774
1325.9708 1001.2841 1910.3125 3746852
1336.9159 1001.0055 1909.781 4009763
1327.5431 985.64636 1880.4779 2826004
1347.8533 992.39795 1893.359 4272417
1351.8627 987.13519 1883.3184 5128237
1376.86 997.15857 1902.4415 6115644
1372.1238 985.66016 1880.5042 6313535
1376.7428 981.01324 1871.6384 8222306
1394.3867 985.6474 1880.4797 5196344
1415.8239 992.8681 1894.2559 6249291
1407.951 979.58295 1868.9097 7828328
1420.1952 980.39215 1870.4535 7630692
1434.2678 982.44128 1874.363 3420200
1472.6532 1000.9849 1909.7416 5394245
1485.8463 1002.2526 1912.1602 5393990
1499.311 1003.6829 1914.889 6381910
1525.8433 1013.7738 1934.1411 6118483
1534.3058 1011.7983 1930.3721 10724251
1554.6002 1017.5969 1941.4349 7105382
1557.3634 1011.9189 1930.6023 7500142
1597.4907 1030.4247 1965.9088 5460560
1603.7517 1026.9761 1959.3293 4276032
1610.8884 1024.1337 1953.9064 4210239
1618.9868 1021.9389 1949.7191 4210237
1629.8165 1021.4872 1948.8572 6973799
1644.2319 1023.2734 1952.2649 6842470
1656.3403 1023.6087 1952.9048 2960682
1666.4795 1022.731 1951.23 7566196
1690.6562 1030.4209 1965.9014 4144701
1697.5513 1027.5448 1960.4143 4276286
1702.9109 1023.7847 1953.2405 8618622
1704.0519 1017.5563 1941.3575 5592144
1697.1116 1006.6182 1920.489 7170664
1702.8701 1003.3075 1914.1729 6644577
1703.0869 996.79718 1901.7521 6776420
1685.4255 979.97748 1869.6622 7434348
1709.303 987.37189 1883.7699 6710883
1710.6047 981.71436 1872.9761 4934473
1710.9961 975.61066 1861.3311 7302506
1719.1731 973.99591 1858.2504 4736320
1723.4376 970.19934 1851.0071 7564904
1711.3442 957.30035 1826.3976 7498854
1721.3419 956.84326 1825.5255 6314835
1709.9918 944.59937 1802.1658 4473146
1736.3748 953.2218 1818.6162 5196613
0 0 0 0
0 0 0 0
0 0 0 0
0 0 0 0
0 0 0 0
0 0 0 0
0 0 0 0
0 0 0 0
0 0 0 0
0 0 0 0
0 0 0 0
0 0 0 0
-1598.7252 980.87683 1850.4631 4539956
0 0 0 0
-1542.9829 959.84027 1810.7769 2104847
-1527.074 956.59454 1804.6536 1841935
-1504.8314 949.30737 1790.9061 1315080
-1505.7617 956.63898 1804.7374 3157025
-1487.5282 951.81323 1795.6335 3749415
-1490.5366 960.60785 1812.2249 2894618
-1465.4659 951.30255 1794.67 4539442
-1465.066 957.99329 1807.2924 6710611
-1458.6484 960.8186 1812.6224 1315591
-1446.1494 959.65021 1810.4183 5197369
-1439.9443 962.67212 1816.1193 5723714
-1434.313 966.12622 1822.6355 2828566
-1425.3627 967.38007 1825.0009 1578504
-1414.5833 967.40198 1825.0424 2499344
-1403.0698 966.9187 1824.1305 2302222
-1382.2356 959.95459 1810.9924 5262649
-1376.3484 963.34326 1817.3853 3617568
-1375.3499 970.23407 1830.3851 3946532
-1360.3387 967.27075 1824.7947 3485724
-1348.3256 966.40875 1823.1685 3551516
-1339.585 967.89728 1825.9768 2302221
-1322.439 963.28754 1817.2803 4078374
-1311.0151 962.8045 1816.3689 4473389
-1302.6588 964.58472 1819.7274 3947815
0 0 0 0
-1251.1685 942.0498 1777.2144 3618340
-1279.3623 971.45276 1832.6842 1842444
-1265.257 968.96527 1827.9915 2500376
-1252.9171 967.79852 1825.7904 3290149
-1241.2513 967.13672 1824.5419 3553065
-1224.6484 962.5827 1815.9506 2697499
-1211.9795 961.06744 1813.0919 1842446
-1203.8574 963.1629 1817.0452 2697756
-1196.8558 966.20068 1822.776 5197891
-1184.7667 965.14941 1820.7927 66048
-1185.7406 974.81799 1839.033 1052163
-1169.2367 970.16388 1830.2528 591616
-1160.7312 972.12146 1833.9458 1118215
-1160.9713 981.5097 1851.6571 3223583
-1145.4043 977.58594 1844.2546 3420961
-1124.3008 968.81573 1827.7094 4276269
-1108.2448 964.26666 1819.1274 2499347
-1088.6339 956.505 1804.4847 3617827
-1071.4091 950.70648 1793.5455 2366735
-1061.4899 951.33929 1794.7394 3485472
-1055.3099 955.37018 1802.3439 3683623
-1047.2734 957.78558 1806.9005 2894105
-1040.7845 961.68079 1814.249 3617827
-1040.4767 971.42804 1832.6377 5394496
-1039.8787 981.10724 1850.8977 3553063
-1039.0132 990.73761 1869.0659 4474167
-1024.2737 987.20361 1862.3988 1381897
-1016.3309 990.2146 1868.0792 788994
-1003.6217 988.59692 1865.0275 4276017
-1002.8584 998.84131 1884.3538 2631454
-988.02802 995.14783 1877.3859 3486760
-974.65118 992.85095 1873.0529 4013365
-974.32867 1003.9525 1893.9962 2302747
-956.33362 996.89044 1880.6735 3947828
-945.74402 997.47272 1881.7719 2500383
-923.23865 985.35126 1858.9043 1316107
-917.59888 991.1546 1869.8527 3421226
-907.68262 992.42432 1872.2479 3684397
-888.80981 983.81146 1855.9994 2433814
-876.03864 981.82117 1852.2446 5131326
-866.85278 983.84961 1856.0714 4210225
-853.47845 981.11536 1850.9132 4802358
-845.05542 984.07574 1856.498 2631195
-823.95007 972.15088 1834.0013 6644817
-818.15436 978.21185 1845.4355 6710098
-813.25824 985.52722 1859.2363 5789250
-805.37024 989.3681 1866.4823 5131321
-794.13019 989.14069 1866.0532 7105369
-781.88428 987.63635 1863.2152 8421486
-778.87592 997.92426 1882.6238 6447696
-776.82867 1009.7606 1904.9535 6381389
-766.27832 1010.73 1906.7823 5723461
-737.74829 987.65833 1863.2566 6973528
-732.02734 994.88513 1876.8903 8290156
-717.94379 990.79407 1869.1724 10724244
-697.62427 977.83417 1844.723 4605242
-693.0827 986.92896 1861.8807 5263685
-670.10339 969.63867 1829.2618 5329216
-671.55402 987.71106 1863.3562 6448212
-663.26788 991.82758 1871.1221 7106143
-658.78644 1001.8699 1890.0674 7961453
-645.1452 998.08881 1882.9343 9146238
-637.60278 1003.7761 1893.6635 4277557
-636.27576 1019.6269 1923.5668 7106145
-620.43298 1012.3705 1909.8772 6119506
-605.33862 1006.0884 1898.0258 6842715
-590.67639 1000.3002 1887.1061 7500386
-568.60559 981.50043 1851.6396 9343105
-570.38397 1003.9382 1893.9692 4737339
-562.91058 1010.6655 1906.6606 5592911
-550.73499 1009.0529 1903.6184 6250833
-532.63861 996.29822 1879.5563 8552560
-518.80701 991.14636 1869.837 7894632
-508.24316 992.1488 1871.728 7565410
-496.16422 990.17224 1867.9993 6710359
-489.21503 998.57629 1883.8539 9013114
-474.05243 990.21637 1868.0825 5131583
-462.38599 988.93414 1865.6636 9145725
-452.94708 992.46997 1872.3341 9803398
-444.4285 998.25061 1883.2395 4605751
-429.82733 990.3147 1868.2679 6645336
-422.34738 998.80011 1884.2761 8684150
-413.008 1003.2294 1892.6322 4803390
-402.50037 1004.9891 1895.952 5723722
-393.01135 1009.4663 1904.3983 5394240
-382.78845 1012.2673 1909.6824 7631204
-370.54111 1009.7222 1904.881 5196607
-353.19458 992.68555 1872.7408 1643786
-342.15488 992.84467 1873.0409 1709321
-331.97528 995.59387 1878.2275 1840138
-319.7666 992.23755 1871.8956 2958876
-306.24136 984.40802 1857.1249 4537649
-295.45578 985.12976 1858.4865 591104
-284.14404 984.08508 1856.5156 3090455
-273.84164 986.59259 1861.2462 5196086
-264.17407 991.69379 1870.8698 6315339
-254.39868 996.81921 1880.5391 7499871
-239.8479 982.84564 1854.1774 8223852
-230.56602 990.15778 1867.9719 8618355
-220.9274 996.59784 1880.1216 7894635
-212.4742 1009.3532 1904.1849 6118219
-200.53383 1006.0444 1897.9427 7236700
-189.79686 1008.7383 1903.0249 5986633
-177.98029 1005.6722 1897.2406 4275760
-167.87431 1012.5101 1910.1405 3749673
-158.34091 1024.0393 1931.891 3749418
-145.27644 1012.7495 1910.5922 4802107
-132.2933 1000.1666 1886.854 3025949
-119.83846 989.62347 1866.9641 5657931
-108.94505 991.14209 1869.829 7434857
-98.926041 1001.8596 1890.048 6382170
-86.648132 989.51666 1866.7625 5197896
-75.381935 986.80579 1861.6483 8092531
-64.55233 989.86072 1867.4116 6118997
-53.689053 993.55621 1874.3833 3223850
-42.325413 987.50482 1862.967 6381914
-30.852364 973.7312 1836.9827 6842723
-20.166189 983.3139 1855.0608 9671823
-9.1618462 981.75555 1852.1208 6250587
1.7774906 963.83624 1818.3154 8684926
12.784805 981.90033 1852.394 7566444
24.019714 992.68304 1872.7361 7697771
35.097626 992.21375 1871.8507 6118739
47.947048 1030.0265 1943.1859 7237220
59.444778 1029.7815 1942.7238 6381910
68.176247 989.46808 1866.6709 4736828
79.703201 995.31714 1877.7053 5657928
90.525635 992.013 1871.4719 6578775
101.40595 989.99493 1867.6648 8289649
113.83938 1002.0448 1890.3975 3750194
125.68489 1007.2248 1900.1697 7433830
136.79561 1006.1487 1898.1395 7762795
147.95178 1005.5449 1897.0005 7828588
159.29997 1006.2393 1898.3104 4670525
163.98215 967.51184 1825.2496 8946812
183.89104 1017.8576 1920.2289 7762794
193.60692 1009.2047 1903.9048 9276032
205.88799 1014.1398 1913.215 7236191
213.35585 996.08856 1879.1606 7039319
228.76767 1015.0763 1914.9817 5131068
240.19507 1015.4254 1915.6405 7301985
255.42044 1031.0747 1945.1635 6315348
265.73425 1026.4019 1936.348 11316389
277.98706 1029.2954 1941.8068 8750720
290.27106 1032.0697 1947.0405 5921621
301.36862 1030.575 1944.2206 8158581
313.51855 1032.6562 1948.1471 9013890
324.21887 1029.9847 1943.1073 3946800
335.7052 1029.9078 1942.962 5657417
343.46497 1018.7822 1921.9733 7170402
352.89224 1013.1582 1911.3633 4077876
362.62204 1008.7253 1903.0005 6117459
371.39728 1001.9845 1890.2836 8814971
382.01105 1000.4532 1887.3948 7828590
394.09207 1002.7424 1891.7134 11052446
407.8728 1009.1101 1903.7263 9539978
417.7879 1005.8287 1897.5359 9539721
429.07828 1005.9434 1897.7523 7829105
441.52124 1008.6855 1902.9253 8223863
454.78021 1013.1088 1911.27 6908253
468.23492 1017.7427 1920.0121 6250322
480.88116 1020.4411 1925.1028 5394500
490.94211 1017.6557 1919.8479 4604473
497.98373 1008.8795 1903.2911 2630428
511.56531 1013.4479 1911.9097 3222565
519.56299 1006.9958 1899.7377 920842
535.08472 1015.0912 1915.0098 4867906
543.26471 1009.2117 1903.918 6117718
548.34692 997.93378 1882.6417 2959397
557.9256 995.12543 1877.3436 9670794
566.64703 990.92773 1869.4246 6249301
578.22723 991.79443 1871.0596 3353894
590.55652 993.88922 1875.0115 5393479
603.61499 997.11127 1881.09 7564906
619.55334 1004.8875 1895.7601 5591116
629.69849 1003.1578 1892.4969 9605257
632.70349 990.31274 1868.2643 6250323
647.69165 996.34314 1879.6409 9868936
662.12109 1001.3246 1889.0387 6973793
676.9223 1006.6935 1899.1672 10460821
691.5719 1011.6649 1908.5461 8092274
706.5163 1016.9008 1918.4237 10592664
728.78015 1032.3391 1947.5487 9144446
736.99371 1027.7036 1938.8038 6183758
747.41516 1026.2422 1936.0466 7959662
762.3952 1030.9894 1945.0024 6512471
775.51532 1033.1174 1949.0172 2499103
783.92798 1029.004 1941.257 5920080
796.73743 1030.6974 1944.4517 7696492
804.37878 1025.7521 1935.1222 5591886
812.3847 1021.4043 1926.9197 5131079
819.28625 1015.8074 1916.3611 5723470
823.28381 1006.8124 1899.3916 3946547
814.69012 982.86951 1854.2223 5328969
817.91235 973.62891 1836.7897 5987156
841.01489 987.9856 1863.8741 5196101
862.84229 1000.4916 1887.467 4209718
867.51807 993.04407 1873.4171 4143926
892.94702 1009.2409 1903.973 8223090
910.60394 1016.3589 1917.4015 8091761
914.1084 1007.7 1901.066 5393735
911.07111 992.12811 1871.6892 6643545
923.50049 993.57098 1874.4111 8222833
949.21588 1009.1037 1903.7144 7697003
955.74493 1004.1145 1894.3019 6841439
953.04608 989.65857 1867.0303 5130821
964.69556 990.26282 1868.1703 5196358
974.62305 989.10602 1865.9878 5459785
964.79419 968.15002 1826.4535 5064772
991.82098 984.23242 1856.7937 4998979
1000.3497 981.80682 1852.2177 6117460
1026.8741 996.90442 1880.6998 6972770
1027.4888 986.79449 1861.627 6314841
1039.4528 987.68304 1863.3033 8420473
1052.9508 989.99542 1867.6656 6973025
1062.5557 988.63739 1865.1036 6643804
1068.9124 984.31622 1856.9517 7104356
1089.8131 993.33954 1873.9745 5789009
1098.0492 990.75372 1869.0963 6644061
1103.9702 986.15167 1860.4144 8815483
1116.4127 987.40845 1862.7853 6841436
1125.6815 985.86121 1859.8663 6381913
1161.4343 1007.3134 1900.3368 6842464
1179.5018 1013.1625 1911.3715 9868943
1204.7854 1025.04 1933.7789 5394764
1210.6458 1020.3239 1924.8817 6907746
1220.6198 1019.1306 1922.6302 7697774
1221.7017 1010.6035 1906.5437 2829092
1250.6031 1025.0345 1933.7683 5592653
1269.4326 1031.0231 1945.066 1579025
1271.9277 1023.7567 1931.3575 4408124
1276.484 1018.264 1920.9956 4802113
1286.0477 1016.8276 1918.2858 4078390
1291.011 1011.8108 1908.8214 2959139
1300.9395 1010.7388 1906.799 2893089
1291.9357 995.10284 1877.301 2103314
1304.8534 996.47449 1879.8888 3352610
1315.7264 996.27472 1879.5118 1050369
1319.1761 990.50452 1868.6261 2891539
1330.7314 990.86572 1869.3076 4602155
1340.9534 990.23645 1868.1204 4602151
1353.1238 991.04437 1869.6445 3943706
1359.6007 987.70312 1863.3412 2299656
1368.6245 986.25104 1860.6018 4206878
1375.2687 983.12109 1854.697 4207137
1377.4541 976.8786 1842.9204 5919297
1407.0957 990.05298 1867.7743 6643282
1422.764 993.26654 1873.8368 7104347
1433.6053 993.08667 1873.4974 4670782
1443.7579 992.43604 1872.27 6315866
1457.8567 994.48724 1876.1398 1446156
1489.9303 1008.6765 1902.9082 2564893
1513.1261 1016.6873 1918.021 7302761
1537.6189 1025.4437 1934.5404 8881281
1544.469 1022.3917 1928.7826 6380888
1537.1737 1010.0895 1905.5739 7301989
1555.6111 1014.7524 1914.3707 6578526
1562.5724 1011.9161 1909.0199 9670543
1579.833 1015.7423 1916.2383 6052697
1594.666 1017.9642 1920.4301 5723990
1605.2537 1017.4639 1919.4861 3289650
1628.494 1024.934 1933.5786 3026479
1639.229 1024.4839 1932.7296 7763574
1654.9293 1027.1219 1937.7063 7105644
1665.3452 1026.4663 1936.4696 6645092
1674.3772 1024.9727 1933.6516 6579298
1706.1086 1037.3004 1956.9083 4210235
1697.729 1025.239 1934.1542 4999496
1697.9783 1018.5153 1921.4696 4867141
1672.7996 996.73004 1880.3708 6051411
1679.4003 994.0434 1875.3024 6643292
1671.4017 982.80756 1854.1055 6775648
1686.1606 985.0127 1858.2655 5196359
1694.5831 983.51154 1855.4336 5065799
1680.5393 969.07477 1828.1981 6579296
1652.7147 946.92712 1786.4156 7105383
1692.627 963.62445 1817.9158 8354935
1710.6257 967.71393 1825.6307 5920335
1715.3896 964.31213 1819.2131 8222319
1722.1753 962.08215 1815.0061 5787718
1725.3435 957.87146 1807.0626 7300444
0 0 0 0
0 0 0 0
0 0 0 0
0 0 0 0
0 0 0 0
0 0 0 0
0 0 0 0
0 0 0 0
0 0 0 0
0 0 0 0
0 0 0 0
0 0 0 0
-1556.5231 965.65747 1801.6158 5460034
-1527.5182 954.20605 1780.2511 723204
-1502.726 945.2453 1763.5331 1314821
-1491.9167 945.0163 1763.1057 1906959
-1490.8079 950.97168 1774.2167 5196862
-1484.0348 953.37286 1778.6965 4078123
-1480.2719 957.75604 1786.8743 3617570
-1479.2469 963.98669 1798.4987 2367760
-1472.7019 966.6842 1803.5315 4604722
-1462.2546 966.84113 1803.8242 4604722
-1459.6089 972.19666 1813.8159 3289632
-1442.0532 967.62689 1805.2903 2499863
-1429.7094 966.51227 1803.2106 1775632
-1418.3021 966.01868 1802.2897 2762266
-1418.3359 973.36945 1816.0039 1315077
-1408.8141 974.22455 1817.5994 986626
-1384.3485 964.67932 1799.7909 1117698
-1365.4169 958.87213 1788.9565 3881257
-1355.7913 959.56042 1790.2407 5789253
-1356.3832 967.54816 1805.1432 2433294
-1334.4294 959.45251 1790.0393 1840642
-1331.9685 965.35468 1801.0509 4143651
-1325.7101 968.5777 1807.0641 2302218
-1312.324 966.60321 1803.3802 3815456
-1288.4193 956.78522 1785.063 4736561
-1276.3845 955.69226 1783.0239 3157532
-1243.4473 938.79993 1751.5079 6250318
-1253.7061 954.51044 1780.8188 5066556
-1285.4882 987.01349 1841.4595 3289890
-1259.0283 974.97131 1818.9926 1644813
-1247.0205 974.00928 1817.1976 2104848
-1228.3612 967.79004 1805.5945 1381126
-1221.3323 970.70514 1811.0332 2038542
-1199.801 962.04352 1794.8733 1775884
-1195.7489 967.36761 1804.8065 3749418
-1176.8522 960.6701 1792.311 5790027
-1178.7524 970.98199 1811.5497 1907983
-1187.3208 987.02643 1841.4836 328960
-1173.998 985.00159 1837.7059 2105362
-1156.4646 979.37292 1827.2046 5394496
-1146.4452 980.0614 1828.4891 1512970
-1135.3425 979.82812 1828.0538 3289375
-1114.5201 971.12128 1811.8096 3288861
-1106.0563 973.1181 1815.5352 2630675
-1092.4358 970.57281 1810.7864 3156506
-1063.8538 954.5528 1780.8979 3419420
-1052.9382 954.22186 1780.2806 1116417
-1040.3674 952.36908 1776.8239 3024663
-1030.1132 952.62067 1777.2932 3947049
-1025.6173 958.25769 1787.8102 4078378
-1019.4283 962.41388 1795.5643 4604979
-1021.0458 974.10535 1817.377 3618343
-1002.4717 966.57733 1803.3319 6512976
-1022.7469 996.74896 1859.6228 3684137
-997.14752 982.3822 1832.8191 5197378
-986.0423 982.13611 1832.3597 5460808
-997.06476 1004.1697 1873.4677 3355944
-985.29047 1003.4818 1872.1842 2434848
-983.62421 1013.1901 1890.2969 3553071
-960.71918 1000.9929 1867.5406 4211771
-941.2995 992.18518 1851.1083 5000774
-937.5354 999.86627 1865.4388 2960936
-914.24066 986.65314 1840.7872 723971
-914.48645 998.83258 1863.5103 2368027
-900.72705 995.82599 1857.9009 4736316
-889.80603 995.92169 1858.0795 2433559
-869.40527 985.27686 1838.2195 1973010
-866.84937 994.84149 1856.0641 1710093
-847.32745 984.93066 1837.5736 4538934
-835.59186 983.93048 1835.7076 2762781
-817.20959 974.97418 1818.9978 6906964
-806.44214 974.98462 1819.0175 5985605
-799.28149 979.4151 1827.2833 5853763
-790.75061 982.2652 1832.6007 5920325
-771.11096 971.20319 1811.9625 3881252
-769.83435 983.28345 1834.5004 6249545
-738.65131 956.96417 1785.3969 6645077
0 0 0 0
-723.672 965.19995 1800.7622 6841690
-718.81 973.05969 1815.4261 7960427
-714.24457 981.56586 1831.2959 8420722
-701.55542 978.99799 1826.5051 5723716
-677.53101 960.28387 1791.5903 8157803
-668.64471 962.7713 1796.2311 5592388
-654.83044 958.12872 1787.5695 4999992
-655.82092 975.35126 1819.7015 4144170
-649.96832 982.80255 1833.6031 4670771
-641.29608 986.17084 1839.8875 7565920
-642.07532 1004.4413 1873.9745 7040090
-635.74109 1012.0308 1888.1342 5066562
-624.82269 1012.4641 1888.9423 7500646
-597.09204 985.17365 1838.0269 5592650
-600.87885 1009.8376 1884.0422 2763554
-579.32513 992.04187 1850.8409 6579030
-568.78668 992.78601 1852.2292 7828584
-555.47302 988.62018 1844.457 3552811
-550.65497 999.71094 1865.149 4078642
-538.43768 997.54761 1861.1128 5855565
-525.26672 993.48999 1853.5426 7237472
-514.71375 994.31628 1855.0844 6117452
-501.98691 990.88782 1848.6879 5656901
-490.96829 990.75354 1848.4373 6644053
-480.6217 992.00012 1850.7629 4342068
-469.18292 990.99811 1848.8936 2565913
-460.4696 995.84222 1857.9313 5789769
-452.92972 1003.5237 1872.2625 5328706
-438.81137 996.64941 1859.4371 3815723
-429.21497 999.95605 1865.6063 5723462
-416.6312 996.29376 1858.7737 7696995
-406.33514 998.0517 1862.0535 6382162
-396.2438 1000.4248 1866.481 5658182
-386.75861 1004.5084 1874.0995 7368289
-374.70139 1001.9557 1869.3369 6052429
-363.42047 1001.3866 1868.2751 1578250
-352.96661 1003.1323 1871.5321 1051908
-340.59106 999.35248 1864.4802 1907215
-327.85474 994.22528 1854.9146 5130813
-316.98752 994.60712 1855.627 4012333
-304.77341 990.63867 1848.2229 3288869
-291.28818 982.08862 1832.2712 3749162
-281.80005 986.87476 1841.2007 2367769
-272.21558 991.69531 1850.1942 4342324
-262.13974 995.05518 1856.4628 6118221
-247.62617 981.1264 1830.4761 7105115
-238.8856 989.84283 1846.7382 8289644
-228.67456 993.01038 1852.6478 6710610
-219.10641 999.42993 1864.6248 3157529
-208.72981 1002.6476 1870.6279 3222818
-199.21761 1010.6111 1885.4855 6512980
-189.55748 1018.7258 1900.6248 5591879
-176.85617 1010.4891 1885.2578 6184528
-167.09679 1019.0843 1901.2936 2500119
-155.38487 1016.153 1895.8248 5394497
-144.11555 1015.885 1895.3247 2500379
-131.40541 1004.5571 1874.1903 5197637
-119.7708 1000.119 1865.9103 6908514
-107.60461 989.88831 1846.823 6119000
-95.459984 977.56238 1823.8268 5329483
-84.495293 975.71564 1820.3812 3882037
-74.051903 980.22894 1828.8016 6447965
-63.161327 979.35541 1827.1719 11382698
-52.395748 980.45947 1829.2317 2303009
-41.803482 986.22809 1839.9941 7171689
-30.589222 976.21613 1821.3149 7698031
-19.790941 975.80188 1820.5422 8553341
-9.013464 976.64996 1822.1245 7500653
1.7832952 977.79102 1824.2533 6579550
12.619267 980.01855 1828.4092 6711133
23.680876 989.61768 1846.3181 6776668
34.854977 996.36676 1858.9097 5855306
45.661945 991.89978 1850.5758 9342082
56.261173 985.52356 1838.6798 7433830
68.049408 998.66522 1863.198 5986384
79.032303 997.9693 1861.8997 4407094
90.036026 997.67468 1861.35 4078386
98.68959 974.24408 1817.6357 7433829
109.14378 971.45007 1812.4231 6314835
121.9912 988.55017 1844.3265 8026481
134.26483 998.57135 1863.0229 4210485
144.93031 996.01831 1858.2598 7828587
155.61603 993.95514 1854.4104 6183762
164.46834 981.22571 1830.6613 5197380
177.52171 993.58459 1853.7191 8947324
188.23083 992.14703 1851.037 9079167
195.79486 975.20288 1819.4246 8947840
202.76324 957.21503 1785.8647 9539718
220.63161 989.91663 1846.8759 9473668
238.25162 1018.4664 1900.1409 7170912
249.22084 1017.2922 1897.9502 6315089
263.03311 1027.3235 1916.6654 7433574
273.61526 1024.4309 1911.2687 9276036
285.49768 1026.4429 1915.0223 7301987
299.66595 1036.2052 1933.236 5065279
309.34015 1030.2811 1922.1835 4604730
321.50589 1032.7812 1926.8478 5130818
330.19464 1024.3236 1911.0686 4407351
338.70911 1015.9041 1895.3604 3946033
349.99268 1016.0638 1895.6584 5327686
360.74094 1014.7079 1893.1285 4866879
367.19656 1001.7233 1868.9034 6248532
378.0416 1001.1228 1867.7831 5656394
389.12689 1001.1745 1867.8795 9474440
397.94501 995.55151 1857.3888 9935504
409.57596 997.07892 1860.2384 9079425
425.13193 1007.8307 1880.2981 8487034
432.88895 1000.0175 1865.7208 8487548
445.69626 1003.9692 1873.0935 8290424
466.4707 1025.2397 1912.7778 8816768
478.50726 1026.7521 1915.5994 5066053
491.41992 1030.0308 1921.7164 2960677
496.39008 1016.8902 1897.2001 5395274
508.08423 1017.801 1898.8995 2105625
518.57703 1016.3181 1896.1328 3487534
532.35858 1021.2065 1905.2532 8093045
544.48395 1022.7811 1908.1907 2894117
551.88379 1015.5956 1894.7848 3815215
558.56573 1007.4018 1879.4977 4538940
565.08942 999.24823 1864.2858 3683117
576.22327 999.40338 1864.5751 5130306
586.99475 998.93579 1863.7029 4012082
599.23761 1000.9434 1867.4484 2236185
607.91107 997.02405 1860.1361 4802369
616.41614 992.97308 1852.5782 5261375
631.48987 999.4599 1864.6807 5460811
642.59424 999.5495 1864.8479 7960688
654.43597 1000.7636 1867.1129 5789003
668.55566 1005.363 1875.6938 8618356
679.28058 1004.7903 1874.6255 7236703
701.61041 1021.1259 1905.1027 6052946
717.07172 1027.1062 1916.2599 8158579
726.88672 1024.9385 1912.2156 12830142
734.17175 1019.3246 1901.7419 9934738
748.83624 1023.9713 1910.4113 6447450
763.92108 1029.0458 1919.8787 7105636
783.83215 1040.3773 1941.0198 2763046
787.992 1030.7769 1923.1083 5131334
795.83203 1026.1956 1914.561 3881524
805.64795 1024.255 1910.9406 9276294
811.9928 1018.0164 1899.3013 6842210
808.15082 999.3515 1864.4784 7631470
817.67957 997.50104 1861.026 6513245
808.18073 972.79657 1814.9352 5263435
819.315 973.25067 1815.7823 8025715
852.37927 999.40558 1864.5792 4604992
850.87402 984.87732 1837.4741 460292
892.45782 1019.9614 1902.9301 6512985
900.51385 1016.3303 1896.1554 5327941
900.20856 1003.4682 1872.1588 7038561
912.39789 1004.6774 1874.4148 5657163
920.3692 1001.2689 1868.0555 6183765
926.04468 995.47339 1857.243 7302245
943.84802 1002.698 1870.7219 6775645
938.43781 985.38025 1838.4124 4669499
949.01764 985.05713 1837.8094 3814444
966.20215 991.51898 1849.8654 5721669
963.55988 977.71783 1824.1167 3287844
981.95233 985.3299 1838.3185 8024682
995.10016 987.57001 1842.4978 5919050
999.36932 981.04565 1830.3253 3484966
1010.4493 981.27551 1830.7543 4471602
1033.379 992.88599 1852.4158 4340271
1046.049 994.49817 1855.4237 5458495
1051.2168 989.01868 1845.2006 5655615
1049.9866 977.69452 1824.0731 8287851
1061.7567 978.58282 1825.7306 5327685
1068.8826 975.21606 1819.4491 8486260
1088.1666 982.89844 1833.7821 8025706
1109.5986 992.35004 1851.4158 5656906
1122.2332 993.82562 1854.1688 7499110
1142.2904 1001.7824 1869.0137 6710108
1155.3357 1003.4959 1872.2106 6052179
1170.3643 1006.8832 1878.53 7039331
1195.5601 1018.8712 1900.896 6315865
1210.5847 1022.0485 1906.8237 3355438
1225.0509 1024.6997 1911.7703 3026216
1240.8301 1028.3906 1918.6564 5987415
1252.7262 1028.8256 1919.4678 7829619
1256.7992 1022.8856 1908.3856 5329484
1267.5088 1022.4047 1907.4885 657928
1268.2623 1013.9726 1891.7568 5262408
1283.8053 1017.4086 1898.1674 460036
1285.507 1009.9111 1884.1793 1709329
1288.2271 1003.3359 1871.9121 1643023
1296.0007 1000.7753 1867.1348 1116424
1305.5697 999.63275 1865.0031 1116420
1312.2412 996.30933 1858.8026 393216
1318.0194 992.36871 1851.4507 3550241
1331.9608 994.58862 1855.5924 2497301
1338.4318 991.23969 1849.3442 1379076
1347.3826 989.76678 1846.5963 1773571
1357.6365 989.26703 1845.6639 1641992
1370.3003 990.5174 1847.9967 2102792
1378.2083 988.33734 1843.9294 4208167
1377.1183 979.78973 1827.9822 4143145
1385.0179 977.72162 1824.1238 7104087
1402.5321 982.4201 1832.8896 7499361
1417.7828 985.47308 1838.5856 8551793
1433.9875 989.13751 1845.4222 7959400
1467.8391 1004.8269 1874.6937 4142893
1487.339 1010.5298 1885.3336 2893086
1503.002 1013.5602 1890.9874 2562840
1517.941 1016.0613 1895.6537 3484197
1527.8933 1015.212 1894.0693 4800829
1535.1514 1012.5982 1889.1925 6249817
1553.171 1017.0692 1897.5342 7631983
1561.7917 1015.3655 1894.3553 7434601
1578.5293 1018.9252 1900.9969 7434602
1594.7452 1022.1003 1906.9205 9079428
1607.6873 1023.1472 1908.8738 9473933
1632.3635 1031.5951 1924.635 6513506
1655.097 1038.7065 1937.9026 7960694
1636.0116 1019.6561 1902.3604 8487038
1652.3737 1022.808 1908.241 6644834
1662.1512 1021.8691 1906.4893 4275003
1675.1744 1022.9247 1908.4586 6051415
1677.5483 1017.5069 1898.3507 2366749
1671.4817 1007.0758 1878.8895 1445388
1656.5654 991.48608 1849.804 4800831
1663.853 989.30322 1845.7314 4339766
1672.2147 987.78357 1842.8961 5260868
1670.1969 980.19202 1828.7328 3681579
1670.5602 974.08673 1817.3422 4537401
1668.4688 966.63739 1803.4441 5393478
1672.6305 962.88275 1796.4391 6512730
1695.4082 969.82446 1809.3901 5130563
1705.8405 969.66132 1809.0858 8354422
1727.3827 975.77625 1820.4943 5261632
1734.9172 973.95142 1817.0897 7563873
0 0 0 0
0 0 0 0
0 0 0 0
0 0 0 0
0 0 0 0
0 0 0 0
0 0 0 0
0 0 0 0
0 0 0 0
0 0 0 0
0 0 0 0
0 0 0 0
-1519.5819 953.15924 1758.8578 1776659
-1505.7672 951.0152 1754.9014 788738
-1498.1703 952.79553 1758.1866 920324
-1492.8125 956.03497 1764.1643 2302231
-1488.0707 959.71716 1770.9591 4933691
-1475.7445 958.52557 1768.7603 4801849
-1476.892 966.13086 1782.7942 3814955
-1470.8094 969.08215 1788.2402 2236433
-1466.443 973.21503 1795.8666 1973261
-1444.0057 965.32788 1781.3125 2763035
-1432.376 964.60272 1779.9744 2039060
-1425.0253 966.76978 1783.9731 3420707
-1418.8481 969.7713 1789.512 4079406
-1420.9363 978.50983 1805.6371 5854791
-1409.3792 977.91302 1804.5359 1578762
-1398.3348 977.66571 1804.0793 1973262
-1371.5371 966.31543 1783.1349 2170640
-1347.9884 957.09589 1766.1219 2433557
-1348.2313 964.75665 1780.2584 2368024
-1327.9681 957.7489 1767.3271 2302227
-1293.9318 940.61743 1735.7146 4406573
-1328.457 973.45135 1796.3027 2104591
-1312.4561 969.49261 1788.9976 2104333
-1289.6316 960.38782 1772.1967 8289128
-1265.4429 950.10938 1753.2299 1842449
-1254.1792 949.44531 1752.0045 8224366
-1236.9379 944.20728 1742.3387 4803128
-1250.0856 962.27344 1775.6763 4276783
