# .PCD v0.7 - Point Cloud Data file format
VERSION 0.7
FIELDS x y z rgb
SIZE 4 4 4 4
TYPE F F F U
COUNT 1 1 1 1
WIDTH 1304
HEIGHT 1
VIEWPOINT 0 0 0 1 0 0 0
POINTS 1304
DATA ascii
0 0 0 0
0 0 0 0
0 0 0 0
0 0 0 0
0 0 0 0
0 0 0 0
0 0 0 0
0 0 0 0
0 0 0 0
-3956.9243 1129.2433 4487.6714 3748897
-3936.9241 1131.1356 4495.1914 5064756
-3982.7107 1152.0837 4578.4404 3090966
-3968.115 1155.7325 4592.9409 4801329
-4057.7837 1190.0089 4729.1572 4735793
-4061.2888 1199.3176 4766.1499 5656639
-3848.8425 1144.5383 4548.4546 4538159
-3780.8396 1132.2433 4499.5933 5722689
-3828.9866 1154.8036 4589.249 5985860
-3757.2168 1141.2617 4535.4331 7236184
-3771.719 1153.9187 4585.7329 5591616
-3633.4868 1119.693 4449.7178 5196859
-3651.5256 1133.4752 4504.4893 5460544
-3691.6116 1154.3545 4587.4644 5591873
-3642.4302 1147.4229 4559.9175 6052424
-3589.6301 1139.2391 4527.395 6776403
-3645.6555 1165.73 4632.6714 5131063
-3626.9172 1168.5352 4643.8193 4999478
-3620.8557 1175.4988 4671.4927 4867891
-3607.5312 1180.1935 4690.1499 4604721
-3525.8765 1162.4335 4619.5708 6117961
-3499.7993 1162.8622 4621.2744 5657410
-3438.2036 1151.403 4575.7349 6315339
-3415.1628 1152.7758 4581.1904 6907476
-3398.6245 1156.3831 4595.5259 6183754
-3280.2427 1125.1163 4471.2705 6579024
-3309.6704 1144.4518 4548.1108 6776403
-3296.4897 1149.2501 4567.1792 5394749
-3261.9326 1146.6138 4556.7021 6447695
-3210.9202 1138.1008 4522.8716 5855302
-3305.3945 1181.4458 4695.127 5328445
-3303.3752 1190.7443 4732.0791 3486497
-3274.6519 1190.4935 4731.083 4604978
-3224.6533 1182.4374 4699.0669 5197115
-3196.2 1182.2098 4698.1631 4735794
-3131.7671 1168.5532 4643.8911 4341037
-3187.5352 1199.9026 4768.4751 4341291
-3081.4126 1170.3264 4650.9375 4209447
-3029.0735 1160.8278 4613.1895 5130293
-2993.6194 1157.6858 4600.7031 5525050
-2982.0579 1163.8108 4625.0444 4340520
-2997.2021 1180.5685 4691.6401 4077605
-3023.4009 1202.0349 4776.9487 4209449
-2988.8699 1199.5341 4767.0103 5327675
-2963.176 1200.566 4771.1113 6249290
-2954.3767 1208.5288 4802.7559 6183755
-3042.6702 1256.7498 4994.3887 7499616
-2965.3347 1236.8344 4915.2437 6512977
-2920.4954 1230.2124 4888.9277 5394498
-2845.5002 1210.6279 4811.0981 4933948
-2715.9673 1167.2091 4638.5493 4539188
-2510.7559 1090.0468 4331.9019 5723461
0 0 0 0
-2574.9875 1141.2633 4535.4395 6644304
-2621.3179 1174.0482 4665.7285 5986887
-2694.7029 1219.7783 4847.4619 5066303
-2664.3403 1219.0256 4844.4707 4803136
-2817.8145 1303.2839 5179.3179 2
0 0 0 0
-2458.4983 1162.4097 4619.4761 6184786
-2499.6042 1195.1489 4749.5835 5986893
-2446.3945 1183.0245 4701.4009 4012845
-2538.3818 1241.6438 4934.3564 4143919
-2484.9937 1229.6903 4886.853 4999228
-2505.7417 1254.5736 4985.7402 5460292
-2465.8677 1249.3361 4964.9263 4802362
-2428.905 1245.4651 4949.5425 7368032
-2440.4553 1266.6793 5033.8491 6184015
-2320.5959 1219.3685 4845.8335 5855050
-2311.8013 1229.963 4887.9365 6447186
-2292.1831 1234.9948 4907.9331 6315599
-2294.1812 1251.9519 4975.3218 5131068
-2264.5559 1251.8689 4974.9917 5723205
-2211.6824 1238.7623 4922.9053 6118474
-2163.7798 1228.1267 4880.6392 3157536
-2132.2756 1226.6367 4874.7178 5394498
-2127.8943 1240.9231 4931.4922 5394497
-2075.8052 1227.3981 4877.7432 5460289
-2045.4274 1226.51 4874.2139 4539188
-2026.6041 1232.6243 4898.5122 4736566
-1978.8914 1221.0897 4852.6733 5394499
-1917.6609 1200.7507 4771.8457 5526085
-1902.2765 1208.9396 4804.3882 5920843
-1841.5361 1188.1145 4721.6284 5855050
-1813.8533 1188.304 4722.3813 4604984
-1797.1008 1195.7723 4752.061 5394500
-1786.005 1207.302 4797.8809 4539192
-1721.047 1182.2063 4698.1489 5262914
-1682.4043 1174.6589 4668.1553 4670778
-1663.0103 1180.5232 4691.4604 3354661
-1631.4777 1177.8237 4680.7324 4802363
-1579.968 1160.3593 4611.3276 4144176
-1554.3912 1161.6609 4616.5005 5459780
-1534.974 1167.6951 4640.4805 4276018
-1520.7861 1177.9998 4681.4321 5131075
-1482.6462 1169.7896 4648.8042 5328968
-1454.239 1169.0928 4646.0352 6118484
-1369.4629 1122.1788 4459.5967 6316119
-1365.4631 1140.9119 4534.0425 6250325
-1355.8583 1155.6193 4592.4907 5197381
-1343.988 1168.9586 4645.502 4604986
-1316.3258 1168.8331 4645.0034 2828319
-1292.7744 1172.4305 4659.2998 3486249
-1282.1447 1188.1594 4721.8071 4736316
-1246.0768 1180.4907 4691.3311 4341301
-1201.813 1164.5304 4627.9038 5657671
-1148.1525 1138.5071 4524.4858 5723721
-1114.0845 1131.132 4495.1768 3091744
-1079.5454 1122.9058 4462.4854 5788745
-1038.9331 1107.7906 4402.4175 5328194
-1025.7347 1121.8807 4458.4121 6644310
-998.24414 1120.6707 4453.603 6184016
-976.52338 1126.0481 4474.9731 5262658
-958.46863 1136.071 4514.8047 4933949
-935.79919 1141.0425 4534.562 4407605
-892.54004 1120.4603 4452.7671 4605240
-890.85925 1152.41 4579.7368 4802363
-865.0061 1154.1156 4586.5146 5131328
-829.25226 1142.2935 4539.5332 5526086
-798.74585 1137.1495 4519.0908 6315346
-766.12744 1128.5376 4484.8667 4539190
-732.36139 1117.5559 4441.2246 5262913
-707.20203 1119.3783 4448.4673 4539191
-673.19128 1106.7896 4398.4385 5065533
-648.7981 1109.6357 4409.7495 4012589
-620.42249 1105.6238 4393.8062 3420452
-593.43506 1103.8428 4386.728 3223074
-570.11591 1109.0342 4407.3594 3091745
-554.21802 1129.8536 4490.0967 5591624
-530.98535 1137.0652 4518.7559 3749421
-501.20633 1130.2799 4491.7905 5459782
-476.80829 1135.5487 4512.729 4473145
-447.50452 1129.0662 4486.9673 3880752
-427.77554 1147.448 4560.0176 3026213
-392.65854 1124.2493 4467.8247 4079159
-361.14508 1108.7603 4406.2705 5789777
-347.87039 1151.2157 4574.9907 8882051
-311.41959 1117.6681 4441.6704 9803154
-287.46487 1126.9148 4478.4175 1249548
-262.7641 1134.8198 4509.8325 3288360
-230.57506 1108.5137 4405.2905 2959136
-204.18237 1106.9158 4398.9404 4012335
-178.25696 1107.7542 4402.272 4473142
-152.18924 1107.8439 4402.6289 4604220
-126.6328 1112.4625 4420.9834 5526091
-100.51618 1113.2853 4424.2529 4671040
-74.805611 1120.772 4454.0059 6579294
-49.251774 1140.0468 4530.605 6315866
-22.800306 1159.8278 4609.2153 4342077
4.4631767 1148.8743 4565.6855 5000007
30.921003 1127.3514 4480.1528 4736835
57.27063 1123.5883 4465.1978 4605248
84.254318 1130.7124 4493.5093 5000007
109.48458 1116.5339 4437.1636 5921109
137.54332 1131.1061 4495.0737 5723729
161.32555 1111.4868 4417.106 5328971
184.9624 1096.4823 4357.4771 4868420
211.33325 1099.3755 4368.9751 4407869
247.83043 1148.5677 4564.4673 5657937
271.1022 1132.818 4501.8774 6117459
302.41647 1150.4857 4572.0898 2499613
322.33313 1125.453 4472.6084 3946804
349.6756 1128.1816 4483.4521 4275768
379.68765 1138.53 4524.5771 5328457
407.2048 1140.5258 4532.5083 4670526
430.53564 1131.2747 4495.7437 5130821
456.99551 1130.8441 4494.0332 5262407
485.60971 1135.4987 4512.5303 4143926
502.4577 1113.5901 4425.4644 2630430
538.06519 1133.3691 4504.0674 1907220
563.75342 1131.3723 4496.1323 4933696
582.24896 1115.7726 4434.1377 5525577
618.112 1133.3645 4504.0488 5131076
644.45184 1132.7611 4501.6514 3222823
669.0874 1129.3293 4488.0132 2433563
701.25665 1138.3896 4524.0195 3683631
725.55542 1134.4767 4508.4692 3946804
737.47919 1112.1792 4419.8574 1710101
767.37518 1117.5848 4441.3398 3683375
786.59875 1107.6045 4401.6772 5131078
815.35376 1111.2548 4416.1841 3815216
846.04254 1117.2321 4439.938 4472886
857.86694 1098.6887 4366.2456 3617577
885.86475 1101.3383 4376.7754 3157027
914.63354 1104.7684 4390.4067 6578261
930.08075 1092.3629 4341.1064 7236452
956.69055 1093.3824 4345.1582 4736316
983.55206 1094.6288 4350.1113 4472631
1013.8432 1099.5309 4369.5923 1971983
1006.9936 1064.912 4232.0151 3945774
1059.2444 1092.9563 4343.4648 3748135
1077.9106 1085.839 4315.1802 3287841
1103.8131 1086.172 4316.5034 4603701
1111.6653 1069.1301 4248.7783 4142893
1135.679 1068.042 4244.4541 4736057
1186.645 1091.7992 4338.8662 4538422
1209.8151 1089.5167 4329.7959 5065280
1229.3135 1084.0913 4308.2349 7170659
1237.3759 1069.0066 4248.2871 3092009
0 0 0 0
1057.9348 878.25513 3490.2314 4
1093.6339 890.48694 3538.8411 8
1113.1837 889.35632 3534.3479 9
1120.6259 878.77295 3492.2893 10
1128.9835 869.27808 3454.5562 11
1127.2905 852.52051 3387.9607 11
1140.637 847.52405 3368.1045 11
1153.141 842.08417 3346.4858 11
1164.8616 836.26556 3323.3625 11
1178.2147 831.79309 3305.5889 11
1191.8358 827.65289 3289.1355 12
1209.0299 826.08728 3282.9133 12
1212.2635 815.18335 3239.5808 10
1215.8749 804.86957 3198.593 5
1239.2341 807.74408 3210.0166 6053472
1268.9923 814.63953 3237.4194 7105383
1290.3016 815.98663 3242.7729 7104867
1319.9757 822.50641 3268.6831 7894128
1324.4166 813.34174 3232.262 657414
1395.7314 844.92108 3357.76 4275000
1696.0765 1012.3106 4022.9746 4867394
1770.2263 1041.9263 4140.6689 6249047
1802.4371 1046.3851 4158.3887 6446937
1831.0061 1048.6381 4167.3418 4802113
1924.1715 1087.3339 4321.1211 3552046
1920.2515 1070.8717 4255.6997 5262148
1952.8218 1074.9222 4271.7964 3551531
1936.6198 1052.3661 4182.1572 3551531
1955.8364 1049.3833 4170.3032 2696222
1957.8401 1037.3546 4122.501 3156773
1988.764 1040.7568 4136.0215 5656907
2008.8296 1038.4631 4126.9058 5525321
2016.7269 1030.0096 4093.3118 1906450
2047.834 1033.4703 4107.0645 2432279
2068.2476 1031.5165 4099.2998 2761499
2110.3245 1040.2869 4134.1538 4998459
2077.9429 1012.5728 4024.0168 5458754
2142.5378 1032.2078 4102.0469 4011050
2111.2573 1005.7303 3996.8242 5261630
2170.9304 1022.6871 4064.2112 4340529
2166.8826 1009.583 4012.1353 4208686
2203.8796 1015.6793 4036.3623 3221535
2238.1396 1020.397 4055.1106 2958878
2253.7668 1016.6098 4040.0601 4472117
2308.2366 1030.2386 4094.2219 3419429
2342.5408 1034.6774 4111.8613 3353636
2312.8171 1011.0352 4017.906 3485222
2402.9319 1039.7277 4131.9316 2958878
2346.0864 1004.8943 3993.5022 6051149
2383.4902 1010.7231 4016.6658 4011307
2473.1941 1038.3953 4126.6367 2827033
2435.3413 1012.4941 4023.7039 3024412
2475.5676 1019.2418 4050.5195 3682342
2522.0662 1028.4175 4086.9844 4472114
2547.4072 1028.8735 4088.7964 3551014
2550.3618 1020.3643 4054.9805 3287841
2560.1321 1014.7153 4032.5312 4472115
2582.3545 1014.0606 4029.9294 3814186
2574.2314 1001.6108 3980.4529 2235154
2600.7356 1002.7378 3984.9319 2827292
2656.8152 1015.145 4034.2388 3156257
2675.3003 1013.0945 4026.0901 4669497
2701.8042 1014.0901 4030.0469 3946288
2698.1348 1003.8423 3989.321 6117713
2801.5745 1033.2764 4106.2935 2366740
2786.5801 1018.8989 4049.1567 3156258
2783.1926 1008.9745 4009.7168 4340533
2775.7551 997.76233 3965.1592 3221795
2814.5669 1003.2234 3986.8618 3222051
2816.9048 995.70117 3956.9678 3748655
2846.9668 998.02179 3966.1904 4341048
2884.2136 1002.8026 3985.1892 4603193
2981.9998 1028.3834 4086.8491 4077876
2935.3066 1004.1281 3990.457 4011567
2966.8076 1006.7956 4001.0579 4932670
2979.6235 1003.1302 3986.4915 3025444
3117.28 1041.2213 4137.8672 5196101
3181.592 1054.4108 4190.2832 4801598
3179.8782 1045.684 4155.6021 2893602
3240.033 1057.28 4201.6855 2038295
3289.363 1065.1938 4233.1353 2893601
3253.103 1045.4811 4154.7959 2038035
3301.6536 1053.1161 4185.1377 3288102
3301.5166 1045.2231 4153.771 3617066
3323.2776 1044.3287 4150.2163 1972240
3328.489 1038.2848 4126.1973 2432535
3344.3564 1035.6287 4115.6421 2893086
3285.5667 1010.0598 4014.0298 2761242
3339.3186 1019.2076 4050.3838 3814187
3360.5969 1018.3842 4047.1116 3747881
3402.6782 1023.832 4068.7612 3616295
3406.1467 1017.6666 4044.2595 3550502
3451.9297 1024.1414 4069.9907 2431508
3522.7205 1037.8944 4124.646 3550245
3543.9895 1036.9679 4120.9644 1905420
3525.8008 1024.5878 4071.7649 2102286
3455.8188 997.42725 3963.8276 2234129
3487.884 999.88776 3973.6057 2168590
3521.1313 1002.6518 3984.5898 2694677
3521.2715 996.0144 3958.2126 2629399
3544.719 996.01385 3958.2107 2629400
3561.2131 994.07239 3950.4951 4011054
3564.627 988.52899 3928.4651 3945773
3620.8411 997.60474 3964.5327 4011569
3577.4788 979.30542 3891.8103 4866877
3602.4612 979.82935 3893.8926 2630172
3664.2324 990.28912 3935.4602 2498329
3685.0583 989.62079 3932.8042 1709071
3742.6958 998.78448 3969.2212 2170138
3754.5854 995.70166 3956.9697 2498329
3799.0889 1001.2524 3979.0286 1774095
0 0 0 0
0 0 0 0
0 0 0 0
0 0 0 0
0 0 0 0
0 0 0 0
0 0 0 0
0 0 0 0
0 0 0 0
-3843.2563 1122.6266 4358.7568 4736305
-3836.4863 1128.2295 4380.5112 5393978
-3822.4729 1131.764 4394.2344 5788480
-3778.1653 1126.3159 4373.0815 5591357
-3753.0999 1126.5686 4374.0625 6183495
-3829.5183 1157.499 4494.1543 6183495
-3834.5203 1167.1252 4531.5293 4538672
-3409.8635 1045.1886 4058.0928 5591616
-3636.4077 1122.5431 4358.4331 6512462
-3734.7305 1161.1395 4508.2891 7499613
-3597.0603 1126.3927 4373.3794 6907476
-3608.2278 1138.087 4418.7847 7170648
-3467.1182 1101.571 4277.0059 6052166
-3465.4106 1109.1342 4306.3706 5460028
-3467.9292 1118.172 4341.4614 4669998
-3434.0222 1115.5126 4331.1357 4143911
-3460.6221 1132.6161 4397.5425 3618081
-3452.5088 1138.5317 4420.5107 5921094
-3462.1741 1150.4454 4466.7676 6907990
-3448.061 1154.5806 4482.8228 5920838
-3431.7725 1158.0457 4496.2764 5394239
-3435.8555 1168.493 4536.8403 5854789
-3379.135 1158.2638 4497.1235 6381389
-3289.0623 1136.349 4412.0361 7631713
-3206.7073 1116.7708 4336.021 6184524
-3197.0549 1122.4003 4357.8784 6249803
-3148.8306 1114.4696 4327.0864 5921095
-3172.0881 1131.9161 4394.8247 5394494
-3107.5981 1118.0807 4341.1069 5657152
-3165.2383 1148.3223 4458.5239 4867893
-3190.9224 1167.3817 4532.5254 5130810
-3197.0684 1179.5562 4579.7944 4604722
-3112.8972 1158.3315 4497.3867 4209964
-3152.2354 1183.0957 4593.5371 2959383
-3050.0903 1154.7274 4483.3931 2498576
-2994.8303 1143.7667 4440.8369 3222040
-2989.4209 1151.8191 4472.1011 3616798
-2954.8196 1148.6674 4459.8643 3945763
-2909.6829 1141.3262 4431.3608 4340520
-2896.5076 1146.5024 4451.4585 5524794
-2881.821 1151.17 4469.5811 5722173
-2793.7383 1126.3335 4373.1499 5919552
-2869.8845 1167.863 4534.394 4274728
-2853.052 1171.9833 4550.3916 4998450
-2854.1765 1183.6289 4595.6074 4801074
-2839.897 1189.0493 4616.6528 6511949
-2825.7456 1194.6293 4638.3179 5197118
-2786.0425 1189.4104 4618.0547 5657412
-2781.2708 1199.1487 4655.8647 4802103
-2711.2898 1180.6853 4584.1782 3946793
-2629.6899 1156.7375 4491.1978 3486242
-2613.3337 1161.2927 4508.8838 4933689
-2608.9324 1171.3091 4547.7739 5394238
-2556.7583 1159.8627 4503.3315 6446926
-2575.7859 1180.8158 4584.6851 6315597
-2529.9524 1172.1644 4551.0947 4145202
-2524.4153 1182.1976 4590.0503 2763559
0 0 0 0
0 0 0 0
0 0 0 0
-2425.5969 1187.068 4608.96 5526597
-2397.5071 1186.6793 4607.4507 4802104
-2361.2981 1182.2167 4590.124 5130557
-2331.0283 1180.6582 4584.0732 4012076
-2364.7021 1211.832 4705.1099 3683113
-2303.1201 1194.3519 4637.2407 4143920
-2293.9165 1203.9398 4674.4673 4932922
-2275.9189 1209.0903 4694.4648 2170647
-2204.2458 1185.5002 4602.873 4341041
-2185.6169 1190.2051 4621.1401 5131069
-2175.6724 1199.8182 4658.4648 5657668
-2127.2373 1188.1796 4613.2759 6118220
-2007.5596 1135.927 4410.3979 5855049
-2060.4575 1181.2316 4586.2993 6118223
-2019.1738 1173.0325 4554.4648 5591878
-1985.2373 1168.9373 4538.5649 5328706
-1979.6357 1181.6428 4587.896 5394243
-1960.9564 1186.7874 4607.8706 4604470
-1887.9105 1158.7096 4498.8545 4275505
-1830.5837 1139.6133 4424.7104 4670263
-1865.3439 1178.123 4574.23 4473141
-1790.5159 1147.5337 4455.4624 5196607
-1773.121 1153.3882 4478.1934 5065021
-1766.5389 1166.5609 4529.3384 4999228
-1751.1593 1174.241 4559.1572 4999741
-1707.6639 1163.0131 4515.5635 5920844
-1681.3167 1163.2926 4516.6489 5394499
-1616.3558 1136.4327 4412.3613 6052429
-1604.6267 1146.7311 4452.3462 5723465
-1557.8752 1131.9271 4394.8677 5723465
-1540.6227 1138.4176 4420.0679 4999742
-1468.5381 1103.9149 4286.106 5197121
-1483.2997 1134.6296 4405.3608 5328194
-1493.4075 1162.821 4514.8179 4802105
-1468.4415 1164.233 4520.2998 4144176
-1435.9185 1159.5945 4502.2905 4275248
-1382.4354 1137.5337 4416.6357 5393988
-1345.5153 1128.5131 4381.6123 5789259
-1322.3585 1130.9086 4390.9131 6447446
-1291.873 1127.0067 4375.7632 6578776
-1274.5626 1134.674 4405.5327 6842205
-1239.3577 1126.3983 4373.4014 6184790
-1265.3252 1174.5533 4560.3701 7500393
-1203.4458 1141.4855 4431.9795 5658446
-1170.0197 1134.5328 4404.9849 5131332
-1157.5895 1148.0867 4457.6094 5591623
-1123.8474 1140.6429 4428.708 5460038
-1088.3323 1131.0006 4391.2705 3815213
-1055.0424 1123.2552 4361.1978 5262401
-1031.2385 1125.4739 4369.812 4472885
-997.61389 1116.8125 4336.1831 5592136
-962.284 1105.734 4293.1689 7236704
-929.18506 1096.687 4258.043 5591625
-921.41382 1117.8627 4340.2603 5394503
-912.37793 1138.6758 4421.0703 5262658
-884.58502 1136.6179 4413.0806 4933950
-852.40839 1128.6307 4382.0688 4407606
-828.84241 1131.9004 4394.7642 4473144
-799.25189 1126.8883 4375.3037 4933695
-763.73456 1112.9037 4321.0063 5657416
-748.69556 1128.8247 4382.8218 5657161
-713.89215 1115.0198 4329.2222 4604727
-686.5481 1112.2708 4318.5493 5789257
-657.96985 1107.2322 4298.9858 5262913
-630.21472 1103.2286 4283.4419 5394243
-609.96039 1112.5709 4319.7144 4736569
-584.74823 1113.292 4322.5142 4604984
-553.57336 1102.207 4279.4751 3881261
-536.77802 1120.0629 4348.8032 4867644
-512.4494 1123.2075 4361.0127 4209714
-480.45383 1108.989 4305.8071 3880749
-463.29208 1129.3356 4384.8057 4209715
-439.58551 1135.1976 4407.5659 5920591
-404.23605 1109.8346 4309.0903 4802623
-379.77054 1112.9482 4321.1797 6775644
-361.1579 1134.9044 4406.4272 5788748
-334.88556 1134.3364 4404.2222 5065542
-307.2438 1128.642 4382.1128 4604991
-278.96234 1119.3296 4345.9561 6578524
-251.87167 1113.3876 4322.8853 4669757
-221.70468 1090.9623 4235.8159 3617582
-194.33499 1078.3345 4186.7866 6117458
-173.04007 1100.6512 4273.4346 5064768
-150.38596 1120.4902 4350.4624 3617321
-125.17866 1125.578 4370.2163 3420713
-99.307434 1125.7926 4371.0493 6776160
-73.650261 1129.4409 4385.2148 3947318
-47.071835 1115.2394 4330.0752 6315866
-21.566757 1122.9071 4359.8462 7105383
4.2858505 1129.2019 4384.2866 4473663
30.181705 1126.3042 4373.0356 8684414
54.749443 1099.4137 4268.6294 6053207
83.380775 1145.3339 4446.9209 6447709
107.64153 1123.5826 4362.4692 5855316
132.5249 1115.4946 4331.0664 4868421
159.358 1123.7797 4363.2344 6052695
185.4328 1125.1511 4368.5591 5657937
210.84413 1122.6539 4358.8633 4671042
236.93224 1123.9119 4363.7476 5592144
263.51593 1127.0421 4375.9009 6184281
290.16159 1129.8528 4386.814 5263691
312.4921 1116.7799 4336.0566 4408383
339.1506 1119.9857 4348.5034 2762789
368.85617 1132.0907 4395.5029 4341563
396.55191 1136.8375 4413.9331 5130821
420.21634 1130.155 4387.9873 4736062
445.72522 1128.9227 4383.2026 4736062
471.07889 1127.4546 4377.5024 3486254
497.33203 1128.1802 4380.3193 5262663
515.17645 1110.7047 4312.4688 4604734
545.18262 1119.8622 4348.0239 4473404
573.12604 1124.1473 4364.6616 5196870
595.74384 1118.0677 4341.0566 5723214
625.81018 1125.8918 4371.4351 3815216
653.43768 1128.8809 4383.04 4473146
682.80627 1134.5344 4404.9907 3617838
699.73901 1119.869 4348.0508 4670784
720.75354 1112.5459 4319.6172 3354924
747.45782 1114.2063 4326.064 4604734
777.48425 1120.5447 4350.6738 3618096
800.99316 1117.3843 4338.4033 4209719
831.21265 1123.4907 4362.1123 2893601
840.17096 1101.3583 4276.1797 3551786
859.79639 1094.0952 4247.98 4012338
875.26178 1082.1022 4201.415 3617578
906.70349 1089.9779 4231.9941 3420199
927.50122 1084.9789 4212.5845 5393988
936.77051 1067.1093 4143.2031 4406581
1005.3358 1115.9738 4332.9263 2038031
1011.7869 1095.1716 4252.1592 3156254
1024.2841 1081.7657 4200.1089 5064252
1055.4611 1088.256 4225.3081 3155999
1074.5878 1082.3085 4202.2163 2366739
1090.235 1073.2053 4166.8721 3222048
1117.9177 1076.0905 4178.0737 4471858
1144.3197 1077.6444 4184.1074 4012336
1170.5962 1079.0168 4189.436 3485738
1187.9152 1072.2469 4163.1509 3485996
1170.4237 1034.9706 4018.4202 4867909
0 0 0 0
1070.5416 909.6441 3531.8225 4
1083.6974 903.17059 3506.688 7
1105.3202 903.86432 3509.3813 8
1113.7324 893.92908 3470.8066 11
1114.4858 878.3183 3410.1953 11
1124.8955 870.73779 3380.7629 11
1137.8741 865.37628 3359.9463 11
1149.113 858.89874 3334.7964 11
1159.5438 852.04639 3308.1912 11
1175.3497 849.30597 3297.5508 11
1190.2227 845.99188 3284.6836 11
1205.7299 843.22797 3273.9524 11
1209.2615 832.30914 3231.5586 8
1208.7488 818.99042 3179.8464 328967
1228.892 819.86108 3183.2271 7236714
1266.3527 832.08423 3230.6853 7235683
1290.8788 835.57111 3244.2234 7564648
1320.7587 842.37018 3270.6218 2104347
1336.4021 840.02411 3261.5127 1511951
1442.5826 893.84283 3470.4717 2762019
1683.7108 1028.5894 3993.644 2301467
1705.9258 1027.7192 3990.2659 3025187
1737.6753 1032.5385 4008.9773 3288358
1788.2456 1048.2604 4070.0195 4012081
1811.7439 1047.9055 4068.6418 3748910
1838.7639 1049.5703 4075.1055 4604475
1876.6122 1057.2924 4105.0879 4144182
1884.9062 1048.3793 4070.4812 3288617
1902.9034 1045.0198 4057.4377 3683375
1888.1438 1023.9796 3975.7458 4801855
1953.8026 1046.5328 4063.3123 1907222
1988.2441 1052.0197 4084.6155 3617324
2013.2471 1052.4403 4086.2488 4143668
2011.6323 1039.1017 4034.4597 3814446
2042.8534 1042.8384 4048.9683 2498586
2082.5181 1050.7488 4079.6812 2037779
2074.7754 1034.8323 4017.8831 1774863
2065.4983 1018.5202 3954.5491 1511176
2101.8511 1024.8221 3979.0173 4274736
2126.3484 1025.2681 3980.7488 5196094
2152.7454 1026.6101 3985.9592 3748647
2174.9456 1025.9434 3983.3706 3551271
2202.7544 1027.9081 3990.9988 2695705
2214.27 1022.3087 3969.2585 3353636
2248.0125 1026.981 3987.3997 4866875
2273.5215 1027.834 3990.7114 4801082
2306.1506 1031.8553 4006.3247 2827292
2304.8899 1020.7855 3963.3445 3551016
2321.8606 1017.9318 3952.2649 3813930
2325.0596 1009.1578 3918.1982 3945001
2379.5098 1022.5821 3970.3201 2432019
2398.803 1020.7831 3963.335 1839626
2445.135 1030.4132 4000.7258 2431505
2466.7903 1029.5593 3997.4104 3024155
2484.9817 1027.2897 3988.5981 1840138
2471.1282 1011.9402 3929.0017 3748135
2520.6721 1022.5967 3970.3767 3221535
2537.8877 1020.0621 3960.5359 3550757
2553.3696 1016.8836 3948.1951 3945770
2560.3728 1010.4167 3923.0867 5656389
2562.2891 1002.0768 3890.7056 4340530
2538.1848 983.80005 3819.7434 4998460
2603.3181 1000.1292 3883.1436 4143154
2670.2126 1016.8429 3948.0369 3682603
2666.5967 1006.6485 3908.4556 2498329
2740.6592 1025.7008 3982.429 3946030
2714.2522 1007.148 3910.395 3748394
2734.0059 1005.8925 3905.5205 3024414
2765.0894 1008.7916 3916.7766 3419429
2764.0701 1000.0278 3882.7498 3616294
2767.8989 993.14819 3856.0388 3287587
2769.6345 985.63623 3826.8726 3222050
2761.2808 974.68488 3784.3525 3353636
2809.8066 983.82587 3819.8435 4932412
2849.728 989.83203 3843.1633 4340531
2912.9377 1003.7679 3897.2715 4011567
2990.5867 1022.421 3969.6948 4932413
2995.2585 1016.0284 3944.8745 4274740
3063.5391 1031.1447 4003.5652 4735804
3145.0059 1050.4327 4078.4541 5722443
3117.7617 1033.394 4012.2993 3946032
3141.2966 1033.3168 4011.999 3814446
3211.7039 1048.5433 4071.1184 2564122
3196.8403 1035.9116 4022.0737 2695707
3246.4575 1044.2067 4054.2808 2432279
3226.4961 1030.1647 3999.7607 2169106
3258.126 1032.6796 4009.5249 1839884
3248.99 1022.3306 3969.3435 1971470
3321.2871 1037.5699 4028.5127 1905676
3329.4465 1032.6982 4009.5977 1971472
3290.5278 1013.3967 3934.6567 4734776
3371.8853 1031.1482 4003.5791 1445128
3375.9749 1025.1875 3980.436 3813674
3404.6721 1026.7305 3986.4268 2103057
3398.8838 1017.9241 3952.2349 2432023
3419.7112 1017.1547 3949.2476 656900
3371.9363 996.12946 3867.6143 787200
3379.6074 991.65735 3850.2505 721665
3433.2725 1000.6503 3885.1667 2366231
3482.2566 1008.1683 3914.3564 1905677
3485.322 1002.3806 3891.8848 2234642
3515.9172 1004.5345 3900.2478 3418917
3481.4241 988.1853 3836.7698 3221537
3503.9399 988.12494 3836.5352 3616295
3510.8699 983.6983 3819.3484 3353638
3550.1284 988.32855 3837.3259 3287845
3595.2964 994.53448 3861.4211 3156259
3679.2478 1011.3224 3926.6028 3879982
3728.8752 1018.5241 3954.5642 3551017
3657.3813 992.75861 3854.5261 2695707
3687.4302 994.70453 3862.0815 3221798
0 0 0 0
0 0 0 0
0 0 0 0
0 0 0 0
0 0 0 0
0 0 0 0
0 0 0 0
0 0 0 0
0 0 0 0
-3683.6709 1100.7612 4177.7661 4604205
-3690.9121 1110.3856 4214.2939 4801327
-3654.1851 1106.8232 4200.7739 5525821
-3617.1843 1103.129 4186.7524 5920065
-3592.376 1103.1274 4186.7466 6117700
-3751.2905 1159.9346 4402.3491 6051651
-3655.0588 1138.0913 4319.4468 6051650
-3707.1624 1162.4535 4411.9092 5722686
-3541.4666 1118.3813 4244.6406 5327416
-3586.8291 1140.807 4329.7534 4341290
-3531.3018 1131.2361 4293.4287 5590843
-3490.1201 1126.1553 4274.145 5656635
-3391.9956 1102.4921 4184.3354 5195828
-3288.9656 1076.8743 4087.1072 4537897
-3357.3298 1107.4108 4203.0034 4208934
-3323.4509 1104.4268 4191.6782 3419930
-3311.0696 1108.5957 4207.5005 4735279
-3326.5234 1122.218 4259.2021 5459514
-3304.8252 1123.4193 4263.7617 6380360
-3329.5044 1140.5259 4328.687 5788737
-3340.1902 1153.0674 4376.2861 6117961
-3275.1628 1139.4639 4324.6558 6446926
-3262.5491 1144.0245 4341.9653 6578512
-3182.5559 1124.8431 4269.165 5920582
-3136.8601 1117.5737 4241.5752 5262651
-3182.7036 1143.063 4338.3159 6446155
-3084.3765 1116.7672 4238.5142 5327675
-3068.5559 1120.1582 4251.3843 4932660
-3057.7021 1125.4335 4271.4058 5196343
-2995.1443 1111.6075 4218.9316 5656894
-3072.1311 1149.7747 4363.7891 4801585
-3028.2781 1142.9805 4338.0029 4669999
-2898.4407 1103.3386 4187.5483 3682848
-2954.9631 1134.5658 4306.0659 3814436
-2963.4727 1147.7413 4356.0718 3484958
-2914.5691 1138.7174 4321.8228 3024663
-2916.8735 1149.7175 4363.5723 2695954
-2885.8142 1147.6461 4355.7104 2761488
-2874.7983 1153.5803 4378.2329 4472106
-2814.4258 1139.6367 4325.312 5590331
-2720.5017 1111.7262 4219.3818 5524794
-2630.1833 1084.785 4117.1309 6051137
-2741.0713 1141.1011 4330.8701 4998449
-2766.2576 1162.4673 4411.9614 4340520
-2765.0847 1173.0582 4452.1577 4867378
-2790.6006 1195.2845 4536.5146 6117191
-2711.2031 1172.5692 4450.3022 6117448
-2694.5015 1176.7894 4466.3193 6512718
-2650.2847 1168.9573 4436.5933 6578514
-2631.6211 1172.3517 4449.4766 4999739
-2573.9492 1158.2614 4395.999 4078637
-2552.8782 1160.5216 4404.5771 6578258
-2503.4365 1149.7982 4363.8784 4407346
-2487.3066 1154.3103 4381.0034 4407090
-2444.4382 1146.3779 4350.8975 5131328
-2435.8203 1154.5103 4381.7622 5920850
0 0 0 0
0 0 0 0
-2033.7622 995.78217 3779.3347 986644
-2313.2136 1145.2164 4346.4888 5460809
-2309.6677 1156.3326 4388.6787 4736569
-2331.5654 1180.5853 4480.7261 5262396
-2282.2737 1168.9349 4436.5088 4406061
-2270.502 1176.4537 4465.0454 4011818
-2247.0493 1178.0262 4471.0132 3946026
-2197.5229 1165.8037 4424.625 4011819
-2190.8308 1176.2844 4464.4028 3946283
-2087.3831 1134.4373 4305.5781 3091231
-2056.5762 1131.5212 4294.5112 4209713
-2070.4844 1153.4429 4377.7109 2630684
-2055.9812 1159.8918 4402.187 4406832
-1962.5316 1121.3964 4256.0835 4538418
-1963.3151 1136.4447 4313.1973 5525055
-1977.8281 1159.942 4402.3774 4998456
-1892.3215 1124.6246 4268.3359 4670260
-1873.1505 1128.3083 4282.3169 5196349
-1903.5835 1162.3829 4411.6416 4538420
-1885.0812 1167.1089 4429.5781 4670263
-1832.3148 1150.4551 4366.3711 4736056
-1781.9619 1134.861 4307.1865 5460292
-1733.3254 1119.9231 4250.4922 5855050
-1719.9609 1127.6704 4279.8955 5262654
-1703.5912 1133.6495 4302.5889 4736568
-1679.7642 1134.7727 4306.8516 4867896
-1648.5759 1130.8809 4292.0806 4670259
-1646.64 1147.2477 4354.1982 2893850
-1590.6062 1125.8447 4272.9663 5986123
-1586.0319 1140.7618 4329.582 6644053
-1555.993 1137.5529 4317.4028 5131328
-1502.7385 1116.9803 4239.3232 5591622
-1476.0663 1115.803 4234.855 5591878
-1477.0131 1135.824 4310.8413 4341298
-1436.3982 1124.0261 4266.0645 4802105
-1427.3289 1136.9332 4315.0513 4933946
-1427.8412 1158.0825 4395.3198 4933435
-1383.9498 1143.3339 4339.3438 4078382
-1364.2977 1148.4309 4358.689 4867643
-1321.6464 1133.991 4303.8843 5460037
-1272.1792 1113.0198 4224.2915 5591622
-1262.6898 1126.8853 4276.9155 4539191
-1222.6201 1113.4681 4225.9932 5591879
-1172.3236 1089.9816 4136.8535 6315347
-1161.9126 1103.3679 4187.6597 6644313
-1116.4142 1083.292 4111.4644 6710875
-1094.658 1085.8723 4121.2573 5657932
-1087.811 1103.697 4188.9087 6316374
-1065.4819 1106.2793 4198.709 5921358
-1069.504 1136.999 4315.3013 5855052
-1043.9443 1137.0046 4315.3223 5328707
-1022.2132 1141.285 4331.5679 5723465
-973.83405 1115.2676 4232.8228 5262913
-916.46936 1077.3125 4088.77 6052430
-909.62402 1098.2942 4168.4033 5723210
-897.87848 1114.3655 4229.3989 5722955
-880.57587 1124.2644 4266.9688 6578521
-841.87476 1106.6206 4200.0049 6052177
-828.06018 1121.6113 4256.8994 6249556
-800.72034 1118.6481 4245.6528 5854539
-770.72052 1111.656 4219.1157 5459779
-731.5943 1090.5906 4139.165 3748648
-717.91632 1107.3154 4202.6416 4011819
-686.34106 1096.6455 4162.1455 3287582
-680.33795 1127.5624 4279.4858 4471599
-641.12256 1103.6976 4188.9106 4274991
-615.6886 1102.5911 4184.7109 5130557
-591.98029 1104.6117 4192.3799 5197121
-562.46692 1095.5028 4157.8086 5065535
-546.4118 1112.9724 4224.1118 5855308
-515.01141 1099.3624 4172.457 5855051
-503.49509 1128.9652 4284.8101 4802363
-472.01154 1114.5629 4230.1479 3946543
-441.16782 1100.1409 4175.4116 4209715
-422.8472 1117.0894 4239.7373 5787719
-395.14828 1109.8381 4212.2163 4670008
-371.4054 1113.4695 4225.998 4538680
-351.46237 1129.8409 4288.1338 6051921
-322.95206 1119.0767 4247.2793 3881010
-293.60397 1103.3451 4187.5728 4275767
-268.05621 1100.309 4176.0498 5196100
-243.35886 1100.5012 4176.7793 3880753
-217.73019 1096.0488 4159.8809 4670013
-195.62473 1110.4592 4214.5732 6710361
-167.04723 1086.9727 4125.4341 5854541
-144.44798 1101.0034 4178.6851 3156774
-119.30024 1097.395 4164.9902 2959907
-95.542839 1108.0289 4205.3496 4473148
-71.163475 1116.4075 4237.1489 8224119
-45.433399 1101.1807 4179.3579 4145210
-20.529041 1093.4628 4150.0659 5592144
4.1216631 1110.9215 4216.3281 7105382
29.023634 1108.0007 4205.2427 6315610
54.648136 1122.6208 4260.731 5460557
79.82618 1121.7286 4257.3447 5263178
104.24221 1113.1279 4224.7021 5065799
128.74237 1108.582 4207.4487 3223595
153.59184 1108.0309 4205.3569 5526607
176.03503 1092.697 4147.1597 5592143
201.57648 1097.9955 4167.269 6776418
226.38841 1098.5977 4169.5547 5921109
249.64241 1092.2649 4145.5195 5263178
272.73688 1086.431 4123.3779 6973796
299.58008 1095.2617 4156.8936 5262921
323.28183 1092.1379 4145.0381 5526092
352.60944 1107.1194 4201.8975 2696736
381.98489 1120.2654 4251.791 4538429
408.99142 1125.2671 4270.7744 2828068
427.96967 1108.8844 4208.5967 4736066
450.3855 1102.7223 4185.209 4933445
478.55173 1110.5477 4214.9092 3288617
500.16043 1103.134 4186.772 4472635
525.52258 1104.3082 4191.228 4143671
547.77911 1099.1449 4171.6313 5064770
581.26398 1115.9849 4235.5449 4275767
606.91437 1117.012 4239.4434 5131076
633.29956 1119.2561 4247.9604 5525834
662.02612 1125.3086 4270.9316 3354667
675.91492 1106.6226 4200.0122 2235673
697.37305 1101.2163 4179.4932 3880755
722.96191 1102.4799 4184.2891 2696225
749.11115 1104.4858 4191.9023 2498846
772.90729 1103.005 4186.2822 2499102
795.9397 1100.5603 4177.0039 2433308
812.81293 1090.0034 4136.9365 3025187
841.15802 1094.9983 4155.8936 5656907
862.4906 1090.84 4140.1113 4472888
890.50739 1095.1316 4156.3999 4407095
915.7392 1095.8596 4159.1631 4933695
945.15448 1101.4247 4180.2842 4407095
952.14581 1081.2412 4103.6812 4604473
996.24249 1103.15 4186.8325 4473143
1004.6123 1085.3945 4119.4443 5986125
1043.5962 1100.7727 4177.8096 4736059
1060.5281 1092.7169 4147.2354 4538680
1084.1252 1091.7382 4143.5205 5131073
1093.7136 1077.0078 4087.614 5854540
1112.9055 1072.1677 4069.2441 2236184
1137.8149 1072.9243 4072.1155 3354406
1152.5988 1064.2996 4039.3816 5065540
0 0 0 0
1046.3135 927.63745 3520.7021 2
1060.1853 921.56512 3497.6558 6
1079.2729 920.17267 3492.3708 9
1088.7767 910.81525 3456.8562 9
1102.7192 905.448 3436.4856 10
1107.6199 892.98547 3389.186 11
1118.835 885.96704 3362.5486 11
1130.9548 879.89813 3339.5149 11
1142.8497 873.86566 3316.6199 11
1154.7839 868.06689 3294.6113 11
1171.0973 865.69794 3285.6204 11
1185.6365 862.11633 3272.0271 11
1200.2726 858.71936 3259.1343 10
1189.786 837.74078 3179.5132 7
1205.1663 835.34546 3170.4221 6316129
1238.488 845.26862 3208.084 6973024
1264.0323 849.66394 3224.7659 7170661
1296.2294 858.33368 3257.6704 8025458
1304.7181 851.28027 3230.9004 196615
1350.4901 868.40503 3295.8948 196618
1407.5544 892.19946 3386.2029 65545
1611.5891 1007.1756 3822.5764 1906972
1610.5975 992.60791 3767.2874 1380880
1704.443 1036.0875 3932.3071 3749168
1734.6306 1040.2202 3947.9924 3485739
1782.2365 1054.5494 4002.377 5656908
1791.1537 1045.9109 3969.5906 3946546
1803.0563 1039.2169 3944.1846 2827809
1839.4355 1046.6212 3972.2864 3617326
1854.6757 1041.9624 3954.6047 2959652
1857.1583 1030.342 3910.5015 3880755
1885.2808 1033.0576 3920.8079 1709329
1936.2661 1048.0825 3977.8325 2761761
1958.8917 1047.58 3975.9248 919815
1983.8871 1048.3413 3978.8149 262144
1989.3402 1038.8796 3942.9043 2037783
1967.7734 1015.6907 3854.8945 131072
1996.2527 1018.5695 3865.8206 854019
2033.5214 1025.8169 3893.3267 591361
2036.4832 1015.7895 3855.2693 2564893
2080.3608 1026.167 3894.6553 4012594
2120.4087 1034.4482 3926.0857 6446929
2115.801 1021.0009 3875.0483 6578262
2158.7883 1030.563 3911.3401 5065280
2174.9692 1027.2614 3898.8086 4801083
2204.7415 1030.3807 3910.6479 3221795
2222.0884 1027.6887 3900.4312 2103569
2247.6543 1028.8142 3904.7026 3287587
2243.9453 1016.6534 3858.5481 4734775
2286.6526 1025.5552 3892.3337 1379591
2319.8989 1030.0786 3909.5015 1247746
2303.4614 1012.6701 3843.4302 2102797
2384.0693 1037.8488 3938.9917 2234383
2407.0239 1037.6844 3938.3684 2629397
2426.5645 1036.0657 3932.2246 2629397
2431.6438 1028.3621 3902.9866 2893081
2461.9771 1031.3831 3914.4521 2958618
2475.2529 1027.2684 3898.8359 2563860
2466.7444 1014.2726 3849.5122 3024411
2466.5872 1004.9174 3814.0061 3287583
2504.4719 1011.0901 3837.4333 4076844
2519.6328 1008.0603 3825.9343 4866616
2542.3916 1008.0972 3826.0742 3090208
2547.9937 1001.3907 3800.6208 3485222
2578.0701 1004.336 3811.7996 2695706
2642.5017 1020.4979 3873.1392 3353379
2645.1226 1012.7164 3843.6057 4077358
2652.9578 1007.0471 3822.0889 2629656
2684.5972 1010.4332 3834.9402 2760987
2707.8093 1010.6172 3835.6389 2366229
2689.6904 995.50079 3778.2668 3484452
2716.7695 997.22455 3784.8088 2102800
2682.0537 976.42303 3705.8599 2958365
2661.6777 961.13739 3647.8459 3747624
2742.1416 982.21826 3727.855 2892571
2779.7744 987.7431 3748.8235 1445640
2813.908 991.94672 3764.7778 4274224
2843.1741 994.38184 3774.02 4537395
2911.1362 1010.2071 3834.0823 4735030
2895.7065 997.07318 3784.2346 5721668
2953.5105 1009.1637 3830.1223 4800823
3000.7878 1017.5005 3861.7634 4537395
2968.7332 999.01508 3791.6045 4800569
3118.7573 1041.6189 3953.3008 4734777
3143.0608 1041.9116 3954.4119 4800826
3176.3738 1045.1646 3966.7578 4340789
3209.1814 1048.2047 3978.2964 3879982
3190.4639 1034.4937 3926.2581 3222309
3190.0647 1026.8779 3897.3535 1314314
3222.752 1029.9453 3908.9956 1577225
3255.2261 1032.9015 3920.2153 2761499
3242.0366 1021.4291 3876.6733 2958365
3247.3877 1015.9183 3855.7581 2958107
3271.8318 1016.4158 3857.6465 3879723
3307.7537 1020.4474 3872.9478 3024671
3315.9668 1015.9342 3855.8186 3616554
3280.2917 998.12848 3788.2395 4472120
3255.4485 983.83813 3734.0027 1642765
3311.8601 994.13129 3773.0688 2497816
3369.8909 1004.769 3813.4429 1642504
3374.5217 999.44946 3793.2534 2564376
3466.0796 1019.7756 3870.3982 3024158
3517.092 1027.9839 3901.5513 3418916
3414.8606 991.58691 3763.4121 2958108
3421.2239 986.99072 3745.968 2694936
3430.8083 983.37695 3732.2527 3287073
3479.8994 991.06085 3761.4155 2893086
3549.1755 1004.3589 3811.8865 2498328
3568.2012 1003.3588 3808.0906 2959138
3577.6609 999.6983 3794.1978 3419946
3590.916 997.13733 3784.478 3617325
3624.428 1000.1982 3796.095 4275513
0 0 0 0
0 0 0 0
0 0 0 0
0 0 0 0
0 0 0 0
0 0 0 0
0 0 0 0
0 0 0 0
-3609.9539 1095.6263 4066.8372 4735792
-3612.1099 1103.6465 4096.6069 5327928
-3623.4368 1114.5962 4137.2505 5459515
-3603.3252 1115.9583 4142.3066 5722686
-3614.3796 1127.0576 4183.5059 4669998
-3794.4629 1191.3815 4422.269 5854272
-3730.9756 1179.5923 4378.5088 4209447
-3748.6448 1193.4762 4430.0439 4998964
-3560.5708 1141.5905 4237.4502 4669741
-3456.0889 1115.9595 4142.311 2367247
-3447.418 1121.1201 4161.4668 2761488
-3435.5969 1125.3235 4177.0688 2761490
-3359.2485 1108.2985 4113.874 4866608
-3304.3945 1098.168 4076.2712 4274728
-3240.1055 1084.7299 4026.3901 4406312
-3268.426 1102.3262 4091.7058 5261621
-3310.9038 1124.996 4175.8535 5130292
-3258.2644 1115.4443 4140.3989 4998708
-3323.8394 1146.5247 4255.7656 5854786
-3243.6379 1127.4116 4184.8203 7104853
-3239.0222 1134.4784 4211.0513 4933687
-3219.9556 1136.5541 4218.7559 4144171
-3182.4226 1132.093 4202.1973 4670517
-3127.9138 1121.4755 4162.7856 5065275
-3196.7891 1155.2783 4288.2583 5130297
-3077.4404 1121.0563 4161.2295 4603952
-3047.0083 1118.9337 4153.3511 4604206
-3019.8457 1117.9869 4149.8369 3814177
-2972.5952 1109.5269 4118.4341 4340263
-2939.2388 1106.1556 4105.9204 4340263
-2908.5789 1103.7513 4096.9961 4340263
-2812.1079 1076.1226 3994.4412 3879969
-2783.9043 1074.3706 3987.938 4406826
-2863.5913 1114.5824 4137.1997 4933170
-2837.4092 1113.9259 4134.7627 4144169
-2849.0281 1128.2273 4187.8477 5131066
-2864.238 1144.2144 4247.1899 5262393
-2852.5386 1149.6398 4267.3286 4209706
-2790.8831 1134.8489 4212.4263 4078118
-2846.8335 1168.0441 4335.6431 3814177
-2722.8025 1127.3259 4184.502 3156246
-2652.366 1108.2532 4113.7061 7169875
-2641.9673 1114.1451 4135.5767 7235926
-2673.4055 1137.9558 4223.959 5722944
-2687.5676 1154.7931 4286.457 5525565
-2646.7871 1148.1188 4261.6826 5855045
-2655.0208 1162.7819 4316.1104 5328445
-2605.7458 1152.2991 4277.1997 5591359
-2586.467 1155.0052 4287.2446 4802100
-2496.1404 1125.7236 4178.5547 4736055
-2527.1482 1151.1238 4272.8369 8157549
-2461.3586 1132.5001 4203.708 6841945
-2393.458 1112.5145 4129.5239 6249808
-2428.2852 1140.3586 4232.8779 5854793
-2468.8877 1171.5243 4348.561 4341812
-2427.1523 1163.8647 4320.1299 3750193
-2323.1123 1125.8472 4179.0132 4013369
0 0 0 0
0 0 0 0
-2033.2672 1017.924 3778.4148 2960681
-2196.6318 1111.9514 4127.4336 4934973
-2212.2388 1132.4578 4203.5508 6250059
-2240.4897 1159.9773 4305.7002 5855047
-2232.7893 1169.303 4340.3159 5065532
-2215.1624 1173.587 4356.2178 4670520
-2173.0325 1164.8373 4323.7397 3157024
-2104.2173 1141.4039 4236.7578 2630938
-2045.1681 1122.766 4167.5762 4341299
-2018.8795 1121.8774 4164.2778 3551783
-2012.1875 1131.9915 4201.8198 2235154
-1983.0742 1129.5872 4192.8955 1775114
-1964.8572 1133.4075 4207.0757 3551010
-1955.058 1142.2439 4239.8755 2630421
-1905.1636 1127.5798 4185.4443 2630933
-1877.0311 1125.5789 4178.0171 4077607
-1856.5144 1128.1522 4187.5688 5459773
-1832.5021 1128.6423 4189.3882 5460029
-1838.676 1147.9929 4261.2153 4736310
-1805.6456 1143.064 4242.9199 4604724
-1775.8026 1140.0422 4231.7031 4736567
-1712.5039 1115.1481 4139.2993 4933946
-1670.437 1103.5574 4096.2759 5592132
-1678.1621 1125.0044 4175.8848 6249806
-1646.347 1120.1897 4158.0132 4933945
-1644.1107 1135.6602 4215.4375 6776151
-1605.8403 1126.3335 4180.8184 4736568
-1593.0845 1134.8907 4212.582 5591877
-1553.3782 1124.2159 4172.958 5460292
-1521.0269 1118.6047 4152.1299 7302496
-1488.0206 1112.3196 4128.8003 5920843
-1469.3361 1116.7089 4145.0928 3288354
-1445.5088 1117.2725 4147.1851 2762266
-1408.7582 1107.6941 4111.6309 4012587
-1404.1787 1123.5197 4170.3735 4275246
-1381.429 1125.113 4176.2881 4209452
-1351.6903 1120.9686 4160.9048 4538677
-1343.7594 1135.0917 4213.3276 5459779
-1314.3455 1131.2589 4199.1006 5591109
-1281.0862 1123.9044 4171.8018 5723720
-1251.7014 1119.7268 4156.2949 4210225
-1221.9617 1115.0575 4138.9629 4604727
-1213.0216 1129.5658 4192.8159 4209970
-1170.7761 1113.0181 4131.3931 4472628
-1137.6013 1104.5712 4100.0391 4933949
-1111.1538 1102.4302 4092.092 6184017
-1087.9435 1103.4771 4095.9775 6512726
-1064.1259 1103.9417 4097.7026 6118224
-1047.1167 1111.6562 4126.3379 4473396
-1024.4341 1113.5723 4133.4502 4999483
-999.2807 1112.8308 4130.6978 4999483
-977.46533 1115.8625 4141.9512 6381138
-947.64423 1109.6759 4118.9873 6644310
-920.55438 1106.4452 4106.9951 6381651
-892.76343 1102.1732 4091.1382 5460037
-856.93018 1087.4573 4036.5142 5723210
-860.5592 1123.4121 4169.9746 6315349
-832.81335 1119.3237 4154.7988 5065282
-802.38495 1111.2709 4124.9077 6314833
-755.95642 1079.8567 4008.3018 5788488
-749.15106 1104.8407 4101.0396 5130558
-728.84137 1110.9159 4123.5898 5722694
-708.4165 1117.2308 4147.0303 4012076
-680.76971 1112.2008 4128.3594 4669749
-652.16101 1105.1658 4102.2461 4274988
-617.83337 1087.5195 4036.7456 4077609
-602.56476 1103.3512 4095.5107 4669747
-579.66296 1105.9478 4105.1489 3223072
-552.75964 1100.8029 4086.0515 4801850
-532.64929 1109.3341 4117.7188 4012333
-500.41602 1092.2246 4054.21 3946799
-483.77872 1109.1462 4117.021 6644826
-464.89682 1122.4453 4166.3857 3355435
-436.70248 1113.4913 4133.1494 2301976
-409.43405 1105.9746 4105.2485 4538680
-383.349 1100.9069 4086.4375 2828062
-361.96536 1109.5676 4118.5854 6249299
-331.29739 1088.9633 4042.104 1117192
-312.27997 1106.4266 4106.9263 4472891
-284.08463 1091.5757 4051.8013 4999492
-259.46854 1089.0059 4042.2625 4274999
-238.97377 1104.9696 4101.5181 5130565
-216.33382 1113.5055 4133.2021 3288361
-189.39003 1099.2402 4080.2515 3288102
-162.90846 1083.8763 4023.2222 3814186
-138.33713 1078.1338 4001.9062 3090977
-118.46933 1114.2542 4135.9814 5788749
-92.952965 1102.2318 4091.3555 6315608
-68.138847 1092.9923 4057.0596 7039589
-44.60677 1105.4545 4103.3174 4144440
-20.429136 1112.6077 4129.8696 3223082
3.965112 1092.7557 4056.1816 5855315
28.12608 1097.8783 4075.1958 5131590
52.36829 1099.9751 4082.979 4407610
77.547951 1114.2163 4135.8408 3552302
101.90399 1112.6265 4129.9395 2631201
125.7064 1106.7777 4108.2295 4999235
150.48094 1109.9973 4120.1802 2170392
173.48453 1101.0781 4087.073 4670269
197.99409 1102.7312 4093.2095 4012596
223.32126 1108.0804 4113.0649 4474171
244.36124 1093.1975 4057.8215 6118224
266.80853 1086.7126 4033.7502 3354660
288.91293 1080.0122 4008.8789 5855312
321.04047 1108.9519 4116.2998 5723467
345.59396 1109.4899 4118.2969 5393992
375.30771 1125.431 4177.4683 1841427
395.16977 1111.6853 4126.4458 1380621
406.12497 1075.9442 3993.7788 3420717
440.15167 1101.8966 4090.1113 5657422
470.17941 1115.6517 4141.1689 3486255
495.345 1117.0779 4146.4624 5196358
508.98715 1093.61 4059.3523 3222567
541.49939 1110.9746 4123.8076 1643793
557.95734 1095.324 4065.7146 3946804
591.30444 1112.7517 4130.4043 4210233
620.01727 1120.4199 4158.8677 6908004
645.92883 1122.6332 4167.083 5921366
664.35187 1112.1475 4128.1616 4407870
690.8894 1115.5081 4140.6357 3025703
712.04865 1110.2522 4121.1265 4538943
726.14032 1094.6901 4063.3616 6118232
752.63135 1098.2195 4076.4622 4078135
782.50043 1106.3052 4106.4756 4538686
806.68237 1106.1055 4105.7339 1512722
822.37274 1094.6147 4063.0818 1644052
841.31744 1087.986 4038.4763 4604222
870.28412 1094.3257 4062.0088 1710358
899.67889 1100.848 4086.2192 1841172
917.73218 1093.5148 4058.999 2235673
942.14624 1093.9417 4060.5837 3485739
951.52582 1077.3251 3998.9048 3880496
993.24908 1097.246 4072.8491 3354151
1003.8105 1082.614 4018.5366 5196354
1034.5204 1089.8867 4045.5317 4736058
1045.851 1076.8756 3997.2366 4801852
1060.089 1067.3683 3961.9463 4736059
1083.6576 1067.464 3962.3018 3288872
1105.9918 1066.3654 3958.2236 4604990
1115.4513 1053.1569 3909.1951 4538688
1097.5361 1015.1653 3768.175 328966
1032.9935 936.42035 3475.8826 65540
1050.2089 933.41925 3464.7429 8
1077.6868 939.47961 3487.2385 9
1078.4005 922.41907 3423.9116 9
1089.9745 915.10645 3396.7681 10
1098.8278 905.81604 3362.2832 11
1111.2441 899.74152 3339.7351 11
1123.8221 894.00793 3318.4531 11
1135.2277 887.55487 3294.5 11
1148.8153 882.99719 3277.5825 10
1165.2219 880.72174 3269.1362 11
1180.249 877.495 3257.1589 9
1192.5619 872.38666 3238.1973 6
1174.0773 845.26758 3137.5344 131588
1204.9739 853.99127 3169.9158 7368812
1240.885 865.94672 3214.293 7170148
1261.0399 866.71143 3217.1316 7696493
1290.9937 874.08783 3244.512 2695716
1305.2239 870.75824 3232.1528 196616
1370.1162 900.83459 3343.7927 16
1405.1506 910.70221 3380.4202 19
1453.1981 928.60803 3446.8843 15
1451.5305 914.68927 3395.2195 1512738
1641.8441 1020.4755 3787.8855 2697006
1677.032 1028.2919 3816.8989 2893864
1731.5542 1047.5975 3888.5593 2499103
1746.7433 1042.912 3871.1675 3090982
1752.3197 1032.683 3833.1985 2762274
1779.7346 1035.421 3843.3616 4341306
1787.9513 1027.0616 3812.3328 2696222
1816.8438 1030.6395 3825.6135 5328199
1834.9635 1028.0936 3816.1636 4736062
1917.0723 1061.0251 3938.4011 5130820
1930.5176 1055.6191 3918.3345 4472635
1923.2452 1039.1475 3857.1938 1775123
1952.0774 1042.3412 3869.0486 1315086
1947.1543 1027.646 3814.5017 3222566
1981.9708 1034.0205 3838.1633 788228
2006.8564 1035.1281 3842.2747 1314826
2022.8373 1031.6694 3829.4363 1512205
2029.3269 1023.5004 3799.114 525570
2079.0999 1037.1014 3849.5994 4867134
2102.5786 1037.4335 3850.8318 1183755
2149.9238 1049.408 3895.2795 2235668
2124.9402 1026.1981 3809.1277 2958878
2147.2483 1026.0748 3808.6699 3156254
2161.6184 1022.2004 3794.2883 1971981
2172.1477 1016.608 3773.5303 2629911
2201.3979 1019.8022 3785.3865 3945001
2240.4973 1027.4486 3813.7688 2563860
2293.7546 1041.3699 3865.4434 2432278
2283.1013 1026.2872 3809.4583 1773832
2320.8059 1033.0248 3834.4673 1905418
2339.562 1031.2791 3827.9873 1971210
2419.8218 1056.4175 3921.2981 2563347
2365.0037 1022.6679 3796.0237 1971211
2364.5408 1012.8368 3759.532 2760726
2462.6045 1044.9987 3878.9128 3023127
2409.5754 1013.043 3760.2969 2760724
2427.2888 1011.1418 3753.2402 2760467
2426.189 1001.5093 3717.4856 4602930
2439.6667 998.01355 3704.5098 1314053
2508.8677 1017.1721 3775.6238 2892056
2565.4087 1030.9045 3826.5974 3616294
2594.7158 1033.5485 3836.4111 3221537
2631.5994 1039.1381 3857.1592 2695449
2617.3494 1024.6143 3803.2485 3814187
2613.1541 1014.241 3764.7441 4603703
2562.3425 986.10309 3660.2996 3551273
2624.4375 1001.5244 3717.5415 3024929
2616.4968 990.18481 3675.4502 3551273
2637.2444 989.79956 3674.02 4801339
2650.2559 986.54077 3661.9241 2958878
2665.188 984.04413 3652.6567 3353379
2704.3672 990.46808 3676.5017 2958622
2692.1265 978.10754 3630.6208 4734774
2725.634 982.43237 3646.6743 2037262
2753.7605 984.76495 3655.3325 3616294
2845.7014 1009.7037 3747.9021 5195582
2810.0662 989.34039 3672.3159 5787978
2873.1021 1003.7623 3725.8481 5656649
2906.9656 1007.8502 3741.022 7433060
2917.1274 1003.7209 3725.6946 4538424
2926.6753 999.44409 3709.8196 4669755
2988.0278 1012.7902 3759.3586 4471862
2959.5222 995.70667 3695.9465 4537911
3006.1567 1003.9687 3726.6145 5326913
3010.6216 998.12958 3704.9402 4932413
2996.3713 986.21521 3660.7153 3551273
3055.5669 998.47186 3706.2107 4669496
3097.6455 1005.0002 3730.4436 4801082
3117.3335 1004.2232 3727.5591 3353635
3127.4114 1000.3831 3713.3052 2564118
3173.7771 1008.1233 3742.0356 2827034
3198.3994 1008.8971 3744.9082 3879978
3174.9292 994.59473 3691.8193 3156255
3156.301 981.99457 3645.0491 4801078
3162.7085 977.30176 3627.6299 4274478
3221.1167 988.63245 3669.6882 4472114
3325.4146 1013.8015 3763.1123 3484709
3299.8289 999.30188 3709.292 2827291
3390.0903 1019.8447 3785.5444 2168851
3374.1016 1008.3642 3742.9302 2300179
3383.9795 1004.7135 3729.3792 1971472
3355.8901 989.91064 3674.4326 1314058
3310.4543 970.21478 3601.3237 1577227
3364.0818 979.61829 3636.2285 1972241
3365.3135 973.74158 3614.4148 3156259
3358.8318 965.72156 3584.6455 2893087
3422.969 977.97888 3630.1431 2761501
3534.8857 1003.6489 3725.4275 2958623
3506.1392 989.31024 3672.2039 3616299
0 0 0 0
0 0 0 0
0 0 0 0
0 0 0 0
0 0 0 0
0 0 0 0
0 0 0 0
-3674.0596 1132.048 4111.6152 4998964
-3633.2742 1126.9526 4093.1089 5262136
-3562.658 1112.4738 4040.5215 4669999
-3592.4883 1129.3767 4101.9131 4669998
-3583.5522 1134.2399 4119.5762 4472619
-3591.5967 1144.5809 4157.1353 4406827
-3816.4209 1224.6261 4447.8604 5920323
-3977.8938 1285.3145 4668.2812 5920580
0 0 0 0
-3473.0688 1138.0222 4133.3135 4538931
-3457.7131 1141.0354 4144.2578 2499347
-3373.5029 1121.2074 4072.2419 4274986
-3366.5911 1126.9695 4093.1702 4011815
-3300.105 1112.728 4041.4446 4801584
-3227.3418 1096.1464 3981.22 5591356
-3285.5874 1124.1444 4082.9092 5591099
-3291.9348 1134.6693 4121.1362 5065783
