# .PCD v0.7 - Point Cloud Data file format
VERSION 0.7
FIELDS x y z rgb
SIZE 4 4 4 4
TYPE F F F U
COUNT 1 1 1 1
WIDTH 1294
HEIGHT 1
VIEWPOINT 0 0 0 1 0 0 0
POINTS 1294
DATA ascii
-282.10178 994.83929 2285.498 4537645
-271.04166 1004.0249 2306.6006 2300938
-258.78119 1009.5032 2319.1863 4077349
-244.1447 1005.8074 2310.6958 4866865
-231.26193 1009.3266 2318.7805 5525308
-219.9259 1020.467 2344.374 5854529
-205.65111 1018.5543 2339.98 6973269
-191.37706 1016.3691 2334.9595 5065533
-175.52127 1004.7885 2308.3547 5657158
-165.64079 1028.3473 2362.4778 2893852
-150.92012 1023.4321 2351.1858 3090719
-139.07489 1038.9991 2386.9487 4011563
-124.52045 1035.5593 2379.0464 2959134
-109.195 1024.0111 2352.5161 2498581
-96.168709 1033.7994 2375.0032 985090
-81.38295 1024.7871 2354.2988 1380101
-67.133522 1020.1973 2343.7544 2432276
-53.124557 1017.8209 2338.2949 1379333
-39.048786 1012.0366 2325.0063 2234897
-25.555 1023.2512 2350.7703 3221789
-11.548054 1016.172 2334.5068 5524796
2.2995937 1023.965 2352.4102 4471853
16.108536 1015.9385 2333.9705 5196345
29.768644 1010.2756 2320.9607 6709586
43.853065 1018.0416 2338.802 5854280
57.711082 1018.0844 2338.9001 7564899
71.763908 1020.8818 2345.3269 6644053
86.006393 1025.0322 2354.8618 4473399
99.369057 1019.0016 2341.0076 5657931
111.37107 1002.2041 2302.4177 3486248
127.3298 1020.7928 2345.1226 6710616
141.56979 1023.3008 2350.8843 5000005
155.67754 1024.489 2353.614 6382430
170.71466 1031.0953 2368.791 7368554
179.78358 1003.389 2305.1396 6183251
197.66573 1025.3094 2355.4988 262144
211.16162 1023.0875 2350.394 458752
223.11833 1014.1442 2329.8484 1510150
235.15251 1006.5747 2312.4585 1049089
251.7711 1018.382 2339.584 1640450
267.77536 1026.6019 2358.468 1509379
282.80423 1030.4524 2367.314 3023125
296.88504 1030.6478 2367.7629 6313801
309.84247 1027.1018 2359.6165 5590857
325.03851 1030.9624 2368.4856 2564628
339.91962 1033.5457 2374.4204 6381138
352.63873 1029.6115 2365.3821 5525832
368.19778 1033.9529 2375.3557 3354406
381.44073 1031.7101 2370.2034 1578256
388.43759 1013.332 2327.9824 6380884
406.04407 1022.9431 2350.0625 2564634
407.03305 991.44049 2277.6897 5393732
422.85141 996.92157 2290.2817 4274478
438.38135 1001.4029 2300.5769 3418910
451.74075 1000.8053 2299.2041 2695187
467.20169 1004.7623 2308.2947 3550754
478.34143 999.46527 2296.1255 6314823
505.21423 1026.4255 2358.0627 4209451
525.23248 1038.3835 2385.5347 3485728
537.16125 1034.1411 2375.7881 2235149
548.8811 1029.7231 2365.6387 7761502
562.03857 1028.1553 2362.0366 3617056
582.02319 1038.8492 2386.6045 7564127
589.51996 1027.275 2360.0144 5985865
603.57123 1027.3943 2360.2883 4998971
616.81433 1026.1636 2357.4609 5459779
632.07202 1028.2648 2362.2881 3748905
643.20618 1023.7119 2351.8286 6183503
650.38458 1013.1897 2327.6553 4998974
664.60962 1013.854 2329.1816 6643800
692.8194 1035.3909 2378.6594 2959907
697.74982 1021.9727 2347.833 6184021
696.64368 1000.4102 2298.2964 3223076
719.65063 1013.638 2328.6853 3683887
723.60876 1000.0422 2297.4512 4934208
737.13806 999.93201 2297.1978 5919819
748.86285 997.42218 2291.4319 2236180
774.25146 1012.8769 2326.9368 4274989
795.73669 1022.7737 2349.6733 6511950
824.6911 1041.7654 2393.304 6051913
829.61865 1030.2771 2366.9111 3814957
834.07385 1018.5937 2340.0703 3683370
830.56744 997.72839 2292.1353 1249547
838.37976 990.91229 2276.4763 5525834
875.55151 1018.4637 2339.7717 2236442
890.31818 1019.5005 2342.1536 3025702
902.53784 1017.6335 2337.8645 1052168
910.12854 1010.6826 2321.8958 1315081
915.57373 1001.5916 2301.0105 657667
933.8869 1006.6378 2312.6033 3420453
938.29395 996.76532 2289.9229 1644046
969.12805 1014.8481 2331.4653 3486245
970.49536 1001.9993 2301.947 3550757
980.61383 998.41663 2293.7163 4998201
972.85162 976.97534 2244.4583 4866617
1006.252 996.89203 2290.2139 6117456
1023.9822 1000.961 2299.5618 3222822
1060.085 1022.6466 2349.3813 2696735
1071.0428 1019.8279 2342.9058 657413
1076.8767 1012.2646 2325.53 4144694
1082.5791 1004.7703 2308.3132 4473405
1104.7015 1012.5128 2326.1003 2103828
1126.6307 1019.8897 2343.0476 6248014
1119.2141 1000.8447 2299.2947 2760987
1111.8275 982.2843 2256.6548 3024155
1118.328 976.28833 2242.8799 2497555
1144.4104 987.32703 2268.2397 5195837
1164.1982 992.742 2280.6799 3287328
1167.6161 984.23389 2261.1338 3155999
1177.2611 981.1084 2253.9534 5656134
1193.2433 983.27496 2258.9307 2234643
1198.4713 976.63 2243.6648 3353380
1203.8882 970.28302 2229.0835 1906192
1214.0221 967.83417 2223.4578 2958107
1235.2892 974.21826 2238.1243 328449
1243.2592 970.09113 2228.6428 854274
1243.2668 959.90332 2205.2378 3747873
1263.782 965.59613 2218.3162 5852987
1280.2682 968.12518 2224.1262 4142107
1292.8553 967.6842 2223.1133 4800293
1298.7812 962.31659 2210.782 6971467
1317.5354 966.46631 2220.3152 7760985
1339.9048 973.15961 2235.6921 4471077
1352.498 972.69104 2234.6157 5129008
1357.3297 966.70367 2220.8606 3681818
1377.6356 971.7464 2232.4456 6839627
1389.1169 970.52783 2229.646 5194544
1404.2618 971.86768 2232.7241 2892303
1423.3955 975.9173 2242.0276 3615769
1439.675 977.95343 2246.7051 3813658
1452.6351 977.7179 2246.1641 3880222
1483.1648 989.20471 2272.5535 4341290
1477.4054 976.49945 2243.365 7105371
1516.0599 993.11469 2281.5361 6841943
1557.877 1011.4896 2323.7498 8487284
1544.5071 994.02509 2283.6274 4209968
1561.934 996.51208 2289.3411 2170648
1559.546 986.42328 2266.1636 5196609
1539.7654 965.59955 2218.324 6381139
1571.3871 977.09033 2244.7224 4867899
1603.9677 988.97943 2272.0359 7302496
1613.984 986.87378 2267.1985 4341555
1622.3806 983.8208 2260.1846 5328962
1633.5125 982.46277 2257.0647 4143924
1649.7346 984.16339 2260.9717 1051654
1660.0208 982.32391 2256.7458 3025187
1658.9364 973.83923 2237.2534 2565149
1672.5721 974.06158 2237.7642 2170137
1704.5448 984.87531 2262.6072 5920592
1716.9222 984.28668 2261.2549 6250328
1703.0042 968.74908 2225.5596 5395276
1754.0171 990.10223 2274.6152 7039332
1745.7666 977.93195 2246.6558 7697261
1746.3877 970.87787 2230.4502 7236709
1765.9462 974.37866 2238.4927 3354406
1796.1576 983.66138 2259.8184 7696743
1808.7189 983.21216 2258.7864 4472373
1839.1545 992.41461 2279.9277 4471861
1829.4382 979.97479 2251.3489 5656134
1849.668 983.64001 2259.7693 4538424
1850.7192 977.12677 2244.8062 5262403
1849.4137 969.47119 2227.2185 5723209
1866.4111 971.45056 2231.7659 5394251
1880.061 971.67194 2232.2744 6249302
1890.2115 970.09436 2228.6501 7893869
1933.928 985.64575 2264.3772 1775380
1926.1648 974.9267 2239.7517 1248263
1925.5026 967.92371 2223.6633 1905934
1921.2166 959.20673 2203.6375 3221535
1914.8312 949.56635 2181.49 4339757
1924.3202 947.87433 2177.603 3287068
1937.9005 948.20703 2178.3672 2497549
1951.8402 948.70984 2179.5225 4602408
1970.6428 951.5542 2186.0569 1707779
1990.4215 954.82977 2193.582 4076062
2004.0089 955.11188 2194.2302 4996908
1997.2358 945.74933 2172.7209 4536868
1988.6575 935.65704 2149.5354 3418641
2007.3477 938.44141 2155.9321 5457964
2052.3186 953.39923 2190.2957 5786672
2038.2062 940.89459 2161.5679 5195052
2057.5151 943.87793 2168.4216 4734762
2062.9827 940.51398 2160.6936 4800557
0 0 0 0
0 0 0 0
0 0 0 0
0 0 0 0
0 0 0 0
0 0 0 0
0 0 0 0
0 0 0 0
0 0 0 0
0 0 0 0
-2061.3931 1038.4723 2353.7043 6183238
-2049.564 1039.545 2356.1357 4077605
-2052.4502 1048.1471 2375.6326 4011811
-2025.0033 1041.2705 2360.0466 6643532
-1930.3562 999.50336 2265.3811 5327927
-1898.7351 990.01355 2243.8723 5985855
-1866.5793 980.10907 2221.4238 5196339
-1806.0013 955.03406 2164.5911 7762269
-1818.2357 968.3797 2194.8391 7630683
-1816.3536 974.34515 2208.3599 4998963
-1865.6624 1008.0566 2284.7671 5920836
-1853.9792 1009.0648 2287.052 6118215
-1872.8735 1026.8527 2327.3687 5263419
-1818.4141 1004.3879 2276.4521 5920836
-1817.271 1011.2567 2292.02 6710095
-1810.4904 1015.0679 2300.6582 5328443
-1795.0262 1014.0316 2298.3093 5788993
-1785.7773 1016.5173 2303.9431 5525821
-1794.314 1029.2433 2332.7866 5131319
-1764.7981 1020.17 2312.2222 7236695
-1757.6846 1024.0061 2320.9167 6184267
-1746.1395 1025.3007 2323.8508 6776146
-1742.3013 1031.1769 2337.1694 6447438
-1749.0195 1043.4452 2364.9756 3420703
-1715.8942 1031.9496 2338.9207 4209962
-1700.7324 1031.1581 2337.1267 6052424
-1699.9784 1039.1606 2355.2646 4802100
0 0 0 0
-1662.2985 1033.0864 2341.4976 4077349
-1666.4656 1044.3916 2367.1206 3551519
-1587.455 1003.3177 2274.0264 3617314
-1606.3967 1023.9794 2320.8562 5591873
-1557.4484 1001.3484 2269.563 4078636
-1597.3011 1035.9146 2347.9072 4473138
-1576.431 1031.3606 2337.5857 3223328
-1580.8317 1043.4055 2364.8857 2893594
-1582.5505 1053.8801 2388.6265 3946281
-1566.2211 1052.4163 2385.3083 4933689
-1537.4612 1042.4971 2362.8264 3617828
-1532.4185 1048.6249 2376.7153 5065273
-1518.5784 1048.7908 2377.0913 2894105
-1516.3174 1057.0315 2395.769 6118216
-1481.3622 1042.4215 2362.6553 6841939
-1434.8196 1019.3008 2310.2522 5920836
-1411.5198 1012.4056 2294.6243 5131064
-1349.7164 977.49139 2215.491 5460030
-1349.0548 986.60626 2236.1499 5986375
-1348.1146 995.69635 2256.7524 6184523
-1342.7223 1001.6472 2270.24 6315852
-1328.776 1001.2727 2269.3914 5921093
-1358.8397 1034.3926 2344.4578 6184264
-1350.5673 1038.7123 2354.2483 6250058
-1359.0975 1056.1798 2393.8386 4934199
-1330.896 1045.1698 2368.8845 4802873
-1329.1104 1054.891 2390.9175 1315854
-1287.135 1032.5801 2340.3496 4012593
-1280.1569 1038.1649 2353.0078 4473658
-1288.6296 1056.5409 2394.657 4802622
-1284.2172 1064.6437 2413.0222 2038802
-1268.0293 1063.057 2409.426 1972754
-1250.3076 1060.1337 2402.8003 2828317
-1205.921 1034.2737 2344.1882 3486247
-1186.5178 1029.4879 2333.3413 3289123
-1179.0383 1035.057 2345.9636 2565399
-1170.2449 1039.5917 2356.2415 1775627
-1151.9453 1035.6891 2347.3962 2170390
-1138.3759 1035.9958 2348.0916 3288866
-1126.8553 1038.1978 2353.0823 2959644
-1096.6058 1022.9835 2318.5989 6446673
-1087.2252 1027.0979 2327.9243 3683623
-1078.6293 1032.0688 2339.1909 4933688
-1037.2375 1005.3807 2278.7021 4209964
-996.58984 978.7193 2218.2739 6183754
-979.45355 974.74377 2209.2634 3814690
-981.40961 989.91852 2243.657 6512203
-977.81671 999.83594 2266.1348 3946276
-984.16632 1020.3373 2312.6016 5788735
-974.51764 1024.5973 2322.2566 6117956
-954.96881 1018.4213 2308.2585 4605226
-954.61639 1032.8351 2340.9277 6184773
-948.04633 1040.8475 2359.0881 4671553
-915.94055 1020.645 2313.2988 1
-901.91895 1020.2864 2312.4858 6514795
-885.21082 1016.8307 2304.6536 329220
-890.34576 1038.7505 2354.335 592132
-878.2973 1041.0015 2359.4368 1249028
-859.91412 1035.6957 2347.4111 2103564
-838.43854 1026.4294 2326.4094 3551264
-828.97437 1031.8041 2338.5908 3814177
-813.08813 1029.2321 2332.7612 4866608
-799.86865 1030.005 2334.5134 5919295
-781.57245 1024.1528 2321.2493 6577483
-758.9118 1012.2696 2294.3159 6380360
-749.32928 1017.7152 2306.6584 6314568
-727.84979 1006.9049 2282.1567 5327672
-718.71613 1013.0879 2296.1704 5657153
-686.97516 987.02777 2237.105 6249290
-686.43713 1005.6558 2279.3257 5920583
-673.04773 1005.8259 2279.7112 6117706
-651.53766 993.61871 2252.0435 5788740
-651.24573 1013.936 2298.0928 6775892
-639.70825 1017.2387 2305.5784 4012587
-619.56885 1006.7085 2281.7117 4867895
-606.43317 1007.3426 2283.1487 6709585
-594.37946 1009.8439 2288.8179 5656896
-592.18799 1029.6089 2333.6155 3616801
-574.23926 1022.2675 2316.9761 4274730
-551.4162 1005.6768 2279.373 4801331
-542.2467 1013.7796 2297.7383 5919812
-526.34875 1009.3964 2287.8037 5261625
-513.46472 1010.7141 2290.7903 2366224
-500.0332 1010.9964 2291.4302 4077611
-484.5322 1006.9936 2282.3577 4538931
-469.29105 1003.3164 2274.0234 5262654
-458.21725 1008.5948 2285.9868 5788995
-446.72992 1013.2567 2296.5532 4736567
-430.49319 1007.1007 2282.6006 5855048
-419.07318 1012.1791 2294.1108 4473395
-410.53464 1024.7908 2322.6953 7763555
-393.77716 1017.0494 2305.1494 5855047
-384.31979 1028.2838 2330.6123 4407601
-367.54434 1020.0457 2311.9404 2894365
-352.79932 1017.0229 2305.0894 3618088
-337.88562 1013.251 2296.5403 5328195
-323.41516 1010.5475 2290.4126 3814955
-309.80585 1010.4158 2290.1143 5131068
-295.15372 1006.7151 2281.7266 2959387
-280.50854 1002.6841 2272.5903 5591103
-265.79459 997.98828 2261.9473 1249028
-254.8931 1007.8687 2284.3413 4011815
-240.86488 1005.8007 2279.6541 3287835
-228.92117 1012.7083 2295.3103 5656123
-213.86163 1005.8342 2279.73 5261878
-196.51535 986.55322 2236.0295 5130807
-183.94368 990.18732 2244.2661 7104858
-172.80014 1002.6742 2272.5679 5789511
-159.05792 1000.9184 2268.5884 5328704
-146.50565 1007.0178 2282.4126 6380878
-135.5784 1026.663 2326.9385 3354660
-122.40798 1031.8462 2338.6863 4077611
-108.32656 1029.693 2333.8062 3814696
0 0 0 0
-80.316879 1025.1277 2323.4587 1906701
-66.077995 1017.8234 2306.9038 2498581
-52.135147 1012.4592 2294.7456 3091230
-38.462479 1010.4081 2290.0969 3223073
-24.852057 1008.6481 2286.1077 3617574
-11.531454 1028.5216 2331.1511 5328191
2.2427769 1012.2574 2294.2883 6314572
15.753853 1007.0917 2282.5801 1840905
29.355362 1009.8088 2288.7385 7367003
43.594978 1025.8241 2325.0374 5985353
57.834518 1034.1477 2343.9028 6051403
71.357986 1028.9231 2332.061 7301982
85.761803 1036.0281 2348.1648 5065017
98.552849 1024.3865 2321.7788 5986633
112.28023 1024.137 2321.2131 4670518
126.50434 1027.9781 2329.9194 4933945
138.80908 1017.0013 2305.0403 4933945
151.55125 1010.9084 2291.2307 5393986
165.70081 1014.4334 2299.2202 4538935
177.3062 1003.0305 2273.3752 7171175
191.86734 1008.7779 2286.4019 5263434
208.26497 1022.7863 2318.1521 3288616
223.2307 1028.4646 2331.022 1906190
236.16428 1024.6642 2322.4082 2365969
252.03133 1033.3092 2342.0022 918272
267.04935 1037.7527 2352.0735 2233608
280.95816 1037.6588 2351.8608 3616034
293.7247 1033.5546 2342.5583 4603189
305.74359 1027.3085 2328.4014 6840662
323.13168 1038.8633 2354.5908 3946285
341.51843 1052.5399 2385.5886 3748647
347.01111 1026.9697 2327.6338 4472371
358.75485 1021.1469 2314.4365 7564643
371.79974 1019.3201 2310.2959 4274993
385.56924 1019.539 2310.792 2959133
394.60571 1007.6567 2283.8608 4077357
403.1543 995.35767 2255.9849 4077099
418.02612 998.95868 2264.1465 4405807
430.8504 997.59479 2261.0554 5918788
447.47736 1004.8524 2277.5049 3813923
461.50195 1006.0125 2280.134 3419422
468.28571 991.77118 2247.8562 5327419
479.11035 986.63916 2236.2244 5787969
509.13013 1020.2484 2312.3999 6182471
533.59772 1041.2618 2360.0269 3551011
546.76038 1039.7051 2356.4985 3550497
562.06561 1042.1987 2362.1504 4735541
574.69702 1039.7336 2356.5632 3418911
585.67126 1034.4585 2344.6072 4603954
594.38422 1025.5264 2324.3623 4867384
604.93933 1020.1049 2312.0747 4274991
623.31958 1027.827 2329.5769 5130815
626.13086 1010.0981 2289.394 5459782
637.56647 1006.739 2281.7808 4801853
651.44202 1007.2921 2283.0344 6183765
680.17151 1030.3236 2335.2356 3881012
681.88635 1012.3307 2294.4546 2367516
692.65424 1008.2188 2285.1348 5657422
706.70813 1008.9558 2286.8052 3025702
720.83838 1009.7722 2288.6553 7104865
734.11603 1009.386 2287.78 4538680
748.09021 1009.954 2289.0676 8618101
762.78766 1011.4611 2292.4834 4736312
782.00848 1018.8085 2309.1362 5920584
785.77356 1006.1135 2280.363 10263436
809.61353 1019.1172 2309.8362 6447446
809.28345 1001.77 2270.5186 6842208
815.13135 992.51239 2249.5359 5723727
836.39423 1002.0199 2271.085 7631724
850.42639 1002.7011 2272.6289 4934211
875.07025 1015.6779 2302.0408 5262657
878.13464 1003.5939 2274.6523 5722690
873.88 983.63678 2229.4194 5262135
897.79889 995.51392 2256.3391 4472617
915.55115 1000.3049 2267.198 4275752
921.66235 992.42279 2249.333 6709841
941.14557 998.95874 2264.1467 6051917
955.23523 999.6665 2265.751 5722437
965.37433 996.27777 2258.0703 3682853
976.59296 994.08032 2253.0898 4077610
1000.7349 1004.9197 2277.6572 6380620
1017.7399 1008.3991 2285.5435 5722948
1030.5437 1007.6791 2283.9116 6710103
1047.9796 1011.4485 2292.4548 2630941
1063.9336 1013.7094 2297.5791 2235925
1074.9773 1011.2938 2292.1042 5525060
1084.9216 1007.9172 2284.4512 2563861
1109.1405 1017.7218 2306.6733 3353121
1095.1329 992.63892 2249.8228 4274478
1105.5774 990.05615 2243.969 3419169
1118.777 989.9729 2243.7803 2827032
1127.826 986.26196 2235.3694 2563605
1139.7963 985.16199 2232.8762 4143151
1153.3523 985.44226 2233.5115 3814701
1144.2982 966.61664 2190.8433 3419947
1179.0126 984.77118 2231.9905 4670781
1189.3157 982.35944 2226.5244 2170393
1199.8645 980.20148 2221.6333 2630686
1208.53 976.56854 2213.3992 3025186
1218.0305 973.68103 2206.8545 2432534
1226.6722 970.17554 2198.9094 3418913
1235.9919 967.27441 2192.334 3023637
1258.7709 974.85718 2209.5203 3747101
1265.1212 969.69153 2197.8123 4536357
1277.145 968.93555 2196.0989 3483413
1286.1252 965.90887 2189.239 4931628
1285.3519 955.69061 2166.0793 3221275
1322.6165 973.67712 2206.8457 4273700
1340.6937 977.3244 2215.1123 6641994
1343.9304 970.18756 2198.9368 3418908
1359.9175 972.30389 2203.7334 3024154
1380.6986 977.77502 2216.1338 5195320
1374.1924 964.00104 2184.9148 3222041
1405.4302 976.71448 2213.73 3747869
1425.5094 981.50977 2224.5986 3419417
1443.6697 984.90814 2232.301 4077348
1448.1692 979.00958 2218.9319 5327414
1460.2465 978.29407 2217.3101 6446153
1478.8547 981.92761 2225.5457 6315341
1507.858 992.33807 2249.1409 7893862
1525.4633 995.13062 2255.4702 7105372
1527.3839 987.73169 2238.7007 5526084
1535.8611 984.66382 2231.7471 8223084
1531.7498 973.64642 2206.7761 5460807
1536.0215 968.099 2194.2029 6512726
1565.7789 978.57257 2217.9414 6250065
1582.2649 980.64661 2222.6421 6446931
1601.6473 984.46661 2231.3003 6184017
1582.1796 964.5401 2186.1367 6710106
1617.4658 978.04572 2216.7471 2762529
1644.1741 986.18835 2235.2026 5591884
1648.1858 980.69641 2222.7551 3881009
1665.2943 983.0224 2228.0269 3025443
1673.1283 979.88019 2220.905 3024931
1695.4058 985.17993 2232.917 3814957
1728.6498 996.7207 2259.0742 6973276
1721.8129 985.15155 2232.8525 5064513
1720.4231 976.85156 2214.0408 6972767
1727.8292 973.63391 2206.7478 5000261
1754.7012 981.35101 2224.2388 8224119
1762.5544 978.39594 2217.541 7368810
1765.3083 972.6748 2204.574 6644574
1823.2427 997.21844 2260.2024 6315093
1837.5597 997.7218 2261.3433 5854540
1837.1215 990.2644 2244.4409 5393988
1833.5511 981.23792 2223.9824 6183505
1833.3088 974.10858 2207.8237 7236191
1811.967 955.94861 2166.6641 5788746
1862.1602 975.5188 2211.02 7565157
1870.7426 973.16949 2205.6953 6775641
1884.265 973.40479 2206.2285 5262403
1882.1633 965.62109 2188.5867 4999230
1917.8566 977.20142 2214.8335 3353893
1921.0444 972.17444 2203.4399 2564890
1937.2511 973.75934 2207.032 5064765
1934.9065 966.06073 2189.583 3353377
1928.406 956.40332 2167.6946 6708814
1942.0687 956.80774 2168.6111 2826513
1968.5182 963.46515 2183.7002 5195320
1965.3119 955.61572 2165.9094 2300426
1979.3613 956.20416 2167.2432 2892049
1985.4795 952.97815 2159.9314 5852733
1999.7231 953.66864 2161.4963 3549969
2011.7482 953.29889 2160.6584 5589036
2017.894 950.16553 2153.5566 4865057
2029.1597 949.46722 2151.9739 5786415
2043.2129 950.07379 2153.3486 3221003
2046.0687 945.49835 2142.9785 3682065
0 0 0 0
0 0 0 0
0 0 0 0
0 0 0 0
0 0 0 0
0 0 0 0
0 0 0 0
0 0 0 0
0 0 0 0
0 0 0 0
-1979.3523 1010.5314 2260.03 7696734
-2031.6531 1044.2968 2335.5457 7762783
-1955.3199 1011.9523 2263.208 4210217
0 0 0 0
-1835.7526 963.28223 2154.3584 5591871
-1862.2462 984.02576 2200.7507 5920578
-1825.1976 971.24866 2172.1753 3880482
-1790.2007 959.38977 2145.6531 8617578
-1801.0536 972.10852 2174.0981 4670513
-1814.7501 986.55621 2206.4102 5328443
-1795.644 983.25171 2199.0198 5525821
-1778.2078 980.81989 2193.5811 1709576
-1771.0479 984.06232 2200.8325 3946277
-1770.4171 991.00745 2216.3652 5854786
-1763.7555 994.65546 2224.5239 4999735
-1763.0657 1001.7514 2240.3938 5131320
-1760.4264 1007.839 2254.0085 4802099
-1753.4351 1011.5089 2262.2163 5065271
-1739.2219 1011.0374 2261.1616 3288860
-1747.1643 1023.5377 2289.1184 5788995
-1732.5159 1022.8959 2287.6831 6710097
-1721.5017 1024.4064 2291.0613 2828308
-1716.4631 1029.5251 2302.5093 5854787
-1694.7478 1024.6433 2291.5911 4473393
-1704.7992 1039.0437 2323.7971 4276014
-1689.3853 1038.0316 2321.5337 3815204
-1679.3606 1040.3413 2326.6995 3749155
-1663.0547 1038.766 2323.1763 4341034
-1657.754 1044.0959 2335.0964 3025174
-1690.4611 1073.6552 2401.2048 3618082
-1650.5018 1057.1721 2364.3408 3288864
-1550.4585 1001.5927 2240.0391 3683364
-1531.9014 998.14807 2232.3352 3617316
-1513.9442 995.03784 2225.3792 4341039
-1524.6593 1010.8832 2260.8169 2235664
-1553.1187 1038.8787 2323.428 3024410
-1545.3489 1042.9243 2332.4761 1906445
-1519.0294 1034.4113 2313.437 4736310
-1527.1996 1049.4434 2347.0559 5394497
-1514.1157 1050.0125 2348.3286 3091996
-1495.2659 1046.5565 2340.5994 2762521
-1482.0585 1047.022 2341.6404 4472364
-1448.5227 1032.9991 2310.2788 3616800
-1419.4045 1021.8893 2285.4319 4406827
-1380.5583 1003.4945 2244.2922 6051652
-1354.3619 994.02612 2223.1165 5262135
-1331.9614 987.185 2207.8164 5591614
-1325.9386 992.46704 2219.6296 5854786
-1311.6251 991.5871 2217.6616 6578765
-1304.7035 996.33417 2228.2783 6315593
-1319.9279 1018.2629 2277.3215 5526077
-1314.6868 1024.6934 2291.7031 6973268
-1304.8604 1027.6469 2298.3083 4868406
-1284.2853 1022.108 2285.9211 3683878
-1298.4811 1044.4189 2335.8188 3618341
-1294.9575 1052.8046 2354.5732 3947306
-1278.8538 1051.0337 2350.6125 5658438
-1257.6233 1044.964 2337.0378 4803388
-1259.9547 1058.5548 2367.4333 1381646
-1245.8848 1058.5167 2367.3484 1841424
-1219.1636 1047.6069 2342.9487 5526600
-1203.3555 1045.9313 2339.2009 1644300
-1194.4751 1050.308 2348.9895 3816239
-1173.8789 1044.3649 2335.6978 2303511
-1151.8362 1036.9775 2319.1763 3354916
-1144.368 1042.6917 2331.9556 2302228
-1115.3081 1028.6315 2300.5105 3749929
-1103.884 1030.6898 2305.114 4737080
-1093.9449 1034.2039 2312.9729 5395012
-1069.172 1023.6053 2289.2695 3552036
-1057.6226 1025.557 2293.6345 4341550
-1040.7319 1022.3128 2286.3789 4802101
-1000.4051 995.65796 2226.7661 4143655
-975.26605 983.60852 2199.8179 5196341
-972.45978 994.06183 2223.1963 7959900
-972.17487 1007.4147 2253.0596 2960408
-967.04199 1016.0457 2272.3628 6644038
-965.98138 1029.2595 2301.915 7696465
-961.85211 1039.535 2324.8962 10658154
-948.14032 1039.6024 2325.0469 7302456
-937.00348 1042.5367 2331.6094 5000772
-913.112 1031.1553 2306.155 1
-880.88727 1009.8747 2258.5615 5526870
-886.53174 1032.0216 2308.0925 2698275
-875.42859 1035.0607 2314.8894 1973777
-864.83881 1038.8135 2323.2822 1249542
-838.76123 1023.7832 2289.6675 2565138
-819.13843 1016.2668 2272.8574 3222299
-795.88428 1003.9189 2245.2415 3484955
-787.73651 1010.5301 2260.0271 1576452
-773.98065 1010.0511 2258.9561 4273957
-764.75592 1015.5726 2271.3047 5195058
-743.68176 1005.2744 2248.2729 4537384
-724.29382 996.92151 2229.5918 4340263
-708.14441 992.79858 2220.3711 7038290
-698.9295 998.42548 2232.9556 6644305
-684.75519 997.0484 2229.8757 8091495
-678.1991 1006.928 2251.9712 7500383
-650.66705 985.43591 2203.9045 6973782
-644.32703 995.81616 2227.1199 5788992
-637.56879 1005.9706 2249.8301 4933943
-629.1366 1013.8611 2267.4768 6183498
-608.49823 1001.9963 2240.9417 4933174
-593.65521 999.35809 2235.0413 3814182
-590.10364 1016.0413 2272.3528 4472366
-579.82092 1021.6429 2284.8809 4406574
-570.21295 1028.7299 2300.7305 3221784
-549.01617 1014.7443 2269.4521 5195830
-529.73804 1003.6918 2244.7336 3485212
-519.55005 1009.7367 2258.2527 4801074
-505.59708 1008.5905 2255.6892 2630163
-495.23755 1014.7451 2269.4539 2893337
-481.03043 1013.1393 2265.8628 4406574
-468.73627 1015.5861 2271.335 3485471
-455.4068 1015.8683 2271.9658 5590590
-440.78622 1013.1998 2265.9978 6380365
-427.06451 1012.4945 2264.4207 6051400
-418.52914 1024.4384 2291.1326 6709329
-403.96054 1021.9202 2285.5007 5196091
-390.5148 1022.1664 2286.0518 6774866
-374.15997 1014.5424 2269.0005 5722178
-362.8096 1020.4254 2282.1577 1314567
-342.7995 1001.465 2239.7534 4866868
-334.94028 1017.9051 2276.5212 3880489
-315.62689 999.45435 2235.2566 4473138
-303.48602 1003.0944 2243.3972 3881001
-288.8349 998.39081 2232.8779 6644307
-275.11206 996.59851 2228.8696 3552041
-261.14896 993.7113 2222.4124 5788998
-249.4399 999.5498 2235.47 2630936
-236.39134 1000.3745 2237.3145 5327677
-224.99896 1008.7222 2255.9839 3288092
-209.36995 997.93091 2231.8494 4209452
-193.80281 985.99963 2205.1653 4538675
-180.59718 985.22644 2203.436 5394495
-167.47379 984.81622 2202.5188 6447183
-153.97424 981.93811 2196.0818 5723461
-142.64691 993.65991 2222.2974 7894374
-130.05913 998.09247 2232.2107 6644563
-119.17851 1018.1125 2276.9851 5723720
-106.19353 1022.9713 2287.8518 7631461
-90.660126 1001.1111 2238.9619 5197121
-77.355118 1000.5822 2237.7791 3815212
-63.57465 992.41248 2219.5076 4078126
-50.258907 989.12817 2212.1624 4275506
-36.903351 982.4671 2197.2649 6117709
-23.931126 984.31262 2201.3923 4275506
-10.769756 973.48175 2177.1694 5986124
2.15591 986.11627 2205.4263 6841433
15.301263 991.29309 2217.0042 4999485
29.098532 1014.4144 2268.7144 5459779
42.409275 1011.3231 2261.8008 4274990
57.02227 1033.3146 2310.9841 5525314
69.944862 1022.089 2285.8784 5262654
83.117645 1017.5682 2275.7676 4406830
96.833618 1020.0311 2281.2759 4801331
110.09922 1017.7277 2276.1243 5657154
123.45149 1016.6406 2273.6931 5197118
134.89308 1001.5805 2240.0117 8026992
147.80209 999.138 2234.5491 5329481
159.78542 991.35382 2217.1399 6842460
172.42577 988.5188 2210.7996 6250069
188.241 1003.0009 2243.1882 3354664
205.08109 1020.6736 2282.7131 1644305
221.3324 1033.4108 2311.1995 460550
237.64217 1044.9209 2336.9414 3091234
250.75717 1041.8896 2330.1621 4801849
265.20499 1044.4235 2335.8291 3419938
277.86383 1040.01 2325.9585 3222302
295.83887 1054.9714 2359.4194 5525058
309.60135 1054.2384 2357.78 5130300
323.89282 1055.2924 2360.137 5196094
337.78857 1055.0231 2359.5347 6973015
343.72223 1030.895 2305.573 5262652
352.22345 1016.0178 2272.3003 3156514
362.89636 1008.2697 2254.9719 3748137
381.04761 1021.1118 2283.6929 2761240
385.87622 998.59607 2233.3372 262656
405.14307 1013.6987 2267.1138 4801336
413.21979 1000.7319 2238.114 3024669
423.35626 993.40491 2221.7271 5261629
437.99884 996.77423 2229.2625 5261884
452.24789 999.07697 2234.4126 6182984
462.05615 991.71741 2217.9531 5985604
473.14954 987.44696 2208.4023 5393213
493.32874 1001.8579 2240.6321 6182987
505.42963 999.53784 2235.4434 7301209
524.12671 1010.048 2258.949 5130042
532.84094 1001.2756 2239.3298 3616295
543.73859 996.9328 2229.6172 2169622
559.07227 1000.7365 2238.124 2300948
582.95013 1019.3035 2279.6487 2103312
598.97644 1023.6121 2289.2847 4670006
608.81195 1017.3843 2275.3564 3748647
622.47089 1017.6773 2276.0117 4867386
629.03326 1006.6017 2251.2415 5064765
648.75964 1016.6141 2273.634 6052176
665.09363 1021.0114 2283.4685 5328456
678.39465 1020.6703 2282.7056 4802628
689.46796 1017.0563 2274.6228 7236711
702.83582 1016.9006 2274.2749 4275769
716.48352 1017.1483 2274.8286 3617324
725.98322 1011.6067 2262.4351 5328196
736.78363 1008.0457 2254.4709 5065022
758.27911 1018.9836 2278.9333 6841433
771.24963 1018.2833 2277.3672 6907227
769.47314 998.47131 2233.0581 3749422
783.08173 998.95532 2234.1406 7631468
791.12451 992.44128 2219.572 8092276
803.25623 991.18561 2216.7637 6512987
815.26379 989.8197 2213.709 7235937
826.21991 987.24066 2207.9409 6973532
844.302 993.12415 2221.0991 7170655
839.13159 971.89551 2173.6218 5591363
850.94885 970.68652 2170.918 4801075
866.23029 973.40649 2177.001 4077351
893.34906 989.15344 2212.2188 4340520
896.2995 978.07159 2187.4346 5656381
920.33722 989.98895 2214.0874 4208937
936.48511 993.20367 2221.2771 4998453
952.96088 996.67218 2229.0344 5919814
957.9743 988.22168 2210.135 3880487
979.75464 997.06219 2229.9065 5064504
993.27948 997.37775 2230.6123 4209195
1020.9333 1011.6862 2262.6128 3485477
1034.6718 1012.0132 2263.344 5854282
1049.0845 1012.9827 2265.5125 3683114
1063.9397 1014.3496 2268.5696 3682599
1066.464 1004.0731 2245.5862 4472113
1075.3104 999.92847 2236.3169 2564118
1088.406 999.78815 2236.0032 3418913
1104.938 1002.7697 2242.6714 3550500
1102.9824 989.10181 2212.1033 4340530
1124.8394 996.85791 2229.4497 3287842
1117.3506 978.729 2188.9048 3090465
1121.6033 971.18304 2172.0283 4669498
1134.2196 970.96783 2171.5471 1907222
1167.1141 987.92242 2209.4656 4670270
1162.7688 973.32819 2176.8259 6117458
1172.897 971.03662 2171.7009 4077875
1177.6749 964.41357 2156.8887 3748137
1193.1508 966.59924 2161.7769 2432534
1212.1716 971.57983 2172.916 2103056
1223.1213 970.05463 2169.5049 2037520
1239.7883 973.04834 2176.2002 2629138
1249.9365 970.91681 2171.4331 3944998
1269.0841 975.74792 2182.2378 3616286
1288.0924 980.37555 2192.5874 7169107
1282.3313 966.24707 2160.9893 5918787
1300.248 970.06281 2169.5229 3287582
1313.6465 970.46594 2170.4246 3682086
1328.0055 971.56396 2172.8804 3287330
1332.2031 965.27826 2158.8225 1774608
1344.3929 964.84802 2157.8604 3156261
1356.764 964.55475 2157.2043 5722442
1383.0564 974.07147 2178.4883 5262917
1407.4303 982.07361 2196.385 7499619
1418.9868 981.06744 2194.1345 7828070
1439.3262 986.09674 2205.3826 3945768
1452.4778 986.15533 2205.5137 6578514
1453.4524 978.0191 2187.3171 7039322
1481.5973 988.14789 2209.97 5985866
1491.5619 986.08014 2205.3455 7038041
1504.7365 986.15198 2205.5061 3485221
1504.66 977.61316 2186.4092 722951
1520.1281 979.23334 2190.0327 131328
1520.7673 971.35474 2172.4124 723206
1538.438 974.39532 2179.2126 2499616
1540.4543 967.55298 2163.9099 5854537
1560.0354 971.76483 2173.3296 6710359
1590.7723 982.79999 2198.0095 5789254
1593.0435 976.21222 2183.2761 6841687
1616.726 982.74567 2197.8879 2762784
1630.7319 983.33972 2199.2166 3158053
1654.2958 989.64209 2213.3118 4671547
1664.0083 987.62445 2208.7993 6316117
1680.86 989.84229 2213.7595 4144179
1692.1216 988.75946 2211.3376 2236182
1684.7852 976.90924 2184.835 3748394
1691.1661 973.13312 2176.3896 4471861
1715.2115 979.50165 2190.6328 3682858
1728.4154 979.6297 2190.9192 5130818
1742.1887 980.07629 2191.918 5788749
1763.1187 984.51245 2201.8394 7105121
1761.265 976.2547 2183.3711 6709850
1782.9237 981.05499 2194.1069 6445907
1787.6631 976.54333 2184.0166 3287843
1814.6729 984.17474 2201.0842 6315603
1800.1321 969.32336 2167.8694 7302498
1821.712 973.99475 2178.3167 6907483
1841.8175 977.81763 2186.8665 7104863
1873.778 987.83679 2209.2742 8947067
1859.8601 973.69824 2177.6536 7697256
1889.0931 982.1897 2196.6445 7631206
1883.7845 972.7287 2175.4854 6512467
1893.4351 971.06836 2171.772 4999228
1909.9606 972.93243 2175.9409 5723464
1925.0177 974.02869 2178.3926 7631209
1928.0312 969.05695 2167.2734 5394249
1930.6523 963.95502 2155.863 5656909
1931.5565 958.06854 2142.6982 4076847
1928.395 950.25549 2125.2246 3089950
1967.2469 963.11249 2153.9788 1248776
1976.3446 961.33075 2149.9941 2235410
1986.1328 959.90564 2146.8066 6774094
2006.8901 963.7663 2155.4409 2169359
2020.5653 964.19836 2156.4075 3221008
2036.1836 965.54669 2159.4229 5589298
2006.5687 945.56281 2114.7292 4010522
2030.2745 950.7973 2126.4363 2761479
0 0 0 0
0 0 0 0
0 0 0 0
0 0 0 0
0 0 0 0
0 0 0 0
0 0 0 0
0 0 0 0
0 0 0 0
0 0 0 0
-1849.5421 956.76941 2111.8125 4472106
-1974.09 1028.1528 2269.3723 5064754
-1885.5588 988.77771 2182.4622 5722684
-1804.6827 952.90076 2103.2734 6906957
-1831.7141 973.89801 2149.6191 6051396
-1813.3547 970.88654 2142.9722 5459512
-1798.7814 969.87384 2140.7371 5064755
-1764.0817 957.91821 2114.3481 6512199
-1770.4293 968.23999 2137.1306 7235921
-1768.9745 974.41278 2150.7554 2564107
-1763.7981 978.61005 2160.0198 3222552
-1755.5465 981.15015 2165.6265 2761745
-1751.4836 986.08582 2176.5205 4669741
-1740.7804 987.32849 2179.2634 5985858
-1733.512 990.55237 2186.3794 7630940
-1737.0638 1000.0543 2207.3523 2828309
-1752.3381 1016.5004 2243.6526 5723969
-1735.839 1014.6257 2239.5146 5526335
-1722.24 1014.4304 2239.0835 5328699
-1725.3866 1024.172 2260.5857 2630932
-1718.5603 1028.0999 2269.2554 5854790
-1713.2107 1032.9802 2280.0273 4341552
-1699.0061 1032.5564 2279.092 4802100
-1685.1542 1032.3419 2278.6187 3157276
-1676.3539 1035.2438 2285.0237 3354655
-1666.5133 1037.545 2290.1033 4736563
-1661.1421 1042.6896 2301.4583 4998967
-1661.1803 1051.3428 2320.5579 2762006
0 0 0 0
-1701.2087 1094.7969 2416.4712 4472881
-1633.5885 1060.2023 2340.1128 4209709
-1480.4625 969.04688 2138.9116 4539186
-1527.489 1008.4598 2225.9053 4736051
-1510.9182 1006.2063 2220.9312 5919812
-1529.2916 1027.3888 2267.6858 3354656
-1555.7247 1054.4094 2327.3267 3879971
-1531.2177 1047.0791 2311.147 4604464
-1491.2465 1028.9465 2271.1243 4999221
-1526.8965 1063.1368 2346.5901 5327673
-1478.2484 1038.7216 2292.7 3090715
-1490.4052 1056.9756 2332.9907 2234636
-1450.3945 1038.2285 2291.6116 2564112
-1425.2965 1029.9028 2273.2349 2827282
-1411.1423 1029.4016 2272.1287 4472620
-1371.5159 1010.1303 2229.5923 4208677
-1352.359 1005.7068 2219.8286 6577739
-1302.5753 978.19647 2159.1069 4274982
-1321.6639 1002.3746 2212.4739 5130804
-1319.5964 1010.8312 2231.1394 4801580
-1293.3687 1000.7645 2208.9199 5656636
-1290.7334 1008.9337 2226.9512 5064496
-1286.359 1015.8981 2242.3232 3551512
-1288.145 1027.9238 2268.8669 5920318
-1272.3469 1026.0233 2264.6719 6578765
-1272.3268 1036.9412 2288.7703 4407597
-1262.2811 1039.8357 2295.1589 5855302
-1269.5488 1057.2106 2333.5095 6052681
-1252.9862 1054.9053 2328.4209 4342062
-1244.5706 1059.4838 2338.5269 6118471
-1238.6094 1066.2783 2353.5242 5723974
-1215.2805 1058.1062 2335.4863 5724228
-1197.9114 1054.9945 2328.6182 4407858
-1174.6156 1046.53 2309.9351 4934203
-1154.3014 1040.5537 2296.7439 2434067
-1141.83 1041.589 2299.0291 2960409
-1117.4397 1031.6456 2277.0818 3749158
-1105.7196 1033.2997 2280.7324 4209966
-1094.0214 1035.0151 2284.519 3617831
-1085.2677 1039.5944 2294.6262 591360
-1063.0156 1031.1953 2276.0876 1183750
-1048.2375 1029.924 2273.2815 3880744
-1011.6329 1006.8951 2222.4514 3156760
-1003.1195 1011.5872 2232.8081 4012068
-965.56317 986.72534 2177.9321 7170133
-965.84131 1000.3774 2208.0654 6775369
-969.99744 1018.4761 2248.0134 4999214
-967.70044 1030.2087 2273.9099 4604710
-944.24957 1019.4343 2250.1284 5063979
-946.17102 1036.1362 2286.9934 1446409
-929.96173 1033.1803 2280.469 4538929
-938.86749 1058.4513 2336.2478 2237214
-908.54126 1039.5875 2294.6113 131844
0 0 0 0
-877.70325 1035.2817 2285.1074 1908503
-864.31 1035.4545 2285.4888 1710607
-846.5686 1030.3408 2274.2017 4934460
-820.60089 1014.8876 2240.0928 3158049
-802.06525 1008.2692 2225.4846 2038289
-795.00616 1016.098 2242.7644 4537901
-782.87964 1017.6059 2246.0928 2629134
-764.59424 1011.0222 2231.5608 3352086
-746.15814 1004.0038 2216.0698 3879455
-724.70386 992.60034 2190.8997 3880225
-707.58563 986.82806 2178.1589 6315085
-702.34119 997.70874 2202.175 6117445
-693.29297 1003.4956 2214.948 5130295
-677.56671 999.65308 2206.4668 7038547
-667.28461 1003.8497 2215.7295 4077861
-651.75061 1000.1551 2207.5747 9538937
-631.29492 988.60199 2182.0745 6314567
-619.56848 990.52155 2186.3113 5788479
-615.13177 1004.4262 2217.002 5130549
-603.18256 1006.403 2221.3652 6182979
-592.13269 1010.0021 2229.3093 4406057
-586.16254 1022.6273 2257.1763 4801585
-575.20648 1026.9408 2266.697 3354140
-555.02448 1014.595 2239.447 2762006
-541.06641 1013.3008 2236.5903 2893334
-527.29565 1012.3012 2234.384 3551264
-520.72241 1025.4237 2263.3484 4669744
-504.59393 1019.9261 2251.2139 3025436
-493.04581 1023.6395 2259.4102 4670516
-478.42117 1020.9945 2253.572 4473395
-464.26834 1019.2334 2249.6851 2499867
-448.00507 1012.5982 2235.0396 3682852
-434.4566 1011.8818 2233.4583 4669491
-421.05051 1011.4625 2232.5327 4932659
-409.68445 1016.0754 2242.7146 3484701
-399.5387 1024.1257 2260.4834 5063733
-386.5054 1025.0759 2262.5808 5524797
-373.87265 1027.1951 2267.2581 4669746
-361.97006 1031.5529 2276.877 6051400
-344.1485 1018.7271 2248.5674 4340784
-330.38281 1017.3578 2245.5452 3683369
-314.70752 1009.7467 2228.7456 2893854
-301.32773 1009.1566 2227.4431 6117707
-285.81839 1001.0539 2209.5586 7829609
-273.60867 1004.2847 2216.6897 7237215
-257.8548 994.17651 2194.3787 5131325
-244.95038 994.56458 2195.2351 5789254
-233.28543 1000.311 2207.9187 5591876
-221.63509 1006.8063 2222.2556 2959899
-207.28099 1001.0643 2209.5815 2827800
-193.03735 995.11743 2196.4556 5525057
-178.38654 986.06024 2176.4641 2761752
-165.34772 985.19659 2174.5579 5130298
-152.61185 986.14447 2176.6501 3617059
-140.35231 990.62958 2186.5498 6709586
-129.49524 1006.9319 2222.5327 6644563
-117.95135 1020.9796 2253.5393 3157284
-101.45805 990.30347 2185.8298 5327937
-89.064003 996.5166 2199.5437 4275506
-76.425987 1001.6618 2210.9004 5855306
-62.980946 996.17065 2198.7803 6182988
-50.214725 1001.3525 2210.2178 4407091
-36.573814 986.59479 2177.644 5657159
-23.564558 982.07697 2167.6721 5393472
-10.716499 981.50201 2166.4031 6775125
2.1288252 986.62897 2177.7195 4472627
15.199447 997.74365 2202.2522 6710359
29.020994 1025.1158 2262.6689 7434082
41.833668 1010.8143 2231.1021 2038546
54.998852 1009.8527 2228.9795 2762008
68.457939 1013.6151 2237.2842 3155997
81.939606 1016.437 2243.5127 3616292
96.193253 1026.7109 2266.1897 4800309
109.6343 1026.8573 2266.5127 4932664
121.66896 1015.2364 2240.8628 3156511
133.07021 1001.1368 2209.7415 5262143
144.35208 988.74493 2182.3899 6512211
159.40846 1002.1189 2211.9092 3683370
171.40059 995.66089 2197.655 6249293
185.44391 1001.189 2209.8567 4144177
203.39919 1025.7153 2263.9922 6907999
219.63991 1039.0958 2293.5259 4802621
232.02765 1033.7511 2281.729 5591623
243.63158 1025.6951 2263.9475 5131071
258.8204 1032.7847 2279.5957 6972504
273.48907 1037.1985 2289.3381 5327423
294.21329 1063.0756 2346.4548 4603444
292.28464 1008.4593 2225.9041 2761753
321.66025 1061.9039 2343.8689 5919563
332.11688 1051.0522 2319.9165 3485222
341.08197 1036.5303 2287.8633 4407351
346.853 1013.7828 2237.6541 1051655
366.02969 1030.4496 2274.4419 1512205
371.38266 1008.3981 2225.769 1972242
383.27655 1005.0102 2218.291 787970
397.26801 1007.1647 2223.0464 2300690
409.51608 1004.9026 2218.0537 1971727
419.09097 996.42572 2199.343 4800820
432.36761 996.99579 2200.6016 5985096
445.31024 996.78497 2200.136 4340268
459.73987 999.81982 2206.8347 4800307
470.69778 995.34552 2196.959 5919044
487.24835 1002.6202 2213.0159 4932406
498.57724 999.05029 2205.1362 6906450
515.33698 1006.2673 2221.0659 5787459
523.33691 996.44604 2199.3879 3879976
540.56915 1004.2535 2216.6208 3485219
558.41492 1012.8034 2235.4924 1511691
574.9809 1018.6896 2248.4846 2168848
588.87347 1019.6802 2250.6711 1971726
602.59729 1020.3411 2252.1299 2497813
616.2699 1020.8886 2253.3384 2893085
627.60254 1017.6187 2246.1208 4011308
646.03778 1025.762 2264.095 6512213
663.78467 1032.5032 2278.9744 3814957
676.39014 1031.1377 2275.9604 5131075
685.34497 1024.3691 2261.0208 3354917
700.23639 1026.5631 2265.8635 6117713
693.48224 997.5387 2201.7998 3617581
716.04858 1010.9833 2231.4751 3354153
725.66028 1005.9814 2220.4348 3879981
750.21033 1021.4979 2254.6833 3353891
760.71204 1017.6779 2246.2515 4274736
766.92212 1008.3464 2225.655 5656902
780.75183 1009.1794 2227.4934 3815212
775.1369 985.2688 2174.7173 6841948
788.42572 985.77551 2175.8357 5130559
797.16565 980.67004 2164.5667 4933437
812.9436 984.24713 2172.4622 5262145
821.35974 978.9386 2160.7449 6972249
824.57861 967.69366 2135.9248 6183244
846.07605 977.91553 2158.4868 6840913
867.79956 988.09039 2180.9451 3353627
873.52972 980.02356 2163.1396 4998451
888.92004 982.87115 2169.425 3814435
911.04248 992.9751 2191.7268 5261625
925.94025 995.03131 2196.2654 2958870
945.43433 1001.9014 2211.4292 3813925
948.0979 990.99182 2187.3491 3419424
959.00531 988.87701 2182.6814 6906455
982.84912 999.98035 2207.189 4275248
1011.4929 1015.6117 2241.6909 5590596
1023.1137 1013.9669 2238.0605 3616807
1040.4242 1017.931 2246.8103 2827035
1056.1569 1020.2707 2251.9746 1051140
1062.4613 1013.5579 2237.158 1905936
1077.0403 1014.8068 2239.9146 525057
1086.0022 1010.7974 2231.0647 1643534
1105.5922 1016.6573 2243.999 3354410
1103.2676 1002.4659 2212.6753 5525573
1095.0164 983.28564 2170.3401 2893085
1112.7258 987.59192 2179.845 3090464
1126.2587 988.13501 2181.0437 3748395
1142.7422 991.22516 2187.8643 4077104
1160.108 995.00275 2196.2024 3353637
1154.6073 979.30182 2161.5466 3616807
1150.7925 965.35962 2130.7729 4142895
1158.3488 961.15533 2121.4932 5195582
1186.5431 973.98212 2149.8049 2893340
1200.2125 974.74023 2151.4783 854016
1215.7994 977.02332 2156.5176 2300177
1231.6669 979.48206 2161.9446 2431762
1247.7852 982.08759 2167.6956 2300175
1272.7343 991.51959 2188.5142 5589568
1272.199 981.10815 2165.5337 4471342
1284.3052 980.55615 2164.3154 3944998
1299.1796 982.10785 2167.7402 6116940
1307.7935 978.94275 2160.7542 4998975
1325.4214 982.52106 2168.6523 4407097
1328.0151 974.99286 2152.0359 4341047
1325.9133 964.19348 2128.199 4472374
1338.4564 964.14673 2128.0959 3879980
1370.8248 978.24872 2159.2222 4538681
1388.2469 981.52246 2166.4482 5328197
1401.6951 981.95233 2167.397 6512213
1414.3385 981.81573 2167.0955 4668982
1426.0182 981.01862 2165.3362 4538422
1436.7041 979.55823 2162.1125 4932666
1456.3856 984.20264 2172.364 6051665
1473.601 987.11365 2178.7893 7893869
1498.2769 994.92834 2196.0381 3223080
1506.5931 991.8385 2189.218 4078131
1505.9558 982.95728 2169.615 4078386
1522.6342 985.43274 2175.0791 3552042
1532.4937 983.49072 2170.7925 7302244
1535.8309 977.43005 2157.4153 5460039
1550.5709 978.66644 2160.1443 2499357
1561.7606 977.66022 2157.9233 4604471
1578.5558 980.15082 2163.4207 6644055
1584.4229 975.87048 2153.9729 6578519
1609.2396 983.23669 2170.2319 6841436
1650.9708 1000.7389 2208.8633 7170658
1646.3696 990.10223 2185.3857 5065794
1653.6582 986.72595 2177.9336 4867643
1663.2675 984.77606 2173.6296 1051912
1671.8435 982.24921 2168.0522 3420714
1672.1033 974.91199 2151.8572 7761766
1702.9958 985.41101 2175.031 3090207
1709.4901 981.74066 2166.9297 4931896
1725.3776 983.47913 2170.7671 5721927
1739.9916 984.47156 2172.9575 5787206
1776.001 997.46576 2201.6387 5853255
1791.3625 998.75848 2204.4919 5984585
1799.2706 995.90686 2198.198 4734776
1808.6042 993.87964 2193.7234 3419174
1806.1487 985.4491 2175.1152 3485991
1813.0437 982.20367 2167.9517 4078130
1821.7029 979.95276 2162.9834 6841691
1838.7087 982.19189 2167.9258 8815224
1843.6571 978.00385 2158.6819 6710104
1851.0369 975.15448 2152.3926 5986125
1865.2328 975.9104 2154.061 6841434
1872.1442 972.87048 2147.3513 5722955
1900.905 981.14917 2165.6243 2301976
1916.3829 982.50702 2168.6213 6183505
1883.0973 959.01263 2116.7637 7039071
1917.7938 970.22162 2141.5046 5130814
1922.6228 966.2724 2132.7878 5328963
1940.3135 968.79669 2138.3594 5657416
1963.7218 974.12451 2150.1191 6842717
1967.0599 969.49176 2139.8936 9013890
1976.4044 967.85974 2136.2913 855562
1974.952 960.99475 2121.1387 8684925
2014.124 973.85901 2149.5332 2434080
2019.1531 970.15686 2141.3616 2104340
1999.7494 954.83478 2107.5422 2366994
0 0 0 0
0 0 0 0
0 0 0 0
0 0 0 0
0 0 0 0
0 0 0 0
0 0 0 0
0 0 0 0
0 0 0 0
0 0 0 0
0 0 0 0
0 0 0 0
-1788.3315 943.58466 2055.8284 5327925
-1784.0289 947.7691 2064.9451 6051648
-1771.8481 947.79706 2065.0061 2367248
-1794.137 966.39221 2105.52 5460026
-1790.5735 971.22516 2116.0498 6512711
-1771.0454 967.40576 2107.7285 4934452
-1759.9738 968.18427 2109.4246 7236693
-1750.0833 969.62817 2112.5706 6710606
-1737.6864 969.69427 2112.7146 6644559
-1732.5388 973.83618 2121.7385 6183752
-1738.7725 984.48248 2144.9341 4670512
-1736.474 990.41919 2157.8687 2433813
-1726.8197 992.21729 2161.7864 7236440
-1736.8442 1005.434 2190.5823 7039061
-1734.6704 1011.7353 2204.311 5131064
-1733.879 1018.9444 2220.0178 4209706
-1729.4109 1024.0865 2231.2212 5394236
-1710.7068 1020.813 2224.0891 3551520
-1718.2002 1033.2427 2251.1699 3222810
-1708.9559 1035.7228 2256.5735 4209707
-1697.1298 1036.6648 2258.626 4472878
-1682.6689 1035.9998 2257.177 4933687
-1665.0607 1033.3706 2251.4487 2630933
-1652.1737 1033.653 2252.064 2828055
-1627.0662 1026.2318 2235.8953 3222302
-1628.7595 1035.7318 2256.5933 2498577
-1596.6642 1023.7248 2230.4331 1643268
-1680.6143 1086.5427 2367.2971 2695957
0 0 0 0
-1578.0049 1037.52 2260.4893 3287576
-1519.8689 1007.8492 2195.8445 4604205
-1494.4729 999.56415 2177.7932 6577997
-1478.593 997.55493 2173.4155 5328445
-1477.3895 1005.4989 2190.7236 3289121
-1499.4722 1029.5726 2243.1741 2761493
-1496.3887 1036.6427 2258.5779 4472112
-1473.814 1030.2156 2244.575 4209196
-1448.7977 1021.9495 2226.5652 1709580
-1421.3779 1011.8204 2204.4963 4077353
-1419.3578 1019.752 2221.7773 1906184
-1436.3209 1041.5985 2269.3752 2827025
-1405.6851 1029.0135 2241.9561 2300425
-1401.6937 1035.8795 2256.9153 4801071
-1359.4988 1014.3725 2210.0569 4011808
-1311.6272 988.17059 2152.9695 4735276
-1273.0721 968.54187 2110.2036 5327158
-1295.5802 995.4408 2168.8096 4669740
-1301.7806 1010.2234 2201.0171 4998704
-1295.6594 1015.6464 2212.8323 4274724
-1283.5826 1016.4641 2214.6138 5656634
-1273.6519 1019.0155 2220.1729 4472360
-1269.2695 1026.1058 2235.6206 5920060
-1269.5697 1037.1709 2259.7288 7631449
-1262.6471 1042.5084 2271.3577 6052418
-1255.1321 1047.4666 2282.1602 5460796
-1235.4036 1042.2286 2270.7483 5263161
-1224.0355 1044.0066 2274.6218 6909014
-1215.5078 1048.2736 2283.9185 6776918
-1204.5935 1050.5551 2288.8894 6711125
-1186.8331 1046.8501 2280.8171 4869179
-1175.5632 1048.8505 2285.1755 4210222
-1163.2227 1049.9313 2287.5303 3618088
-1147.7501 1048.1772 2283.7087 2236438
-1123.744 1038.4952 2262.614 2828572
-1107.3856 1035.7321 2256.594 4210223
-1084.655 1026.8689 2237.2832 3223071
-1055.8322 1011.9473 2204.7729 7829094
-1053.906 1022.7535 2228.3169 6513492
-1053.0122 1034.8485 2254.6687 5066045
-1009.7021 1005.0341 2189.7107 4735793
-988.50159 996.7373 2171.6343 5920065
-975.02997 996.1178 2170.2847 5262133
-958.77667 992.60199 2162.6245 6051901
-951.86652 998.79462 2176.1167 5525042
-955.1676 1016.0192 2213.6445 5130283
-948.96716 1023.4757 2229.8904 4604196
-945.19861 1033.8026 2252.3901 3353618
-934.60834 1036.8572 2259.0452 2367503
-919.16687 1034.5404 2253.9976 2960154
-915.49384 1045.5963 2278.0854 855053
-896.99109 1039.7924 2265.4402 592140
0 0 0 0
0 0 0 0
-838.63715 1017.8358 2217.6023 5723976
-810.44543 999.27405 2177.1611 5855559
-815.01068 1021.1544 2224.8328 4933688
-800.15088 1019.0155 2220.1729 3419679
-793.74127 1027.7467 2239.1958 853763
-771.41919 1015.8209 2213.2124 3945765
-754.83319 1011.1666 2203.072 1313794
-742.97186 1012.7889 2206.6067 3682337
-720.70154 1000.0262 2178.8 3024920
-706.84784 998.6897 2175.8879 5919811
-702.90326 1011.5638 2203.9375 6380363
-687.70184 1008.4188 2197.0852 2959899
-671.4671 1003.608 2186.6038 5459771
-653.40662 995.82532 2169.6472 6381131
-644.0144 1001.2063 2181.3711 3683620
-635.44916 1008.1196 2196.4336 7960167
-615.69922 997.20697 2172.6575 5262652
-608.71893 1006.952 2193.8894 5262908
-591.98694 1000.6389 2180.1348 7235926
-576.28943 995.83173 2169.6611 5591356
-566.6731 1001.5534 2182.1272 3880994
-562.59625 1017.5612 2217.0042 2893845
-549.22681 1017.1251 2216.0542 4538412
-536.44574 1017.7842 2217.49 3419934
-523.03986 1017.2611 2216.3503 4012070
-513.27795 1023.9807 2230.9905 3617058
-503.05078 1030.1028 2244.3291 394242
-489.93503 1030.4818 2245.1548 1906188
-476.77029 1030.7759 2245.7957 1906445
-459.21237 1021.3162 2225.1855 3024412
-443.73746 1016.0671 2213.749 2235408
-429.74637 1013.9993 2209.2439 3946793
-417.31644 1015.601 2212.7334 5986377
-407.47452 1023.8092 2230.6169 3420713
-392.89798 1020.2728 2222.9119 4209195
-380.09808 1021.2645 2225.0728 4011559
-367.43735 1022.715 2228.2329 1446411
-353.85663 1021.6174 2225.8416 3222558
-341.75955 1024.884 2232.9587 5262650
-323.38977 1008.8455 2198.0149 5591619
-309.01212 1004.4375 2188.4109 6513492
-297.67532 1009.9604 2200.4441 4473141
-271.49863 963.33429 2098.8577 8420722
-261.05493 970.73566 2114.9834 7170911
-254.37396 993.58051 2164.7563 6249808
-242.29176 996.63379 2171.4087 6381394
-229.13857 995.3772 2168.6709 7170910
-215.63622 992.36444 2162.1069 4407089
-206.27325 1009.2238 2198.8391 1774855
-190.68567 995.84827 2169.6973 2761494
-176.40344 987.84888 2152.2688 3616289
-163.97961 989.82104 2156.5654 3550496
-151.56657 992.1969 2161.7419 5524800
-138.95645 993.60223 2164.8037 5525057
-127.39012 1003.5157 2186.4026 4735541
-113.22752 992.90631 2163.2876 3024670
-100.14471 990.26605 2157.5352 3353631
