# .PCD v0.7 - Point Cloud Data file format
VERSION 0.7
FIELDS x y z rgb
SIZE 4 4 4 4
TYPE F F F U
COUNT 1 1 1 1
WIDTH 1295
HEIGHT 1
VIEWPOINT 0 0 0 1 0 0 0
POINTS 1295
DATA ascii
-6832.3325 1681.4012 9313.0938 2632505
-6294.8516 1561.7416 8650.3125 2698299
-7360.8032 1841.1914 10198.153 2830399
-7196.7817 1815.0616 10053.424 2830398
-5701.9565 1450.0602 8031.7212 2698813
-6969.0503 1787.2076 9899.1436 2698814
-6759.1099 1748.0786 9682.4121 2764350
-6722.5156 1753.4956 9712.416 2698557
-6528.4595 1717.5789 9513.4775 2633020
-6326.7402 1679.0033 9299.8115 2567484
-6341.1221 1697.6029 9402.833 2567484
-6257.1426 1689.9663 9360.5342 2567485
-6126.7329 1669.5406 9247.3994 2501949
-5888.2285 1619.0248 8967.5977 2501949
-5738.2236 1592.1445 8818.7109 2501949
-5628.7104 1576.1085 8729.8887 2567743
-5573.8887 1575.2314 8725.0303 2501950
-5646.7603 1610.7627 8921.835 2567743
-5707.498 1643.4718 9103.0068 2567742
-5684.9556 1652.5955 9153.542 2567742
-5739.9634 1684.6555 9331.1191 2567742
-5638.2529 1670.8958 9254.9053 2567743
-5717.6768 1711.0723 9477.4375 2633535
-5643.252 1705.5481 9446.8398 2567486
-5471.3242 1670.1499 9250.7734 2633279
-5385.8374 1660.689 9198.3701 2764862
-5314.5947 1655.4716 9169.4717 2699070
-5253.9302 1653.4752 9158.415 2699325
-5436.9038 1728.9136 9576.2598 2633277
-4622.2944 1485.3704 8227.3008 2699068
-4742.4336 1540.218 8531.0957 2699068
-5179.6094 1700.3214 9417.8906 2698811
-5229.9883 1735.5547 9613.043 2633018
-5051.5259 1694.7871 9387.2363 2698555
-4828.7935 1638.0941 9073.2207 2764347
-4702.9644 1613.3677 8936.2637 2764346
-4269.5342 1481.3533 8205.0508 2961724
-4287.1011 1504.578 8333.6895 3093308
-4208.8687 1494.3308 8276.9316 2830647
-4102.2598 1473.6484 8162.374 2765107
-4109.7954 1493.9657 8274.9092 3159606
-4055.0403 1491.8567 8263.2275 3883069
-3980.1829 1482.2101 8209.7959 4475204
-3922.8386 1478.9271 8191.6123 4934728
-3911.8152 1493.2441 8270.9121 5000521
-3832.0432 1481.348 8205.0215 4737350
-3735.0107 1462.3884 8100.0059 4211520
-3737.0796 1482.2418 8209.9717 4277572
-3727.3706 1497.8859 8296.6221 3751487
-3688.657 1502.1361 8320.1641 3488319
-3616.8374 1492.8375 8268.6602 3159357
-3537.9573 1480.329 8199.377 2896699
-3566.6201 1513.0963 8380.8711 2436148
-3461.4446 1489.2079 8248.5557 2304563
-3469.5994 1514.0912 8386.3818 2107186
-3468.0432 1535.3981 8504.3984 2107188
-3403.2109 1528.9064 8468.4414 2172724
-3366.1729 1534.8936 8501.6035 2172980
-3279.6938 1518.1766 8409.0107 2172981
-3184.2712 1496.74 8290.2754 2172982
-3170.4248 1513.5767 8383.5322 2304310
-3106.5205 1506.671 8345.2822 2172724
-3064.0334 1510.0974 8364.2607 2304309
-2992.6787 1499.1752 8303.7637 2238518
-2904.8469 1479.4958 8194.7627 2172726
-2750.5684 1424.7299 7891.4194 2106933
-2821.8054 1486.9012 8235.7803 2106935
-2799.1145 1500.8961 8313.2959 2172470
-2874.6001 1568.9777 8690.3916 2237750
-2886.8843 1604.4172 8886.6885 2303543
-2982.1267 1688.1351 9350.3916 2303543
-2698.4561 1556.4653 8621.0879 2237751
-2644.655 1554.8617 8612.2051 2172728
-2635.9111 1580.2063 8752.5859 2172471
-2564.6895 1568.3613 8686.9785 2172728
-2566.8689 1601.837 8872.3965 2304057
-2531.2737 1612.6464 8932.2686 2172728
-2453.6536 1596.5721 8843.2344 2238009
-2371.2981 1576.6481 8732.877 2303801
-2374.3806 1613.9088 8939.2607 2172983
-2283.5007 1587.5449 8793.2334 2304312
-1942.4497 1381.9645 7654.5464 2304315
-2243.4128 1634.238 9051.8613 2304315
-1953.6611 1458.0167 8075.792 2238522
-1785.6753 1366.1033 7566.6934 2238778
-1764.7683 1384.874 7670.6621 2304571
-2004.9468 1614.9348 8944.9434 2238780
-1996.3613 1651.674 9148.4375 2304571
-1756.3717 1493.6708 8273.2754 2370365
-1811.9614 1585.1815 8780.1436 2370365
-1745.5823 1572.2443 8708.4854 2436158
-1704.1957 1581.7153 8760.9443 2370365
-1660.0182 1589.1096 8801.9004 2370366
-1604.6526 1585.9261 8784.2676 2370366
-1449.019 1480.1099 8198.1631 2501952
-1415.0199 1495.5072 8283.4473 2501953
-1410.2281 1543.9884 8551.9795 2502210
-1319.6581 1498.6691 8300.96 2436417
-1286.5591 1517.6345 8406.0078 2370624
-1230.4714 1509.9177 8363.2656 2172988
-1194.5854 1527.3829 8460.0039 1975608
-1118.153 1492.2656 8265.4922 1580592
-1070.2881 1493.8033 8274.0098 1646127
-1034.6724 1513.4055 8382.584 1776939
-973.35706 1495.4982 8283.3975 2042168
-916.10223 1482.2596 8210.0703 2765633
-863.68481 1475.8021 8174.3032 3752784
-813.24371 1472.1552 8154.103 4476765
-770.40735 1482.6831 8212.416 5595502
-713.63806 1466.0084 8120.0566 6385276
-642.54803 1415.3781 7839.6211 7240844
-599.74042 1424.0115 7887.4404 7766932
-556.36108 1432.6317 7935.1865 7898773
-532.88074 1498.8121 8301.7529 8161946
-499.12827 1546.6211 8566.5615 8425119
-460.56003 1588.6415 8799.3076 8622497
-395.66876 1539.0013 8524.3564 8622497
-346.52661 1545.0565 8557.8955 8688290
-295.94092 1545.6478 8561.1709 8623011
-247.89272 1562.4778 8654.3896 8623011
-184.81032 1468.6138 8134.4873 8491168
-144.58243 1554.2092 8608.5918 8557217
-91.034081 1511.8744 8374.1035 8491681
-42.53331 1552.3616 8598.3574 8623011
8.2706137 1527.4855 8460.5713 8557475
58.668602 1534.696 8500.5098 8623011
105.77484 1488.9103 8246.9072 8623011
150.90634 1453.0427 8048.2412 8557475
199.16457 1457.2765 8071.6914 8557475
251.53648 1484.1429 8220.502 8491425
299.1806 1478.9227 8191.5879 8425632
342.02832 1454.7592 8057.7485 8491171
391.11819 1459.8126 8085.7393 7504533
442.21371 1470.4326 8144.5615 7043725
478.90796 1435.7871 7952.6646 8030620
534.49158 1458.9069 8080.7217 8294046
580.6109 1454.516 8056.4019 8425889
633.16595 1465.6902 8118.2944 8425889
673.74609 1449.5232 8028.7471 8425633
727.9751 1462.9169 8102.9331 8425889
773.76733 1458.7479 8079.8413 8425888
828.54968 1471.0259 8147.8477 8491425
864.83392 1450.918 8036.4727 8557218
923.84863 1469.0533 8136.9224 8557218
965.09851 1458.5421 8078.7017 8491425
1015.7861 1462.6134 8101.2524 8425889
1043.3773 1434.5618 7945.8774 8491425
1081.3373 1422.5728 7879.4712 8491682
1143.441 1442.0243 7987.2114 8491682
1205.5884 1459.9827 8086.6812 8623268
1201.448 1399.3613 7750.9058 8689061
1237.2773 1388.0432 7688.2158 8754598
1275.5385 1380.16 7644.5522 8886183
1309.5055 1368.3304 7579.0293 8820390
1355.9479 1369.8888 7587.6606 8820646
1399.9896 1368.9996 7582.7358 8886182
1444.08 1368.2117 7578.3721 8886439
1487.3452 1366.7133 7570.0723 8951976
1535.9279 1370.0457 7588.5298 8886184
1582.1104 1371.1084 7594.416 8886440
1616.7894 1362.4189 7546.2861 8886183
1676.6796 1374.8698 7615.2505 9149098
1725.6609 1377.9574 7632.3525 9214378
1735.4923 1350.4242 7479.8486 8621984
1797.2814 1363.6848 7553.2974 8950435
1824.483 1350.6953 7481.3501 8225939
1891.1794 1366.8671 7570.9243 6975614
1889.3127 1333.8832 7388.2295 5987688
1925.2808 1328.4999 7358.4121 6316391
1948.1642 1314.5261 7281.0132 6513256
1974.9816 1303.7546 7221.3516 4276034
2041.3221 1318.9775 7305.6689 3091501
2079.0229 1315.4471 7286.1147 5197134
2102.991 1303.5481 7220.207 4473413
2109.1643 1281.3131 7097.0503 3552311
2180.1335 1298.5414 7192.4761 3354930
2191.4421 1280.255 7091.1895 3683635
2241.1162 1284.6483 7115.5234 3683119
2262.4155 1272.9148 7050.5327 3617068
2317.0435 1280.0186 7089.8799 3748394
2335.1069 1267.0294 7017.9346 4142896
2381.3599 1269.5227 7031.7446 3945774
2415.1763 1265.4143 7008.9888 2827294
2454.3455 1264.2021 7002.2744 2301464
2476.0178 1254.1674 6946.6934 3354662
2534.6418 1262.8719 6994.9067 4604729
2470.9143 1211.316 6709.3438 3814444
2525.8201 1218.6293 6749.8516 4208945
2608.3315 1238.8259 6861.7183 4274739
2650.9375 1239.7405 6866.7837 4011568
2744.3962 1264.0499 7001.4312 2958880
2758.6228 1251.6848 6932.9429 2958367
2833.8479 1266.9539 7017.5161 3221539
2857.5618 1259.0847 6973.9297 3287331
2899.2927 1259.2653 6974.9297 3484967
2933.6213 1256.2709 6958.3442 3353638
2997.9055 1266.0096 7012.2861 3024417
3009.1943 1253.4083 6942.4883 2958626
3014.2463 1238.5839 6860.3779 3156004
3016.7949 1223.139 6774.8306 3024162
3052.0784 1221.1976 6764.0771 3353124
3045.3396 1202.7104 6661.6787 3353122
3055.4275 1191.2567 6598.2378 3616293
3137.7483 1207.899 6690.4175 3221278
3149.6589 1197.3591 6632.0386 3089691
3271.6506 1228.4115 6804.0337 3484192
3311.9888 1228.4222 6804.0938 3418654
3378.0605 1237.8629 6856.3843 3484448
3358.8259 1216.1908 6736.3447 4734515
3377.7595 1208.6854 6694.7734 3616034
3431.5618 1213.6868 6722.4756 3747619
3549.9197 1241.1438 6874.5571 3615777
3575.094 1235.7681 6844.7812 3616035
3569.1257 1219.8688 6756.7173 3813414
3665.0632 1238.7659 6861.3857 3484705
3701.7458 1237.4399 6854.042 3353120
3695.9248 1222.0889 6769.0142 3944999
3722.9978 1217.8273 6745.4092 3879720
3747.7229 1212.8962 6718.0972 3748134
3847.6768 1232.1599 6824.7959 4274478
3850.6401 1220.2859 6759.0273 3484961
3904.3462 1224.5715 6782.7651 4208171
3833.9485 1190.2422 6592.6187 3879720
3968.8669 1219.7021 6755.7944 3944999
3931.3333 1196.1057 6625.0962 3550240
4022.0283 1211.6036 6710.937 3418654
4039.9841 1205.1005 6674.917 3287068
4078.4458 1204.7808 6673.146 3484447
4207.1772 1230.8772 6817.6914 3747619
4252.3418 1232.2609 6825.3555 3549983
4296.4956 1233.3285 6831.2686 3550497
4319.8887 1228.4722 6804.3701 4076585
4412.686 1243.2601 6886.2793 4142121
4363.9473 1218.265 6747.834 3484448
4484.4888 1240.552 6871.2793 3813156
4387.8682 1202.9047 6662.7549 4537135
4471.2148 1214.8257 6728.7832 3550497
4473.5059 1204.7075 6672.7402 3682336
4471.4912 1193.6173 6611.313 3550240
4511.771 1193.9119 6612.9443 3550240
4510.2329 1183.2306 6553.7822 3681826
4604.5532 1197.6649 6633.7319 3418654
4598.9761 1186.0911 6569.6255 3220762
4631.9868 1184.5798 6561.2554 2957590
4628.7549 1173.9022 6502.1133 3352091
4654.6997 1170.7393 6484.5942 3351836
4616.7021 1151.6772 6379.0117 3023127
4669.3062 1155.3427 6399.3135 3483933
4717.4712 1157.8593 6413.2529 3944484
4751.729 1156.9497 6408.2153 4010277
4802.6387 1160.0769 6425.5361 3615777
4849.3657 1162.1525 6437.0322 3945255
4921.3823 1170.2089 6481.6562 4208171
5017.8037 1183.8988 6557.4829 4339756
5093.5659 1192.5414 6605.3535 3944997
5057.0415 1174.9633 6507.9902 3878947
5032.457 1160.4044 6427.3501 3417883
5085.647 1163.8629 6446.5068 3614749
5075.9438 1152.9841 6386.25 3417627
5026.002 1133.1937 6276.6333 3154712
5087.8735 1138.719 6307.2373 3351577
5174.9004 1149.7527 6368.3516 3351833
5182.1274 1143.0253 6331.0889 3878433
5228.9062 1145.0555 6342.335 3681310
5257.0112 1142.9968 6330.9321 3944484
5247.3716 1132.819 6274.5576 3681312
5294.1167 1134.8711 6285.9243 3549727
5359.7202 1140.9089 6319.3672 3154968
5406.9019 1142.9688 6330.7764 3154712
5304.1372 1113.5214 6167.6704 3023381
5420.9868 1130.2661 6260.4175 3154712
5460.4937 1130.767 6263.1919 3681056
5470.3989 1125.1726 6232.2051 3812898
5537.0586 1131.2483 6265.8579 3812641
5560.8252 1128.5382 6250.8467 3944484
5426.9136 1094.0757 6059.9634 2957589
5527.5864 1107.0481 6131.8159 4076068
5466.394 1087.6449 6024.3438 3549724
5488.9814 1085.0549 6009.998 3615004
5503.6162 1080.9364 5987.1855 4009762
5580.6465 1089.0468 6032.1084 3680797
5625.6221 1090.8384 6042.0322 3549211
5902.3643 1137.2642 6299.1792 3286039
5708.5347 1093.0067 6054.042 3483418
5668.415 1078.5486 5973.9604 3746590
5699.3091 1077.6984 5969.251 3680797
0 0 0 0
0 0 0 0
0 0 0 0
0 0 0 0
0 0 0 0
0 0 0 0
0 0 0 0
0 0 0 0
0 0 0 0
0 0 0 0
-7648.6582 1628.4548 8733.2598 1711406
0 0 0 0
0 0 0 0
-8051.519 1749.7339 9383.6689 2566712
-8036.8647 1758.6923 9431.7109 2961725
-8022.604 1767.8627 9480.8906 3356227
-8109.8369 1799.6848 9651.5508 3553606
-8186.5771 1829.614 9812.0586 3356998
-8159.3931 1836.5793 9849.4131 3225412
-7871.1543 1784.4615 9569.9102 3422792
-7692.8892 1756.7004 9421.0293 3357256
-8064.1426 1854.9352 9947.8535 3488587
-7956.064 1843.5474 9886.7822 3159878
-7871.7451 1837.5372 9854.5498 2962500
-7809.3315 1836.5886 9849.4629 2699584
-7810.6807 1850.7344 9925.3252 2633792
-7686.3271 1835.0839 9841.3926 2633790
-7596.7998 1827.572 9801.1074 2502205
-7383.5981 1789.9628 9599.4121 2304570
-7278.728 1778.236 9536.5225 2172727
-7509.3545 1848.9304 9915.6504 2435897
-6679.6201 1657.6024 8889.5752 2501690
-6555.7319 1639.7871 8794.0332 2567482
-6744.7495 1700.5806 9120.0635 2501690
-6538.7764 1661.9609 8912.9502 2567483
-6533.7168 1674.1945 8978.5576 2567484
-6408.4697 1655.5792 8878.7256 2633276
-6391.5483 1664.8729 8928.5664 2764861
-6261.1763 1644.5232 8819.4326 2699068
-6426.9287 1702.2638 9129.0908 2699071
-6140.8677 1640.2996 8796.7822 2699328
-6823.2446 1838.1702 9857.9443 2699329
-6141.5938 1668.8182 8949.7246 2699328
-6015.8555 1648.887 8842.835 2699328
-6105.1079 1688.0498 9052.8623 2699328
-5876.5972 1639.2675 8791.2471 2699328
-5767.9087 1623.3357 8705.8066 2699329
-5508.7886 1564.3969 8389.7227 2699328
-5883.7075 1686.0796 9042.2959 2633791
-6443.3862 1863.4309 9993.416 2699329
-5409.8076 1579.028 8468.1875 2567998
-5251.5527 1547.1838 8297.4102 2567486
-5867.6494 1745.0288 9358.4355 2435900
-5091.623 1528.684 8198.1973 2501436
-5111.0371 1549.291 8308.7109 2436152
-4853.7231 1485.5996 7967.1396 2435894
-4856.6641 1501.0969 8050.2505 2501428
-4962.4111 1548.9919 8307.1074 2501425
-4737.7217 1493.6693 8010.4165 2764594
-4844.8315 1542.8926 8274.3965 3356730
-4505.6689 1449.5487 7773.8018 4145987
-4493.2334 1460.476 7832.4033 4606278
-4386.9575 1440.8112 7726.9429 4868936
-4412.1562 1464.3673 7853.2725 5000778
-4349.5869 1458.9854 7824.4092 4869448
-4196.7974 1422.8988 7630.8809 4540483
-4166.7695 1428.1012 7658.7808 4540741
-4212.1514 1459.5483 7827.4287 4080192
-4194.6216 1469.6534 7881.6216 3948609
-4101.9873 1453.3759 7794.3267 3619388
-4080.2786 1462.1434 7841.3457 3356220
-4043.1531 1465.5247 7859.479 2895669
-4045.6433 1483.5115 7955.9414 2698805
-3992.2627 1481.1936 7943.5103 2500912
-3883.8594 1458.1624 7819.9961 2303791
-3858.1243 1465.9868 7861.958 2238000
-3863.0303 1485.7877 7968.1484 2106673
-3804.0376 1481.198 7943.5342 2238258
-3708.1113 1461.9321 7840.2129 2172724
-3668.9121 1464.8259 7855.7319 2106933
-3604.2878 1457.5125 7816.5107 2172726
-3522.5952 1443.0168 7738.772 2106933
-3515.7224 1459.1926 7825.5215 2106934
-3491.8411 1468.6472 7876.2256 2106935
-3468.6753 1478.6628 7929.938 2172727
-3427.177 1481.0311 7942.6392 2041398
-3423.24 1499.9233 8043.9561 2041398
-3411.5437 1515.9009 8129.6426 2041398
-3389.6812 1527.7542 8193.2109 2041398
-3326.145 1520.8964 8156.4326 2041398
-3334.1726 1547.0417 8296.6484 2107191
-3175.3201 1495.3793 8019.5864 2107192
-3282.1721 1569.1783 8415.3643 2172984
-3228.3708 1567.2622 8405.0889 2041655
-3368.8645 1661.0873 8908.2646 2107191
-3157.707 1581.7505 8482.7881 2107191
-3122.5742 1589.4475 8524.0664 2172727
-3100.4055 1604.105 8602.6729 2172727
-3076.272 1618.2188 8678.3643 2172727
-2995.7578 1602.6501 8594.8711 2238520
-2938.5232 1599.2125 8576.4355 2172984
-2895.8674 1603.7277 8600.6494 2238521
-2826.05 1593.0928 8543.6162 2238265
-2759.4636 1583.925 8494.4502 2304058
-2741.8423 1603.0443 8596.9854 2238777
-2606.2314 1552.598 8326.4463 2238520
-2522.7507 1531.86 8215.2295 2238778
-2532.3337 1567.9272 8408.6553 2172985
-2516.9233 1589.6565 8525.1875 2172985
-2479.5605 1598.1272 8570.6152 2172985
-2397.8425 1577.7664 8461.4219 2238778
-2369.1348 1592.1611 8538.6201 2172984
-2320.1135 1593.235 8544.3779 2238777
-2272.8313 1595.5773 8556.9395 2238777
-2272.7092 1631.8892 8751.6777 2304570
-2030.4921 1492.0051 8001.4917 2304571
-1924.8625 1448.1974 7766.5547 2238521
-1883.7881 1452.0022 7786.9595 2238521
-1852.184 1463.4811 7848.5195 2172983
-1803.7946 1461.9468 7840.2915 2040884
-1826.8289 1519.7491 8150.2808 1974575
-1707.4551 1459.0038 7824.5088 1646124
-1677.434 1473.3496 7901.4438 1778224
-1659.3523 1499.3071 8040.6519 2041395
-1619.005 1506.0862 8077.0073 2172981
-1581.7061 1516.2003 8131.248 2764602
-1530.1604 1512.8641 8113.3564 3488581
-1499.6823 1530.8165 8209.6338 4475221
-1464.7316 1545.254 8287.0605 5462374
-1417.6835 1547.4875 8299.0391 6515575
-1367.4683 1546.3004 8292.6729 7436424
-1285.2123 1507.4438 8084.2881 7963281
-1274.9045 1553.2347 8329.8604 8226712
-1191.8744 1510.5469 8100.9297 8293019
-1131.4681 1494.153 8013.0103 8556447
-1062.5319 1464.5654 7854.3354 8622754
-1000.4045 1442.0833 7733.7651 8491425
-883.99268 1335.4358 7161.8247 8622755
-814.69653 1292.8007 6933.1758 8688549
-751.80255 1256.3369 6737.6235 8622756
-707.54053 1248.6655 6696.4829 8491426
-666.79834 1246.6637 6685.7476 8557221
-659.22888 1310.3463 7027.272 8623269
-627.55249 1331.4672 7140.541 8754084
-594.38788 1352.2555 7252.0273 8689061
-559.23828 1371.4155 7354.7803 8754341
-522.93341 1390.7407 7458.4194 8688803
-481.05515 1397.4426 7494.3618 8754084
-444.96161 1424.0205 7636.8965 8754340
-400.98718 1428.5388 7661.1279 8688804
-343.35153 1379.33 7397.2251 8754597
-300.28391 1382.8077 7415.8755 8689060
-256.35623 1382.8381 7416.0391 8689060
-212.42757 1382.875 7416.2363 8688804
-168.4881 1382.8419 7416.0591 8754340
-125.01808 1387.9979 7443.71 8688804
-81.531311 1398.4858 7499.9565 8688805
-37.070023 1397.3607 7493.9219 8754597
7.3502474 1402.0492 7519.0659 8688805
52.007282 1405.0856 7535.3501 8688805
96.678268 1405.5198 7537.6787 8688805
141.13297 1403.5286 7527 8754597
185.97729 1405.4381 7537.2407 8886183
234.65619 1429.9758 7668.834 8688804
279.80756 1428.5436 7661.1528 8622755
323.96405 1423.1406 7632.1777 8556964
376.02573 1449.5348 7773.7271 8556964
424.52838 1457.9464 7818.8379 8491171
471.72638 1460.6632 7833.4082 8491428
512.73187 1445.4363 7751.7476 8557218
553.79144 1432.8527 7684.2622 7701139
593.73047 1419.5016 7612.6621 6911366
642.68256 1428.0631 7658.5762 7569553
710.30804 1474.2521 7906.2842 8359326
736.79346 1434.6223 7693.7524 8753827
781.28717 1432.6311 7683.0742 8360095
830.02179 1438.2078 7712.981 8491426
863.83698 1418.6998 7608.3618 8491425
916.70764 1430.87 7673.6289 8491425
961.59393 1430.0162 7669.0508 8425632
1003.3664 1424.8179 7641.1724 8557475
1051.4471 1428.6396 7661.6685 8623011
1081.2933 1408.3944 7553.0952 8689061
1123.1768 1404.8136 7533.8916 8688804
1156.325 1390.9987 7459.8032 8689061
1195.7373 1385.4589 7430.0938 8820390
1232.8348 1377.7256 7388.6206 8754597
1275.9147 1376.9789 7384.6157 9017255
1319.5354 1376.8459 7383.9028 9148843
1369.7452 1383.3761 7418.9238 9083562
1409.4542 1379.2246 7396.6602 9083562
1449.4407 1375.587 7377.1519 9017510
1487.7789 1370.6438 7350.6416 5923698
1556.146 1392.8595 7469.7822 7501445
1574.4199 1370.2498 7348.5283 6580083
1614.1619 1367.0378 7331.3037 6711407
1643.2522 1355.21 7267.8716 4342084
1684.8629 1354.0481 7261.6401 3223085
1741.3119 1364.5719 7318.0786 3419691
1795.9983 1373.2368 7364.5474 3945522
1804.1455 1346.7504 7222.5034 3748397
1814.6832 1323.2341 7096.3882 4011310
1871.0089 1333.4148 7150.9858 3945517
1880.7565 1310.6846 7029.0859 3221795
1896.7023 1293.165 6935.1299 3221794
1946.2701 1298.8259 6965.4883 3813931
1934.4785 1264.1539 6779.5464 3616039
2015.3148 1290.1924 6919.188 3221537
2009.176 1260.6217 6760.603 4208433
2068.3721 1272.3989 6823.7632 3814188
2100.9993 1267.6937 6798.5293 4406069
2147.0898 1271.1361 6816.9907 3814702
2171.0698 1261.6029 6765.8647 4011311
2236.9854 1276.3423 6844.9111 4011566
2275.8513 1275.3982 6839.8477 4274994
2332.3389 1284.1893 6886.9941 4011566
2391.2791 1294.0057 6939.6382 3485222
2392.9006 1272.9972 6826.9717 3353379
2427.4155 1269.895 6810.335 3681830
2409.3066 1239.8147 6649.0166 2234641
2438.6042 1234.7046 6621.6113 2103054
2510.603 1251.0343 6709.1865 2695191
2514.5024 1233.45 6614.8833 3550243
2570.843 1241.7346 6659.3135 3550500
2609.446 1241.3313 6657.1499 3024413
2673.3174 1252.7809 6718.5537 3879466
2721.9568 1256.8616 6740.438 4208430
2766.5144 1258.9667 6751.7271 2760984
2792.9041 1252.8617 6718.9868 3089948
2834.5759 1253.6875 6723.4155 3287074
2870.583 1252.0197 6714.4712 3287073
2897.6379 1246.5463 6685.1177 3089695
2908.8215 1234.4849 6620.4331 3023901
2929.0857 1226.5468 6577.8618 3023645
2942.3792 1215.9364 6520.9595 2760470
2967.0737 1210.2516 6490.4722 4010793
3001.7695 1208.7394 6482.3628 4537137
3079.1807 1224.2485 6565.5371 4866102
3094.9192 1215.1565 6516.7769 4931894
3145.6045 1219.8403 6541.896 3484449
3328.3591 1275.0024 6837.7256 4405550
3281.9365 1242.1021 6661.2837 3747621
3261.3076 1219.6294 6540.7651 3878950
3306.8684 1222.147 6554.2661 3550243
3323.7139 1214.1166 6511.2002 3616033
3444.7432 1243.8912 6670.8789 3879205
3449.5354 1231.4934 6604.3901 4010792
3425.3506 1209.1448 6484.5366 3879205
3477.8101 1214.047 6510.8271 3484448
3535.582 1220.6761 6546.3784 3352862
3601.8577 1230.0654 6596.7324 3681829
3617.7539 1222.2328 6554.7266 3747879
3655.6523 1221.9208 6553.0532 3945257
3681.0476 1217.4801 6529.2383 3879720
3739.8174 1224.0553 6564.5005 3879719
3741.6995 1212.0674 6500.21 3089691
3780.7212 1212.2317 6501.0918 3879207
3778.1094 1199.1783 6431.0879 3681571
3779.5479 1187.6584 6369.3071 3616033
3846.6072 1196.7825 6418.2388 3287068
3946.3 1215.7817 6520.1304 3352861
4004.8735 1221.8676 6552.7676 3418399
4190.4722 1266.219 6790.6206 3484447
4087.3958 1223.3286 6560.6035 3155741
4205.4897 1246.8175 6686.5723 2958108
0 0 0 0
0 0 0 0
0 0 0 0
0 0 0 0
0 0 0 0
0 0 0 0
0 0 0 0
4291.6489 1183.202 6345.4077 2892056
4294.0342 1173.58 6293.8057 3287068
4349.8711 1178.6062 6320.7612 3286554
4399.9292 1181.9945 6338.9321 3286297
4444.5713 1183.8827 6349.0586 3154968
4460.1328 1178.0582 6317.8223 3221275
4501.5483 1179.1025 6323.4229 4339756
4500.7393 1169.1611 6270.1079 3483933
4539.3555 1169.54 6272.1396 3549726
4585.1279 1171.7415 6283.9463 3286295
4467.77 1132.5549 6073.7925 3352345
4657.314 1171.171 6280.8867 3812896
4680.8945 1167.7709 6262.6523 3944483
4773.02 1181.3903 6335.6914 4010277
4860.5269 1193.6626 6401.5073 4273449
4910.6812 1196.6429 6417.4902 3681312
4930.2881 1192.1908 6393.6138 3615519
4913.2207 1179.0059 6322.9048 4405035
4932.625 1174.7063 6299.8462 3878691
4927.9087 1164.7701 6246.5596 4010276
4882.4863 1145.4325 6142.853 3549469
4891.6982 1139.1034 6108.9106 2167817
4894.0347 1131.2777 6066.9429 3681311
4971.0142 1140.6946 6117.4443 3351576
5059.4829 1152.5924 6181.2515 3286040
5117.3501 1157.3981 6207.0239 4141862
5030.8042 1129.7063 6058.5146 3812897
5072.8716 1131.0831 6065.8989 3615518
5117.8955 1133.0953 6076.6899 3220761
5219.9946 1147.6273 6154.624 3484189
5170.0239 1128.757 6053.4233 3812901
5210.1851 1129.6891 6058.4229 3483679
5222.2759 1124.5638 6030.9365 3220506
5226.5361 1117.8335 5994.8423 3154713
5319.3013 1129.9954 6060.0654 3221533
5366.4897 1132.3771 6072.8384 3747620
5236.7529 1097.6428 5886.5615 5195067
5238.0981 1090.6617 5849.1226 4800052
5368.772 1110.5238 5955.6411 3023638
5344.1387 1098.2112 5889.6099 2957587
5371.3828 1096.6498 5881.2363 3549211
5417.0415 1098.8441 5893.0039 3154196
5411.0757 1090.6052 5848.8198 3154453
5458.4683 1093.1573 5862.5059 3746333
5421.7095 1078.9307 5786.21 3351832
5539.4185 1095.4292 5874.6899 3812383
5509.457 1082.7019 5806.4346 3417625
5514.9697 1077.0604 5776.1802 3680796
0 0 0 0
0 0 0 0
0 0 0 0
0 0 0 0
0 0 0 0
0 0 0 0
-7067.062 1511.5347 7856.6138 3028293
-7165.3711 1542.722 8018.7183 2896708
-7092.728 1537.2734 7990.3979 2831171
-7115.5088 1552.573 8069.9214 2896451
-7192.7261 1580.0372 8212.6748 2896707
-7076.5645 1565.1067 8135.0693 2830914
-7149.7778 1592.1423 8275.5938 2896451
-7105.6519 1593.2411 8281.3047 2830914
-7336.3306 1656.4008 8609.5947 2830914
-7285.9443 1656.5414 8610.3262 2896450
-7347.4766 1682.3096 8744.2627 2765121
-7325.834 1689.2643 8780.4111 2699585
-7246.2876 1682.8708 8747.1807 2765121
-7244.9683 1694.6836 8808.5801 2699328
-7273.2319 1713.6378 8907.0996 2765121
-7159.2007 1699.098 8831.5254 2765121
-7193.3613 1719.7738 8938.9932 2765122
-7008.9741 1688.1184 8774.4561 2765123
-6998.9185 1698.292 8827.3359 2896708
-7450.5898 1821.5002 9467.7441 2830915
-6888.8828 1696.9506 8820.3633 2567742
-6914.3784 1716.2491 8920.6729 2501949
-6745.7651 1687.2933 8770.167 2501950
-6586.4873 1660.2408 8629.5547 2633277
-6612.5244 1679.8427 8731.4404 2699070
-6412.564 1641.8885 8534.1641 2699069
-6483.0728 1673.1333 8696.5664 2764862
-6467.9756 1682.6088 8745.8174 2830399
-6547.1729 1716.9652 8924.3945 2830399
-6553.0249 1732.4904 9005.0908 2830143
-6007.793 1601.3785 8323.6016 2764350
-5781.9316 1553.9296 8076.9722 2698556
-5894.1489 1597.3075 8302.4414 2632761
-5639.7329 1541.2224 8010.9233 2567224
-5509.8335 1518.5016 7892.8262 2501430
-5459.7197 1517.5692 7887.98 2764345
-5548.4541 1555.5476 8085.3828 3093307
-5468.8921 1546.5936 8038.8418 3422269
-5327.124 1519.7357 7899.2412 3817024
-5410.3291 1557.1517 8093.7212 4145988
-5477.1206 1590.4707 8266.9053 4343108
-5176.2822 1516.6737 7883.3252 4606022
-5096.4839 1506.8882 7832.4619 4342850
-4953.5679 1478.0892 7682.772 4211264
-4988.4629 1502.3051 7808.6401 4145215
-4937.0347 1500.734 7800.4746 4079422
-4878.6851 1497.0095 7781.1157 4013372
-4792.7285 1484.6622 7716.937 3815991
-4614.4336 1443.1974 7501.4121 3487539
-4590.2383 1449.5907 7534.6431 3224624
-4467.3628 1424.6404 7404.957 2960940
-4453.4897 1434.3009 7455.1699 2631976
-4255.4326 1384.2421 7194.9756 2434599
-4223.6973 1387.8201 7213.5732 2368810
-4175.8672 1386.1287 7204.7817 2302763
-4210.6792 1412.1177 7339.8667 2302765
-4012.5562 1359.7157 7067.4932 2434352
-4020.1663 1376.6594 7155.5625 2368817
-4018.3237 1390.6927 7228.5049 2237746
-3902.4705 1365.1456 7095.7168 2237746
-3865.915 1367.0839 7105.7915 2172468
-3823.3867 1366.9296 7104.9893 2106677
-3772.8828 1363.8884 7089.1821 2237751
-3741.6807 1367.8351 7109.6958 2238007
-3715.3792 1373.6833 7140.0942 2237750
-3679.6658 1376.1466 7152.897 2237749
-3603.8176 1363.4823 7087.0708 2106931
-3788.0439 1450.0769 7537.1704 2304054
-3762.7424 1457.5728 7576.1318 2238261
-3534.0906 1385.5266 7201.6528 2238517
-3653.968 1450.0293 7536.9229 2172725
-3754.6108 1508.4003 7840.3218 2238516
-3703.1235 1506.3505 7829.667 2238517
-3832.8896 1578.9137 8206.834 2238518
-3768.0259 1572.136 8171.6055 2238777
-3669.8306 1551.0938 8062.2324 2173241
-3485.3604 1492.5509 7757.9399 2172984
-3624.2839 1572.7821 8174.9639 2238520
-3407.9619 1498.9377 7791.1377 2172727
-3547.1953 1581.5981 8220.7871 2107191
-3470.6277 1569.0004 8155.3076 2172984
-3399.863 1558.7076 8101.8081 2107192
-3377.6328 1570.6899 8164.0889 2172984
-3253.2158 1534.8102 7977.5947 2238777
-3189.0547 1526.7196 7935.5415 2172984
-3131.1416 1521.4226 7908.0093 2238777
-3040.0452 1499.5962 7794.5605 2172984
-3071.3843 1538.4231 7996.3735 2041398
-3080.238 1567.0272 8145.0518 2107191
-3034.4885 1568.3212 8151.7769 2172727
-2957.4495 1553.224 8073.3057 2238520
-2907.9985 1552.3577 8068.8022 2172727
-2812.2656 1526.3431 7933.5845 2172728
-2782.9827 1536.1226 7984.416 2172984
-2734.8232 1535.6409 7981.9121 2304570
-2720.313 1554.369 8079.2573 2106936
-2649.1528 1540.8191 8008.8276 2238266
-2619.7864 1551.5264 8064.4814 2238267
-2596.1987 1566.1176 8140.3232 2304058
-2358.9006 1449.9034 7536.2686 2238265
-2294.5449 1437.5555 7472.0869 2172728
-2198.3562 1404.3856 7299.6772 2106677
-2142.8379 1396.3877 7258.106 2172469
-2046.6931 1361.0458 7074.4062 2040882
-2029.1737 1377.6046 7160.4761 1909553
-1962.1644 1360.5547 7071.8545 2040625
-1934.4136 1370.5764 7123.9448 2698805
-1908.0402 1382.0428 7183.5444 3226699
-1867.8616 1383.8047 7192.7026 4411486
-1829.984 1387.3936 7211.3564 5069418
-1801.3585 1398.3361 7268.2329 5530227
-1795.9546 1428.282 7423.8853 5661555
-1766.8627 1440.42 7486.9761 7240330
-1746.0374 1460.0959 7589.2471 7700882
-1732.7268 1487.2622 7730.4507 7899286
-1701.928 1500.4851 7799.1802 8227995
-1661.4243 1505.651 7826.0317 8293789
-1606.2144 1497.4037 7783.1636 8425374
-1559.9645 1497.2686 7782.4619 8491168
-1506.6117 1490.1002 7745.2026 8425375
-1457.7845 1487.0984 7729.5991 8491682
-1404.8461 1479.5717 7690.4771 8557474
-1354.9779 1474.8823 7666.103 8557474
-1285.4926 1447.7742 7525.2012 8623011
-1231.6982 1437.0249 7469.3291 8689060
-1159.4102 1403.0939 7292.9629 8688803
-1119.0414 1406.6593 7311.4951 8689060
-1061.6759 1388.2864 7215.9971 8820646
-1011.4783 1378.1378 7163.2471 8820902
-974.52423 1385.9349 7203.7749 8952232
-934.98016 1390.5944 7227.9937 8951975
-883.22089 1376.6613 7155.5723 8886183
-852.34778 1395.5194 7253.5928 8754854
-812.53375 1400.9642 7281.894 8754598
-773.77142 1408.9347 7323.3223 8689061
-718.9494 1386.8724 7208.6475 8689062
-676.03125 1386.4365 7206.3823 8688805
-632.35577 1384.2842 7195.1943 8689061
-588.59857 1381.6288 7181.3926 8623011
-549.15247 1389.4677 7222.1372 8688804
-505.07422 1385.9205 7203.6997 8688804
-462.8392 1387.2434 7210.5757 8688804
-421.20822 1390.8297 7229.2163 8754597
-378.35495 1390.735 7228.7241 8754597
-334.44913 1386.2534 7205.4302 8754596
-291.34576 1384.2732 7195.1377 8754852
-248.81627 1384.8082 7197.9185 8820390
-205.7487 1381.9503 7183.064 8820389
-163.68735 1386.1232 7204.7529 8820390
-121.05804 1386.7334 7207.9253 8820389
-78.859558 1395.6334 7254.1855 8754597
-35.96521 1398.7871 7270.5776 8754598
7.1158042 1400.4534 7279.2383 8820390
50.325539 1402.8473 7291.6816 8820390
92.981255 1394.7195 7249.4351 8820390
136.36935 1399.2423 7272.9438 8820390
178.65251 1392.9781 7240.3838 8820390
233.51601 1468.2388 7631.5713 8820390
263.92142 1390.2471 7226.1885 9017512
310.11099 1405.567 7305.8179 8885929
355.32571 1413.2567 7345.7876 8951722
397.84467 1409.7163 7327.3848 8820137
434.72556 1388.8601 7218.9795 8885929
475.95233 1384.3805 7195.6953 8820390
504.23163 1346.0734 6996.5835 8754854
559.55774 1380.3043 7174.5083 8557217
582.05066 1334.4276 6936.0513 6714241
625.92554 1340.3896 6967.041 8029845
684.98303 1376.1156 7152.7363 7964824
764.09528 1445.6213 7514.0112 7043979
778.96881 1392.6294 7238.5713 7833752
819.2619 1388.2408 7215.7607 8754598
854.92493 1376.8311 7156.4546 9346220
902.11572 1384.1874 7194.6914 8161690
945.72729 1385.6359 7202.2202 8621984
987.43994 1384.2971 7195.2617 9148328
1009.5316 1356.7007 7051.8218 9477293
1056.3429 1363.1979 7085.5928 9016485
1095.603 1359.8263 7068.0679 6976387
1132.6323 1354.0359 7037.9707 8949920
1186.2576 1367.7925 7109.4746 8028558
1230.4952 1370.1525 7121.7412 6974581
1266.6315 1363.6342 7087.8604 3090989
1310.4828 1365.5737 7097.9419 4670017
1345.3889 1358.3612 7060.4526 3617841
1399.46 1370.3499 7122.7671 4012598
1473.493 1400.6115 7280.0596 4341306
1495.3329 1380.9508 7177.8687 4341047
1493.2848 1340.927 6969.834 4209461
1560.7931 1363.8361 7088.9102 3485738
1546.4639 1315.9078 6839.79 3879727
1596.5436 1323.8344 6880.9902 4011567
1627.7947 1316.1422 6841.0083 4011566
1658.1747 1308.1366 6799.397 3814186
1669.6367 1285.9406 6684.0264 4011821
1719.2512 1293.4766 6723.1973 3617318
1747.4266 1284.907 6678.6548 3156253
1778.9855 1279.1497 6648.7295 3222303
1832.3445 1288.9773 6699.811 3419170
1874.5016 1290.6753 6708.6367 3616805
1884.4243 1270.5687 6604.1274 3945514
1917.7426 1266.7335 6584.1929 4142895
1937.934 1254.5535 6520.8838 3484965
1984.1426 1259.3629 6545.8823 3484966
2051.2517 1276.9995 6637.5532 3616809
2066.719 1262.428 6561.814 4077617
2111.3408 1265.8743 6579.7271 4274484
2168.5959 1276.6329 6635.6475 4406324
2257.168 1305.116 6783.6963 3945773
2211.9399 1256.5916 6531.4775 3879980
2265.8589 1265.0922 6575.6616 4472117
2296.8325 1260.7108 6552.8882 4011308
2351.6794 1269.3613 6597.8516 3155998
2370.3442 1258.5179 6541.4907 3879976
2393.1484 1250.1863 6498.1841 4866615
2399.4126 1233.6144 6412.0474 3616549
2459.0437 1244.5693 6468.9883 3550755
2493.9067 1242.8446 6460.0239 3090204
2511.8208 1232.8533 6408.0908 3221790
2590.1433 1252.3676 6509.522 3353378
2623.7385 1250.0004 6497.2178 3353121
2670.7849 1254.0173 6518.0972 3418914
2704.1833 1251.603 6505.5483 3155742
2726.0869 1244.0111 6466.0874 3879465
2772.4141 1247.6205 6484.8477 3221021
2779.6531 1233.7815 6412.9155 3286816
2820.8345 1235.1782 6420.1758 3221279
2841.9138 1227.8528 6382.0996 3286814
2880.5288 1228.1963 6383.8853 3155485
2866.2966 1206.2902 6270.022 4208172
2868.6438 1191.8328 6194.876 3813671
2906.7632 1192.4152 6197.9028 4340271
2923.8059 1184.4446 6156.4741 5853509
2967.967 1187.521 6172.4644 4077098
3000.2808 1185.84 6163.7266 5261116
3015.8848 1177.6742 6121.2832 4142636
3143.561 1212.9458 6304.6167 3549729
3184.9033 1214.4681 6312.5293 3681826
3225.6523 1215.7317 6319.0967 4010791
3317.7029 1236.0796 6424.8604 4010791
3270.3462 1204.6158 6261.3193 4207656
3303.8352 1203.303 6254.4956 3944998
3374.0952 1215.2634 6316.6626 4142377
3401.3586 1211.6448 6297.854 3747619
3416.3149 1203.7684 6256.9146 3813413
3396.3982 1183.9049 6153.6689 4273964
3466.4988 1195.5083 6213.9805 3682083
3563.9668 1216.2068 6321.5664 3747876
3547.5859 1198.0278 6227.0767 3023897
3552.0483 1187.1895 6170.7412 3155228
3636.312 1202.972 6252.7749 2628624
3629.0422 1188.4601 6177.3457 2892310
3673.3821 1190.9709 6190.396 3484190
3796.9822 1218.8752 6335.437 4010535
3845.3589 1222.3225 6353.3545 3615777
0 0 0 0
0 0 0 0
0 0 0 0
0 0 0 0
0 0 0 0
0 0 0 0
0 0 0 0
0 0 0 0
0 0 0 0
0 0 0 0
0 0 0 0
0 0 0 0
0 0 0 0
4198.3218 1173.6848 6100.5469 4076841
4297.1982 1191.0735 6190.9292 3681825
4296.0073 1180.6664 6136.8354 3484447
4283.5127 1167.3536 6067.6387 4208170
4312.8413 1165.5651 6058.3423 4208169
4286.2632 1148.8219 5971.3149 4339500
4359.2642 1158.824 6023.3032 3681312
4401.1499 1160.4592 6031.8032 3615519
4416.1372 1155.0332 6003.5996 3812898
4447.4141 1153.92 5997.814 3746849
4493.4536 1156.6245 6011.8716 3615262
4596.9873 1173.9694 6102.0259 3483933
4695.418 1189.7504 6184.0522 3418140
4697.6572 1181.1023 6139.1016 3549469
4680.3291 1167.7052 6069.4663 3549725
4737.7241 1173.0129 6097.0552 3615519
4741.5107 1165.0681 6055.7593 4076070
4722.0181 1151.5653 5985.5752 3352347
4735.9692 1146.359 5958.5137 4273449
4762.0942 1144.1548 5947.0566 3154968
4847.4824 1156.1171 6009.2339 3615519
4846.2539 1147.3976 5963.9116 3944227
4790.8774 1126.0769 5853.0918 4207656
4770.3682 1113.1992 5786.1567 3812641
4919.9434 1139.9127 5925.0068 3154968
4959.8042 1141.0077 5930.6987 3089175
4973.8276 1136.1852 5905.6323 3352347
5032.8892 1141.6464 5934.0181 3089177
4892.5698 1102.1184 5728.561 3746851
4932.085 1103.3662 5735.0469 4405295
5057.2051 1123.6168 5840.3047 3747621
5138.2334 1133.8623 5893.5586 3155484
5113.2847 1120.7413 5825.3589 3418656
5159.3501 1123.257 5838.4346 4405548
5067.5181 1095.917 5696.3271 4273963
5249.6357 1127.7919 5862.0059 4010791
5242.1392 1118.7803 5815.166 4010277
5202.6738 1103.1082 5733.7056 2891796
5203.585 1096.1448 5697.5112 3088918
5226.1309 1093.7992 5685.3193 3023382
5233.8394 1088.3981 5657.2456 2694673
5154.7393 1065.1283 5536.2949 3681312
5259.1758 1079.8373 5612.749 2694417
5346.1504 1090.799 5669.7246 3352347
5346.5181 1084.063 5634.7129 3878436
5382.4033 1084.5675 5637.3354 3154968
0 0 0 0
0 0 0 0
0 0 0 0
0 0 0 0
-5993.814 1304.2792 6576.8281 2896708
-6557.5225 1436.2811 7242.4473 2896708
-6061.9429 1336.4799 6739.2002 3028293
-6401.1792 1420.6279 7163.5161 3028294
-6266.354 1399.9874 7059.4365 2962500
-6362.0229 1430.911 7215.3691 3028294
-6565.1777 1486.5917 7496.1387 3028294
-6302.1963 1436.7618 7244.8721 3028294
-6460.1162 1482.863 7477.3369 3093829
-6628.8184 1532.0927 7725.5776 3028293
-6592.6729 1534.3323 7736.8706 2962500
-6597.1553 1546.1249 7796.3345 2831171
-6588.043 1554.8752 7840.458 2830914
-6737.0161 1601.3248 8074.6807 2830914
-6687.3086 1600.877 8072.4224 2699584
-6758.5601 1629.5875 8217.1953 2699584
-6659.5425 1617.3624 8155.5508 2764607
-6666.272 1630.8286 8223.4531 2633534
-6524.7593 1607.9602 8108.1392 2830656
-6756.9297 1677.5259 8458.9248 3027777
-6559.0942 1640.5771 8272.6104 3224898
-6325.9429 1594.1721 8038.6133 3290690
-6673.437 1694.499 8544.5117 3684931
-6468.103 1654.9141 8344.9043 3882565
-6312.2559 1627.4784 8206.5605 4211529
-6566.4492 1706.158 8603.3018 4408905
-6312.8623 1653.0996 8335.7549 4737613
-6088.8423 1607.0082 8103.3389 4934990
-6336.0347 1685.5381 8499.3262 5132369
-6262.1064 1679.2158 8467.4463 5395284
-6144.7803 1661.0604 8375.8975 5264466
-6210.3208 1692.4442 8534.1504 5198673
-6028.6035 1656.4072 8352.4336 5001294
-5961.209 1651.4449 8327.4111 4738123
-5810.9634 1623.2556 8185.2666 3817022
-5727.8828 1613.5121 8136.1353 3553339
-5729.4785 1627.6584 8207.4678 3158581
-5532.564 1585.1704 7993.2217 3026997
-5490.937 1586.8253 8001.5669 2698287
-5439.6499 1585.6932 7995.8584 2566446
-5336.2031 1569.2025 7912.7041 2435118
-5208.9478 1545.3564 7792.46 2500657
-5122.6216 1533.3348 7731.8408 2303536
-5031.2886 1519.5842 7662.5034 2106415
-4949.2368 1508.412 7606.1675 2172209
-4728.1685 1454.2761 7333.1875 2040626
-4266.7583 1324.527 6678.9272 2106162
-4223.6235 1323.4091 6673.2905 2106163
-4410.5674 1395.0431 7034.5049 2040370
-4429.0928 1414.2656 7131.4346 1974577
-4373.3296 1409.9084 7109.4634 2040370
-4306.0024 1401.7023 7068.084 1974578
-4307.9336 1416.1017 7140.6929 2040114
-4232.9907 1405.2657 7086.0532 2106163
-4182.5801 1402.4388 7071.7979 2106163
-4309.0342 1459.4581 7359.3179 2106164
-4272.4155 1461.8464 7371.3608 2171700
-4276.6587 1478.4093 7454.8794 2237494
-4234.9712 1479.2747 7459.2427 2172214
-4192.501 1479.8817 7462.3037 2107188
-4118.4927 1469.2507 7408.6968 2106932
-4023.595 1450.8583 7315.9531 2172725
-4043.989 1474.0908 7433.103 2238261
-3985.0723 1468.6066 7405.4487 2172727
-4073.8367 1518.0306 7654.6694 2238518
-4038.063 1521.6384 7672.8618 2172726
-4014.2998 1529.9058 7714.5503 2172724
-3918.728 1510.6812 7617.6099 2238773
-3892.9136 1518.2134 7655.5913 2370102
-3805.7351 1501.7096 7572.3711 2304310
-3798.8335 1516.8666 7648.7998 2304309
-3766.7834 1522.2263 7675.8267 2238774
-3723.7856 1523.2391 7680.9331 2238774
-3654.7129 1513.4786 7631.7163 2172981
-3591.4028 1505.8901 7593.4512 2238774
-3640.8462 1545.9867 7795.6382 2173239
-3622.0005 1557.744 7854.9243 2172984
-3549.8174 1546.5695 7798.5767 2107192
-3514.0798 1551.188 7821.8657 2107192
-3398.5042 1520.2168 7665.6934 2107191
-3349.7805 1518.7159 7658.1255 2041655
-3379.8274 1553.3771 7832.9038 2107191
-3341.6858 1557.2273 7852.3188 2238520
-3252.5188 1537.0728 7750.6895 2172984
-3201.1926 1534.4799 7737.6147 2172727
-3125.1497 1519.7914 7663.5483 2238776
-3007.4929 1484.1345 7483.7485 2238520
-3025.2241 1515.2214 7640.5044 2304313
-2973.0625 1511.7142 7622.8193 2238519
-2868.7505 1481.173 7468.8145 2171954
-2832.103 1485.1581 7488.9097 2040622
-2768.1592 1474.7281 7436.3164 1973801
-2690.572 1456.5746 7344.7778 1710630
-2625.843 1444.8999 7285.9077 1382951
-2594.6003 1451.569 7319.5366 1449001
-2530.2542 1439.6301 7259.335 1975089
-2473.2637 1431.5356 7218.5186 2698553
-2438.2886 1436.1233 7241.6523 2501430
-2379.6938 1426.7145 7194.208 4870237
-2313.6497 1412.4148 7122.1016 5594475
-2261.5312 1406.243 7090.9805 6516091
-2201.3381 1394.7217 7032.8843 7240329
-2088.4675 1348.7366 6801.0044 7306379
-2045.0735 1346.693 6790.6997 7898516
-1931.6436 1297.5231 6542.7598 8227739
-1816.6144 1245.2429 6279.1377 8490911
-1713.7235 1199.2715 6047.3267 8754340
-1667.1855 1191.615 6008.7188 8754597
-1615.9232 1180.174 5951.0273 8688804
-1613.6915 1204.8302 6075.3564 8820133
-1688.9099 1289.7573 6503.6016 8754852
-1680.8384 1313.5593 6623.623 8623523
-1671.8306 1337.7501 6745.6055 8623011
-1738.7595 1425.3761 7187.4595 8425376
-1813.4919 1523.9591 7684.5645 5727349
-1764.7651 1521.1995 7670.6484 9017000
-1696.2786 1500.811 7567.8394 8951204
-1656.8982 1505.7668 7592.8291 8819876
-1593.5054 1488.5679 7506.104 8754083
-1533.7148 1473.8435 7431.856 8753826
-1495.6025 1479.6962 7461.3682 8622240
-1448.2765 1476.5122 7445.313 8622240
-1404.038 1476.3745 7444.6187 8556961
-1357.052 1473.2455 7428.8403 8622753
-1306.5608 1465.9736 7392.1719 8688804
-1261.8472 1464.9047 7386.7822 8688803
-1215.0271 1461.2258 7368.231 8754596
-1161.3232 1448.6854 7304.9966 8688803
-1103.3813 1429.6831 7209.1772 8623267
-1060.5839 1429.5636 7208.5742 8688803
-1009.8658 1418.3098 7151.8276 8820389
-962.52228 1411.0175 7115.0557 8820389
-917.20947 1406.1704 7090.6143 8951975
-869.5495 1397.0869 7044.811 8951976
-827.19415 1396.04 7039.5322 8886183
-785.05682 1395.2695 7035.6465 8886183
-744.07965 1396.5901 7042.3062 8886440
-701.85669 1395.5905 7037.2651 8820390
-658.82715 1392.7594 7022.9893 8689061
-616.54669 1391.2371 7015.313 8820390
-570.71313 1380.8975 6963.1758 8820390
-530.48395 1383.5636 6976.6196 8688805
-489.64893 1384.9667 6983.6943 8754597
-446.00391 1377.947 6948.2983 8754597
-403.01804 1371.7435 6917.0171 8689061
-362.15045 1372.1619 6919.1265 8688804
-320.5 1369.342 6904.9072 8688803
-279.52731 1369.0166 6903.2661 8754853
-240.54187 1379.9802 6958.5508 8820389
-198.33844 1373.1996 6924.3589 8820389
-157.37985 1373.7483 6927.126 8820646
-116.99066 1381.4077 6965.7485 8886182
-75.762032 1382.1017 6969.248 8820390
-34.41465 1379.6973 6957.1235 8886183
6.8214531 1383.8624 6978.1265 8886183
48.275009 1387.1254 6994.5796 8886183
89.174461 1378.8064 6952.6318 8886183
131.37917 1389.5497 7006.8042 8886183
171.72604 1380.2023 6959.6699 8951976
210.80179 1366.2358 6889.2446 8951977
254.0768 1379.6019 6956.6426 8557218
295.61829 1381.1378 6964.3877 9017771
337.74231 1384.6859 6982.2788 9017771
378.23911 1381.5162 6966.2959 9083308
419.24472 1380.6459 6961.9067 9214895
459.96359 1379.0718 6953.9692 9281198
496.47394 1366.1754 6888.9399 9149612
531.8819 1352.4353 6819.6553 8818846
565.09851 1335.4565 6734.04 3290431
610.96063 1348.6306 6800.4702 592142
670.96875 1389.4688 7006.3965 6514800
715.59332 1395.5477 7037.0498 8029069
763.81537 1407.5869 7097.7573 8884381
799.37378 1396.2505 7040.5933 9344671
844.72266 1402.2911 7071.0532 5197910
873.16821 1381.0262 6963.8247 4012349
905.5481 1367.6219 6896.2339 3485232
964.86383 1394.2993 7030.7544 4669505
1000.348 1385.7554 6987.6719 3222829
1003.2594 1334.5615 6729.5269 3552052
1063.3683 1360.4586 6860.1123 4209979
1104.2369 1360.7391 6861.5273 6249303
1141.7638 1357.0281 6842.8145 3682604
1218.7787 1398.8953 7053.9292 4274994
1184.6743 1314.6737 6629.2427 3814186
1225.7253 1316.5833 6638.8716 2958620
1258.0052 1309.246 6601.873 4801335
1287.6897 1299.7313 6553.895 4668980
1316.8778 1290.2872 6506.2734 4603700
1390.9818 1324.1378 6676.9648 4340272
1405.7457 1301.1898 6561.25 4077102
1439.6107 1296.6814 6538.5161 3880750
1483.1749 1300.9166 6559.8721 4274738
1535.3015 1312.254 6617.041 4077358
1558.4991 1298.9163 6549.7852 4011566
1598.6475 1300.0107 6555.3042 4143150
1634.1721 1297.3824 6542.0513 3551014
1701.0439 1319.1864 6651.9976 3156255
1712.2584 1297.8168 6544.2417 3945771
1736.6045 1287.1266 6490.3364 4077357
1784.3717 1293.8826 6524.4028 4076844
1809.0912 1283.9939 6474.5396 4274223
1834.5928 1275.0597 6429.4883 3221534
1862.8248 1268.3477 6395.6436 3024156
1917.1434 1279.3112 6450.9268 3682086
1903.1072 1245.1241 6278.5386 4011051
1951.9585 1252.6039 6316.2554 5590339
2051.6177 1291.7932 6513.8672 3616550
2073.0906 1281.2147 6460.5254 4735545
2085.7573 1265.676 6382.1714 4208943
2120.0461 1263.5778 6371.5908 3419427
2149.5586 1258.7557 6347.2759 3682343
2196.9302 1264.3779 6375.626 2761240
2210.9036 1250.9136 6307.7314 3024411
2268.1003 1261.9459 6363.3623 3287583
2315.3701 1267.1844 6389.7778 2629653
2311.9214 1244.943 6277.6255 2893079
2309.5029 1223.952 6171.7783 4077097
2326.4319 1213.7089 6120.127 4011303
2378.5303 1221.8466 6161.1616 3813668
2381.3813 1204.8224 6075.3169 3681826
2435.8113 1214.012 6121.6558 3682084
2525.7598 1240.375 6254.5908 3747876
2606.0156 1261.2844 6360.0269 3945254
2621.9563 1250.9136 6307.7319 3879205
2669.3496 1255.6292 6331.5103 3813413
2721.7205 1262.5231 6366.2725 4998456
2683.2178 1227.651 6190.4307 4932406
2706.5217 1221.6166 6160.0015 5852995
2729.5618 1215.6251 6129.79 4866100
2745.7861 1206.7954 6085.2661 4537391
2796.4355 1213.1287 6117.2017 4142634
2798.8025 1198.6222 6044.0527 5458750
2847.9878 1204.2795 6072.5796 4405805
2872.8894 1199.6554 6049.2627 4668721
2866.6421 1182.2983 5961.7393 4471086
2950.929 1202.2485 6062.3389 5260858
2979.2375 1199.187 6046.9009 4997686
3035.7686 1207.4233 6088.4321 4536878
3091.9299 1215.3208 6128.2549 4142377
3127.7905 1215.1479 6127.3838 4207656
3144.0176 1207.4391 6088.5122 3878949
3193.8215 1212.6538 6114.8066 3483933
3229.1924 1212.333 6113.1895 3023896
3226.4287 1197.8612 6040.2153 3023639
3263.3547 1198.2806 6042.3306 3616033
3313.6101 1203.5323 6068.812 3747362
3362.8669 1208.3126 6092.9165 2760725
3379.4546 1201.3776 6057.9463 2629138
3382.134 1189.696 5999.042 3221018
3366.5574 1171.9023 5909.3174 3681568
3469.7964 1195.4089 6027.8501 3484191
3465.8159 1181.8741 5959.6006 3483931
3403.1284 1148.7944 5792.7964 3615519
3338.2666 1115.6487 5625.6582 3154969
0 0 0 0
0 0 0 0
0 0 0 0
0 0 0 0
0 0 0 0
2293.9026 723.2959 3647.2197 65552
2295.9602 717.18927 3616.427 65552
2312.384 715.6416 3608.623 65553
2325.509 713.11084 3595.8616 65552
2318.8691 704.62006 3553.0469 17
2335.5938 703.31787 3546.4805 18
2314.5845 690.77734 3483.2449 17
2390.687 707.185 3565.9802 14
2363.1323 692.91107 3494.0042 196615
0 0 0 0
0 0 0 0
3739.7283 1068.4755 5387.7876 3615777
4067.9373 1152.4121 5811.0381 3352860
4083.3804 1147.0795 5784.1484 3550240
4198.2686 1169.5388 5897.3994 2234639
4255.6025 1175.7264 5928.6006 3286811
4264.1519 1168.4449 5891.8838 2957589
4240.0293 1152.4019 5810.9868 3747105
4278.2686 1153.4301 5816.1709 2957332
4326.3901 1157.0848 5834.6006 3154968
4243.4858 1125.9167 5677.4355 3352347
4449.6313 1171.329 5906.4263 3089175
4545.5591 1187.2449 5986.6821 3812641
4556.5576 1180.9036 5954.7061 3023382
4585.7495 1179.3386 5946.8154 4141863
4539.5874 1158.5662 5842.0698 3681312
4555.3467 1153.7916 5817.9946 3483676
4548.4688 1143.3982 5765.5859 4010277
4505.0059 1124.0317 5667.9297 4076070
4579.584 1134.1858 5719.1318 3615519
4699.1597 1155.2531 5825.3638 3549726
4631.6377 1130.3521 5699.8003 3681312
4636.5659 1123.3649 5664.5674 3483933
4619.6509 1111.2238 5603.3462 4010277
4707.9648 1124.3876 5669.7246 4076070
4778.0415 1133.0402 5713.355 3286554
4834.9971 1138.4814 5740.7925 2826259
4815.2827 1125.9196 5677.4497 2299918
4785.3628 1111.1621 5603.0352 5195323
4841.6948 1116.4979 5629.9409 3550242
4936.8779 1130.6584 5701.3452 3944999
4963.2437 1128.9729 5692.8457 4208172
4963.8091 1121.4808 5655.0674 3221534
5023.8188 1127.4296 5685.064 3418654
5028.5894 1120.9851 5652.5679 3023382
4972.3623 1101.1182 5552.3887 3023383
5006.8013 1101.4581 5554.103 3615517
5003.7231 1093.5941 5514.4482 4207654
5017.3359 1089.4563 5493.5835 3812127
5063.3257 1092.3569 5508.2095 3483932
5045.2852 1081.4948 5453.4375 3352344
5145.8975 1096.0432 5526.7983 3878689
5162.8369 1092.6987 5509.9336 1839112
5216.6211 1097.1453 5532.3555 3286552
5124.9634 1071.1383 5401.2153 3681313
5239.877 1088.3605 5488.0581 3418140
0 0 0 0
0 0 0 0
0 0 0 0
0 0 0 0
-5904.2705 1323.1747 6478.5747 2962245
-6424.3115 1449.1385 7095.3232 2896708
-6283.2031 1426.6431 6985.1802 2962501
-6366.4097 1455.1191 7124.606 2896450
-6372.7021 1466.2784 7179.2441 2830912
-6281.7905 1455.0719 7124.3745 2830655
-6350.1997 1480.8676 7250.6758 2896446
-6307.4126 1480.9069 7250.8687 2961981
-5769.4492 1363.8879 6677.9165 3422272
-6230.6978 1483.0959 7261.5869 3751234
-6362.9561 1525.1073 7467.2847 4145990
-6185.2383 1492.8904 7309.5425 4540490
-6157.5425 1496.684 7328.1167 4803659
-6222.0977 1523.1138 7457.5234 4672329
-6256.6899 1542.5344 7552.6113 4738122
-6225.8081 1545.9763 7569.4639 4672329
-6296.457 1574.8632 7710.9009 4540744
-6076.2583 1530.8942 7495.6177 4409673
-6241.8203 1584.1842 7756.5386 4343625
-6258.7334 1600.2576 7835.2378 4146247
-6228.562 1604.4426 7855.729 4014662
-6159.9478 1598.7134 7827.6768 3619906
-6095.0796 1593.877 7803.9966 3553600
-6022.2759 1586.8755 7769.7153 3224637
-5986.9263 1589.7113 7783.6006 3027258
-5918.9946 1583.8724 7755.0122 2895673
-5747.6851 1550.0627 7589.4722 2764088
-5684.6641 1545.1542 7565.4385 2764088
-5651.8682 1548.4482 7581.5669 2632503
-5546.7007 1531.8085 7500.0947 2435127
-5431.4819 1512.1017 7403.606 2435127
-5389.6304 1512.6658 7406.3672 2369079
-5325.6758 1506.9844 7378.5503 2303543
-5283.7061 1507.4816 7380.9844 2238007
-5205.7295 1497.6282 7332.7402 2107191
-5194.5376 1506.984 7378.5483 2171958
-5143.1255 1504.7312 7367.5181 2171958
-5171.3701 1525.9446 7471.3838 2040629
-5141.0352 1530.0898 7491.6797 2040629
-4899.1333 1470.7914 7201.3408 2040629
-4852.3052 1469.5299 7195.1641 2040630
-4814.0942 1470.8787 7201.7681 2106423
-4780.2324 1473.5924 7215.0552 2171959
-4733.8198 1472.4513 7209.4678 2040630
-4690.9775 1472.4099 7209.2651 1975093
