# .PCD v0.7 - Point Cloud Data file format
VERSION 0.7
FIELDS x y z rgb
SIZE 4 4 4 4
TYPE F F F U
COUNT 1 1 1 1
WIDTH 1314
HEIGHT 1
VIEWPOINT 0 0 0 1 0 0 0
POINTS 1314
DATA ascii
1943.5778 1102.0305 2340.6187 1249032
1977.1343 1113.116 2364.1633 6906704
1981.0588 1107.4802 2352.1934 5657157
1987.49 1103.3146 2343.3459 4867384
1947.337 1073.5261 2280.0776 9802376
1980.6608 1084.375 2303.1199 3947057
2027.4575 1102.4012 2341.406 6380884
2013.0063 1087.1061 2308.9204 3484962
2043.1047 1095.9136 2327.6267 2957332
2051.2075 1092.8838 2321.1917 3352090
2045.4746 1082.5718 2299.2898 3483675
2051.4814 1078.5682 2290.7869 3220502
2095.5454 1094.4946 2324.613 3483419
2087.7292 1083.293 2300.8218 5260083
2099.2539 1082.2073 2298.5159 4536616
2103.7659 1077.5438 2288.6111 4405542
2112.0906 1074.8804 2282.9541 3155479
2140.1365 1082.2234 2298.55 6312773
2176.2148 1093.5099 2322.5215 4733738
2187.436 1092.2426 2319.8298 4207394
2192.5027 1087.9371 2310.6855 4469539
2178.7729 1074.4161 2281.968 4470052
0 0 0 0
0 0 0 0
0 0 0 0
0 0 0 0
0 0 0 0
0 0 0 0
0 0 0 0
0 0 0 0
0 0 0 0
0 0 0 0
-1985.2968 1080.7119 2266.8174 3617839
-1974.3029 1082.0466 2269.6169 2828322
-1964.6599 1084.145 2274.0186 4868420
-1959.1122 1088.548 2283.2537 6841694
-1941.1989 1086.0935 2278.1055 4145207
-1951.1382 1099.2974 2305.8008 5065798
-1930.9583 1095.598 2298.0415 4408125
-1939.5656 1108.2958 2324.675 3881524
-1905.8336 1096.8087 2300.5808 5065542
-1913.7841 1109.3171 2326.8176 2960424
-1889.0425 1102.92 2313.3994 5000263
-1876.7223 1103.7345 2315.1077 3224108
-1875.5475 1111.1639 2330.6914 4210746
-1844.1583 1100.6707 2308.6812 5066056
-1832.167 1101.6843 2310.8074 2763044
-1814.9244 1099.5319 2306.2927 2960423
-1796.8739 1096.8536 2300.675 3881525
-1787.6554 1099.5669 2306.3662 3354665
-1793.7822 1111.8334 2332.0955 4341048
-1780.66 1112.2667 2333.0044 4012595
-1752.7797 1103.4163 2314.4402 5065280
-1740.1472 1104.1006 2315.8757 5263169
-1717.1058 1098.1392 2303.3716 5855049
-1691.6138 1090.5024 2287.3533 4473139
-1691.9585 1099.5325 2306.2939 6118219
-1677.5153 1099.0214 2305.2219 5328704
-1659.1517 1095.9124 2298.7007 5526084
-1639.2531 1091.7295 2289.927 5591365
-1636.6119 1099.0662 2305.3159 6117966
-1626.1368 1101.2209 2309.8357 6512981
-1619.1349 1105.7845 2319.408 4078640
-1594.6455 1098.3809 2303.8784 4144176
-1594.6288 1107.8516 2323.7434 3946541
-1586.5513 1111.8384 2332.1057 4276276
-1550.9883 1096.4644 2299.8584 7170910
-1559.3059 1112.1139 2332.6838 4934721
-1552.6969 1117.3024 2343.5669 4671293
-1529.6666 1110.6614 2329.637 5394760
-1519.9327 1113.6415 2335.8879 4999488
-1499.2471 1108.5784 2325.2681 2565146
-1479.2526 1103.9371 2315.533 3749422
-1472.5466 1109.2191 2326.6118 2894114
-1456.9021 1107.8038 2323.6433 7302758
-1443.2977 1107.9277 2323.9031 5262660
-1449.1682 1123.1476 2355.8271 3420199
-1437.406 1124.8647 2359.429 3815216
-1439.5258 1137.5858 2386.1118 3288872
-1418.5031 1132.0895 2374.583 1841429
-1405.8717 1133.2473 2377.0115 1512463
-1392.1241 1133.5195 2377.5825 1446414
-1372.1769 1128.6978 2367.4688 2301979
-1372.259 1140.422 2392.0605 1446669
-1347.8953 1131.8629 2374.1077 3354665
-1321.8978 1121.7369 2352.8684 3552557
-1314.5959 1127.4291 2364.8079 3684147
-1309.8323 1135.4441 2381.6194 3092265
-1295.2186 1135.0021 2380.6921 3618353
-1276.3315 1130.7643 2371.8035 394499
-1245.6743 1115.8884 2340.6008 3947829
-1243.9495 1126.8871 2363.6709 6513242
-1235.9075 1132.3485 2375.1265 1973012
-1229.1246 1139.1028 2389.2937 2894114
-1205.9938 1130.6871 2371.6416 4538171
-1206.3066 1144.312 2400.2202 3748912
-1193.4589 1145.6288 2402.9819 2894116
-1159.9648 1126.9191 2363.738 3157799
-1143.1183 1124.123 2357.8733 5329222
-1126.2839 1121.2703 2351.8894 4934461
-1109.0055 1117.8981 2344.8162 8092778
-1116.4084 1139.6351 2390.4102 4408372
-1107.3248 1144.8851 2401.4221 5196864
-1088.8164 1140.4004 2392.0154 4933948
-1065.3875 1130.5759 2371.4082 4605245
-1050.9753 1130.1851 2370.5884 4276537
-1051.6954 1146.2769 2404.3413 2828836
-1034.0397 1142.5071 2396.4341 3354924
-999.3678 1119.5696 2348.3223 920071
-985.70648 1119.8542 2348.9194 722439
-969.1347 1116.7933 2342.499 131331
-957.55859 1119.4839 2348.1426 131074
-941.45386 1116.8813 2342.6836 65541
-916.65942 1103.7377 2315.1145 65543
-899.94696 1100.074 2307.4299 65546
-886.33032 1100.1399 2307.5681 65547
-877.54224 1106.295 2320.4788 65548
-856.69672 1097.2037 2301.4094 65548
-845.75012 1100.7014 2308.7458 11
-830.69946 1098.8849 2304.9358 10
-818.57874 1100.9485 2309.2642 9
-804.28046 1100.1036 2307.4919 8
-790.2254 1099.568 2306.3684 8
-777.68097 1101.1525 2309.6919 9
-760.90198 1096.6903 2300.3325 9
-748.36487 1098.2909 2303.6897 9
-733.77124 1096.8767 2300.7234 9
-719.04425 1095.2059 2297.2188 9
-703.43506 1092.1008 2290.7061 9
-688.79456 1090.4072 2287.1536 9
-674.12384 1088.5968 2283.3562 11
-658.40753 1084.9893 2275.7893 11
-642.41107 1080.7595 2266.9172 10
-614.56714 1055.9921 2214.967 11
-601.37585 1055.8704 2214.7117 11
-586.01904 1051.8563 2206.292 11
-570.56818 1047.4865 2197.1262 11
-555.20245 1043.0724 2187.8677 11
-540.95355 1040.5957 2182.6729 11
-526.60699 1037.8053 2176.8198 5
-511.73694 1033.8173 2168.4548 65537
-506.31635 1049.2053 2200.7317 6643797
-494.81229 1052.4673 2207.5737 5590335
-484.91165 1059.4094 2222.135 5458242
-475.37115 1067.5476 2239.2051 525315
-463.00928 1069.6354 2243.5842 196611
-448.4967 1066.731 2237.4922 9
-436.24423 1069.1892 2242.6482 65547
-423.3121 1070.0836 2244.5244 131341
-412.95642 1077.7603 2260.6262 131342
-400.93549 1081.4597 2268.386 65550
-388.02045 1082.9205 2271.45 13
-380.659 1100.5424 2308.4124 4736090
-368.36212 1104.6769 2317.0845 13619407
-361.1084 1124.8408 2359.3787 13554127
-347.81497 1127.0574 2364.0281 13619921
-334.42194 1129.1238 2368.3623 13685457
-321.33234 1132.4404 2375.3191 13685457
-308.11032 1135.5728 2381.8892 13619921
-294.729 1138.3906 2387.7998 13685200
-281.50223 1142.1195 2395.6213 13684947
-268.1799 1145.8362 2403.417 13554387
-254.91956 1150.2494 2412.6738 13554387
-240.69368 1150.5713 2413.3491 13357522
-225.50484 1146.04 2403.8447 13292245
-211.15401 1145.4437 2402.594 12831959
-194.3096 1130.2568 2370.739 10267329
-178.89919 1121.6943 2352.7791 3750729
-165.24701 1123.6406 2356.8613 4013897
-151.48962 1125.1647 2360.0581 2104868
-137.72575 1126.9456 2363.7935 788747
-124.25349 1131.7859 2373.946 1972249
-110.4962 1134.934 2380.5493 2499104
-96.551163 1136.7927 2384.4482 3485226
-80.368622 1108.4294 2324.9556 4077615
-67.514877 1123.7391 2357.0681 5063996
-53.166683 1115.6731 2340.1492 4340529
-39.435303 1119.4255 2348.02 4471858
-25.672745 1125.9005 2361.6016 4932151
-11.672355 1124.963 2359.635 1905677
2.3014302 1122.4142 2354.2888 3879466
16.321621 1127.4464 2364.8442 656385
30.344002 1127.9115 2365.8196 4933186
44.127087 1121.9982 2353.4163 1051658
58.776142 1135.6564 2382.0647 591107
72.515289 1129.8488 2369.8831 1446158
86.50621 1129.2118 2368.5469 459521
100.9905 1134.2938 2379.2068 1051915
115.0488 1133.9325 2378.4487 1643537
127.83535 1122.4832 2354.4336 2235674
142.76712 1130.27 2370.7666 2038553
156.10612 1125.1818 2360.0938 2170396
168.66074 1115.7408 2340.2913 2893604
181.67519 1110.5452 2329.3933 1380365
196.6727 1117.3494 2343.6653 1051400
208.43416 1106.0837 2320.0354 1314059
221.98874 1105.1385 2318.053 1379851
235.08871 1102.1724 2311.8311 853506
247.32492 1095.7061 2298.2678 2564122
258.9118 1087.1879 2280.4009 4011053
270.10974 1077.9624 2261.0503 2498327
285.14447 1084.1971 2274.1277 2038549
297.53262 1080.2605 2265.8704 3551016
312.65152 1086.15 2278.2241 590848
325.37323 1083.5691 2272.8105 2432277
336.74673 1076.882 2258.7839 1906192
355.2616 1092.6703 2291.9004 3221281
366.11115 1084.5881 2274.948 2168079
377.97729 1079.9847 2265.292 3220508
392.33197 1082.5634 2270.7009 3680542
402.63297 1074.1566 2253.0676 3746332
414.79291 1071.0896 2246.6345 4206112
425.55313 1064.7113 2233.2559 5325106
446.60547 1083.6915 2273.0674 5061938
452.19861 1065.1469 2234.1692 5523513
470.4053 1076.5228 2258.0308 5984834
487.71957 1085.2839 2276.4072 6840400
500.29642 1083.3154 2272.2783 7235158
512.71857 1081.1239 2267.6816 3748131
520.80078 1070.1266 2244.6145 5261116
527.77972 1057.4664 2218.0596 4866358
555.63025 1086.2241 2278.3794 5853509
563.29974 1075.1006 2255.0476 4406063
582.97961 1086.8842 2279.7639 3353374
595.13434 1084.4224 2274.6001 4010791
599.82782 1068.7749 2241.7793 3549469
608.5224 1060.7802 2225.0103 1182209
626.35858 1068.7223 2241.6689 2431502
639.92065 1069.1934 2242.657 3879975
650.10925 1064.1234 2232.0227 788485
669.40051 1073.8582 2252.4414 4406064
681.76813 1072.3225 2249.2205 2694931
696.11285 1073.8958 2252.5205 2694676
711.91498 1077.616 2260.3235 2036489
705.21228 1047.7623 2197.7051 4076072
712.95953 1040.0709 2181.572 2891796
733.26544 1050.6478 2203.7573 2826002
740.45319 1042.3873 2186.4307 3022867
757.1806 1047.6095 2197.3845 3286550
772.18945 1050.3177 2203.0649 3681048
782.85468 1047.126 2196.3701 4273185
797.97705 1049.9028 2202.1948 6774347
808.86633 1047.1106 2196.3379 4603179
830.67676 1058.3207 2219.8513 3681052
841.60352 1055.5311 2214.0002 3746844
859.46332 1061.3892 2226.2876 2497806
866.36554 1053.7427 2210.2488 3155226
882.53955 1057.433 2217.9895 3155480
889.45056 1050.0792 2202.5647 3155225
926.15845 1077.6075 2260.3059 2563346
946.75134 1085.8682 2277.6328 4076585
954.38098 1079.2375 2263.7249 3550242
960.49451 1071.1 2246.656 2958106
977.21271 1074.8489 2254.5198 787456
986.51318 1070.4481 2245.2888 2694163
1010.29 1081.6633 2268.8132 1970699
1012.0969 1069.3708 2243.0293 2233355
1026.2311 1070.2532 2244.8799 5325880
1038.0178 1068.6959 2241.6138 4997173
1048.205 1065.5521 2235.0195 3089174
1074.5084 1078.6654 2262.5249 4536874
1076.1705 1067.0234 2238.1057 5720633
1103.6816 1080.9825 2267.385 4405030
1116.0837 1079.9855 2265.2937 3089430
1137.3375 1087.4757 2281.0046 4866353
1159.6891 1095.8274 2298.5225 4142632
1170.9436 1093.6208 2293.8943 2958103
1176.9392 1086.6097 2279.1882 5392446
1193.1892 1089.1177 2284.4487 2694933
1211.0366 1093.0111 2292.6152 3089690
1192.2523 1064.1232 2232.0222 4865843
1231.4015 1087.0093 2280.0264 5260345
1255.6495 1096.3877 2299.6978 3088920
1266.8186 1094.2671 2295.2498 3878435
1281.6801 1095.3472 2297.5154 3747104
1289.7666 1090.6757 2287.7166 3681311
1290.8826 1080.2678 2265.886 3681055
1296.1986 1073.5529 2251.801 2957589
1319.2467 1081.5112 2268.4941 4010275
1333.1709 1081.905 2269.3198 5392187
1330.4832 1068.9443 2242.1348 3418654
1351.4369 1075.0464 2254.9338 1708550
1369.3676 1078.6477 2262.4878 3550496
1381.9132 1077.9785 2261.084 3155994
1395.46 1078.0957 2261.3298 3287320
1418.3402 1085.3528 2276.5518 3155474
1432.8853 1086.1549 2278.2341 5918010
1457.5867 1094.569 2295.8831 5457458
1482.0388 1102.6421 2312.8164 4338720
1505.6187 1109.9242 2328.0908 4273185
1512.7496 1105.0581 2317.8843 5194288
1512.7168 1095.0938 2296.9836 3681051
1532.0872 1099.228 2305.6555 3417623
1544.7773 1098.5389 2304.2102 5062192
1551.7628 1093.8407 2294.3555 5326137
1557.1277 1088.0916 2282.2964 2891796
1575.5232 1091.4685 2289.3796 4207656
1584.8325 1088.547 2283.2517 4470314
1609.1862 1095.9208 2298.7183 4141604
1608.921 1086.545 2279.0525 3417879
1624.0168 1087.6127 2281.292 4338980
1659.1473 1101.9694 2311.4053 4273445
1680.959 1107.3173 2322.6226 4667692
1700.3668 1111.0076 2330.3633 2431764
1714.1411 1110.9874 2330.3208 5260858
1738.9564 1118.0663 2345.1689 6510927
1747.4553 1114.6254 2337.9517 4471344
1727.8004 1093.4218 2293.4766 5195067
1738.5562 1091.644 2289.7478 4865333
1759.6755 1096.3507 2299.6201 4798767
1730.4409 1069.8534 2244.0415 3154453
1742.45 1069.0648 2242.3875 3613718
1750.8999 1066.1212 2236.2131 3416851
1764.1122 1066.0997 2236.1682 4140572
1769.7855 1061.5565 2226.6387 4403743
1801.1099 1072.3529 2249.2842 3877911
1828.8916 1080.8967 2267.2051 3614481
1860.9127 1091.8035 2290.082 4141083
1884.7396 1097.7793 2302.6167 4273185
1904.2527 1101.1749 2309.739 4735279
1917.4182 1100.8774 2309.1152 4538412
1935.2075 1103.2203 2314.0293 6973268
1932.2419 1093.7814 2294.231 4868152
1939.9285 1090.4622 2287.2688 6973015
1950.0502 1088.5482 2283.2544 6709331
1965.3776 1089.5466 2285.3484 5327422
1988.6471 1094.9041 2296.5857 3813673
2006.6924 1097.3319 2301.6782 2760727
2026.4812 1100.674 2308.6882 5524290
2033.6882 1097.1832 2301.3665 3945257
2036.5718 1091.422 2289.2822 4273704
2050.4771 1091.6047 2289.6653 3878433
2054.6514 1086.6387 2279.2488 4141348
2059.8977 1082.3004 2270.1494 4010274
2051.7598 1071.0321 2246.5137 5260597
2053.2041 1064.8785 2233.6067 5062704
2054.2327 1058.5897 2220.4155 6246977
2112.2456 1081.5592 2268.5947 3219989
2107.1118 1072.1089 2248.7725 4733222
2122.9719 1073.3921 2251.4639 4141085
2117.917 1064.1505 2232.0796 4601636
2147.4907 1072.3148 2249.2043 4404256
0 0 0 0
0 0 0 0
0 0 0 0
0 0 0 0
0 0 0 0
0 0 0 0
0 0 0 0
0 0 0 0
0 0 0 0
0 0 0 0
-1967.2069 1084.1714 2246.1624 2960680
-1949.6838 1081.8318 2241.3154 4736577
-1921.8792 1073.7161 2224.5015 6118741
-1917.2731 1078.5385 2234.4922 5657933
-1905.8473 1079.5647 2236.6184 5921362
-1926.2109 1098.7385 2276.3423 6184534
-1922.1479 1104.1512 2287.5564 4144952
-1901.7273 1100.1777 2279.324 5526860
-1885.0618 1098.3351 2275.5066 5000518
-1875.0129 1100.349 2279.679 5395275
-1871.6101 1106.3207 2292.0508 5790033
-1876.8021 1117.4973 2315.2063 4803140
-1847.9022 1108.3896 2296.3374 6382428
-1815.2706 1096.8921 2272.5171 6908773
-1815.655 1105.3219 2289.9817 3092010
-1830.1506 1122.5338 2325.6411 2170907
-1797.939 1111.1415 2302.0386 1710099
-1786.4111 1112.4556 2304.761 2104344
-1767.7305 1109.3011 2298.2256 2301980
-1773.0355 1121.2662 2323.0149 1512209
-1745.8706 1112.724 2305.3171 2433309
-1731.9712 1112.5684 2304.9949 2433306
-1703.4226 1102.9254 2285.0166 3354153
-1670.1671 1090.0559 2258.3538 3617323
-1669.8965 1098.6802 2276.2214 4670266
-1651.1315 1095.178 2268.9656 3814956
-1627.5479 1088.3958 2254.9146 4538678
-1622.9146 1094.2791 2267.1033 4801850
-1616.8391 1099.2798 2277.4639 4867899
-1603.8496 1099.6246 2278.1782 2959390
-1598.9309 1105.5555 2290.4656 3025699
-1589.7382 1108.6074 2296.7886 3353638
-1575.0544 1107.85 2295.2192 3616810
-1561.9041 1108.1671 2295.8762 3090466
-1550.8456 1109.9871 2299.6467 2498585
-1541.1708 1112.8384 2305.5542 4406326
-1529.2301 1114.09 2308.1472 3222052
-1516.6442 1114.8898 2309.8042 3814445
-1503.886 1115.5764 2311.2268 3353382
-1484.8672 1111.5889 2302.9653 3353895
-1469.9404 1110.6191 2300.9563 1906706
-1453.6017 1108.5544 2296.6787 3485738
-1443.3984 1111.174 2302.106 3025187
-1440.244 1119.3218 2318.9863 4078129
-1433.1506 1124.5356 2329.7883 4736060
-1431.0472 1133.8046 2348.9915 2894113
-1410.6736 1128.6379 2338.2874 2894113
-1401.8457 1132.6978 2346.6985 2301978
-1389.2848 1133.7927 2348.9668 1380877
-1374.7423 1133.2761 2347.8965 2433052
-1357.5165 1130.5143 2342.1746 1775633
-1353.7069 1138.9836 2359.7212 2959907
-1312.8085 1116.0981 2312.3076 2894113
-1272.5178 1093.2523 2264.9761 4209716
-1285.4393 1116.1227 2312.3584 4867903
-1294.0187 1135.6747 2352.866 4012594
-1278.3928 1134.1781 2349.7654 3485994
-1262.7144 1132.6013 2346.4985 3815217
-1226.1552 1112.0518 2303.9246 4078388
-1218.599 1117.6398 2315.5017 3749423
-1209.1664 1121.6145 2323.7363 4078902
-1206.619 1132.141 2345.5449 5657420
-1199.6533 1138.719 2359.1729 3683631
-1183.1909 1136.3312 2354.2261 3946802
-1169.3743 1136.4579 2354.4885 3420458
-1152.7767 1133.8524 2349.0906 3157027
-1133.8961 1128.9102 2338.8513 2893596
-1108.11 1116.8854 2313.9387 2959646
-1090.8862 1113.2977 2306.5059 4670263
-1096.2294 1132.9417 2347.2036 4933436
-1089.7258 1140.6897 2363.2559 3617319
-1071.8735 1136.6052 2354.7937 4275506
-1057.0968 1135.7174 2352.9543 3946290
-1041.3423 1133.7412 2348.8601 3552045
-1002.5775 1106.3202 2292.0498 1183499
-989.612 1107.0061 2293.4709 262403
-981.41711 1113.1219 2306.1416 65540
-971.02899 1116.8876 2313.9434 8
-952.43536 1111.188 2302.135 65547
-939.42273 1111.9287 2303.6694 11
-921.1076 1106.3224 2292.0544 11
-906.42468 1104.9763 2289.2656 11
-893.39832 1105.6394 2290.6394 11
-881.81866 1108.1409 2295.822 12
-867.88654 1107.7183 2294.9463 12
-851.59857 1104.2273 2287.7139 13
-837.57074 1103.6016 2286.4175 12
-823.16553 1102.45 2284.0315 12
-811.17761 1104.5513 2288.385 11
-796.46869 1102.9559 2285.0798 11
-780.88293 1100.0701 2279.1011 11
-766.74078 1099.1523 2277.1997 10
-753.61945 1099.6913 2278.3162 9
-740.72913 1100.593 2280.1846 9
-727.35114 1100.7903 2280.5933 8
-713.73688 1100.6309 2280.2627 9
-699.00256 1098.7045 2276.2717 9
-684.3764 1096.8757 2272.4829 9
-670.30939 1095.8877 2270.436 11
-638.72034 1065.6259 2207.7402 11
-621.05273 1057.8105 2191.5488 11
-606.23315 1054.6161 2184.9304 11
-593.53998 1055.0619 2185.8542 11
-578.76379 1051.7424 2178.9768 11
-561.44617 1043.5479 2161.9995 11
-548.11334 1042.5499 2159.9319 11
-535.09869 1042.1239 2159.0493 11
-522.40222 1042.3118 2159.4387 4
-509.67615 1042.4487 2159.7224 2762275
-505.12009 1059.7332 2195.532 6249036
-493.57742 1062.8862 2202.0645 5787714
-484.85938 1072.4581 2221.8953 3288100
-472.62991 1074.5807 2226.2927 262144
-459.31668 1074.2903 2225.6912 196610
-446.6449 1075.5273 2228.2539 65543
-434.93442 1079.2251 2235.9148 65545
-422.33231 1080.873 2239.3291 11
-410.36496 1084.3053 2246.4399 11
-399.12003 1089.9403 2258.1145 65547
-386.8342 1093.0251 2264.5056 16
-377.36234 1104.5682 2288.4204 65554
-367.33688 1115.291 2310.6355 14277334
-356.9155 1125.5952 2331.9834 13750480
-346.71393 1137.4502 2356.5444 13685454
-333.61011 1140.3793 2362.6128 13685457
-320.23605 1142.6007 2367.2151 13685457
-308.3186 1150.4608 2383.4995 13619921
-295.2084 1154.4113 2391.6838 13685200
-281.3262 1155.5889 2394.1235 13685202
-267.91843 1158.9435 2401.0737 13554385
-254.24835 1161.4764 2406.3213 13554385
-239.89259 1160.9916 2405.3169 13488593
-225.65016 1161.0288 2405.3938 13423058
-210.59412 1156.6023 2396.2234 13488083
-194.03839 1142.7043 2367.4299 11913165
-177.26247 1125.243 2331.2539 9281460
-164.09692 1129.6857 2340.458 5593692
-150.62106 1132.615 2346.5269 6514022
-136.54033 1131.1289 2343.448 3750200
-122.23818 1127.2646 2335.4421 5460559
-107.78963 1120.8916 2322.2385 4342075
-93.613068 1115.8958 2311.8884 4933955
-80.551758 1124.7601 2330.2534 5789005
-65.905876 1110.5895 2300.895 3025956
-52.103085 1106.9402 2293.3345 5262660
-38.594711 1109.1777 2297.9702 4867386
-25.051123 1112.2906 2304.4194 4472884
-11.459177 1118.1409 2316.5398 4077872
2.2745843 1123.1061 2326.8264 5986386
16.183296 1131.7825 2344.8022 5131078
29.980652 1128.2533 2337.4902 3881010
43.842606 1128.6171 2338.2441 4933443
57.797901 1130.6321 2342.4187 3880499
72.076187 1136.9618 2355.5325 328449
85.863869 1134.7545 2350.9595 1117450
99.828545 1135.1759 2351.8325 3748913
112.67837 1124.3694 2329.4438 1643794
126.17638 1121.6835 2323.8792 1841173
139.87645 1121.1455 2322.7646 3090983
152.33472 1111.6421 2303.0757 2104344
164.96182 1104.8318 2288.9663 1906966
178.78294 1106.4456 2292.3098 460036
192.81081 1109.0208 2297.6448 1512208
205.04926 1101.6425 2282.3586 2104345
219.30704 1105.3549 2290.05 1249036
232.69669 1104.5143 2288.3083 525828
246.09984 1103.8267 2286.8838 1972244
258.83182 1100.3575 2279.6965 2563608
271.04138 1095.1216 2268.8489 5195327
283.27032 1090.4551 2259.1809 4208429
297.38516 1093.1418 2264.7473 2432277
308.52277 1085.1252 2248.1387 4011310
320.56799 1080.8324 2239.2449 1510919
333.66678 1080.2916 2238.1245 852993
350.32373 1090.8721 2260.0447 3418403
360.56436 1081.4292 2240.4812 3615523
372.6748 1078.0659 2233.5132 2759955
383.38745 1071.0283 2218.9329 2036492
397.51447 1073.6794 2224.4255 1904389
411.88779 1076.8044 2230.8997 5456693
422.50763 1070.2273 2217.2734 5259312
432.58182 1062.7063 2201.6917 5917244
446.75876 1065.4098 2207.2927 4074528
460.15405 1066.1484 2208.8228 4863787
477.90945 1076.6689 2230.6191 5127472
487.31491 1068.3181 2213.3181 3548954
500.93546 1069.4033 2215.5664 5589306
515.20911 1071.7919 2220.5149 4470827
523.45697 1061.838 2199.8928 3944484
545.2511 1079.179 2235.8193 4734000
559.90582 1081.902 2241.4609 3286554
573.45398 1082.4102 2242.5137 3549726
575.73077 1062.1022 2200.4399 2694164
592.71631 1069.2271 2215.2012 2233612
605.80151 1069.1597 2215.0615 1905417
621.57068 1073.7316 2224.5334 2299918
637.40576 1078.2252 2233.8433 4076329
642.79297 1065.2219 2206.9036 3023898
665.43573 1080.7628 2239.1006 3352862
676.15076 1076.7023 2230.6882 4076329
686.37366 1072.0288 2221.0059 2629141
701.13269 1074.4828 2226.0898 2300176
706.31317 1062.4381 2201.136 1708044
708.76825 1046.8048 2168.7473 3681576
716.38263 1039.2125 2153.0176 1708297
731.45911 1042.5211 2159.8726 2694417
744.40845 1042.7366 2160.3188 3417881
758.94012 1045.1238 2165.2644 3417878
771.58167 1044.8719 2164.7427 3943708
782.84265 1042.7893 2160.428 3615257
802.08063 1051.2286 2177.9124 2759694
804.93506 1038.2678 2151.0605 3220757
825.62134 1048.3536 2171.9561 4865841
834.50745 1043.3761 2161.6438 3747619
859.33789 1058.1829 2192.3201 3418657
873.10693 1059.1306 2194.2834 4340013
894.6228 1069.3099 2215.3728 2300174
905.13208 1066.2295 2208.9907 3089690
917.75885 1065.6954 2207.8845 2365968
934.51807 1069.9077 2216.6113 2694934
955.54559 1078.8221 2235.0801 3484452
970.01404 1080.1888 2237.9116 1115649
977.3244 1073.6552 2224.3752 2431512
992.94427 1076.3024 2229.8596 1181441
1004.52 1074.554 2226.2373 1443842
1015.6816 1072.4136 2221.803 2628113
1027.6019 1071.1189 2219.1206 4010276
1036.6483 1066.899 2210.3779 3615517
1054.298 1071.5284 2219.969 3221787
1071.9025 1075.9983 2229.2295 3813922
1081.9006 1072.8169 2222.6384 4734254
1096.5537 1074.2725 2225.6541 3089429
1122.6036 1086.726 2251.4548 3023893
1148.6917 1098.9235 2276.7253 3418651
1154.2335 1091.4099 2261.1592 4076838
1173.1769 1096.5953 2271.9023 3418654
1179.0956 1089.6271 2257.4656 4208171
1194.4304 1091.4191 2261.1782 4602930
1201.9985 1086.153 2250.2681 3089691
1228.39 1097.8253 2274.4504 1444612
1231.1205 1088.3275 2254.7732 1707270
1254.8601 1097.4067 2273.5833 5326397
1260.6224 1090.7384 2259.7678 2430988
1259.1692 1078.0327 2233.4446 2760210
1268.2537 1074.5192 2226.1653 2365198
1286.4426 1078.7124 2234.8525 2891542
1302.9824 1081.4513 2240.5271 2102282
1315.3894 1080.7395 2239.0525 2431761
1326.4786 1078.9698 2235.3862 4010792
1341.1514 1080.1215 2237.772 3352863
1358.6537 1083.507 2244.7861 2365972
1370.5059 1082.3646 2242.4194 2562834
1385.6515 1083.8203 2245.4351 2496527
1394.5881 1080.438 2238.4277 2759954
1403.0308 1076.7401 2230.7666 2496525
1428.2339 1085.8541 2249.6487 3286040
1433.1431 1079.5131 2236.5115 3483157
1465.3807 1093.6847 2265.8721 2167043
1478.1964 1093.2351 2264.9407 3219472
1476.6373 1082.2582 2242.1987 3088913
1507.479 1095.0123 2268.6226 2825741
1506.9509 1084.9559 2247.7878 4273444
1510.5292 1078.0061 2233.3894 5063730
1538.3362 1088.318 2254.7534 4273702
1565.379 1097.9166 2274.6394 4602154
1582.6957 1100.5876 2280.1733 4931376
1597.8551 1101.7261 2282.532 3286549
1586.4478 1084.6813 2247.219 2430985
1603.0428 1086.9067 2251.8293 1904640
1609.0018 1081.9432 2241.5461 4075809
1646.8307 1098.3159 2275.4668 3154710
1699.8441 1124.4675 2329.647 6314058
1701.891 1116.7544 2313.6672 6051656
1739.3953 1132.2451 2345.7607 5788231
1737.7366 1122.1997 2324.9487 4405296
1739.9286 1114.7793 2309.5754 3681315
0 0 0 0
1714.1292 1081.2443 2240.0981 3746594
1720.1501 1076.7063 2230.6965 1970183
1730.5635 1074.9659 2227.0908 1838083
1747.302 1077.151 2231.6179 1969411
1761.0421 1077.469 2232.2766 3350804
1761.7748 1069.8828 2216.5598 4469284
1785.4557 1076.2421 2229.7346 3087884
1808.3505 1082.0372 2241.741 3088140
1833.6886 1089.1993 2256.5793 3482896
1868.1453 1101.635 2282.3433 3549976
1864.0176 1091.3024 2260.9363 4800299
1880.105 1092.8678 2264.1797 5326392
1874.2159 1081.7271 2241.0984 5129526
1900.9355 1089.4312 2257.0596 4669234
1922.2715 1093.9639 2266.4502 6248267
1908.5382 1078.6141 2234.6492 5524540
1946.2408 1092.345 2263.0962 5854017
1979.5186 1103.4211 2286.0437 6380108
1999.6187 1107.0514 2293.5647 4472114
1997.5712 1098.4536 2275.7522 4405807
2015.377 1100.8153 2280.645 4602929
1995.9103 1082.9226 2243.5752 4800307
2006.6052 1081.5231 2240.6758 4865583
2009.2173 1075.8141 2228.8481 4207395
1985.8671 1056.3694 2188.5627 4273444
1997.5713 1055.7026 2187.1816 4141088
2039.6548 1070.9965 2218.8669 4799017
2031.5452 1059.9072 2195.8926 5457201
2051.5125 1063.5145 2203.366 5917495
2089.28 1076.2456 2229.7419 6180666
2101.8127 1075.899 2229.0242 4337949
2101.8987 1069.2255 2215.1978 4798500
2122.1807 1072.8444 2222.6953 4535587
0 0 0 0
0 0 0 0
0 0 0 0
0 0 0 0
0 0 0 0
0 0 0 0
0 0 0 0
0 0 0 0
0 0 0 0
0 0 0 0
-1955.5349 1090.9664 2232.8352 5263430
-1916.5983 1076.5262 2203.281 5066053
-1906.2805 1078.0729 2206.4465 5987155
-1908.7811 1086.9404 2224.5952 5263689
-1906.1454 1092.9858 2236.9683 5526861
-1886.2146 1089.1296 2229.0759 6119254
-1872.1949 1088.6561 2228.1069 6382426
-1867.637 1093.7169 2238.4646 7237478
-1842.5242 1086.7268 2224.1582 7632239
-1832.4559 1088.5732 2227.9373 4737346
-1822.1644 1090.3129 2231.4978 5197898
-1843.908 1111.3867 2274.6284 5724242
-1821.4155 1105.9117 2263.4231 6184793
-1812.7755 1108.8287 2269.3933 6250842
-1807.6704 1113.9679 2279.9114 2697764
-1812.7566 1125.5118 2303.5378 3947832
-1794.4781 1122.6143 2297.6074 1513234
-1777.5659 1120.5336 2293.3491 1447185
-1750.7212 1112.1115 2276.1118 1776149
-1733.7421 1109.874 2271.5327 1972504
-1717.9192 1108.3479 2268.4089 2696739
-1704.6788 1108.4768 2268.6729 1972502
-1673.3627 1096.7604 2244.6934 3025191
-1644.1298 1086.2327 2223.1467 2696737
-1585.0449 1055.6532 2160.561 3946291
-1612.7823 1082.871 2216.2666 2827808
-1610.0084 1089.8813 2230.6143 2367257
-1604.5153 1095.1515 2241.4006 4932927
-1601.1561 1101.9785 2255.3733 3025188
-1575.6271 1093.5338 2238.0896 1775121
-1580.8955 1106.5013 2264.6299 2762017
-1576.8409 1113.1099 2278.1553 2104087
-1547.4764 1101.8116 2255.0317 2235930
-1548.7354 1112.3105 2276.5193 1840916
-1532.694 1110.4596 2272.731 2367260
-1519.0732 1110.3451 2272.4968 2564382
-1518.8492 1120.1084 2292.4788 2104085
-1494.0575 1111.7662 2275.4053 3354409
-1477.6927 1109.6002 2270.9722 3880496
-1459.6891 1106.1522 2263.9153 3946288
-1441.7799 1102.7126 2256.8757 2499356
-1439.6555 1111.3943 2274.644 2762783
-1438.1069 1120.6886 2293.6665 4604987
-1422.105 1118.7898 2289.78 4933953
-1413.1963 1122.4884 2297.3499 7302502
-1423.1163 1141.3597 2335.9731 657156
-1401.4205 1134.9965 2322.9497 986889
-1385.793 1133.4703 2319.8262 1973013
-1367.4326 1129.656 2312.0195 2696735
-1361.1569 1135.8489 2324.6941 3420458
-1325.7966 1117.6498 2287.447 3092005
-1304.6311 1111.1649 2274.1746 3749677
-1281.6235 1102.9592 2257.3804 4012593
-1260.5479 1096.2606 2243.6707 4012593
-1261.8209 1109.0625 2269.8716 6381142
-1242.089 1103.479 2258.4443 3683629
-1217.3767 1093.3013 2237.614 6315607
-1222.094 1109.6206 2271.0139 5131075
-1216.4442 1116.7855 2285.678 5723211
-1209.3197 1122.7424 2297.8699 5065283
-1197.7018 1124.6158 2301.7041 4604732
-1184.9403 1125.4464 2303.4038 3420458
-1186.61 1140.1624 2333.5225 3552043
-1166.4962 1134.0477 2321.0081 3420459
-1155.4628 1136.7206 2326.4783 2894113
-1124.4154 1119.5308 2291.2966 1709838
-1111.2272 1119.9198 2292.0928 3025441
-1087.6941 1109.7637 2271.3066 2630681
-1067.2958 1102.5913 2256.6274 4407094
-1071.1562 1120.6162 2293.5181 1578256
-1069.0043 1132.7332 2318.3174 4275510
-1048.8179 1125.8075 2304.1428 1315083
-1035.9667 1126.6765 2305.9214 1447185
-1017.169 1121.0151 2294.3347 460295
-989.98267 1105.8302 2263.2561 3
-978.98071 1108.5547 2268.8325 6
-966.54846 1109.7129 2271.2029 9
-952.27771 1108.7633 2269.2593 12
-942.34613 1112.911 2277.7483 11
-928.40167 1112.3712 2276.6436 11
-912.42432 1109.3439 2270.4475 11
-897.10834 1107.0419 2265.7363 12
-885.56122 1109.3915 2270.5452 12
-873.03131 1110.5636 2272.9438 12
-858.73254 1109.4868 2270.7402 12
-844.7392 1108.7769 2269.2871 15
-831.30573 1108.7906 2269.3154 12
-817.05652 1107.6989 2267.0808 12
-805.35651 1110.0845 2271.9634 12
-790.78815 1108.5302 2268.7822 14
-777.39038 1108.5917 2268.908 14
-763.15186 1107.4351 2266.5408 17
-749.40881 1106.969 2265.5869 14
-735.91364 1106.8586 2265.3611 11
-723.59991 1108.5542 2268.8313 11
-709.55316 1107.6088 2266.8962 11
-694.54883 1105.1033 2261.7683 11
-680.21246 1103.5828 2258.6565 9
-665.80396 1101.882 2255.1755 11
-648.84998 1095.8125 2242.7534 11
-620.80109 1070.36 2190.6609 11
-605.89386 1066.9626 2183.7075 11
-590.27136 1062.1299 2173.8167 11
-576.56714 1060.6105 2170.7068 9
-558.49945 1050.8116 2150.6521 9
-543.84534 1047.1281 2143.113 9
-529.86963 1044.6057 2137.9507 7
-517.79193 1045.7933 2140.3813 131074
-511.24368 1058.4889 2166.3647 6380886
-499.43494 1060.6664 2170.8213 5064251
-494.33267 1077.578 2205.4338 4142635
-483.6145 1082.8337 2216.1904 327680
-470.29419 1082.394 2215.2905 196609
-456.8624 1081.6649 2213.7983 196612
-445.33109 1085.5255 2221.6995 65541
-433.72089 1089.423 2229.6763 65543
-421.71136 1092.5308 2236.0369 65545
-409.61078 1095.5964 2242.3113 12
-397.69757 1099.3857 2250.0667 14
-385.88425 1103.7235 2258.9446 13
-373.47742 1106.6145 2264.8613 16
-364.70401 1120.8878 2294.0742 6775682
-354.32806 1131.1503 2315.0779 13619664
-344.07837 1142.6584 2338.6311 13553870
-330.74847 1144.474 2342.3469 13685457
-318.23105 1149.3831 2352.394 13685457
-305.33887 1153.326 2360.4641 13619921
-292.20184 1156.6785 2367.3254 13619921
-279.63766 1162.751 2379.7537 13685457
-266.12607 1165.3197 2385.0107 13619664
-252.67056 1168.4358 2391.3884 13619664
-238.71049 1169.4501 2393.4644 13422798
-224.37532 1168.6389 2391.8042 13226704
-209.27287 1163.4526 2381.1897 12238795
-192.27852 1146.2384 2345.958 8816025
-173.10063 1112.3108 2276.5198 4802898
-161.76096 1127.2723 2307.1409 4210238
-147.54443 1123.0972 2298.5957 6315356
-134.76704 1130.1414 2313.0129 4867651
-120.92271 1128.8203 2310.3091 3551533
-106.91973 1125.4919 2303.4973 1906706
-93.272964 1125.4882 2303.4893 4012083
-79.724274 1126.869 2306.3154 3222566
-65.413345 1115.8188 2283.6997 3090466
-51.919472 1116.5778 2285.2527 2893087
-37.584797 1093.4113 2237.8389 3090464
-24.59133 1105.2767 2262.1235 5788234
-11.300481 1116.1897 2284.4585 4472631
2.2587924 1128.9974 2310.6716 6249297
15.760289 1115.7275 2283.5127 4604731
29.449881 1121.8816 2296.1079 3946289
42.986115 1120.1505 2292.5652 3090981
56.643391 1121.6476 2295.6289 3749167
71.003853 1133.7935 2320.4875 6709597
85.030434 1137.5325 2328.1399 1248779
98.655342 1135.6042 2324.1934 2235674
111.65517 1127.8342 2308.291 1643537
124.49118 1120.2858 2292.8418 2367003
138.27234 1121.891 2296.1272 525572
151.37584 1118.2029 2288.5789 1315085
161.10167 1092.2214 2235.4038 854536
176.31763 1104.5813 2260.7002 591107
190.2654 1107.812 2267.3123 591107
204.78265 1113.7137 2279.3914 2762018
218.18492 1113.1967 2278.3328 657414
231.43791 1112.0225 2275.9297 1906710
242.84697 1102.6055 2256.6565 854278
254.84485 1096.7052 2244.5806 196608
266.29407 1089.1461 2229.1096 1973532
281.13315 1095.5107 2242.136 3025702
295.7655 1100.5321 2252.4128 2433051
306.36938 1090.777 2232.4475 2498329
318.9718 1088.6504 2228.095 2037778
331.06219 1085.0145 2220.6538 3418661
345.45023 1088.8992 2228.6042 1971471
356.0719 1081.0627 2212.5659 786945
367.74121 1076.8507 2203.9451 2102546
378.83157 1071.2903 2192.5647 590594
394.88449 1079.6667 2209.7085 1772807
408.97275 1082.3064 2215.1111 3219994
418.40793 1072.8507 2195.7585 3613979
427.91376 1064.1411 2177.9329 3285014
441.00626 1064.5996 2178.8713 3548697
453.08057 1062.644 2174.8689 3219990
468.1571 1067.6432 2185.1006 3154196
480.0238 1065.2502 2180.2029 4009247
491.0144 1061.0894 2171.687 3219988
505.04092 1063.5342 2176.6907 3615003
520.15625 1068.0929 2186.021 3943968
534.96948 1071.825 2193.6592 3943968
551.67426 1079.08 2208.5076 3154709
564.7879 1079.1372 2208.6248 3615260
578.66064 1080.6094 2211.6377 3550240
590.47473 1078.2571 2206.8235 3747365
595.89105 1064.577 2178.825 591619
612.31628 1070.7275 2191.4131 5129533
628.33124 1075.9202 2202.0408 4735032
644.62482 1081.3691 2213.1929 3353634
655.93311 1078.4045 2207.1255 2103828
676.6037 1090.6475 2232.1824 6182984
685.39917 1083.6459 2217.8525 2037515
684.36664 1061.6614 2172.8579 2497811
700.04071 1065.9272 2181.5886 1773575
705.26917 1054.4215 2158.0403 2365459
714.4718 1049.1616 2147.2749 656128
727.80157 1050.0398 2149.0725 2826003
730.84668 1036.3051 2120.9619 2760208
747.94348 1042.6221 2133.8909 3022865
758.29474 1039.4824 2127.4651 3483672
777.00311 1047.7141 2144.3125 2957072
794.67523 1054.3062 2157.8042 4733738
803.34045 1048.9292 2146.7993 4010274
810.30353 1041.532 2131.6597 3878942
827.17639 1046.9038 2142.6541 4273445
846.70197 1055.4199 2160.0837 5326132
865.68793 1063.0199 2175.6382 3417880
887.25934 1073.525 2197.1387 5128756
894.08154 1066.1389 2182.0217 3615517
906.95703 1066.0785 2181.8982 4010792
925.18964 1072.2285 2194.4851 4011050
937.95337 1071.9578 2193.9309 1248263
957.91321 1079.8063 2209.9941 3353125
962.20172 1070.0157 2189.9563 1576715
980.60358 1075.9717 2202.146 2432790
995.05249 1077.4907 2205.2551 3353637
1008.8162 1078.2383 2206.7849 4143150
1020.5149 1076.7876 2203.8159 1709066
1036.2961 1079.6268 2209.627 4472114
1056.2372 1086.675 2224.0522 9998980
1069.962 1087.233 2225.1941 3288094
1068.4739 1072.507 2195.0549 3090203
1087.666 1078.6437 2207.6147 4142634
1108.0935 1085.8451 2222.3538 1313541
1123.8231 1088.3281 2227.4355 2958100
1139.4896 1090.693 2232.2756 3747616
1145.1187 1083.5062 2217.5667 4997684
1174.7775 1098.9614 2249.1982 3155482
1183.4121 1094.6232 2240.3193 2102799
1187.4004 1086.1311 2222.939 2497554
1202.8805 1088.2216 2227.2175 2892313
1223.7498 1095.0895 2241.2737 4010283
1224.7496 1084.2203 2219.0283 2036752
1239.4576 1085.5885 2221.8284 852736
1247.1611 1080.8573 2212.1453 3483422
1251.8951 1073.6777 2197.4512 1313798
1278.2104 1084.9645 2220.5513 2300174
1292.4166 1085.8478 2222.3589 4274221
1308.1208 1087.959 2226.6799 2036488
1332.8004 1097.4182 2246.0398 2628624
1337.5651 1090.4548 2231.7881 3089174
1341.8722 1083.2584 2217.0596 4536367
1355.75 1083.8528 2218.2759 1839111
1368.8861 1083.8484 2218.2671 1379076
1382.6794 1084.3595 2219.3132 2628884
1396.4768 1084.8643 2220.3462 2036747
1416.8433 1090.4152 2231.707 2760212
1442.0029 1099.5182 2250.3379 984833
1439.6791 1087.6904 2226.1304 1904901
1453.6584 1088.2828 2227.3428 3615004
1460.7437 1083.7496 2218.0649 3417881
1474.1575 1083.9508 2218.4766 2562831
1426.9318 1039.954 2128.4302 1313028
1507.1586 1088.8024 2228.406 2628884
1526.132 1092.9358 2236.8657 4998198
1556.8052 1105.3047 2262.1809 4471338
1579.9528 1112.165 2276.2217 4339237
1584.4673 1105.9041 2263.4075 3089171
1565.7404 1083.6626 2217.8867 2891535
1595.8492 1095.3097 2241.7244 2299397
1601.472 1090.0972 2231.0562 3746844
1627.2422 1098.5719 2248.4009 4010274
1664.1165 1114.3445 2280.6821 5853248
1681.5967 1116.9807 2286.0776 6182214
1686.4036 1111.2241 2274.2959 6314318
1698.208 1110.1331 2272.0627 5985354
1704.7902 1105.6722 2262.9329 5064510
1714.8856 1103.5417 2258.5725 3418403
1733.2322 1106.7129 2265.0627 918528
1714.4083 1086.2833 2223.2505 1116422
1722.3029 1082.9655 2216.46 1904138
1738.5823 1084.9304 2220.4814 1772552
1731.1846 1072.2014 2194.4294 2035721
1750.0326 1075.796 2201.7866 2562318
1754.443 1070.5281 2191.0049 2890766
1780.5316 1078.468 2207.2551 3088143
1786.4878 1074.1868 2198.4929 3482901
1778.7252 1061.7783 2173.0972 2365194
1844.8783 1093.3538 2237.7214 5918012
1843.425 1084.6982 2220.0063 5260084
1849.7528 1080.7114 2211.8467 2826520
1861.9358 1080.1774 2210.7537 4207912
1885.1438 1086.0021 2222.675 3746849
1916.0281 1096.1377 2243.4189 7036755
1922.0643 1092.0161 2234.9836 5260344
1952.6616 1101.8099 2255.0281 6049860
1942.655 1088.715 2228.2273 3286554
1980.1522 1102.2396 2255.9075 4076070
1976.7928 1092.9928 2236.9824 5062965
1979.754 1087.3406 2225.4143 5589564
1972.5079 1076.194 2202.6011 5720892
1964.0157 1064.5186 2178.7056 5523254
1966.0646 1058.6718 2166.739 4667431
1965.505 1051.5051 2152.0715 4732712
1988.5176 1056.9604 2163.2366 4798504
2000.8208 1056.6899 2162.6829 4930346
2025.2397 1062.7808 2175.1487 3548438
2047.1019 1067.4613 2184.7283 2956812
2055.1636 1064.932 2179.5515 3417105
2072.884 1067.408 2184.6191 4337951
2072.417 1060.5458 2170.5747 3285263
0 0 0 0
0 0 0 0
0 0 0 0
0 0 0 0
0 0 0 0
0 0 0 0
0 0 0 0
0 0 0 0
0 0 0 0
0 0 0 0
-1902.0521 1073.9952 2171.7686 5263433
-1916.7778 1089.681 2203.4875 5329482
-1901.0258 1088.1367 2200.3645 6513756
-1880.7778 1083.9797 2191.9587 5921620
-1867.9152 1084.0511 2192.103 5197898
-1866.3798 1090.7433 2205.6355 6250584
-1856.5652 1092.6572 2209.5059 5987153
-1838.1985 1089.5295 2203.1812 6316120
-1830.3978 1092.6644 2209.5203 6316119
-1827.9617 1099.0699 2222.4731 4934467
-1818.7148 1101.4437 2227.2732 4868931
-1806.916 1102.2953 2228.9954 4802884
-1781.9386 1095.0608 2214.3662 4276795
-1781.0731 1102.6465 2229.7053 6579549
-1764.3386 1100.4478 2225.2593 1908248
-1771.0889 1112.974 2250.5891 2762787
-1760.9407 1114.9907 2254.667 2039322
-1747.4651 1114.915 2254.5142 1512981
-1725.3198 1109.2643 2243.0876 1249808
-1693.5038 1097.2599 2218.813 2960682
-1668.308 1089.3907 2202.9004 2697253
-1655.0691 1089.2666 2202.6494 1710356
-1629.9646 1081.2694 2186.478 4342076
-1605.3478 1073.4702 2170.7068 5197385
-1588.4589 1070.7542 2165.2146 2696737
-1604.8826 1090.6322 2205.4109 2236185
-1603.7734 1098.824 2221.9758 986117
-1590.9329 1099.0471 2222.427 1315342
-1584.6501 1103.842 2232.123 5657421
-1580.0107 1109.8721 2244.3164 1907219
-1579.0627 1118.6191 2262.0044 5394503
-1546.9587 1105.2562 2234.9827 131584
-1536.8411 1107.5067 2239.5334 1512721
-1529.3439 1111.7013 2248.0154 1644308
-1523.2281 1116.9825 2258.6948 2038811
-1512.3218 1118.8132 2262.3967 1249293
-1499.3906 1119.1654 2263.1089 1709587
-1486.7802 1119.7654 2264.3223 3025703
-1464.2997 1112.8751 2250.3892 3288874
-1434.9354 1100.5784 2225.5234 3354667
-1424.3304 1102.5752 2229.5613 3749168
-1424.7386 1113.2145 2251.0754 2696477
-1425.3792 1124.2382 2273.3667 1972499
-1412.6262 1124.8074 2274.5178 10591116
-1409.6073 1133.2131 2291.5154 8947579
-1383.5795 1123.105 2271.0754 7105634
-1380.1094 1131.2892 2287.625 2237210
-1353.9303 1120.8363 2266.4878 2367514
-1348.4386 1127.4716 2279.905 3552044
-1309.0792 1105.6365 2235.7517 3157286
-1298.0638 1107.5389 2239.5986 1973272
-1285.0125 1107.7256 2239.9761 4736831
-1258.41 1096.1128 2216.4934 5263175
-1253.3848 1103.2476 2230.9209 2696735
-1239.9105 1103.0182 2230.457 5328455
-1223.2186 1099.8909 2224.1331 5525834
-1215.5704 1104.9156 2234.2939 3223077
-1208.1649 1110.2742 2245.1296 3617579
-1208.6605 1123.0938 2271.0525 4275766
-1199.7926 1127.4033 2279.7671 4078386
-1180.3911 1121.8003 2268.437 3815214
-1167.3807 1122.2122 2269.2698 5131074
-1164.6844 1132.6641 2290.405 2696476
-1148.168 1129.7637 2284.54 3683373
-1141.5178 1136.618 2298.4006 3025698
-1117.1346 1125.7679 2276.4602 1841426
-1101.4497 1123.5251 2271.925 3354663
-1081.7241 1117.0543 2258.8401 3354919
-1056.8979 1105.0883 2234.6431 4341559
-1056.0105 1118.1664 2261.0886 920584
-1045.0841 1120.814 2266.4426 2236701
-1025.5792 1114.2107 2253.0898 197122
-1019.6837 1122.4138 2269.6777 65540
-992.13251 1106.6802 2237.8621 7
-981.14099 1109.2421 2243.0427 6
-966.67828 1107.8962 2240.321 7
-951.6767 1105.8865 2236.2571 8
-944.54871 1113.0988 2250.8413 854805
-930.39417 1112.1185 2248.8591 9
-919.70782 1115.3157 2255.3242 10
-905.01172 1113.6729 2252.0022 11
-889.56403 1111.0421 2246.6824 12
-878.49658 1113.8854 2252.4319 12
-866.54749 1115.6812 2256.0632 12
-853.44098 1116.0197 2256.7478 13
-837.3645 1112.4235 2249.4758 14
-826.78833 1116.1362 2256.9836 14
-810.26215 1111.8066 2248.2285 14
-796.64746 1111.3942 2247.3945 14
-784.047 1112.4067 2249.4419 15
-769.8457 1111.1436 2246.8877 16
-755.79126 1110.0518 2244.6799 16
-742.73096 1110.4071 2245.3984 16
-729.53192 1110.5642 2245.7163 15
-716.50494 1110.9939 2246.5852 14
-702.73773 1110.2705 2245.1223 14
-687.84076 1107.6998 2239.9238 12
-673.51947 1105.9731 2236.4324 11
-659.49969 1104.6823 2233.822 11
-644.3988 1101.4906 2227.3679 11
-615.86212 1074.7191 2173.2324 11
-601.05103 1071.2678 2166.2534 11
-589.24414 1073.1373 2170.0337 11
-575.01422 1070.579 2164.8604 9
-557.44794 1061.5503 2146.603 9
-541.43237 1055.1219 2133.6042 9
-527.36578 1052.2754 2127.8481 65541
-519.42975 1061.8214 2147.1516 525830
-503.60028 1055.306 2133.9763 6907225
-496.17761 1066.5253 2156.6631 4735287
-491.26974 1083.8859 2191.7688 1314571
-479.22098 1086.0066 2196.0571 262144
-466.86865 1087.5382 2199.1545 196609
-455.315 1091.072 2206.3003 196611
-443.87662 1095.099 2214.4434 65540
-434.73508 1105.2103 2234.8899 591373
-421.75891 1105.9021 2236.2888 131336
-407.38785 1102.8625 2230.1423 65547
-395.66968 1107.0417 2238.5933 65550
-383.30307 1109.6337 2243.8345 65548
-371.20447 1113.2156 2251.0776 65550
-361.25031 1123.735 2272.3494 2696007
-345.07935 1114.9819 2254.6494 13092812
-336.92581 1132.4719 2290.0166 13619919
-328.92123 1151.9513 2329.4065 13619662
-316.42447 1156.715 2339.0396 13685456
-303.01157 1158.4127 2342.4727 13619921
-289.73077 1160.803 2347.3059 13554127
-275.9585 1161.3654 2348.4434 13619405
-261.50198 1158.9554 2343.5701 13685198
-246.00861 1151.4221 2328.3367 12829390
-237.56416 1177.9454 2381.9705 8485782
-221.00916 1165.0635 2355.9214 3682634
-193.52441 1088.9442 2201.9976 1971494
-186.51923 1125.3871 2275.6899 3748672
-172.41913 1121.3651 2267.5571 6381153
-160.32031 1130.7791 2286.5935 6644065
-146.38113 1127.7522 2280.4727 4801603
-133.18181 1130.3895 2285.8057 3091497
-118.62828 1120.8289 2266.4727 4341050
-105.34705 1122.3828 2269.615 5065286
-91.020699 1111.6277 2247.8667 4144183
-77.826241 1113.379 2251.408 2433051
-64.769989 1118.2406 2261.239 2366999
-51.35994 1117.9369 2260.6248 2564121
-37.870632 1115.0851 2254.8579 3683372
-24.504543 1114.7302 2254.1404 4275767
-11.239594 1123.6364 2272.1499 5065025
2.2025967 1114.2579 2253.1853 5657418
15.62613 1119.6428 2264.0745 7236964
29.04594 1119.9097 2264.614 5131332
42.754925 1127.6348 2280.2351 3355179
55.547802 1113.2896 2251.2273 5460041
69.668243 1125.955 2276.8384 6183506
83.258858 1127.3375 2279.634 3551531
96.791985 1127.6643 2280.2949 1841427
107.96267 1103.7588 2231.9546 2104857
122.89236 1119.3069 2263.395 3288875
134.86626 1107.5229 2239.5664 3881013
147.72638 1104.4757 2233.4043 1709587
162.85963 1117.5275 2259.7969 1051656
175.7623 1114.453 2253.5798 1249036
188.88708 1113.1216 2250.8875 1249036
203.97653 1122.7802 2270.4185 525829
216.97293 1120.4354 2265.677 854536
231.60036 1126.2955 2277.5271 1117193
242.50401 1114.3984 2253.4695 722693
257.7485 1122.6499 2270.155 262657
266.53119 1103.3335 2231.0947 2301211
279.31525 1101.6239 2227.6377 2367004
292.62598 1102.0521 2228.5037 1379596
302.28241 1089.2751 2202.6667 2169107
317.59103 1097.0803 2218.45 2564120
328.32849 1089.1023 2202.3171 2431508
341.61566 1089.8683 2203.8662 1444873
353.58447 1086.5269 2197.1094 1444874
364.47327 1080.2218 2184.3596 2037267
370.95511 1061.7357 2146.978 4537659
387.54575 1072.4491 2168.6421 919044
401.0621 1074.2406 2172.2646 918529
414.81436 1076.5328 2176.8999 983808
424.89749 1069.4519 2162.5813 1575944
434.57523 1061.7948 2147.0977 2956823
449.49216 1067.0101 2157.6438 3549216
463.67743 1070.2484 2164.1919 2299148
478.18393 1074.0337 2171.8464 2496527
489.58273 1070.8235 2165.355 1707011
501.18408 1068.2089 2160.0679 3286554
511.6937 1063.4557 2150.4561 4273704
535.71564 1086.3339 2196.719 4932146
540.34851 1069.7417 2163.1672 6708300
555.59399 1074.4418 2172.6716 4273445
571.27728 1079.7565 2183.4187 4274217
586.30817 1083.63 2191.2515 3945253
596.51733 1078.6171 2181.1147 4866616
605.23297 1071.1735 2166.0627 5327423
626.92084 1086.5212 2197.0979 2367257
641.77844 1089.6478 2203.4204 2169362
652.09918 1085.1005 2194.2249 5787976
668.39563 1090.4801 2205.1033 4735289
666.63641 1066.7605 2157.1389 2695707
677.9527 1064.4633 2152.4937 2827292
689.37469 1062.4138 2148.3494 1182213
705.16669 1067.0511 2157.7268 1576713
714.76514 1062.3185 2148.1565 2234128
724.28424 1057.6354 2138.6865 1773832
729.02454 1046.2549 2115.6738 1839114
741.23175 1045.7942 2114.7422 2826002
755.5036 1048.2135 2119.6343 4010275
769.21185 1049.7844 2122.8108 3812895
789.40472 1060.0123 2143.4932 3878942
792.53467 1047.3671 2117.9226 4931116
806.57721 1049.3125 2121.8567 4404773
824.41077 1056.0547 2135.4902 4601894
833.76385 1051.8937 2127.0762 4601894
838.492 1042.1086 2107.2896 3417877
867.85046 1062.7732 2149.0759 3615257
884.58008 1067.5984 2158.8333 4141858
903.02271 1074.324 2172.4333 4536362
930.8288 1091.8438 2207.8606 5260601
928.60083 1074.1367 2172.0547 2958362
947.13837 1080.6055 2185.1355 3747879
956.44244 1076.5072 2176.8481 3418913
960.79224 1067.016 2157.6555 3024155
0 0 0 0
964.53821 1043.4128 2109.9268 4076842
1000.4092 1068.3719 2160.3975 4339758
1017.8198 1073.235 2170.2312 4931895
1031.6558 1074.2545 2172.2927 1774863
1042.8419 1072.5234 2168.7925 5063739
1071.0372 1088.1151 2200.321 3353120
1074.5511 1078.5583 2180.9958 2564117
1085.1003 1076.2062 2176.2395 4275503
1102.8279 1080.9452 2185.8225 7301213
1120.012 1085.0477 2194.1184 3945771
1135.0554 1087.0062 2198.0786 1577995
1148.3645 1087.2782 2198.6287 3748130
1162.131 1087.9722 2200.032 3550498
1190.5496 1102.2158 2228.8345 2431761
1196.3081 1095.3982 2215.0483 2102543
1200.9485 1087.7159 2199.5137 2563094
1217.272 1090.6665 2205.4802 1379849
1227.204 1087.8884 2199.8625 2892312
1228.2169 1077.3453 2178.543 1445897
1242.3367 1078.3988 2180.6731 4010792
1270.1571 1091.201 2206.561 2826519
1291.4327 1098.1768 2220.667 2760726
1304.3466 1097.973 2220.2551 2892312
1312.3866 1093.7119 2211.6384 1971211
1325.9409 1094.085 2212.3928 1247232
1342.9315 1097.2583 2218.8096 3945001
1356.178 1097.3406 2218.9761 2037004
1369.0726 1097.1394 2218.5693 3155484
1375.8839 1092.1133 2208.4058 2630430
1398.8229 1099.8628 2224.0764 2235158
1412.781 1100.472 2225.3083 1709327
1425.6655 1100.2416 2224.8423 4866360
1427.86 1091.8409 2207.855 3550756
1431.7422 1084.8716 2193.762 1051655
1433.9585 1076.7767 2177.3931 3354147
1445.8431 1076.0215 2175.866 3420195
1450.4576 1069.9169 2163.5217 5721924
1463.3407 1069.9652 2163.6191 3419170
1494.9595 1083.5927 2191.1758 2498070
1497.2899 1075.9393 2175.6997 1511434
1522.3866 1084.6365 2193.2866 1905417
1530.632 1081.2822 2186.5039 1050368
1564.4598 1095.9048 2216.0728 2365193
1569.9446 1090.5948 2205.3354 3418136
1589.3224 1094.9441 2214.1301 3615513
1615.2653 1103.708 2231.8521 3023378
1654.9252 1121.6265 2268.0854 4011044
1660.5995 1116.4077 2257.5327 4339755
1647.6371 1098.8434 2222.0151 4931896
1682.6848 1113.3225 2251.2939 5655619
1683.7262 1105.2512 2234.9727 3089694
1697.9871 1105.9159 2236.3167 4208434
1704.6202 1101.6406 2227.6714 131329
1705.4961 1093.7388 2211.6929 3353384
1720.689 1095.0692 2214.3831 1841174
1723.8929 1088.8073 2201.7205 2499103
1715.2988 1075.2434 2174.2927 2432282
1734.8387 1079.3866 2182.6707 918785
1742.6132 1076.2023 2176.2314 1510660
1748.8901 1072.1466 2168.0303 3418395
1757.624 1069.6454 2162.9727 3944479
1792.9484 1083.2455 2190.4739 3878428
1802.9144 1081.4396 2186.822 3944221
1805.0114 1074.9729 2173.7456 3746587
1808.6957 1069.5365 2162.7524 6246977
1833.4266 1076.5347 2176.9036 2891278
1863.0398 1086.2816 2196.6133 3877661
1892.2029 1095.6328 2215.5227 3549210
1862.6691 1071.1023 2165.9187 3549724
1902.0228 1086.2491 2196.5479 3681311
1909.6836 1083.2134 2190.4089 3944484
1932.8995 1088.9823 2202.0745 3878691
1915.255 1071.8075 2167.3447 4997426
1925.5549 1070.3956 2164.4897 4799020
1947.3936 1075.3743 2174.5571 4074783
1952.1403 1070.9111 2165.532 3219730
1949.7391 1062.6105 2148.7471 3416850
1962.5825 1062.6721 2148.8716 4271647
1964.8456 1057.0409 2137.4846 4140060
1973.3922 1054.8406 2133.0352 4206624
1981.5078 1052.4395 2128.1797 2824714
2000.611 1055.8676 2135.1118 3285009
2014.1198 1056.3185 2136.0237 2956557
2034.2502 1060.2148 2143.9028 3680024
2032.6278 1052.7961 2128.9009 3153677
0 0 0 0
0 0 0 0
0 0 0 0
0 0 0 0
0 0 0 0
0 0 0 0
0 0 0 0
0 0 0 0
0 0 0 0
0 0 0 0
-1904.7543 1088.4053 2174.8538 5197896
-1905.217 1096.0841 2190.1975 5132103
