# .PCD v0.7 - Point Cloud Data file format
VERSION 0.7
FIELDS x y z rgb
SIZE 4 4 4 4
TYPE F F F U
COUNT 1 1 1 1
WIDTH 1308
HEIGHT 1
VIEWPOINT 0 0 0 1 0 0 0
POINTS 1308
DATA ascii
284.2171 1057.5609 2164.4656 3617326
301.24484 1072.532 2195.1062 524801
310.11292 1058.415 2166.2136 853764
316.84363 1038.415 2125.2805 2235418
327.6857 1032.9033 2114 196608
346.56174 1052.1891 2153.4714 1116166
358.29343 1049.1849 2147.3228 1379079
370.93265 1048.953 2146.8481 1247747
378.59222 1035.1216 2118.5398 2958105
392.45355 1038.5898 2125.6384 3023382
410.98184 1053.8093 2156.7874 3812127
425.52777 1058.2076 2165.7891 2364936
436.09641 1052.7471 2154.6133 2035972
445.92252 1045.8558 2140.509 3022867
462.42441 1054.5697 2158.3435 3681054
473.86942 1051.5927 2152.2505 3418138
485.88333 1050.001 2148.9929 5062707
501.33493 1055.7299 2160.718 3221272
511.89249 1051.124 2151.2915 4208682
523.38971 1048.6246 2146.176 3748649
533.5321 1043.5936 2135.8794 2169620
552.9361 1056.4919 2162.2776 4999228
564.24463 1053.6884 2156.5398 5525575
578.79584 1056.9304 2163.175 3551016
591.92108 1057.4845 2164.3091 3682858
604.758 1057.5106 2164.3628 2103828
616.42914 1055.5398 2160.3289 4340787
625.89142 1049.9436 2148.8755 2629399
640.05481 1052.2994 2153.6973 2892317
647.36542 1043.517 2135.7224 787201
658.96851 1041.8578 2132.3267 1641737
663.72833 1029.645 2107.3313 1444356
678.68909 1033.4158 2115.0488 2694162
691.33429 1033.5881 2115.4014 2364680
704.8114 1034.9757 2118.2415 2890508
719.79395 1038.4868 2125.4275 4667175
733.41229 1039.9427 2128.4072 3219221
740.1571 1031.7679 2111.6763 4799015
750.60431 1028.9402 2105.8887 4404258
763.51599 1029.5281 2107.0918 4272671
779.52911 1034.2117 2116.6775 4535587
800.17755 1044.7993 2138.3469 4733736
798.4267 1026.2657 2100.415 3615256
814.32111 1030.6335 2109.3545 3943965
828.99316 1033.3458 2114.9055 4076064
844.78821 1037.356 2123.113 3878429
876.12427 1060.0524 2169.5647 5918269
882.95911 1052.8761 2154.8772 3681566
885.87109 1041.2932 2131.1711 3616290
903.25287 1046.8054 2142.4526 2892567
922.5191 1054.3185 2157.8293 2892310
944.79913 1065.0233 2179.7385 3418653
948.05505 1054.2839 2157.7585 3748132
957.28815 1050.3887 2149.7864 4997941
966.82843 1046.9285 2142.7046 4142892
986.47144 1054.3558 2157.9058 2234899
1000.5289 1055.6996 2160.656 2629655
1012.9489 1055.3035 2159.8452 3419682
1026.056 1055.6241 2160.5017 4275763
1043.7919 1060.6404 2170.7683 5130559
1053.8696 1057.8474 2165.052 5854025
1071.5135 1062.6254 2174.8306 4471858
1092.8928 1070.9498 2191.8679 1051141
1111.6819 1076.5703 2203.3713 2432275
1133.0248 1084.505 2219.6108 4273965
1136.0454 1074.921 2199.9958 2103054
1147.1942 1073.1582 2196.3879 2366226
1152.7532 1066.2644 2182.2788 2760986
1166.4127 1066.9333 2183.6477 985092
1179.4554 1067.0295 2183.8445 1839882
1188.6554 1063.6849 2176.9993 1906189
1206.4175 1067.9917 2185.8137 2958104
1229.5376 1076.8999 2204.0459 3287068
1239.9301 1074.5905 2199.3191 2826516
1256.0543 1077.2449 2204.752 2629140
1271.5614 1079.3207 2209.0005 1642244
1279.2808 1074.8114 2199.7712 1379075
1281.0496 1065.4437 2180.5991 3813414
1304.6194 1074.2142 2198.5491 2563347
1314.9678 1072.0322 2194.0835 2957850
1329.5365 1073.3 2196.6782 1512207
1344.896 1075.1755 2200.5166 2234643
1363.2015 1079.3474 2209.0552 2037521
1370.3502 1074.6904 2199.5239 2234901
1375.1017 1068.2589 2186.3606 2037782
1385.6882 1066.4379 2182.6338 919556
1401.287 1068.4727 2186.7981 4537905
1367.2422 1032.9637 2114.1235 986119
1350.6317 1011.1517 2069.4819 5590334
1445.1429 1072.1752 2194.376 3616290
1445.8022 1063.1011 2175.8044 1839623
1472.7819 1073.3698 2196.8208 1116677
1493.8209 1079.1669 2208.6855 1905416
1496.4363 1071.6692 2193.3403 1576708
1518.6246 1078.1971 2206.7009 3286807
1530.1685 1077.1207 2204.4978 2958099
1543.837 1077.5455 2205.3672 3353113
1561.8484 1080.969 2212.3738 3090198
1586.6361 1088.9863 2228.7825 4143142
1613.7003 1098.4208 2248.0918 4209193
1610.7458 1087.4349 2225.6074 5985348
1631.4376 1092.4617 2235.8955 4405807
1642.8138 1091.2198 2233.3538 4406067
1650.0773 1087.2876 2225.3059 2169367
1660.6643 1085.5905 2221.8323 459522
1664.2748 1079.3953 2209.1528 3287592
1662.2396 1069.6636 2189.2356 3748914
1681.9167 1073.9467 2198.0015 1182986
1702.8241 1078.9432 2208.2278 1051400
1707.3177 1073.543 2197.1753 852992
1715.1246 1070.292 2190.5217 2300173
1706.6433 1057.0018 2163.3213 3418906
1719.5339 1057.0476 2163.415 3418905
1734.7758 1058.5275 2166.4438 3616284
1757.7822 1064.6886 2179.0535 3616540
1777.9669 1069.0634 2188.0071 4866351
1781.2363 1063.2773 2176.165 3419162
1796.7603 1064.837 2179.3574 3353112
1808.6068 1064.2107 2178.0754 3549723
1831.3203 1069.9423 2189.8059 3812383
1863.4333 1081.0461 2212.5317 3746844
1863.0505 1073.2745 2196.626 3681309
1860.2322 1064.2174 2178.0891 4010018
1900.6991 1079.8776 2210.1401 4272677
1888.5573 1065.6383 2180.9971 4536106
1908.4731 1069.5586 2189.0208 4601639
1896.2898 1055.5581 2160.3665 3746074
1899.2345 1050.11 2149.2158 3351316
1903.5494 1045.4866 2139.7537 4403746
1913.8575 1044.1945 2137.1091 4271903
1929.4647 1045.7915 2140.3777 4140830
1931.9144 1040.2827 2129.103 3154190
1935.589 1035.5007 2119.3159 3285265
1955.7483 1039.5426 2127.5881 3022349
1968.4111 1039.5735 2127.6514 3877659
1978.8778 1038.4514 2125.355 3416851
2002.3253 1044.1125 2136.9414 3482642
2012.6409 1042.8979 2134.4553 4140572
2020.2142 1040.2864 2129.1104 4206364
2021.2512 1034.3622 2116.9856 4470050
0 0 0 0
0 0 0 0
0 0 0 0
0 0 0 0
0 0 0 0
0 0 0 0
0 0 0 0
0 0 0 0
0 0 0 0
0 0 0 0
-1857.186 1048.6615 2120.5403 4474172
-1853.3221 1053.6067 2130.54 5066567
-1864.9188 1067.4692 2158.572 4211002
-1847.0078 1064.5165 2152.6013 4869445
-1846.7693 1071.7791 2167.2871 5921621
-1818.3503 1062.6741 2148.8757 3026730
-1833.8009 1079.2598 2182.4141 1842456
-1823.546 1080.8448 2185.6194 1907995
-1793.1178 1070.4099 2164.5186 1775385
-1775.3243 1067.4215 2158.4756 1644309
-1722.4651 1043.1533 2109.4019 3420978
-1711.8188 1044.2821 2111.6843 2565411
-1674.2413 1028.8772 2080.5337 2499872
-1654.5222 1024.3 2071.2778 2829351
-1639.399 1022.5209 2067.6802 5526863
-1629.0656 1023.7248 2070.1147 3421488
-1641.2047 1039.1763 2101.3599 3092011
-1646.0677 1050.2217 2123.6951 2368287
-1632.6201 1049.6646 2122.5686 592134
-1625.6044 1053.2664 2129.8518 5986904
-1623.3671 1060.0447 2143.5586 3553073
-1615.4337 1063.181 2149.9009 1974297
-1605.7389 1065.1989 2153.981 6447456
-1586.5513 1060.9012 2145.2908 0
-1571.6012 1059.3907 2142.2361 2170141
-1562.478 1061.8153 2147.1392 1578257
-1551.2582 1062.8433 2149.2178 1447185
-1547.2025 1068.8373 2161.3386 1117449
-1526.8396 1063.5721 2150.6917 1775635
-1515.5868 1064.6176 2152.8057 3486252
-1484.5099 1051.6373 2126.5579 5262663
-1477.959 1055.958 2135.2947 3552044
-1466.4602 1056.7876 2136.9722 3617837
-1458.1616 1059.9579 2143.3831 3814960
-1491.6581 1093.8322 2211.8816 2170132
-1444.7094 1068.7936 2161.2502 5788747
-1458.9203 1088.9578 2202.0249 10328205
-1453.9761 1095.0591 2214.3625 6314573
-1430.0581 1086.8513 2197.7654 5328189
-1416.9309 1086.7692 2197.5991 2959903
-1386.8757 1073.5814 2170.9319 3025698
-1370.1875 1070.5912 2164.885 2499356
-1326.8291 1046.5088 2116.1873 5591627
-1336.2441 1063.988 2151.5325 2302493
-1327.808 1067.4529 2158.5391 4604989
-1312.2411 1065.1969 2153.9771 4933697
-1312.5721 1075.9282 2175.6775 2170391
-1303.4454 1079.043 2181.9758 4670526
-1275.609 1066.5764 2156.7666 6578521
-1270.514 1073.0647 2169.887 4210486
-1248.5768 1065.3154 2154.2168 3289385
-1247.4945 1075.3838 2174.5764 4539452
-1241.9506 1081.776 2187.5024 3355435
-1211.8109 1066.6536 2156.9229 4210742
-1205.8615 1072.7284 2169.2068 4737086
-1191.8748 1071.707 2167.1416 4013363
-1180.6925 1073.2128 2170.1863 3815985
-1175.8788 1080.604 2185.1323 1907734
-1165.032 1082.5537 2189.0752 3684144
-1148.2877 1079.0059 2181.9009 1775891
-1129.0107 1072.9702 2169.6958 4407612
-1106.5873 1063.7709 2151.0935 921099
-1087.5032 1057.6046 2138.6245 4275512
-1092.2009 1074.6937 2173.1809 920327
-1076.1545 1071.5354 2166.7944 2828840
-1056.1019 1064.2634 2152.0896 65794
-1050.6974 1071.7557 2167.24 4
-1039.5182 1073.4698 2170.7063 7
-1025.5405 1072.301 2168.3425 9
-1010.5649 1070.0458 2163.7822 6
-994.30908 1066.3596 2156.3284 8
-980.02875 1064.7238 2153.0203 920597
-970.32446 1068.0818 2159.8108 11
-970.93689 1083.0375 2190.0532 11
-954.52643 1079.1527 2182.1978 11
-939.59766 1076.8594 2177.5603 12
-930.86859 1081.7065 2187.3621 12
-914.10345 1077.2207 2178.291 12
-902.52405 1078.8047 2181.4941 11
-886.88519 1075.5121 2174.8359 14
-876.97479 1079.1716 2182.2358 14
-860.10187 1074.2446 2172.2727 14
-848.80621 1076.2395 2176.3069 14
-834.70081 1074.6785 2173.1501 14
-818.46997 1070.2892 2164.2744 13
-809.77655 1075.7734 2175.3643 13
-790.95416 1067.7614 2159.1628 14
-777.17175 1066.4015 2156.4128 14
-763.13531 1064.6417 2152.8545 14
-749.39807 1063.2468 2150.0337 14
-745.08038 1075.3989 2174.6072 14
-722.75085 1061.5244 2146.5508 13
-708.4671 1059.1816 2141.8132 11
-693.52856 1055.7565 2134.8872 12
-679.33966 1053.3665 2130.0542 11
-656.75879 1037.6274 2098.2278 11
-644.01617 1037.1246 2097.2109 11
-631.93768 1037.6925 2098.3594 11
-616.91187 1033.3463 2089.5708 10
-603.77185 1032.0457 2086.9407 7
-591.22638 1031.7281 2086.2986 6
-574.90552 1024.6681 2072.0222 65537
-562.70154 1024.7976 2072.2842 2433568
-558.4032 1039.652 2102.3218 6841433
-548.99695 1045.457 2114.0603 4604219
-545.55176 1063.1498 2149.8376 196865
-527.81952 1053.1808 2129.679 196610
-515.841 1054.4855 2132.3171 65540
-504.98932 1058.2168 2139.8623 65540
-494.31363 1062.5187 2148.5613 65541
-483.3876 1066.4956 2156.6033 197386
-470.83646 1067.0055 2157.6345 262922
-460.06573 1071.6914 2167.1099 11
-446.97092 1071.077 2165.8677 460049
-436.99695 1078.1259 2180.1213 65550
-425.91479 1082.787 2189.5466 14
-414.85959 1087.8113 2199.7065 65555
-408.202 1105.0667 2234.5994 7696274
-392.15796 1097.2163 2218.7249 13619405
-376.34915 1089.5026 2203.1267 13553870
-368.64429 1105.5378 2235.552 13685454
-355.93472 1107.2 2238.9131 13619663
-343.65097 1110.3666 2245.3167 13553869
-330.97452 1112.4685 2249.5669 13619919
-316.66473 1109.0264 2242.6064 12106699
-303.9295 1111.0387 2246.6755 7960206
-294.50644 1125.8977 2276.7227 4075599
0 0 0 0
-255.0416 1073.3373 2170.438 6116185
-244.62109 1084.1407 2192.2842 4471875
-233.81676 1094.3593 2212.9475 5000008
-220.57538 1093.7078 2211.6301 2171165
-207.99843 1096.4767 2217.2292 3749679
-191.96561 1080.173 2184.2607 4472891
-179.31825 1081.9391 2187.832 4736318
-166.82191 1084.9624 2193.9458 5722955
-154.17699 1087.4487 2198.9734 3946800
-141.43517 1089.6473 2203.4194 4407094
-128.75101 1092.7827 2209.7595 2302230
-114.37955 1080.6858 2185.2979 2499350
-101.35747 1079.8772 2183.6628 2170130
-88.152184 1076.5947 2177.0251 4143663
-75.216164 1076.0392 2175.9019 3880748
-62.83268 1084.7935 2193.604 4275507
-49.871914 1085.5475 2195.1287 4670523
-36.865147 1085.479 2194.9902 6578775
-23.830923 1084.0867 2192.1748 2762267
-10.886921 1088.3793 2200.855 7367777
2.1333997 1079.2523 2182.3992 6907482
14.990639 1074.1086 2171.9978 4078639
27.764114 1070.4869 2164.6743 4736826
41.358952 1090.8169 2205.7842 6381398
54.299358 1088.2682 2200.6306 3552046
67.718781 1094.4484 2213.1277 5525837
81.06675 1097.656 2219.614 3552560
92.730865 1080.3508 2184.6204 1512723
105.79364 1081.5836 2187.1133 2959654
119.37625 1087.2821 2198.6365 985863
133.05946 1092.6855 2209.563 1643795
145.78378 1089.9519 2204.0352 2433568
157.30077 1079.3831 2182.6636 2893863
170.40727 1080.4984 2184.9189 920329
185.24777 1091.6748 2207.5193 197122
195.65213 1076.9589 2177.7615 131329
209.5173 1081.9349 2187.8237 2828070
220.65759 1073.0798 2169.9175 657158
233.69705 1073.9271 2171.6309 3157033
246.51097 1073.7035 2171.1787 591364
257.52997 1066.0719 2155.7466 2104345
266.78415 1052.201 2127.6978 1116680
282.5174 1063.9824 2151.5212 1313802
295.49539 1064.8181 2153.2112 1510411
309.1322 1067.8604 2159.363 919301
314.67728 1043.8196 2110.7493 985609
325.64691 1038.9227 2100.8472 1116682
341.69482 1049.9915 2123.2295 262144
354.16 1049.6555 2122.5503 458752
368.43326 1054.5177 2132.3823 1641996
381.99881 1057.0991 2137.6023 984324
392.82123 1052.1675 2127.6299 3681061
406.84647 1055.8545 2135.0854 2760474
415.57758 1045.9939 2115.146 1313027
427.81644 1045.2811 2113.7046 1378562
440.01288 1044.5082 2112.1416 1181184
450.82242 1040.5768 2104.1917 3287069
466.75049 1048.3534 2119.9172 3550241
477.30838 1043.9768 2111.0671 4931893
489.88907 1044.135 2111.3872 4405290
504.27313 1048.0334 2119.2703 3550749
0 0 0 0
535.08923 1059.3298 2142.113 5261885
545.80426 1055.5098 2134.3884 5065536
553.57623 1046.3 2115.7651 4143408
568.71222 1051.1088 2125.4888 4735546
587.60602 1062.5038 2148.5312 2564890
596.03632 1054.8969 2133.1489 4669754
609.26746 1055.9261 2135.2302 2300950
620.51471 1053.545 2130.4155 4340533
627.87292 1044.7876 2112.7068 2564122
643.91803 1050.545 2124.3491 2235156
655.69061 1049.2448 2121.7197 2103058
661.19189 1038.147 2099.2783 2497300
667.52948 1028.7476 2080.2715 2299406
685.34937 1037.0638 2097.0881 1839109
700.1369 1040.5771 2104.1926 2628111
701.25684 1024.0095 2070.6904 4996658
719.45789 1032.5254 2087.9109 2365450
734.59912 1036.4364 2095.8193 3812637
750.36951 1041.0902 2105.23 3220500
763.22015 1041.6072 2106.2754 3746325
770.81464 1035.0496 2093.0149 4403744
783.4704 1035.3882 2093.6997 4074520
785.26959 1021.5925 2065.803 3614226
802.27679 1027.7014 2078.156 3613971
811.24994 1023.4898 2069.6394 3943449
823.60455 1023.606 2069.8745 5917752
848.24109 1038.7594 2100.5168 6378817
861.03418 1039.1808 2101.3689 4536612
875.62842 1041.733 2106.5298 4470562
894.27887 1048.9714 2121.167 3418130
902.66669 1044.1381 2111.3931 4207904
918.6579 1048.1117 2119.4285 5195312
927.97961 1044.4713 2112.0671 6314308
940.14154 1044.0822 2111.2803 3813920
966.5387 1059.3048 2142.0625 5524796
976.80725 1056.6853 2136.7654 854016
983.90265 1050.7439 2124.7512 6117965
997.76501 1052.0884 2127.4697 1446663
1007.0603 1048.6434 2120.5037 5986637
1033.8245 1063.2494 2150.0391 4868926
1037.1091 1053.646 2130.6196 6710103
1054.2616 1058.1931 2139.8145 6775897
1071.7288 1062.9443 2149.4221 4934206
1088.5 1066.9017 2157.4246 6380881
1107.1414 1072.579 2168.9048 5459522
1117.2522 1069.9568 2163.6023 3353633
1125.9646 1066.0698 2155.7424 5261373
1137.6722 1065.0742 2153.729 3616550
1155.0306 1069.3323 2162.3394 2760728
1166.1398 1067.7747 2159.1897 1971471
1182.8673 1071.3396 2166.3984 4472114
1196.7076 1072.241 2168.2212 2958877
1210.4907 1073.0726 2169.9028 4011563
1226.3163 1075.6782 2175.1719 1117189
1236.7747 1073.5707 2170.9102 1051913
1248.4225 1072.5286 2168.8027 2827035
1262.0862 1073.2218 2170.2046 2103057
1272.3408 1071.0314 2165.7751 2366230
1293.5251 1077.9932 2179.853 1445128
1307.4731 1078.8464 2181.5784 2366485
1311.4712 1071.5533 2166.8306 986121
1313.6229 1062.9076 2149.3477 3487281
1339.1401 1073.1523 2170.064 3750196
1347.772 1069.7993 2163.2839 8617847
1356.8896 1066.8916 2157.4041 4735032
1367.2593 1065.0133 2153.606 6116939
1387.2987 1070.6323 2164.9683 4537650
1396.3252 1067.7272 2159.0938 5524800
1394.2655 1056.4745 2136.3391 5854023
1387.0787 1041.5741 2106.2085 5261629
1398.9658 1041.1346 2105.3198 4406062
1435.4974 1058.8817 2141.2068 4077098
1452.5778 1062.0955 2147.7056 2827032
1481.006 1073.4786 2170.7241 854277
1489.5746 1070.395 2164.4885 1576453
1509.8973 1075.7384 2175.2935 2168588
1503.3289 1061.9946 2147.5015 2169098
1533.6978 1074.3561 2172.498 3681822
1547.5331 1075.0262 2173.8535 3221783
1574.694 1084.8661 2193.751 4143142
1598.3883 1092.176 2208.5327 6445643
1608.9559 1090.4707 2205.0842 3484962
1617.3322 1087.3195 2198.7119 2827034
1625.9292 1084.366 2192.7397 2695708
1625.3901 1075.4144 2174.6384 3222311
1645.2802 1080.014 2183.9395 2235930
1655.879 1078.4904 2180.8584 2564895
1663.6938 1075.1913 2174.187 3354153
1675.525 1074.5184 2172.8264 2433051
1689.2236 1075.0443 2173.8899 1775120
1699.4128 1073.3456 2170.4548 2366739
1683.6957 1055.4329 2134.2329 2827290
1697.6769 1056.2651 2135.9158 3682339
1725.3705 1065.5536 2154.6982 3550752
1715.6677 1051.7798 2126.8459 2563598
1735.2384 1056.022 2135.4243 2958357
1747.5225 1055.8005 2134.9763 2892564
1763.7749 1057.9625 2139.3481 2497034
1786.4523 1063.92 2151.395 3351831
1796.7958 1062.4998 2148.5232 3549208
1805.0184 1059.8541 2143.1733 3483671
1821.8529 1062.2668 2148.052 3680794
1829.1267 1059.1101 2141.6687 3549722
1858.8237 1068.8911 2161.4473 4404776
1845.0127 1053.6906 2130.7097 4931120
1861.9777 1056.1536 2135.6902 2562060
1868.2418 1052.5544 2128.4124 2233094
1872.3883 1047.8187 2118.8359 2430471
1882.7363 1046.5933 2116.3579 2167557
1890.2659 1043.8275 2110.7654 4140832
1897.5077 1040.9406 2104.9272 3285779
1923.4083 1048.2601 2119.7288 3746074
1933.651 1047.0066 2117.1938 2824972
1947.4244 1047.6688 2118.5327 3088143
1958.4805 1046.8699 2116.9172 2890510
1963.7913 1043.0295 2109.1516 2890766
1974.6139 1042.1469 2107.3667 2824716
1985.1127 1041.1056 2105.261 2824970
1994.6029 1039.5515 2102.1184 2890250
1994.4785 1033.0367 2088.9448 4008989
0 0 0 0
0 0 0 0
0 0 0 0
0 0 0 0
0 0 0 0
0 0 0 0
0 0 0 0
0 0 0 0
0 0 0 0
0 0 0 0
-1830.9873 1046.2537 2090.6265 8026736
-1844.8257 1061.3405 2120.7727 3881777
-1837.1899 1064.1952 2126.4771 5724239
-1816.0776 1059.229 2116.5537 5132100
-1809.9487 1062.9937 2124.0762 5921362
-1816.8082 1074.4924 2147.0532 3749938
-1809.069 1077.4587 2152.9805 2302493
-1785.693 1071.088 2140.2505 2960424
-1774.2273 1071.821 2141.7153 3355184
-1732.714 1054.2821 2106.6689 2434082
-1698.2389 1040.8024 2079.7334 3815477
-1692.5248 1044.8809 2087.8833 2829351
-1648.4053 1025.1355 2048.428 5329485
-1634.9366 1024.3002 2046.7588 4934727
-1629.1046 1028.2726 2054.6965 3158316
-1616.0985 1027.7424 2053.6372 3618867
-1610.1199 1031.7073 2061.5596 4342847
-1632.6417 1054.1343 2106.3733 3223851
-1619.0334 1053.3993 2104.9048 1578772
-1611.0247 1056.3243 2110.7495 7960691
-1612.7194 1065.7074 2129.4988 5855828
-1610.8042 1072.8341 2143.7395 4868935
-1599.3391 1073.6632 2145.3962 5263179
-1581.9961 1070.528 2139.1313 2170907
-1568.6166 1070.0459 2138.168 4539713
-1553.9418 1068.6649 2135.4087 3092523
-1534.5194 1063.9697 2126.0266 3750452
-1516.8967 1060.455 2119.0034 4934468
-1499.8745 1057.3048 2112.7087 5460811
-1489.8237 1059.0574 2116.2107 3025699
-1471.7679 1055.101 2108.3049 3157284
-1471.9681 1064.2764 2126.6394 4407351
-1459.0483 1064.0422 2126.1714 3881008
-1431.1583 1052.7915 2103.6904 4012338
-1438.4729 1067.468 2133.0168 4275766
-1459.7908 1092.8883 2183.8118 2170394
-1455.8812 1099.7074 2197.4377 3091749
-1424.7296 1085.8866 2169.821 4144439
-1394.6458 1072.6353 2143.3423 5131590
-1398.6211 1085.5765 2169.2014 3552816
-1365.7026 1069.8561 2137.7888 3750195
-1347.4795 1065.4611 2129.0066 2368285
-1322.3022 1055.4323 2108.967 3026729
-1326.1664 1068.6135 2135.3059 4736576
-1305.8488 1062.3756 2122.8413 5460041
-1309.3295 1075.5657 2149.1978 3683629
-1302.7111 1080.6375 2159.332 3946802
-1292.88 1083.1183 2164.2893 4999490
-1269.5015 1074.1857 2146.4402 4538939
-1253.3304 1071.2325 2140.5393 3881009
-1225.4487 1058.1077 2114.313 2829091
-1220.4784 1064.6986 2127.4832 3947059
-1227.8718 1082.3254 2162.7051 2631711
-1214.8805 1082.166 2162.3865 3026468
-1199.463 1079.8191 2157.6968 5723468
-1184.0771 1077.4502 2152.9634 3552299
-1166.6218 1073.1263 2144.3235 3815728
-1148.2058 1067.8137 2133.7078 1579024
-1139.7079 1071.7092 2141.4917 3157802
-1132.1599 1076.5957 2151.2559 2499872
-1115.248 1072.5878 2143.2471 2039320
-1096.3202 1066.5264 2131.1353 2828838
-1081.7047 1064.5676 2127.2214 2697253
-1074.1941 1069.6377 2137.3523 921099
-1056.0186 1064.0822 2126.2512 1249807
-1053.714 1074.5778 2147.2236 592136
-1039.8534 1073.401 2144.8723 2236706
-1028.052 1074.3472 2146.7627 2039331
-1017.2339 1076.3573 2150.7795 3
-997.28876 1068.6385 2135.356 261
-983.25635 1067.1385 2132.3586 7
-969.05884 1065.4181 2128.9207 131593
-961.4433 1070.9839 2140.0425 65802
-954.30261 1077.2347 2152.5327 10
-947.64856 1084.2115 2166.4739 11
-931.06281 1079.861 2157.7805 12
-919.6991 1081.5302 2161.116 13
-907.90973 1082.7389 2163.5312 14
-898.17639 1086.4694 2170.9854 14
-873.88782 1072.4458 2142.9636 14
-861.65741 1073.0248 2144.1206 14
-852.94983 1078.0739 2154.2095 14
-842.21698 1080.6776 2159.4124 14
-822.03571 1071.051 2140.1765 14
-809.59985 1071.3727 2140.8191 14
-803.51318 1080.2404 2158.5386 14
-781.29346 1067.3549 2132.7908 14
-769.81897 1068.9666 2136.0112 14
-755.99933 1067.321 2132.7234 14
-742.51764 1066.1051 2130.2935 13
-730.0224 1066.2878 2130.6587 12
-717.57837 1066.5531 2131.1887 12
-704.17462 1065.3759 2128.8364 12
-689.37097 1061.9991 2122.0889 12
-674.2724 1058.0342 2114.166 12
-653.18494 1044.3438 2086.8098 12
-639.73645 1042.5743 2083.2742 12
-625.15533 1038.853 2075.8384 12
-611.65668 1036.8174 2071.7708 11
-600.45282 1038.668 2075.4685 9
-590.57513 1042.9377 2084.0005 6
-577.74658 1042.0676 2082.2617 65538
-568.58148 1047.9113 2093.9385 2104601
-561.28455 1057.5355 2113.1697 7104605
-551.66718 1063.1271 2124.3428 4538424
-537.82794 1060.6537 2119.4004 196608
-526.3335 1062.7969 2123.6829 262147
-514.12811 1063.5742 2125.2363 65540
-502.86615 1066.3914 2130.8655 65540
-491.62891 1069.4072 2136.8918 65540
-481.33261 1074.6835 2147.4348 197124
-469.69623 1077.1729 2152.4092 1973282
-457.86002 1079.3303 2156.7202 5
-443.71155 1076.0043 2150.074 789008
-432.08951 1078.7892 2155.6389 1841700
-421.82568 1085.238 2168.5251 8
-411.0863 1090.8304 2179.6997 9
-402.8284 1103.5835 2205.1829 2828358
-386.77155 1095.1095 2188.2502 9013155
-378.27643 1108.2007 2214.4089 13553872
-365.7327 1109.9456 2217.8955 13225425
-350.85345 1104.4683 2206.9509 12763854
-341.71292 1117.3314 2232.6541 9867442
-329.86984 1122.0378 2242.0586 4142158
-303.19214 1074.563 2147.1941 4997715
-293.23962 1084.8026 2167.655 3089709
-283.66336 1097.4359 2192.8987 3682099
-267.39038 1084.1301 2166.311 4077880
-252.99399 1077.4747 2153.0125 4077877
-240.62695 1079.2145 2156.4888 5262665
-229.49327 1086.9912 2172.0281 2696483
-216.55045 1086.6135 2171.2734 3683632
-203.41885 1085.1813 2168.4116 6249303
-189.68851 1080.1465 2158.3511 3946546
-176.14925 1075.5505 2149.1675 6512217
-163.77733 1077.9215 2153.905 986120
-152.24629 1086.6951 2171.4365 4143411
-139.31906 1086.2028 2170.4529 2499099
-126.81533 1089.2478 2176.5374 2630941
-113.91715 1089.2108 2176.4634 2894112
-100.89038 1087.7777 2173.5999 4736316
-88.021317 1087.8745 2173.7932 3814959
-74.744492 1082.1013 2162.2571 4406840
-62.23568 1087.3583 2172.7617 2367513
-48.645714 1071.5419 2141.1572 4275254
-36.296181 1081.5289 2161.1133 3288614
-23.556709 1084.4498 2166.9502 4275508
-10.703429 1082.8539 2163.761 6775642
2.0974622 1073.7832 2145.636 5789515
14.761252 1070.3431 2138.762 4472885
27.255217 1063.4546 2124.9973 4341555
40.352306 1077.0166 2152.0969 4867644
52.982918 1074.6051 2147.2783 4341301
65.826355 1076.6083 2151.281 4538681
78.840027 1080.2942 2158.646 4802113
91.975037 1084.3817 2166.814 5657419
104.84863 1084.7634 2167.5767 2762529
118.13252 1088.8436 2175.7297 1117194
130.39343 1083.6198 2165.2913 1643795
144.2184 1091.1653 2180.3689 591623
156.71466 1088.2437 2174.531 262915
168.90442 1083.7992 2165.6499 1381909
181.61017 1083.0593 2164.1716 1118223
194.38608 1082.808 2163.6692 262659
206.22597 1077.6962 2153.4548 1249554
219.72173 1081.3292 2160.7144 657415
232.92947 1083.2228 2164.498 525829
241.70145 1065.3668 2128.8184 2367774
254.35089 1065.5253 2129.135 2104345
268.32639 1070.9614 2139.9976 3222568
280.61401 1069.4745 2137.0261 1314059
290.90869 1060.848 2119.7888 1182217
303.26312 1060.1361 2118.3662 2499103
312.98007 1050.627 2099.365 1314573
325.09259 1049.579 2097.271 2827811
338.07059 1051.2994 2100.709 459780
351.82245 1055.2189 2108.5408 656642
366.77356 1062.3433 2122.7766 262144
377.56143 1057.3362 2112.7715 1511182
391.50183 1061.1957 2120.4836 656386
402.58871 1057.321 2112.7412 2432282
417.80533 1064.1989 2126.4844 1576974
426.52051 1054.5989 2107.3018 459008
436.51929 1048.6285 2095.3718 787457
449.50632 1049.9683 2098.0488 2036748
465.53204 1058.1428 2114.3833 2234127
475.72232 1052.9727 2104.0522 3878690
483.75793 1043.4192 2084.9624 3681310
499.43921 1050.4218 2098.9551 4010789
515.06873 1056.9779 2112.0557 4405803
531.76721 1065.3646 2128.814 4340525
535.09351 1047.1931 2092.5037 5590601
549.86432 1051.7346 2101.5784 6052177
567.79944 1061.9934 2122.0774 2301979
576.73566 1055.3411 2108.7847 5261889
589.42963 1055.7012 2109.5044 3353637
601.75873 1055.4064 2108.9153 4011055
613.00201 1053.2578 2104.6221 4076848
627.71826 1057.0435 2112.1865 6774619
639.33734 1055.5674 2109.2371 1510923
648.63416 1050.3873 2098.8862 1313544
659.91425 1048.5535 2095.2217 1116420
662.13477 1032.658 2063.4595 3550501
672.48895 1029.7941 2057.7368 2760214
688.99628 1036.2869 2070.7107 3352861
695.1062 1027.1877 2052.5288 3154711
708.53717 1029.0342 2056.2183 3878177
728.07697 1039.5402 2077.2114 2891282
735.45209 1032.6172 2063.3779 3154707
757.81665 1046.6226 2091.3633 4272416
766.40753 1041.4603 2081.0481 3548437
768.31348 1027.5214 2053.1953 3680021
779.58319 1026.3445 2050.8438 3351311
795.08752 1030.6932 2059.5334 3416588
806.55127 1029.7518 2057.6523 3548430
820.67999 1032.1902 2062.5247 4206616
837.38037 1037.744 2073.6223 7694154
854.64612 1043.8278 2085.7788 5785900
870.48126 1048.0157 2094.1472 5128739
875.33972 1039.0563 2076.2444 5851949
891.36389 1043.4156 2084.9553 5588521
890.46155 1028.1127 2054.377 4932132
909.10992 1035.4908 2069.1201 854272
933.75903 1049.4169 2096.947 8617318
951.15302 1054.9305 2107.9644 6051655
971.32123 1063.3381 2124.7646 5788487
976.55841 1055.3944 2108.8914 4934467
1006.8692 1074.4067 2146.8818 6380878
1004.332 1058.3307 2114.7588 4801334
1017.985 1059.5012 2117.0977 4866869
1027.027 1055.9026 2109.907 6182218
1034.0743 1050.3646 2098.8408 6906450
1055.1929 1059.0811 2116.2581 6050881
1068.6477 1059.9912 2118.0769 5457460
1084.271 1063.0063 2124.1016 3089166
1096.8188 1062.9716 2124.0322 5720883
1103.1543 1056.9852 2112.0703 5590325
1132.9371 1073.3474 2144.7651 6380358
1129.3248 1058.0587 2114.2153 5196598
1155.866 1071.0463 2140.167 4406320
1173.3656 1075.4647 2148.9961 4538164
1192.9827 1081.7085 2161.4722 2104596
1194.625 1071.6945 2141.4622 3552297
1217.5692 1080.7999 2159.6567 6513241
1204.4091 1058.0005 2114.0989 7368294
1218.9995 1059.7968 2117.6882 4078390
1249.1876 1074.9788 2148.0249 6117969
1271.6488 1083.2723 2164.5972 1446925
1290.6655 1088.4954 2175.0339 1644820
1304.1813 1089.0219 2176.0857 2302240
1314.5741 1086.9557 2171.9573 2762788
1316.0911 1077.6617 2153.386 3288362
1328.0114 1076.983 2152.0298 3222567
1348.4026 1083.1217 2164.2961 3419688
1349.1962 1073.5509 2145.1716 4208432
1346.1069 1061.098 2120.2883 3748135
1349.182 1053.6897 2105.4849 4405548
1360.6165 1052.8857 2103.8784 4536872
1365.0505 1046.7284 2091.575 4010016
1379.1161 1048.0009 2094.1177 4141860
1391.8807 1048.271 2094.6575 4405547
1408.0079 1051.0463 2100.2031 4405804
1428.6503 1057.1141 2112.3276 3813924
1475.396 1082.2236 2162.5015 3155997
1481.3555 1077.2411 2152.5454 2102797
1483.0027 1069.2345 2136.5466 1313540
1491.5752 1066.3142 2130.7114 2169103
1496.9978 1061.2101 2120.5122 1971978
1515.0962 1065.1018 2128.2888 4143143
1515.2975 1056.4517 2111.0039 2629905
1571.441 1086.6262 2171.2988 3155996
1586.0255 1087.8068 2173.658 3222048
1609.6791 1095.1384 2188.3081 4340790
1607.9869 1085.2468 2168.5427 1643536
1618.9993 1084.0183 2166.0879 1906710
1650.3878 1096.3452 2190.7192 4144442
1644.1318 1083.6676 2165.387 3025446
1648.1351 1077.896 2153.8542 5656906
1664.2445 1080.0697 2158.1978 3024672
1679.8464 1081.8835 2161.822 1971983
1683.8929 1076.2842 2150.6333 2235155
1694.3445 1074.8318 2147.7312 2564118
1683.4878 1059.9847 2118.064 3879720
1692.4946 1057.7719 2113.6418 2629653
1703.7114 1056.9622 2112.0242 2563857
1718.011 1058.063 2114.2239 2563856
1735.6011 1061.1598 2120.4119 2891794
1738.6302 1055.3734 2108.8494 2497547
1739.3121 1048.2548 2094.625 2694156
1771.0126 1059.7991 2117.6929 4010528
1772.8387 1053.4296 2104.9651 3549720
1784.6361 1053.0325 2104.1716 3812635
1798.6943 1053.9656 2106.0364 3549976
1786.4781 1039.5963 2077.3235 3944223
1818.4166 1050.9424 2099.9954 3812383
1834.4415 1052.9996 2104.1062 2891024
1841.9752 1050.1881 2098.488 2233354
1864.2587 1055.7672 2109.6362 1838855
1866.4225 1049.9536 2098.0198 2167561
1874.9417 1047.7688 2093.6538 2693648
1897.1466 1053.2102 2104.5269 2627854
1905.6294 1051.0125 2100.1353 2825490
1915.5851 1049.65 2097.4131 2957074
1929.781 1050.6139 2099.3391 2891280
1933.4446 1045.868 2089.856 2891281
1949.4614 1047.8225 2093.7612 2167560
1955.6027 1044.4775 2087.0774 2430732
1970.0354 1045.5754 2089.271 2364937
1976.2148 1042.3066 2082.7393 2298373
1976.8878 1036.192 2070.521 4338467
0 0 0 0
0 0 0 0
0 0 0 0
0 0 0 0
0 0 0 0
0 0 0 0
0 0 0 0
0 0 0 0
0 0 0 0
0 0 0 0
0 0 0 0
-1820.2437 1059.5948 2092.5139 4736570
-1812.9719 1062.5985 2098.4456 4736313
-1785.7875 1053.8921 2081.252 5394500
-1782.6521 1059.3558 2092.042 3091234
-1782.5343 1066.702 2106.5493 2959650
-1766.6648 1064.6592 2102.5151 3486766
-1755.8372 1065.6473 2104.4666 2434080
-1727.2786 1055.8114 2085.0422 2697253
-1691.65 1041.4812 2056.7427 3092010
-1659.1157 1028.8617 2031.8214 3420974
-1650.5402 1031.024 2036.0916 4934981
-1635.7988 1029.3383 2032.7623 4408635
-1636.9464 1037.6997 2049.2749 7501164
-1636.8459 1045.3892 2064.4602 2434849
-1623.8326 1044.8853 2063.4651 4474172
-1617.1514 1048.4792 2070.5625 5066566
-1617.1327 1056.4808 2086.3643 3158315
-1604.3916 1056.2299 2085.8687 3289901
-1601.3248 1062.3937 2098.041 4342333
-1600.2899 1070.0123 2113.0867 5000006
-1583.8441 1067.3656 2107.8599 6118743
-1571.6313 1067.5521 2108.2283 2960936
-1567.6071 1073.3484 2119.6748 5263691
-1549.0137 1069.1823 2111.4473 4671041
-1548.2673 1077.3671 2127.6108 3026471
-1532.4351 1075.1025 2123.1389 3552559
-1512.011 1069.5524 2112.1785 4013111
-1496.1622 1067.1731 2107.4797 2828837
-1474.6859 1060.7059 2094.7083 2301979
-1455.4083 1055.724 2084.8699 4209974
-1438.6383 1052.4913 2078.4858 3288871
-1437.7465 1060.9193 2095.1296 3091493
-1424.4413 1060.2546 2093.8169 2762271
-1411.7994 1060.0762 2093.4644 5460040
-1412.032 1069.6473 2112.3657 5460297
-1425.062 1089.1705 2150.9209 5131845
-1383.0364 1066.5876 2106.3235 5395274
-1380.5701 1074.3792 2121.7104 4276537
-1363.376 1070.7472 2114.5378 3552814
-1337.7046 1060.3282 2093.9624 3421228
-1321.8622 1057.5782 2088.5315 4671295
-1312.4608 1059.9781 2093.271 5855569
-1304.0967 1063.2695 2099.7708 3157800
-1291.4608 1063.1079 2099.4517 2697250
-1284.5238 1067.6799 2108.4805 3683630
-1287.494 1080.6575 2134.1089 3025700
-1278.1495 1083.4534 2139.6304 5723213
-1250.9167 1070.9901 2115.0176 5526347
-1241.2751 1073.4879 2119.9504 1907732
-1226.6052 1071.6438 2116.3083 3552814
-1211.2458 1069.1528 2111.3894 5197638
-1217.6948 1086.0609 2144.7798 2763298
-1209.2379 1089.8907 2152.343 2631455
-1189.1151 1083.1757 2139.082 2565150
-1171.0164 1078.1796 2129.2156 3881008
-1155.9092 1075.859 2124.6328 2763041
-1149.1299 1081.3237 2135.4248 4539709
-1129.488 1074.672 2122.2888 3486767
-1118.5951 1076.2886 2125.481 4013110
-1101.1401 1071.5559 2116.135 2697252
-1091.293 1074.2031 2121.3628 3749939
-1071.9264 1067.4325 2107.9919 4078904
-1073.0181 1081.1149 2135.0122 1316113
-1052.8943 1073.4932 2119.9607 1513235
-1050.8021 1084.2938 2141.29 2237217
-1028.7272 1074.4867 2121.9226 4145214
-1012.3441 1070.4554 2113.9617 394759
-1002.9396 1073.7948 2120.5564 394759
-988.78467 1072.0685 2117.1472 526349
-979.0976 1075.2041 2123.3396 723982
-961.07843 1069.1525 2111.3884 460297
-948.66443 1069.2587 2111.5984 658189
-938.27905 1071.6851 2116.3899 197639
-917.78278 1062.4722 2098.196 855316
-910.56757 1068.592 2110.2817 8
-905.44196 1077.3689 2127.6145 12
-897.2757 1082.7244 2138.1907 11
-881.51337 1078.9359 2130.7092 14
-872.92999 1083.9519 2140.6147 14
-855.07837 1077.4371 2127.7495 14
-840.41321 1074.8029 2122.5471 14
-836.36053 1085.8668 2144.3965 14
-821.47253 1082.9874 2138.7102 14
-802.86945 1075.0433 2123.022 14
-797.18121 1084.4147 2141.5286 14
-774.74237 1070.9343 2114.9075 14
-763.25031 1072.3915 2117.7852 14
-749.38519 1070.5074 2114.0645 14
-736.56403 1070.076 2113.2124 12
-724.29736 1070.4492 2113.9495 12
-711.36664 1069.8368 2112.74 11
-697.81433 1068.251 2109.6082 11
-684.04681 1066.2717 2105.6995 11
-670.0932 1063.9235 2101.0623 11
-657.10815 1063.0532 2099.3438 11
-636.98145 1050.373 2074.3025 11
-622.37549 1046.4767 2066.6079 11
-608.75769 1044.1188 2061.9514 11
-601.53345 1052.8549 2079.2036 9
-589.20459 1052.835 2079.1643 65542
-574.53497 1048.5421 2070.6868 131074
-560.78241 1045.7722 2065.2166 722950
-557.52521 1062.8873 2099.0161 7170398
-548.10547 1068.7671 2110.6274 460038
-538.03381 1073.6204 2120.2119 196608
-524.68982 1072.0197 2117.0508 459783
-512.72681 1073.2314 2119.4438 3
-500.03882 1072.9484 2118.8848 65540
-489.76157 1077.9567 2128.7754 4
-478.45486 1080.9041 2134.5959 65795
-464.79095 1078.5416 2129.9307 1315608
-453.138 1080.844 2134.4773 2
-438.54483 1076.0641 2125.0378 1579033
-429.49915 1085.0157 2142.7158 5723990
-417.24722 1086.1665 2144.9883 4539715
-408.01224 1095.4896 2163.3999 1579033
-397.37445 1101.5291 2175.3267 3157814
-379.36212 1086.8457 2146.3296 4868180
-370.45392 1098.1311 2168.6165 7235461
-357.33328 1097.292 2166.9592 3287617
-346.06195 1102.2806 2176.811 3156019
-328.33441 1086.2953 2145.2427 2301217
-313.52393 1079.0623 2130.9587 4078142
-303.15839 1087.1625 2146.9551 3683636
-290.81149 1088.5554 2149.7061 4736578
-278.80405 1091.4048 2155.333 3683633
-264.54086 1085.2737 2143.2251 2762274
-251.54095 1083.9681 2140.647 2630433
-235.87561 1070.428 2113.9075 4406843
-223.63287 1071.7725 2116.5625 4143414
-213.6864 1084.9353 2142.5569 3091237
-198.76364 1072.8992 2118.7878 2103573
-182.63322 1052.2825 2078.0732 3156773
-173.97533 1074.8518 2122.6438 3354667
-160.64285 1069.8076 2112.6824 2565146
-150.65738 1088.0836 2148.7744 2499097
-137.88164 1087.7214 2148.0591 3420199
-125.55437 1091.1832 2154.8955 2499356
-111.98121 1083.3751 2139.4758 4407095
-99.817909 1088.9546 2150.4944 4867645
-86.904694 1086.7887 2146.217 4867903
-71.856323 1052.603 2078.7063 4801852
-60.366638 1067.1885 2107.51 5065281
-48.261124 1075.6547 2124.2292 3025440
-35.543255 1071.631 2116.2832 2104340
-23.021702 1072.3665 2117.7356 6051919
-10.473134 1072.0979 2117.2053 4341558
2.0656285 1070.0046 2113.0713 3288870
14.547467 1067.3285 2107.7866 4473144
26.859707 1060.4288 2094.1609 3880751
39.532143 1067.6166 2108.3555 2301980
51.835464 1063.7778 2100.7747 5328199
65.189049 1078.8062 2130.4529 5262151
77.378365 1072.8173 2118.6257 7301989
90.271751 1076.899 2126.6868 2959653
103.92185 1087.9027 2148.417 5064771
117.91455 1099.7003 2171.7153 2235928
130.94644 1101.0975 2174.4744 1775380
142.47816 1090.7598 2154.0591 2039323
154.77902 1087.5256 2147.6724 4276285
164.71748 1069.4447 2111.9658 6974312
178.6279 1077.8846 2128.6331 1710359
191.37608 1078.6606 2130.1655 3815994
203.46637 1075.8619 2124.6387 1973276
215.26862 1071.9548 2116.9229 1183758
227.38042 1069.9347 2112.9333 3025704
239.54584 1068.3645 2109.8325 2104089
250.61494 1062.303 2097.8621 1577744
263.33844 1063.4955 2100.217 2958626
271.07925 1045.3656 2064.4136 1840401
282.72513 1043.2102 2060.157 2037524
301.15823 1065.2404 2103.6628 1643537
310.28055 1053.8949 2081.2576 2366745
323.02045 1055.2346 2083.9031 4274486
336.89023 1060.0306 2093.3745 5327431
348.51526 1057.6738 2088.7202 985352
362.53476 1062.4962 2098.2437 393216
374.95816 1062.4762 2098.2041 525059
387.66168 1063.2257 2099.6843 1313545
400.54712 1064.412 2102.0271 262144
413.92056 1066.7845 2106.7124 3288101
425.55365 1064.6642 2102.5249 985347
437.81943 1064.2021 2101.6125 1511176
445.96561 1054.0292 2081.5227 1773832
459.38242 1056.5254 2086.4524 2365198
472.65283 1058.5631 2090.4763 1904900
479.63235 1046.7671 2067.1814 3351576
487.80838 1038.1049 2050.075 3483931
499.7666 1037.7169 2049.3088 3681826
514.53052 1043.0348 2059.8108 4010535
534.11334 1057.6487 2088.6707 5195581
549.91962 1064.2917 2101.7896 7038043
562.2973 1064.1522 2101.5139 3419429
575.61475 1065.7585 2104.6863 5985356
585.43927 1060.9667 2095.2231 1183499
589.75146 1046.5916 2066.8347 5326656
602.05518 1046.6946 2067.0383 3353381
621.19348 1058.439 2090.2314 2497816
628.21716 1049.4858 2072.5505 3221539
643.06561 1053.6973 2080.8672 2694939
645.79437 1038.2651 2050.3914 1315342
657.2478 1037.1705 2048.2297 1774091
669.38733 1037.179 2048.2463 3287585
679.40503 1033.9578 2041.885 2300945
690.25732 1032.0972 2038.2109 6577232
705.12622 1036.2031 2046.3195 4142635
719.52692 1039.4939 2052.8181 2563090
739.78052 1050.9904 2075.5217 2628369
741.69421 1036.4819 2046.8699 2233095
755.32202 1038.5466 2050.9473 2693388
767.67242 1038.8174 2051.4822 2627591
777.53925 1035.7714 2045.4667 3680020
793.43243 1040.7235 2055.2463 3087881
808.74945 1044.7815 2063.2603 3614736
813.7746 1035.621 2045.1699 5456680
827.83136 1038.0547 2049.9758 4864542
837.94275 1035.5421 2045.0139 6509621
845.24268 1029.6763 2033.4299 4996381
868.96014 1043.694 2061.1125 5259554
879.77234 1042.0378 2057.8418 4995869
892.74487 1042.9508 2059.6448 4074769
901.93903 1039.4844 2052.7993 4272148
914.9635 1040.4659 2054.7378 4141080
939.85602 1054.7406 2082.9277 5721143
964.18994 1068.0265 2109.165 9209203
970.31757 1061.0634 2095.4141 4998713
1000.0654 1079.7792 2132.3745 7038033
998.44476 1064.5818 2102.3623 5787966
1008.4481 1062.0001 2097.2639 4668971
1018.3661 1059.3925 2092.1143 5063217
1034.546 1063.2833 2099.7981 5062705
1042.9395 1059.1741 2091.6831 4799529
1057.8182 1061.6704 2096.6128 4733479
1059.3953 1050.9135 2075.3696 3351564
1077.9784 1057.0797 2087.5469 4141078
1092.1421 1058.8214 2090.9866 4536093
1108.3398 1062.4741 2098.2 7234121
1126.9193 1068.3035 2109.7119 9077359
1144.1354 1072.7267 2118.447 6512466
1159.3713 1075.2175 2123.366 2301974
1183.1233 1085.468 2143.6089 1710349
1196.1228 1085.7406 2144.1472 7301984
1196.3218 1074.5103 2121.9692 7828327
1196.3586 1063.3694 2099.968 6249295
1191.5221 1048.1708 2069.9534 6446675
1210.9508 1054.4103 2082.2754 4407607
1261.652 1087.4791 2147.5806 2499868
1282.7021 1094.5853 2161.614 3617839
1289.6121 1089.6038 2151.7764 5460557
1282.3507 1072.8635 2118.7173 7040103
1289.9325 1068.7457 2110.5854 4605504
1327.3177 1089.1631 2150.906 1183759
1342.663 1091.2784 2155.0835 1709073
1331.4624 1071.9817 2116.9758 3287332
1339.963 1068.7587 2110.6108 3747880
1343.415 1061.6057 2096.4851 2366225
1340.2417 1049.3962 2072.3735 3812895
1347.5779 1045.5626 2064.8027 3681308
1374.3331 1056.7294 2086.855 3483672
1385.3669 1055.7164 2084.8547 4010527
1396.5396 1054.8262 2083.0967 3681824
1406.7955 1053.2654 2080.0144 2892823
1441.4119 1069.8118 2112.6907 7301978
1465.6798 1078.459 2129.7673 6051913
1472.668 1074.3524 2121.6575 4735542
1486.1339 1075.001 2122.9385 3287842
1477.6077 1059.8641 2093.0459 2498581
1476.0316 1049.923 2073.4138 2629653
1488.9022 1050.3373 2074.2319 3353631
1527.21 1068.5424 2110.1838 2366735
1576.5095 1094.0801 2160.6162 3485730
1585.6345 1091.5502 2155.6201 4999484
1597.7792 1091.1229 2154.7764 9078910
1600.048 1084.0116 2140.7327 5327684
1596.3496 1073.0012 2118.9893 5064772
1631.7607 1088.2454 2149.0938 2893861
1626.9174 1076.615 2126.1257 4867393
1624.802 1066.9548 2107.0486 3814962
1651.3662 1076.1312 2125.1704 4275254
1659.6713 1073.36 2119.6978 2235156
1676.1088 1075.8505 2124.616 1840396
1677.1775 1068.5126 2110.1248 4406322
1695.5881 1072.2496 2117.5051 3024411
1709.2224 1072.9337 2118.856 3879718
1707.3267 1063.9302 2101.0754 2629138
1707.4916 1056.3318 2086.0701 2563598
1712.6029 1051.8806 2077.2798 3154966
1717.4677 1047.3427 2068.3181 3023377
1746.2749 1057.3661 2088.1125 2760205
1752.0168 1053.3807 2080.2422 4010016
1756.9313 1048.9572 2071.5063 3483415
1758.2861 1042.4844 2058.7236 2167812
1779.2283 1047.6339 2068.8933 2957328
1779.1376 1040.4135 2054.634 3746333
1798.6757 1044.6917 2063.0828 3418396
1815.712 1047.4689 2068.5674 2759955
1833.9274 1050.8846 2075.3127 2299148
1845.2208 1050.3147 2074.1873 2233099
1830.3865 1034.9786 2043.9012 2759699
1858.8062 1044.141 2061.9954 2627853
1871.1095 1044.1898 2062.0918 2957074
1899.7931 1053.3201 2080.1223 3220247
1910.4218 1052.3865 2078.2788 3088405
1914.838 1048.0648 2069.7441 2891283
1923.5415 1046.1296 2065.9226 4338729
1927.1819 1041.4829 2056.7461 1838596
1954.7089 1049.7219 2073.0168 1838598
1955.2454 1043.4545 2060.6394 1970181
1970.3971 1045.0159 2063.7229 3878690
0 0 0 0
0 0 0 0
0 0 0 0
0 0 0 0
0 0 0 0
0 0 0 0
0 0 0 0
0 0 0 0
0 0 0 0
0 0 0 0
0 0 0 0
-1787.5638 1052.7452 2054.9458 4276022
-1769.5604 1049.2887 2048.1985 4670523
-1761.9146 1051.9681 2053.429 4867901
-1752.3604 1053.5378 2056.4929 3224105
-1742.7211 1055.078 2059.4993 3881523
-1725.572 1052.0612 2053.6104 3815990
-1708.1807 1048.8527 2047.3475 2302752
-1688.4822 1044.1718 2038.2103 4210491
-1651.1555 1028.4432 2007.5087 4276028
-1637.5443 1027.3651 2005.4042 4276542
-1639.1777 1035.9055 2022.075 5066308
-1623.3757 1033.4719 2017.3245 5724494
-1612.6467 1034.2557 2018.8544 8685180
-1621.7191 1047.8456 2045.3816 3487278
-1611.0555 1048.7919 2047.2288 6118998
-1607.9847 1054.7329 2058.8257 4145208
-1595.4573 1054.5145 2058.3994 5658447
-1582.6299 1054.0929 2057.5764 3289902
-1580.4775 1060.83 2070.7271 3553074
-1584.7772 1072.037 2092.603 3947834
-1580.908 1077.8511 2103.9521 2895144
-1554.2667 1068.1085 2084.9348 2763558
-1554.6335 1076.9189 2102.1326 3421233
-1544.0894 1078.2521 2104.7349 2565668
-1530.1692 1077.2306 2102.7407 2039322
-1511.4246 1072.7678 2094.0295 1315599
-1484.3661 1062.2814 2073.5603 1840916
-1464.1636 1056.5675 2062.4067 2235930
-1467.6158 1067.9707 2084.6658 3157290
-1434.8882 1053.0164 2055.4749 3157289
-1418.684 1050.0356 2049.6565 3025702
-1410.4088 1052.923 2055.2925 2236186
-1407.9584 1060.2466 2069.5881 2762529
-1395.446 1060.0554 2069.2151 3749166
-1400.9093 1073.6371 2095.7263 4342330
-1392.7745 1076.9471 2102.1875 4737086
-1382.1765 1078.395 2105.0139 4605243
-1351.5452 1064.0968 2077.1038 4605502
-1332.4774 1058.7236 2066.6155 3092263
-1336.5347 1071.7953 2092.1311 4211001
-1314.0778 1063.6501 2076.2322 5592654
-1300.1562 1062.3253 2073.646 3947828
-1289.3304 1063.5288 2075.9951 3881526
-1285.4133 1070.509 2089.6206 2235929
-1278.5414 1075.1404 2098.6606 3946802
-1268.0708 1076.8068 2101.9136 5788750
-1256.4613 1077.5294 2103.3242 4013365
-1241.9955 1075.7925 2099.9336 2105369
-1227.5269 1074.0181 2096.47 2829091
-1217.3821 1076.0289 2100.3953 4210744
-1213.6442 1083.803 2115.5701 4605502
-1215.2699 1096.5789 2140.5085 4934466
-1190.7672 1085.7992 2119.4668 3684401
-1173.4983 1081.4562 2110.9893 3026470
-1165.5957 1085.7443 2119.3594 3421228
-1141.3868 1074.7711 2097.9399 2960677
-1119.3485 1065.6226 2080.0823 4210744
-1114.4084 1072.7292 2093.9543 2829093
-1089.4457 1060.5051 2070.093 4079158
-1085.0457 1068.2471 2085.2053 3026471
-1078.4043 1073.9354 2096.3086 3947828
-1065.6788 1073.6265 2095.7058 4276537
-1064.4495 1085.0289 2117.9631 2302747
-1050.7374 1083.8275 2115.6179 2105626
-1034.6486 1080.1158 2108.3728 3355695
-1024.752 1082.8567 2113.7229 5000266
-1013.9142 1084.6587 2117.2405 3618614
-997.9895 1080.9957 2110.0903 1711388
-974.61456 1069.0675 2086.8066 1053201
-960.89209 1067.5569 2083.8579 2171168
-942.11182 1060.3146 2069.7209 4737349
-939.35858 1071.1567 2090.8848 2698022
-925.75891 1069.7554 2088.1494 2895404
-910.60345 1066.4939 2081.783 1645082
-898.17731 1066.3832 2081.5669 259
-891.46906 1073.1527 2094.7808 526607
-879.69727 1073.9316 2096.3015 8
-872.62299 1080.5499 2109.2202 11
-858.258 1078.2015 2104.636 12
-848.09259 1081.1371 2110.3665 12
-834.62592 1079.8894 2107.9307 14
-820.15472 1077.2842 2102.8455 14
-807.87482 1077.5214 2103.3083 14
-795.24414 1077.2908 2102.8584 14
-781.20251 1075.1112 2098.6038 14
-768.47943 1074.705 2097.8108 14
-756.71509 1075.6482 2099.6519 14
-743.31287 1074.2557 2096.9341 14
-730.74597 1074.0439 2096.5205 12
-717.75934 1073.1971 2094.8674 11
-703.63239 1070.5854 2089.7695 11
-692.15393 1071.9821 2092.4958 9
-677.38922 1068.2473 2085.2056 8
-664.19342 1066.8939 2082.5637 9
-650.07715 1063.9827 2076.8811 9
-631.76379 1053.9573 2057.3115 9
-623.21185 1060.1425 2069.385 9
-608.70575 1056.2441 2061.7754 6
-597.47968 1057.9943 2065.1917 197128
-588.87799 1064.5619 2078.0117 65540
-575.01141 1061.689 2072.4038 131074
-563.64343 1063.4047 2075.7529 196864
-555.18506 1070.8088 2090.2058 3485999
-543.51709 1072.2191 2092.9585 328448
-535.20483 1080.4698 2109.0637 196864
-519.58313 1074.0057 2096.446 2631201
-505.69992 1070.9069 2090.397 1776150
-496.2056 1077.1798 2102.6418 65536
-485.15836 1080.3179 2108.7673 65537
-474.76901 1085.1256 2118.1519 723469
-462.8685 1086.6466 2121.1208 1315605
-448.02115 1081.1414 2110.3748 1052689
-435.87628 1082.0288 2112.1069 65793
-427.24963 1091.9604 2131.4934 4078905
-417.10446 1098.4978 2144.2542 4539200
-399.67404 1085.6566 2119.1885 3420204
-386.00012 1082.5175 2113.0608 3222569
-371.73965 1077.4677 2103.2036 2037784
-360.94897 1082.4734 2112.9749 6511453
-348.70856 1083.3351 2114.6567 6577246
-335.64508 1081.6085 2111.2866 5327691
-322.01022 1077.8358 2103.9224 4867394
-305.79199 1064.764 2078.4062 5459273
-298.51193 1083.0238 2114.0491 3814704
-285.73132 1082.0524 2112.1528 3683376
-269.30048 1066.5356 2081.8645 5393994
-257.85562 1070.2236 2089.0635 4736319
-248.6301 1083.9592 2115.8752 5854799
-234.34444 1075.9213 2100.1851 6249557
-222.71455 1079.8588 2107.8711 4341813
-206.68602 1061.6698 2072.3665 5394500
-194.08414 1059.8966 2068.905 5525830
-180.85431 1054.2239 2057.832 3750193
-171.13203 1069.6549 2087.9534 6184279
-159.90942 1077.3821 2103.0366 5066053
-145.32564 1061.8558 2072.7295 5263432
-133.86546 1068.3934 2085.491 6316374
-121.39314 1067.3613 2083.4761 5986639
-109.78551 1074.5587 2097.5254 3025699
-98.217674 1084.0328 2116.0188 3749422
-83.51152 1056.5735 2062.4185 4341301
-71.251633 1055.9562 2061.2134 3091491
-60.102139 1074.9431 2098.2759 5525578
-47.985519 1082.0244 2112.0984 1447184
-35.117043 1071.1677 2090.9062 1907734
-22.990494 1083.4417 2114.8647 4802627
-10.440657 1081.2772 2110.6399 4472891
2.0429754 1070.6511 2089.8979 4012597
14.419931 1070.3489 2089.3079 2696479
26.522545 1059.368 2067.8733 3552044
38.871197 1062.0485 2073.1055 4078389
51.325199 1065.629 2080.0947 2959908
63.648643 1065.6373 2080.1108 3222567
75.708565 1061.9465 2072.9065 3419945
87.366585 1054.4353 2058.2446 4143411
101.28032 1072.6541 2093.8076 3091238
114.29272 1078.3928 2105.0095 3814961
126.70066 1077.8601 2103.9697 2696994
141.48605 1095.8367 2139.0598 6118488
152.29147 1082.5663 2113.156 4934216
161.51003 1060.8882 2070.8408 5592146
173.66663 1060.2074 2069.5117 2039580
189.34259 1079.6847 2107.5312 3223854
202.04295 1080.8341 2109.7749 5263692
211.35689 1064.7893 2078.4556 5789524
223.10683 1062.1075 2073.2209 3749170
234.00266 1055.8521 2061.0103 1709329
247.86143 1062.9231 2074.8127 2104086
261.62662 1068.9436 2086.5647 3222567
270.48288 1055.269 2059.8721 1840914
279.24054 1042.407 2034.7655 2630431
292.81473 1047.8455 2045.3815 1314571
307.40662 1056.349 2061.9802 1972500
316.47433 1045.9451 2041.672 3354667
330.51868 1052.1495 2053.783 3288619
348.11771 1068.8273 2086.3376 722949
361.32037 1071.3259 2091.2151 131072
373.20169 1069.871 2088.375 196865
387.4162 1074.9836 2098.3547 262144
398.80249 1072.1744 2092.8713 393729
410.02393 1069.105 2086.8799 196608
423.11755 1070.9539 2090.4888 919043
432.38281 1063.2833 2075.5159 919043
440.42099 1053.1028 2055.6436 1248262
452.56766 1053.0295 2055.5007 2563863
463.26877 1049.6848 2048.9719 2629141
476.67935 1052.4935 2054.4543 1510915
485.3905 1045.0443 2039.9137 1971465
496.67154 1043.3557 2036.6173 2892824
508.36688 1042.5967 2035.136 3221789
529.79199 1061.3651 2071.7717 4867129
540.84412 1058.9735 2067.1033 6446420
556.62 1065.7319 2080.2957 6906457
568.30457 1064.5338 2077.957 4472375
583.11566 1069.1191 2086.9072 3156259
592.10004 1063.0525 2075.0654 3156003
600.29114 1055.8375 2060.9819 5853771
