# .PCD v0.7 - Point Cloud Data file format
VERSION 0.7
FIELDS x y z rgb
SIZE 4 4 4 4
TYPE F F F U
COUNT 1 1 1 1
WIDTH 1279
HEIGHT 1
VIEWPOINT 0 0 0 1 0 0 0
POINTS 1279
DATA ascii
-2098.8235 1162.0889 3139.7891 3684145
-2101.0916 1173.7472 3171.2878 3157800
-2059.4062 1160.8401 3136.4148 2828578
-2039.415 1160.0378 3134.2473 4209974
-2022.3087 1160.8768 3136.5142 3223079
-2021.3923 1171.1112 3164.166 2565149
-1988.6841 1162.9459 3142.1047 3486251
-1960.2487 1157.1487 3126.4412 3092007
-1968.6322 1173.1825 3169.7622 2171161
-1939.84 1167.1575 3153.4834 3487021
-1928.525 1171.6331 3165.5759 4408123
-1920.9944 1178.5183 3184.1787 2368540
-1896.5975 1175.0901 3174.9163 2829348
-1903.496 1191.1774 3218.3816 2631969
-1883.7419 1190.7427 3217.2073 3224108
-1842.8772 1176.8185 3179.5859 3553073
-1828.8457 1179.9185 3187.9617 3224108
-1790.4987 1167.2319 3153.6848 3947831
-1786.6633 1177.0132 3180.1123 4211003
-1772.2998 1179.9935 3188.1646 4539968
-1770.0549 1191.1935 3218.425 3158315
-1771.6486 1205.2487 3256.4001 3750452
-1765.9152 1214.5737 3281.5952 3158572
-1746.5042 1214.5946 3281.6514 2105629
-1714.0568 1205.4478 3256.938 2829097
-1688.0291 1200.6588 3243.999 3224108
-1664.1384 1197.2972 3234.9165 3092523
-1626.0782 1183.5438 3197.7571 3750196
-1604.9764 1181.9548 3193.4636 2565665
-1586.511 1182.2927 3194.3767 2499872
-1589.8453 1199.0804 3239.7344 3882040
-1578.1891 1204.8341 3255.28 3618868
-1574.5142 1216.8987 3287.877 3223599
-1558.4415 1219.5638 3295.0774 2565926
-1528.1036 1210.9913 3271.916 2236960
-1519.5997 1219.724 3295.5103 2434341
-1469.7258 1195.0458 3228.8335 1579030
-1449.4143 1194.071 3226.1997 1710616
-1419.8566 1185.3512 3202.6401 2236960
-1412.8833 1195.5048 3230.0737 1973788
-1383.9208 1187.0757 3207.2996 2039581
-1364.5922 1186.7906 3206.5293 1710618
-1367.745 1206.3256 3259.3098 460551
-1348.4871 1206.3712 3259.4331 1644826
-1322.9913 1200.7567 3244.2634 1315862
-1309.3633 1205.9065 3258.1775 1447449
-1274.293 1191.167 3218.3538 1973792
-1258.3066 1194.0897 3226.2502 1973280
-1240.7753 1195.6139 3230.3684 2829101
-1217.9653 1192.0195 3220.6572 2763306
-1204.3815 1197.4843 3235.4216 3092271
-1167.8843 1179.9749 3188.1143 2960687
-1144.0619 1174.9065 3174.4202 2302756
-1123.0394 1172.5923 3168.1675 1907744
-1110.5763 1179.2882 3186.259 2105124
-1085.2345 1172.3037 3167.3879 2828848
-1082.1694 1189.561 3214.0144 3026227
-1060.7252 1186.8715 3206.7478 2565419
-1042.1945 1187.4032 3208.1843 3487034
-1018.6061 1182.0854 3193.8167 3223605
-999.42474 1181.7775 3192.9846 2960434
-976.74072 1177.2361 3180.7141 3684157
-952.77283 1170.938 3163.6978 2434091
-925.74097 1160.546 3135.6204 3157814
-913.00201 1168.0135 3155.7966 4078915
-874.80969 1142.5497 3086.9971 4473673
-850.37476 1134.3502 3064.8433 4013121
-836.81049 1140.6101 3081.7566 3684157
-816.55194 1137.821 3074.2209 2565675
-802.883 1144.2965 3091.7166 2763055
-782.50946 1141.2957 3083.6089 1907748
-777.32617 1160.8359 3136.4036 1907493
-761.54578 1165.1204 3147.9795 3091769
-746.41309 1170.6357 3162.8811 3157820
-728.2616 1171.5786 3165.4287 3025979
-710.38 1173.0171 3169.3152 3882062
-686.82806 1164.9163 3147.428 2368825
-665.57111 1160.3645 3135.1299 2171187
-643.6178 1154.3025 3118.751 2697269
-615.04254 1135.6548 3068.3682 2763318
-588.51312 1119.7639 3025.4333 2762803
-577.16559 1132.6689 3060.3005 2104871
-565.50342 1145.7731 3095.7063 2828336
-544.86353 1140.9565 3082.6924 2828335
-531.9729 1152.5956 3114.1394 1446939
-507.51074 1139.0988 3077.6731 1447196
-487.60608 1135.2067 3067.157 1578782
-467.8447 1131.3596 3056.7629 2499371
-451.13458 1134.8784 3066.2705 2236455
-436.17981 1143.2937 3089.0073 2039079
-413.09546 1130.204 3053.6406 986395
-392.53925 1123.1489 3034.5789 131344
-376.05057 1127.6133 3046.6411 328728
-357.44366 1125.856 3041.8931 18
-339.17319 1125.028 3039.656 18
-320.55667 1122.895 3033.8931 18
-302.92822 1124.1754 3037.3525 18
-284.25781 1121.5067 3030.1418 65809
-268.23608 1129.6324 3052.0964 592664
-250.89745 1132.9862 3061.1577 395284
-230.07341 1119.897 3025.793 1184284
-212.73128 1122.9766 3034.1133 986904
-194.44672 1121.1902 3029.2869 1250075
-175.98439 1117.9115 3020.4282 1184535
-158.66991 1122.0073 3031.4946 1118229
-142.18797 1133.7874 3063.3223 1315608
-124.28893 1136.0612 3069.4661 1052690
-106.18988 1136.973 3071.9297 2631723
-88.424362 1142.5718 3087.0564 2170912
-70.150612 1142.8108 3087.7021 2697513
-51.376625 1132.1946 3059.019 2039582
-33.835289 1151.9751 3112.4631 3355443
-15.31816 1146.1246 3096.6558 2631461
3.0423598 1151.8911 3112.2361 1907481
21.567677 1156.5956 3124.9468 1183245
39.943192 1152.6312 3114.2358 788487
57.694443 1138.8496 3076.9998 1906199
76.806824 1152.1027 3112.8076 1578003
96.618347 1168.6805 3157.5986 1906968
112.32438 1138.2761 3075.4504 657158
132.9492 1159.2479 3132.1128 1578003
150.93742 1154.9084 3120.3884 1578003
171.11584 1166.446 3151.561 1512210
190.79115 1172.6212 3168.2456 1643796
208.16992 1164.8398 3147.2214 2564898
223.89099 1149.8242 3106.6516 1446673
243.02419 1153.2822 3115.9946 3485744
259.98132 1146.6545 3098.0876 3682866
275.12369 1133.4244 3062.3418 2037525
295.10706 1140.5411 3081.5701 2300696
310.99692 1131.9293 3058.3022 2958626
329.48642 1133.2068 3061.7539 2366486
346.45108 1129.3801 3051.4148 1905935
365.59598 1132.6879 3060.3518 2629914
385.34885 1137.4777 3073.293 1642764
406.97116 1147.1044 3099.3032 2235159
420.99411 1135.405 3067.6931 2103317
437.31934 1130.6261 3054.7812 2432026
461.83792 1146.5679 3097.8535 2958370
478.48901 1142.5056 3086.8779 1905938
494.38651 1137.0093 3072.0276 1774351
508.85254 1128.728 3049.6528 2234902
523.62354 1121.668 3030.5776 2169110
543.65778 1125.9767 3042.2192 2169110
567.92584 1138.4963 3076.0454 1708559
587.42334 1140.9714 3082.7327 1511179
603.67218 1137.1776 3072.4824 1445901
623.43829 1140.0377 3080.21 1906708
646.64197 1148.8423 3103.9988 1709329
660.75146 1141.4497 3084.0251 1840915
688.44897 1157.2969 3126.8416 1906708
706.04791 1155.7823 3122.7495 1643536
727.59747 1160.6472 3135.8936 1511437
742.36823 1154.7256 3119.8943 2301210
755.73511 1146.9611 3098.9158 2695198
766.67889 1135.9745 3069.2317 1379594
787.89404 1140.3633 3081.0896 1116680
797.71344 1128.4332 3048.8564 1972245
827.44855 1144.58 3092.4824 1182472
846.94324 1146.1689 3096.7756 2103572
864.06238 1144.5438 3092.3848 2761500
879.13574 1140.3326 3081.0068 2235155
899.52191 1143.0439 3088.3323 2168592
909.79797 1133.0559 3061.3462 2234641
926.70764 1131.5583 3057.3 1642248
941.64087 1127.7511 3047.0134 1708041
960.93011 1129.2061 3050.9443 2760730
981.71204 1132.3289 3059.3818 2563607
995.87762 1127.8453 3047.2678 1510150
1008.7375 1122.0692 3031.6616 1247491
1011.8933 1105.8895 2987.9465 2037006
1040.2329 1117.316 3018.8193 1708041
1047.9669 1106.598 2989.8611 721152
1076.8398 1118.1869 3021.1724 852992
1099.9569 1123.5177 3035.5752 1313538
1123.7587 1129.365 3051.3738 2365968
1146.1573 1133.6395 3062.9229 2431505
1144.6034 1114.4587 3011.0996 2562321
1171.0568 1122.7183 3033.4153 2562577
1189.6686 1123.3236 3035.051 2233612
1203.236 1119.2188 3023.9604 1116163
1222.792 1120.7233 3028.0251 1379074
1245.1703 1124.7333 3038.8599 721408
1252.5138 1115.2423 3013.2163 1774089
1277.0232 1121.0876 3029.0098 1379332
1297.9175 1123.6412 3035.9092 919040
1321.1372 1128.1108 3047.9851 1839623
1336.6302 1125.9509 3042.1497 3221530
1354.4099 1125.7493 3041.6047 4340011
1362.5513 1117.6469 3019.7131 2037002
1399.1798 1132.8186 3060.7051 2958102
1421.1588 1135.8933 3069.0122 3023896
1406.733 1110.1603 2999.4856 3747619
1455.5929 1134.3899 3064.9504 2497810
1465.5232 1128.0573 3047.8403 4076841
1495.2551 1136.9351 3071.8271 2760980
1498.9004 1126.0026 3042.2893 2037003
1514.6968 1124.3496 3037.823 2299917
1524.2229 1118.1357 3021.0342 3418396
1548.1543 1122.5109 3032.8552 2760207
1552.9883 1113.0975 3007.4219 2628621
1562.8741 1107.4778 2992.238 2957584
1567.8307 1098.5302 2968.0627 3418136
1592.6183 1103.5219 2981.5496 2168069
1607.2292 1101.4301 2975.8979 2233862
1632.4801 1106.5961 2989.8557 3220757
1643.1764 1101.8909 2977.1431 2891791
1669.3733 1107.5701 2992.4871 2891535
1674.0898 1099.028 2969.4077 2759949
1667.437 1083.2772 2926.8518 3023121
1701.1003 1093.7732 2955.2102 2497034
1715.8386 1092.011 2950.449 2168071
1740.5956 1096.5961 2962.8374 2562828
1776.5092 1108.0483 2993.7793 2365452
1823.52 1126.1273 3042.626 3549725
1856.1876 1135.0813 3066.8184 2826002
1861.265 1127.1536 3045.3989 2431245
1890.9905 1134.1611 3064.3323 2891798
1889.4657 1122.4707 3032.7466 2694934
1918.7922 1129.1556 3050.8083 1642246
1917.1541 1117.6639 3019.7595 852992
1951.0221 1126.8929 3044.6948 1379074
1933.7969 1106.7122 2990.1692 1905930
1989.4277 1128.2146 3048.2659 2169101
1997.0742 1122.363 3032.4558 2300433
2020.3069 1125.2971 3040.3831 1906443
2062.5278 1138.6622 3076.4937 2498324
2089.2996 1143.3389 3089.1292 3024926
2103.2046 1140.9542 3082.6863 2366226
2113.4993 1136.6691 3071.1084 1971467
2121.3289 1131.1426 3056.1768 2037003
2116.823 1119.1876 3023.8762 1510403
2135.4058 1119.5382 3024.8235 2496779
2196.5225 1141.9968 3085.5032 2431243
2196.1729 1132.3914 3059.5508 2562573
2225.8518 1138.2998 3075.5144 2497037
2236.2422 1134.3282 3064.7839 2562830
2245.7095 1129.9562 3052.9712 2431244
2252.3359 1124.2361 3037.5164 2431243
2261.2063 1119.7177 3025.3081 2036485
2283.1655 1121.7008 3030.6665 1641730
2299.9705 1121.1406 3029.1526 1970693
2316.7881 1120.595 3027.6787 3944481
2351.3057 1128.5533 3049.1809 3812894
2375.0352 1131.252 3056.4722 3549722
2400.095 1134.5383 3065.3516 3615515
2404.033 1127.8661 3047.3242 2299657
2423.5061 1128.5275 3049.1108 2827027
2457.9316 1136.0902 3069.5442 2959126
2460.1692 1128.7733 3049.7751 3221788
2519.3306 1147.4905 3100.3462 3418656
2528.0698 1143.1371 3088.5837 4340014
2544.1357 1142.1351 3085.877 3681571
2529.1311 1127.2987 3045.791 1773832
2544.9382 1126.3087 3043.1162 1905677
2568.4802 1128.7319 3049.6633 1643277
2576.2378 1124.2329 3037.5078 1775122
2592.323 1123.4054 3035.272 1380366
2621.0503 1128.03 3047.7671 2171169
2628.9045 1123.6697 3035.9858 3224628
2660.47 1129.4346 3051.5618 5790813
2650.7292 1117.7045 3019.8687 6843760
2727.6882 1142.4443 3086.7124 6515822
2759.1042 1147.9069 3101.4712 6515566
2812.8157 1162.5115 3140.9307 6580849
2839.5352 1165.842 3149.9294 6515825
2876.7422 1173.407 3170.3687 6515826
2926.6157 1186.0067 3204.4114 6778997
2933.0479 1180.9529 3190.7568 6976376
2949.4214 1179.9412 3188.0232 6910583
2981.6018 1185.2257 3202.301 7042169
3010.1924 1189.0254 3212.5671 7239292
3019.6638 1185.2726 3202.428 7239548
3039.4382 1185.5857 3203.2737 7239547
3058.9871 1185.8073 3203.8726 7239806
0 0 0 0
0 0 0 0
0 0 0 0
0 0 0 0
0 0 0 0
0 0 0 0
0 0 0 0
-2748.4905 1156.6337 3075.8171 2894881
-2754.469 1166.8857 3103.0803 2960418
-2725.0276 1162.1697 3090.5391 2763039
-2676.3279 1149.1211 3055.8389 1907470
-2690.4849 1163.0669 3092.9248 2236180
-2679.0903 1166.0825 3100.9443 1775630
-2675.2246 1172.4396 3117.8494 1841422
-2653.1064 1170.83 3113.5688 2301718
-2639.7437 1173.0886 3119.5754 2301205
-2604.8496 1165.7434 3100.0425 2433304
-2568.7476 1157.7493 3078.7839 3222820
-2550.8647 1157.9113 3079.2144 2104339
-2550.5068 1166.0879 3100.9585 2433304
-2537.3384 1168.4835 3107.3291 2170132
-2500.0432 1159.7224 3084.031 2038548
-2489.5535 1163.3583 3093.6997 1249291
-2475.5366 1165.3877 3099.0964 1578256
-2479.0759 1175.7739 3126.7166 1709842
-2455.5852 1173.4003 3120.4043 1775892
-2443.144 1176.3108 3128.144 3157546
-2424.0955 1176.0599 3127.4773 2696735
-2378.5327 1162.8429 3092.3291 3157029
-2383.9775 1174.5514 3123.4653 2367770
-2351.7959 1167.7599 3105.4048 2696735
-2315.3552 1158.73 3081.3916 2367516
-2268.4265 1144.2661 3042.928 2960423
-2288.8508 1163.8173 3094.9204 1841942
-2262.9783 1159.9537 3084.6462 3158058
-2248.0481 1161.6818 3089.2415 2368286
-2234.3047 1164.0565 3095.5564 2170650
-2207.8057 1159.7699 3084.157 2104600
-2195.1902 1162.7656 3092.1238 3881525
-2178.3323 1163.5457 3094.1982 2434079
-2180.5347 1174.6066 3123.6121 2763044
-2142.929 1164.2294 3096.0164 2434079
-2154.5671 1180.6576 3139.7034 2434079
-2128.447 1176.501 3128.6499 2960423
-2074.9895 1157.0278 3076.8652 3684144
-2061.5427 1159.7174 3084.0178 3157799
-2040.0945 1157.9139 3079.2217 2631455
-2024.8314 1159.62 3083.7585 3157286
-2009.155 1161.1182 3087.7427 2433564
-1974.4783 1151.5626 3062.3315 2696478
-1967.3326 1158.0353 3079.5442 2038805
-1944.5503 1155.3387 3072.3735 3223079
-1930.1273 1157.6049 3078.3999 3025957
-1943.4381 1176.7065 3129.1965 2434332
-1906.96 1165.7395 3100.0322 3289641
-1879.7749 1160.2957 3085.5552 2894884
-1874.1899 1168.2081 3106.5969 2894884
-1870.6248 1177.5493 3131.4377 2566433
-1848.4515 1175.2466 3125.314 2566433
-1835.0588 1178.5364 3134.0625 3553073
-1819.8131 1180.691 3139.7925 2829350
-1799.37 1179.4834 3136.5811 2895144
-1789.3188 1185.1337 3151.6067 3092523
-1731.5669 1158.9758 3082.0454 3882039
-1746.6604 1181.537 3142.0422 2434338
-1726.9224 1180.7687 3139.9988 3092269
-1697.6738 1173.4099 3120.4299 1973532
-1683.4391 1176.3809 3128.3303 3026476
-1639.2435 1158.2483 3080.1108 2039581
-1660.3669 1186.3798 3154.9204 3355441
-1655.0338 1196.0325 3180.5898 3487028
-1626.5267 1188.9678 3161.8027 1973788
-1594.2231 1178.9312 3135.1125 2039324
-1543.5099 1154.8833 3071.1624 1250065
-1537.7233 1164.2776 3096.1445 1907994
-1519.1177 1164.0758 3095.6079 3289904
-1538.438 1193.2863 3173.2866 3355442
-1541.226 1210.2375 3218.365 3355696
-1507.8584 1198.8668 3188.1272 4605762
-1476.1251 1188.5237 3160.6216 3289905
-1447.887 1180.7649 3139.989 3223855
-1436.1888 1186.4685 3155.1562 2434339
-1429.7186 1196.6981 3182.3599 2368546
-1410.7267 1196.5802 3182.0464 2763304
-1384.4276 1190.1774 3165.0195 2960683
-1355.8903 1181.6481 3142.3374 2894890
-1354.7031 1197.0486 3183.2917 3355441
-1322.9174 1185.4645 3152.4866 2697512
-1341.184 1219.0428 3241.7808 2039583
-1306.006 1204.3136 3202.6116 2105375
-1271.8109 1190.0698 3164.7334 2829100
-1253.851 1190.8188 3166.7253 2565929
-1234.9177 1190.6523 3166.2822 1776412
-1211.3496 1185.9427 3153.7583 2894893
-1196.176 1189.433 3163.0398 3026478
-1170.3995 1182.3234 3144.1333 1644828
-1153.684 1184.2852 3149.3501 2302502
-1135.8983 1185.1947 3151.7688 2302503
-1114.9133 1182.7408 3145.2434 2499882
-1084.6836 1170.2295 3111.9724 2434089
-1070.0209 1174.3708 3122.9854 3223605
-1055.4717 1178.7847 3134.7229 3618106
-1019.0934 1158.5404 3080.8877 2565417
-1002.7883 1160.7939 3086.8806 2762796
-976.09515 1150.8831 3060.5247 3355446
-952.73761 1144.6042 3043.8274 3486775
-944.00146 1155.9879 3074.1001 2894638
-923.28064 1152.855 3065.7686 2894384
-897.26166 1142.8478 3039.1565 2960432
-886.70789 1152.5325 3064.9109 3223349
-863.77069 1146.1896 3048.0432 2960434
-823.48505 1116.0636 2967.9297 3026229
-817.75781 1132.4818 3011.5903 2763058
-802.95203 1136.7794 3023.019 2565424
-791.00702 1145.4156 3045.9851 1117980
-770.90393 1142.366 3037.8752 1841703
-763.43048 1158.3333 3080.3367 1578531
-744.38745 1157.0983 3077.0527 2499635
-724.57452 1154.5747 3070.3416 3026237
-705.89972 1153.7814 3068.2319 3552581
-694.13531 1164.5396 3096.8408 3289668
-667.11737 1149.5963 3057.1028 3947856
-642.7453 1138.5059 3027.6101 4013645
-626.82031 1142.1708 3037.3562 4145229
-596.72321 1119.465 2976.9751 2960697
-579.81866 1120.8796 2980.7368 2301998
-570.11261 1136.736 3022.9033 1973289
-549.64825 1131.4742 3008.9111 986395
-536.40747 1141.2284 3034.8501 789017
-518.31256 1140.9736 3034.1724 986396
-502.44858 1145.788 3046.9751 2104875
-480.7861 1137.2452 3024.2578 1447199
-457.55325 1124.1831 2989.5217 2434092
-441.95761 1129.5886 3003.8965 2697263
-418.70581 1115.0585 2965.2568 1513248
-401.29312 1115.4871 2966.3965 723992
-382.29471 1111.3451 2955.3818 460566
-367.53278 1119.7123 2977.6326 197392
-351.42932 1124.63 2990.7102 15
-331.99265 1118.8368 2975.3044 461083
-315.30499 1122.1777 2984.189 921376
-299.56967 1129.5062 3003.6775 1842474
-279.19473 1119.1624 2976.1702 658200
-260.00269 1112.4852 2958.4138 2369074
-243.16014 1115.6222 2966.7561 2237484
-225.62828 1115.8394 2967.3333 2171175
-207.57193 1113.2799 2960.5271 2631724
-190.47911 1115.8928 2967.4756 2368295
-173.94374 1122.6349 2985.4045 1907745
-154.99786 1113.5847 2961.3376 1447194
-138.80138 1124.4985 2990.3608 1052435
-122.10297 1133.9449 3015.4812 1842206
-104.82438 1140.3174 3032.4275 3158067
-86.867508 1140.4214 3032.7039 1710618
-69.505936 1150.4326 3059.3267 1710618
-51.399097 1150.8201 3060.3569 1644825
-33.170242 1147.4092 3051.2864 2302242
-15.052205 1144.2523 3042.8914 1907739
2.9758377 1144.739 3044.1858 2039067
21.011465 1144.8033 3044.3569 2170140
39.314041 1152.635 3065.1833 1578003
56.442665 1131.9738 3010.2393 2104347
75.884338 1156.4849 3075.4214 2038554
94.01664 1155.4133 3072.5718 2564641
111.77824 1150.8727 3060.4971 1117709
130.7887 1158.6631 3081.2139 2696484
148.4406 1153.9839 3068.7705 1841175
167.11839 1157.431 3077.9373 1446417
186.83372 1166.6785 3102.5293 2367519
203.24464 1155.4835 3072.7585 2235933
221.90501 1157.8663 3079.095 2103834
236.44342 1140.0128 3031.6177 2301213
260.41922 1166.9705 3103.3057 3156778
269.51166 1128.0767 2999.8757 3418922
286.93063 1126.6907 2996.1899 1051400
306.91885 1134.967 3018.1995 1182985
326.37457 1140.4716 3032.8372 788228
343.36838 1137.2476 3024.2637 2366489
361.26947 1137.1992 3024.1353 2366486
379.95541 1139.5093 3030.2786 2103573
394.00546 1128.335 3000.5627 1708559
414.1123 1134.7217 3017.5469 1840145
438.01749 1150.5571 3059.6577 1905938
452.06522 1140.27 3032.3013 2234903
463.97046 1125.5717 2993.2144 1182215
475.99902 1112.2435 2957.7712 2234904
496.24722 1118.3864 2974.1067 1642766
513.45459 1117.4899 2971.7227 1708559
534.8808 1125.5304 2993.1047 2432282
556.23376 1132.9058 3012.718 787715
575.33636 1135.3816 3019.3018 1775122
593.13049 1135.2037 3018.8289 1972501
603.37195 1121.0043 2981.0684 2433052
623.13409 1124.7979 2991.1565 2367002
647.84692 1137.0708 3023.7939 2301466
671.10339 1146.1959 3048.0603 2630688
689.46777 1146.7067 3049.4182 1906964
715.47388 1159.576 3083.6416 3223081
728.91461 1151.9469 3063.3538 3288873
739.91766 1140.9297 3034.0557 2893858
759.16492 1142.8457 3039.1511 2170137
771.56445 1134.6034 3017.2322 1249035
790.02216 1135.4412 3019.4602 2367001
814.18402 1144.2584 3042.908 2301206
818.36871 1125.2261 2992.2954 2366486
854.72845 1150.3021 3058.9797 3682344
854.66498 1126.3361 2995.2471 3090209
888.18658 1146.7052 3049.4143 2629659
897.63867 1135.8065 3020.4319 1576971
912.55688 1132.1151 3010.6152 1247495
929.61957 1131.1747 3008.1143 1116165
952.58289 1137.3146 3024.4421 2301208
958.20453 1122.9053 2986.1235 2103571
986.49139 1135.0979 3018.5474 3484710
989.57758 1118.3756 2974.0781 2366486
1004.0989 1114.936 2964.9312 1379590
1019.647 1112.735 2959.0781 1774347
1041.2064 1117.0576 2970.5732 1971727
1058.8821 1117.1393 2970.7903 2432019
1069.5345 1109.9297 2951.6179 1313795
1096.8929 1120.0101 2978.4248 2760727
1104.999 1110.4246 2952.9338 2365969
1123.0514 1110.9771 2954.4031 2102797
1136.7146 1107.2372 2944.458 1313537
1144.843 1098.3008 2920.6931 2168589
1147.3522 1084.3197 2883.5137 2497297
1196.754 1114.4154 2963.5466 2892313
1209.7793 1110.2567 2952.4875 3023899
1223.0867 1106.4718 2942.4224 3813928
1246.8861 1112.1515 2957.5264 4077100
1271.1134 1118.0502 2973.2126 2563861
1291.9156 1120.8162 2980.5684 3550752
1311.3934 1122.3741 2984.7114 3550239
1330.1934 1123.3181 2987.2214 3089944
1343.1199 1119.3425 2976.6492 3550494
1364.6763 1122.5687 2985.2285 4142630
1386.9375 1126.2848 2995.1106 2958101
1400.1243 1122.631 2985.3943 3155482
1416.7554 1121.7955 2983.1726 2366222
1397.2126 1092.691 2905.7754 3616031
1465.9901 1132.525 3011.7056 2628879
1454.6925 1110.2845 2952.5615 3089685
1492.2412 1125.411 2992.7871 2694671
1505.7771 1122.285 2984.4744 3944996
1516.2405 1116.9683 2970.3354 3812638
1530.6782 1114.6677 2964.2178 4010273
1538.4823 1107.6433 2945.5378 2562828
1556.9557 1108.3719 2947.4753 2168071
1578.0303 1110.9154 2954.2393 3418138
1588.7495 1106.1932 2941.6814 2497036
1608.4624 1107.7673 2945.8677 2957329
1635.5225 1114.3135 2963.2756 2628620
1639.255 1104.996 2938.4978 2891792
1646.8953 1098.4805 2921.1714 2760205
1666.2778 1099.8514 2924.8171 2496778
1677.6272 1095.9463 2914.4321 2365450
1691.7023 1093.8831 2908.9453 1904898
1696.9457 1086.2085 2888.5364 1707521
1723.7555 1092.3539 2904.8787 2102280
1784.774 1119.8416 2977.9766 3023125
1791.1307 1112.83 2959.3306 3089432
1814.8519 1116.6381 2969.4575 2431759
1813.4772 1105.0806 2938.7227 2892567
1836.198 1108.2863 2947.2476 4537393
1855.3461 1109.2954 2949.9312 4800821
1847.7173 1094.4255 2910.3879 2498067
1874.0682 1099.771 2924.6033 2366483
1905.551 1108.0028 2946.4937 2037003
1928.9653 1111.4359 2955.6235 2103310
1957.1348 1117.5226 2971.8098 3024156
1986.2415 1124.0311 2989.1177 2629654
2033.6417 1140.6855 3033.4067 787969
2043.6749 1136.2725 3021.6709 1182981
2048.1777 1128.8878 3002.033 1379845
2052.3357 1121.4419 2982.2322 919296
2059.2271 1115.6039 2966.7073 1840138
2066.2131 1109.9155 2951.5803 1774343
2087.5977 1111.9922 2957.1028 1576452
2123.1199 1121.5024 2982.3931 1839623
2134.1057 1118.0016 2973.0833 1313281
2146.2366 1115.153 2965.5081 1642245
2152.5044 1109.329 2950.0205 1050368
2166.9373 1107.7731 2945.8828 1510659
2190.032 1110.6346 2953.4927 1247488
2222.1968 1118.0143 2973.1169 1181696
2240.843 1118.5297 2974.4875 1313281
2255.4089 1117.0164 2970.4634 1444352
2265.1521 1113.1564 2960.1987 2891794
2301.3967 1122.2793 2984.459 3286295
2316.5847 1121.0729 2981.251 3089171
2355.4229 1131.2435 3008.2974 3549722
2350.6021 1120.4506 2979.5959 3681308
2393.0339 1132.1743 3010.7727 4141859
2393.7219 1124.1211 2989.3569 3550750
2425.6841 1130.7653 3007.0254 3681824
2462.3669 1139.4969 3030.2456 3155482
2469.7456 1134.6393 3017.3279 3747877
2482.45 1132.2808 3011.0559 4668981
2495.0869 1129.9254 3004.7922 2695193
2538.0442 1141.2369 3034.8728 1116676
2539.6404 1133.9221 3015.4204 2432533
2558.2769 1134.2645 3016.3311 1709328
2538.0488 1117.4904 2971.7241 1709328
2573.7322 1125.3953 2992.7454 1907221
2600.8735 1129.4824 3003.6143 2105117
2574.8889 1110.5999 2953.4001 3947581
2531.7566 1084.626 2884.3281 7238260
2610.6936 1110.9452 2954.3184 6580589
2725.0986 1151.9062 3063.2456 6515822
2761.054 1159.384 3083.1311 6581105
2786.6616 1162.4469 3091.2761 6647411
2820.3281 1168.8096 3108.1963 6581618
2849.53 1173.2515 3120.0085 6647411
2872.4167 1175.0527 3124.7986 6844790
2905.9495 1181.1581 3141.0344 6976376
2929.906 1183.3181 3146.7786 7107962
2951.3481 1184.4418 3149.7666 7239548
2997.3057 1195.3281 3178.7166 7174012
3022.554 1197.8711 3185.4792 7371134
3050.7715 1201.552 3195.2678 7305341
0 0 0 0
0 0 0 0
0 0 0 0
0 0 0 0
0 0 0 0
0 0 0 0
0 0 0 0
-2737.7007 1170.2433 3063.7422 3091491
-2711.0347 1166.5789 3054.1487 2433561
-2672.0083 1157.5107 3030.408 1973010
-2628.6245 1146.4197 3001.3711 2433304
-2624.0171 1152.2041 3016.5146 1841424
-2634.0659 1164.5475 3048.8303 1183237
-2598.3298 1156.6797 3028.2322 1314823
-2608.3821 1169.2273 3061.0823 2762268
-2586.7131 1167.6321 3056.9058 3551783
-2546.3738 1157.527 3030.4502 2893852
-2555.3213 1169.8422 3062.6919 3157024
-2515.1853 1159.7021 3036.1448 2696474
-2493.8291 1158.1373 3032.0483 2564890
-2486.8618 1163.2806 3045.5134 2433048
-2478.1589 1167.6812 3057.0344 2367770
-2448.6218 1162.2576 3042.8352 1249289
-2439.7915 1166.6549 3054.3477 1644563
-2433.2039 1172.1985 3068.8608 1578770
-2412.1108 1170.7848 3065.1597 1315598
-2405.1262 1176.2496 3079.467 2038807
-2382.426 1174.0532 3073.7168 2499871
-2350.5959 1167.2894 3056.0088 3223337
-2330.8896 1166.4878 3053.9099 3025960
-2299.5693 1159.8159 3036.4429 3025959
-2276.4072 1157.186 3029.5579 2828323
-2241.874 1148.688 3007.3096 2236186
-2244.7429 1159.3713 3035.2791 2301979
-2222.0322 1156.9092 3028.833 1906964
-2193.7129 1151.463 3014.5747 2433565
-2172.6904 1149.7889 3010.1919 2367772
-2158.334 1151.6439 3015.0483 2039321
-2148.8662 1156.1603 3026.8723 2302493
-2139.0601 1160.569 3038.4143 2697251
-2130.1797 1165.5591 3051.4785 1512977
-2131.8694 1176.4677 3080.0378 3026216
-2114.6772 1177.0547 3081.5747 2697251
-2083.7334 1169.9308 3062.9241 2763044
-2055.4714 1164.2009 3047.9231 4210490
-2045.5924 1168.8738 3060.1567 2565663
-2031.1177 1170.9806 3065.6724 2367772
-2021.5948 1176.006 3078.8291 1643792
-1982.5303 1163.7814 3046.8247 920071
-1961.8534 1162.2253 3042.7507 1117705
-1954.6888 1168.7194 3059.7524 1446670
-1926.2948 1162.5229 3043.53 2301978
-1913.262 1165.5677 3051.5012 3354410
-1899.0302 1167.933 3057.6936 2038805
-1904.2593 1182.4279 3095.6418 2367770
-1862.2762 1167.6038 3056.8318 3223592
-1845.1241 1168.2098 3058.4185 2763298
-1820.5232 1164.0651 3047.5674 2105625
-1822.5967 1177.0641 3081.5991 2697507
-1809.4773 1180.415 3090.3721 2565665
-1785.4965 1176.6765 3080.5845 2960423
-1767.4048 1176.7819 3080.8606 3224109
-1749.9742 1177.3345 3082.3071 3158316
-1722.6093 1171.1445 3066.1016 3618866
-1719.1962 1181.2804 3092.6375 3487281
-1681.5288 1167.8442 3057.4614 2105116
-1666.0212 1169.6736 3062.2505 2039835
-1655.344 1174.9716 3076.1211 1908250
-1627.9176 1168.3667 3058.8293 2303007
-1604.7992 1164.7399 3049.334 3619123
-1586.0933 1164.2693 3048.1021 2303006
-1566.1896 1162.8987 3044.5137 1973786
-1568.3168 1178.0446 3084.166 2434596
-1489.2485 1131.8385 2963.197 2302754
-1484.7151 1141.8529 2989.4148 3750200
-1488.2968 1158.4253 3032.802 4144957
-1509.5793 1189.3488 3113.761 2171167
-1473.3949 1175.2008 3076.7209 1908249
-1468.225 1185.746 3104.3286 4803141
-1460.2181 1194.2384 3126.5623 2895145
-1414.6323 1171.8203 3067.8708 2566181
-1399.4696 1174.3478 3074.4878 2434339
-1387.8599 1179.9628 3089.188 3684406
-1385.0543 1193.3131 3124.1396 2565925
-1380.7159 1205.6866 3156.5339 4079164
-1336.7574 1183.3274 3097.9966 3487027
-1326.5035 1190.5967 3117.0281 3355441
-1286.0748 1170.606 3064.6914 4539715
-1269.443 1172.0131 3068.3755 3618615
-1249.6621 1170.5114 3064.4441 3684408
-1227.6156 1166.8121 3054.7593 4013373
-1216.6268 1173.6696 3072.7122 4144959
-1194.7206 1170.0431 3063.218 3421236
-1181.6725 1175.114 3076.4937 3289651
-1188.7252 1200.646 3143.3376 3421238
-1137.9266 1167.6294 3056.8987 3026224
-1123.3604 1171.3242 3066.572 3223606
-1102.8824 1168.8751 3060.1602 3618363
-1095.6882 1180.658 3091.0081 2697261
-1068.3395 1170.7548 3065.0811 3749949
-1045.5056 1165.5422 3051.4346 3486777
-1033.0206 1171.8865 3068.0439 3684156
-1009.4763 1165.687 3051.8137 2828847
-988.06085 1161.7649 3041.5454 3355191
-975.04016 1167.7507 3057.2166 4013121
-947.27191 1155.9668 3026.3657 3354935
-923.57379 1148.7906 3007.5784 2499370
-893.89587 1133.7478 2968.1956 2038820
-875.0097 1132.0636 2963.7861 2367785
-850.64301 1123.0745 2940.2522 2696751
-841.2326 1133.8685 2968.5117 3026230
-820.51642 1129.5596 2957.2307 3355194
-805.38312 1132.9159 2966.0176 2565678
-799.43604 1149.6322 3009.7815 3026229
-777.69708 1143.8835 2994.7314 2894902
-758.97009 1142.4001 2990.8479 1841958
-756.23431 1165.4912 3051.301 2368303
-735.6311 1161.502 3040.8569 2368305
-714.80365 1156.9495 3028.9382 3618374
-690.71283 1146.7444 3002.2209 4210511
-678.56165 1156.3466 3027.3599 3289411
-658.20917 1152.1146 3016.2805 3486789
-634.5882 1141.7656 2989.1865 3092030
-611.9743 1132.6866 2965.4175 2960442
-596.52618 1136.7258 2975.9922 2697270
-575.2937 1129.6528 2957.4749 2170411
-567.24695 1148.8405 3007.7087 2565423
-549.7428 1149.4974 3009.4287 3618112
-527.33984 1139.6119 2983.5481 2763057
-512.82196 1146.6718 3002.031 3881795
-492.31976 1140.3771 2985.5513 4868432
-469.60397 1128.2949 2953.9197 2697006
-453.39456 1131.515 2962.3499 3289142
-435.06836 1129.4989 2957.0718 2367785
-418.47577 1132.0031 2963.6279 2302504
-397.80911 1123.2236 2940.6426 2434348
-379.67383 1121.1145 2935.1208 3092281
-362.01416 1120.2748 2932.9226 5000026
-343.4805 1116.5094 2923.0647 1250337
-328.41321 1124.2102 2943.2256 1711145
-312.20236 1128.6404 2954.824 1447715
-291.98877 1118.2671 2927.6665 1447716
-276.72141 1126.7231 2949.8047 921371
-259.36795 1127.2528 2951.1914 921113
-242.94551 1132.1978 2964.1375 1315612
-223.60429 1123.2512 2940.7148 1907748
-205.56454 1119.8828 2931.8965 1512989
-187.82327 1117.6688 2926.1001 1973540
-170.48343 1117.6364 2926.0149 1447194
-154.29085 1125.9688 2947.8298 2105124
-136.82039 1125.9125 2947.6821 1578779
-120.15775 1133.4597 2967.4414 2434343
-103.4651 1143.2626 2993.1055 1842206
-85.26873 1137.068 2976.8877 2039584
-68.522331 1152.02 3016.033 2368291
-51.021091 1160.3535 3037.8501 2105120
-32.849648 1154.2211 3021.7954 1315347
-14.961855 1155.3025 3024.6267 1906969
2.9299188 1144.8313 2997.2124 1972504
20.86537 1154.7537 3023.1895 2170140
38.8792 1157.8439 3031.28 3157035
56.66169 1154.2688 3021.9202 2301213
75.260635 1165.0493 3050.144 2169627
91.31218 1139.856 2984.1868 1906455
109.64029 1146.6445 3001.9597 3024936
129.27356 1163.2828 3045.5193 2170140
148.32884 1171.2815 3066.4602 2893862
165.60776 1165.0381 3050.1147 2630178
180.85715 1147.15 3003.2832 2432799
196.79021 1136.4144 2975.1768 2169881
218.55994 1158.3784 3032.6794 2235160
232.56483 1138.9777 2981.8875 2432538
253.57686 1154.2106 3021.7681 2169366
269.20303 1144.5364 2996.4404 2301210
287.55695 1146.9388 3002.73 262657
303.70947 1140.7925 2986.6387 393728
321.17624 1139.9875 2984.5315 327936
340.59827 1145.8446 2999.8655 1512208
357.32471 1142.502 2991.1143 1314572
372.569 1134.9601 2971.3691 1708816
391.80408 1139.7074 2983.7979 1512207
408.46835 1136.8896 2976.4209 1642766
428.04202 1142.0674 2989.9766 1971731
450.84357 1155.1041 3024.1072 2037524
456.56863 1125.0647 2945.4629 1708559
461.53912 1095.446 2867.9199 1642766
479.82339 1098.4084 2875.6758 2037524
508.29602 1123.691 2941.8665 1445388
528.69537 1130.0414 2958.4919 1379595
546.23322 1130.0645 2958.5522 393729
564.31281 1131.1718 2961.4514 1775122
581.46613 1130.4117 2959.4614 920072
599.90552 1132.123 2963.9419 2038295
617.05145 1131.3656 2961.9587 1314570
636.07416 1133.996 2968.8452 1643535
656.4223 1138.7841 2981.3806 2169881
674.79987 1139.9924 2984.5439 2498330
694.40417 1143.1584 2992.8328 2695708
706.93604 1134.8137 2970.9861 2432279
727.50006 1139.455 2983.137 2760986
751.08282 1148.4919 3006.7964 4142895
761.94568 1138.1107 2979.6177 2103057
769.66504 1123.6104 2941.6555 1248778
792.61029 1131.4879 2962.2791 1643020
816.53229 1140.3883 2985.5806 1774349
829.07465 1133.3552 2967.1677 2300436
850.79248 1138.8967 2981.6755 1971471
856.39246 1123.0757 2940.2554 2761757
891.44684 1145.7421 2999.5972 2959136
897.57098 1131.0663 2961.1753 1247749
912.52106 1127.8619 2952.7861 590849
933.36322 1131.9236 2963.4197 3616297
957.02716 1139.1942 2982.4546 1906191
974.66583 1139.1591 2982.3623 2760986
975.31555 1119.6226 2931.2151 2629400
992.56726 1119.4945 2930.8799 1050627
1018.4676 1128.9579 2955.6553 984577
1030.4542 1122.9388 2939.8972 1774347
1041.7257 1116.3535 2922.6565 2168847
1066.7856 1124.5181 2944.0317 2497812
1080.0713 1120.208 2932.748 1971212
1080.9968 1103.4182 2888.7915 2892570
1102.7944 1108.1246 2901.1133 2037004
1109.0692 1097.3281 2872.8474 1247232
1129.2131 1100.3728 2880.8186 1313283
1141.0154 1095.3193 2867.5884 1905418
1157.5507 1094.8909 2866.4666 2365969
1184.9873 1104.637 2891.9822 2760726
1188.6095 1092.222 2859.4795 3484449
1213.6698 1099.5787 2878.7397 2760724
1235.6141 1103.9478 2890.1777 2629139
1239.5106 1092.293 2859.6653 3287069
1274.2405 1107.7573 2900.1516 3221275
1303.9062 1118.4666 2928.1885 2365968
1326.3578 1122.7874 2939.5007 2497552
1347.399 1125.8179 2947.4348 4010794
1380.1619 1138.4396 2980.4788 2365968
1382.1464 1125.6752 2947.061 1576968
1393.7987 1121.005 2934.8342 1576199
1413.0853 1122.5143 2938.7856 1313025
1422.2706 1116.0603 2921.8889 984576
1440.1133 1116.4733 2922.9702 1444866
1461.6143 1119.679 2931.3628 1313280
1490.8622 1128.6742 2954.9128 2628882
1517.1772 1135.2661 2972.1707 2694158
1516.6001 1121.8149 2936.9548 2233866
1528.6455 1117.8998 2926.7046 2365452
1536.8684 1111.3083 2909.448 2431502
1564.8551 1118.9957 2929.574 2036744
1566.3938 1107.8094 2900.2881 2826260
1593.9562 1115.0713 2919.2996 2168330
1601.7861 1108.5212 2902.1514 2300172
1624.6895 1112.4312 2912.3877 1247488
1620.2489 1097.733 2873.9075 1247488
1637.5443 1097.9139 2874.3811 1642245
1648.4459 1093.8484 2863.7373 1576451
1681.749 1104.579 2891.8306 1510145
1685.7721 1096.056 2869.5168 1246720
1711.6729 1101.7855 2884.5168 1313537
1730.4172 1102.8408 2887.2798 2431758
1758.4825 1109.7577 2905.3887 2826517
1788.7469 1117.9152 2926.7449 2760724
1804.968 1117.2234 2924.9338 3484191
1826.8489 1120.0146 2932.2415 2827030
1812.2926 1100.6246 2881.478 3221788
1831.0372 1101.632 2884.1147 2761237
1823.1617 1086.7527 2845.1606 4208427
1887.8645 1115.0125 2919.1455 4143148
1904.377 1114.5552 2917.9485 3682341
1946.9841 1129.241 2956.3965 3287584
1978.8208 1137.4738 2977.9502 2629910
2027.7782 1155.3154 3024.6606 4011565
2014.8759 1137.9092 2979.0901 3616550
2024.4091 1133.3656 2967.1948 2498586
2030.2311 1126.8405 2950.1121 1445384
2041.5083 1123.4288 2941.1799 262144
2050.5647 1118.8629 2929.2263 524800
2064.0713 1116.7817 2923.7776 984577
2090.0349 1121.4189 2935.918 1445124
2107.8853 1121.6621 2936.5547 1774089
2109.3 1113.2273 2914.4719 1971209
2121.01 1110.3187 2906.8574 2760726
2100.3455 1090.646 2855.3533 1642245
2166.9849 1116.2596 2922.4109 2168589
2210.0815 1129.4362 2956.9075 2234382
2225.2805 1128.2607 2953.8301 1905672
2212.7195 1113.1385 2914.2395 1773829
2246.6045 1121.4349 2935.96 2299659
2268.4558 1123.6431 2941.741 3352346
2289.8728 1125.6042 2946.8752 3220759
2312.3225 1128.0393 2953.2505 3023380
2337.9448 1131.9739 2963.5515 3089173
2359.2092 1133.7557 2968.2163 4602411
2394.9744 1142.4281 2990.9211 3220502
2401.7563 1137.2495 2977.363 3286552
2399.5859 1127.9382 2952.9858 2759953
2414.2976 1126.6396 2949.5862 2563088
2439.365 1130.1577 2958.7964 2826519
2448.2122 1126.1644 2948.3418 3550499
2494.8799 1139.5015 2983.259 3484964
2501.0459 1134.2826 2969.5955 3353380
2516.6531 1133.3884 2967.2546 3091235
2500.0876 1118.118 2927.2764 1906707
2516.1348 1117.5431 2925.771 1973014
2540.8169 1120.7849 2934.2583 2235674
2557.6921 1120.5624 2933.6755 2105117
2578.8914 1122.2244 2938.0269 1513494
2568.8921 1110.3789 2907.0149 6382694
2620.248 1125.0349 2945.3848 5988708
2721.3955 1160.734 3038.8464 6778738
2749.7524 1165.1212 3050.3323 6713715
2776.4204 1168.7402 3059.8071 6647411
2816.8555 1178.0698 3084.2324 6581618
2841.3892 1180.672 3091.0449 6581618
2876.8018 1187.7322 3109.5288 6778997
2897.7786 1188.7805 3112.2732 7042169
2923.3257 1191.6785 3119.8604 7173755
2971.967 1203.8954 3151.8445 7108219
3001.7463 1208.3665 3163.55 7173755
3022.125 1209.0214 3165.2646 7173755
0 0 0 0
0 0 0 0
0 0 0 0
0 0 0 0
0 0 0 0
0 0 0 0
0 0 0 0
-2687.3811 1166.5507 3007.4299 2828319
-2651.0693 1158.4686 2986.594 1973011
-2616.8201 1151.1854 2967.8174 2367000
-2594.7083 1149.1792 2962.6453 1643533
-2583.1843 1151.8668 2969.5742 1643531
-2576.9062 1156.9465 2982.6702 1446409
-2580.6941 1166.647 3007.6782 2301718
-2541.241 1156.7986 2982.2886 2235925
-2524.4282 1157.1906 2983.2991 2958878
-2506.1914 1156.9307 2982.6289 2433304
-2476.0923 1151.1521 2967.7314 2170132
-2455.6965 1149.8344 2964.3345 2367511
-2444.6018 1152.8842 2972.1968 3420198
-2441.3796 1159.7178 2989.8142 2170134
-2420.512 1158.2079 2985.9219 2301977
-2419.2122 1166.1079 3006.2886 2696735
-2386.769 1159.0021 2987.9692 2367770
-2357.3494 1153.2693 2973.1899 2565919
-2337.1008 1151.9706 2969.8418 1973529
-2317.811 1151.1284 2967.6707 1776149
-2318.6619 1160.3524 2991.4507 1381391
-2264.988 1142.2223 2944.71 1841943
-2254.6531 1145.8357 2954.0256 1381392
-2244.1865 1149.4382 2963.3132 986378
-2223.9556 1148.057 2959.7522 854021
-2224.02 1157.2142 2983.3599 2104345
-2192.0288 1149.705 2964.0007 2104088
-2169.6882 1147.177 2957.4834 1709843
-2161.0115 1151.8911 2969.6367 2038808
-2146.0535 1153.3071 2973.2871 2038807
-2130.0754 1154.1937 2975.5732 2302493
-2098.3174 1146.4734 2955.6697 2434079
-2097.032 1155.4128 2978.7161 2960423
-2080.5164 1156.0413 2980.3362 2105113
-2098.6135 1176.0776 3031.9907 2434080
-2081.5457 1176.5831 3033.2939 4078905
-2021.1735 1152.4067 2970.9661 2565667
-2003.1624 1152.1707 2970.3574 394499
-1976.4491 1146.8809 2956.72 1249806
-1983.0507 1161.0009 2993.1223 789255
-1957.74 1156.5238 2981.5801 855049
-1926.7332 1148.5696 2961.0737 1512978
-1924.3114 1157.666 2984.5247 1644049
-1899.4287 1153.2933 2973.2517 1249291
-1873.548 1148.2271 2960.1907 1973013
-1868.3333 1155.8501 2979.8433 1381134
-1874.6985 1170.851 3018.5161 2894113
-1858.0507 1171.6294 3020.5232 920838
-1807.1235 1150.5974 2966.3015 2696993
-1779.8989 1144.392 2950.3035 2828836
-1795.197 1165.6746 3005.1711 3092263
-1752.8406 1149.5718 2963.6575 2763043
-1763.1825 1168.0542 3011.3059 2039321
-1734.5161 1160.8085 2992.6262 1118219
-1718.6443 1162.0643 2995.8638 2565666
-1700.2557 1161.6268 2994.7358 3289902
-1682.4329 1161.5706 2994.5908 2960936
-1665.1733 1161.9062 2995.4563 3092523
-1661.6394 1171.9296 3021.2971 3223597
-1621.7693 1156.2649 2980.9126 2697765
-1596.1315 1150.514 2966.0867 2171421
-1573.9927 1147.1855 2957.5054 1908249
-1557.7229 1148.1077 2959.8828 2434593
-1533.5331 1143.147 2947.0938 3553073
-1519.0918 1145.4225 2952.9602 2434593
-1507.8846 1150.2181 2965.3237 2368800
-1484.3124 1145.5835 2953.3755 3816246
-1456.6785 1137.6661 2932.9641 3684404
-1436.5343 1135.4778 2927.3223 3618613
-1434.6747 1147.8651 2959.2576 3421232
-1414.6993 1145.8855 2954.1541 3618611
-1413.9166 1159.5967 2989.5022 3158316
-1409.0496 1170.2635 3017.002 3618613
-1389.3043 1168.6891 3012.9429 3223855
-1374.8881 1171.6145 3020.4849 3092269
-1366.5751 1179.8867 3041.8108 3487027
-1348.196 1179.5729 3041.002 3815992
-1320.2782 1170.7919 3018.364 3092269
-1298.7991 1167.5577 3010.0261 2368546
-1278.8776 1165.6533 3005.1165 3947578
-1268.3147 1172.3455 3022.3694 4539716
-1229.2365 1152.4944 2971.1921 3289394
-1210.6003 1151.5107 2968.6562 3289394
-1182.2726 1141.1437 2941.9292 3223857
-1177.585 1153.6254 2974.1079 3026477
-1178.3162 1171.8755 3021.1577 2763306
-1154.6855 1166.0864 3006.2332 2960684
-1142.8149 1172.1781 3021.9375 3618360
-1135.3326 1183.036 3049.9302 4342340
-1090.2975 1154.4821 2976.3162 3947328
-1071.6233 1153.3607 2973.4255 2368296
-1053.818 1153.1527 2972.8894 3157811
-1050.3253 1168.8657 3013.3982 2828335
-1032.7074 1169.1307 3014.0815 2236199
-1007.8598 1161.0764 2993.3169 1315099
-996.79089 1168.8911 3013.4636 986135
-968.3797 1156.2836 2980.9607 1644065
-951.07697 1156.7179 2982.0806 2104617
-928.2774 1150.3569 2965.6814 1906982
-909.71411 1149.1013 2962.4446 1249053
-878.38983 1131.3605 2916.7078 1512481
-860.75238 1130.8898 2915.4944 1906981
-839.94995 1126.1565 2903.2915 2302506
-830.81805 1137.1995 2931.761 3684159
-817.73352 1143.1885 2947.2009 4079174
-799.61298 1142.2448 2944.7678 3553602
-784.21008 1145.2277 2952.458 3422273
-765.87653 1143.9691 2949.2134 2895159
-752.87628 1150.804 2966.8342 3026489
-749.52948 1173.0742 3024.248 2960954
-727.15698 1165.9292 3005.8276 3815494
-707.84241 1163.4515 2999.4402 3552581
-679.75586 1146.0569 2954.5959 3092030
-643.01831 1112.7721 2868.7856 3486789
-640.37268 1138.2789 2934.5439 3420996
-624.7605 1141.5178 2942.894 3420993
-602.65088 1132.7303 2920.2395 2499891
-582.94287 1128.0709 2908.2271 2631733
-562.66663 1121.9944 2892.5615 2631218
-553.37567 1138.1299 2934.1594 2433838
-534.88037 1135.7672 2928.0684 2565424
-516.94275 1134.47 2924.7241 3289402
-497.36734 1129.3639 2911.5605 2631471
-481.07388 1131.611 2917.3535 4407881
-464.24939 1132.7299 2920.238 2894642
-441.62796 1119.2439 2885.4705 2302504
-420.70602 1109.1522 2859.4536 2828592
-412.50989 1133.172 2921.3779 2433577
-390.85495 1120.7047 2889.2366 2565163
-372.99353 1118.4711 2883.478 1973538
-361.32758 1135.4924 2927.3599 4868430
-338.33493 1116.8408 2879.2751 2105124
-322.12469 1119.786 2886.8682 3157813
-304.40698 1117.5273 2881.0452 2368296
-284.38177 1106.0259 2851.3938 2499882
-266.81757 1103.2478 2844.2317 2170919
-253.21994 1117.6017 2881.2368 1776417
-233.61078 1105.5806 2850.2458 1315611
-219.74242 1120.972 2889.9258 1118231
-203.31445 1124.8037 2899.804 1973540
-186.07396 1124.4327 2898.8477 2697005
-168.99161 1125.0391 2900.4109 3420984
-153.31859 1136.2269 2929.2539 1776159
-135.79742 1134.8264 2925.6431 2368037
-119.22523 1142.1068 2944.4121 1512728
-101.60009 1140.0669 2939.1533 2236706
-84.002838 1137.561 2932.6931 3881274
-67.222221 1147.6908 2958.8081 2565414
-49.503834 1143.3088 2947.5112 2433828
-31.991453 1141.5012 2942.8511 1907484
-14.60382 1145.146 2952.2476 2499106
2.890851 1147.0853 2957.2473 1051917
20.455221 1149.6125 2963.7627 1841176
38.448765 1162.7844 2997.7205 1775384
55.210434 1142.1489 2944.5208 722696
72.892311 1145.8883 2954.1611 1512212
90.883453 1152.1001 2970.1755 3288623
107.76024 1144.4619 2950.4839 1841177
126.25178 1153.7115 2974.3298 1182732
142.68642 1144.2014 2949.8123 2301213
160.6255 1147.5143 2958.353 2103578
176.823 1138.9573 2936.2927 2301467
194.0826 1138.1617 2934.2417 2498076
210.79105 1134.5306 2924.8804 2103317
226.53101 1126.6344 2904.5234 1840146
245.90921 1136.67 2930.3962 1841173
263.12021 1136.0253 2928.7339 1972502
281.98679 1142.1661 2944.5652 1314831
300.19537 1145.0817 2952.0815 2235674
318.27078 1147.196 2957.5327 3485998
336.0524 1148.0861 2959.8271 2301979
349.97644 1136.3624 2929.603 1314572
368.10455 1138.7521 2935.7637 788485
388.3187 1147.0883 2957.2546 1182986
403.50595 1140.4965 2940.2607 2300696
419.22397 1135.8883 2928.3806 2037524
436.65649 1136.1071 2928.9448 1511180
450.41934 1127.1263 2905.792 2103316
461.50464 1112.3531 2867.7058 2037524
474.16452 1102.2894 2841.761 2432282
495.85519 1113.1898 2869.8628 2169110
516.01178 1120.0376 2887.5168 1839888
534.09589 1122.0919 2892.813 2169880
552.08691 1123.8291 2897.2913 1709329
572.55005 1130.3418 2914.0815 1709329
584.94257 1121.0066 2890.0149 1840915
609.22559 1134.3417 2924.3933 1775122
623.0545 1128.0126 2908.0767 1182985
642.85712 1132.5481 2919.7695 2235672
661.58142 1134.9961 2926.0806 2103571
680.10913 1136.9905 2931.2222 2234900
696.79791 1135.8878 2928.3794 2300694
715.60492 1138.2079 2934.3606 2498073
733.54578 1139.0728 2936.5903 2629657
751.30365 1139.6201 2938.0017 3748395
774.1319 1147.6597 2958.7278 2432536
787.59265 1141.7632 2943.5264 2827294
802.75403 1138.5341 2935.2017 1182215
807.9801 1121.6495 2891.6726 1708559
826.18091 1123.104 2895.4221 1314315
842.94415 1122.5848 2894.0835 787972
865.59491 1129.7706 2912.6089 2827551
883.80109 1130.9878 2915.7468 2301207
894.90826 1123.248 2895.7935 3222050
918.83215 1131.5837 2917.2834 3089950
947.16992 1144.9474 2951.7356 3747879
954.38562 1132.7567 2920.3074 3287329
975.35571 1137.0345 2931.3357 2826778
985.37195 1128.6165 2909.6335 2826779
986.78931 1110.8082 2863.7229 1181956
1021.1884 1130.1014 2913.4617 1050625
1034.89 1126.2289 2903.4783 2497812
1051.4448 1125.5374 2901.6953 2497811
1072.067 1129.1519 2911.0139 3024410
1066.1486 1105.1407 2849.1121 3681827
1084.6606 1106.8075 2853.4087 2760726
1095.4373 1100.6508 2837.5364 1708038
1117.9462 1106.2899 2852.0745 1773831
1131.4419 1102.9749 2843.5281 2629141
1138.4403 1093.5162 2819.1433 2431762
1147.3157 1086.1078 2800.0439 2497297
1166.9875 1088.9855 2807.4629 3879207
1176.1287 1082.0935 2789.6948 2497554
1216.1588 1103.4181 2844.6707 3089691
1233.9038 1104.2167 2846.7297 2366225
1270.2739 1121.4369 2891.124 2760982
1280.6796 1115.5812 2876.0281 4866613
1298.552 1116.2985 2877.877 2498067
1325.672 1124.8436 2899.9067 3813672
1345.6536 1127.1906 2905.9575 591105
1357.608 1122.8392 2894.7395 2432022
1364.0791 1114.1179 2872.2556 1181957
1377.4872 1111.2076 2864.7524 1050368
1394.0143 1110.8535 2863.8396 1116161
1416.2264 1114.9838 2874.4875 787713
1406.0582 1093.8259 2819.9417 1642759
1470.8702 1130.8099 2915.2883 2695189
1460.5421 1109.838 2861.2217 2892311
1510.3586 1134.5258 2924.8679 2168589
1491.3053 1107.5077 2855.2141 919553
1520.9957 1116.889 2879.3994 2234384
1550.0669 1125.6124 2901.8889 1313284
1555.0298 1116.8297 2879.2468 1378821
1564.2312 1111.2489 2864.8589 1444870
1568.6949 1102.4581 2842.196 1379078
1594.1235 1108.4315 2857.5957 1247490
1597.3667 1099.0154 2833.3206 787200
1618.3156 1101.8502 2840.6289 1707782
1635.3395 1101.9819 2840.9683 1115904
1645.7828 1097.7218 2829.9854 2563088
1667.2621 1100.8341 2838.009 1905416
1695.2494 1108.1384 2856.8401 3221274
1713.5387 1109.0219 2859.1174 2760724
1721.2638 1103.1174 2843.8955 2431502
1740.9574 1104.9233 2848.5515 2365966
1753.0702 1101.9298 2840.8337 2826517
1753.6234 1091.796 2814.7085 2563858
1789.6975 1103.76 2845.5522 2300429
1807.4916 1104.3323 2847.0273 2563859
1809.7084 1095.4644 2824.1658 3090202
1811.7557 1086.6575 2801.4609 4471857
1868.4211 1110.4719 2862.8557 2959130
1888.8132 1112.4933 2868.0669 3090717
1935.8823 1130.051 2913.3318 2695959
1960.9813 1134.5868 2925.0254 2498323
1980.9448 1136.098 2928.9214 2498068
1992.8025 1132.9746 2920.8691 3156512
1997.5397 1125.8915 2902.6084 1972240
2009.371 1122.8937 2894.8799 1380105
2016.8792 1117.5513 2881.1067 1248776
2015.1705 1107.2343 2854.509 1972499
2037.8601 1110.3831 2862.6267 393472
2043.0144 1104.0042 2846.1814 327680
2075.8081 1112.5431 2868.1956 1445124
2088.1357 1110.0635 2861.803 2234381
2086.7935 1100.4155 2836.9299 2628884
2120.6763 1109.3483 2859.9592 2497552
2133.1902 1107.0497 2854.0332 2365966
2142.582 1103.1797 2844.0562 2432015
2175.0359 1111.1519 2864.6089 3089943
2191.5615 1110.9263 2864.0273 2760208
2211.6663 1112.5046 2868.0962 2760208
2236.397 1116.368 2878.0564 2957587
2258.855 1119.0469 2884.9626 2891793
2281.554 1121.8043 2892.0713 3023380
2329.2461 1136.7175 2930.5186 3549469
2340.3352 1133.6793 2922.686 2234122
2330.5405 1120.6438 2889.0796 1970950
2345.7236 1119.7213 2886.7014 2102025
2363.4351 1120.0104 2887.4468 1970183
2364.3706 1112.4025 2867.833 1772805
2395.9419 1119.214 2885.3933 2694933
2432.3936 1128.1925 2908.5405 3089947
2447.5637 1127.2435 2906.094 2629655
2481.1599 1134.7347 2925.4067 2761497
2443.7827 1109.8882 2861.3508 2498586
2493.3999 1124.6217 2899.3347 1709328
2496.0586 1118.1184 2882.5691 1248522
2493.094 1109.2018 2859.5813 1446673
2514.5627 1111.2028 2864.74 1643796
2535.1724 1112.7997 2868.8572 2302755
2633.8198 1148.4016 2960.6406 5461335
2659.9207 1152.1097 2970.2004 4738383
2722.1296 1171.3063 3019.6902 4607826
2745.3215 1173.5729 3025.5337 5462877
2769.7563 1176.3381 3032.6626 5923175
2787.3918 1176.1986 3032.303 6120554
2813.9961 1179.8213 3041.6423 6186604
2831.0322 1179.4116 3040.5862 6384241
2875.301 1190.2806 3068.6069 6581619
2954.8882 1215.5419 3133.7317 6712948
2973.4531 1215.5419 3133.7317 6713204
2986.0024 1213.0979 3127.4312 6778997
0 0 0 0
0 0 0 0
0 0 0 0
0 0 0 0
0 0 0 0
0 0 0 0
0 0 0 0
0 0 0 0
-2637.4478 1170.1187 2971.2485 1841168
-2575.2075 1150.1818 2920.6233 2170132
-2539.8074 1142.0441 2899.9595 2301718
-2531.1013 1145.8804 2909.7009 2235925
-2531.9329 1154.1167 2930.6152 2170132
-2504.4788 1149.4846 2918.853 1972496
-2485.3525 1148.6367 2916.7002 2038546
-2487.7566 1157.7974 2939.9614 3025184
-2449.593 1148.0739 2915.2708 1906960
-2425.1724 1144.699 2906.7012 2170132
-2398.103 1140.017 2894.812 2433304
-2386.968 1142.8966 2902.1245 3222820
-2388.5535 1151.953 2925.1211 1840913
-2365.3904 1149.1188 2917.9243 1841426
-2357.6387 1153.7849 2929.7727 2762528
-2332.5466 1149.9713 2920.0889 2893858
-2317.3293 1151.0054 2922.7148 2171161
-2297.803 1149.8987 2919.9045 1578768
-2285.0383 1152.1846 2925.7092 1710356
-2264.4675 1150.5393 2921.5312 789255
-2218.5464 1135.8894 2884.3311 1841942
-2187.7449 1128.8134 2866.3633 1710356
-2187.1428 1137.3304 2887.9905 2499872
-2187.4102 1146.4376 2911.116 1380877
-2178.24 1150.704 2921.9492 2104600
-2161.0417 1150.7637 2922.1008 2828323
-2145.8069 1151.8782 2924.9309 3354924
-2087.4092 1129.6523 2868.4934 3025959
-2075.2529 1132.2915 2875.1953 2894630
-2073.3655 1140.6239 2896.3533 2170907
-2071.7449 1149.243 2918.2397 3355181
-2070.0449 1157.963 2940.3821 2499872
-2046.3569 1154.4268 2931.4026 2631458
-2046.1876 1164.2113 2956.248 1973530
-2000.5775 1148.0873 2915.3049 1907736
-1988.6636 1151.1882 2923.1792 2499873
