# .PCD v0.7 - Point Cloud Data file format
VERSION 0.7
FIELDS x y z rgb
SIZE 4 4 4 4
TYPE F F F U
COUNT 1 1 1 1
WIDTH 1308
HEIGHT 1
VIEWPOINT 0 0 0 1 0 0 0
POINTS 1308
DATA ascii
242.75858 805.25732 1628.3429 3355183
253.77458 809.62598 1637.1769 2499872
263.30869 809.11926 1636.1522 1578002
274.09268 812.35284 1642.6912 1184014
283.50522 811.43939 1640.844 1973528
290.41705 803.66644 1625.126 2631714
299.66125 802.63947 1623.0492 2631202
311.79153 809.16638 1636.2476 3157287
323.414 814.02148 1646.0653 460036
331.36777 809.62872 1637.1825 131072
340.21329 807.60266 1633.0854 525827
346.46268 799.69623 1617.0977 1381394
355.06717 797.50507 1612.6669 4144440
368.45703 805.89539 1629.6331 1315342
375.46866 800.26282 1618.2434 3748911
385.96182 802.14642 1622.0522 1380876
394.45544 799.88385 1617.4771 1314570
399.83826 791.57001 1600.6653 1775120
409.06741 791.07959 1599.6737 4275509
422.39804 798.36365 1614.403 5854031
432.3978 799.16888 1616.0312 5722958
440.22495 796.01068 1609.645 2696480
450.43323 797.20074 1612.0514 3552045
467.17236 809.66003 1637.2457 3289643
476.5274 809.07526 1636.0634 3092263
488.29358 812.52606 1643.0413 2500128
496.52115 810.06873 1638.0723 1842455
505.10309 808.27271 1634.4404 65792
515.61145 809.56891 1637.0615 4473919
520.26868 801.80005 1621.3518 65793
528.70917 800.03748 1617.7877 4342336
540.00623 802.58325 1622.9357 131586
548.66785 801.19159 1620.1215 65536
559.56885 803.06171 1623.9031 131329
568.75208 802.44495 1622.656 2434083
573.88739 796.23248 1610.0934 65536
583.64502 796.53137 1610.6979 0
589.54517 791.64093 1600.8087 65536
597.38733 789.4718 1596.4225 0
603.52899 785.15808 1587.6993 1973274
613.8125 786.28229 1589.9727 526342
626.73004 790.69562 1598.8971 131585
631.08807 784.33942 1586.0441 65792
639.84515 783.55695 1584.4617 131328
647.11902 781.00696 1579.3053 196608
659.48389 784.58636 1586.5435 1249547
667.57806 783.05579 1583.4484 196864
670.54584 775.63782 1568.4481 2433566
671.82654 766.4978 1549.9657 460292
681.17737 766.68744 1550.3492 985606
693.00397 769.62146 1556.2822 196608
699.42224 766.55115 1550.0736 262144
708.26599 766.18414 1549.3314 393216
717.65839 766.41241 1549.7931 458752
726.14545 765.68042 1548.3129 393216
734.85132 765.19446 1547.3302 262144
744.50269 765.69293 1548.3381 2695708
752.77527 764.77838 1546.4889 327936
765.15179 768.00513 1553.0138 393216
773.13428 766.79718 1550.5712 524288
781.98859 766.47223 1549.9141 524288
790.43823 765.76263 1548.4791 524288
801.22394 767.30652 1551.6011 655872
808.43372 765.42969 1547.8059 1379332
816.09241 764.01532 1544.9458 2431504
826.85803 765.50867 1547.9656 2629140
834.14838 763.78705 1544.4843 1379075
842.70288 763.24786 1543.3939 3221789
853.49048 764.72107 1546.3729 3222047
864.20538 766.09851 1549.1583 3484705
881.98956 773.64783 1564.4242 2366482
885.4043 768.56696 1554.1499 3419170
897.1861 770.77893 1558.6228 2959648
910.79431 774.49884 1566.145 2959905
913.98242 769.37231 1555.7784 2433560
922.49182 768.78278 1554.5863 3288869
938.43567 774.33942 1565.8226 1775121
950.19885 776.3714 1569.9315 1379590
958.14984 775.2793 1567.7231 2037775
965.18542 773.47461 1564.0739 459778
973.69775 772.87653 1562.8644 2367257
977.58618 768.65393 1554.3257 788742
977.62445 761.51105 1539.8818 722433
986.86761 761.60413 1540.0701 985348
997.28479 762.5932 1542.0701 327680
1002.5717 759.67688 1536.173 393216
1011.5362 759.57471 1535.9663 327680
1020.4744 759.45477 1535.7238 1314051
1026.438 757.1427 1531.0485 327680
1044.2299 763.51971 1543.9437 655616
1052.3676 762.78845 1542.4648 1577223
1063.1025 763.93604 1544.7855 2892055
1064.9166 758.70831 1534.2144 786688
1073.0264 758.0166 1532.8156 1312768
1081.2426 757.41095 1531.5908 1509889
1093.5199 759.63654 1536.0913 918529
1101.0675 758.56696 1533.9285 2957846
1101.6051 752.72485 1522.115 1182210
1117.6033 757.45618 1531.6823 1905925
1126.7271 757.48969 1531.75 1708290
1126.1343 751.04236 1518.7126 2366476
1152.0183 762.21521 1541.3058 3287069
1154.203 757.65546 1532.0853 3287322
1172.9232 763.93652 1544.7865 1774083
1181.8737 763.80652 1544.5236 1773829
1204.5288 772.46729 1562.0369 1839622
1226.1995 780.36951 1578.0164 2299916
1242.5922 784.81854 1587.0129 1906185
1247.4933 781.99731 1581.308 1511429
1254.6483 780.62048 1578.5238 1577223
1263.3428 780.21466 1577.7031 1511433
1271.1498 779.27075 1575.7946 1314054
1271.2539 773.65289 1564.4343 919298
1281.2338 774.08289 1565.3038 787456
1292.6289 775.35571 1567.8777 262144
1302.3259 775.599 1568.3696 1512458
1307.0999 772.92767 1562.9679 1380104
1318.0884 773.94305 1565.0211 4603958
1323.349 771.60443 1560.292 3419684
1342.6436 777.42419 1572.0604 2037519
1346.7858 774.45062 1566.0475 3946284
1347.0715 769.31537 1555.6633 3484193
1351.8258 766.78461 1550.5457 1445894
1375.7721 775.10052 1567.3617 1445638
1389.2787 777.46277 1572.1384 1840397
1403.2496 780.05164 1577.3735 1840139
1414.8572 781.30121 1579.9003 1577224
1420.5808 779.30652 1575.8668 525314
1433.1021 781.04266 1579.3774 788225
1442.3135 780.96399 1579.2185 2366998
1446.0179 777.92383 1573.0708 2103313
1456.391 778.48712 1574.2098 2038032
1468.1278 779.76758 1576.7992 2169363
1491.8347 787.34937 1592.1305 2695451
1496.0946 784.63672 1586.6451 1774607
1497.6792 780.56366 1578.4089 984838
1503.8752 778.92969 1575.1047 1116935
0 0 0 0
0 0 0 0
0 0 0 0
0 0 0 0
0 0 0 0
0 0 0 0
0 0 0 0
0 0 0 0
0 0 0 0
0 0 0 0
0 0 0 0
0 0 0 0
0 0 0 0
0 0 0 0
-1316.9324 773.4422 1545.4939 4670523
-1336.635 790.50958 1579.598 5460295
-1325.9745 789.73376 1578.0477 3157802
-1318.028 790.57483 1579.7284 3487281
-1290.1702 779.39941 1557.3977 4408639
-1275.2197 775.91663 1550.4382 3881782
-1266.3434 776.10583 1550.8164 723463
-1273.2991 786.07172 1570.7302 394498
-1271.1281 790.50854 1579.5959 197377
-1272.3297 797.12415 1592.8153 1249551
-1266.9044 799.65588 1597.874 1973530
-1240.5157 788.8941 1576.37 1973529
-1235.3496 791.56781 1581.7125 1315857
-1223.3254 789.85431 1578.2887 3420458
-1217.0669 791.86597 1582.3082 5262660
-1226.0831 803.92407 1606.4028 5591625
-1222.0945 807.57709 1613.7023 3618088
-1202.4526 800.86224 1600.2847 3815468
-1175.0804 788.85126 1576.2843 4144432
-1171.6483 792.8479 1584.2704 2828575
-1159.9928 791.29944 1581.1763 2236182
-1150.9921 791.55151 1581.6799 3815214
-1163.6018 806.7915 1612.1324 2433561
-1171.3448 818.88135 1636.2905 2762269
-1156.0463 814.93036 1628.3956 1907473
-1146.9858 815.34729 1629.2288 3355434
-1128.2303 808.82098 1616.1879 3947572
-1115.3093 806.40143 1611.3531 986891
-1107.4924 807.66254 1613.873 1578770
-1087.6277 800.08276 1598.7272 2828838
-1083.8885 804.33655 1607.2271 1776149
-1064.8495 797.21112 1592.989 3618607
-1059.8352 800.552 1599.6648 2236955
-1047.1012 798.06946 1594.7041 2828838
-1032.1746 793.85541 1586.2836 1052427
-1024.6074 795.276 1589.1223 2960167
-1021.8254 800.47162 1599.5042 920585
-1013.8778 801.67999 1601.9187 1973013
-1003.0988 800.65125 1599.863 1380874
-997.19177 803.52863 1605.6127 5000000
-980.52777 797.71014 1593.9861 4210998
-974.80304 800.76459 1600.0896 2960931
-963.55829 799.30011 1597.1632 4408122
-954.46393 799.60809 1597.7787 1644562
-948.22247 802.33618 1603.23 2829348
-941.37726 804.60339 1607.7604 2894373
-927.51007 800.854 1600.2683 3026473
-921.13879 803.56628 1605.6879 1907732
-912.60022 804.42468 1607.4032 788995
-901.84827 803.32971 1605.2151 4209714
-905.4256 815.11121 1628.7571 1710099
-887.06354 807.18298 1612.9147 1446153
-883.8183 812.98724 1624.5128 3486251
-871.48431 810.46704 1619.4769 197633
-859.20905 807.9458 1614.4391 1775890
-847.13409 805.55841 1609.6686 1973012
-841.01276 808.84247 1616.2308 4341560
-836.3877 813.65784 1625.8529 1644047
-826.7016 813.60455 1625.7463 3091493
-826.20447 822.69989 1643.9207 1249290
-813.17542 819.3847 1637.2963 986377
-799.47565 815.30542 1629.145 1709842
-784.50513 809.81482 1618.1736 328448
-771.70386 806.4552 1611.4604 2696735
-766.0293 810.55225 1619.6473 591876
-755.35016 809.39075 1617.3264 3025957
-744.54169 808.05902 1614.6653 1447696
-740.8786 814.54852 1627.6326 460291
-731.35278 814.67841 1627.8922 460290
-713.12476 804.98865 1608.53 657412
-706.11652 807.87292 1614.2935 723205
-693.17188 803.95135 1606.4574 4604219
-685.94623 806.646 1611.8418 854534
-677.85388 808.38306 1615.3127 2235674
-667.42969 807.34912 1613.2468 1775634
-655.77466 804.77466 1608.1025 2564895
-644.84363 803.026 1604.6083 920584
-637.13135 805.29321 1609.1387 1315344
-626.53088 803.92334 1606.4014 723463
-612.63464 798.2171 1594.9991 592133
-607.99377 804.58008 1607.7136 1645077
-598.32013 804.37939 1607.3127 987146
-577.02789 788.29974 1575.1824 2763557
-570.07129 791.5979 1581.7727 2565660
-561.54688 792.79285 1584.1603 2500379
-557.49377 800.4483 1599.4575 2039058
-548.15924 800.65417 1599.8689 1446923
-536.17242 796.92523 1592.4178 6249810
-523.82239 792.51324 1583.6018 7499874
-517.56934 797.33289 1593.2323 4868415
-512.75311 804.58618 1607.726 1907987
-502.5144 803.44427 1605.4442 5000518
-493.4892 804.23608 1607.0264 2171161
-485.8526 807.36639 1613.2814 1710872
-476.16159 807.14001 1612.829 0
-466.32474 806.6521 1611.854 2
-455.8078 804.94269 1608.4382 3
-445.84698 804.16345 1606.8811 3
-435.53268 802.69867 1603.9542 2
-426.34079 803.28333 1605.1224 1710878
-415.00632 799.76562 1598.0934 66050
-406.99063 802.62872 1603.8145 1974304
-396.24063 800.10742 1598.7762 920846
-386.91705 800.41333 1599.3877 1
-376.35703 798.11267 1594.7905 1250067
-362.93207 789.46167 1577.504 1513237
-357.01187 797.10944 1592.7859 2368545
-347.42627 796.76642 1592.1003 1382163
-338.8653 798.81964 1596.2031 2040092
-329.33203 798.63293 1595.83 592389
-319.72382 798.24805 1595.0609 921099
-310.28055 798.26404 1595.0929 395267
-301.51059 800.06769 1598.697 4277055
-289.14746 792.14459 1582.8651 723974
-283.51471 802.74689 1604.0507 1974299
-273.77533 802.05371 1602.6654 2171681
-260.82953 791.57965 1581.7362 1908507
-251.50893 791.73694 1582.0504 1579541
-242.35248 792.44312 1583.4615 256
-232.69696 791.50867 1581.5942 2697765
-225.32506 798.58923 1595.7427 789770
-215.50323 797.22675 1593.0203 1447186
-208.08766 805.04883 1608.6504 4144954
-198.57756 805.12964 1608.8118 591876
-184.92302 787.56763 1573.7195 131072
-175.73425 788.1701 1574.9231 196608
-166.21083 787.25488 1573.0944 2894121
-158.84131 797.03882 1592.6448 131075
-150.10799 800.78314 1600.1266 131076
-141.79897 807.44824 1613.4448 4
-132.46317 808.8075 1616.1609 2
-123.12014 810.33105 1619.2052 65538
-113.09518 807.24451 1613.0377 131586
-103.70041 808.50146 1615.5494 2696998
-94.089622 808.15881 1614.8646 920843
-84.160316 804.69293 1607.9391 0
-74.609016 804.41791 1607.3896 526343
-64.999985 803.34888 1605.2535 1710616
-55.559822 804.35828 1607.2705 921100
-46.059441 804.73322 1608.0195 328964
-36.763184 809.79968 1618.1436 1250066
-27.076757 806.8147 1612.179 1315601
-17.453854 803.50067 1605.5568 3552821
-7.9678617 806.09955 1610.7499 3092268
1.5798979 808.81934 1616.1846 3289646
11.13599 807.47424 1613.4968 3816246
20.640711 805.36725 1609.2866 1841942
29.66711 791.82526 1582.2268 3552302
39.35902 798.28381 1595.1324 2631199
48.920265 800.10443 1598.7704 4671551
58.212204 797.64441 1593.8547 4868929
68.195541 804.02246 1606.5995 3816243
77.761597 804.52112 1607.5959 4671038
87.384377 805.43384 1609.4196 4802365
94.907501 788.71796 1576.0179 5985867
104.68466 792.05066 1582.6772 3946283
114.92507 798.05225 1594.6697 3025952
123.17304 790.35724 1579.2936 5460551
134.47345 801.95239 1602.4631 4342329
143.81583 801.11145 1600.7827 3289638
154.9104 809.53107 1617.6068 4276531
164.16968 807.93762 1614.4227 3355436
174.27051 810.43323 1619.4094 3750195
182.61827 804.94116 1608.4352 6381404
193.11928 809.01416 1616.574 6119002
201.81555 805.49921 1609.5502 4342334
211.11043 804.58276 1607.719 2499872
220.70508 804.83862 1608.2303 6446683
230.08214 804.31256 1607.1792 3749426
238.77586 801.53455 1601.6282 3947318
249.02061 803.97644 1606.5076 2039321
262.7533 817.08502 1632.701 4407868
271.12921 813.19623 1624.9304 3881524
279.40851 809.29419 1617.1334 2434076
289.79752 811.55902 1621.6591 2039062
299.61349 812.12531 1622.7906 1249292
310.25226 814.81726 1628.1697 328450
321.45264 818.77728 1636.0826 131584
331.08603 818.63116 1635.7905 2170909
337.44421 810.62537 1619.7933 5460558
343.21872 801.69897 1601.9565 4079163
353.14383 802.68719 1603.9313 1118221
364.99374 807.88397 1614.3154 3617584
372.26501 802.93964 1604.4358 1643794
378.97656 797.06439 1592.6958 1249552
381.13782 782.1369 1562.8677 3814705
397.85614 797.0816 1592.7302 2038552
405.82407 794.20929 1586.9906 854535
417.50693 798.57239 1595.7091 985352
428.6907 801.80902 1602.1765 1380880
432.20743 790.87567 1580.3296 2169624
444.60703 796.3158 1591.2 2959396
463.83823 813.51172 1625.5609 2104859
473.9342 814.31213 1627.1602 3881526
479.89279 808.11334 1614.7738 1249806
489.09848 807.51794 1613.5841 1842455
498.98685 808.05096 1614.6492 1645078
506.44849 804.70801 1607.9694 4211003
516.76056 805.93396 1610.4191 4934727
524.52191 803.20953 1604.9751 1842456
529.4726 796.35474 1591.2778 1578773
541.72113 800.52411 1599.6091 1710360
550.112 798.94751 1596.4586 5197645
562.1499 802.63141 1603.8198 855307
571.52075 802.44812 1603.4535 723977
576.90369 796.76306 1592.0938 987149
586.17932 796.55072 1591.6694 789257
597.97888 799.72046 1598.0032 855050
600.36975 790.4046 1579.3883 262913
605.28424 784.64606 1567.8816 65536
613.98499 783.89563 1566.3821 3551791
622.82849 783.34729 1565.2863 1710358
629.52344 780.15216 1558.9019 1381392
641.62738 783.65582 1565.9028 1183500
653.56812 786.86316 1572.3116 196608
661.84863 785.6355 1569.8586 525828
666.56818 780.27344 1559.1442 722692
670.09576 773.68182 1545.9727 262656
676.37506 770.4021 1539.4192 1578001
689.28601 774.66278 1547.9329 262400
696.48236 772.47345 1543.5581 131072
704.89386 771.67114 1541.955 262144
713.72418 771.34198 1541.2972 262144
722.40912 770.86609 1540.3462 327680
731.97095 771.32593 1541.2651 788228
739.89325 770.06818 1538.752 327680
748.22565 769.26263 1537.1422 2432791
758.58148 770.53174 1539.6782 524800
767.92017 770.74982 1540.114 458752
779.66162 773.34607 1545.3018 458752
785.91144 770.49823 1539.6112 458752
793.89056 769.3916 1537.3999 458752
800.57477 767.06921 1532.7594 393728
809.88757 767.28943 1533.1993 3221536
819.40979 767.70093 1534.0216 2168847
819.79163 759.63373 1517.9017 4603443
826.76819 757.78607 1514.2097 2892569
848.62292 769.46857 1537.5537 2761239
855.28278 767.27161 1533.1637 787712
866.25934 768.95264 1536.5228 2498068
880.83044 773.75629 1546.1215 2629910
891.65948 775.2077 1549.0217 2893337
894.94177 770.13531 1538.886 2498069
911.57141 776.53528 1551.6744 2432532
925.10736 780.19836 1558.9941 3024669
931.07507 777.46942 1553.5411 4208945
939.21204 776.58759 1551.7789 722691
949.6004 777.56628 1553.7346 1577740
953.49261 773.258 1545.1259 3946032
964.92603 775.08917 1548.7849 394242
972.35168 773.69702 1546.0031 2433050
974.65491 768.29285 1535.2045 2564636
977.99701 763.80005 1526.2269 1775120
991.71851 767.42139 1533.4631 1906706
998.66022 765.7782 1530.1797 262400
1006.4057 764.77539 1528.1759 787712
1018.2824 766.90186 1532.4249 853504
1026.0897 765.95294 1530.5288 524544
1031.764 763.44244 1525.5123 655872
1044.9332 766.47314 1531.5684 1708038
1060.8219 771.4292 1541.4714 1050112
1059.8655 764.15552 1526.9373 853248
1068.9114 764.15552 1526.9373 984833
1077.3949 763.75677 1526.1405 852992
1090.2482 766.43671 1531.4955 3484449
1097.6819 765.29388 1529.2119 393728
1099.7589 760.46564 1519.5641 2630170
1108.4347 760.24176 1519.1167 2563087
1126.9833 766.73828 1532.0981 2563343
1131.7085 763.80157 1526.23 2694928
1143.7075 765.78168 1530.1866 2563086
1154.8655 767.17194 1532.9646 1707780
1143.7614 753.86725 1506.3792 2168330
1150.8218 752.64838 1503.9436 2168587
1186.2859 769.88177 1538.3794 1905415
1187.1522 764.57025 1527.7659 1839622
1212.1038 774.73334 1548.0739 1971464
1222.7002 775.63757 1549.8806 1905930
1245.9453 784.49225 1567.5741 2235152
1250.1748 781.3316 1561.2584 1379587
1251.3705 776.33521 1551.2748 1379846
1263.0593 777.87421 1554.35 1248261
1275.5522 779.88245 1558.3628 1314054
1280.4167 777.2312 1553.0651 1314312
1286.3213 775.24469 1549.0956 853762
1300.6725 778.34088 1555.2823 1511433
1320.0355 784.37164 1567.333 2169621
1312.2047 774.27216 1547.1523 2695447
1319.9465 773.43787 1545.4852 2168847
1337.6167 778.39258 1555.3857 3747878
1335.5178 771.85413 1542.3206 1642504
1351.1545 775.58496 1549.7756 2300177
1366.9038 779.32971 1557.2584 1445126
1381.0977 782.14337 1562.8806 1445638
1386.3452 779.88678 1558.3716 788227
1406.5107 785.9967 1570.5803 2169106
1411.29 783.48456 1565.5605 3024668
1420.9508 783.69739 1565.9858 3485220
1428.7697 782.89838 1564.3892 3879980
1429.9689 778.50562 1555.6116 1446669
1438.7152 778.25165 1555.1041 1380105
1463.3473 786.53943 1571.6648 1577228
1461.8931 780.78979 1560.1759 3946033
1475.4515 783.08032 1564.7528 1380364
1495.8447 788.94696 1576.4756 1117450
1497.6925 785.02026 1568.6292 591363
0 0 0 0
0 0 0 0
0 0 0 0
0 0 0 0
0 0 0 0
0 0 0 0
0 0 0 0
0 0 0 0
0 0 0 0
0 0 0 0
0 0 0 0
0 0 0 0
0 0 0 0
0 0 0 0
-1323.6469 786.5882 1553.3737 3881009
-1309.0577 783.36481 1547.0081 1973014
-1302.6205 785.00854 1550.2542 1118219
-1296.6906 786.98346 1554.1543 5328969
-1287.5189 787.00525 1554.1973 5789521
-1280.6226 788.42804 1557.0071 5329228
-1257.6234 779.8858 1540.1376 1118477
-1264.1313 789.65039 1559.421 921353
-1262.1116 794.19281 1568.3915 723722
-1259.3582 798.33734 1576.5763 3222828
-1247.1411 796.5 1572.9478 2369057
-1247.0297 802.42444 1584.6475 1249806
-1207.4908 782.87604 1546.0428 1644820
-1201.4269 784.89807 1550.036 1446671
-1200.114 790.07916 1560.2677 4341560
-1206.0626 800.1582 1580.1721 2630942
-1194.4575 798.6579 1577.2092 3617835
-1192.9432 803.93433 1587.6293 4933953
-1170.7035 795.21637 1570.4128 4736061
-1147.1633 785.46844 1551.1625 2104596
-1149.2007 793.21759 1566.4656 2631196
-1136.1201 790.573 1561.243 5395272
-1135.1613 796.38922 1572.729 3158054
-1143.6958 809.01697 1597.6666 3421996
-1132.2317 807.591 1594.8506 3487021
-1125.1294 809.27844 1598.183 4802881
-1119.8943 812.34888 1604.2466 3224107
-1109.457 811.66614 1602.8982 3092265
-1091.0823 805.11438 1589.9597 2302749
-1080.4944 804.24457 1588.2418 4078905
-1060.9575 796.63989 1573.224 2170394
-1048.1589 794.00488 1568.0204 3420972
-1042.3406 796.65771 1573.2593 3815475
-1032.0875 795.93842 1571.8387 4341819
-1017.8008 792.06702 1564.1935 5263178
-1017.429 799.05267 1577.9889 4670528
-1009.8205 800.43176 1580.7123 2697762
-999.25195 799.46838 1578.8098 2960422
-991.72192 800.94098 1581.7179 2894882
-988.28821 805.78131 1591.2767 5131586
-979.78223 806.53955 1592.7742 5658186
-973.39502 809.07361 1597.7784 6316115
-954.23352 800.93542 1581.7069 3816496
-952.77588 807.64282 1594.9529 3158568
-944.13043 808.33069 1596.3113 3947571
-930.84082 805.01599 1589.7654 2434076
-922.48364 805.94305 1591.5961 4276024
-912.26801 805.2486 1590.2247 3552044
-897.11652 800.13745 1580.1311 3223079
-891.78894 803.77283 1587.3103 2367770
-892.91522 813.3645 1606.2523 2367770
-887.23145 816.89276 1613.22 1117447
-879.05621 818.17896 1615.7599 2170391
-866.62463 815.48816 1610.446 2499613
-853.19043 811.78357 1603.1302 723206
-841.12079 809.30853 1598.2424 3354924
-836.31506 813.84589 1607.2029 591621
-825.73651 812.80542 1605.1481 2236700
-827.17139 823.70361 1626.6702 2960423
-815.8678 822.02423 1623.3536 1446929
-805.75067 821.51447 1622.3469 657669
-790.17401 815.35883 1610.1907 0
-778.35272 812.9751 1605.4832 197120
-770.49512 814.72363 1608.9363 920325
-760.73108 814.47491 1608.4451 656899
-756.76953 820.51105 1620.3655 1906962
-740.15045 812.80237 1605.1421 3092263
-735.34143 818.03113 1615.468 1250061
-724.93793 817.09216 1613.6136 1710355
-712.80328 814.1507 1607.8048 1643790
-702.00391 812.67548 1604.8915 854535
-692.01495 812.11072 1603.7762 5722699
-683.46899 813.24731 1606.0208 985349
-671.11066 809.81555 1599.2437 2499101
-656.57812 803.62445 1587.0173 262657
-647.64813 804.21039 1588.1744 920072
-638.51196 804.55377 1588.8527 1380621
-632.3075 808.65686 1596.9556 197377
-624.28827 810.5285 1600.6515 2105115
-613.48566 808.78815 1597.2147 592389
-601.4433 805.3335 1590.3923 66048
-587.39935 799.04584 1577.9755 1776663
-577.96204 798.92291 1577.7325 1447697
-565.44666 794.47095 1568.9408 2039064
-560.57355 800.78729 1581.4144 3815729
-553.05939 803.48151 1586.7351 6710105
-543.99921 803.98407 1587.7274 3288613
-532.46399 800.78198 1581.4039 4867899
-518.51947 793.77692 1567.5702 1051910
-512.43707 798.77167 1577.4338 2894372
-506.25134 803.78772 1587.3397 5460292
-499.61703 808.26801 1596.1876 3158050
-486.12076 801.60602 1583.0314 5592398
-479.7663 806.69025 1593.0718 3026469
-475.08032 814.84027 1609.1666 2960937
-463.64499 811.5108 1602.5914 197634
-454.33438 811.83868 1603.2389 4079676
-441.19055 805.18481 1590.0989 1316115
-430.02319 801.92651 1583.6642 3224111
-420.75562 802.14459 1584.0948 1447699
-411.13458 801.68341 1583.1842 3355439
-401.35434 800.88312 1581.6036 1776409
-393.10712 803.17657 1586.1329 657931
-383.25159 802.21606 1584.236 1315859
-373.13046 800.63727 1581.1182 1118481
-362.7309 798.36444 1576.6298 1249809
-354.5874 801.06824 1581.9692 1710101
-345.04822 800.68018 1581.2029 1447698
-335.39297 799.99365 1579.847 2039578
-325.30737 798.21161 1576.3279 1579283
-315.91071 798.06476 1576.0378 2434592
-306.50409 797.88306 1575.679 1579282
-298.02158 800.17096 1580.1974 1052167
-287.24628 796.25171 1572.4575 2170392
-275.75125 790.00787 1560.127 1183755
-269.12686 797.7688 1575.4535 3354665
-259.40744 796.58319 1573.1121 4342331
-249.79343 795.64514 1571.2595 4671808
-240.87265 796.92786 1573.7927 5198408
-231.70441 797.46222 1574.848 3421486
-222.14799 796.64948 1573.2429 2894889
-212.24417 794.46503 1568.9291 2236701
-204.54208 800.69934 1581.2408 4276541
-194.72423 798.85236 1577.5933 196608
-184.09491 793.3222 1566.6721 0
-175.07181 794.49402 1568.9863 262916
-165.32256 792.31714 1564.6874 460296
-156.552 794.85065 1569.6907 65538
-148.98059 804.17706 1588.1086 65537
-140.12529 807.36346 1594.4011 394758
-130.7417 807.74652 1595.1576 263172
-120.6921 803.75397 1587.2729 131585
-111.53032 805.4986 1590.7185 1381392
-102.22043 806.39709 1592.4928 3947318
-93.773071 814.97449 1609.4316 3684146
-83.389748 806.76373 1593.2169 2631717
-73.658272 803.56842 1586.9066 262915
-64.36393 804.9046 1589.5454 1974043
-55.096355 807.09106 1593.8632 5658193
-45.349644 801.71136 1583.2393 5921874
-35.677612 795.19055 1570.3619 3552812
-26.437546 797.09332 1574.1196 3552555
-17.133934 798.11017 1576.1277 3683884
-7.80618 799.09119 1578.0649 4012592
1.5569086 806.48535 1592.6672 7697000
10.915603 800.8634 1581.5647 3420714
20.193338 797.23865 1574.4065 3881265
29.623898 800.03156 1579.922 5526091
38.87756 797.85315 1575.62 4604989
48.077965 795.63684 1571.2432 2894627
57.368599 795.3905 1570.7567 1183241
66.582909 794.30249 1568.608 2433050
76.378258 799.56348 1578.9977 3880752
85.688507 799.15228 1578.1855 3485479
92.756371 779.96631 1540.2966 3814955
102.21484 782.51874 1545.3372 1052169
111.15955 781.04169 1542.4203 7565930
120.60557 783.04376 1546.3741 3289643
131.22176 791.82428 1563.7141 6514014
139.87959 788.40887 1556.9694 5197898
149.35655 789.74731 1559.6124 2499355
160.8177 800.81036 1581.46 2828318
172.43466 811.38843 1602.3497 3813929
181.3961 809.0191 1597.6708 2498328
190.70123 808.34161 1596.3329 2826780
200.50648 809.74786 1599.11 3550248
211.55923 815.83795 1611.1368 2827551
221.60449 817.68488 1614.7841 3682860
229.31631 811.12506 1601.8297 3025188
238.52342 810.16553 1599.9348 4868162
248.18871 810.77606 1601.1406 4078647
257.20255 809.29205 1598.2098 1907479
268.28162 814.18079 1607.8643 4933956
277.28143 812.64056 1604.8226 1380877
286.98532 813.19763 1605.9226 2038808
296.38995 812.89807 1605.3311 394243
306.19049 813.66913 1606.8539 1052427
318.04779 819.69464 1618.7532 1381392
327.15421 818.48517 1616.3646 1184013
334.39972 812.82117 1605.1792 2368287
342.65979 809.86829 1599.3479 3289389
354.47006 815.23944 1609.9548 6578525
360.84769 808.16205 1595.9781 1512464
368.56064 804.36023 1588.4703 722948
375.98886 800.14172 1580.1396 3748656
381.06134 791.23688 1562.5541 2893603
393.64993 797.99066 1575.8916 2169880
403.20233 798.41937 1576.7382 1183243
411.69247 796.77277 1573.4865 2433051
421.1499 797.02954 1573.9937 2104087
430.77872 797.59265 1575.1056 3222568
440.07532 797.52991 1574.9816 1709329
456.85818 810.75488 1601.0988 1775123
464.8493 808.15729 1595.969 525571
474.90768 809.18561 1597.9996 2960168
483.39197 807.54407 1594.7578 987147
495.6062 812.07709 1603.7098 1645080
504.67789 811.38733 1602.3477 2566172
512.44836 808.66956 1596.9806 4078901
523.12378 810.55145 1600.6969 5131591
527.37793 802.59418 1584.9827 1644824
539.98309 807.40179 1594.4769 131585
545.00378 800.89862 1581.6343 1842201
552.03406 797.51849 1574.9591 3881786
564.94824 802.60992 1585.0138 789258
574.04413 802.19891 1584.2021 4342078
580.20386 797.7641 1575.4441 921098
587.6283 795.18103 1570.343 591878
590.60822 786.75787 1553.7087 920842
600.5249 787.69189 1555.5533 65536
606.5473 783.56702 1547.4075 1907480
614.39288 781.88513 1544.0859 1184270
622.56018 780.65594 1541.6586 855562
633.2395 782.56677 1545.4321 196864
642.70239 782.94122 1546.1715 525569
647.40747 777.5907 1535.6052 196608
656.16864 777.19257 1534.819 328449
663.55554 775.19989 1530.8838 591618
669.14624 771.19073 1522.9664 1907221
678.08002 771.08997 1522.7675 2038551
694.79498 779.72424 1539.8186 986122
700.54224 775.98578 1532.4358 262144
710.52783 776.97772 1534.3947 262144
719.54834 776.90259 1534.2462 327680
728.66211 776.92877 1534.298 590336
737.03442 776.1734 1532.8064 262144
747.28168 777.38696 1535.2029 262144
752.80499 773.71619 1527.9537 2236189
762.91577 774.79144 1530.0773 788999
774.49731 777.31775 1535.0662 262144
781.15753 774.90338 1530.2982 393216
787.97858 772.70203 1525.9509 262144
790.96448 766.83252 1514.3597 1313539
804.63129 771.33368 1523.2487 985349
811.30902 769.10931 1518.8561 1708296
820.01501 768.83557 1518.3154 656384
827.82489 767.73663 1516.1451 2365968
835.10468 766.17493 1513.061 1708038
841.85626 764.16693 1509.0956 2299918
849.19629 762.72961 1506.2572 1577223
877.34857 779.82098 1540.0096 3221790
880.84979 774.87531 1530.2428 1905929
892.43469 777.06903 1534.575 2695191
896.15955 772.44354 1525.4404 2234641
909.56989 776.17542 1532.8103 3814185
915.06244 773.14374 1526.8232 2103569
930.73883 778.69159 1537.7793 1840398
939.77142 778.62726 1537.6523 788227
942.8092 773.64514 1527.8135 1314570
953.96948 775.35938 1531.1987 2169879
967.54462 778.98566 1538.36 328705
968.90887 772.80475 1526.1538 1841171
976.85529 771.93958 1524.4452 2433051
985.22205 771.41931 1523.4178 788999
998.22766 774.50775 1529.517 1051398
1003.2646 771.41351 1523.4064 327936
1016.7388 774.80408 1530.1021 985860
1025.9664 774.92712 1530.3451 1117192
1027.8413 769.54297 1519.7124 393216
1032.7007 766.46753 1513.6389 524288
1041.8655 766.61298 1513.9261 1576966
1057.7699 771.67261 1523.9181 1379847
1060.0747 766.80933 1514.314 1248001
1068.7494 766.59674 1513.894 2563859
1073.8356 763.83502 1508.4402 1642501
1087.1078 766.89386 1514.4808 721408
1095.2717 766.32837 1513.3641 2168589
1106.611 767.97565 1516.6172 2037001
1118.7432 770.14233 1520.896 1773573
1124.4636 767.89587 1516.4596 2562572
1129.489 765.21405 1511.1635 2562572
1136.2317 763.7287 1508.2302 1576192
1140.0222 760.29773 1501.4546 1970689
1142.472 756.03265 1493.0319 2497035
1172.4109 769.88428 1520.3864 2102278
1169.52 762.1308 1505.0746 2036485
1183.5497 765.43768 1511.6052 2497036
1198.9714 769.58844 1519.8022 2761235
1209.7277 770.70502 1522.0072 2497808
1238.0414 782.90796 1546.106 2169102
1246.4774 782.45392 1545.2092 2300688
1250.1588 779.04352 1538.4742 459520
1268.6763 784.86072 1549.9623 2037517
1272.2272 781.40192 1543.1317 1643017
1280.3057 780.75342 1541.8511 2761753
1282.9047 776.79633 1534.0364 3090717
1293.4283 777.65955 1535.7412 3485733
1292.0789 771.42194 1523.423 2168848
1310.2468 776.84265 1534.1281 2168590
1322.4827 778.69586 1537.7877 2300177
1332.0839 778.98297 1538.3547 1577483
1342.8805 779.96057 1540.2853 2497810
1362.2617 785.8772 1551.9697 2761497
1372.5068 786.47955 1553.1591 2038288
1392.7466 792.76276 1565.5673 1314311
1400.6067 791.96277 1563.9875 1051397
1407.2427 790.48572 1561.0707 2432793
1413.6941 788.92493 1557.9884 4340529
1414.8551 784.45135 1549.1537 4537908
1426.4247 785.76892 1551.7559 3025441
1430.7552 783.10767 1546.5002 5591368
1441.9657 784.22174 1548.7004 5855565
1448.5536 782.82373 1545.9396 7960686
1475.2644 792.24976 1564.5543 1709585
1485.2057 792.60864 1565.2631 1576973
1493.6368 792.16217 1564.3813 1906451
0 0 0 0
0 0 0 0
0 0 0 0
0 0 0 0
0 0 0 0
0 0 0 0
0 0 0 0
0 0 0 0
0 0 0 0
0 0 0 0
0 0 0 0
0 0 0 0
0 0 0 0
0 0 0 0
-1299.8318 781.47284 1525.4254 4539708
-1285.7408 778.41309 1519.4528 3881518
-1287.4745 784.95819 1532.2288 2631708
-1277.3766 784.33154 1531.0055 6579289
-1279.6113 791.32251 1544.6517 7566443
-1268.1741 789.89838 1541.8719 3684913
-1263.0607 792.42108 1546.7961 2171417
-1249.9692 789.93884 1541.9508 4868929
-1252.6527 797.46259 1556.6372 5592656
-1235.1039 792.12219 1546.2128 3816247
-1218.197 787.1167 1536.4421 4540224
-1213.1653 789.76666 1541.6147 5000517
-1195.99 784.49133 1531.3174 4539709
-1195.1332 789.92108 1541.9161 3091748
-1202.1803 800.69879 1562.9541 2828062
-1193.0182 800.76398 1563.0814 4143668
-1183.9929 800.92273 1563.3914 2827552
-1172.1226 799.14435 1559.9199 1775120
-1161.7411 798.36084 1558.3905 3354151
-1152.1807 798.13348 1557.9468 2236441
-1143.0984 798.23633 1558.1476 3354662
-1134.8286 798.9129 1559.4683 5855054
-1130.9659 802.7287 1566.9165 2302745
-1129.8737 808.59021 1578.3582 2960675
-1118.1805 806.89972 1575.0582 7105635
-1109.4421 807.33099 1575.9001 2236444
-1111.3995 815.61877 1592.0779 1184013
-1097.6852 812.44916 1585.8906 2104600
-1087.6608 811.97937 1584.9736 1709842
-1071.0427 806.53619 1574.3486 1973014
-1056.5205 802.58948 1566.6447 3354668
-1043.5439 799.75732 1561.1165 4341305
-1026.3905 793.6449 1549.1851 2236186
-1019.615 795.5191 1552.8434 2763044
-1007.9067 793.54382 1548.9877 4341562
-999.87341 794.45215 1550.7609 3551789
-998.29449 800.55328 1562.6702 1577742
-982.89374 795.58093 1552.9641 3157287
-968.1015 791.01166 1544.045 3025442
-973.13898 802.71222 1566.8844 4078898
-968.19714 806.32727 1573.9409 3750190
-963.27698 810.03082 1581.1702 4012593
-952.32538 808.68549 1578.5441 4078387
-942.96295 808.67621 1578.526 3420456
-934.75098 809.66327 1580.4528 3420198
-921.62347 806.36951 1574.0233 3222822
-911.39435 805.57019 1572.4631 5131076
-900.80396 804.43188 1570.2411 2500126
-895.48523 808.02643 1577.2577 5197896
-887.5014 809.26678 1579.6788 2105368
-886.61066 817.07019 1594.911 2368797
-876.47791 816.43298 1593.6671 2762528
-872.90417 821.95813 1604.4521 2104598
-845.00043 804.44257 1570.262 3288873
-838.1416 806.79492 1574.8538 2499869
-840.65735 818.32581 1597.3618 2039321
-832.46552 819.57745 1599.8051 1776148
-819.14844 815.75385 1592.3414 3684147
-807.39362 813.41504 1587.7762 2302493
-807.04047 822.64343 1605.7898 0
-790.90466 815.81195 1592.455 65536
-780.65503 814.96063 1590.7931 65536
-772.336 816.12842 1593.0728 196864
-765.7749 819.20581 1599.0797 328449
-760.45032 823.69958 1607.8516 2302234
-750.73816 823.49457 1607.4513 394755
-741.1413 823.41235 1607.2909 2697506
-721.17706 811.65997 1584.3503 2368540
-711.62756 811.47357 1583.9865 2960677
-705.34766 815.06042 1590.9879 855559
-696.30469 815.50824 1591.8621 1513489
-688.42249 817.34662 1595.4506 3158315
-679.94666 818.52148 1597.7438 1908249
-665.75513 812.75189 1586.4817 986635
-653.91229 809.72528 1580.5739 1578771
-645.75836 811.24506 1583.5403 460292
-635.9491 810.69946 1582.4753 460549
-627.91064 812.42865 1585.8507 789511
-617.45056 811.0296 1583.1199 197377
-605.27991 807.30591 1575.8511 1776150
-589.07751 798.00372 1557.6935 526085
-582.01422 800.98309 1563.509 1184013
-565.05951 790.22571 1542.5109 1973269
-562.30768 799.30371 1560.231 5591625
-553.6817 800.19568 1561.9722 5394499
-544.24304 799.92358 1561.4409 4078637
-532.57501 796.30865 1554.3846 5196863
-521.64337 793.68683 1549.267 5065278
-515.09497 797.75983 1557.2173 4539191
-509.44626 803.40009 1568.2271 3222818
-502.14737 806.59924 1574.4718 6578512
-492.02249 805.29431 1571.9246 4341292
-485.28485 809.58978 1580.3092 3815719
-473.3349 805.1875 1571.7162 4079406
-465.19653 807.22266 1575.6887 5856331
-455.9473 807.37408 1575.9844 5658442
-444.61713 803.76996 1568.949 3487787
-435.74997 804.55963 1570.4905 4803648
-425.19626 802.20172 1565.8878 3421741
-415.27252 800.95374 1563.4518 2895142
-408.27588 805.4231 1572.1759 1447695
-398.25885 804.00366 1569.4053 1908248
-388.22302 802.47754 1566.4263 2895141
-375.54132 795.2735 1552.3641 2500640
-368.07663 799.03314 1559.7029 3224107
-361.52621 805.02216 1571.3934 1316366
-353.66104 808.32288 1577.8363 986891
-342.53735 804.15302 1569.6967 3223080
-332.99124 803.55725 1568.5338 1315853
-323.34518 802.67914 1566.8198 2499610
-313.73141 801.83173 1565.1656 4012846
-304.81113 802.75903 1566.9758 2104849
-294.22144 799.20996 1560.048 2236696
-284.86536 798.89026 1559.4238 3354404
-274.09094 794.43811 1550.7334 2894113
-266.32303 798.6936 1559.04 3091491
-257.15463 798.90393 1559.4507 3420198
-248.31549 800.19098 1561.9629 3880748
-239.29845 800.98212 1563.5073 2038548
-230.48325 802.53992 1566.5481 4473141
-220.15524 798.73981 1559.1302 4539191
-211.63171 801.44037 1564.4016 5000260
-201.76045 799.05066 1559.7371 1513235
-193.5007 803.12012 1567.6805 1842203
-182.61632 796.15723 1554.0891 1
-174.019 798.95538 1559.551 1973795
-164.59468 798.0575 1557.7985 2829102
-156.7964 805.40533 1572.1412 1184533
-147.89966 807.68243 1576.5862 1579289
-138.72656 808.6557 1578.4858 2631975
-129.22511 807.71716 1576.6539 3487540
-117.75107 793.34222 1548.5942 3421488
-110.03471 803.99445 1569.3872 4934725
-100.28962 800.42139 1562.4127 4079417
-91.300735 802.77081 1566.9988 2039577
-81.910912 801.72778 1564.9626 6250327
-72.545265 800.6853 1562.9279 7632749
-62.96352 796.6037 1554.9606 6842976
-54.03125 800.74841 1563.051 3355435
-44.659611 798.74927 1559.1488 3947315
-35.272636 795.362 1552.5367 1381645
-26.142429 797.41693 1556.5481 1841937
-17.02504 802.31586 1566.1106 1710863
-7.7334075 800.90344 1563.3536 1512718
1.5329297 803.35425 1568.1376 6907998
10.870135 806.85803 1574.9769 4275766
20.170086 805.63702 1572.5935 3288873
29.544846 807.23157 1575.7061 1381135
38.806614 805.71442 1572.7446 263171
47.931065 802.48572 1566.4423 2827809
56.933456 798.59235 1558.8425 2104342
65.903381 795.39392 1552.5991 3156772
74.864861 792.88953 1547.7106 3025187
83.00708 783.2016 1528.7998 4078126
91.539566 778.73981 1520.0906 1709839
100.52097 778.55432 1519.7284 6117453
110.56339 785.94135 1534.1479 2170386
120.59282 792.12115 1546.2107 2170131
129.60403 791.21216 1544.4364 4604729
139.99979 798.31818 1558.3073 5459779
149.32204 798.80219 1559.2521 3289126
157.61336 794.03619 1549.9489 6841692
167.15094 795.72772 1553.2507 4868158
178.64603 806.07532 1573.4491 3288867
186.63618 800.36621 1562.3049 5132357
197.54094 807.10486 1575.4587 3288612
207.70358 810.34021 1581.774 5195839
216.46767 808.07538 1577.3531 1380103
225.24744 806.05414 1573.4077 1840397
235.26579 808.44965 1578.0837 4735289
243.75179 805.59766 1572.5167 2499096
255.00288 811.75787 1584.5414 2564637
263.25732 808.28003 1577.7527 1907737
273.4765 810.86615 1582.8008 1380363
281.76242 807.73871 1576.696 460291
293.83759 815.32617 1591.5067 2565665
302.87152 814.26556 1589.4363 3224109
317.01443 826.59015 1613.4938 460550
326.01559 825.17889 1610.7391 2500132
334.39822 822.32697 1605.1721 1908251
342.58548 819.16553 1599.0011 1118479
352.30249 819.73364 1600.11 921101
359.68881 814.99109 1590.8525 592136
366.95871 810.23364 1581.5662 986122
374.3154 805.8999 1573.1067 1644050
378.84863 795.84564 1553.4808 2301980
389.73392 799.29541 1560.2148 2169881
398.9982 799.33789 1560.2977 2761760
409.51028 801.82159 1565.146 788227
419.11377 802.45581 1566.3839 327937
424.11526 794.44208 1550.7412 1643536
440.01038 806.74121 1574.749 1972501
449.12717 806.35992 1574.0048 1578000
455.88086 801.83783 1565.1776 2960166
470.24991 810.62335 1582.3268 2170907
478.59573 808.88562 1578.9347 1842712
486.46722 806.42798 1574.1376 1513235
496.952 808.31354 1577.8181 7631983
506.55499 808.72168 1578.6147 5132106
521.52374 817.52631 1595.8011 526340
529.60822 815.41772 1591.6854 855306
531.63721 804.22278 1569.833 4737351
543.13727 807.49359 1576.2177 855309
550.05804 803.96082 1569.3217 3815992
559.578 804.28131 1569.9471 4210494
566.67328 801.16309 1563.8606 1644566
557.07782 774.92761 1512.6492 1512978
569.34082 779.44788 1521.4725 2828838
581.4801 783.66034 1529.6954 0
588.54065 781.00409 1524.5103 789257
597.76477 781.25574 1525.0016 1776408
609.02246 784.11816 1530.589 1052685
619.2467 785.58551 1533.4534 2302751
624.18439 780.40094 1523.3329 1512979
633.45514 780.70428 1523.9252 1446414
646.60858 785.71716 1533.7102 393986
651.82172 781.07629 1524.6512 1117192
652.70917 771.44965 1505.8602 196864
664.53253 774.83368 1512.4658 722949
674.99414 776.56097 1515.8375 2630945
684.14716 776.75726 1516.2206 3025447
697.71246 781.89307 1526.2456 920072
707.73749 782.98083 1528.3689 393216
717.5213 783.77753 1529.9241 458752
726.41119 783.59021 1529.5583 327680
735.11749 783.21179 1528.8198 393216
744.12769 783.16241 1528.7234 196608
751.52435 781.43652 1525.3545 196608
759.60876 780.45831 1523.4449 920585
773.2998 785.19586 1532.6926 1840915
775.54779 778.33917 1519.3086 131072
782.53345 776.34009 1515.4062 1248523
786.40381 771.33081 1505.6282 393216
793.04138 769.11749 1501.3079 1116164
799.43073 766.71527 1496.6188 1050369
810.68188 768.97742 1501.0344 327680
812.96808 762.77893 1488.9351 1905162
822.05963 763.03027 1489.4257 1905417
832.50763 764.52197 1492.3374 1576452
843.94934 766.88525 1496.9506 2300173
849.0202 763.47046 1490.2849 2036745
866.90741 771.53223 1506.0215 2629652
876.68634 772.28711 1507.495 4274478
888.28949 774.61761 1512.0441 2761239
902.49811 779.15082 1520.8928 2300946
910.83722 778.57727 1519.7733 3288097
921.1225 779.66223 1521.8911 3354404
929.43665 779.07397 1520.7428 2696476
928.98755 771.22186 1505.4155 1907216
941.30206 774.0144 1510.8666 2433050
952.87097 776.14697 1515.0294 1380364
963.01355 777.08881 1516.8678 1906964
969.7655 775.30261 1513.3811 2301722
980.53741 776.73346 1516.1741 2630944
988.79846 776.16742 1515.0692 1249291
995.8999 774.70947 1512.2234 328192
1004.4886 774.42413 1511.6664 327936
1017.0592 777.18677 1517.059 262400
1018.4821 771.45697 1505.8745 919809
1031.35 774.42041 1511.6591 919553
1039.4452 773.78015 1510.4093 1840396
1046.321 772.25073 1507.4238 196864
1048.7113 767.46454 1498.0813 1248260
1058.0601 767.80841 1498.7526 919299
1062.6055 764.68988 1492.6652 1511690
1073.1755 765.92255 1495.0713 787200
1083.4551 766.92938 1497.0367 1445124
1095.4993 769.15881 1501.3885 984577
1101.6392 767.24036 1497.6437 1576452
1112.5601 768.6557 1500.4064 1576194
1120.0713 767.71149 1498.5634 2102794
1122.8417 763.55823 1490.4563 1707522
1127.8679 760.99194 1485.4469 1839105
1137.7509 761.71686 1486.8619 2365448
1143.4696 759.66425 1482.8552 1575936
1158.0101 763.45886 1490.2623 1970690
1177.5715 770.48126 1503.97 2036483
1194.4698 775.66882 1514.0961 2234374
1199.719 773.27075 1509.4149 3747613
1214.4139 776.95117 1516.5991 3024146
1226.2361 778.75323 1520.1167 2893074
1241.525 782.7146 1527.8492 3419160
1250.3615 782.58008 1527.5867 3484441
1243.3322 772.58881 1508.0839 4274472
1256.1387 774.97784 1512.7472 2827028
1271.2676 778.75568 1520.1215 2827029
1275.6732 775.95758 1514.6597 1708553
1282.7958 774.83984 1512.4778 5195321
1292.2877 775.15869 1513.1002 2695702
1298.9912 773.81213 1510.4718 5063992
1316.2206 778.71149 1520.0352 2498066
1338.1958 786.33282 1534.912 1577992
1346.0825 785.62866 1533.5375 3090973
1363.4324 790.41998 1542.8901 5590854
1356.8557 781.36908 1525.2228 4604473
1384.1858 791.83447 1545.6511 7170399
1389.719 789.77515 1541.6315 5460033
1404.8269 793.14856 1548.2162 4604213
1411.1541 791.5528 1545.1013 4670265
1411.6313 786.71753 1535.6628 4669238
1404.7003 777.84174 1518.3375 3618089
1415.8593 779.03241 1520.6616 6183246
1437.9368 786.17761 1534.609 7302243
1440.3097 782.52753 1527.484 4997691
1448.8612 782.25879 1526.9595 4800570
1463.3051 785.15503 1532.6129 5195585
0 0 0 0
0 0 0 0
0 0 0 0
0 0 0 0
0 0 0 0
0 0 0 0
0 0 0 0
0 0 0 0
0 0 0 0
0 0 0 0
0 0 0 0
0 0 0 0
0 0 0 0
0 0 0 0
-1288.3088 783.50195 1511.9025 6052944
-1279.8317 783.79578 1512.4695 6052944
-1289.1714 795.08209 1534.2483 5658444
-1269.1578 788.29669 1521.1548 5132358
-1255.6694 785.49622 1515.7509 8487033
-1255.9294 791.31787 1526.9846 4671552
-1260.6263 800.03973 1543.8151 2434590
-1246.8865 797.10297 1538.1479 4474173
-1228.8085 791.32928 1527.0066 3684660
-1228.4318 796.95367 1537.86 5526863
-1212.5251 792.51178 1529.2885 2303006
-1190.6967 784.10339 1513.063 3816242
-1188.1897 788.38751 1521.3301 2236184
-1199.5278 801.99396 1547.5861 2104598
-1198.0928 807.20404 1557.6399 2827292
-1188.7393 807.11871 1557.4751 2037778
-1174.2799 803.53815 1550.5659 2104086
-1164.2126 802.93036 1549.3931 2301208
-1154.1125 802.28998 1548.1573 5591626
-1149.4816 805.4718 1554.2971 3420710
-1144.1312 808.19684 1559.5555 4605499
-1132.6234 806.58118 1556.4379 5526602
-1125.6047 808.16223 1559.4888 2565919
-1131.1222 818.8446 1580.1023 2631710
-1115.2457 814.0885 1570.9244 2763298
-1106.5306 814.5238 1571.7645 1776148
-1098.1001 815.1778 1573.0265 3881525
-1096.3893 820.87402 1584.0184 789256
-1069.1985 807.42688 1558.0698 855047
-1066.7848 812.61957 1568.0898 1052427
-1051.7323 808.19116 1559.5447 1446159
-1029.6843 798.26105 1540.3828 3683120
-1017.5394 795.89935 1535.8254 2631459
-1013.0609 799.54578 1542.8618 3552045
-1005.6587 800.93005 1545.533 2630689
-996.62341 801.0271 1545.7203 2236443
-989.49426 802.67224 1548.8948 2434079
-977.5946 800.4422 1544.5916 2302751
-967.73291 799.85431 1543.4572 3092519
-971.81915 810.89355 1564.7593 3881779
-960.3819 809.06769 1561.2361 4012850
-947.13019 805.66302 1554.6661 3289385
-942.76691 809.82648 1562.7002 1972754
-938.05353 813.76886 1570.3076 4341559
-928.10791 813.20557 1569.2207 2894113
-916.87787 811.4942 1565.9183 2499354
-900.7536 805.37189 1554.1044 5196866
-897.88342 811.09607 1565.1501 3552046
-878.78656 802.1286 1547.8457 2367770
-879.12231 810.89636 1564.7648 3092005
-866.27094 807.55774 1558.3223 6118226
-862.20355 812.42413 1567.7128 4407608
-855.22192 814.62042 1571.951 5328711
-838.2782 807.27155 1557.77 3750190
-834.46552 812.54523 1567.9464 2499100
-842.85236 829.95032 1601.5327 3355177
-821.76007 818.39343 1579.2316 2171418
-810.40918 816.38354 1575.3531 4934468
-801.4696 816.78418 1576.1263 526086
-797.37262 822.18762 1586.5532 65536
-788.52582 822.76398 1587.6653 329218
-778.19171 821.78357 1585.7734 66048
-769.83936 822.89752 1587.923 263168
-755.43579 817.49072 1577.4897 2170137
-753.08875 825.15881 1592.2866 986887
-747.883 829.84943 1601.338 1447438
-738.03619 829.4447 1600.557 1973781
-720.91534 820.74811 1583.7754 3947829
-713.01678 822.45996 1587.0787 2105371
-698.91046 816.96136 1576.4681 263169
-691.388 819.11389 1580.6218 723205
-681.69293 818.71625 1579.8545 788996
-674.37189 821.19836 1584.6443 328962
-662.84991 818.56287 1579.5586 1118220
-652.12445 816.84955 1576.2524 723462
-642.70471 816.74579 1576.0522 1052429
-633.65948 817.12189 1576.778 526084
-623.5542 816.12177 1574.8481 1710357
-610.49847 811.17108 1565.2948 1249806
-603.28168 813.94556 1570.6487 1052427
-587.93445 805.66553 1554.6709 460291
-580.40607 808.0069 1559.189 986634
-563.95142 797.79639 1539.4861 3026472
-559.26373 804.17004 1551.785 1249803
-552.50989 807.73602 1558.6664 1117961
-539.04199 801.44098 1546.519 1052166
-530.30811 802.0885 1547.7684 2564888
-520.71289 801.43304 1546.5035 4867643
-512.8252 803.42914 1550.3553 1709839
-503.43066 803.0943 1549.7094 2367509
-500.94217 813.96851 1570.693 3617576
-485.9216 804.50586 1552.4332 3157024
-479.54419 809.2641 1561.615 2959901
-466.75363 803.17389 1549.863 4801849
-464.53677 815.39941 1573.4541 4999228
-453.52432 812.37042 1567.6093 4538931
-443.06085 810.21887 1563.4574 5460036
-432.86267 808.47083 1560.0842 1579019
-420.89294 803.26556 1550.0398 2894880
-410.4989 800.90234 1545.4795 4737083
-405.09064 808.38074 1559.9104 3158567
-391.00949 798.49701 1540.838 2895394
-383.13843 801.12573 1545.9106 1842196
-375.375 804.11383 1551.6768 2039575
-365.38852 802.37036 1548.3123 2302747
-353.52969 796.31952 1536.6362 2434589
-347.50186 803.43011 1550.3574 1841944
-340.99826 809.79718 1562.6437 920581
-329.30078 803.84094 1551.15 1051909
-319.18842 801.52319 1546.6776 4472884
-309.97018 801.38007 1546.4014 1841938
-301.7533 803.89581 1551.2561 3223331
-295.78271 812.742 1568.3263 5131071
-282.66815 801.89539 1547.3959 1906961
-273.51367 801.93243 1547.4673 4012079
-265.43668 805.24072 1553.8513 2235925
-257.03543 807.76776 1558.7277 2367509
-246.23853 802.67407 1548.8983 2235923
-237.30222 803.48566 1550.4646 3880748
-227.48535 801.26123 1546.172 5328707
-217.07283 796.66394 1537.3008 2762526
-208.62704 799.198 1542.1908 4736320
-199.9789 801.15369 1545.9645 3815733
-192.10304 806.53937 1556.3572 789517
-181.38823 799.948 1543.6379 263432
-173.09744 803.91455 1551.2921 2895152
-163.58678 802.34277 1548.259 921358
-156.54518 813.4137 1569.6223 4474177
-146.92319 811.62823 1566.177 5724499
-137.87224 812.96936 1568.765 6118999
-126.59485 800.42712 1544.5625 3486760
-116.16392 791.69946 1527.7209 5986125
-108.0467 798.59802 1541.033 3222820
-99.419197 802.65027 1548.8524 2302235
-90.056961 800.9917 1545.6519 2959139
-81.636429 808.28125 1559.7185 2565151
-72.161621 805.66119 1554.6625 2039064
-62.784019 803.51837 1550.5276 2960421
-53.602516 803.58093 1550.6483 4408382
-44.607346 807.04047 1557.3241 5658704
-35.227264 803.52454 1550.5396 5197895
-26.043184 803.57611 1550.639 1184266
-16.875689 804.47412 1552.3719 3815727
-7.6759148 804.14209 1551.7311 3552300
1.5277923 809.92078 1562.8822 1775633
10.795482 810.58307 1564.1603 3354665
19.952639 806.16766 1555.6399 1710100
29.435053 813.53186 1569.8505 459778
38.297352 804.336 1552.1053 4078390
47.197701 799.3454 1542.4751 1512977
56.541344 802.26361 1548.1063 2894631
65.437965 798.90985 1541.6346 2696737
74.596817 799.18683 1542.1692 3025443
83.266739 794.73682 1533.5822 723203
91.257164 785.31494 1515.401 4341816
100.29451 785.78326 1516.3047 920069
109.89619 790.23254 1524.8903 985604
119.72943 795.54443 1535.1406 2103313
129.73776 801.18762 1546.03 5458498
139.69144 805.77124 1554.875 3944747
148.3511 802.78552 1549.1134 2892572
157.51942 802.73981 1549.0251 3288357
166.80171 803.24786 1550.0056 2762013
176.8886 807.37531 1557.9703 985864
186.2765 808.0614 1559.2942 1973015
194.48421 803.80469 1551.0801 3287843
205.80559 812.22052 1567.3198 2959393
215.17416 812.53552 1567.9277 985351
224.58241 812.96808 1568.7625 4933437
233.24722 810.78192 1564.5439 1774860
242.77925 811.66223 1566.2427 1905934
250.68216 807.23175 1557.6932 4340533
262.71399 815.93951 1574.4963 1117446
271.70648 814.93414 1572.5564 920586
277.4498 804.5733 1552.5634 2104855
291.17838 817.29059 1577.1036 4934212
300.87619 818.25525 1578.965 4408125
309.35016 815.93378 1574.4852 3420974
314.08667 804.17883 1551.8021 4013111
326.61636 812.47845 1567.8177 2302494
337.3432 815.9585 1574.533 3552562
344.61917 811.12885 1565.2134 1973788
356.86108 817.93439 1578.3459 1250066
364.27823 813.61639 1570.0134 3158062
372.92548 812.19232 1567.2655 986894
378.92261 805.20593 1553.7841 855307
386.98105 802.82733 1549.1942 1183243
394.21384 798.8858 1541.5883 4012342
403.56189 799.31232 1542.4114 1512208
415.37991 804.50372 1552.429 1511950
424.24438 803.87372 1551.2134 1380362
436.06219 808.74799 1560.619 3156772
445.6521 809.37341 1561.826 3814958
452.97583 805.94153 1555.2036 2433561
463.89728 808.92004 1560.9512 2696735
473.74728 809.9502 1562.939 1447442
486.68121 816.11237 1574.83 4736580
