# .PCD v0.7 - Point Cloud Data file format
VERSION 0.7
FIELDS x y z rgb
SIZE 4 4 4 4
TYPE F F F U
COUNT 1 1 1 1
WIDTH 1284
HEIGHT 1
VIEWPOINT 0 0 0 1 0 0 0
POINTS 1284
DATA ascii
-1875.8335 683.59155 3079.0854 3683114
-1853.5927 682.11963 3072.4556 3091234
-1831.4786 680.66571 3065.9067 2959647
-1813.4468 680.71497 3066.1287 3090977
-1812.39 687.20172 3095.3467 3484964
-1792.7422 686.69977 3093.0859 3024669
-1781.4376 689.41638 3105.322 1971981
-1754.9102 686.23694 3091.001 2498325
-1748.5795 690.97131 3112.3262 3090719
-1738.1841 694.18347 3126.7944 3749164
-1716.9707 693.09778 3121.9041 2170388
-1690.4531 689.82391 3107.158 3814957
-1669.3077 688.6944 3102.0701 2038546
-1659.8767 692.42639 3118.8801 2301717
-1652.5527 697.13123 3140.072 3157284
-1630.3887 695.61176 3133.2278 2301717
-1591.3514 686.77521 3093.4255 3025183
-1563.731 682.71741 3075.1482 3945771
-1573.0491 694.88116 3129.9373 1774601
-1548.396 692.14966 3117.6335 4274991
-1557.3323 704.54828 3173.4805 3024411
-1524.5131 698.12854 3144.5642 1379332
-1504.1533 697.32623 3140.9502 2300945
-1485.8745 697.48065 3141.6458 2893083
-1473.5354 700.46246 3155.0767 4143920
-1445.397 695.914 3134.5891 1314826
-1433.8599 699.34424 3150.0398 1577485
-1439.2689 711.23907 3203.6177 1183240
-1428.1027 715.15143 3221.24 3486249
-1421.1396 721.30316 3248.949 3814958
-1411.5114 726.25244 3271.2419 4012335
-1391.524 725.93542 3269.814 3552041
-1349.0941 713.73621 3214.8652 4209714
-1322.4677 709.66809 3196.5415 2499096
-1311.318 713.90771 3215.6379 2366741
-1263.4932 698.01129 3144.0359 3222048
-1237.7457 694.01813 3126.0498 4406066
-1245.2452 708.82892 3192.7615 3880491
-1217.7855 703.88977 3170.5142 3880239
-1202.5684 705.98309 3179.9431 3748910
-1218.6991 726.83905 3273.8843 4472633
-1163.8259 705.33759 3177.0356 3025187
-1158.1083 713.40973 3213.3948 3222566
-1168.405 731.78162 3296.147 4209715
-1137.9944 724.8493 3264.9219 2894112
-1111.0057 719.89465 3242.6047 3288870
-1107.7358 730.40491 3289.9458 3025698
-1078.2043 723.66565 3259.5901 3749421
-1061.049 725.13849 3266.2244 4078386
-1025.0941 713.57959 3214.1599 2959649
-1025.8341 727.61029 3277.3579 3420455
-1023.2562 739.78357 3332.1897 3354407
-993.66077 732.51868 3299.4668 2828062
-971.73114 730.72675 3291.3955 3749164
-958.07422 735.2099 3311.5889 2959649
-905.10669 709.0835 3193.9082 3551785
-910.69019 728.69122 3282.2268 3419946
-870.14508 711.43921 3204.519 2696222
-871.14111 728.13971 3279.7427 2104085
-847.51093 724.54889 3263.5686 525314
-817.88055 715.54095 3222.9944 2104085
-807.43445 723.28741 3257.8867 1906706
-792.2749 727.08759 3275.0037 2696475
-780.0141 733.8056 3305.2634 2631197
-753.69617 727.30469 3275.9817 3551784
-731.888 724.92706 3265.272 2828062
-710.17224 722.51422 3254.4041 2696733
-681.63348 712.8316 3210.7908 2696734
-663.51996 713.80829 3215.1899 5722956
-650.63257 720.63116 3245.9221 3420456
-640.50891 731.02386 3292.7339 3552042
-617.37646 726.75604 3273.5103 3157282
-607.23627 738.00134 3324.1624 3617836
-584.52435 734.20947 3307.0828 2828318
-562.52118 731.07574 3292.9673 2301718
-531.62061 715.73785 3223.8813 3091234
-518.26086 723.75281 3259.9829 2104339
-499.44342 724.47144 3263.22 1840910
-482.47995 728.04559 3279.3186 1511947
-461.23688 725.19086 3266.4602 2828579
-452.10788 741.96692 3342.0242 3027501
-429.00366 736.29407 3316.4722 2042921
-414.49771 745.54193 3358.1272 2703935
-400.32437 756.35089 3406.8137 928552
-384.20685 764.43927 3443.2458 598812
-362.41922 761.52051 3430.0991 1651243
-334.03186 743.5639 3349.2175 3295554
-310.82257 735.59375 3313.3179 3294780
-295.96231 747.63977 3367.5764 2900535
-273.34674 740.42029 3335.0579 3097398
-259.48145 757.62451 3412.5503 3424567
-239.89929 759.63385 3421.6011 2830632
-218.93103 757.21997 3410.7283 2960676
-192.97189 735.29797 3311.9856 1249289
-173.21129 734.70563 3309.3174 1774863
-153.18709 732.70129 3300.2893 1248779
-135.10327 740.74915 3336.5391 131072
-116.21913 746.41565 3362.0625 196610
-96.917221 751.18781 3383.5579 65540
-76.567642 748.21118 3370.1501 7
-56.067749 741.14758 3338.3337 9
-36.169827 738.67896 3327.2144 11
-16.457361 738.62073 3326.9521 12
3.2592533 740.21008 3334.1111 12
23.066422 741.98376 3342.1003 11
42.928402 743.06775 3346.9827 12
62.749897 742.98737 3346.6206 12
82.469818 742.03162 3342.3159 11
102.00397 740.09814 3333.6069 10
121.06967 735.9444 3314.8972 6
139.33797 728.77936 3282.6238 4
159.24951 730.91144 3292.2273 395018
180.77599 739.18164 3329.4785 6
201.68471 743.54718 3349.1423 5
221.66266 744.00653 3351.2114 2
241.51814 744.01318 3351.2412 2696999
263.43219 749.87872 3377.6611 1973784
283.65891 750.4519 3380.2432 2631199
305.61203 755.21576 3401.7009 1775120
327.65323 759.59454 3421.4241 1314568
349.89624 763.90356 3440.833 2893855
369.17288 761.61853 3430.5405 3222049
383.57663 750.04346 3378.4033 1971982
409.60532 761.22046 3428.7476 2892827
429.47595 760.43787 3425.2224 2103315
449.75702 760.41968 3425.1406 1971468
467.42664 756.17847 3406.0371 1840137
497.61359 771.70013 3475.9509 2037516
518.64032 772.34705 3478.8647 2563859
538.02917 770.59863 3470.9895 1642758
553.75769 763.92944 3440.9495 2892825
574.71844 764.6955 3444.4001 2366480
589.34363 757.26831 3410.946 1248004
614.3728 763.25885 3437.929 2761239
636.92761 765.88959 3449.7786 3353376
660.23285 769.23096 3464.8291 3155998
683.75696 772.61823 3480.0864 2432274
699.89362 767.70398 3457.9512 2037259
733.70459 781.90466 3521.915 2300174
748.48584 775.60095 3493.5212 1182209
762.71259 769.07733 3464.137 1642244
776.36584 762.33234 3433.7559 1707523
793.76196 759.51324 3421.0579 2365452
813.05054 758.60022 3416.9453 2299659
835.45587 760.56897 3425.813 1970692
848.90192 754.48157 3398.3938 2562829
879.77557 763.80658 3440.396 3089430
884.41406 750.448 3380.2256 3154965
899.44415 746.30341 3361.5571 2102535
930.638 755.45953 3402.7986 2759951
951.1535 755.74274 3404.0745 2036228
979.71625 762.27551 3433.4998 1970436
995.35852 758.69409 3417.3682 2233606
1015.1876 758.38324 3415.968 2496521
1041.6659 762.95459 3436.5586 2694157
1070.2771 768.883 3463.2617 2233607
1090.2585 768.50543 3461.561 2299657
1118.3414 773.74683 3485.1699 3747103
1167.2622 792.95398 3571.6843 3944485
1170.7251 781.14636 3518.4993 1246978
1188.6937 779.26105 3510.0076 1509890
1202.9248 775.03265 3490.9614 1444353
1221.1908 773.50287 3484.0708 1904644
1248.6432 777.74585 3503.1824 1904645
1250.1182 765.93396 3449.9785 2167817
1275.9459 769.1828 3464.6121 2299658
1313.7355 779.42566 3510.7485 2102021
1335.5281 780.00623 3513.3638 2299144
1338.4709 769.72888 3467.0718 2430984
1370.8132 776.41376 3497.1824 2496777
1391.4224 776.35297 3496.9084 2759949
1411.7251 776.12549 3495.8838 2693899
1421.8575 770.39404 3470.0681 3023120
1434.5236 766.17932 3451.0835 2628363
1465.6255 771.79114 3476.3608 2628363
1476.5166 766.75214 3453.6638 2365449
1498.1295 767.34247 3456.3228 2168070
1514.2211 765.12701 3446.3438 2562828
1544.1097 769.84937 3467.6145 2167557
1581.547 778.16187 3505.0562 2562828
1617.709 785.63953 3538.7378 2628364
1629.2914 781.14154 3518.4775 2628622
1697.8573 803.73199 3620.2312 3220759
1727.1887 807.41772 3636.8328 4273963
1734.3113 800.75842 3606.8374 3089689
1773.9432 809.08862 3644.3591 2892567
1786.9382 805.21564 3626.9141 2563345
1806.6687 804.43365 3623.3918 2694931
1838.6398 809.05634 3644.2134 2694928
1863.4961 810.47729 3650.614 2629135
1891.6174 813.26947 3663.1907 2825999
1914.3682 813.71533 3665.199 2431242
1944.3745 817.20081 3680.8984 3549977
1953.1876 811.80035 3656.5735 3417877
1953.2041 802.9024 3616.4946 2562569
1975.7103 803.34204 3618.4749 4075807
2000.4357 804.66486 3624.4333 3483669
2035.5549 810.09619 3648.8972 4010013
2087.9966 822.23474 3703.5728 3615255
2076.0305 809.0213 3644.0557 3812635
2095.1328 808.0625 3639.7371 3878429
2091.3135 798.3728 3596.092 4010014
2121.1614 801.60156 3610.6353 3549721
2174.7793 813.659 3664.9453 3812636
2205.8635 817.13086 3680.5833 3878429
2205.0825 808.84625 3643.2673 3285779
2261.7593 821.59399 3700.6868 2759949
2316.793 833.50598 3754.3413 2562570
2332.313 831.11072 3743.5527 2825743
2367.1895 835.5932 3763.7429 2562317
2386.2896 834.4751 3758.707 2233353
2392.637 828.95959 3733.8633 2430734
2391.5425 820.99017 3697.9668 2825490
2434.2017 828.04926 3729.7629 3351831
2405.9663 811.08191 3653.3374 3747100
2436.9714 814.20984 3667.4263 3549465
2478.9875 820.92883 3697.6904 3549464
2526.5374 829.3465 3735.606 3483414
2557.791 832.31519 3748.9778 3286292
2587.738 834.81122 3760.2207 2891533
2635.0078 842.8053 3796.2285 3680794
2677.4092 849.12018 3824.6721 4141601
2648.7327 832.97638 3751.9561 3746840
2663.1909 830.55347 3741.0425 3681047
2707.1943 837.30847 3771.4692 3615254
2706.4021 830.21161 3739.5027 3681050
2723.4995 828.67316 3732.5732 4075808
2757.6956 832.32019 3749.0002 1773318
2804.0474 839.5484 3781.5581 1904387
2830.3965 840.72058 3786.8379 3022866
2825.2405 832.58984 3750.2148 3220245
2867.5054 838.45166 3776.6184 3615258
2870.7886 832.91296 3751.6707 3352086
2935.1602 845.047 3806.3254 3944222
2940.7263 840.1947 3784.4692 4536359
2983.8909 846.07672 3810.9636 3681050
2999.3074 844.06165 3801.887 3219729
3050.6223 852.10376 3838.1111 2824972
3047.2341 844.86023 3805.4841 2100993
3057.4043 841.45453 3790.144 3088144
3064.542 837.26996 3771.2957 3022095
3081.2419 835.73969 3764.4028 3087890
3105.4844 836.26245 3766.7576 3286039
3121.5344 834.5874 3759.2124 3088146
3149.1492 836.00616 3765.603 2561802
3175.7781 837.14508 3770.7332 2562576
3170.1194 829.81647 3737.7229 2760726
3255.5566 846.26953 3811.832 3156516
3272.9033 844.91797 3805.7441 4473921
3296.7493 845.25122 3807.2454 6514536
3354.9216 854.32098 3848.0984 6778737
3408.6792 862.15192 3883.3706 6910324
3423.0613 859.98529 3873.6116 6910071
3468.446 865.58453 3898.8323 6646898
3506.6946 869.3407 3915.7507 6844277
3512.5925 865.08002 3896.5598 6910324
3559.2595 870.85004 3922.5498 7172983
3601.1338 875.38031 3942.9551 7238519
3625.3247 875.58118 3943.8601 7238518
3651.7769 876.3222 3947.1975 7238518
3697.1018 881.55396 3970.7627 6382952
3756.8733 890.14227 4009.4473 6185827
3794.7268 893.46228 4024.4014 6579559
3826.1624 895.23907 4032.4045 6776938
3831.6899 890.96967 4013.1738 7105900
0 0 0 0
0 0 0 0
0 0 0 0
0 0 0 0
0 0 0 0
0 0 0 0
0 0 0 0
0 0 0 0
-2586.1589 664.08276 2913.4685 2498326
-2553.9189 660.21033 2896.4792 2827290
-2539.5686 660.94147 2899.6868 3090462
-2542.8171 666.29382 2923.1689 2893083
-2531.6558 667.91803 2930.2947 2761497
-2512.3279 667.3952 2928.0007 1971980
-2501.0225 669.01105 2935.0898 1182465
-2475.9729 666.94733 2926.0359 3353376
-2455.6006 666.12329 2922.4207 3155997
-2457.3672 671.33569 2945.2886 3682597
-2427.3127 667.86725 2930.0718 4077868
-2415.9597 669.53149 2937.373 4274991
-2380.2097 664.40973 2914.9031 4735542
-2398.4233 674.3866 2958.6736 3157024
-2383.3191 675.07306 2961.6851 3551781
-2366.8516 675.38074 2963.0349 2893853
-2347.4539 674.85059 2960.7092 3222818
-2306.4419 668.05206 2930.8826 3157025
-2292.4377 669.03229 2935.1831 2696473
-2283.3169 671.46368 2945.8501 3222818
-2266.5979 671.68085 2946.803 3156513
-2243.4216 669.97302 2939.3103 2432532
-2212.9702 666.04883 2922.094 1708813
-2207.718 669.70691 2938.1428 2761496
-2186.2642 668.4693 2932.7131 2234896
-2177.395 671.09058 2944.2131 4208943
-2156.4939 670.01587 2939.4983 3353377
-2169.5518 679.56061 2981.3728 2893083
-2175.0112 686.86237 3013.4072 2695964
-2131.438 678.67249 2977.4766 1971983
-2098.9104 673.89233 2956.5049 2498327
-2086.9756 675.69904 2964.4314 2235152
-2065.2021 674.32391 2958.3984 3024669
-2065.2163 680.10004 2983.7397 2695704
-2083.8057 692.146 3036.5876 2827545
-2052.2825 687.61151 3016.6941 2169615
-2025.2671 684.521 3003.1353 2432530
-1992.2648 679.33429 2980.3799 2169101
-1976.4265 679.95972 2983.124 2498067
-1941.1016 673.83197 2956.2405 2563860
-1938.0669 678.90387 2978.4917 2037516
-1923.3082 679.92432 2982.9688 2300945
-1920.5317 685.23895 3006.2852 2038029
-1916.4004 690.1651 3027.897 2103311
-1882.7805 684.46411 3002.8855 2498325
-1873.2948 687.51166 3016.2561 3024928
-1874.5066 694.58197 3047.2749 1249030
-1860.5807 696.12598 3054.0486 2565147
-1844.3416 696.82635 3057.1213 2498327
-1828.4586 697.67651 3060.8511 2630683
-1809.2065 697.2453 3058.9595 2498070
-1785.5564 695.09332 3049.5181 2103569
-1762.1956 693.01105 3040.3828 2827033
-1747.7528 694.4292 3046.6045 3090462
-1738.788 698.07611 3062.6042 2958876
-1717.9434 696.98029 3057.7969 2893083
-1701.8788 697.82098 3061.4851 3090462
-1692.6562 701.51556 3077.6938 2432532
-1663.7161 697.02972 3058.0134 1971981
-1650.9945 699.3147 3068.0383 2300948
-1612.1321 690.45496 3029.1687 3222049
-1608.7526 696.76355 3056.8457 2761497
-1580.8823 692.48798 3038.0881 2433045
-1550.071 686.81079 3013.1809 1775116
-1547.0664 693.46545 3042.3765 4735800
-1549.7085 702.83801 3083.4958 2629910
-1542.4519 707.8913 3105.6655 2169615
-1520.663 706.31659 3098.7568 2432274
-1481.9906 696.7655 3056.8545 2366225
-1483.6335 706.16711 3098.1013 2103053
-1445.9448 696.84906 3057.2209 2761239
-1447.2838 706.34186 3098.8679 3024925
-1436.5245 710.09814 3115.3477 3155999
-1431.5549 716.85156 3144.9761 2235154
-1425.8364 723.40295 3173.7185 2498582
-1420.776 730.46796 3204.7139 1840396
-1401.5865 730.36157 3204.2473 1774859
-1378.0316 727.94641 3193.6514 1906445
-1372.3617 735.04309 3224.7861 1643277
-1335.7297 725.52271 3183.0181 656385
-1312.7184 723.23383 3172.9763 656640
-1282.7855 717.00977 3145.6702 2958880
-1263.2632 716.50677 3143.4636 2037777
-1200.3932 691.03473 3031.7124 3156257
-1194.0004 697.7951 3061.3713 4077359
-1198.8582 711.44049 3121.2368 2037778
-1193.9908 719.65179 3157.2615 3354153
-1180.6921 722.96185 3171.7832 3683373
-1145.5774 712.80444 3127.2205 4143665
-1108.8488 701.29236 3076.7146 3879467
-1100.1498 707.41919 3103.5942 3749163
-1089.1681 712.26141 3124.8384 4078128
-1089.1455 724.56183 3178.8027 3683371
-1089.9622 737.86316 3237.1584 3420198
-1060.3115 730.64642 3205.4971 5262402
-1044.6909 733.01068 3215.8694 3946542
-1021.9753 730.39203 3204.3809 2762267
-997.84705 726.64551 3187.9441 3156513
-980.27484 727.62079 3192.2229 4209201
-954.80469 722.65674 3170.4446 4275249
-929.60522 717.70239 3148.709 3485476
-903.19763 711.59338 3121.9075 2827290
-888.98468 715.03754 3137.0176 3946029
-872.3584 716.64612 3144.0747 2762269
-861.39612 723.07947 3172.2991 5393992
-846.68811 726.58527 3187.6799 3684143
-830.94373 729.34155 3199.7722 3092008
-807.20618 725.04681 3180.9304 4605502
-776.12872 713.79639 3131.5723 3288616
-776.64301 731.76086 3210.3865 2696732
-750.33643 724.72217 3179.5061 3683370
-737.39459 730.56183 3205.126 3419942
-716.18048 728.29797 3195.1938 2367767
-696.81915 727.84644 3193.2129 4078128
-679.43079 729.48804 3200.4148 4078129
-654.99359 723.43848 3173.8743 2893340
-637.48303 724.90784 3180.3208 3024412
-616.61755 722.53552 3169.9128 2235153
-596.47784 720.89142 3162.6997 2366741
-578.43787 721.76056 3166.5129 2432278
-558.38763 720.09552 3159.208 2301462
-537.82202 717.62738 3148.3796 1906451
-527.55316 729.21466 3199.2156 1775121
-517.17627 741.51062 3253.1606 1906708
-494.0116 735.71411 3227.73 1380108
-475.31937 736.37964 3230.6497 1446158
-459.2543 741.34174 3252.4197 2039067
-443.46582 747.20459 3278.1411 1843743
-434.10837 764.93652 3355.9348 3360063
-413.67941 763.92517 3351.4978 3625291
-401.90549 779.60059 3420.269 3165253
-383.76895 783.9433 3439.3215 4480854
-357.91196 772.1178 3387.4404 4151375
-332.42841 759.74084 3333.1401 4479312
-311.02551 755.71564 3315.481 2571314
-287.10516 744.61865 3266.7961 2044199
-271.26654 754.39294 3309.6777 2109992
-249.45952 747.79877 3280.7478 2635054
-225.10405 731.80536 3210.5815 330245
-205.32579 729.11353 3198.772 526595
-188.69011 738.16833 3238.4971 1841428
-170.03867 740.49445 3248.7024 1775120
-149.21548 732.74969 3214.7244 1578513
-131.89336 742.44653 3257.2666 986381
-113.56897 748.8584 3285.3967 2
-95.682632 761.40833 3340.4561 5
-74.466087 747.09253 3277.6494 7
-54.800991 743.73273 3262.9094 8
-35.414581 742.5545 3257.7402 10
-16.09783 741.76361 3254.2705 9
3.1783304 741.0932 3251.3293 9
22.504017 743.20935 3260.6133 6
41.739437 741.76654 3254.2832 4
60.23402 732.22949 3212.4424 329225
79.744728 736.65869 3231.874 3
98.972244 737.26331 3234.5266 3
118.61117 740.23932 3247.583 2
135.48409 727.53149 3191.8313 855309
154.74043 729.16772 3199.0095 394757
175.77264 737.90198 3237.3286 1644566
197.10025 746.03589 3273.0137 1710358
215.54166 742.76666 3258.6711 1250063
238.53436 754.42969 3309.8391 2039320
258.88937 756.61224 3319.4143 2236185
280.04007 760.64777 3337.1191 2104341
301.49771 764.92987 3355.9055 3223076
321.73495 765.7774 3359.624 2564375
344.81808 772.90521 3390.8953 3024669
364.20337 771.41595 3384.3613 1050882
381.22177 765.33026 3357.6624 1116673
402.61411 768.19385 3370.2253 1708295
422.09979 767.32074 3366.3948 3090204
445.64557 773.5741 3393.8298 3813670
457.70776 760.21436 3335.2175 1708808
478.15921 761.3175 3340.0574 1314053
505.72827 773.21521 3392.2551 656641
524.05695 770.61572 3380.8506 787969
541.62158 767.12543 3365.5378 2695451
570.78619 779.72925 3420.8335 1379846
585.9057 772.94012 3391.0483 1774864
603.79193 770.13013 3378.7202 1117446
626.54047 773.50323 3393.5188 2959904
645.76447 772.45062 3388.9006 2696731
672.16107 779.78247 3421.0671 3025439
686.24634 772.82068 3390.5242 3024925
709.474 776.25787 3405.6038 3156253
732.88782 779.70288 3420.718 2366737
745.87817 772.17175 3387.6772 1971723
763.07507 769.276 3374.9729 1774089
782.35876 768.57812 3371.9111 2761239
799.87952 766.22614 3361.5925 3616549
813.59863 760.43524 3336.1868 2761238
824.18695 752.06232 3299.4529 1839367
851.97168 759.40515 3331.6677 2299916
879.55811 766.24292 3361.6663 2365195
893.66174 761.29211 3339.946 1773315
918.97754 765.90033 3360.1631 1378560
929.35559 758.12744 3326.062 1970693
947.07855 756.54468 3319.1182 2036487
967.35895 757.02771 3321.2373 1970695
1012.7155 776.72412 3407.6494 1180672
1018.0925 765.58679 3358.7876 1246720
1038.3445 765.84778 3359.9326 2168073
1055.6523 763.9682 3351.6865 1839106
1091.9988 775.68182 3403.0767 3220761
1127.9663 786.7063 3451.4436 3286554
1152.2147 789.31042 3462.8682 2168330
1162.8698 782.67426 3433.7537 2826260
1185.0768 783.90771 3439.1653 1510145
1191.3135 774.71393 3398.8303 1641474
1211.9839 775.05609 3400.3315 2234124
1214.783 764.1452 3352.4631 1641729
1238.3248 766.42346 3362.4585 2628623
1266.9995 771.75623 3385.8542 2694158
1302.054 780.74811 3425.3037 2036228
1321.8577 780.45972 3424.0381 2562827
1342.943 780.92523 3426.0806 2365191
1353.7246 775.47443 3402.1667 2430984
1379.2472 778.50403 3415.4583 2891535
1388.4705 772.37903 3388.5864 2233605
1408.4181 772.30927 3388.2805 2496777
1432.677 774.57239 3398.2095 2430984
1448.316 772.17712 3387.7007 2299657
1466.7495 771.31677 3383.9263 2365450
1486.0419 770.92523 3382.2085 3089174
1493.172 764.31848 3353.2234 1773315
1538.1704 777.01459 3408.9238 2299400
1573.9863 784.80328 3443.0942 2497034
1606.391 790.71344 3469.0234 2957585
1660.1737 806.86432 3539.8809 3286292
1677.9301 805.32147 3533.1118 2957586
1696.6281 804.26294 3528.468 2299658
1735.3966 812.6286 3565.1697 1839107
1756.0995 812.43518 3564.3213 2365451
1760.5646 804.82343 3530.927 3089173
1773.5787 801.25269 3515.2615 3023380
1826.65 815.65155 3578.4319 2497036
1853.5973 818.1886 3589.5627 2168070
1877.7623 819.45404 3595.1145 2168071
1865.1508 804.8219 3530.9199 3023120
1901.7404 811.50909 3560.2585 3615257
1897.24 800.70831 3512.873 2628362
1928.6364 805.12726 3532.2598 2562566
1958.7617 808.92645 3548.9275 3351569
2023.572 826.81696 3627.417 3548947
2012.1381 813.50598 3569.019 3285775
2023.1793 809.46405 3551.2861 3154447
2034.1268 805.46814 3533.7554 4010013
2021.5386 792.32898 3476.1113 4536357
2087.2061 809.8175 3552.8367 4404771
2122.178 815.16595 3576.3018 4207134
2159.5417 821.31836 3603.2935 4536097
2195.0674 826.65808 3626.7202 5193514
2220.1919 828.01532 3632.6743 5062443
2221.7791 820.6524 3600.3721 3154708
2246.6924 821.9635 3606.1243 3023125
2281.4402 826.81427 3627.4053 1905162
2287.7312 821.3576 3603.4656 1313543
2341.2805 832.81189 3653.718 984579
2341.5879 825.29138 3620.7239 918785
2369.0193 827.38031 3629.8884 1444868
2398.001 829.96826 3641.2424 3154966
2411.564 827.22119 3629.1907 3352087
2430.0549 826.19812 3624.7021 2562570
2459.1921 828.78082 3636.033 2891535
2511.6497 839.10974 3681.3481 3286292
2536.0027 839.95227 3685.0444 3483671
2586.0981 849.23395 3725.7649 3615257
2567.2661 835.91516 3667.333 3154706
2617.6782 845.17712 3707.967 2365190
2604.4802 833.91785 3658.5703 3286292
2620.7458 832.20038 3651.0354 3352085
2610.1326 822.04572 3606.4849 3681049
2660.511 831.10895 3646.2468 4009757
2665.2747 825.89148 3623.3569 4405029
2695.2634 828.51147 3634.8513 5062959
2703.3147 824.39996 3616.813 3154964
2745.6763 830.73389 3644.6016 2825742
2801.6709 841.06177 3689.9119 3154706
2810.9175 837.30457 3673.4285 3746844
2842.0164 840.06445 3685.5364 4010016
2833.2515 831.08868 3646.1582 3944223
2866.1824 834.38708 3660.6287 3681051
2877.271 831.32507 3647.1953 4273187
2937.8098 842.48987 3696.1772 3615257
2974.9988 846.84277 3715.2744 2825742
2959.1199 836.13666 3668.3047 2891022
2978.4365 835.45917 3665.3325 3219986
2997.5544 834.73615 3662.1604 3088144
3014.4414 833.4068 3656.3281 3219473
3034.5056 832.96844 3654.405 3153680
3062.6357 834.73486 3662.1545 2628619
3094.1426 837.3902 3673.804 2430984
3108.0742 835.28516 3664.5688 3285783
3137.198 837.26379 3673.2495 3221530
3180.042 842.85168 3697.7649 3222047
3263.9399 859.1698 3769.3555 4538681
3280.7954 857.73834 3763.0757 6316127
3267.3171 848.44928 3722.3225 6448743
3298.5906 850.82794 3732.7581 6580845
3388.4563 868.18732 3808.9172 6778481
3425.0173 871.74963 3824.5459 6580589
3431.4114 867.63739 3806.5046 6382953
3486.2346 875.74432 3842.0713 6580588
3525.6318 879.89618 3860.2864 6645869
3572.2041 885.77356 3886.072 6711917
3627.3848 893.69666 3920.8323 6580331
3663.666 896.89221 3934.8518 6777709
3684.6836 896.33435 3932.4043 6975345
3723.0122 899.96808 3948.3462 7369333
3756.1919 902.31952 3958.6626 7237489
3781.7058 902.81183 3960.822 7106413
0 0 0 0
0 0 0 0
0 0 0 0
0 0 0 0
0 0 0 0
0 0 0 0
0 0 0 0
0 0 0 0
-2551.0522 672.09369 2873.9187 1971726
-2536.7771 672.82324 2877.0383 1774604
-2511.0972 670.51733 2867.178 2235155
-2475.0815 665.40137 2845.3018 1840397
-2459.5862 665.76965 2846.8767 2169361
-2449.1292 667.51636 2854.3457 1774602
-2447.7319 671.77374 2872.5505 1577223
-2465.947 681.51099 2914.1877 2168846
-2420.4021 673.63995 2880.5305 3024668
-2397.9084 672.11835 2874.0242 3090203
-2363.4148 667.18738 2852.939 3946283
-2342.9739 666.18103 2848.6355 4538163
-2343.8188 671.2561 2870.3372 4011818
-2359.7197 680.7489 2910.929 4143405
-2347.5044 682.21063 2917.1794 3551782
-2301.3911 673.76984 2881.0859 3354404
-2281.1553 672.83551 2877.0906 2564888
-2251.2039 668.99994 2860.6895 3946540
-2223.6025 665.80981 2847.0483 3485990
-2237.1277 674.97949 2886.2585 2893852
-2211.1372 672.27606 2874.6985 3222821
-2192.655 671.83124 2872.7964 3617576
-2159.7444 666.92401 2851.8125 3025439
-2161.6438 672.77338 2876.825 2762267
-2150.2617 674.54913 2884.4182 3485990
-2135.6553 675.33386 2887.7739 3880233
-2146.4302 684.22217 2925.7808 3288353
-2140.9958 688.0459 2942.1313 3222560
-2131.5554 690.63458 2953.2007 3222560
-2100.384 686.16681 2934.0962 3090975
-2072.3323 682.65216 2919.0674 1972752
-2055.6826 682.86591 2919.9814 4012077
-2027.828 679.32965 2904.8601 2169359
-2006.9065 678.07526 2899.4963 2432275
-2004.6913 683.17419 2921.2996 1708809
-1984.3795 682.14111 2916.8821 2432787
-1975.0992 684.91528 2928.7446 2234895
-1977.8539 691.9491 2958.8215 2432530
-1937.4012 683.85748 2924.2212 3024924
-1916.1166 682.44672 2918.1887 2366737
-1904.7098 684.56049 2927.2275 1905674
-1906.3599 691.44885 2956.6826 2959130
-1885.9662 690.39539 2952.178 1972236
-1875.0236 692.81445 2962.522 1775372
-1861.1616 694.19025 2968.405 2696474
-1857.5276 699.4436 2990.8689 3157025
-1835.8324 697.93182 2984.4043 1972496
-1841.2319 706.7915 3022.2888 2499353
-1836.1829 711.77478 3043.5977 2169106
-1782.631 697.86902 2984.1355 2366741
-1758.676 695.38727 2973.5237 1643017
-1739.4512 694.74463 2970.7756 2037776
-1729.7698 697.93951 2984.4373 1445639
-1706.9695 695.85242 2975.5127 2498325
-1706.2649 702.82318 3005.3201 2498325
-1692.8947 704.66876 3013.2119 2695704
-1685.8478 709.21393 3032.6472 2564118
-1660.1282 705.91693 3018.5493 2432533
-1643.479 706.4472 3020.8167 1971982
-1602.8268 696.5578 2978.5288 2301203
-1609.8816 707.41156 3024.9402 2366995
-1574.14 699.49243 2991.0774 2827033
-1576.4005 708.47198 3029.4749 2564118
-1548.5679 703.97815 3010.2588 2169104
-1540.8684 708.63873 3030.1877 1643017
-1509.5652 702.42596 3003.6216 2498070
-1510.964 711.46332 3042.2659 1905675
-1493.108 711.54291 3042.6062 1182210
-1474.5614 711.29132 3041.5305 1708553
-1463.7721 714.82184 3056.627 3550754
-1422.1899 703.21484 3006.9949 2498066
-1431.3745 716.73395 3064.8035 2234894
-1408.5023 714.34235 3054.5769 3682341
-1410.8804 724.86121 3099.5562 3617575
-1396.7651 727.07202 3109.0098 4604471
-1340.4531 707.08337 3023.5369 5592135
-1345.746 719.48969 3076.5872 3355433
-1329.6346 720.63605 3081.489 4407609
-1300.3159 714.55646 3055.4924 5262661
-1288.6134 718.1225 3070.741 1775118
-1262.3612 713.56622 3051.2581 2432277
-1247.1144 715.18878 3058.1963 3090466
-1223.7617 712.14233 3045.1692 3222053
-1187.2434 701.22858 2998.5015 2366743
-1182.7109 709.16217 3032.426 2564122
-1169.3926 711.99109 3044.5227 2498070
-1162.3063 718.76263 3073.4783 2893341
-1129.5841 709.64435 3034.4878 3155743
-1125.4177 718.46094 3072.188 3353121
-1104.2427 716.5307 3063.9343 2760984
-1080.4402 712.80249 3047.9922 3090461
-1056.2755 708.70465 3030.4695 3222048
-1053.426 719.01355 3074.5513 2958620
-1033.6057 717.89819 3069.7817 4274993
-1029.7125 728.00317 3112.9915 4209715
-981.65771 706.68524 3021.8345 4472885
-947.56525 694.81342 2971.0698 3946797
-966.59576 722.18256 3088.1018 3024669
-941.62476 717.09808 3066.3604 3419426
-927.90192 720.54822 3081.1135 2432275
-905.97943 717.64172 3068.6851 2695191
-883.92535 714.50983 3055.293 1445637
-866.07428 714.71545 3056.1721 3485479
-849.31158 715.84723 3061.0117 2433304
-840.35974 723.75537 3094.8274 1973011
-817.77637 720.01447 3078.8311 3420457
-805.32495 725.22699 3101.1201 2630940
-787.52386 725.75287 3103.3689 3485992
-768.58856 725.23364 3101.1487 2301718
-749.14374 724.19641 3096.7136 2433304
-732.58228 725.96448 3104.2739 2563863
-720.58307 732.46106 3132.0537 3222050
-709.02985 739.76642 3163.2917 525056
-692.25641 741.8739 3172.3037 1248519
-669.67053 737.69629 3154.4399 3419431
-647.40558 733.64246 3137.1052 1840399
-621.98578 725.66821 3103.0068 1511178
-598.60809 719.66327 3077.3296 1050627
-575.51233 713.63086 3051.5344 1511432
-557.12573 713.23578 3049.845 1182211
-540.26593 714.83429 3056.6804 3748651
-528.50867 723.52911 3093.8601 2564890
-518.05023 734.69067 3141.5876 3157285
-499.73926 735.13263 3143.4775 2367771
-490.02737 748.74817 3201.6982 2433052
-462.57385 735.25977 3144.021 1249036
-451.85452 748.35449 3200.0149 1381907
-434.90787 751.83075 3214.8799 3094322
-420.46875 760.159 3250.4919 4150350
-391.81042 742.34601 3174.3223 4020304
-386.35519 768.91522 3287.9341 3888460
-368.69757 772.73138 3304.2524 3888460
-353.10776 781.55237 3341.9712 3361600
-329.26358 772.0661 3301.4075 2966586
-300.88699 750.08295 3207.406 2176557
-284.42029 756.82758 3236.2466 2373936
-262.75662 749.71899 3205.8496 1781546
-250.0652 769.09753 3288.7136 1121819
-227.21492 757.86633 3240.6885 659214
-205.84792 749.96606 3206.9062 1381906
-184.5163 740.60132 3166.8618 1578513
-165.64069 740.09015 3164.676 2038549
-147.84932 744.91119 3185.2913 1972756
-129.56728 748.30927 3199.8215 920072
-110.81912 749.71838 3205.8472 65537
-91.628067 748.0946 3198.9036 65539
-72.899765 750.38721 3208.707 3
-53.51902 745.21246 3186.5796 4
-34.635693 745.09833 3186.0913 65798
-15.860704 749.83228 3206.3342 131590
3.07955 736.72357 3150.2805 2
21.985653 744.96173 3185.5073 1447445
40.753315 743.06543 3177.3987 1644822
59.762665 745.38177 3187.3035 1118989
78.147278 740.66473 3167.1331 1382161
96.643524 738.62744 3158.4214 1052683
116.40701 745.3653 3187.2329 1512978
133.85513 737.46613 3153.4556 921352
152.89511 739.19775 3160.8604 1249032
172.03302 740.97345 3168.4531 1446409
191.19041 742.4754 3174.8757 2893082
211.68906 748.45044 3200.4253 3353377
232.87254 755.66547 3231.2773 3024670
254.89671 764.30518 3268.2212 4407095
278.62738 776.48071 3320.2847 2301464
296.19299 771.00262 3296.8601 1972498
316.73138 773.46179 3307.3755 985604
336.80112 774.55664 3312.0574 1051137
352.34195 765.68909 3274.1389 2432019
376.47293 775.44043 3315.8364 3484706
392.60486 768.56561 3286.4392 2760983
415.4826 774.92224 3313.6206 2234639
434.56036 773.93756 3309.4099 3287583
453.74954 773.22778 3306.375 1577223
477.31915 779.73248 3334.1895 1643272
496.93582 779.51941 3333.2783 2103824
516.07385 778.60052 3329.3489 2432534
537.20367 780.64374 3338.0859 2893086
555.49347 778.56128 3329.1812 2235926
577.51929 781.67841 3342.5105 3091235
590.84949 773.20935 3306.2961 3025698
614.48724 778.34003 3328.2351 2762524
636.10095 780.66748 3338.1877 4604471
661.75684 787.66589 3368.113 3946540
677.49017 782.78986 3347.2629 2037771
695.96509 781.26874 3340.7585 2695186
711.38055 776.49231 3320.3342 1774343
730.19965 775.58801 3316.4675 2563860
753.03143 778.88165 3330.5513 3024155
767.05389 773.12793 3305.948 3155228
789.20868 775.65332 3316.7468 2629140
805.96265 772.87708 3304.8752 3747364
811.93726 760.14075 3250.4138 1708038
829.63287 758.71362 3244.3113 2037003
860.05359 768.72485 3287.1201 1708037
882.54126 771.35913 3298.3845 2497551
897.76624 767.66907 3282.6055 2102540
917.43158 767.85193 3283.3875 2300177
927.57684 760.22467 3250.7727 1971209
962.73767 772.99298 3305.3708 1050112
991.00269 779.82599 3334.5891 1838854
1000.5468 771.948 3300.9026 2036233
1019.6885 771.63507 3299.5645 1707268
1035.9275 769.17859 3289.0603 853248
1053.2959 767.63586 3282.4636 1510403
1082.3214 774.49084 3311.7759 1839624
1107.4222 778.3432 3328.2488 1905160
1130.0199 780.33221 3336.7539 1642245
1147.0409 778.46814 3328.783 787200
1166.0502 777.99365 3326.7539 721664
1185.6887 777.94775 3326.5576 984064
1195.1603 771.34174 3298.3101 1444868
1216.8655 772.71667 3304.1895 1313281
1243.3424 777.03021 3322.6345 1708036
1264.2062 777.75592 3325.7378 2299658
1293.5844 783.61719 3350.801 2102277
1303.9398 777.95215 3326.5767 2168070
1323.3159 777.75739 3325.7439 2562569
1341.8595 777.08643 3322.8745 2168067
1357.4335 774.73975 3312.8401 2101765
1377.2175 774.82867 3313.2205 2364937
1400.87 777.06097 3322.7656 2759698
1411.5425 772.13104 3301.6851 2102280
1451.5588 783.16797 3348.8799 2431760
1476.1931 785.72003 3359.7927 1115904
1487.218 781.05682 3339.8525 1181697
1519.2841 787.42139 3367.0679 1510917
1533.3577 784.41663 3354.219 655360
1552.1095 783.85132 3351.802 2497036
1608.355 801.9964 3429.3914 2891794
1615.9562 795.73505 3402.6174 2562570
1640.4797 797.85822 3411.6965 2891536
1666.629 800.71094 3423.8948 2628621
1684.3326 799.48621 3418.6575 2957327
1705.3682 799.85321 3420.2271 3089171
1741.7319 807.31653 3452.1409 3089171
1737.426 795.97443 3403.6409 3089171
1768.5737 800.94873 3424.9114 2891536
1790.5187 801.68982 3428.0803 3549723
1801.2062 797.43018 3409.8662 3417877
1831.6962 801.93494 3429.1287 2891533
1868.0721 808.88953 3458.8669 3023119
1903.4868 815.28137 3486.199 2694153
1922.4216 814.55334 3483.0857 2759433
1956.3635 820.1319 3506.9404 3681048
1984.9836 823.3858 3520.854 3286545
2005.4484 823.22418 3520.1628 3352082
1986.0989 806.89062 3450.3196 3615255
1997.4636 803.24103 3434.7136 3219983
2014.8164 802.04871 3429.615 3417361
2069.979 815.78113 3488.3359 3285518
2092.3503 816.44659 3491.1814 3482382
2100.3052 811.52881 3470.1528 3811604
2124.2881 812.83929 3475.7566 3219724
2145.6169 813.11884 3476.9519 3615254
2168.7788 814.08118 3481.0669 3483930
2206.5356 820.45221 3508.3096 2300434
2281.24 840.31409 3593.2407 2563608
2269.3315 828.19934 3541.437 2366486
2312.0408 836.0567 3575.0359 1642763
2325.2231 833.19116 3562.7825 2629398
2354.075 835.94153 3574.5432 2102537
2357.0234 829.52643 3547.1118 2167816
2396.5815 835.99518 3574.7725 2694155
2415.7451 835.29871 3571.7944 2496777
2457.2712 842.27966 3601.6453 3681308
2495.8557 848.14056 3626.707 3615258
2527.9121 851.70215 3641.9368 3417878
2546.3943 850.6687 3637.5178 3746843
2559.262 847.79266 3625.2197 3088912
2577.2134 846.6347 3620.2681 3023119
2603.2209 848.12048 3626.6211 2891277
2623.3623 847.68634 3624.7646 2299398
2617.054 838.78192 3586.689 2562826
2616.637 831.89404 3557.2356 3220499
2640.8049 832.86975 3561.4082 3681050
2678.823 838.1637 3584.0452 3944223
2705.4639 839.84247 3591.2239 4075810
2743.97 845.14966 3613.9177 1971467
2745.0435 838.93451 3587.3413 3220500
2752.6265 834.789 3569.615 4602153
2808.9885 845.38727 3614.9338 4667946
2796.7537 835.33655 3571.9561 4799531
2836.2153 840.76147 3595.1536 5456947
2849.1458 838.29932 3584.6252 4207138
2887.239 843.22241 3605.677 4272417
2881.0134 835.22498 3571.4792 4469796
2928.2031 842.71667 3603.5142 3482902
2930.3547 837.23199 3580.0615 3153937
2945.7451 835.58154 3573.0039 2693386
2969.8555 836.4104 3576.5481 2824972
2990.4275 836.23804 3575.811 3022864
3040.3152 844.20825 3609.8923 3153937
3030.3193 835.55536 3572.8918 3219732
3053.2073 836.02673 3574.9075 3154197
3081.2842 837.90259 3582.9287 2892053
3097.6855 836.59949 3577.3569 2497553
3126.7673 838.71558 3586.4053 2499099
3175.552 846.05243 3617.7783 4079674
3187.3389 843.49988 3606.863 6711656
3254.2468 855.47131 3658.054 7896703
3383.4578 883.55426 3778.1384 5791072
3407.8601 884.07819 3780.3789 4803408
3457.2302 891.0304 3810.1067 3487288
3484.1663 892.14783 3814.885 4210500
3524.6042 896.68579 3834.2898 3420727
3572.8645 903.14313 3861.9016 5329494
3594.3369 902.78979 3860.3909 4474185
3604.8313 899.70105 3847.1833 7040113
3633.9355 901.26672 3853.8782 7040883
3682.0806 907.50574 3880.5566 7501433
3727.3518 912.96332 3903.8936 6646124
0 0 0 0
0 0 0 0
0 0 0 0
0 0 0 0
0 0 0 0
0 0 0 0
0 0 0 0
0 0 0 0
-2518.5549 680.34094 2837.3086 1578252
-2441.8157 664.04303 2769.3396 2827805
-2438.5991 667.65417 2784.3994 3025185
-2472.9128 681.65973 2842.8083 1709837
-2441.1462 677.5174 2825.5332 2498326
-2435.0295 680.4859 2837.9131 1972494
-2433.3015 684.73065 2855.6155 1971980
-2412.0894 683.51361 2850.54 1445636
-2400.9067 685.14154 2857.3291 1840395
-2348.0015 674.8017 2814.2075 3089949
-2345.0732 678.77991 2830.7983 3090461
-2316.397 675.3089 2816.3228 3814185
-2308.9604 678.02454 2827.6482 3879721
-2303.4292 681.34344 2841.4895 3551783
-2288.6379 681.95197 2844.0273 3156769
-2271.7891 681.95197 2844.0273 2959647
-2244.114 678.67786 2830.3728 3091233
-2217.3015 675.61713 2817.6084 2893855
-2151.2195 660.45374 2754.3706 4933437
-2166.8892 670.34937 2795.6394 3551783
-2159.0337 673.06354 2806.9587 4078128
-2124.605 667.4715 2783.6377 3749161
-2127.4407 673.59076 2809.1575 4012590
-2118.0459 675.9035 2818.8025 2499093
-2122.4763 682.69989 2847.1465 2630680
-2116.8542 686.34589 2862.3518 5393985
-2124.1521 694.27356 2895.4133 2893852
-2109.5708 695.12103 2898.9478 3946540
-2099.6262 697.52271 2908.9639 3551525
-2091.2104 700.47626 2921.2812 3024669
-2044.1711 690.43372 2879.3997 2564119
-2016.772 686.91156 2864.7109 2037773
-2004.0966 688.38715 2870.8647 1906189
-1963.6959 680.28314 2837.0674 1248259
-1981.0399 692.21643 2886.8342 1906187
-1957.5437 689.96277 2877.4355 2103567
-1946.0826 691.94873 2885.7178 2432532
-1925.3165 690.63202 2880.2268 2629911
-1905.4749 689.6264 2876.033 1182723
-1897.668 692.99762 2890.0923 2630166
-1875.7974 691.24756 2882.7937 2300944
-1854.1366 689.5434 2875.6865 2695959
-1846.5103 693.07532 2890.4163 2761496
-1815.9435 687.98218 2869.1758 2564888
-1824.3713 697.70587 2909.7275 2499094
-1820.3231 702.79816 2930.9646 3749164
-1800.9487 702.0144 2927.696 1380620
-1789.8206 704.46106 2937.8997 2499097
-1781.9146 708.23639 2953.6443 2959648
-1760.9388 706.84045 2947.8228 2762012
-1738.2708 704.73041 2939.0229 1708809
-1729.8514 708.4129 2954.3806 1906188
-1690.1862 699.2439 2916.1421 3945514
-1644.4154 687.33368 2866.4712 3353378
-1671.4536 705.92511 2944.0054 2629654
-1658.0652 707.65472 2951.2185 1512200
-1639.6357 707.2467 2949.5171 1314567
-1624.6635 708.33728 2954.0652 1971983
-1602.6149 706.33276 2945.7056 1906190
-1587.8457 707.52777 2950.6892 1116931
-1575.1277 709.67358 2959.6379 2564633
-1549.1967 705.84747 2943.6816 2498840
-1538.6055 709.00299 2956.8416 2104339
-1532.38 714.26617 2978.7913 2630426
-1509.6136 711.85217 2968.7239 2629657
-1487.4824 709.68433 2959.6829 1905933
-1470.8773 710.13269 2961.5527 1577225
-1460.5267 713.64801 2976.2131 1314310
-1445.2543 714.81494 2981.0796 2103567
-1413.0527 707.53412 2950.7156 2366994
-1393.3679 706.41663 2946.0552 1971723
-1379.8589 708.44159 2954.5 2432274
-1374.496 714.75464 2980.8284 3813670
-1346.5197 709.31976 2958.1626 3156253
-1364.6874 728.36975 3037.6091 3024925
-1307.2996 707.06415 2948.7556 3551785
-1287.8737 705.99146 2944.282 1775377
-1271.1493 706.39056 2945.9465 3814702
-1256.703 708.08435 2953.0103 4143666
-1245.4865 711.67151 2967.9702 2695964
-1253.0946 726.27173 3028.8594 2893600
-1218.5283 716.49768 2988.0974 3682859
-1208.3353 720.97809 3006.7827 3814187
-1167.9747 707.32324 2949.8362 2366742
-1166.1116 716.92169 2989.8657 3090722
-1147.6217 716.43646 2987.8423 3090722
-1127.2931 714.77026 2980.8933 2564120
-1109.9089 714.94751 2981.6326 1643018
-1100.6775 720.4671 3004.6516 1116161
-1072.2617 713.4043 2975.1968 1510917
-1050.7679 710.78784 2964.2849 3616805
-1029.8861 708.5033 2954.7576 2958874
-1016.3237 711.26227 2966.2637 3222560
-1019.7007 726.1817 3028.4839 5525316
-1004.7477 728.34808 3037.5186 3881517
-986.24091 727.97028 3035.9429 4078126
-950.88397 714.90979 2981.4753 3288610
-934.81171 716.12836 2986.5574 3682856
-926.11334 723.15192 3015.8484 3287840
-913.79144 727.56653 3034.2593 4011564
-894.01343 726.10266 3028.1543 1577737
-868.3667 719.71478 3001.5142 2827806
-849.45972 718.76263 2997.5432 1380880
-819.97485 708.6283 2955.2788 4012594
-819.82037 723.95227 3019.1863 4605243
-805.41669 727.09631 3032.2981 2367768
-796.43134 735.38672 3066.8728 2301975
-774.84772 732.16016 3053.4165 2235668
-759.26825 734.5882 3063.5425 2103824
-728.69177 722.27032 3012.1719 1774601
-708.3175 719.70026 3001.4534 2169360
-701.16443 730.77734 3047.6497 1906446
-680.03455 727.48785 3033.9312 3090722
-662.93024 728.44312 3037.915 3354408
-649.17072 733.22961 3057.8767 1709328
-635.87366 738.82831 3081.2256 393728
-600.20441 717.99518 2994.3425 590850
-581.36951 716.64441 2988.7095 262144
-566.55762 720.32373 3004.0537 854019
-552.40991 725.11359 3024.0293 1050883
-529.52911 718.37683 2995.9343 1446666
-521.09351 731.44928 3050.4519 2301719
-511.71561 744.09088 3103.1726 4538937
-493.12457 743.77844 3101.8699 2959650
-477.32907 747.82153 3118.731 3091237
-453.88724 739.72852 3084.9797 2893861
-441.9216 750.44458 3129.6702 3223596
-423.90726 751.37793 3133.5627 3490877
-405.67838 751.99896 3136.1528 3690055
-376.72543 731.8465 3052.1086 2375222
-364.10101 742.98199 3098.5481 3230530
-356.93506 767.02972 3198.8374 3625289
-337.95358 766.95966 3198.5452 3164735
-314.18381 755.36926 3150.2083 3032636
-293.70871 750.73621 3130.8867 2506035
-282.96588 772.03174 3219.698 2572084
-262.30365 767.38593 3200.323 3952968
-242.87384 765.90265 3194.137 3489849
-222.15605 759.76379 3168.5354 2962220
-202.47272 756.3562 3154.3242 2171165
-183.22479 754.04736 3144.6956 2236696
-161.24159 738.68506 3080.6282 3090976
-142.27486 734.98425 3065.1941 2038545
-126.76849 750.69196 3130.7019 1643788
-108.47514 752.45123 3138.0391 2104854
-89.03537 745.34137 3108.3879 6052950
-70.234421 741.26587 3091.3914 724233
-52.710705 752.55023 3138.4517 1184528
-34.048 751.01044 3132.03 723978
-15.47371 750.0683 3128.1011 1776406
3.0754678 754.38525 3146.1045 1052426
21.794409 757.18909 3157.7979 1184010
39.679989 741.82306 3093.7148 1052679
58.004337 741.77808 3093.5273 1907217
76.192924 740.43536 3087.9277 1446921
94.299141 738.9671 3081.8044 2038801
112.00384 735.33905 3066.6738 1512457
132.11044 746.29205 3112.3525 1972753
150.50909 746.09564 3111.5334 1051652
170.37233 752.41003 3137.8672 1577996
189.55115 754.75684 3147.6543 3617322
210.06673 761.52917 3175.8979 1840396
229.13327 762.36707 3179.3921 1445639
250.57466 770.37891 3212.8049 3485221
269.97699 771.43317 3217.2017 2629913
290.70239 775.87964 3235.7451 2630169
311.6463 780.32306 3254.2761 1643790
326.90753 770.84894 3214.7651 591618
345.04999 768.83795 3206.3784 3025186
369.38565 780.11639 3253.4143 2037777
387.17612 777.13873 3240.9961 2761500
405.35727 775.18951 3232.8672 1774863
429.19968 783.75421 3268.5854 1576712
448.27856 783.25629 3266.509 1971981
468.38043 784.51306 3271.7505 1642759
491.92145 791.20154 3299.6438 1512201
504.93277 781.08997 3257.4746 2499095
520.25671 775.16876 3232.7805 986374
550.62573 791.28882 3300.0078 3091488
565.08984 784.23053 3270.5723 3485990
574.97607 771.49786 3217.4714 2432788
598.90991 777.82629 3243.8638 2564373
625.34686 786.91107 3281.7512 2827803
640.4527 781.61945 3259.6826 3683366
666.93713 790.11768 3295.1238 2498067
667.9234 768.784 3206.1533 2564371
696.74963 779.78802 3252.0449 1971977
720.25403 784.40405 3271.2957 1181952
730.04022 774.22968 3228.8643 2497298
756.49841 781.8045 3260.4546 3023896
755.45074 761.284 3174.8752 2958104
775.46838 762.47266 3179.8325 3155484
797.5946 765.62909 3192.9961 2431760
813.5946 762.89484 3181.593 2892824
838.21375 768.18329 3203.6482 2366224
865.28607 775.43616 3233.8958 2760982
877.25214 769.13025 3207.5974 2497810
899.97699 772.32458 3220.9192 2629396
911.92188 766.32745 3195.9087 1905672
937.3598 771.68237 3218.241 2037258
951.03064 767.32977 3200.0886 1641732
972.65106 769.43579 3208.8718 1905673
998.7403 774.92859 3231.7791 1313538
1031.7681 785.49707 3275.854 2037002
1038.3684 775.92737 3235.9441 2563602
1057.8376 776.14661 3236.8586 2300173
1085.6899 782.39911 3262.9343 1642499
1096.9348 776.67432 3239.0593 1708039
1120.2488 779.5448 3251.0305 1905417
1139.722 779.69086 3251.6394 2694932
1148.7183 772.78363 3222.8335 2037003
1168.5391 773.26544 3224.843 1115905
1197.7325 779.83411 3252.2373 1641988
1215.2012 778.68176 3247.4314 2036745
1238.2841 781.10681 3257.5449 1970696
1250.6221 776.78351 3239.5149 1773314
1289.9312 789.09003 3290.8381 1904900
1287.3101 775.76202 3235.2546 1707008
1299.8695 771.83887 3218.8936 2430730
1326.5634 776.30072 3237.5012 2298887
1355.0765 781.68481 3259.9551 2562316
1372.2903 780.49097 3254.9763 2759695
1392.0315 780.74786 3256.0479 2365450
1410.8704 780.49847 3255.0078 3089173
1453.973 793.49774 3309.2202 2891795
1466.783 789.83893 3293.9614 1970694
1491.1735 792.43036 3304.7686 1181696
1512.4083 793.29926 3308.3923 1379072
1538.1453 796.47723 3321.646 1378816
1563.5399 799.40002 3333.835 1641729
1550.6219 782.90576 3265.0471 2365450
1591.4982 793.64398 3309.8301 3352086
1612.2499 794.20721 3312.1792 2628363
1621.787 789.29901 3291.7097 2167811
1654.9976 795.89209 3319.2056 2957326
1671.6865 794.47833 3313.3096 3352085
1701.0979 799.07355 3332.4736 3286292
1732.7716 804.61395 3355.5793 2957327
1782.5734 818.35095 3412.8684 2233606
1775.5067 805.96515 3361.2144 2825742
1810.0919 812.5517 3388.6833 2628620
1834.5883 814.51447 3396.8689 2891278
1862.2321 817.81696 3410.6416 2891533
1888.0527 820.25653 3420.8154 3878171
1904.4526 818.59485 3413.8857 3615256
1915.792 814.81586 3398.1257 3023117
1938.1246 815.74237 3401.9897 2562567
1940.4181 808.30225 3370.9614 2694153
1958.1206 807.36725 3367.062 2693897
1951.1597 796.3844 3321.2588 3088655
1980.962 800.47638 3338.324 2627335
1996.821 798.90887 3331.7866 2561542
2044.3003 809.89911 3377.6208 3153677
2071.1116 812.5675 3388.7493 2627333
2090.4817 812.29346 3387.606 3285519
2111.6724 812.7251 3389.4062 3483155
2158.822 823.04553 3432.4468 4207650
2184.8223 825.18536 3441.3708 3352087
2213.032 828.11243 3453.5779 1444612
2226.8193 825.63849 3443.2607 4142380
2243.6099 824.31287 3437.7322 4076585
2310.1597 841.1283 3507.8599 2432015
2340.8701 844.71124 3522.8022 2299657
2344.4006 838.5097 3496.939 3088914
2379.6458 843.66046 3518.4199 4141602
2421.2815 850.96777 3548.8945 3286293
2463.4685 858.34149 3579.646 2759949
2464.9917 851.54169 3551.2881 3483672
2510.4556 859.90808 3586.1792 3023121
2509.657 852.42084 3554.9541 3549208
2506.5151 844.26868 3520.9565 2693899
2520.4646 841.96063 3511.3308 2166787
2539.0542 841.22766 3508.2739 2364164
2562.1133 841.9754 3511.3923 2890764
2589.4094 844.09216 3520.2205 3088143
2574.175 832.42194 3471.5505 3087886
2569.0854 824.19122 3437.2251 3943450
2643.075 841.26001 3508.4089 4338208
2650.8035 837.13678 3491.2134 4404513
2672.8367 837.56006 3492.9785 4470307
2694.0229 837.71338 3493.6179 4273186
2726.7278 841.41876 3509.071 4272930
2756.447 844.15381 3520.4773 4141600
2751.4307 836.28986 3487.6814 4404516
2753.7739 830.76349 3464.6343 4535589
2804.4839 839.80231 3502.3298 4272417
2836.9539 843.2865 3516.8604 4140830
2850.5042 841.1369 3507.8958 3745559
2883.3777 844.67932 3522.6689 4009245
2892.542 841.27502 3508.4717 3219728
2895.2246 836.04773 3486.6714 2890765
2923.9565 838.36328 3496.3284 2758923
2948.2078 839.37067 3500.5295 3351316
2958.5527 836.43243 3488.2759 3219730
2986.6008 838.50507 3496.9199 2825487
3005.2715 837.93469 3494.541 3220245
3036.1121 840.74213 3506.249 2957332
3036.9133 835.24951 3483.3428 2629395
3042.312 831.08704 3465.9832 2366996
3087.5242 837.78351 3493.9104 3946803
3193.8811 860.87164 3590.1975 4013628
3296.1501 882.55975 3680.6465 6975086
3370.7356 896.59906 3739.1963 6646122
3423.8706 904.78662 3773.3418 3092274
3419.146 897.67725 3743.6929 986897
3434.0178 895.77124 3735.7439 1249817
3468.3208 898.92596 3748.9004 1118488
3526.2483 908.12457 3787.2625 1052179
3555.1426 909.77716 3794.1543 3354421
3574.6204 909.01428 3790.9729 2565160
3577.3704 904.03375 3770.2021 722700
3626.0061 910.63885 3797.7478 788750
0 0 0 0
0 0 0 0
0 0 0 0
0 0 0 0
0 0 0 0
0 0 0 0
0 0 0 0
0 0 0 0
-2434.0391 673.75525 2742.0959 3090724
-2466.0674 687.20734 2796.844 2367514
-2426.7102 680.81415 2770.8247 2630684
-2401.8054 678.41608 2761.0649 2038292
-2389.6489 679.61078 2765.927 2827805
-2374.418 679.94153 2767.2732 2038546
-2384.0459 687.44507 2797.8115 2827548
-2349.3286 682.17694 2776.3711 2169359
-2310.2302 675.55359 2749.4148 3748135
-2311.0251 680.58441 2769.8896 3222048
-2286.3613 678.13611 2759.9255 3156255
-2290.3989 684.22687 2784.7139 4340529
-2269.9502 683.03784 2779.8748 4800824
-2251.9998 682.58862 2778.0464 1643530
-2207.0103 673.87695 2742.5911 3551783
-2204.1624 677.99872 2759.3662 4341299
-2168.0457 671.87219 2734.4321 4143920
-2158.635 673.99182 2743.0586 3485989
-2137.2134 672.36499 2736.4375 3617575
-2136.7803 677.3667 2756.7939 4012333
-2109.2207 673.78009 2742.197 4407604
-2095.812 674.6933 2745.9136 4012589
-2069.6848 671.49432 2732.8943 4867899
-2082.5698 681.00195 2771.5891 3091744
-2105.3777 693.93127 2824.2097 3420451
-2079.8635 691.01324 2812.3337 3617318
-2059.5266 689.78217 2807.3232 3551267
-2056.2842 694.3028 2825.7217 3222303
-2061.885 701.90826 2856.6748 2893337
-2022.7998 694.30151 2825.7163 2630166
-1997.1056 691.20245 2813.1038 2235153
-1984.5734 692.64502 2818.9749 2235153
-1959.9082 689.84161 2807.5652 1971982
-1912.7966 679.02185 2763.5303 1840398
-1962.2264 702.58234 2859.4185 1379846
-1937.9808 699.94373 2848.6794 1445640
-1922.7361 700.53821 2851.0989 2103567
-1897.6367 697.52081 2838.8186 1643015
-1900.163 704.69476 2868.0156 1643018
-1878.0264 702.76917 2860.1787 2301201
-1840.2876 694.91687 2828.2209 2695702
-1830.7336 697.66113 2839.3896 2038286
-1815.7318 698.3609 2842.2375 4604470
-1811.8927 703.40729 2862.7756 3552296
-1767.4429 692.63428 2818.9312 3683625
-1767.5371 699.2785 2845.9722 3090977
-1782.3937 711.9472 2897.532 2828061
-1749.4485 705.58307 2871.6309 2169876
-1713.9736 698.06354 2841.0276 2170131
-1724.4702 709.30389 2886.7742 2959647
-1684.7206 699.89514 2848.4819 2629910
