# .PCD v0.7 - Point Cloud Data file format
VERSION 0.7
FIELDS x y z rgb
SIZE 4 4 4 4
TYPE F F F U
COUNT 1 1 1 1
WIDTH 1273
HEIGHT 1
VIEWPOINT 0 0 0 1 0 0 0
POINTS 1273
DATA ascii
96.065826 1130.3839 7489.9287 2957336
138.16663 1112.1027 7368.7974 2759957
181.49435 1110.1045 7355.5571 2693908
223.71486 1103.4189 7311.2593 2759698
262.68671 1085.478 7192.3823 2891285
300.96558 1070.0812 7090.3628 2825748
335.20422 1045.8502 6929.8081 2759700
366.2558 1018.048 6745.5908 2891799
389.11697 975.18958 6461.6104 2826266
384.58899 877.51471 5814.4165 393216
415.57092 870.26068 5766.3511 2891543
548.05286 1060.5177 7026.9951 3023126
589.30804 1059.8445 7022.5347 3154196
637.68695 1071.2271 7097.9551 3153937
686.263 1081.5118 7166.1021 3219730
740.6886 1099.2799 7283.8335 3088144
817.88342 1147.0238 7600.1851 3021838
839.36353 1115.7263 7392.8081 2956557
916.99579 1158.472 7676.041 3153936
942.20679 1134.0819 7514.4321 3285523
992.47766 1140.6948 7558.249 3614491
1021.2417 1123.0853 7441.5679 3153936
1062.6429 1120.2554 7422.8169 3285523
1105.8032 1119.4312 7417.356 3219730
1176.8417 1145.8131 7592.1626 2956045
1218.8022 1142.9836 7573.415 3219217
1280.7952 1158.4742 7676.0562 3350802
1311.8309 1145.8623 7592.4883 3482389
1372.7137 1159.2928 7681.48 3548181
1416.0276 1157.5004 7669.6021 3285265
1456.8737 1153.8646 7645.5122 3482644
1514.4363 1163.2887 7707.9565 3548436
1584.9683 1181.8318 7830.8223 3416594
1657.4412 1200.7263 7956.0181 3351058
1678.8323 1182.5931 7835.8672 3285009
1733.7096 1188.3894 7874.2734 3350546
1787.6125 1193.2313 7906.3564 3482389
1833.5518 1192.6461 7902.4785 3219217
1895.3285 1202.135 7965.3521 3021837
1948.9611 1206.123 7991.7764 3416851
2018.2543 1219.3835 8079.6406 3811610
2072.356 1223.064 8104.0273 3549208
2102.6008 1212.8167 8036.1289 3483674
2195.8154 1238.541 8206.5781 2958874
2284.4509 1260.6239 8352.8994 6382689
2309.7844 1247.5793 8266.4658 7896958
2416.1687 1277.9452 8467.6709 7830909
2442.9385 1265.8232 8387.3506 7896702
2448.7991 1243.5662 8239.875 8028287
2518.116 1253.7743 8307.5137 7699065
2601.0002 1270.2166 8416.46 6843498
2639.7058 1264.8712 8381.042 6579295
2582.6335 1214.6764 8048.4517 4012597
2559.4031 1181.9297 7831.4712 3156770
2572.199 1166.6897 7730.4912 3813671
2518.9309 1122.5421 7437.9692 4076583
2529.3066 1107.7872 7340.2026 4471337
2475.4661 1065.881 7062.5317 5457974
2475.6841 1048.2573 6945.7573 5655096
2476.8574 1031.6078 6835.4375 5524023
2475.9993 1014.6615 6723.1514 5918524
2482.8704 1001.3689 6635.0747 5589303
2530.3521 1004.6142 6656.5781 5326386
2534.7559 990.91943 6565.8364 5391922
2510.198 966.48755 6403.9507 5062701
2516.251 954.39362 6323.8159 5325871
2510.0332 938.06866 6215.647 4997162
2530.4924 932.04156 6175.7114 4733990
2553.0569 926.95056 6141.9785 4931369
2598.3381 930.13464 6163.0762 4602150
2661.6838 939.60748 6225.8433 5391666
2617.3086 911.31421 6038.3721 5523254
2587.2976 888.71802 5888.6494 5589045
2580.7292 874.66821 5795.5557 4141088
2658.1904 889.09308 5891.1348 4075294
2720.9861 898.30237 5952.1558 4470566
2761.2563 899.93469 5962.9712 5391668
2765.042 889.7851 5895.7197 5260081
2837.9187 901.84467 5975.627 5326130
2807.5359 881.19727 5838.8169 5589556
2830.886 877.71216 5815.7246 6773831
2727.3564 835.44501 5535.6626 5261102
2751.9495 832.96271 5519.2144 5721399
2790.7798 834.79724 5531.3706 5326383
2779.6833 821.82812 5445.437 4404511
2779.0532 812.21558 5381.7441 4075290
2825.0151 816.28375 5408.7002 4535329
2884.0967 824.00903 5459.8877 5193773
2901.458 819.77533 5431.8354 4798758
2953.6333 825.3631 5468.8594 5062703
2895.3037 800.28503 5302.6924 4733481
2923.5496 799.4187 5296.9517 3944479
2945.8018 796.94916 5280.5884 3879460
2940.4766 787.14923 5215.6543 4405551
3011.5986 797.80481 5286.2583 3945258
3087.9832 809.62085 5364.5513 1510925
3148.5601 817.09375 5414.0669 722179
3065.782 787.58868 5218.5659 459522
3463.229 880.80914 5836.2456 328193
3559.8684 896.43799 5939.8022 722695
3999.9172 997.39105 6608.7178 525574
4038.1052 997.1532 6607.1411 262659
4296.5229 1050.7803 6962.4751 526346
4441.4448 1075.8944 7128.8809 1184788
4601.6494 1104.2026 7316.4517 3618874
4580.0762 1088.7705 7214.1982 3948094
4832.5918 1138.1775 7541.5688 3882300
4813.3647 1123.2643 7442.7544 3816507
4806.3159 1111.4381 7364.3936 3224116
4732.1387 1084.441 7185.5117 263430
4810.4268 1092.5537 7239.2661 3
4647.0688 1046.125 6931.6289 394760
4828.9102 1077.5383 7139.7739 789774
5121.9658 1133.0074 7507.3125 2960944
5198.2764 1139.989 7553.5728 3290164
5044.7212 1096.8718 7267.8774 2829613
5173.3638 1115.3234 7390.1372 2500647
5351.9536 1144.1428 7581.0957 1447448
5380.8071 1140.7383 7558.5371 1052433
5405.543 1136.5243 7530.6152 2500136
5430.127 1132.3477 7502.9404 2105378
5394.1978 1115.7224 7392.7817 3487288
5350.8335 1097.8395 7274.2896 3223859
5499.6357 1119.3545 7416.8477 2302757
5399.7236 1090.3081 7224.3867 2500136
5395.4473 1080.8774 7161.8989 2171171
5398.0352 1072.9584 7109.4272 2500136
5463.1611 1077.4962 7139.4951 1908255
5499.7358 1076.3766 7132.0757 1447447
5600.541 1087.7489 7207.4287 526859
5759.6191 1110.1813 7356.0664 329226
5710.4648 1092.4409 7238.5186 329226
5705.9009 1083.4319 7178.8242 1447707
5698.7046 1074.0601 7116.7261 1776672
5735.5747 1073.0701 7110.167 2303016
5787.3613 1074.865 7122.0601 789262
5797.1826 1068.8962 7082.5112 1315607
5916.9263 1083.1354 7176.8599 2829104
5954.0908 1082.1626 7170.4141 2960943
5883.1357 1061.6918 7034.7744 1447704
5911.9429 1059.3859 7019.4956 3355445
5981.0269 1064.2791 7051.918 3750459
5965.9316 1054.2292 6985.3276 2236964
5949.4585 1044.076 6918.0522 2829101
6004.6528 1046.5529 6934.4634 3289652
6048.3687 1047.0089 6937.4854 1316118
6002.6797 1032.0867 6838.6108 1842208
6050.6011 1033.3518 6846.9937 3223606
6049.6201 1026.3038 6800.2944 3223605
6029.4448 1016.1146 6732.7798 1315351
6106.499 1022.3372 6774.0107 3223605
6044.2871 1005.315 6661.2217 1513243
6075.2842 1003.9161 6651.9526 789777
6133.2793 1006.9678 6672.1733 723984
6245.5239 1018.83 6750.7725 855571
6236.9409 1010.9564 6698.6011 2105894
6157.5913 991.784 6571.5649 1382429
6199.2822 992.22571 6574.4917 1448222
6226.4424 990.35071 6562.0679 2566447
6200.6372 980.12665 6494.3237 1776931
0 0 0 0
0 0 0 0
0 0 0 0
0 0 0 0
0 0 0 0
-4878.1562 845.02832 5387.6738 5397348
-4894.1489 853.38226 5440.9365 6384243
-4867.7036 854.39819 5447.4141 6778744
-4879.2588 862.14221 5496.7876 6910842
-4869.5283 866.20398 5522.6841 6976378
-4770.2471 854.28333 5446.6816 7174014
-4708.3599 848.94275 5412.6313 7436930
-4663.0693 846.54193 5397.3242 7503236
-4643.5195 848.81311 5411.8052 7503237
-4464.71 821.80164 5239.5869 7568774
-4541.7617 841.8371 5367.3276 7503238
-4553.144 849.89709 5418.7158 7568775
-4567.5698 858.64368 5474.4814 7569029
-4395.0752 832.12531 5305.4082 7634566
-4314.0576 822.66943 5245.1196 7700614
-4012.6724 770.74823 4914.084 7634821
-4031.28 779.98114 4972.9507 7766407
-4286.5952 835.48584 5326.834 7832200
-4260.4595 836.55048 5333.6216 7963786
-4271.7686 845.03827 5387.7373 7701128
-4280.1133 853.06305 5438.9009 7832200
-4239.9253 851.46313 5428.7007 7766664
-4290.6147 868.22833 5535.5908 7701128
-4266.8062 870.06055 5547.2729 7766921
-4198.8062 862.84003 5501.2368 7766921
-4174.8179 864.62164 5512.5957 7766924
-4174.897 871.45508 5556.1641 7832717
-4136.9072 870.38757 5549.3579 7767180
-4130.3833 875.97626 5584.9897 7832716
-4145.2324 886.22461 5650.3306 7832716
-4102.6714 884.26605 5637.8433 7766923
-4075.3127 885.5788 5646.2129 7767180
-4063.8862 890.40405 5676.9775 7832973
-4034.7261 891.39203 5683.2764 7766923
-4059.0989 904.32306 5765.7212 7766923
-4013.3938 901.72852 5749.1792 7766923
-3995.0972 905.30048 5771.9526 7766923
-3928.1052 897.80426 5724.1592 7767179
-3973.3433 916.05206 5840.5024 7832715
-3916.8118 910.95154 5807.9824 8095117
-3879.9187 910.36835 5804.2646 8095370
-3886.5615 920.0813 5866.1914 8029578
-3880.0408 926.82501 5909.1875 8358543
-3845.4353 926.92181 5909.8052 8358286
-3836.4338 933.2489 5950.1445 8424077
-3834.7405 941.48755 6002.6724 7700354
-3840.406 951.7041 6067.8101 6580331
-3840.9998 960.84497 6126.0898 5724508
-3758.5679 949.19287 6051.7993 3158577
-3661.1133 933.4859 5951.6558 3223343
-3898.8367 1003.7659 6399.7422 4012602
-3719.5151 967.0025 6165.3486 3881529
-3849.4109 1010.6978 6443.938 2696997
-3678.3672 975.46265 6219.2881 2828066
-3699.8015 991.07391 6318.8213 3419174
-3655.2703 989.15332 6306.5762 3418915
-3603.1033 985.10541 6280.7681 3352864
-3602.5713 995.23761 6345.3682 3090204
-3541.5984 988.71021 6303.7515 3484961
-3586.3669 1011.8782 6451.4639 3484962
-3554.0911 1013.5734 6462.272 3221790
-3434.6375 990.17297 6313.0771 3419166
-3499.2913 1019.918 6502.7231 3748133
-3425.8845 1009.6376 6437.1782 3485474
-3370.4678 1004.4872 6404.3413 3682854
-3301.1892 995.04138 6344.1172 3485218
-3319.6338 1012.1241 6453.0317 3288096
-3326.1536 1025.9265 6541.0322 3616806
-3251.4404 1014.7034 6469.4771 3156255
-3205.5959 1012.3293 6454.3398 3156255
-3191.4229 1020.0204 6503.3765 3222048
-3148.6545 1018.6484 6494.6289 3024156
-3073.1047 1006.5058 6417.2109 3287841
-3058.7009 1014.3365 6467.1377 3616807
-3043.7571 1022.1845 6517.1743 3551015
-2972.3708 1011.0355 6446.0913 3814187
-2953.2561 1017.6078 6487.9941 3221793
-2934.4573 1024.4634 6531.7041 3090464
-2911.1836 1029.9193 6566.4893 2826522
-2886.1606 1034.8958 6598.2178 2234642
-2849.384 1035.7363 6603.5771 2892828
-2813.3232 1036.8643 6610.7686 3353636
-2783.2358 1040.2566 6632.397 3419429
-2775.2893 1052.1399 6708.1621 4011566
-2651.04 1019.6364 6500.9282 3485224
-2622.1472 1023.391 6524.8667 3090464
-2574.1804 1019.7023 6501.3481 3024927
-2522.2437 1014.305 6466.9365 2892572
-2469.6138 1008.4582 6429.6587 3024158
-2476.1719 1026.9761 6547.7241 2695193
-2389.0691 1006.6199 6417.9385 2629399
-2351.8618 1006.9682 6420.1597 2695192
-2360.4417 1027.2548 6549.5005 2629399
-2347.3223 1038.6179 6621.9492 2497812
-2317.3943 1042.8036 6648.6362 2695190
-2308.8245 1056.9113 6738.583 3550500
-2265.9495 1055.5353 6729.8101 3353121
-2256.856 1070.1279 6822.8486 3813674
-2222.3108 1072.9645 6840.9336 3155744
-2142.1199 1053.4585 6716.5688 2760985
-2067.3579 1035.9346 6604.8408 3287586
-2035.908 1039.8564 6629.8462 3286816
-1993.2902 1038.1165 6618.7524 2892314
-1941.2588 1031.3055 6575.3276 2300177
-1941.4965 1052.5526 6710.793 2760472
-1890.3136 1046.2284 6670.4712 2432020
-1847.8026 1044.5361 6659.6821 2892572
-1841.7465 1063.8269 6782.6753 2760986
-1794.7947 1059.8296 6757.189 3024158
-1774.7299 1071.8887 6834.0747 4142382
-1706.9242 1055.0034 6726.4189 3682345
-1651.6647 1045.2507 6664.2388 2958621
-1602.1552 1038.7485 6622.7822 3221793
-1582.9293 1052.047 6707.5693 3945519
-1580.0311 1077.1613 6867.6914 3748396
-1509.8719 1056.5371 6736.1978 3550505
-1461.7159 1050.6082 6698.3955 2760734
-1423.8577 1051.9561 6706.9897 2299927
-1387.1761 1054.2758 6721.7793 2760735
-1387.6655 1085.818 6922.8843 2563099
-1336.6116 1077.7217 6871.2646 3023906
-1279.7542 1064.2904 6785.6299 3023905
-1229.556 1055.7056 6730.8955 2826526
-1188.3586 1054.5323 6723.4155 2892574
-1162.6562 1067.5048 6806.124 2168851
-1127.0197 1071.9604 6834.5322 2629144
-1076.853 1062.4127 6773.6587 2958109
-1032.7563 1058.3464 6747.7334 3221023
-988.13141 1053.3895 6716.1294 3155231
-947.47864 1052.4288 6710.0039 3089691
-913.76257 1059.4265 6754.6191 3155484
-875.71912 1061.818 6769.8672 3023899
-836.10706 1062.446 6773.8711 3352093
-786.74713 1050.1261 6695.3228 3351837
-752.27557 1057.4257 6741.8623 3154715
-708.32922 1051.479 6703.9478 3023129
-673.15686 1058.624 6749.5024 2891543
-616.422 1030.6201 6570.9575 3023385
-596.92584 1065.2986 6792.0586 2563348
-554.94843 1061.9696 6770.833 2431762
-523.41443 1079.6635 6883.645 2497555
-482.69522 1079.8002 6884.5161 2826519
-441.30624 1078.3254 6875.1138 2891799
-398.88657 1073.7762 6846.1089 3023128
-358.2973 1073.6821 6845.5093 2891285
-320.74033 1083.8104 6910.085 2957335
-278.14984 1077.4054 6869.248 3088920
-241.69197 1096.6306 6991.8223 2891542
-199.37927 1091.7487 6960.6963 3220507
-157.86806 1089.8538 6948.6147 3220506
-117.67788 1098.9587 7006.6665 3351837
-75.982796 1096.275 6989.5557 3220251
-35.121025 1113.5852 7099.9209 3351837
6.900157 1107.1102 7058.6377 3154715
48.281139 1097.2024 6995.4678 3088921
89.069466 1089.2 6944.4463 2957334
130.81377 1094.2509 6976.6499 2891285
173.50055 1102.8674 7031.5864 2891285
214.81816 1101.1292 7020.5044 2957078
253.38063 1088.1232 6937.5815 2693906
294.25662 1087.2961 6932.3086 2496784
324.2793 1051.4797 6703.9526 2628371
351.00995 1013.9695 6464.7974 2431763
366.87112 955.52948 6092.1997 2760474
383.95004 910.44556 5804.7568 393216
419.31863 912.57819 5818.3535 3022873
508.06424 1021.7292 6514.2715 2628112
564.1759 1054.4744 6723.0459 3351318
615.16339 1073.9552 6847.2505 3088147
668.341 1094.6127 6978.957 3088146
719.75146 1110.1377 7077.9404 3022353
761.92377 1110.4889 7080.1797 2758924
809.14935 1117.7842 7126.6924 3022353
848.31348 1113.772 7101.1113 3285523
898.18176 1123.5284 7163.3164 3153938
957.63287 1143.851 7292.8872 3351319
983.50952 1124.0469 7166.6211 3153680
1023.5468 1121.3962 7149.7217 3351316
1084.1517 1140.5945 7272.125 3417109
1106.2939 1119.407 7137.0386 3153169
1165.8325 1136.2257 7244.2705 2627080
1206.0011 1133.6426 7227.8013 3021838
1242.3634 1127.7812 7190.4307 3219217
1291.9117 1133.8816 7229.3252 3285010
1348.4298 1145.5115 7303.4736 3482132
1402.8423 1154.6849 7361.9614 3680024
1449.8899 1157.426 7379.438 3482389
1503.2594 1164.9056 7427.1255 3219217
1588.29 1195.7969 7624.0801 3087374
1610.2108 1178.7792 7515.5801 3416852
1659.2179 1181.9728 7535.9419 3746073
1681.5879 1166.5209 7437.4243 4337953
1718.2596 1161.5259 7405.5771 3351315
1800.4388 1186.7761 7566.5669 3614230
1859.0602 1195.6487 7623.1348 4009245
1948.0402 1223.1621 7798.5537 4075038
1959.9512 1202.131 7664.4644 3680537
2013.0586 1206.7474 7693.8984 3087887
2058.4463 1206.6346 7693.1787 2957585
2162.1433 1239.9664 7905.6929 3550241
2175.002 1220.8943 7784.0942 6711138
2281.5466 1254.1111 7995.8765 7501429
2351.3945 1266.2158 8073.0522 7304822
2368.4678 1249.9855 7969.5718 7633530
2451.6917 1268.6188 8088.3726 7567737
2483.5642 1260.4756 8036.4541 7370356
2511.3193 1250.5883 7973.4155 7304050
2532.8533 1238.0254 7893.3179 7171689
2561.0952 1229.1372 7836.6489 6447708
2578.1934 1215.3124 7748.5063 2959136
2556.8552 1184.1704 7549.9526 3287583
2473.2397 1125.752 7177.4927 4931636
2365.6521 1058.5814 6749.231 4734766
2392.4033 1052.7584 6712.1055 5919296
2404.8594 1040.9384 6636.7437 5590073
2430.4319 1035.0845 6599.4209 6313796
2428.3284 1017.8157 6489.3203 5984060
2431.2683 1003.1664 6395.9199 5391922
2441.7434 992.02789 6324.9038 4799784
2392.292 957.24731 6103.1519 5391407
2414.2095 951.63458 6067.3667 5325613
2461.3538 955.9845 6095.1011 4207902
2471.707 946.12579 6032.2441 4931626
2459.854 928.16907 5917.7568 5391920
2433.8027 905.43488 5772.8101 4668197
2529.4111 927.96393 5916.4492 5589556
2522.801 912.88885 5820.3345 5655351
2535.7517 905.20306 5771.332 4536614
2538.6431 894.17865 5701.043 5128753
2596.5144 902.55469 5754.4468 4602152
2583.9963 886.56342 5652.4907 4338980
2273.4629 770.04095 4909.5747 4733739
2701.2285 903.37146 5759.6543 4733994
2698.8523 891.31781 5682.8032 4997423
2688.5586 876.97858 5591.3804 5260336
2604.7715 839.30737 5351.1987 5391922
2677 852.20892 5433.4556 5523506
2563.29 806.31451 5140.8452 4997162
2637.843 820.02307 5228.2471 5457200
2666.2852 819.2453 5223.2886 4404254
2695.6865 818.77673 5220.3013 4864292
2760.2424 828.87543 5284.6875 5324844
2803.196 832.33331 5306.7344 4470304
2827.575 830.2605 5293.5186 4601635
2857.5371 829.85461 5290.9307 4732966
2879.7598 827.23425 5274.2236 3943450
2839.3599 806.87433 5144.4146 4273187
2872.9548 807.7511 5150.0044 4536362
2869.1946 798.2171 5089.2183 4076071
2877.9722 792.33325 5051.7041 2760984
2950.6157 803.97229 5125.9116 2761501
3026.77 816.32104 5204.6445 1511437
3021.8289 806.77002 5143.749 920071
3097.6804 818.76434 5220.2217 657416
3096.157 810.27228 5166.0786 131586
3600.7095 933.09143 5949.1411 1
3953.6064 1014.6105 6468.8843 131587
4161.7539 1057.774 6744.0835 986897
4274.6489 1076.1368 6861.1602 1513241
4305.7227 1073.7495 6845.939 1710878
4438.6382 1096.5668 6991.4155 1908258
4515.3403 1105.2029 7046.4775 3289909
4625.8906 1121.8899 7152.8691 2960944
4697.5962 1128.9386 7197.8096 3289909
4656.1001 1108.9004 7070.0513 2171428
4642.0703 1095.7025 6985.9053 2039842
4751.2515 1111.5632 7087.0288 1579291
4831.1289 1120.3506 7143.0552 789774
4807.0381 1105.0841 7045.7202 197637
4826.1509 1099.927 7012.8398 2
4835.1333 1092.569 6965.9268 394501
4829.2725 1082.0095 6898.603 328965
4925.2876 1094.2616 6976.7188 1513751
4964.6245 1093.8221 6973.9165 2171682
5084.0952 1110.8995 7082.7974 2303012
5181.0869 1122.8257 7158.8359 3092527
5072.4585 1090.3589 6951.8359 2434341
5109.7612 1089.5312 6946.5596 2631720
5207.2866 1101.4552 7022.583 1447446
5107.2183 1071.7261 6833.0386 591882
4939.8818 1028.4596 6557.1831 2
5175.0474 1069.0135 6815.7437 3
5143.2383 1054.2172 6721.4062 2
5242.9316 1066.3954 6799.0513 2171429
5281.6782 1066.0859 6797.0786 1974051
5584.2432 1118.6292 7132.0796 1513500
5493.6553 1092.2186 6963.6934 1513500
5484.6626 1082.3032 6900.4756 1447708
5374.2861 1052.6763 6711.5815 1381914
5580.877 1085.1136 6918.394 1447706
5647.0312 1089.9717 6949.3667 1842466
5568.769 1067.0861 6803.4546 855570
5765.9141 1096.9237 6993.6914 2960945
5780.4868 1091.8503 6961.3452 3224117
5675.0005 1064.3322 6785.8965 5197650
5665.9546 1055.161 6727.4233 4144962
5709.2939 1055.8052 6731.5312 3487031
5874.6714 1078.8525 6878.4741 3618360
5831.0308 1063.4614 6780.3442 4079424
5800.502 1050.6558 6698.6997 3421495
5815.7837 1046.2657 6670.71 3092533
6029.2388 1077.3458 6868.8682 1645342
6008.687 1066.4757 6799.563 526603
6015.5278 1060.5797 6761.9717 1316121
5967.5151 1045.1547 6663.626 4013634
5881.5908 1023.3362 6524.5171 3224118
5921.062 1023.4777 6525.4189 2303016
5963.5107 1024.1285 6529.5693 2303015
6051.606 1032.5597 6583.3237 1710879
6055.4048 1026.5918 6545.2739 1842465
6151.3784 1036.2271 6606.7056 3092532
6095.3877 1020.3032 6505.1797 3355704
6116.9453 1017.4788 6487.1714 2105637
6139.3706 1014.8329 6470.3022 1514015
6009.6167 987.22083 6294.2554 1185049
0 0 0 0
0 0 0 0
0 0 0 0
0 0 0 0
0 0 0 0
-4642.3486 834.55493 5127.2358 7569287
-4687.1943 848.1665 5210.8608 7634311
-4669.3101 850.5318 5225.3931 7634567
-4622.7256 847.66614 5207.7871 7700104
-4606.5479 850.375 5224.4297 7634567
-4604.9697 855.83398 5257.9678 7700616
-4525.6025 846.81171 5202.5376 7634823
-4089.6404 770.48352 4733.6021 7766409
-4065.4609 771.21649 4738.105 7700616
-4354.0562 831.70526 5109.729 7700872
-4316.7515 830.35229 5101.4165 7700872
-4314.1362 835.70007 5134.2715 7700871
-4313.2964 841.47015 5169.7212 7701384
-4304.6948 845.79773 5196.3081 7701128
-4330.4707 856.99078 5265.0747 7701385
-4067.2705 810.74359 4980.9473 7635592
-4075.7869 818.3786 5027.854 7635592
-4284.4795 866.61523 5324.2046 7635592
-4259.9771 868.04974 5333.0176 7766921
-4287.7573 880.23877 5407.9028 7832714
-4232.3599 875.4071 5378.2188 7701385
-4218.9629 879.25531 5401.8608 7832714
-4226.4058 887.53857 5452.7505 7701128
-4225.7817 894.24243 5493.937 7766921
-4209.7812 897.77124 5515.6167 7767178
-4180.6167 898.52582 5520.2529 7766921
-4169.9937 903.3089 5549.6382 7832714
-4173.5986 911.27448 5598.5762 7701128
-4152.2852 913.88336 5614.6045 7832714
-4129.04 916.1059 5628.2588 7898509
-4099.7202 917.00592 5633.7881 7832716
-4047.5132 912.75916 5607.6978 7898510
-4061.2371 923.43341 5673.2769 7964302
-4025.9688 923.05316 5670.9404 7964300
-3977.5215 919.61951 5649.8452 7767178
-3959.0063 923.10663 5671.2695 7700613
-3941.1301 926.80383 5693.9834 7042681
-3913.5735 928.26868 5702.9829 7107959
-3901.6965 933.5105 5735.1875 6580845
-3898.3926 940.91364 5780.6699 5659229
-3851.9834 937.9519 5762.4736 4606281
-3881.9255 953.69489 5859.1938 3684923
-3821.3782 947.29028 5819.8457 2763564
-3842.6313 961.23145 5905.4956 3091755
-3804.8735 960.53162 5901.1963 2367518
-3757.5735 957.38757 5881.8799 2761760
-3623.875 931.96509 5725.6929 3090465
-3488.7854 905.70117 5564.3359 3024157
-3588.0144 940.34644 5777.1851 2827034
-3602.2151 953.16016 5855.9082 2827035
-3597.6296 961.20386 5905.3262 2893083
-3539.5933 954.98456 5867.1167 3090461
-3567.0095 971.92548 5971.1968 3090717
-3556.7307 978.83203 6013.6279 3024669
-3540.8977 984.33435 6047.4326 2958876
-3534.9932 992.7373 6099.0576 3089949
-3518.0432 998.17993 6132.4951 2958362
-3463.9414 993.0849 6101.1934 2893339
-3454.7373 1000.8901 6149.146 3419169
-3435.4414 1005.9067 6179.9658 3287583
-3378.1216 999.77795 6142.313 3353119
-3349.8855 1002.2169 6157.2974 3155997
-3342.3047 1010.9575 6210.9961 3353376
-3270.4487 1000.2343 6145.1172 3156510
-3221.9155 996.48346 6122.0728 3353889
-3236.7483 1012.4681 6220.2773 3419683
-3150.5627 996.85809 6124.3745 3024669
-3151.2334 1008.6863 6197.0435 2827290
-3150.0562 1020.1951 6267.7495 3090462
-3096.3911 1014.7766 6234.46 3090462
-3056.4077 1013.7654 6228.2471 3353634
-3021.2761 1014.3582 6231.8896 3814185
-2957.7236 1005.3057 6176.2739 3814185
-2920.7927 1005.1884 6175.5527 3419427
-2924.8135 1019.34 6262.4966 3221792
-2827.7136 998.16083 6132.3779 3089949
-2833.2952 1013.1476 6224.4521 3352866
-2782.1497 1007.9775 6192.6885 2958363
-2783.8955 1022.0878 6279.3774 2760983
-2777.502 1033.5514 6349.8066 3353121
-2714.9685 1024.1527 6292.0635 3287841
-2676.4871 1023.6915 6289.23 3090207
-2694.3269 1045.0629 6420.5288 3353636
-2626.4841 1033.3362 6348.4844 3485222
-2544.0078 1015.428 6238.4619 3287589
-2520.5237 1020.8854 6271.9902 3024671
-2477.6299 1018.5269 6257.5005 3156257
-2451.2966 1023.0081 6285.0312 2629143
-2397.761 1016.0999 6242.5898 2892572
-2325.5037 1000.9173 6149.313 2563607
-2368.2661 1035.5448 6362.0532 2760986
-2321.0205 1031.2991 6335.9692 3352866
-2304.2473 1040.6761 6393.5786 3353123
-2265.3118 1040.1901 6390.5923 3089951
-2262.8689 1056.7291 6492.2026 2760986
-2264.8193 1075.9271 6610.1489 2432021
-2223.9219 1075.0873 6604.9893 3221537
-2159.0198 1062.4052 6527.0742 3155744
-2106.0835 1055.2559 6483.1514 3221537
-2086.5725 1064.8999 6542.4014 3089951
-2013.349 1046.9775 6432.2925 2826779
-1896.7605 1005.3781 6176.7188 3550502
-1941.1992 1049.1735 6445.7832 2826778
-1857.9534 1024.3312 6293.1602 3221537
-1861.4033 1047.2476 6433.9512 3221537
-1821.6437 1046.3035 6428.1514 3155744
-1801.2101 1056.6566 6491.7573 3879467
-1765.0443 1058.0311 6500.2017 3287329
-1706.986 1046.0509 6426.5991 2695193
-1684.0216 1055.5206 6484.7778 1971471
-1647.0199 1056.4285 6490.356 3353894
-1590.4274 1044.5137 6417.1548 3287588
-1556.6603 1047.3729 6434.7212 3550503
-1513.9908 1044.2356 6415.4463 2497816
-1447.2715 1023.9217 6290.6445 2629402
-1454.3973 1056.1593 6488.7017 2760988
-1400.8322 1044.8778 6419.3921 3090209
-1351.7815 1036.428 6367.4795 3023906
-1354.2894 1068.1587 6562.4219 3221285
-1294.6141 1051.2699 6458.6631 3155492
-1261.9292 1055.9371 6487.3369 3023906
-1221.7687 1054.4457 6478.1743 2695194
-1175.7297 1047.6196 6436.2368 2958110
-1137.8866 1047.8835 6437.8584 2826525
-1109.3678 1057.0504 6494.1768 2694682
-1083.9769 1069.9633 6573.5093 2826267
-1021.9246 1046.3027 6428.1465 2694680
-985.41461 1047.9744 6438.416 2694680
-959.56683 1061.5763 6521.9819 3286817
-917.40192 1057.5103 6497.002 2760470
-872.84344 1050.2084 6452.1411 2496528
-832.71942 1047.8174 6437.4521 2299408
-804.36847 1060.7223 6516.7354 2497299
-751.58893 1041.0901 6396.1216 1971212
-714.6452 1042.4735 6404.6206 2168590
-674.76886 1039.4943 6386.3174 3023129
-641.1297 1046.3403 6428.3774 3286301
-604.11353 1048.1917 6439.7515 3154715
-568.15552 1052.2523 6464.6987 3154971
-538.36713 1069.1523 6568.5269 2892056
-496.87216 1063.6263 6534.5767 3155228
-461.70911 1071.8658 6585.1982 3089178
-419.604 1064.0231 6537.0142 3089178
-382.73322 1069.2079 6568.8682 3023128
-342.29678 1064.4778 6539.8086 3483679
-301.38358 1056.8687 6493.0601 3878437
-268.51114 1079.355 6631.2085 3417886
-230.03342 1083.1552 6654.5557 3812387
-189.32056 1075.8259 6609.5278 3549472
-150.29041 1076.7301 6615.082 3352350
-113.12106 1096.3058 6735.3486 3155484
-72.453918 1084.8452 6664.939 3089692
-33.223595 1093.2124 6716.3438 3681315
6.5198865 1085.6094 6669.6338 2957335
46.895153 1105.9585 6794.6519 2957336
87.745239 1113.5352 6841.2007 2628370
129.83788 1127.1105 6924.603 2825492
168.99153 1114.7797 6848.8462 2825235
208.41969 1108.6837 6811.3955 2956821
247.59378 1103.4331 6779.1367 2891285
278.68228 1068.6428 6565.397 2759956
315.82306 1062.7404 6529.1338 2891543
349.97299 1049.1598 6445.6992 2562835
379.82376 1026.6309 6307.2891 3286816
386.81927 951.89496 5848.1353 393216
411.36383 929.08124 5707.9751 2562578
508.34491 1060.9069 6517.8696 3023126
554.28729 1075.1228 6605.2075 2825231
598.68671 1084.6682 6663.8516 2956560
644.20203 1094.9294 6726.8931 2956303
696.96979 1115.6035 6853.9082 2496266
737.93127 1116.144 6857.229 2627341
782.84338 1122.2919 6894.999 1904390
831.55011 1133.0004 6960.7881 2167562
867.04089 1125.5404 6914.957 2430990
911.61261 1130.0103 6942.4185 3022613
967.80402 1147.8759 7052.1787 3811869
984.14264 1118.951 6874.4741 3153939
1010.5491 1103.317 6778.4233 3022353
1067.2781 1120.7189 6885.335 3219731
1134.2173 1147.1663 7047.8193 3613974
1154.3003 1126.0272 6917.9478 2758410
1214.4061 1144.0416 7028.6221 3284753
1253.2228 1141.4707 7012.8281 3219217
1300.108 1146.1782 7041.749 3416852
1346.9812 1150.5826 7068.8086 3679767
1395.9907 1156.4913 7105.1094 3416853
1437.1752 1155.7612 7100.6245 3350546
1481.6478 1157.6418 7112.1777 3285010
1516.5339 1152.1354 7078.3481 3350802
1566.7603 1158.266 7116.0122 3746073
1606.5861 1156.5879 7105.7026 3548694
1651.3873 1158.4857 7117.3623 3548437
1712.2742 1171.2926 7196.0439 3482644
1756.783 1172.546 7203.7441 3548437
1804.0911 1175.564 7222.2852 3482644
1855.0096 1180.7401 7254.0864 3285523
1897.7466 1180.5922 7253.1772 3219475
1960.8086 1192.8149 7328.27 3087632
2021.1641 1202.8975 7390.2139 2826001
2076.2393 1209.4766 7430.6333 2827288
2153.3655 1228.3612 7546.6548 6974567
2256.0894 1260.7825 7745.8403 7304307
2289.4888 1253.9424 7703.8174 7501690
2312.019 1241.5332 7627.5791 7633274
2385.8406 1256.6146 7720.2349 7699323
2452.3823 1267.3666 7786.2915 7633784
2491.3611 1263.7402 7764.0122 7567475
2530.2434 1260.1974 7742.2461 6842981
2539.2913 1242.186 7631.5903 4802627
2518.9648 1210.6868 7438.0688 3222565
2444.0051 1154.4637 7092.6523 4143151
2531.4392 1175.5537 7222.2231 4011306
2471.8823 1128.8175 6935.0908 5590590
2398.9646 1077.6079 6620.4751 5787711
2435.3977 1076.3756 6612.9048 6051138
2440.6125 1061.6033 6522.1479 6248260
2435.1606 1042.7239 6406.1592 4866093
2421.0183 1020.7598 6271.2192 4997164
2396.022 994.95258 6112.668 5062701
2378.9531 973.15674 5978.7607 4799528
2387.2712 962.23303 5911.6489 4338975
2416.054 959.75446 5896.4219 5127978
2447.79 958.50323 5888.7344 4733220
2408.7031 929.94385 5713.2749 4799783
2473.0122 941.54175 5784.5283 5128748
2469.5781 927.38336 5697.5444 6049595
2484.1143 920.2641 5653.8057 5325873
2514.9143 919.27924 5647.7549 5523252
2517.4177 908.11267 5579.1514 5325873
2504.5608 891.76648 5478.7251 5523509
2432.178 854.91498 5252.3218 5786424
2450.042 850.31573 5224.0654 6378561
2440.4456 836.41974 5138.6929 5457713
2524.8948 854.70135 5251.0093 5326127
2548.2957 852.12415 5235.1758 5326127
2518.2051 831.93695 5111.1523 6246459
2490.5093 813.01117 4994.8784 5588526
2505.4714 808.29187 4965.8848 4930854
2522.5537 804.35809 4941.7168 4930339
2579.4836 813.07495 4995.27 4667422
2566.1638 799.70178 4913.1099 5390888
2711.3657 835.47528 5132.8906 4798752
2675.4053 815.2514 5008.6411 4864547
2738.033 825.18335 5069.6602 4535583
2746.3018 818.69501 5029.7979 4732963
2760.0066 813.9491 5000.6406 4470051
2804.594 818.31488 5027.4624 4338982
2830.1211 817.08588 5019.9116 3549982
2884.8491 824.2254 5063.7749 4076587
2891.0166 817.48669 5022.374 4932412
2940.6699 823.05627 5056.5923 1709328
2968.9937 822.60388 5053.813 1906453
3019.7092 828.30261 5088.8242 131072
3252.7952 883.41827 5427.437 196610
3451.4236 928.18823 5702.4888 131073
3648.2593 971.61292 5969.2759 65537
3735.0674 985.18225 6052.6416 328710
3997.1541 1044.2864 6415.7583 197636
4217.1348 1091.38 6705.0869 1644827
4246.2026 1088.6486 6688.3057 1513241
4261.9937 1082.595 6651.1138 3026223
4543.4624 1143.5192 7025.4126 1250069
4415.8145 1101.3038 6766.0552 2368293
4490.1797 1109.7766 6818.1094 3815996
4479.5396 1097.2762 6741.311 2961455
4474.1523 1086.272 6673.7046 2566441
4538.5815 1092.2627 6710.5098 3750715
4622.1899 1102.725 6774.7861 4211266
4690.915 1109.4869 6816.3296 1908256
4789.3428 1123.0988 6899.9565 3948094
4741.7383 1102.5256 6773.5615 723982
4677.6475 1078.4965 6625.9341 658189
4689.1831 1072.1589 6586.998 2171427
4960.8335 1124.9091 6911.0781 1842462
4945.7383 1112.3059 6833.6484 1447704
4909.7822 1095.254 6728.8872 2434599
4951.8735 1095.7471 6731.916 3026737
4880.7251 1071.3746 6582.1802 1710619
4917.2139 1070.829 6578.8276 4013375
5000.3599 1080.3727 6637.4614 2105378
4935.8618 1058.1166 6500.7266 1974303
4934.2837 1049.5887 6448.335 2237476
5042.3394 1064.3336 6538.9224 1118738
5166.6978 1082.2684 6649.1084 2961199
5276.647 1096.9365 6739.2241 3750460
5176.2363 1067.9821 6561.3369 3289909
5268.0859 1078.8313 6627.9917 1381912
5299.4375 1077.2227 6618.1084 1776670
5269.1836 1063.2069 6532 2237224
5411.5283 1083.9683 6659.5513 2105893
5405.4189 1074.908 6603.8877 1513756
5421.0635 1070.2727 6575.4097 1710879
5463.3569 1070.9272 6579.4312 1381915
5664.9404 1102.5752 6773.8667 394504
5582.2817 1078.8448 6628.0747 328710
5591.1089 1073.0033 6592.1855 262917
5633.2041 1073.5829 6595.7471 789261
5644.856 1068.3927 6563.8599 920847
5369.2153 1009.27 6200.6289 394760
5725.564 1068.9408 6567.2275 2171430
5878.396 1090.067 6697.0195 2565675
5821.9531 1072.3627 6588.2505 2302758
5691.1504 1041.2891 6397.3438 2302757
5651.7241 1027.2346 6310.998 1842463
5732.1421 1035.0043 6358.7319 2960688
5859.6704 1051.1232 6457.7612 3487032
5877.8071 1047.5372 6435.731 3289654
5900.4482 1044.7953 6418.8848 3289911
5698 1002.4868 6158.9556 1842465
5900.6426 1031.5337 6337.4102 2105637
5988.1807 1040.2183 6390.7651 1842465
6079.4678 1049.4409 6447.4258 1316122
5757.5811 987.67114 6067.9331 1184536
5784.4121 986.117 6058.3848 1250329
0 0 0 0
0 0 0 0
0 0 0 0
0 0 0 0
0 0 0 0
-4661.835 868.56036 5148.7573 7437956
-4654.561 872.91656 5174.5811 7503749
-4655.0811 878.80206 5209.4697 7503750
-4624.2192 878.80206 5209.4697 7635336
-4616.2246 883.17719 5235.4048 7898510
-4596.3789 885.32861 5248.1582 7766922
-4520.9429 876.729 5197.1807 7766922
-4498.1196 878.28448 5206.4014 7766922
-4457.6802 876.39789 5195.2183 7635335
-4354.0278 861.97083 5109.6953 7701128
-4324.4824 862.11542 5110.5527 7832714
-4306.0298 864.4892 5124.624 7767178
-4303.7749 870.17157 5158.3086 7898508
-4298.1318 875.24536 5188.3857 7898253
-4289.916 879.86444 5215.7671 7898507
-4275.2344 883.21484 5235.6284 7766921
-4095.5527 852.27795 5052.2368 7766664
-4279.771 897.1701 5318.354 7832200
-4257.7998 899.18396 5330.292 7897993
-4215.3008 896.86029 5316.5176 7767178
-4237.5488 908.38123 5384.8125 7701128
-4238.5933 915.49707 5426.9946 7701128
-4244.9077 923.86871 5476.6211 7701128
-4239.522 929.80316 5511.8003 7635335
-4204.0293 929.17572 5508.0806 7701128
-4185.8579 932.39648 5527.1733 7701385
-4167.5244 935.63184 5546.3521 7766921
-4181.5703 946.24567 5609.27 7898507
-4139.062 944.12939 5596.7251 7766664
-4129.3643 949.5235 5628.7007 8359059
-4102.2725 950.97339 5637.2954 8359058
-4047.6113 946.00342 5607.834 8424593
-3989.9124 940.23535 5573.6411 7503488
-3999.0857 950.26105 5633.0732 6383978
-3915.3889 938.20221 5561.5894 4014658
-3832.2456 926.07245 5489.6851 2894892
-3916.5996 954.55774 5658.543 1447444
-3800.1165 934.16382 5537.6499 2038809
-3819.3171 947.05975 5614.0962 2433310
-3773.5093 943.92078 5595.4883 2103832
-3817.0161 963.26575 5710.1636 2235673
-3793.9341 966.00195 5726.3838 2827809
-3825.0488 982.71149 5825.4365 2367000
-3810.2734 987.82806 5855.7671 2564379
-3756.5364 982.84485 5826.2271 2366741
-3628.4233 958.12939 5679.7158 2761499
-3551.7095 946.65082 5611.6719 3155744
-3524.1248 948.17383 5620.6997 3221534
-3459.9893 939.79779 5571.0474 2958362
-3496.0615 958.74084 5683.3408 2958618
-3504.0698 970.28143 5751.7524 3155997
-3453.8621 965.77032 5725.0107 4077355
-3449.7522 974.18744 5774.9067 3419681
-3436.2368 980.09058 5809.8999 3419425
-3423.667 986.38562 5847.2163 3155997
-3390.3154 986.76062 5849.4395 3353376
-3366.3708 989.90967 5868.1069 2827032
-3355.4395 996.99103 5910.0845 3221790
-3339.7351 1002.7884 5944.4512 2892825
-3284.427 996.69135 5908.3081 3419169
-3248.3047 996.34784 5906.272 3221790
-3213.7488 996.48242 5907.0698 3353376
-3197.6411 1002.4033 5942.168 3353376
-3148.4226 997.96063 5915.832 3617061
-3141.4507 1006.9596 5969.1777 3419682
-3117.126 1010.5381 5990.3906 3617061
-3107.1089 1018.8907 6039.9043 3288096
-3053.4919 1012.974 6004.8306 3616806
-2996.1709 1005.6746 5961.5601 3288097
-2972.5378 1009.6433 5985.0864 3353634
-2964.3274 1019.0096 6040.6089 3550500
-2937.6812 1022.1897 6059.4604 3682085
-2831.7341 997.51398 5913.1846 2892313
-2845.635 1014.9668 6016.6436 2760984
-2808.3513 1014.3745 6013.1323 2037261
-2755.9031 1008.2192 5976.6445 3747622
-2720.9563 1008.3898 5977.6553 2826520
-2706.9187 1016.416 6025.2344 2695191
-2690.041 1023.576 6067.6782 2826777
-2658.3767 1025.2274 6077.4678 3089949
-2630.0762 1028.2391 6095.3213 3353121
-2600.6416 1030.8855 6111.0078 3419427
-2611.0986 1049.6423 6222.1978 3419172
-2527.4263 1030.5553 6109.0513 2761242
-2570.5828 1063.3794 6303.6299 2300694
-2459.8606 1032.5775 6121.0381 3813418
-2373.2981 1011.147 5994 2300435
-2344.2605 1013.9464 6010.5947 2695193
-2301.7627 1010.9205 5992.6572 3418916
-2289.2766 1021.1873 6053.5181 3024158
-2255.8306 1022.2823 6060.0093 3221537
-2202.2019 1014.1186 6011.6152 3945517
-2196.5625 1028.1489 6094.7861 3287586
-2197.7092 1045.8778 6199.8813 3287586
-2163.6169 1047.1542 6207.4478 3024158
-2218.3208 1092.1935 6474.4375 3023904
-2154.6965 1079.5337 6399.3911 3945006
-2091.8308 1066.8074 6323.9502 2103058
-2042.1686 1060.4733 6286.4023 1971472
-1961.5282 1037.5184 6150.3276 2760986
-1925.4689 1037.7214 6151.5312 3155744
-1884.7786 1035.3882 6137.7002 2891803
-1863.3563 1043.7562 6187.3052 3286817
-1801.4957 1029.354 6101.9297 3286818
-1786.0814 1041.4442 6173.6001 2760986
-1745.2051 1038.8832 6158.4175 3287073
-1735.0474 1054.8892 6253.2998 3221280
-1685.0112 1046.819 6205.4604 3353123
-1627.9821 1033.9474 6129.1587 2958365
-1579.4019 1025.9772 6081.9116 3155744
-1575.0518 1047.0371 6206.7539 2760986
-1541.5294 1049.2478 6219.8584 2432024
-1493.4316 1041.403 6173.355 2958367
-1450.0001 1036.4999 6144.2896 2695195
-1408.0879 1032.4581 6120.3311 2760988
-1390.5059 1046.5142 6203.6538 3155746
-1347.3838 1041.5897 6174.4619 2958366
-1312.1782 1042.6809 6180.9307 2760477
-1279.1046 1045.5776 6198.1021 2957856
-1250.3435 1052.2749 6237.8027 2497304
-1194.1587 1035.5977 6138.9414 3023648
-1159.4791 1037.1083 6147.8965 2826268
-1127.8424 1041.527 6174.0903 2628889
-1091.8411 1042.076 6177.3447 3155233
-1078.924 1065.4594 6315.96 3154976
-1017.5261 1040.9272 6170.5352 3155230
-982.02972 1042.0513 6177.1982 2431508
-944.94342 1041.51 6173.9893 2892059
-912.40442 1046.1388 6201.4287 2892059
-871.26654 1040.8831 6170.2729 3023389
-854.21832 1065.2069 6314.4629 2036750
-807.54065 1053.1187 6242.8042 2431508
-765.74561 1046.5431 6203.8252 2431508
-733.66351 1053.2484 6243.5742 2497299
-699.56464 1057.6168 6269.4697 2629141
-656.64795 1048.3966 6214.813 2694934
-625.30896 1057.6638 6269.748 3220764
-591.51117 1063.6801 6305.4121 2430992
-542.3822 1041.08 6171.4399 2693908
-506.62253 1042.7291 6181.2163 2496785
-474.89615 1053.5836 6245.561 2628371
-433.75217 1043.6134 6186.458 2759956
-398.07907 1046.1807 6201.6768 3088921
-363.16913 1051.4795 6233.0884 2891542
-327.97195 1057.0524 6266.1235 2825749
-296.10931 1076.1664 6379.4302 2825749
-258.54236 1077.109 6385.0176 2891542
-219.49559 1071.153 6349.7104 2891285
-182.11487 1072.5453 6357.9639 3088921
-144.87161 1075.6842 6376.5718 3351836
-107.5731 1080.4827 6405.0166 3417629
-69.918968 1084.9929 6431.7524 3352092
-31.778273 1083.7128 6424.1641 3220507
6.3403873 1094.146 6486.0117 3220506
45.247379 1105.9366 6555.9058 2891542
84.486214 1111.1998 6587.105 2891798
124.95997 1124.2476 6664.4512 2891285
162.99651 1114.3672 6605.8813 2759699
201.20782 1109.2764 6575.7031 2825492
238.07434 1099.6255 6518.4937 2759699
278.81436 1108.0627 6568.5088 2759956
311.95612 1087.9346 6449.1909 2957336
340.78793 1058.8081 6276.5312 2958107
364.28888 1020.4791 6049.3198 3089695
382.51511 975.56323 5783.0625 393216
415.87558 973.45728 5770.5786 2892313
485.15271 1049.3569 6220.5054 3286813
529.52759 1064.4805 6310.1567 3483420
582.49487 1093.7433 6483.624 2957077
624.59753 1100.2471 6522.1787 2759698
669.51483 1110.6626 6583.9204 2825490
713.07526 1117.8041 6626.2549 2693906
747.20703 1110.1914 6581.1274 2759956
799.41919 1128.8652 6691.8242 2299405
830.64819 1117.5439 6624.7124 2826006
860.91431 1106.0072 6556.3237 3022871
904.37592 1111.6866 6589.9917 3022869
936.64526 1103.7078 6542.6929 2759697
976.46735 1104.9091 6549.8145 2759697
1018.6414 1108.5782 6571.5649 3022099
1061.8168 1113.0269 6597.936 3219475
1126.869 1139.2773 6753.5469 3351062
1151.321 1124.0879 6663.5049 3416854
1189.0912 1122.4774 6653.958 3285525
1237.105 1130.3298 6700.5068 3219732
1280.7489 1133.8256 6721.229 3746076
1346.0043 1155.6658 6850.6958 2890766
1386.3514 1155.4675 6849.5205 3351060
1420.0369 1149.886 6816.4341 3417109
1451.08 1142.5328 6772.8452 3219729
1501.5408 1150.4528 6819.7939 3680281
1553.1718 1158.8308 6869.458 3746074
1596.7234 1160.9069 6881.7646 3877403
1635.8312 1159.7291 6874.7832 3482644
1683.2815 1164.3793 6902.3486 3417108
1726.7938 1166.1494 6912.8423 3219216
1777.6333 1172.6713 6951.5029 3219729
1834.8601 1183.0157 7012.8247 3153936
1894.4216 1194.3744 7080.1577 3351315
1918.5 1183.3542 7014.8311 3614488
1990.1978 1201.551 7122.7002 3220501
2103.5503 1243.6185 7372.0728 3155483
2084.5225 1207.3033 7156.7993 6448224
2177.2576 1235.8759 7326.1748 7436152
2254.7432 1254.8446 7438.6201 7765630
2250.5181 1228.483 7282.3506 8028287
2295.9485 1229.7086 7289.6157 8094079
2383.0864 1252.8149 7426.5884 8028284
2455.321 1267.3907 7512.9927 7896441
2479.6672 1257.1686 7452.3965 7566962
2423.6052 1207.2509 7156.4883 7303274
2428.325 1188.8058 7047.1475 5657420
2463.259 1185.526 7027.7051 4735543
2442.2046 1155.8567 6851.8276 4208685
2464.283 1147.2378 6800.7358 4932403
2441.189 1118.2047 6628.6299 5589561
2429.8044 1095.3696 6493.2651 5721145
2413.0728 1070.8733 6348.0527 4536870
2352.863 1028.1301 6094.6748 4865578
2350.7358 1011.6758 5997.1353 4404772
2288.7742 970.34412 5752.1235 3878429
2298.501 960.17212 5691.8252 4207393
2339.377 963.11841 5709.2905 4668199
2347.3923 952.6449 5647.2041 5260081
2405.3279 962.44006 5705.269 5260334
2423.8391 956.40771 5669.5098 4931369
2444.2051 951.26196 5639.0063 5259310
2429.0339 932.61084 5528.4438 5259308
2382.2566 902.48248 5349.8452 5061931
2406.8191 899.81628 5334.0405 4864550
2404.3318 887.23755 5259.4746 4602147
2392.0544 871.41418 5165.6748 5720884
2375.6042 854.4895 5065.3467 6247229
2370.595 842.05109 4991.6128 4865576
2455.8582 861.58948 5107.4346 5984057
2444.9302 847.31616 5022.8237 5391150
2464.4329 843.8053 5002.0117 5391150
2458.8735 831.8988 4931.4312 5062182
2446.0029 817.82751 4848.0171 4601375
2449.407 809.461 4798.4214 4732448
2487.2583 812.53973 4816.6719 4797984
2495.1494 805.87219 4777.1475 4271896
2519.075 804.47504 4768.8647 4272153
2539.7693 802.08832 4754.7163 4666914
2585.1528 807.46545 4786.5918 4469791
2657.0095 820.90515 4866.2612 4864294
2701.4634 825.68079 4894.5708 4338465
2737.606 827.84174 4907.3809 3351315
2777.4968 831.0788 4926.5698 3351832
2880.0715 852.80969 5055.3887 2759954
2888.4783 846.4964 5017.9644 2892570
2901.9651 841.78546 4990.0381 3419431
2926.1956 840.25446 4980.9624 2104345
2973.6548 845.35754 5011.2134 1380366
3033.2456 853.77448 5061.1084 1118226
3250.5293 905.97833 5370.5684 65540
3487.9277 962.72223 5706.9419 65540
3449.835 943.06665 5590.4253 263174
3839.9045 1039.7169 6163.3599 592397
4009.3789 1075.3792 6374.7632 921620
4073.4292 1082.3634 6416.165 1908258
4154.6665 1093.743 6483.623 2500395
4241.0205 1106.2489 6557.7568 3816255
4294.2192 1109.9578 6579.7427 2895151
4282.4629 1096.9615 6502.7021 3026737
4380.854 1112.16 6592.7974 3816253
4338.9062 1091.7772 6471.9697 2566441
4423.1982 1103.2382 6539.9092 4408389
4504.6304 1113.7931 6602.4785 5329493
4476.0679 1097.2037 6504.1377 1644827
4523.9814 1099.4836 6517.6528 1907999
4548.9927 1096.2062 6498.2246 460552
4589.9541 1096.7953 6501.7158 65796
4623.4712 1095.6102 6494.6914 263431
4686.8105 1101.4532 6529.3286 460811
4730.5083 1102.6227 6536.2603 1579034
4696.6406 1085.8402 6436.7754 1381655
4638.8237 1063.8357 6306.3345 1052690
4704.4819 1070.2736 6344.4976 723725
4782.04 1079.2952 6397.9771 789518
4780.4116 1070.4431 6345.5029 328966
4898.4126 1088.308 6451.4043 197380
4832.4873 1065.3488 6315.3032 592395
4852.8574 1061.6202 6293.2017 1710620
4900.3149 1063.8292 6306.2959 2039842
4987.5688 1074.579 6370.02 2302760
5141.5283 1099.4312 6517.3413 3092276
5111.4072 1084.8436 6430.8677 2039332
5112.499 1077.0476 6384.6533 2303014
4990.8159 1043.691 6186.9185 1776670
5131.1729 1065.2198 6314.5396 2368807
5245.9082 1081.1565 6409.0107 3092531
5088.9351 1041.2686 6172.5586 1776672
5285.4287 1073.7583 6365.1548 1513756
5320.7461 1073.276 6362.2954 855570
5232.957 1048.1426 6213.3071 263433
5361.1836 1066.3253 6321.0928 65539
5305.2959 1047.8899 6211.8091 131589
5250.0029 1029.8252 6104.7231 131076
5338.7827 1040.0752 6165.4844 328712
5338.0117 1032.8586 6122.7051 2
5360.624 1030.2335 6107.1431 1316121
5515.9658 1052.981 6241.9883 1842465
5646.0337 1070.6331 6346.6289 6382952
5683.3906 1070.5875 6346.3584 1908515
5621.8706 1052.0393 6236.4062 4408390
5557.5483 1033.2124 6124.8022 4737612
5659.1025 1045.2681 6196.2671 2368807
5642.4648 1035.4783 6138.2339 1513498
5666.9189 1033.3066 6125.3604 2237221
5677.6895 1028.6833 6097.9541 4210754
5702.8125 1026.7025 6086.2114 4211011
5745.5537 1027.8984 6093.3013 3026739
5735.3618 1019.6688 6044.5161 2302503
5667.8604 1001.4155 5936.3125 1710366
0 0 0 0
0 0 0 0
0 0 0 0
0 0 0 0
0 0 0 0
-4666.3608 899.93561 5153.7563 7898508
-4660.5337 904.73145 5181.2212 7832713
-4598.9673 898.69873 5146.6729 7635337
-4556.0342 896.25092 5132.6548 7503751
-4520.6333 895.26202 5126.9917 7306371
-4493.0981 895.82788 5130.2319 7503236
-4484.5786 900.21857 5155.377 7371649
-4480.5439 905.57605 5186.0576 7240321
-4444.3604 904.46484 5179.6943 7174529
-4424.5737 906.69836 5192.4854 7042943
-4397.479 907.45502 5196.8184 6977407
-4372.5942 908.68152 5203.8423 6977664
-4350.7031 910.55212 5214.5547 7306628
-4370.1567 921.16425 5275.3286 6911870
-4328.6333 918.98364 5262.8408 6911612
-4318.3892 923.46033 5288.4775 6977405
-4295.2842 925.23193 5298.6235 6911612
-4282.5669 929.28387 5321.8281 6911612
-4280.7935 935.78821 5359.0771 6846076
-4262.0513 938.65271 5375.4814 6911612
-4246.0073 942.15894 5395.561 7043454
-4254.271 951.15302 5447.0684 7109246
-4256.3691 958.89557 5491.4082 7371648
-4225.9043 959.36487 5494.0962 7832455
-4189.7393 958.53741 5489.3574 8029575
-4167.6313 960.93829 5503.1064 7765890
-4129.3511 959.61865 5495.5493 6712431
-4098.1694 959.94067 5497.3936 5067093
-4094.0291 966.65277 5535.8325 3947582
-4015.6611 955.80566 5473.7134 3684666
-4006.043 961.27893 5505.0576 3750200
-4020.9724 972.7807 5570.9263 3223340
-3997.5564 975.11938 5584.3193 2565408
-3847.4753 946.34204 5419.5166 2301978
-3826.748 949.16443 5435.6802 2630426
-3801.5938 950.92743 5445.7764 2762269
-3894.1416 982.41443 5626.0967 2762269
-3822.9587 972.78259 5570.9365 2499354
-3781.624 970.6441 5558.6899 2959651
-3745.979 969.94135 5554.6655 3288359
-3756.49 981.2832 5619.6182 3617580
-3723.2378 981.29364 5619.6777 3486250
-3673.7383 976.98352 5594.9946 3222564
-3587.9817 962.86505 5514.1411 3157029
-3525.5227 954.79663 5467.9346 2827292
-3522.0295 962.69611 5513.1733 3222050
-3460.3147 954.68048 5467.269 3484708
-3439.771 957.97943 5486.1616 3484707
-3419.6162 961.45074 5506.0415 3024412
-3404.5305 966.4278 5534.5444 3287327
-3395.4946 973.23578 5573.5322 2498066
-3409.645 986.88843 5651.7183 2169102
-3376.5247 986.99414 5652.3237 2827032
-3358.2014 991.4707 5677.96 2827032
-3308.0894 986.55762 5649.8237 3484706
-3294.5522 992.56311 5684.2158 3419169
-3266.9885 994.42322 5694.8682 2892825
-3240.7361 996.72534 5708.0522 2892825
-3222.5591 1001.5859 5735.8877 2892825
-3190.5439 1002.2033 5739.4233 3155997
-3176.1677 1008.4344 5775.1074 2892825
-3152.7861 1011.9109 5795.0166 3155997
-3122.8616 1013.3406 5803.2046 2892825
-3080.5117 1010.7256 5788.229 2827289
-3069.8127 1018.5533 5833.0566 2958619
-3030.4309 1016.934 5823.7832 2958875
-3024.3213 1026.5713 5878.9741 3551013
-2941.6548 1010.144 5784.8979 3551013
-2909.874 1011.0092 5789.853 3484963
-2881.4062 1013.0598 5801.5967 3156255
-2887.8572 1027.5852 5884.7803 3353634
-2796.3821 1007.1946 5768.0078 3221278
-2751.3511 1003.2347 5745.3301 3287071
-2758.6758 1018.5053 5832.7817 3353121
-2727.4492 1019.7496 5839.9082 3089949
-2677.6038 1013.9753 5806.8394 2892570
-2649.1594 1016.2603 5819.9253 2694934
-2618.5156 1017.7508 5828.4609 2958362
-2597.7202 1023.16 5859.439 2432019
-2552.1714 1018.8343 5834.6655 2892569
-2495.2368 1009.782 5782.8247 3287328
-2478.1528 1016.8291 5823.1826 3287327
-2416.3984 1005.4874 5758.2305 3418659
-2488.4038 1050.2766 6014.73 2826522
-2459.4473 1053.1353 6031.1011 2497816
-2409.3367 1046.8866 5995.3159 3682088
-2287.2756 1008.7198 5776.7422 3484709
-2197.5859 983.88654 5634.5269 3551015
-2183.1616 992.50415 5683.8784 2958879
-2149.5823 992.5473 5684.125 3485480
-2124.3196 996.49292 5706.7212 3222309
-2108.7947 1005.2079 5756.6304 3748910
-2131.7019 1032.8302 5914.8179 2169877
-2125.8486 1047.2081 5997.1577 2563865
-2058.2014 1031.1174 5905.0088 3222052
-2097.6836 1069.0679 6122.3433 2564122
-2001.4613 1037.9761 5944.2871 2366487
-1972.8229 1041.448 5964.1699 3352867
-1957.446 1052.1749 6025.6011 3550247
-1914.5128 1048.213 6002.9121 3484709
-1870.9387 1043.7437 5977.3169 2958109
-1824.589 1037.5236 5941.6953 2958363
-1769.9313 1026.2415 5877.0854 3221536
-1737.7412 1027.7954 5885.9844 3221537
-1735.667 1047.5896 5999.3423 3352866
-1700.3444 1047.7246 6000.1147 2893085
-1674.5468 1053.8596 6035.249 2761498
-1624.338 1044.5643 5982.0166 3353123
-1586.3204 1042.869 5972.3081 3353123
-1549.8871 1042.1615 5968.2568 3155744
-1520.467 1046.2471 5991.6533 2826779
-1473.4379 1038.1211 5945.1182 3089951
-1445.3525 1043.2714 5974.6118 3024157
-1414.6155 1046.7178 5994.3491 3155746
-1359.8596 1032.1119 5910.7046 1378822
-1325.2896 1032.4596 5912.6953 1971474
-1278.8096 1023.296 5860.2168 2365717
-1255.0338 1032.2955 5911.7559 2563098
-1222.3768 1034.2971 5923.2188 2628892
-1200.6603 1045.9478 5989.9395 2168598
-1176.4741 1056.0912 6048.0288 3681836
-1125.0287 1041.6332 5965.2305 2695195
-1096.8953 1048.5214 6004.6777 2957854
-1051.3893 1038.7083 5948.48 3023647
-1023.3012 1046.019 5990.3477 2628890
-980.68512 1038.4712 5947.1221 2694680
-941.59534 1034.2339 5922.8564 2892058
-907.37659 1035.2261 5928.5381 2957852
-881.9292 1046.7083 5994.2944 2694679
-849.6629 1050.7214 6017.2773 2826266
-813.53735 1050.1046 6013.7451 2957852
-783.7121 1057.9362 6058.5942 2694680
-738.47626 1044.7183 5982.8979 2629143
-708.1944 1052.3893 6026.8286 3023899
-663.87848 1038.9127 5949.6514 3089178
-640.41602 1058.3888 6061.1865 3615523
-599.07996 1048.8848 6006.7593 3352094
-556.70074 1036.2389 5934.3389 3088922
-520.63843 1034.4388 5924.0303 2957336
-487.10544 1037.7673 5943.0918 2957335
-449.81854 1032.9938 5915.7544 3088922
-417.09595 1038.7809 5948.896 2957336
-383.80768 1044.0974 5979.3428 3023129
-349.4787 1047.3761 5998.1191 3023129
-315.42429 1052.313 6026.3921 3154714
-280.43823 1055.0051 6041.8096 3220507
-244.94385 1056.2931 6049.1855 3154713
-210.46014 1063.1281 6088.3276 3352093
