# .PCD v0.7 - Point Cloud Data file format
VERSION 0.7
FIELDS x y z rgb
SIZE 4 4 4 4
TYPE F F F U
COUNT 1 1 1 1
WIDTH 1289
HEIGHT 1
VIEWPOINT 0 0 0 1 0 0 0
POINTS 1289
DATA ascii
79.73455 976.15057 2183.1382 3617834
93.598984 985.95789 2205.072 4012852
107.05286 989.56793 2213.1458 3947573
120.64281 993.51062 2221.9636 3289644
133.85768 993.8927 2222.8181 4144697
146.69464 991.65161 2217.8059 3815731
159.03279 986.6842 2206.6965 2170390
170.95961 980.1134 2192.001 3420201
184.50298 983.08362 2198.6438 1906705
197.05478 980.72736 2193.374 2695705
211.22861 986.23584 2205.6936 3024156
223.49791 982.72815 2197.8489 2826776
236.09874 980.98419 2193.9485 2497554
248.58434 978.96838 2189.4402 3023899
262.21741 981.44751 2194.9846 2629397
274.31195 978.20575 2187.7346 2629397
283.20169 964.34381 2156.7327 1971213
296.53116 966.14392 2160.7585 2234128
308.73486 964.27899 2156.5876 2563347
320.99503 962.73145 2153.1267 3747879
329.245 949.73456 2124.0593 3550243
342.16925 950.68152 2126.1772 2300175
355.03018 951.3916 2127.7654 2628884
367.57474 951.23431 2127.4136 1708553
383.33969 959.14502 2145.1057 2102798
395.11832 956.89398 2140.0713 1642503
408.32291 958.12909 2142.8335 1642504
421.84634 960.0152 2147.0518 984579
434.397 959.64191 2146.217 787200
451.95978 970.04742 2169.4888 918272
469.59753 980.03412 2191.8237 2563348
480.0141 974.81836 2180.1587 3287324
500.82715 990.4361 2215.0874 6050881
512.89923 988.41144 2210.5593 3945762
524.09888 984.84827 2202.5903 3616797
540.4682 990.93671 2216.207 3748126
552.26971 988.55988 2210.8914 3221783
570.35095 997.2735 2230.3792 4668202
583.28302 996.79297 2229.3044 4405029
593.98621 992.60895 2219.947 4339237
608.50916 994.85126 2224.9619 2892048
607.71564 972.48846 2174.948 4207909
621.43451 973.79523 2177.8706 4537390
636.10449 976.50909 2183.9399 3023896
657.70221 989.53766 2213.0781 4471086
671.46283 990.49628 2215.2222 3681825
684.46771 990.32477 2214.8384 4866100
695.3797 987.18842 2207.8242 3616033
706.82349 984.90894 2202.7261 2760982
719.99341 985.07385 2203.095 1839626
738.57599 992.50635 2219.7175 1905681
747.28217 986.63904 2206.5955 2300437
764.72302 992.30756 2219.2729 2169106
778.34735 992.91595 2220.6335 4800567
788.43805 989.07123 2212.0349 3484709
803.2937 991.23193 2216.8672 2695450
815.21472 989.76013 2213.5757 5129018
820.79626 980.76007 2193.4473 3155740
830.94519 977.4129 2185.9614 6379341
850.81561 985.4281 2203.8872 2102794
851.58356 971.41058 2172.5374 2036746
862.67731 969.41388 2168.0718 1707523
873.55768 967.23962 2163.209 2760210
887.9574 968.96838 2167.0754 1576194
906.763 975.38739 2181.4314 2562832
928.35291 984.57892 2201.988 3154968
938.70612 981.76361 2195.6917 3352348
948.4516 978.39838 2188.1653 1444354
964.05756 981.08777 2194.1802 1444354
979.65253 983.69464 2200.0103 1970695
989.78345 980.81848 2193.5779 2365966
1004.4298 982.43341 2197.1897 3352862
1016.3763 981.40009 2194.8787 3748134
1022.4563 974.79974 2180.1172 5985353
1041.4105 980.48517 2192.8325 7695972
1070.6649 995.60883 2226.656 5459266
1102.8055 1013.0153 2265.5852 3485475
1121.2712 1017.5928 2275.8228 3288097
1137.2705 1019.8496 2280.8701 3090719
1148.3009 1017.6501 2275.9509 2696219
1158.0997 1014.4227 2268.7332 2564637
1178.2988 1020.275 2281.8213 4801338
1177.2751 1007.8262 2253.98 1840398
1203.484 1018.7082 2278.3174 4011311
1210.255 1013.0778 2265.7251 2958365
1209.1438 1001.0453 2238.8147 2761244
1221.3641 1000.1912 2236.9045 2234898
1229.9388 996.4021 2228.4302 1905677
1250.7906 1002.5338 2242.1436 2168848
1279.2971 1014.6075 2269.1462 1971469
1296.5171 1017.572 2275.7761 2498070
1289.4398 1001.6018 2240.0593 2826779
1292.8418 994.01428 2223.0898 3419174
1303.2697 991.92719 2218.4221 3551531
1301.0062 980.31873 2192.4602 4868678
1335.9269 996.68127 2229.0547 6777703
1367.6494 1010.361 2259.6489 8093568
1408.8197 1030.6874 2305.1084 7765117
1421.5181 1029.9935 2303.5566 7502717
1443.8434 1036.2219 2317.4863 7371131
1465.3055 1041.7194 2329.7812 7437181
1485.2987 1046.0796 2339.533 7239802
1502.9436 1048.7207 2345.4397 7239803
1522.1783 1052.4126 2353.6965 7305597
1540.7972 1055.6156 2360.8599 7436927
1556.452 1056.7483 2363.3931 7502720
1572.3843 1058.0476 2366.2991 7502720
1587.6891 1058.9056 2368.218 7436927
1601.2922 1058.6235 2367.5869 7436927
1615.4784 1058.7284 2367.8215 7371134
1629.6715 1058.8361 2368.0623 7502720
1642.5898 1058.1206 2366.4622 7502720
1653.2122 1055.9508 2361.6094 7502720
1665.2335 1054.7034 2358.8198 7568513
1676.318 1052.8884 2354.7605 7634307
1688.2842 1051.6526 2351.9966 7700099
1702.7195 1051.9624 2352.6897 7897478
1715.9003 1051.4985 2351.6521 8029577
1727.537 1050.1034 2348.532 8029577
1741.118 1049.9032 2348.0842 7963784
1752.4122 1048.3379 2344.5835 7897993
1764.3243 1047.1641 2341.9583 7831684
1782.4082 1049.6432 2347.5027 7502208
1776.017 1037.7821 2320.9756 3882563
1830.7771 1061.5615 2374.158 1316379
1841.8851 1059.8599 2370.3523 460297
1845.4291 1053.8646 2356.9438 2368554
1863.2474 1056.0497 2361.8308 1381401
1872.2065 1053.2185 2355.4988 3223606
1885.6373 1052.926 2354.8447 3158069
1921.7029 1065.1841 2382.2598 1841951
1950.5228 1073.2765 2400.3582 3684666
1965.0721 1073.4563 2400.7603 5658967
1963.3011 1064.7823 2381.3611 2369319
2004.6281 1079.4391 2414.1406 8356224
1969.7244 1053.1309 2355.3027 3816251
1982.3286 1052.4147 2353.7012 3553336
1993.7661 1051.0933 2350.7458 2434343
2004.8149 1049.5868 2347.3767 2829357
2015.5028 1047.9136 2343.6343 2631722
2024.9822 1045.639 2338.5474 3355445
2047.5265 1050.0957 2348.5149 2499882
2049.3401 1043.9323 2334.7305 1381401
2060.1272 1042.3918 2331.2854 2303017
2082.7371 1046.8143 2341.176 2171174
2110.2324 1053.6176 2356.3914 3289912
2104.9751 1044.0857 2335.0735 3750205
2114.2107 1041.8199 2330.0061 2302247
2121.4329 1038.5979 2322.8 3618363
2150.8108 1046.1943 2339.7893 3815742
2173.8728 1050.641 2349.7344 3026226
2170.2676 1042.2247 2330.9114 3486777
2185.5837 1042.944 2332.52 1907745
2159.6907 1024.1129 2290.405 4473672
2177.364 1026.0472 2294.731 2960434
2176.5652 1019.3066 2279.6558 2960691
0 0 0 0
0 0 0 0
0 0 0 0
0 0 0 0
0 0 0 0
0 0 0 0
0 0 0 0
0 0 0 0
0 0 0 0
0 0 0 0
-1854.6782 959.42639 2117.677 3353887
-1831.1949 953.7298 2105.1033 3288353
-1820.9653 954.90509 2107.6975 3617830
-1797.8848 949.31128 2095.3506 2696986
-1797.7039 955.81512 2109.7061 5657671
-1795.8318 961.50452 2122.2639 2894368
-1786.5498 963.27893 2126.1804 3552295
-1799.8038 977.3158 2157.1631 2499607
-1777.2599 971.97565 2145.3762 2631193
-1759.2832 969.0744 2138.9724 2827803
-1758.3313 975.57684 2153.325 2762779
-1737.7562 971.2074 2143.6804 3157537
-1733.1696 975.77502 2153.7622 3486245
-1709.4607 969.5647 2140.0547 2959899
-1675.7494 957.54608 2113.5269 3814952
-1661.011 956.26965 2110.7092 1972232
-1638.6636 950.55969 2098.1062 2366735
-1637.8475 957.34802 2113.0896 2367250
-1625.1689 957.25372 2112.8813 2301455
-1609.3236 955.27826 2108.521 2959900
-1604.707 959.98901 2118.9189 1314821
-1593.276 960.66565 2120.4124 2828056
-1585.8885 963.81024 2127.3533 1249032
-1567.6522 960.35919 2119.7358 2235922
-1571.2211 970.3183 2141.718 2235922
-1557.8125 969.86969 2140.7278 2432275
-1547.4983 971.35602 2144.0085 1775373
-1528.3562 967.27991 2135.0115 2103567
-1508.8323 962.89209 2125.3267 1445893
-1488.8705 958.14862 2114.8567 2169872
-1473.401 956.24017 2110.6443 2300689
-1460.4976 955.9787 2110.0671 1708292
-1449.8102 957.17566 2112.7092 3024150
-1431.5177 953.32892 2104.2185 2498062
-1429.9685 960.6629 2120.4062 2563855
-1406.7729 953.45569 2104.4983 2497804
-1396.2642 954.79504 2107.4546 2300425
-1390.2091 959.23175 2117.2473 2168839
-1378.6333 959.90527 2118.7339 2300425
-1360.8314 956.21613 2110.5913 3155734
-1367.203 969.60217 2140.1375 3681821
-1363.0756 975.72333 2153.6482 2695183
-1357.5403 980.94299 2165.1692 1708291
-1331.0024 970.94116 2143.0928 1576705
-1301.4211 958.50507 2115.6436 1050880
-1292.0182 960.83325 2120.7822 2234379
-1285.7198 965.53851 2131.168 2103308
-1272.2371 964.88837 2129.7329 984833
-1255.4052 961.65967 2122.6064 1116416
-1232.5229 953.68414 2105.0027 1576962
-1222.6304 955.69934 2109.4504 1576708
-1207.1282 953.32587 2104.2117 1444866
-1195.5465 954.03137 2105.769 1313793
-1184.4031 955.10522 2108.1392 985088
-1173.6072 956.48523 2111.1851 3419162
-1164.2334 959.06635 2116.8823 2300937
-1148.2295 956.1825 2110.5171 3221527
-1161.8499 978.17621 2159.0623 3616798
-1150.5817 979.47241 2161.9233 5196085
-1141.3611 982.56042 2168.7393 3814434
-1126.4718 980.78326 2164.8167 3946788
-1116.6991 983.47137 2170.7498 4342321
-1107.6007 986.82269 2178.147 3420963
-1097.5884 989.42926 2183.9004 3815209
-1079.5579 984.78387 2173.6467 3355175
-1083.4277 1000.245 2207.7732 1578766
-1076.2394 1005.7502 2219.9246 5131327
-1067.3992 1009.8288 2228.9268 3025439
-1051.7556 1007.4926 2223.7703 1709580
-1034.2985 1003.3378 2214.5996 2498837
-1006.3378 988.75623 2182.4148 2432785
-983.79175 979.18414 2161.2871 2103306
-970.43787 978.6297 2160.0632 1971721
-957.00458 977.97925 2158.6274 2234893
-948.36615 982.27728 2168.1143 3023896
-933.58307 980.2417 2163.6213 2563344
-924.52142 984.24048 2172.4475 2826516
-909.40662 981.81702 2167.0984 2563604
-883.42236 967.42126 2135.3235 2826777
-884.44434 982.61078 2168.8503 4538166
-867.04022 977.47528 2157.5151 3617838
-865.7204 990.59027 2186.4629 3485996
-855.59247 993.87201 2193.7065 2894116
-828.55304 977.30731 2157.1443 2696735
-816.82562 978.56769 2159.9263 3420201
-805.0733 979.83771 2162.7295 3223079
-791.74249 979.19666 2161.3147 2630943
-788.49127 991.20551 2187.821 2367770
-735.87994 940.52869 2075.9653 3157025
-746.07336 969.76416 2140.4949 2630680
-743.50476 983.1355 2170.0085 3551782
-736.89142 991.53485 2188.5479 4538934
-718.86926 984.60889 2173.2607 2696730
-719.01337 1002.7657 2213.3369 4999487
-706.94794 1004.2529 2216.6196 4670525
-677.32983 980.38995 2163.9485 3092264
-670.79059 989.65594 2184.4006 1512720
-650.70306 978.9046 2160.6699 1578770
-638.3963 979.66211 2162.3418 1249551
-624.65021 978.19647 2159.1069 2104859
-614.26672 982.04547 2167.6025 1644049
-605.28363 988.34552 2181.5083 2104599
-588.79932 982.40472 2168.3955 1972500
-575.24249 981.1925 2165.7197 1380364
-564.93292 985.5899 2175.426 1446156
-548.69354 979.60608 2162.2183 1578000
-531.93872 972.39386 2146.2993 1182730
-520.25641 974.32825 2150.5688 656899
-507.60059 974.4906 2150.9272 788485
-494.12225 973.04187 2147.7295 788744
-482.22757 974.71741 2151.4277 1249292
-472.73337 981.46759 2166.3271 2433052
-458.22839 977.90131 2158.4553 1709326
-444.51993 975.8786 2153.991 1511948
-431.98514 976.38934 2155.1182 2038036
-417.65887 972.75867 2147.1045 1379590
-400.55481 962.22687 2123.8584 1774603
-389.67847 966.45782 2133.197 1840137
-370.4371 949.53033 2095.8342 2366225
-358.82599 951.66559 2100.5471 3878690
-346.26938 951.35651 2099.865 3286549
-337.71225 962.42224 2124.2896 4074783
-321.61783 952.03314 2101.3584 3285782
-310.224 955.28223 2108.5298 1641474
-296.76154 952.16656 2101.6528 2694932
-284.97733 954.3985 2106.5793 1708550
-273.94086 959.4538 2117.7375 1774346
-262.14151 962.19434 2123.7864 3419683
-249.04471 960.20862 2119.4036 3683625
-238.19942 967.15393 2134.7334 4736567
-226.9174 973.00519 2147.6487 7434080
-213.44603 969.60645 2140.1467 1710356
-199.10332 961.57013 2122.4087 2368027
-186.38139 960.80566 2120.7214 4143922
-174.62541 965.27008 2130.5754 4077101
-161.69572 963.43683 2126.5291 3813928
-148.59799 960.20795 2119.4021 3484707
-135.97392 959.7262 2118.3389 3155740
-123.10531 957.24487 2112.8621 3353374
-110.36947 955.35126 2108.6824 3155225
-97.303261 949.74976 2096.3184 5853249
-84.693779 947.61914 2091.6157 3024149
-72.412933 949.06555 2094.8083 2958358
-59.763115 945.27423 2086.4399 3484703
-47.586117 948.93433 2094.5186 3550753
-35.262306 951.21619 2099.5552 3287324
-22.799929 950.21027 2097.335 3879717
-10.444095 956.55304 2111.335 4011304
2.0685279 958.68353 2116.0374 4472112
14.610584 959.08875 2116.9316 3353632
27.603195 975.03461 2152.1279 2958876
40.29958 973.74658 2149.2849 3551270
53.446159 981.3432 2166.0525 4340783
65.843842 974.90973 2151.8523 4473138
79.049004 980.57996 2164.3679 5525830
91.730934 979.08282 2161.0632 3486249
104.76209 981.22333 2165.7878 3881265
118.6292 989.87195 2184.8774 2302493
131.78111 991.43842 2188.335 4407868
145.11241 993.95288 2193.885 2697251
156.67319 984.92365 2173.9553 2762787
169.6575 985.5354 2175.3057 2236186
183.52342 990.82043 2186.9709 1446414
196.13898 989.10309 2183.1804 1248520
209.23959 989.89294 2184.9238 2103570
221.19122 985.47168 2175.165 2037007
232.15703 977.3869 2157.3201 2366226
244.37938 975.15997 2152.4045 1576710
256.00702 970.89838 2142.9983 2629397
270.64905 977.9314 2158.5217 3353121
282.62503 975.13116 2152.3411 2497812
291.56058 962.53516 2124.5388 3023644
303.71173 961.15833 2121.4998 2103056
318.35352 967.45978 2135.4084 2629400
329.4758 962.99249 2125.5483 1445128
339.56039 955.93317 2109.9666 1510920
351.00443 953.06598 2103.6382 1774094
364.48859 955.74512 2109.5518 1379336
376.83051 955.35089 2108.6814 1642507
389.4317 955.61816 2109.2712 2037262
405.35941 963.77765 2127.2812 2037263
416.67392 960.80774 2120.7261 1708298
428.38806 958.90619 2116.5288 1510920
449.84195 978.29431 2159.323 2169106
464.68472 982.63019 2168.8933 2168846
476.07391 979.62634 2162.2629 3024410
490.08267 982.02899 2167.5662 3287833
498.60062 973.58722 2148.9333 6972241
515.57086 981.6593 2166.7502 3814176
531.47498 987.35858 2179.3298 4274470
549.18311 996.05951 2198.5349 4340519
560.34564 992.76056 2191.2532 4273700
568.85193 985.01129 2174.1489 3879196
578.90112 980.21783 2163.5686 3813146
592.17328 980.97095 2165.231 3944478
600.53601 973.73193 2149.2527 3681820
618.01141 981.26245 2165.8743 4405031
636.42163 989.94049 2185.0288 4931889
652.16736 994.21069 2194.4541 3221275
660.70953 987.54706 2179.7458 3879205
672.69348 986.18463 2176.7388 3287581
695.27448 1000.1168 2207.4902 3945513
703.8645 993.78064 2193.5049 3156511
711.1778 985.90436 2176.1201 2038034
723.22827 984.75879 2173.5916 1183495
733.47675 981.24255 2165.8303 2433560
757.24585 995.62408 2197.5737 3749419
776.966 1004.2859 2216.6924 4538933
789.66382 1003.7339 2215.4739 4933178
789.51813 987.1413 2178.8503 5854023
796.24908 979.54242 2162.0776 4997944
812.2066 983.3548 2170.4927 3550242
825.12939 983.43146 2170.6619 3615779
840.12109 985.93372 2176.1848 3089949
849.9165 982.35437 2168.2844 3747877
860.38501 979.64801 2162.3108 2761239
870.44757 976.56567 2155.5073 2234380
879.5708 972.53369 2146.6079 1839365
895.01459 975.5058 2153.168 2958616
914.47754 982.71332 2169.0767 3879971
934.65869 990.48224 2186.2244 3418651
939.64392 982.15546 2167.8452 2102535
957.13788 986.95135 2178.4312 1247233
981.85181 998.96564 2204.9492 2431761
980.08734 984.07812 2172.0891 1839624
993.10785 984.22931 2172.4229 1379075
1004.136 982.42737 2168.4456 2761239
1018.8019 984.18506 2172.3252 5919304
1039.4775 991.63208 2188.7625 4603699
1067.1263 1005.4658 2219.2966 4143918
1088.0295 1012.6843 2235.2295 5394241
1114.2493 1024.618 2261.5703 7894122
1128.0706 1025.0026 2262.4189 3222559
1135.6565 1019.7791 2250.8894 4472371
1151.656 1022.1442 2256.1096 3156255
1170.2114 1026.6974 2266.1597 4142894
1176.8497 1020.8104 2253.1658 2300691
1199.9958 1029.2137 2271.7141 2497557
1207.5166 1024.178 2260.5986 2103056
1209.8099 1014.8674 2240.0481 2103058
1224.6885 1016.2015 2242.9929 918529
1231.4196 1010.8193 2231.113 1116420
1245.6211 1011.6183 2232.8767 4143152
1251.7494 1005.913 2220.2837 3485479
1275.8235 1014.5976 2239.4526 2432533
1276.5714 1004.7443 2217.7041 3024928
1281.7241 998.52313 2203.9727 2695448
1285.5933 991.43781 2188.3335 4142636
1303.48 995.19604 2196.6289 4537653
1296.8057 980.31329 2163.7793 5393481
1333.6886 998.32635 2203.5383 5790554
1373.6982 1018.3082 2247.6428 7304821
1387.0011 1018.2988 2247.6221 7370618
1424.5482 1035.9199 2286.5161 7699840
1449.2783 1043.9764 2304.2986 7897475
1469.6696 1048.7863 2314.915 7634560
1491.833 1054.7601 2328.1008 5792356
1514.0048 1060.6304 2341.0579 6976630
1523.6769 1057.717 2334.6274 7305342
1540.0536 1059.4684 2338.4932 7634306
1558.3751 1062.5146 2345.2168 7765892
1570.1094 1061.0554 2341.9958 7831685
1585.4646 1062.0472 2344.1851 7831685
1599.8107 1062.3517 2344.8572 7765892
1614.5883 1062.9352 2346.1448 7963271
1629.0946 1063.3315 2347.0198 8029064
1639.8562 1061.2976 2342.5303 7963271
1649.0278 1058.2773 2335.8643 8029321
1662.7214 1058.1854 2335.6611 7963271
1674.7086 1057.0178 2333.084 7963271
1685.9333 1055.3922 2329.4958 7963271
1699.4895 1055.2404 2329.1609 7832198
1712.6198 1054.829 2328.2527 8029577
1725.2338 1054.1085 2326.6624 8029577
1736.6023 1052.6445 2323.4312 7898248
1752.925 1054.183 2326.8269 8029065
1758.4176 1049.2351 2315.9058 8029064
1784.0791 1056.3054 2331.5117 7963528
1761.45 1034.8951 2284.2542 8291209
1819.9204 1061.0961 2342.0857 2237480
1830.2621 1059.0516 2337.573 2039589
1845.4517 1059.8218 2339.2729 1250074
1864.1003 1062.5524 2345.3 4473673
1867.1381 1056.4099 2331.7422 1710366
1886.7487 1059.6656 2338.9282 1644572
1907.5441 1063.5344 2347.4675 2828846
1935.0781 1071.0771 2364.1162 2302503
1954.8832 1074.2642 2371.1506 1513243
1990.1829 1085.8596 2396.7446 2960690
1957.2849 1060.3453 2340.4285 2829360
1970.1836 1059.8253 2339.2808 3684668
1975.6302 1055.3319 2329.3628 3553338
1984.7676 1052.8586 2323.9038 4276806
2003.3043 1055.3713 2329.4497 3289399
1995.2131 1043.9175 2304.1685 1315863
2028.1674 1053.9489 2326.3101 1381143
2025.4312 1045.4232 2307.4919 1512730
2040.9896 1046.3914 2309.6289 1315861
2035.4634 1036.6088 2288.0364 2039330
2067.2417 1045.828 2308.3855 3026481
2076.1724 1043.4434 2303.1221 2631722
2099.2839 1048.1705 2313.5559 1775903
2116.5298 1049.9265 2317.4316 657931
2124.0083 1046.8458 2310.6321 2631469
2149.3447 1052.5498 2323.2219 2763054
2153.8796 1048.0593 2313.3105 3157811
2157.4639 1043.166 2302.5098 3355192
2164.1687 1039.8335 2295.1543 4473671
2162.3635 1032.4794 2278.9219 1710367
2125.678 1008.6652 2226.3584 3355192
0 0 0 0
0 0 0 0
0 0 0 0
0 0 0 0
0 0 0 0
0 0 0 0
0 0 0 0
0 0 0 0
0 0 0 0
0 0 0 0
-1804.1996 945.51788 2060.0403 3157278
-1827.4744 964.23779 2100.8262 5197118
-1814.9214 964.18079 2100.7019 3420450
-1798.5732 962.09296 2096.1531 5394497
-1792.4904 965.50537 2103.5879 2170640
-1783.3846 967.32581 2107.5542 3749671
-1774.7419 969.42493 2112.1277 3157277
-1771.5798 974.56891 2123.335 3091485
-1752.8849 971.18042 2115.9524 3091741
-1747.6475 975.25299 2124.8254 3157021
-1727.0376 970.74402 2115.0015 3157024
-1714.7325 970.87115 2115.2786 2959645
-1708.0627 974.21448 2122.5627 2367508
-1687.8817 969.84369 2113.04 1841165
-1662.0339 962.1275 2096.2283 2104081
-1643.5563 958.59338 2088.5286 1577995
-1608.5076 945.26758 2059.4951 1380617
-1612.0991 954.61938 2079.8701 1315336
-1579.8187 942.70953 2053.9216 1710093
-1566.667 942.11786 2052.6326 4143919
-1571.3784 952.34308 2074.9106 1446149
-1574.5453 961.78601 2095.4844 1577990
-1524.245 938.46002 2044.663 1577994
-1522.5248 944.90991 2058.7158 2104336
-1520.3798 951.1983 2072.4165 2301715
-1505.5082 949.56219 2068.8518 2366482
-1530.1161 973.00427 2119.926 2103567
-1488.8232 954.58105 2079.7866 1839880
-1481.2061 957.62219 2086.4126 1511172
-1464.6959 954.91675 2080.5181 1708549
-1445.6211 950.47919 2070.8496 2168330
-1422.7865 943.47235 2055.5837 2629136
-1415.4232 946.69257 2062.5996 2103048
-1410.6306 951.703 2073.5161 2234634
-1395.735 949.9256 2069.6436 2234634
-1380.3522 947.78204 2064.9734 1773569
-1374.4744 952.18494 2074.5662 2234375
-1364.8704 954.06268 2078.6572 2103302
-1348.1198 950.93347 2071.8396 2760206
-1328.6167 945.78748 2060.6277 2234632
-1332.7415 957.52161 2086.1934 2102277
-1327.1017 962.39435 2096.8098 2103046
-1331.2545 974.52771 2123.2454 2432013
-1325.125 979.29364 2133.6292 1182464
-1290.2291 962.68799 2097.4495 2103307
-1283.6965 967.12769 2107.1226 1840392
-1270.4237 966.52698 2105.8137 2827543
-1276.1332 980.49896 2136.2551 2103821
-1257.3312 975.72913 2125.8628 2103565
-1231.7449 965.54486 2103.6738 1906442
-1215.8534 962.82953 2097.7578 919552
-1199.6757 959.82916 2091.2209 722432
-1191.7059 963.40167 2099.0044 722432
-1183.1764 966.59222 2105.9558 1248259
-1164.3884 961.38086 2094.6016 1643014
-1147.6018 957.72736 2086.6416 1379328
-1131.1238 954.25476 2079.0757 2563599
-1122.9425 957.78217 2086.761 2628878
-1138.8492 982.16199 2139.8784 1577222
-1094.9592 954.94037 2080.5696 3946024
-1100.2935 970.5174 2114.5078 3024920
-1100.9594 982.28821 2140.1533 5195833
-1089.8271 983.68408 2143.1946 3223071
-1076.3885 983.00659 2141.7185 3683622
-1067.3187 986.35046 2149.0039 2104593
-1057.5287 989.10114 2154.9971 2828313
-1047.3335 991.53571 2160.3013 3551267
-1044.7303 1001.307 2181.5903 4670261
-1018.6638 988.55298 2153.8027 2104589
-991.30115 974.2019 2122.5354 2169613
-976.6933 972.17786 2118.1255 2432531
-956.68402 964.6546 2101.7344 1642757
-955.26373 975.92407 2126.2876 1774086
-937.08807 970.14825 2113.7036 2168846
-926.00989 971.66327 2117.0044 2233354
-913.37354 971.56244 2116.7847 1970183
-900.99518 971.73724 2117.1655 1970439
-878.92822 961.31995 2094.469 3352606
-861.45618 955.70203 2082.229 2563348
-869.35547 978.47675 2131.8494 2827292
-848.81573 969.44244 2112.1658 2564637
-849.85785 985.1554 2146.4004 3091496
-832.177 979.31256 2133.6702 2433565
-821.74091 981.94653 2139.4089 3552046
-806.38049 978.68646 2132.3062 2565149
-791.67444 976.12958 2126.7354 3485994
-784.45074 982.86475 2141.4097 3156770
0 0 0 0
-738.12994 955.74054 2082.3127 2300689
-719.27197 947.15234 2063.6013 3155997
-720.09888 964.63684 2101.6956 3155741
-680.4447 927.55444 2020.9026 2169616
-709.25616 984.14496 2144.1987 2630938
-685.91846 969.1189 2111.4609 4209715
-684.4032 984.94 2145.9309 3157285
-663.96423 973.61096 2121.2478 3288615
-657.64417 982.94751 2141.5898 1184268
-645.31531 983.49377 2142.78 2105114
-635.89032 988.57629 2153.8535 3618097
-623.84387 989.70825 2156.3198 525827
-613.32019 993.35382 2164.2625 1709842
-597.02466 987.60712 2151.7419 854534
-585.90082 990.35132 2157.7209 2630687
-565.63391 977.41895 2129.5444 656643
-556.44244 983.47137 2142.7312 525057
-535.72046 968.95129 2111.0957 1248779
-527.39136 976.68768 2127.9512 656643
-514.75787 976.63635 2127.8396 1643793
-501.8418 976.03302 2126.5249 1841171
-491.33676 980.20844 2135.6221 394242
-474.7139 972.07715 2117.906 1644047
-458.85904 965.11957 2102.7473 2893601
-445.87259 963.97522 2100.2542 2235925
-438.293 974.79034 2123.8174 2367510
-426.71738 977.09479 2128.8381 1906958
-416.4624 982.65546 2140.9536 3156512
-395.64328 962.85626 2097.8162 2169614
-381.55527 958.68524 2088.7285 2498065
-369.2496 958.86298 2089.1157 2958358
-353.48157 949.75012 2069.2612 3154967
-346.03223 963.13647 2098.4268 3352086
-329.20114 950.43463 2070.7527 3286293
-315.71631 946.7843 2062.7996 3812380
-304.33774 949.41077 2068.522 3286295
-293.31772 953.42316 2077.2639 2432271
-281.53281 955.19159 2081.1169 2366993
-272.7673 967.83575 2108.6653 1117956
-260.10895 967.21808 2107.3193 5395007
-251.99025 984.26965 2144.4705 4737075
-236.46928 972.6839 2119.228 7237212
-222.80647 967.87054 2108.741 4539445
-208.09178 957.64478 2086.4617 4539447
-198.47395 971.06458 2115.7 4144432
-186.40657 973.50079 2121.0078 3881261
-172.4903 965.93555 2104.5251 3288611
-160.19647 966.98505 2106.8118 4011563
-147.31615 964.3725 2101.1196 3090719
-134.74541 963.49127 2099.1997 3617316
-122.05679 961.50232 2094.8662 4011304
-109.59797 961.07825 2093.9424 3879715
-96.691032 956.11487 2083.1284 3879972
-83.709602 948.85461 2067.3103 2892821
-71.51133 949.50446 2068.7261 3419167
-58.818306 942.49524 2053.4548 3024410
-46.898598 947.45337 2064.2573 2827289
-34.616253 945.99902 2061.0886 2827032
-22.612442 954.71954 2080.0884 2432529
-10.335222 958.95929 2089.3257 3287837
2.055552 965.12683 2102.7632 4011304
14.515202 965.28674 2103.1116 3682598
27.0504 968.00238 2109.0283 3419938
40.034912 980.00067 2135.1694 3419940
52.137028 969.82361 2112.9963 2696474
64.716469 970.74725 2115.0085 2893853
76.227844 957.94885 2087.1243 3880747
89.590927 968.74561 2110.6475 3222820
101.83282 966.25891 2105.2297 2499356
115.41344 975.63177 2125.6506 3881265
128.93613 982.71881 2141.0916 2039322
141.38564 981.08936 2137.5415 3684660
153.13892 975.29401 2124.9148 526599
166.75842 981.36151 2138.1343 1644822
178.81963 978.04919 2130.9177 2763044
191.00783 975.82263 2126.0667 2301466
204.31369 979.22821 2133.4866 1972500
218.67905 987.01904 2150.4607 2037779
228.26138 973.55219 2121.1199 2761499
240.25658 971.24475 2116.0925 1972240
254.97659 979.63507 2134.3728 2168850
268.03171 981.13806 2137.6475 2695191
280.58722 980.75916 2136.822 2892570
292.63638 978.71954 2132.3782 2695190
302.54932 969.99969 2113.3799 2564118
313.53543 965.27686 2103.0901 2958880
325.33472 963.323 2098.833 1379848
334.70627 954.58893 2079.8037 1248779
346.30267 952.59515 2075.4597 1841173
358.57202 952.52563 2075.3083 919814
374.9567 963.03046 2098.1958 1643793
385.92102 959.38641 2090.2563 1182726
399.81012 963.01379 2098.1594 2235155
412.85202 964.4433 2101.2739 2958879
425.70953 965.37097 2103.2952 3024927
445.21393 980.89026 2137.1077 5130047
456.98511 978.9845 2132.9556 1314053
468.66129 976.9834 2128.5957 1445894
486.49884 987.59491 2151.7153 3287835
492.41238 974.07666 2122.2625 4669227
505.6149 975.29138 2124.9092 4472104
523.47003 985.20361 2146.5054 4997420
541.63574 995.21643 2168.3206 4733735
553.13104 992.79279 2163.04 4206878
558.77728 980.21832 2135.6436 4075292
558.95264 958.8161 2089.0137 4074779
578.61481 971.04425 2115.6558 3877912
586.16528 962.85876 2097.8215 4404000
601.91467 968.20129 2109.4617 4075807
619.70001 976.53491 2127.6184 3944480
641.58124 990.862 2158.8335 3352088
652.79657 988.47845 2153.6404 3549467
663.84534 985.93896 2148.1074 4537135
681.78009 993.5296 2164.6455 3287326
695.01599 994.11902 2165.9297 3682597
707.26819 993.30548 2164.1572 3748135
726.37024 1001.9697 2183.0344 3090720
730.84076 990.50092 2158.0469 2368023
750.55829 999.73523 2178.166 2762524
761.14917 996.70636 2171.5669 5262142
766.91278 987.56201 2151.6438 4933175
777.82349 985.23633 2146.5767 5591102
788.30206 982.44684 2140.499 7433567
798.47668 979.3728 2133.8015 5262142
813.77405 982.58002 2140.7893 4604214
822.33899 977.68469 2130.1235 4867129
843.07324 987.18671 2150.8259 2300692
847.79803 977.93896 2130.6775 4932152
857.20239 974.28113 2122.708 2103309
875.53271 980.72742 2136.7529 1971723
887.67578 980.15826 2135.5127 5524544
899.5368 979.29791 2133.6384 3419941
909.97882 976.93805 2128.4968 3222046
929.71735 984.48682 2144.9436 4668979
947.05115 989.31995 2155.4739 2892566
960.22028 989.73181 2156.3711 1774343
969.76758 986.44885 2149.2183 2366482
982.18506 986.13257 2148.5293 1116163
997.67273 988.86749 2154.488 1576711
1010.9911 989.4104 2155.6709 1511687
1028.3275 993.82294 2165.2847 3353376
1057.5475 1009.4701 2199.3757 4603956
1076.0105 1014.5934 2210.5381 2564116
1097.4042 1022.3235 2227.3801 3288096
1104.6659 1016.8614 2215.4795 4472115
1113.5327 1012.9876 2207.0396 4143407
1133.3481 1019.0484 2220.2444 4932922
1145.8972 1018.5114 2219.0745 4603953
1167.8444 1026.2452 2235.9243 7235675
1183.5468 1028.3794 2240.5742 4538164
1207.593 1037.6359 2260.7417 5656388
1202.8743 1022.2437 2227.2061 2761757
1213.1135 1019.7595 2221.7937 1643019
1218.8738 1013.6039 2208.3823 2235156
1231.4355 1013.175 2207.448 3945516
1240.849 1010.1923 2200.9492 2762013
1265.1849 1019.2937 2220.7788 3682856
1263.4673 1007.4338 2194.9392 2958876
1250.833 987.19965 2150.8542 3354145
1275.6139 996.60516 2171.3464 4669749
1268.6777 981.29071 2137.98 4011563
1290.1514 988.03595 2152.6763 5459781
1310.8496 994.0611 2165.8035 4606275
1328.8284 997.92719 2174.2268 6449251
1351.1157 1004.9236 2189.4702 7502714
1396.6725 1028.9297 2241.7732 7634559
1416.8804 1033.9849 2252.7871 7897732
1436.2249 1038.3214 2262.2354 7831939
1467.5747 1051.1769 2290.2441 7634560
1479.2938 1049.8649 2287.3855 7502974
1499.6862 1054.676 2297.8679 7173755
1520.4794 1059.6802 2308.7708 7305598
1537.6169 1062.0701 2313.9775 7371134
1549.6929 1060.9523 2311.5422 7700099
1564.8105 1061.9183 2313.647 7765892
1577.5222 1061.2491 2312.189 7831685
1592.4885 1062.095 2314.0317 7963271
1606.287 1062.1543 2314.1609 8029064
1620.0704 1062.2026 2314.2664 7897478
1628.9745 1059.0779 2307.4585 7831685
1639.7716 1057.2257 2303.4231 7765892
1653.8687 1057.5142 2304.0515 7634306
1665.472 1056.2164 2301.2239 7765892
1677.3257 1055.097 2298.7852 7831685
1689.0123 1053.8917 2296.1589 7831685
1699.9147 1052.2201 2292.5171 7765892
1712.3722 1051.53 2291.0134 7831685
1728.2839 1052.9551 2294.1184 7765892
1740.9681 1052.407 2292.9243 7765379
1753.505 1051.7791 2291.5562 7568513
1752.4154 1043.0502 2272.5381 7634563
1777.4667 1049.895 2287.4512 8159880
1789.9373 1049.2614 2286.0708 8883089
1812.6724 1054.6093 2297.7224 987413
1837.9386 1061.339 2312.3848 1513502
1846.999 1058.6802 2306.5918 526349
1880.4661 1069.9471 2331.1399 2302503
1895.5765 1070.6816 2332.74 2499883
1909.0056 1070.4626 2332.2629 4144707
1905.2439 1060.6764 2310.9412 1315608
1915.1716 1058.5966 2306.4097 394506
1918.8064 1053.0924 2294.4175 460297
1945.652 1060.3148 2310.1533 1184021
1953.9836 1057.4174 2303.8406 2302503
1956.6241 1051.5017 2290.9517 2631468
1966.7793 1049.678 2286.9783 1184278
1980.8387 1049.9487 2287.5684 1579291
2002.6671 1054.3059 2297.0613 4474186
2009.7188 1050.8774 2289.5916 4079171
2012.2931 1045.1694 2277.1553 5000016
2020.6807 1042.5366 2271.4192 3223348
2032.4841 1041.6895 2269.5735 3025970
2049.6594 1043.5885 2273.7109 3552313
2055.9243 1039.944 2265.7705 1184021
2075.5674 1043.0699 2272.5813 2434089
2082.781 1039.9493 2265.7822 1841953
2093.8987 1038.8058 2263.2905 2105124
2087.5142 1029.0488 2242.0327 2763054
2098.623 1027.9841 2239.7131 2236710
2092.5728 1018.5806 2219.2251 1183765
2096.3257 1014.0364 2209.3245 1644316
2094.3928 1006.8152 2193.5916 2104610
0 0 0 0
0 0 0 0
0 0 0 0
0 0 0 0
0 0 0 0
0 0 0 0
0 0 0 0
0 0 0 0
0 0 0 0
0 0 0 0
0 0 0 0
-1806.7668 965.61639 2077.021 2236175
-1800.4692 968.849 2083.9741 3420451
-1799.1276 974.81134 2096.7991 3354913
-1763.8939 962.36548 2070.0283 2630934
-1755.6189 964.5567 2074.7415 3552036
-1730.9072 957.68469 2059.96 2696727
-1746.3444 973.08649 2093.0889 2762520
-1735.6704 974.05505 2095.1724 2959899
-1722.2253 973.47137 2093.9167 2828059
-1706.1831 971.40039 2089.4622 2828060
-1686.7109 967.33209 2080.7114 2762267
-1685.3563 973.67084 2094.3459 1249029
-1646.5902 958.32996 2061.3479 1775885
-1629.0325 955.19531 2054.6055 1709581
-1605.0813 948.23645 2039.6371 1775631
-1594.6697 949.23163 2041.7776 1973264
-1563.8462 937.99866 2017.6158 3157538
-1549.2681 936.41193 2014.2026 3881004
-1529.4187 931.58966 2003.8302 2564887
-1526.1893 936.89471 2015.2412 2564630
-1535.2572 949.89191 2043.1979 2630680
-1507.1426 939.90735 2021.7213 2893853
-1490.4485 936.94214 2015.3431 2367509
-1472.3373 933.03094 2006.9303 2761752
-1474.2347 941.83893 2025.8762 2038031
-1492.7151 961.47278 2068.1082 2234638
-1467.5543 953.08936 2050.0754 1971723
-1453.4749 951.82257 2047.3507 1905929
-1432.1918 945.77747 2034.3478 1905928
-1427.0712 950.39355 2044.277 2563345
-1417.0942 951.82672 2047.3597 2629392
-1401.3207 949.35773 2042.049 2300427
-1391.3002 950.7771 2045.1019 1708291
-1354.2981 933.62091 2008.1995 1510915
-1337.9093 930.49701 2001.4799 1708291
-1348.041 945.92676 2034.6689 1576448
-1340.7957 949.33136 2041.9922 2036741
-1320.6447 943.57709 2029.6147 1839106
-1317.1354 949.71649 2042.8206 2562572
-1304.8306 949.56897 2042.5033 2760208
-1321.0989 970.40698 2087.3254 2563599
-1305.5344 968.03522 2082.2239 2432014
-1280.4802 958.51465 2061.7451 2366479
-1270.4846 960.19135 2065.3518 2366480
-1264.1462 964.69177 2075.032 2169356
-1256.9546 968.62274 2083.4875 1380361
-1266.8951 985.96509 2120.7905 2564373
-1234.7097 970.54175 2087.6152 1380101
-1224.616 972.34705 2091.4985 1511431
-1208.9712 969.73676 2085.8838 262144
-1195.2169 968.60461 2083.4485 196608
-1181.3593 967.3642 2080.7805 393729
-1167.0968 965.76263 2077.3354 722176
-1154.3519 965.396 2076.5469 590336
-1135.2472 959.64551 2064.1777 656640
-1119.9288 957.00525 2058.4985 852993
-1101.4531 951.57922 2046.8273 1971723
-1089.8715 952.05475 2047.85 1248258
-1104.2959 975.51404 2098.3105 2498065
-1084.6281 969.04828 2084.4028 2432273
-1077.3281 973.61066 2094.2166 2366222
-1067.7864 976.22992 2099.8503 3617059
-1040.1512 962.17407 2069.6165 3156252
-1031.097 965.1756 2076.0728 3748644
-1029.2327 975.06116 2097.3364 2761749
-1012.9922 971.4024 2089.4666 2432528
-1004.2256 974.90881 2097.0088 1511683
-973.39435 956.81439 2058.0879 1379585
-972.55994 968.12061 2082.4075 2103307
-962.44489 970.36047 2087.2253 1379588
-943.6311 963.77435 2073.0586 1577223
-935.04602 967.59906 2081.2856 1773832
-914.13312 958.59869 2061.926 1773831
-900.89429 957.51093 2059.5862 1050369
-893.86469 963.08313 2071.572 852736
-878.00116 959.16016 2063.1338 1181696
-864.51105 957.75586 2060.113 2826263
-854.13177 959.80701 2064.5251 2366226
-850.67346 969.80798 2086.0369 2037519
-835.68378 966.76355 2079.4885 2630170
-829.8147 974.33734 2095.7795 2498844
-816.81354 973.63965 2094.2788 2893600
-802.11572 970.86694 2088.3147 2301717
-798.28949 981.37207 2110.9111 2499097
-780.4762 974.74323 2096.6526 2564633
-766.55042 972.83356 2092.5449 1905932
-741.35449 956.32294 2057.031 2103567
-726.05786 952.24371 2048.2566 2563604
-704.77588 940.04242 2022.012 3222046
-696.2663 944.74988 2032.1375 2827031
-686.44177 947.80725 2038.7137 2234896
-659.42432 926.80981 1993.5488 2827804
-666.42261 953.72693 2051.447 3814956
-666.82172 972.02454 2090.8047 1775891
-656.73901 975.44617 2098.1646 3881007
-646.35022 978.53638 2104.8115 4341303
-633.58093 978.07349 2103.8159 3552046
-629.58301 991.40417 2132.49 3618097
-620.49988 997.10913 2144.7612 2697508
-610.44989 1001.4665 2154.1338 1184013
-593.33044 994.16461 2138.4275 1447442
-579.44788 992.086 2133.9565 657928
-568.09955 994.35046 2138.8274 1184016
-553.63068 991.13159 2131.9036 1381394
-536.36713 982.64264 2113.644 1052429
-522.5365 980.18719 2108.3625 262915
-509.68057 979.48492 2106.8518 1512977
-496.59592 978.29657 2104.2957 1249805
-484.5798 979.20636 2106.2527 2367770
-466.6434 967.88464 2081.8999 2367770
-456.22021 971.95483 2090.6548 2169875
-441.80847 967.51758 2081.1104 2038546
-427.67819 963.45953 2072.3816 1841166
-416.85004 966.82056 2079.6111 2959646
-406.10049 970.57422 2087.6851 2630166
-389.13263 959.23499 2063.2947 2038029
-376.56339 958.35486 2061.4016 2958619
-361.88632 951.87164 2047.4563 2563602
-348.97986 949.75732 2042.9084 2102279
-330.43845 931.60455 2003.8623 3615004
-324.78577 949.79016 2042.979 3088914
-312.61792 949.59338 2042.5558 3417622
-299.39774 946.05542 2034.9458 4141857
-288.70151 950.5307 2044.572 2564109
-279.41312 960.23615 2065.4482 3682593
-270.36679 971.7005 2090.1077 4933430
-259.13431 976.03125 2099.4231 4999224
-246.90729 976.86383 2101.2139 3749413
-230.8344 961.76111 2068.7283 3552293
-221.49948 974.6123 2096.3711 5591619
-208.37148 971.30908 2089.2659 5789258
-196.25969 972.62494 2092.0962 4670776
-181.7664 961.52026 2068.2102 3814954
-171.0506 970.237 2086.9597 2894364
-158.46053 968.85242 2083.9814 5525316
-145.67612 965.94525 2077.7283 3419678
-132.25259 957.87262 2060.3643 3748385
-120.20818 959.16248 2063.1387 4208934
-107.42435 954.17651 2052.4141 4537386
-93.695183 938.44934 2018.5853 3879971
-82.82515 950.94714 2045.4677 3616801
-70.913605 953.72125 2051.4348 2498579
-58.646889 951.87817 2047.4705 2498324
-46.398338 949.44574 2042.2382 2169360
-34.319851 950.00476 2043.4406 2300945
-22.2787 952.76971 2049.3879 2300945
-10.128029 951.8642 2047.4403 3156510
2.0183737 959.90283 2064.7312 2039062
14.325359 964.95825 2075.6052 3617318
26.866951 973.84735 2094.7256 3091232
39.386127 976.5636 2100.5681 3814955
52.42025 987.67786 2124.4746 5196609
64.155098 974.74774 2096.6624 5262401
75.471794 960.68964 2066.4236 3617576
87.386063 957.10059 2058.7036 3617320
99.635399 957.61102 2059.8015 2301974
113.27705 969.9317 2086.3032 2565147
127.58334 984.95947 2118.6274 3815985
139.56898 980.98413 2110.0767 4145209
152.49455 983.72583 2115.9739 460548
164.4222 980.10229 2108.1799 3881780
177.03752 980.80029 2109.6812 2828836
188.7338 976.65045 2100.7549 2565149
202.49158 983.02185 2114.4597 1644047
216.10075 987.97144 2125.1062 2893601
227.04109 980.84637 2109.7803 2104595
238.95149 978.43695 2104.5977 2432533
253.45717 986.36646 2121.6538 2234899
264.75995 981.67096 2111.554 1511433
277.82486 983.63806 2115.7852 2103570
290.12503 982.8446 2114.0784 1906192
301.07428 977.72968 2103.0764 2498329
311.83997 972.44885 2091.7175 1511436
320.784 962.10834 2069.4751 919813
330.8287 955.7085 2055.7092 1906709
341.6225 951.85034 2047.4105 2104345
355.72665 957.16418 2058.8403 3354926
364.00604 946.97223 2036.9177 2499359
380.98776 959.34735 2063.5364 1183242
398.06973 971.19757 2089.0259 2104339
407.03369 963.12433 2071.6606 2629913
416.08774 955.73059 2055.7568 2629654
436.55637 974.23059 2095.5498 2104084
452.56158 982.02203 2112.3091 3419426
461.56207 974.60352 2096.3521 3090461
478.06964 983.00989 2114.4341 3813921
491.34201 984.5047 2117.6492 4536873
502.06412 980.94226 2109.9866 4865833
513.13184 978.21173 2104.1133 4470048
526.89221 980.62219 2109.2981 4206616
532.96118 968.93774 2084.165 4140823
538.28577 956.45978 2057.3252 4667168
552.90167 960.67816 2066.3989 3877653
559.74976 951.50952 2046.6774 3877398
574.28534 955.52032 2055.3044 3745812
589.48444 960.44574 2065.8989 3417362
599.42535 956.77789 2058.0095 3482901
622.28796 973.47003 2093.9141 4010271
631.81036 969.04919 2084.4048 5128496
652.30072 981.29755 2110.7507 3483928
662.86841 978.43854 2104.6011 3615514
675.99261 979.3891 2106.6458 4405288
693.39667 986.39337 2121.7119 3945763
708.17407 989.47845 2128.3477 5656379
719.44415 987.64062 2124.3945 3946275
725.85571 979.31097 2106.4778 6643277
738.99005 980.17987 2108.3467 5195831
750.78918 979.27832 2106.4075 5393210
759.59894 974.57086 2096.2817 3747873
778.03046 982.16119 2112.6084 5984835
788.83588 980.03644 2108.0381 3287067
797.64642 975.53815 2098.3625 4076585
815.07422 981.55542 2111.3054 4931895
830.05518 984.48865 2117.6147 5458752
837.90137 978.99829 2105.8052 5129787
850.84912 979.5423 2106.9753 2234896
863.93555 980.22784 2108.45 3484962
871.53271 974.75452 2096.6768 3287326
884.60205 975.46924 2098.2141 4406062
893.98248 972.15265 2091.0803 3023896
904.5556 970.20599 2086.8931 3023639
923.16107 976.81104 2101.1003 3813412
945.06781 986.68689 2122.3433 3024409
958.04059 987.09863 2123.2288 4208429
983.59161 1000.2914 2151.6062 1182471
991.84155 995.77692 2141.8955 393472
1007.8481 999.06549 2148.9692 1050884
1017.6517 996.19977 2142.8052 2761498
1021.2247 987.38049 2123.8352 3221536
1025.3613 979.31439 2106.4851 5063993
1055.2418 995.73431 2141.804 5393470
1069.3466 997.05475 2144.6443 3748389
1094.7811 1008.7841 2169.8738 5853765
1119.193 1019.3097 2192.5142 5130299
1126.2897 1014.0048 2181.1035 4800820
1141.4496 1015.9974 2185.3894 5985094
1141.4679 1004.6189 2160.9146 6445645
1156.5831 1006.6324 2165.2456 5195580
1174.6655 1011.1559 2174.9756 5721413
1186.5166 1010.2756 2173.082 4734519
1218.8662 1026.6805 2208.3687 3156257
1225.7194 1021.4889 2197.2014 2761241
1224.392 1009.6603 2171.7585 4274477
1236.71 1009.2131 2170.7966 3090971
1248.6177 1008.4438 2169.1418 4735797
1253.3815 1001.9791 2155.2363 2695956
1245.634 985.74396 2120.3149 3747877
1260.4116 987.48041 2124.05 3549985
1293.5828 1003.4506 2158.4016 4998204
1298.8115 997.64508 2145.9141 3749165
1320.2185 1004.2584 2160.1392 5133389
1333.0078 1004.2526 2160.1267 6975340
1344.847 1003.5378 2158.5891 6844785
1370.0691 1012.7289 2178.3589 8029574
1417.5752 1038.0667 2232.8599 7831938
1436.0449 1041.8696 2241.04 7897732
1459.0026 1048.8291 2256.0098 7831939
1476.6411 1051.8732 2262.5576 7239804
1498.5543 1057.8802 2275.4785 7436927
1515.5942 1060.3706 2280.8352 7371134
1531.0217 1061.6987 2283.6921 7502720
1549.3125 1064.9719 2290.7324 7831685
1556.9689 1060.9417 2282.0635 7897478
1570.962 1061.2616 2282.752 7897478
1586.7679 1062.7903 2286.04 7831685
1599.8563 1062.4885 2285.3909 7831685
1611.3086 1061.1141 2282.4346 7831685
1617.9819 1056.6416 2272.8145 7831685
1627.6982 1054.214 2267.5925 7765892
1640.2203 1053.6284 2266.333 7634306
1651.4583 1052.234 2263.3337 7765892
1664.8589 1052.229 2263.323 7765892
1676.9469 1051.4014 2261.5425 7765892
1689.4462 1050.8424 2260.3403 7897478
1704.1895 1051.677 2262.1355 7831685
1718.8511 1052.4487 2263.7954 7963528
1731.3539 1051.8966 2262.6079 7831685
1742.7969 1050.7142 2260.0647 7634306
1749.8224 1046.907 2251.8752 7568514
1766.9977 1049.1838 2256.7729 7634562
1775.4354 1046.2775 2250.5212 8225930
1780.1149 1041.2161 2239.6343 4869972
1816.4548 1054.6113 2268.4473 2237740
1854.5583 1068.8262 2299.0232 3552572
1866.9705 1068.1353 2297.5369 1578779
1869.1156 1061.6227 2283.5286 1710365
1884.8507 1062.8673 2286.2056 986900
1892.327 1059.4701 2278.8984 526345
1894.2856 1053.0536 2265.0967 4737100
1898.6818 1048.0731 2254.3835 2171173
1920.2167 1052.5566 2264.0276 2565673
1926.4537 1048.6508 2255.626 1710109
1957.6498 1058.2911 2276.3625 3749949
1965.6442 1055.343 2270.021 2763053
1981.5004 1056.6271 2272.783 855312
1965.589 1041.0681 2239.3162 1513501
1993.9739 1049.0221 2256.4248 7237748
2020.8542 1056.0839 2271.6145 5395544
2025.5294 1051.5245 2261.8076 1381657
2003.7201 1033.3665 2222.75 2565929
2025.9523 1038.0105 2232.7393 1710366
2025.2021 1030.8955 2217.4351 1446680
2041.3477 1032.4174 2220.7085 1381401
2046.4664 1028.3785 2212.021 2434089
2079.8057 1038.4822 2233.7537 920850
2053.7856 1019.0062 2191.8613 986643
2080.5959 1025.8225 2206.5232 723214
2055.2717 1007.0099 2166.0576 131332
2058.2703 1002.2216 2155.7581 460299
0 0 0 0
0 0 0 0
0 0 0 0
0 0 0 0
0 0 0 0
0 0 0 0
0 0 0 0
0 0 0 0
0 0 0 0
0 0 0 0
0 0 0 0
-1758.8342 951.97754 2021.9189 1183235
-1764.1155 961.38342 2041.8962 3288610
-1732.6101 950.73328 2019.2762 2630936
-1705.5721 942.4035 2001.5845 3683623
-1721.934 958.10522 2034.9336 2959899
-1726.9551 967.67377 2055.2563 2762263
-1711.0286 965.55725 2050.761 2761750
-1696.6656 964.29901 2048.0886 2499347
-1645.1361 941.74701 2000.1902 2630680
-1675.9092 966.32294 2052.3875 2235923
-1667.8987 968.73242 2057.5049 2696732
-1656.6083 969.25824 2058.6216 1644045
-1628.3595 959.79614 2038.5249 1512459
-1597.9139 948.88812 2015.3574 1841426
-1576.6223 943.29279 2003.4733 1644045
-1553.9362 936.77179 1989.6232 1643785
-1518.8137 922.59668 1959.5166 2169872
-1512.9316 926.10217 1966.9618 3091231
-1526.0831 941.40326 1999.4601 1840907
-1502.7458 934.25861 1984.2855 2893595
-1482.0498 928.65637 1972.3867 2498323
-1477.3416 933.06268 1981.7454 2959130
-1469.1331 935.31122 1986.521 1380102
-1456.2163 934.57428 1984.9559 1906443
-1453.8739 940.66718 1997.8966 1774088
-1445.646 943.02063 2002.8954 1576966
-1436.1315 944.56708 2006.1798 1839879
-1430.8156 948.92377 2015.433 1642243
-1423.0449 951.71216 2021.3552 1971464
-1413.2634 953.19153 2024.4973 2037257
-1403.5933 954.77191 2027.854 1970951
-1380.2186 946.97699 2011.2983 852480
-1367.0233 946.09119 2009.4169 1444864
-1350.4775 942.85059 2002.5342 590080
-1337.2123 941.86328 2000.4371 1708037
-1324.275 941.09131 1998.7976 1708292
-1316.2026 943.79395 2004.5377 1642241
-1297.9244 939.16095 1994.6976 2300170
-1292.2804 943.66864 2004.2715 2563599
-1287.395 948.81915 2015.2108 2168584
-1272.3766 946.52808 2010.3447 2366220
-1273.6316 956.41394 2031.3414 2563342
-1272.8088 964.91315 2049.3931 2432526
-1259.0543 963.67822 2046.7703 2235150
-1242.0598 959.91534 2038.7782 3353887
-1232.8075 962.12073 2043.4622 2564373
-1230.6937 969.99615 2060.189 2103823
-1218.0732 969.66541 2059.4866 1379843
-1218.5698 979.87573 2081.1724 1643273
-1201.684 976.17426 2073.3108 1183239
-1190.283 976.89795 2074.8479 131072
-1175.0526 974.46106 2069.6721 1314827
-1161.8932 973.70844 2068.0735 2959394
-1141.8358 967.09729 2054.032 591106
-1128.8961 966.43707 2052.6299 1314313
-1112.9344 963.14728 2045.6426 459520
-1094.9836 958.04468 2034.8051 1181954
-1086.5873 961.28113 2041.6791 985090
-1076.0836 962.7052 2044.7035 2695189
-1042.2264 943.03076 2002.9167 1576964
-1051.3685 962.258 2043.7538 1511170
-1047.1753 969.586 2059.3179 3156251
-1027.5549 962.6344 2044.5531 3156509
-1011.5626 958.95618 2036.741 2630681
-997.24084 956.79199 2032.1444 2893080
-992.59766 963.97443 2047.3994 1511684
-979.61591 963.13629 2045.6191 1116929
-964.98267 960.63312 2040.3026 1972492
-951.97217 959.70233 2038.3258 1774857
-948.45776 968.44391 2056.8921 1445636
-935.48242 967.62683 2055.1567 1709064
-917.61176 961.65796 2042.4794 1379331
-912.38275 968.95514 2057.978 1116162
-898.08398 966.68738 2053.1614 787200
-883.1842 963.70154 2046.8197 1181954
-867.93689 960.24805 2039.4847 1050368
-851.78082 955.67737 2029.7771 2168849
-845.54688 962.2677 2043.7744 2300691
-839.74414 969.54736 2059.2358 1445639
-829.38788 971.70685 2063.8223 2499353
-817.33807 971.91699 2064.2686 2367257
-800.75165 966.65692 2053.0967 2169105
-789.46155 967.72699 2055.3694 2893086
-777.05225 967.43707 2054.7537 2761498
-770.94897 975.11401 2071.0588 2695705
-741.52637 953.06738 2024.2338 2168847
-730.31073 954.08167 2026.3878 1642503
-713.69434 947.95636 2013.3784 2103309
-694.4024 938.00867 1992.2502 2629140
-682.82391 938.31653 1992.9042 2563347
-673.63489 941.97662 2000.6777 1905929
-658.51862 937.33087 1990.8107 2300946
-647.27002 938.1214 1992.4897 2827803
-657.53174 970.69635 2061.676 3354406
-650.07208 977.84772 2076.865 2564634
-644.63251 988.37219 2099.218 2367770
-631.1026 986.66229 2095.5864 1578256
-618.70648 986.69189 2095.6494 3683632
-605.80701 985.90363 2093.9751 3683632
-601.60413 999.53137 2122.9192 3157545
-587.33545 996.66016 2116.821 1775892
-567.57129 984.13477 2090.2183 789255
-554.70941 983.28577 2088.415 2302495
-535.48059 970.85449 2062.012 920843
-534.13971 991.03162 2104.8665 657673
-518.51001 985.0285 2092.1165 394499
-506.4397 985.65881 2093.4551 2302236
-491.03403 979.66632 2080.7275 2235928
-473.10675 968.2049 2056.3845 2630942
-459.95694 966.17291 2052.0686 4538937
-445.94937 962.17999 2043.588 3419942
-434.79376 964.28925 2048.0681 1906961
-422.33041 963.53595 2046.4681 2630681
-410.88113 965.12024 2049.833 2828060
-398.24805 963.93573 2047.3171 3814955
-383.54532 957.50989 2033.6692 1314311
-371.49588 957.50592 2033.6608 1839882
-355.78854 947.75781 2012.9565 2037003
-339.20721 934.92456 1985.7 2365452
-330.90527 944.80878 2006.6931 2891281
-319.8978 947.41687 2012.2325 2825744
-307.29291 945.31274 2007.7635 3417878
-295.69818 946.27191 2009.8007 3549464
-282.6239 942.37817 2001.5308 3154965
-276.01035 960.62927 2040.2946 1643013
-265.91873 967.8927 2055.7214 4670258
-255.03255 972.82245 2066.1919 4539700
-242.60121 972.05823 2064.5686 5921609
-229.13121 966.83002 2053.4644 5197372
-214.06219 953.8902 2025.9813 5197626
-205.98669 972.42822 2065.3545 5460285
-191.16496 959.44879 2037.7872 4473136
-179.5697 962.00446 2043.2152 3420191
-168.39995 967.37396 2054.6196 3024921
-156.87029 971.3515 2063.0676 3419423
-144.35402 969.37604 2058.8718 4801072
-130.10564 954.33063 2026.9167 4932657
-118.76585 959.72955 2038.3837 4274469
-105.91 952.71307 2023.4812 4077090
-93.13237 944.69897 2006.46 3748383
-81.096031 942.95929 2002.765 3748641
-69.370552 944.85736 2006.7963 2959641
-57.509731 945.31592 2007.7703 2499606
-45.919724 951.62579 2021.1719 2697244
-33.793762 947.36237 2012.1167 2038802
-22.041496 954.63715 2027.5677 1973268
-10.036326 955.26544 2028.9022 2038803
2.0033672 964.90698 2049.3799 2696991
14.108108 962.43408 2044.1278 2499865
26.429893 970.21301 2060.6497 2959903
38.61282 969.5896 2059.3254 3749162
50.806702 969.47461 2059.0813 1972237
62.919357 968.15417 2056.2769 2169616
74.825829 964.60425 2048.7371 2235410
86.703888 961.72998 2042.6324 2499094
98.486168 958.62756 2036.043 2367509
111.12888 963.66345 2046.7389 3026209
123.03006 961.91089 2043.0165 1776912
136.50397 971.66718 2063.738 2171928
149.72125 978.14301 2077.4922 2961444
162.75859 982.54877 2086.8496 4408632
173.6931 974.53412 2069.8271 1316107
