# .PCD v0.7 - Point Cloud Data file format
VERSION 0.7
FIELDS x y z rgb
SIZE 4 4 4 4
TYPE F F F U
COUNT 1 1 1 1
WIDTH 1311
HEIGHT 1
VIEWPOINT 0 0 0 1 0 0 0
POINTS 1311
DATA ascii
108.7596 915.45618 3554.3884 1445387
126.92465 895.06238 3475.2068 2104607
150.80412 915.03467 3552.752 1121052
172.15936 916.67426 3559.1179 2044978
0 0 0 0
0 0 0 0
0 0 0 0
0 0 0 0
0 0 0 0
0 0 0 0
0 0 0 0
0 0 0 0
0 0 0 0
386.2066 924.32593 3588.8264 3747357
408.91574 927.6109 3601.5811 3615771
434.27383 936.28113 3635.2444 4010273
446.92621 918.03326 3564.3945 2430987
470.67343 923.19366 3584.4304 3023378
486.71097 913.43921 3546.5576 3549722
500.36612 900.20618 3495.1782 4207910
516.23676 891.85211 3462.7424 3220759
540.1264 897.46088 3484.5193 2760978
562.09912 899.58893 3492.7817 2563598
587.44458 906.77191 3520.6707 4011045
612.22772 912.62402 3543.3923 3353115
639.33105 921.43219 3577.5913 3945251
642.79413 896.69702 3481.5532 3747874
670.70062 906.53815 3519.7629 4668974
693.13818 908.6167 3527.8335 1971717
719.45044 915.50427 3554.5752 2957586
728.90942 901.16406 3498.8975 3812895
750.82648 902.5932 3504.446 3154964
772.71509 903.91199 3509.5667 2760208
798.05945 909.09845 3529.7039 2562830
821.58417 912.00012 3540.9697 1970950
839.56647 908.75787 3528.3816 2299404
848.88226 896.52063 3480.8687 2102280
880.72278 908.08826 3525.7815 1115136
893.34723 899.76581 3493.4685 1247488
917.59998 903.26697 3507.062 3089178
969.65265 933.37274 3623.9521 3352604
993.44043 935.55634 3632.4302 3353121
1008.8996 929.97034 3610.7417 4341563
1008.475 910.27905 3534.2874 7370097
1044.5668 923.67908 3586.3152 7238514
1087.4532 942.43359 3659.1321 7765116
1119.3733 951.13666 3692.9231 7699322
1152.9402 960.87866 3730.7478 7765116
1183.6946 967.95416 3758.2192 7962495
1214.3307 974.67352 3784.3083 8094080
1241.8962 978.72937 3800.0557 8291458
1267.885 981.42035 3810.5039 8225665
1292.0837 982.65576 3815.3005 7633528
1312.699 981.17029 3809.5327 7304307
1340.4847 985.00397 3824.4177 7369841
1365.0287 986.36768 3829.7124 6777961
1389.1743 987.40363 3833.7349 5987674
1400.5214 979.45569 3802.8755 5790038
1403.0679 965.70209 3749.4753 5724247
1404.6416 951.71796 3695.1802 6710886
1435.74 957.86072 3719.0303 2368547
1434.5471 942.60004 3659.7786 2302498
1456.2483 942.61292 3659.8284 1644310
1464.822 934.25281 3627.3689 1643794
1430.8906 899.41687 3492.1138 1183501
1435.8096 889.64606 3454.1772 2893860
1434.062 876.07733 3401.4946 656900
1459.135 879.04242 3413.0068 328449
1470.6729 873.88379 3392.9778 986635
1486.8593 871.58917 3384.0686 328449
1461.7277 845.45746 3282.6086 2762528
1469.887 839.01459 3257.593 2827805
1500.4604 845.3667 3282.2563 3287841
1515.5531 842.94604 3272.8577 2695703
1500.6803 824.13043 3199.8032 1708554
1509.5143 818.64087 3178.4893 3023896
1509.7742 808.69391 3139.8689 3550240
1500.468 793.92761 3082.5364 3747360
1518.7297 793.92761 3082.5364 3155223
1511.5632 780.79272 3031.5386 3022867
1521.1198 776.50317 3014.8838 2365453
1553.9369 784.0495 3044.1836 2036487
1567.2371 781.68811 3035.0151 1378560
1574.1219 776.21692 3013.7725 1575937
1608.2893 784.17096 3044.655 3089690
1605.3452 774.05432 3005.3757 2102795
1618.0326 771.61407 2995.9011 2234381
1607.9866 758.50311 2944.9961 2300173
1635.8833 763.37952 2963.9292 2431762
1648.0579 760.89362 2954.2773 1642503
1678.3805 766.75067 2977.0183 918784
1680.2233 759.61047 2949.2954 656384
1705.6869 763.18616 2963.1785 1774602
1737.6715 769.57678 2987.9912 1774605
1781.9167 781.21393 3033.1741 3157027
1824.8735 792.05945 3075.283 3946802
1882.0195 808.78821 3140.2351 2828580
1863.4312 792.96167 3078.7861 3881526
1976.7018 833.00916 3234.2761 2433826
1999.7776 834.64325 3240.6206 1841945
2063.8093 853.17737 3312.5823 1776411
2119.4592 867.92999 3369.8613 855309
2101.6685 852.61353 3310.3931 263173
2105.8464 846.41022 3286.3079 328966
2089.8992 832.30573 3231.5452 263173
2211.7617 872.8421 3388.9333 65797
2247.9539 879.14465 3413.4038 4
2281.8672 884.45142 3434.0083 789519
2267.667 871.18054 3382.4819 1513500
2296.3579 874.47534 3395.2747 1513500
2348.167 886.44019 3441.73 723470
2375.0537 888.87177 3451.1707 3487288
2431.4177 902.19965 3502.9182 197381
2432.4683 894.95111 3474.7747 1
2469.2854 900.87305 3497.7673 131589
2471.489 894.17328 3471.7546 4
2477.5601 888.9718 3451.5593 394505
2482.4951 883.45123 3430.125 3881535
2503.6194 883.7348 3431.2258 3289398
2465.3708 863.2251 3351.594 2763054
2528.344 878.20166 3409.7427 1052180
2584.7676 890.6839 3458.2068 1710368
2597.2478 887.94647 3447.5781 986646
2627.0823 891.13849 3459.9717 1381403
2638.1799 887.97461 3447.6875 1710367
2643.1692 882.81915 3427.6707 2170918
2663.0835 882.68927 3427.1663 1842206
2618.7153 861.41583 3344.5691 2565672
2627.3887 857.77869 3330.4475 8355459
2675.4182 866.94879 3366.0515 4933966
2710.2822 871.7486 3384.6877 6053474
2732.7192 872.51025 3387.6448 1973795
2736.3718 867.30688 3367.4421 1447708
2740.1082 862.2052 3347.6343 1776673
2747.2854 858.25183 3332.2847 1711393
2786.479 864.28534 3355.7107 3487547
2845.5508 876.35541 3402.5745 3026483
2884.8887 882.22089 3425.3479 592139
2852.5745 866.24585 3363.3223 1513503
2853.387 860.48212 3340.9438 1710626
2880.103 862.5556 3348.9946 2302764
2889.9189 859.57391 3337.418 4473932
2906.7637 858.70929 3334.0608 2171177
2905.4556 852.52985 3310.0681 1644576
2910.3105 848.22949 3293.3716 2236713
2876.9116 832.91138 3233.8967 2434090
2868.2783 824.91852 3202.8633 3355191
2987.0127 853.4209 3313.5278 1052691
2990.2507 848.76813 3295.4629 2170918
3009.5957 848.7179 3295.2676 65796
3046.1511 853.49048 3313.7979 3157813
3047.8999 848.51202 3294.4683 2894641
3033.5769 839.15112 3258.1233 3289399
3098.9458 851.81366 3307.2874 1447194
3109.8838 849.44952 3298.1084 920848
3050.5583 828.0426 3214.9932 1513242
3012.6292 812.67322 3155.3191 1447195
0 0 0 0
0 0 0 0
0 0 0 0
0 0 0 0
0 0 0 0
0 0 0 0
0 0 0 0
-2906.3359 856.96106 3252.4609 4077607
-2893.2839 858.80621 3259.4639 4011301
-2858.0535 854.04877 3241.4077 3551007
-2863.2051 861.37555 3269.2156 3485214
-2850.4229 863.37024 3276.7861 3945508
-2824.1716 861.28467 3268.8704 4866866
-2810.7744 863.11737 3275.8264 3682339
-2779.9478 859.58624 3262.4243 2892823
-2800.7156 872.0708 3309.8076 1971977
-2733.8574 857.25458 3253.575 2300173
-2750.7266 868.66876 3296.8958 2760469
-2731.7664 868.85046 3297.5852 2695445
-2694.1392 863.05499 3275.5894 4471854
-2645.3845 853.58484 3239.647 3353628
-2637.979 857.41583 3254.187 2893077
-2630.0933 861.14606 3268.3447 2761491
-2620.4062 864.33759 3280.4573 2760980
-2578.937 857.01508 3252.6658 2563600
-2519.8677 843.68945 3202.0906 2168842
-2562.6421 864.5191 3281.1465 3090199
-2561.6602 870.79303 3304.958 4208937
-2556.7715 875.82532 3324.0574 3222042
-2558.051 883.06519 3351.5349 3090199
-2472.3643 860.16162 3264.6084 3156248
-2493.5981 874.38916 3318.6064 2695697
-2467.5393 872.12756 3310.0229 3550753
-2382.115 848.67957 3221.03 2827030
-2393.1074 859.48071 3262.0239 2629907
-2338.1887 846.59332 3213.1118 3617060
-2306.8955 842.11859 3196.1287 3485474
-2307.937 849.47107 3224.0339 3485731
-2284.7837 847.96674 3218.3245 4604211
-2260.771 846.11542 3211.2979 3881001
-2280.5786 860.77203 3266.9248 5657668
-2280.074 867.94727 3294.1575 3156762
-2251.6262 864.51764 3281.1409 3419680
-2236.1274 866.0434 3286.9316 2498578
-2178.1353 850.9939 3229.8135 2959127
-2159.7654 851.29504 3230.9565 3485471
-2168.4875 862.37579 3273.0117 2366733
-2148.6147 862.18207 3272.2766 2037769
-2134.3723 864.26471 3280.1809 2103561
-2125.0068 868.37866 3295.7947 3682593
-2127.9255 877.63525 3330.9265 2827284
-2118.2451 881.82025 3346.8101 2103562
-2102.823 883.67139 3353.8359 3287835
-2070.3757 878.33521 3333.5833 3616543
-2050.1282 878.12158 3332.7725 3221786
-2010.5544 869.54541 3300.2229 3222044
-2007.2008 876.61963 3327.0718 1577221
-1996.1832 880.45361 3341.6233 1708551
-1961.8895 873.99536 3317.1121 1971722
-1945.2614 875.35571 3322.2751 984833
-1913.4062 869.8219 3301.2722 2300429
-1877.6226 862.36945 3272.9875 2695187
-1854.528 860.65009 3266.4622 3089689
-1834.3445 860.25983 3264.981 3089686
-1818.3904 861.86578 3271.0762 3023893
-1811.6147 867.90356 3293.9917 3089685
-1796.5326 870.05011 3302.1384 2958356
-1769.74 866.51007 3288.7029 3089943
-1755.0385 868.87732 3297.6873 2629648
-1724.0148 863.12628 3275.8599 2366220
-1720.6508 871.24945 3306.6904 2365964
-1697.5638 869.45813 3299.8918 3024151
-1673.7761 867.26208 3291.5569 3287324
-1659.4014 869.94904 3301.7546 2366991
-1646.8354 873.65961 3315.8376 3222559
-1610.8752 864.89911 3282.5884 3222817
-1609.7052 874.83197 3320.2874 3288610
-1579.0875 868.80872 3297.4268 3683366
-1558.0039 867.9458 3294.1519 2630679
-1546.3015 872.35352 3310.8806 2235922
-1522.9885 870.24011 3302.8596 1577994
-1501.8026 869.30298 3299.3027 1512200
-1480.5658 868.31128 3295.5388 722690
-1453.9586 864.10132 3279.5608 196608
-1433.9087 863.72729 3278.1411 854274
-1423.9794 869.52277 3300.137 1182724
-1388.4825 859.65015 3262.667 2169358
-1365.1543 857.13898 3253.1362 2629651
-1362.3859 867.64966 3293.0278 2432269
-1344.4321 868.6543 3296.8408 2432013
-1328.281 870.87054 3305.252 3090200
-1314.1715 874.51154 3319.0708 2629392
-1308.7494 884.1319 3355.5837 2629138
-1292.8954 886.89307 3366.0632 1510402
-1240.0284 863.95325 3278.9985 1510917
-1232.9999 872.72784 3312.3013 1774089
-1207.9064 868.79297 3297.3672 1708296
-1180.4735 863.01862 3275.4514 1839625
-1153.62 857.48187 3254.4375 2563347
-1134.188 857.36682 3254.001 2234382
-1120.9565 862.0163 3271.6472 2497552
-1105.5833 865.1532 3283.553 2431760
-1105.4225 880.51996 3341.875 3023123
-1081.5972 877.25348 3329.4778 2563085
-1057.2771 873.45697 3315.0688 2431243
-1038.012 873.77197 3316.2642 2364936
-1017.1025 872.68805 3312.1504 2562059
-993.46625 869.17603 3298.8208 1970692
-976.68024 871.63641 3308.1589 1509888
-956.56323 871.16394 3306.366 1773315
-936.88733 871.08191 3306.0544 2233866
-921.42816 875.00061 3320.9275 1707523
-904.52612 877.69031 3331.1357 1510145
-891.20697 884.05414 3355.2886 1444096
-869.50653 882.20459 3348.2688 2036486
-855.33185 888.08246 3370.5774 2234122
-832.27509 884.79883 3358.115 2299915
-807.61884 879.61237 3338.4304 2497295
-792.24139 884.52515 3357.0762 2168586
-770.95923 882.92853 3351.0164 2233866
-749.56445 881.11523 3344.1343 2102280
-732.44775 884.36884 3356.4829 1839109
-705.94916 876.16022 3325.3281 1773831
-691.92487 883.40656 3352.8306 1510659
-672.84778 884.43951 3356.751 1510916
-642.54578 870.33112 3303.2051 984576
-629.72339 879.75641 3338.9771 1182465
-612.84283 883.93976 3354.8542 1971982
-593.71326 885.05072 3359.0708 1577225
-582.63348 898.65497 3410.7036 1511688
-562.86188 899.34875 3413.3367 1445897
-539.63654 894.37006 3394.4409 1117188
-517.35938 890.63837 3380.2778 2827033
-500.23227 895.8288 3399.9775 2695191
-480.0918 895.83215 3399.99 2038035
-458.37857 892.77246 3388.3777 65536
-432.91592 881.79553 3346.7163 65538
-414.15637 884.07349 3355.3618 65541
-395.16245 886.05573 3362.885 65540
-374.67041 884.71082 3357.7808 65540
-353.88663 882.48767 3349.343 65538
-334.56503 883.8631 3354.5635 2
-315.30225 885.57751 3361.0703 131072
-295.49567 885.89276 3362.2668 196608
-275.97574 887.17511 3367.1335 1248520
-259.10623 897.84137 3407.6157 1905676
-241.41243 907.21259 3443.1826 2300689
-221.23914 908.13568 3446.6863 1709324
-199.86174 903.80145 3430.2363 1445639
-177.87392 895.41321 3398.3999 1971209
-154.9588 879.61993 3338.4592 3089174
-139.01582 904.573 3433.1646 3352344
-117.60996 896.44 3402.2971 3549982
-99.219795 912.68298 3463.9448 3221276
-79.163422 918.07367 3484.4041 4142119
-57.854389 907.61554 3444.7122 3352345
-37.410385 906.72485 3441.3315 3483931
-17.053944 908.3645 3447.5547 3483930
3.3142061 893.28583 3390.3259 2102535
23.555227 899.23981 3412.9233 2102279
44.066383 905.24298 3435.7073 2826002
64.9534 912.73425 3464.1394 2102794
84.868088 906.24554 3439.5125 1773832
105.44759 907.99402 3446.1484 2432279
125.88976 908.18445 3446.8713 1708563
0 0 0 0
0 0 0 0
0 0 0 0
0 0 0 0
0 0 0 0
0 0 0 0
0 0 0 0
0 0 0 0
0 0 0 0
0 0 0 0
347.41614 900.16748 3416.4441 2957075
376.74072 922.41071 3500.8647 3023120
395.24536 917.22333 3481.177 2957070
414.26151 913.67877 3467.7241 3154706
431.49152 906.71576 3441.2971 3220499
456.02823 915.04236 3472.8994 3220500
471.67404 905.58008 3436.9868 3352343
492.32568 906.11414 3439.0137 3616028
513.8725 908.18774 3446.8838 4274216
533.80481 907.35864 3443.7371 3550238
552.28741 904.21698 3431.8135 2760725
574.5329 907.24048 3443.2883 2234386
588.49878 897.43048 3406.0564 4405551
615.01428 906.77411 3441.5186 2431760
631.06311 900.58124 3418.0146 3287322
658.88971 911.05878 3457.7805 3155994
683.84271 917.05096 3480.5229 3747873
699.43768 910.51025 3455.6985 2562827
720.12946 910.78778 3456.752 2957585
737.19843 906.59479 3440.8379 2365191
757.22919 906.17157 3439.2319 2957328
782.24445 911.57941 3459.7561 2562829
796.0033 903.92834 3430.7178 3023379
822.40387 910.65662 3456.2539 3154965
838.47034 905.89288 3438.1741 3615516
854.40283 901.21387 3420.4155 2167559
859.35059 885.43335 3360.5232 2694160
884.71582 890.92847 3381.3789 2891538
933.62836 919.3678 3489.3159 2693903
948.90637 914.17181 3469.5952 2891284
958.41797 903.75848 3430.0732 2827034
984.92908 909.47479 3451.7686 5854543
1006.8221 910.78113 3456.7266 5856089
1016.2908 901.02008 3419.6802 7370101
1051.9358 914.39435 3470.4399 7633529
1076.0056 917.38708 3481.7983 7633529
1114.6409 932.4519 3538.9746 7633271
1150.9663 945.06396 3586.8416 7633271
1183.4939 954.15662 3621.3516 7764857
1221.2517 967.06726 3670.3518 7830394
1246.5175 969.80731 3680.7512 7107183
1274.0045 974.15161 3697.2393 7041391
1300.4672 977.57886 3710.2471 7173234
1335.3749 987.13513 3746.5161 7107441
1362.0518 990.39392 3758.8843 7435636
1375.2917 983.93445 3734.3687 7896188
1392.3229 980.34912 3720.7607 7567222
1407.5867 975.65039 3702.9277 7566708
1431.3351 976.88678 3707.6201 8224123
1428.6783 960.33649 3644.8064 6645091
1427.8728 945.50482 3588.5151 1776409
1436.7078 937.39856 3557.749 1118222
1426.8542 917.50946 3482.2627 1841945
1440.8926 913.3313 3466.4055 65793
1428.5125 892.76038 3388.3315 854022
1454.7014 896.52948 3402.6365 3157033
1466.6936 891.56567 3383.7974 328192
1487.4232 891.9754 3385.3523 1117705
1463.0894 865.71014 3285.6667 1183754
1453.2178 848.57959 3220.6504 1380874
1469.0243 846.69293 3213.4897 2367510
1482.6953 843.63953 3201.9011 2301460
1500.1195 842.77173 3198.6077 2103567
1502.0353 833.32166 3162.7412 2300432
1503.3859 823.79468 3126.583 2760983
1496.7036 810.15155 3074.8027 2563090
1526.2462 816.20886 3097.7925 1115904
1525.8802 806.31781 3060.2524 2431246
1531.4635 799.76575 3035.3853 1576452
1545.491 797.72449 3027.6377 1247488
1554.369 793.10248 3010.0957 1708037
1568.6874 791.32971 3003.3677 1116161
1596.1333 796.14484 3021.6426 1642759
1581.0137 779.85699 2959.8245 2168846
1594.9839 778.11804 2953.2246 2037262
1630.3668 786.74976 2985.9851 1050368
1625.5625 776.0116 2945.23 1181956
1638.2583 773.76697 2936.7109 1116163
1660.1486 775.86652 2944.6794 1643021
1678.9272 776.48334 2947.0205 985092
1694.4478 775.59619 2943.6533 919041
1755.5774 795.39099 3018.7812 919044
1773.3859 795.35699 3018.6526 2103830
1829.4199 812.29675 3082.9448 2236185
1867.3069 820.92352 3115.6863 2630944
1906.8876 830.11877 3150.5854 4342077
1966.4496 847.74994 3217.5015 1776663
1939.421 828.07104 3142.8135 2500132
1970.892 833.50635 3163.4424 3552822
2069.5679 866.9931 3290.5359 1447959
2067.2178 857.92749 3256.1289 790031
2100.7163 863.76965 3278.302 1645341
2142.917 873.05023 3313.5251 1118740
2176.2986 878.60193 3334.5955 329225
2218.5955 887.62061 3368.8245 4
2240.6006 888.43243 3371.9055 395019
2243.2742 881.63245 3346.0972 263173
2247.0454 875.37915 3322.364 460812
2283.6499 881.91431 3347.167 263431
2327.9175 891.27069 3382.6777 328968
2406.9302 913.65649 3467.6394 1578779
2424.0886 912.38251 3462.8044 3947328
2427.803 906.11237 3439.0068 3355190
2431.6113 899.98132 3415.7375 394504
2452.7795 900.32355 3417.0366 460296
2430.4004 884.80658 3358.1443 2302247
2515.6274 908.39838 3447.6831 855312
2528.0649 905.53735 3436.8245 789774
2518.2837 894.82697 3396.175 2303017
2567.688 905.15021 3435.3555 1644831
2567.6882 898.03247 3408.3408 2302762
2578.2729 894.69861 3395.688 5855586
2571.8743 885.5686 3361.0364 921363
2598.4607 887.84924 3369.6924 1315865
2589.3711 877.99829 3332.3044 4342087
2586.1846 870.28271 3303.0212 1052689
2603.5076 869.53302 3300.176 1381399
2666.3691 883.89032 3354.6665 789005
2653.554 873.13422 3313.8435 1512730
2706.0474 883.86761 3354.5806 3223347
2684.5103 870.44055 3303.6201 2302502
2701.8435 869.72003 3300.8857 2039331
2718.4343 868.77271 3297.29 1118230
2754.0911 873.88855 3316.7065 1184021
2744.269 864.60352 3281.4666 1974050
2783.957 870.93793 3305.5078 2105895
2809.9663 872.93427 3313.085 2829362
2841.5479 876.62219 3327.0818 2829107
2855.3364 874.80798 3320.196 2565935
2826.1389 859.93866 3263.762 3289914
2795.0662 844.70459 3205.9436 1973798
2849.7588 855.42078 3246.6152 1184279
2833.6064 844.87012 3206.5715 3947331
2882.9058 853.84503 3240.6345 1315610
2878.9656 847.03723 3214.7969 920851
2902.1233 848.23932 3219.3591 2631469
2949.7456 856.52954 3250.8232 3289399
2978.3325 859.2207 3261.0371 2499883
2972.5066 852.01331 3233.6826 3026227
3034.864 864.31665 3280.3779 460553
3007.2148 850.99286 3229.8098 1512989
2999.9607 843.57269 3201.6477 1907749
3055.3879 853.76062 3240.3142 1315868
3051.7021 847.40668 3216.1987 3618364
3054.4026 842.8938 3199.071 526350
0 0 0 0
0 0 0 0
0 0 0 0
0 0 0 0
0 0 0 0
0 0 0 0
0 0 0 0
-2845.7874 857.97461 3184.7014 2827030
-2818.2861 855.35413 3174.9744 2761493
-2814.8999 860.06647 3192.4661 3156508
-2756.9448 848.05676 3147.8875 4538163
-2837.97 878.92596 3262.4705 3156253
-2763.6572 861.78027 3198.8274 2630934
-2757.0955 865.66998 3213.2659 2301199
-2755.1238 871.06519 3233.292 3156251
-2726.7732 868.13739 3222.4246 4603696
-2687.4048 861.63593 3198.2917 2564368
-2685.5837 867.16595 3218.8186 2498063
-2673.8181 869.54102 3227.6345 2498319
-2648.5972 867.54315 3220.2185 2629905
-2588.439 853.98944 3169.9089 3287321
-2568.4312 853.58124 3168.3936 3221529
-2561.8025 857.646 3183.4817 2826771
-2530.1731 853.33917 3167.4951 2497805
-2519.8425 856.20508 3178.1331 2628622
-2492.8979 853.42645 3167.8191 2694414
-2484.6631 857.05927 3181.304 2628622
-2477.7964 861.22327 3196.7603 2629135
-2460.1592 861.67908 3198.4519 2629905
-2444.4507 862.82263 3202.6968 2629905
-2399.6177 853.62354 3168.5508 3353371
-2399.0535 860.15149 3192.7815 3945765
-2394.2847 865.26361 3211.7573 3222298
-2331.8105 849.43677 3153.0098 3485216
-2335.1799 857.53351 3183.064 2432785
-2300.7312 851.76117 3161.6379 3090456
-2261.5361 844.12262 3133.2847 3879462
-2262.4211 851.44147 3160.4512 3748387
-2236.542 848.72595 3150.3716 2958871
-2202.7693 842.94409 3128.9099 2958615
-2161.2261 834.06512 3095.9524 3024408
-2170.541 844.82959 3135.9087 3090455
-2177.9727 855.04059 3173.8108 3945508
-2161.5442 855.98071 3177.3003 3155993
-2141.7668 855.59943 3175.885 2234890
-2135.7185 860.74451 3194.9832 2234634
-2109.4529 857.76086 3183.908 2432525
-2114.3359 867.50342 3220.0713 2300940
-2079.5986 861.01929 3196.0027 2432526
-2116.9534 884.5387 3283.3042 2564369
-2098.5869 884.99609 3285.002 2432785
-2099.7317 893.76709 3317.5588 3288094
-2078.7085 893.17883 3315.3752 3617060
-2031.7671 881.33649 3271.418 3222044
-1971.3311 863.35602 3204.6765 3353630
-2005.6139 886.91193 3292.1133 2432529
-1995.0781 890.91644 3306.9775 3024921
-1961.9529 884.81281 3284.3215 6182985
-1942.9475 885.01862 3285.0854 2169614
-1904.8873 876.46106 3253.321 2696209
-1892.9211 879.85767 3265.9287 2629650
-1832.8925 860.75342 3195.0161 2629394
-1811.0056 859.34937 3189.8044 3155482
-1802.0358 864.10968 3207.4741 2366219
-1786.4928 865.78589 3213.696 2431757
-1763.4871 863.84265 3206.4829 2826771
-1747.2109 865.18945 3211.4822 2563599
-1747.13 874.67389 3246.687 2760978
-1716.4012 868.85516 3225.0886 1971205
-1700.0084 870.24402 3230.2441 2432783
-1678.9409 869.24438 3226.5337 2235147
-1665.3224 872.12274 3237.2178 4800820
-1644.2494 871.1189 3233.4912 3090202
-1649.6454 884.27972 3282.343 2630164
-1599.9796 867.88708 3221.4954 2695959
-1602.2305 879.60004 3264.9724 3551267
-1574.3762 874.87012 3247.4155 3946024
-1550.613 872.32452 3237.9668 2893335
-1558.1963 887.57074 3294.5586 3222814
-1514.6346 873.70117 3243.0767 2696216
-1501.0404 876.98376 3255.2612 2630165
-1469.766 869.88776 3228.9216 2038029
-1459.4109 875.14899 3248.4507 3090462
-1442.0103 876.26953 3252.6101 2762009
-1415.7072 871.93732 3236.5295 3090974
-1375.949 859.08539 3188.8245 2300686
-1361.8917 862.14563 3200.1838 2629395
-1335.1959 857.17841 3181.7461 1510913
-1331.1516 866.81915 3217.5315 1905413
-1315.707 869.20856 3226.4006 2234124
-1309.0553 877.56305 3257.4114 2431502
-1295.9337 881.76526 3273.0095 1642243
-1255.9041 867.50854 3220.0901 2037259
-1261.2318 884.62573 3283.6272 2761239
-1226.9666 874.07361 3244.4587 2432276
-1204.7054 871.87329 3236.2917 2300690
-1182.7277 869.81018 3228.6338 2103054
-1159.0135 866.38141 3215.9065 1708295
-1135.1288 862.70825 3202.2722 2563860
-1126.4314 870.64911 3231.7476 2432017
-1100.8694 865.60388 3213.0205 3221275
-1083.059 866.5835 3216.6565 3155224
-1056.7469 860.67383 3194.7207 3615517
-1048.611 869.62238 3227.9365 2364937
-1034.5728 873.91754 3243.8796 2167558
-1018.3441 876.48993 3253.4282 2299144
-1002.6049 879.59119 3264.9395 2168073
-983.06183 879.41156 3264.2729 1050112
-963.79156 879.47363 3264.5032 1050112
-950.02356 884.66193 3283.7615 1444866
-922.14276 876.65063 3254.0247 1444866
-905.48438 879.19379 3263.4644 1642245
-885.09412 878.14526 3259.5728 2563347
-848.96057 861.08203 3196.2358 2168076
-845.43488 877.06799 3255.574 1707522
-835.276 886.75854 3291.5442 1707779
-820.38696 891.77063 3310.1482 2300172
-795.86835 886.30432 3289.8579 1641986
-780.1308 890.58789 3305.7581 1839108
-757.59082 887.12653 3292.9099 1707266
-737.87909 886.88159 3292.0007 2431243
-716.88354 885.03839 3285.1589 2497035
-702.27191 891.1936 3308.0063 2497035
-677.7608 884.77905 3284.1963 2957843
-659.13928 885.901 3288.3608 2760722
-638.69257 884.56354 3283.3965 1642243
-621.58978 887.91876 3295.8506 1708550
-603.9317 890.67261 3306.0725 2892824
-582.25391 887.48407 3294.2373 2037258
-559.43835 882.28021 3274.9209 3287580
-550.81177 899.8833 3340.2615 3286808
-523.87793 887.77466 3295.3157 3352343
-496.35379 873.68951 3243.0332 2299911
-474.27975 868.44965 3223.5835 3023634
-457.67026 873.19604 3241.2017 3024410
-442.78412 881.79016 3273.1021 919555
-423.42264 881.85077 3273.3271 196608
-402.26682 878.00085 3259.0366 131075
-384.09796 880.61084 3268.7246 2
-365.37537 882.16119 3274.479 65538
-344.61356 878.68567 3261.5784 0
-326.31763 881.45813 3271.8696 328450
-307.64865 883.50958 3279.4844 656900
-287.44717 881.13977 3270.688 788227
-270.24817 888.29651 3297.2529 1182467
-250.4238 887.26654 3293.4297 2629142
-231.21533 888.42902 3297.7446 2234379
-212.16295 890.4613 3305.2883 2760724
-192.24673 888.91254 3299.5396 2760467
-172.41232 887.43439 3294.0527 3023380
-153.51578 891.02222 3307.3704 2365194
-134.49683 894.8457 3321.5625 2431244
-115.56255 900.63947 3343.0684 3220504
-97.322227 915.35675 3397.6973 3417882
-77.052696 913.68719 3391.5 3944226
-56.367157 904.16663 3356.1606 3220759
-36.084141 894.24475 3319.332 3352344
-16.339695 889.8894 3303.1653 3023380
3.264493 899.67041 3339.4712 4405292
23.267353 908.22186 3371.2131 2497555
43.780937 919.60114 3413.4521 3682084
63.380093 910.65112 3380.2307 1774090
83.591362 912.68225 3387.7698 3156252
100.79646 887.45911 3294.1443 2168591
121.2346 894.26648 3319.4126 2432025
0 0 0 0
0 0 0 0
0 0 0 0
0 0 0 0
0 0 0 0
0 0 0 0
0 0 0 0
277.64539 891.34882 3308.5825 3285797
300.22348 900.27692 3341.7224 3154206
318.02768 894.67035 3320.9119 2956565
338.73251 897.40179 3331.0505 2562060
361.83365 905.83148 3362.3406 2562315
382.79401 908.30182 3371.5103 2694155
401.46381 905.36163 3360.5964 2825741
418.73111 899.68579 3339.5283 2562569
442.03439 906.90594 3366.3286 3286293
461.96002 906.87201 3366.2029 3352086
477.95737 899.44843 3338.6475 3615258
493.74307 892.23236 3311.8623 3417879
518.00378 900.29773 3341.7998 3812895
543.90466 910.51477 3379.7244 3944482
566.56909 914.78088 3395.5598 2826771
580.32281 904.86047 3358.7363 3813665
607.41412 915.7049 3398.9893 3813667
630.16687 919.52258 3413.1602 3483674
641.83472 907.43103 3368.2778 1904899
665.26166 912.19238 3385.9514 2431242
686.0072 913.10608 3389.343 2496778
701.07458 906.62482 3365.2852 2957585
726.9859 914.13739 3393.1711 1773313
745.63208 912.3562 3386.5596 4668202
776.76013 925.54083 3435.4995 3549722
785.99689 912.63409 3387.5911 3088914
802.66992 908.78925 3373.3196 2759949
831.20551 918.2359 3408.3843 3417622
848.10236 914.68201 3395.1926 3022608
858.58276 904.53296 3357.5205 2957072
873.83997 899.76196 3339.8113 3154967
902.95685 909.15723 3374.6853 1707267
922.07178 908.29272 3371.4766 2365197
939.75732 906.08698 3363.2888 2563091
965.16974 911.26801 3382.5203 2695450
979.47992 905.96924 3362.8521 2959396
1005.5893 911.57788 3383.6707 4737094
1015.6186 902.67554 3350.6262 6843754
1041.9677 908.34125 3371.6565 7699577
1091.1663 933.33844 3464.4431 7765113
1119.4105 939.81989 3488.5017 7633528
1153.3372 950.75073 3529.0754 7501942
1178.3329 954.06128 3541.3638 7501943
1208.9213 961.70483 3569.7358 7567737
1243.5189 972.22034 3608.7681 7436151
1274.4996 979.60016 3636.1614 7633529
1292.2209 976.71277 3625.4436 7502200
1321.9951 982.88086 3648.3389 7370100
1334.272 976.0509 3622.9868 5659226
1349.7266 971.72479 3606.929 6382948
1390.9862 985.82227 3659.2571 7304050
1394.0659 972.84338 3611.0811 7172464
1406.1934 966.47528 3587.4434 6580327
1411.1096 955.41431 3546.3862 6777190
1424.2737 950.18036 3526.9583 6711650
1440.7391 947.26831 3516.1492 723721
1419.1833 919.79706 3414.1792 4276541
1425.7174 911.04749 3381.7017 262657
1443.8706 909.86237 3377.3027 2564896
1464.1211 910.01306 3377.8623 985864
1456.6694 893.17395 3315.3572 854278
1462.2134 884.6452 3283.6995 985863
1448.5889 864.89563 3210.3916 2301723
1463.9916 862.7644 3202.4807 2103829
1478.6865 860.27594 3193.2439 590850
1479.173 849.68854 3153.9446 1774607
1469.3452 833.51428 3093.9077 1642506
1485.4337 832.25909 3089.2483 1839884
1501.2966 830.90936 3084.2385 1313283
1524.3309 833.51361 3093.905 1641992
1526.9274 825.01318 3062.3525 1313027
1540.8386 822.75403 3053.9668 1510661
1540.9867 813.28363 3018.8137 1444867
1555.0258 811.27759 3011.3677 1050369
1575.7412 812.76068 3016.8728 1181955
1570.1259 800.78156 2972.4075 1576710
1574.0851 793.89716 2946.8533 2958365
1588.7078 792.48291 2941.6038 1708558
1617.6075 798.14386 2962.6167 655616
1644.3608 802.63544 2979.2891 393216
1660.2535 801.78693 2976.1392 393216
1676.2528 801.00702 2973.2444 327680
1690.3516 799.34454 2967.0735 393728
1716.2604 803.24371 2981.5469 262144
1754.9501 812.98425 3017.7024 1314830
1781.7035 817.0545 3032.8108 1051657
1855.3269 842.32269 3126.6033 1906966
1896.1584 852.35071 3163.8264 722950
1887.7664 840.27246 3118.9932 2170907
1937.4049 854.00824 3169.9785 2039581
1983.3075 865.84924 3213.9312 1184528
2006.6353 867.70325 3220.8132 657931
2061.5435 883.04968 3277.7773 1579545
2052.2417 870.86249 3232.5398 4671047
2100.9541 883.29102 3278.6731 1776412
2130.3008 887.42487 3294.0171 921103
2154.7817 889.47491 3301.6267 1381914
2182.3875 892.76636 3313.8445 1052946
2209.9885 895.99731 3325.8372 1118483
2231.9055 896.88696 3329.1394 2171428
2231.7615 888.97357 3299.7659 460808
2267.8257 895.495 3323.9729 2894895
2278.2859 891.88116 3310.5586 592395
2304.8025 894.56085 3320.5051 1381401
2333.8328 898.16248 3333.8743 1447194
2368.7424 903.94739 3355.3472 986897
2374.4143 898.57129 3335.3916 987156
2402.9529 901.86615 3347.6218 2763823
2432.6394 905.53448 3361.238 3949638
2424.8789 895.31696 3323.3118 8883342
2465.8323 903.10535 3352.2214 3948099
2466.3486 896.07764 3326.1353 2566189
2481.738 894.52216 3320.3616 3289912
2509.4077 897.38263 3330.9795 3223863
2532.8928 898.71375 3335.9204 790032
2544.5212 895.84991 3325.2903 1250586
2572.7542 898.83112 3336.356 4276551
2570.7488 891.28326 3308.3391 1710624
2578.1172 887.07483 3292.718 2105638
2586.5239 883.28418 3278.6475 394761
2568.9492 870.74371 3232.0989 197125
2593.2798 872.48749 3238.5713 131332
2593.2358 866.06512 3214.7327 1249815
2629.2712 871.69812 3235.6416 1052436
2641.7039 869.48108 3227.4121 197128
2641.2974 863.1004 3203.7278 65794
2655.1763 861.44556 3197.585 0
2677.9661 862.68469 3202.1848 1052691
2689.5098 860.30902 3193.3665 855057
2686.9685 853.49261 3168.0649 1184535
2716.4546 856.87341 3180.6138 3026482
2753.6445 862.62091 3201.948 1250072
2763.0886 859.65753 3190.9482 1776674
2795.1477 863.72266 3206.0374 1908772
2784.9202 854.75403 3172.7471 1974051
2795.7751 852.33307 3163.7607 5000017
2832.3835 857.74347 3183.8433 2894641
2798.7366 841.94714 3125.2095 1973539
2828.969 845.4491 3138.2083 1644574
2859.5691 849.01459 3151.4426 2368298
2877.0144 848.65326 3150.1018 1512988
2911.9304 853.41699 3167.7842 1447450
2909.1045 847.12915 3144.4446 1513244
2967.845 858.7356 3187.5259 2236711
2937.1833 844.49042 3134.6497 2697263
2957.1768 844.89703 3136.1589 2632239
2980.0435 846.11426 3140.6772 2303016
2982.2769 841.49451 3123.5293 5855840
0 0 0 0
0 0 0 0
0 0 0 0
0 0 0 0
0 0 0 0
0 0 0 0
0 0 0 0
-2771.4915 853.94946 3101.5571 3353630
-2796.771 867.48981 3150.7361 4406575
-2785.2571 869.72308 3158.8472 3090714
-2761.3928 868.10388 3152.9663 2301199
-2749.448 870.23523 3160.7075 2169613
-2745.3066 874.88269 3177.5872 4011815
-2749.0327 882.11896 3203.8691 3682853
-2735.7322 883.95428 3210.5349 3748643
-2715.762 883.64502 3209.4119 3156504
-2646.1155 867.05402 3149.1531 3090455
-2626.5518 866.75458 3148.0654 2498062
-2601.7317 864.70386 3140.6172 2037767
-2572.6746 861.20526 3127.9104 1905668
-2551.2339 860.22394 3124.3462 2168841
-2520.603 856.10699 3109.3933 2300427
-2501.0657 855.72498 3108.0059 2563600
-2475.5193 853.26593 3099.0747 2695698
-2471.0439 858.0874 3116.5864 3024149
-2452.457 858.04419 3116.4292 2563855
-2425.8999 855.19067 3106.0652 2563599
-2425.7449 861.67194 3129.6052 2366220
-2397.5779 858.22607 3117.0898 2169097
-2376.1597 857.16119 3113.2224 2695185
-2320.0208 843.45679 3063.4478 4208681
-2308.6648 845.94574 3072.4875 2695698
-2302.1133 850.24872 3088.1162 3288092
-2290.8401 852.86279 3097.6104 3419420
-2258.0369 847.4389 3077.9106 2564112
-2246.6763 850.03955 3087.3562 3287578
-2204.6208 840.97412 3054.4304 2826771
-2198.3264 845.51282 3070.915 2958357
-2169.4214 841.35834 3055.8262 2432012
-2167.2192 847.57709 3078.4128 2892564
-2143.8733 845.56219 3071.0947 3089943
-2127.4683 846.2738 3073.679 3616030
-2111.2288 847.06409 3076.5493 3089942
-2097.1699 848.75067 3082.675 2826771
-2100.2463 857.46259 3114.3171 1839878
-2085.78 859.10345 3120.2766 1642497
-2088.5735 867.94617 3152.3933 2366218
-2098.7659 880.05103 3196.3584 2892562
-2079.6685 879.9826 3196.1101 3024403
-2063.9087 881.33832 3201.0342 2103559
-2051.7974 884.2915 3211.76 2695697
-2032.6555 884.2417 3211.5791 3287581
-2046.1411 898.51849 3263.4326 2169100
-1986.7682 880.76825 3198.9634 787968
-1949.7592 872.68591 3169.6082 2103307
-1964.2729 887.73151 3224.2542 3155996
-1930.2251 880.91022 3199.4792 3748132
-1909.3785 880.03815 3196.3118 4406575
-1892.9135 881.18823 3200.4888 3287835
-1867.1428 877.9859 3188.8579 3682850
-1816.155 862.73907 3133.4812 2695188
-1767.7449 848.41437 3081.4536 2761237
-1769.2069 857.97614 3116.1824 2629651
-1778.1937 871.42737 3165.0374 2234893
-1760.9338 872.16559 3167.7185 2168845
-1732.7996 867.47577 3150.6848 2827032
-1727.8811 874.43274 3175.9526 1905930
-1710.7441 875.29138 3179.0713 2169102
-1694.8093 876.79095 3184.5178 1905930
-1675.7959 876.71375 3184.2373 1116933
-1656.6904 876.58612 3183.7737 2169102
-1634.6575 874.88861 3177.6084 4471857
-1609.6489 871.54053 3165.448 3880488
-1599.3163 876.15326 3182.2017 3354143
-1573.1168 872.08008 3167.408 3156251
-1552.2982 870.92755 3163.2219 3484960
-1524.6849 865.88812 3144.9187 2498065
-1513.6543 870.25812 3160.7903 2629651
-1506.4691 876.97589 3185.1897 2234893
-1482.2871 873.8443 3173.8154 2235407
-1465.3531 874.9599 3177.8674 2301457
-1438.9474 870.37537 3161.2163 5065277
-1415.2576 867.33441 3150.1716 2828570
-1405.8 873.0509 3170.9341 2104334
-1396.0497 878.73798 3191.5894 2827545
-1364.6583 870.77228 3162.658 2235149
-1347.1882 871.59149 3165.6333 2103307
-1322.8896 867.95355 3152.4204 1774342
-1314.4404 874.75928 3177.1389 2497808
-1289.3474 870.52533 3161.761 2431759
-1273.1362 872.25171 3168.0312 2826517
-1245.4227 866.03137 3145.4387 2431759
-1240.9205 876.00775 3181.6731 2563345
-1213.7976 870.07666 3160.1316 2760982
-1190.1128 866.46307 3147.0068 2365968
-1175.2703 869.27448 3157.218 2761239
-1151.7783 865.67596 3144.1479 3945513
-1123.1622 858.04449 3116.4302 3024155
-1087.8634 844.96729 3068.9338 2629909
-1091.0792 861.8692 3130.3218 2892567
-1079.2103 867.23376 3149.8059 3287067
-1061.9624 868.38855 3154 2628880
-1040.4154 866.00635 3145.3479 2628622
-1028.9608 872.091 3167.4475 2365450
-1016.0364 877.13287 3185.7598 2233864
-1002.2157 881.57709 3201.9011 2298887
-974.96045 874.14752 3174.9167 2562828
-969.20978 886.08575 3218.2769 2496780
-952.08905 887.89978 3224.8652 3155737
-939.81122 894.39685 3248.4626 2629138
-915.55206 889.52478 3230.7673 1708037
-896.2702 889.38379 3230.2554 1708037
-870.65356 882.81348 3206.3918 2168329
-853.33862 884.55536 3212.7185 2299659
-844.38489 895.2417 3251.531 2365707
-815.87738 885.2113 3215.1006 2694671
-792.34174 880.22485 3196.9897 2300426
-774.995 882.03778 3203.5742 3221528
-752.58923 878.03937 3189.0522 1774339
-739.93701 885.50763 3216.1768 2365963
-715.04968 878.34131 3190.1487 2299657
-700.24951 883.51306 3208.9326 2299655
-680.64868 882.74738 3206.1516 3089426
-658.56696 878.62781 3191.1895 3352597
-641.72327 881.45972 3201.4749 3089169
-618.02637 874.76392 3177.1555 2760460
-603.87183 881.57806 3201.9048 2563081
-584.67914 881.24066 3200.6792 3089168
-561.39099 874.50085 3176.2002 2957583
-544.89746 878.24506 3189.7991 3154706
-531.52661 887.47198 3223.3115 2628106
-511.2261 885.38531 3215.7327 2496520
-494.06821 888.79034 3228.0999 1838848
-472.74417 884.67334 3213.1467 2496777
-454.3111 885.84778 3217.4124 2431501
-432.65994 880.57544 3198.2632 1510916
-414.81705 882.92603 3206.8005 1380359
-393.23779 877.16779 3185.8865 1709842
-374.67715 877.90186 3188.5525 1512978
-355.43506 877.03229 3185.3943 65536
-338.16162 881.19525 3200.5142 0
-317.84628 877.45532 3186.9307 985607
-298.20462 875.22009 3178.8125 2038805
-280.42505 878.51709 3190.7874 1445894
-262.41449 881.51495 3201.6755 1248257
-246.09528 891.10406 3236.5032 1905930
-227.85553 894.77191 3249.825 2300173
-209.14471 897.09631 3258.2673 3484700
-189.52275 895.58771 3252.7878 4340010
-171.17657 900.44861 3270.4429 2892564
-152.356 903.73639 3282.384 1839879
-132.83917 903.25195 3280.6245 1905160
-114.0159 908.12555 3298.3257 3747619
-94.561501 908.94867 3301.3152 3352861
-74.668274 904.88306 3286.5488 3155482
-55.189419 904.74207 3286.0369 3418911
-35.46896 898.32837 3262.7422 3681311
-16.064451 894.13818 3247.5232 2562829
3.2277114 909.09448 3301.8447 3088913
22.584105 900.93707 3272.217 5720633
42.309162 908.22931 3298.7026 2431245
61.798351 907.45013 3295.8723 2760206
81.206161 906.1369 3291.1028 2365451
100.5982 905.19031 3287.6646 1774088
118.18645 890.95288 3235.9543 2299923
0 0 0 0
0 0 0 0
0 0 0 0
0 0 0 0
0 0 0 0
0 0 0 0
0 0 0 0
273.63742 897.79956 3260.8213 3351331
289.5361 887.32104 3222.7634 3285021
310.84814 893.70276 3245.9417 1838602
334.85974 906.64996 3292.9663 2891283
356.73932 912.71692 3315.0015 1838338
372.75729 903.9364 3283.1104 2627595
391.01996 901.20007 3273.1721 2430216
409.7966 899.85107 3268.2725 2167043
430.74155 903.17023 3280.3276 3153680
448.681 900.17291 3269.4414 3351316
469.68866 903.32465 3280.8887 3285267
494.21918 912.73193 3315.0559 3352342
511.29761 908.18353 3298.5361 3286293
529.00116 905.03943 3287.1167 3615258
547.26355 903.04083 3279.8577 3286292
571.99652 911.49023 3310.5461 3549465
596.52686 919.06726 3338.0659 3944222
613.25793 914.52734 3321.5769 3417878
624.54956 902.41016 3277.5671 4075807
647.51404 907.38123 3295.6223 2694155
661.93951 900.44562 3270.4321 3352084
676.67865 894.31909 3248.1802 3681050
704.95721 905.93066 3290.3535 3089171
726.76794 908.82928 3300.8813 2957585
753.76636 917.89325 3333.8018 3352344
778.05426 923.27777 3353.3589 2826001
793.04773 917.63977 3332.8813 2497036
806.73798 910.80426 3308.0547 3088917
828.38153 913.05914 3316.2446 2496523
847.0979 912.05817 3312.6086 2957587
868.39532 913.81836 3319.002 2431245
887.15369 912.88806 3315.623 2102026
905.57935 911.66296 3311.1736 2233611
917.75085 904.32721 3284.53 2299919
940.85016 907.84045 3297.2903 2759957
963.53339 910.8175 3308.1028 2760470
977.07654 905.20807 3287.7292 2695962
987.12726 896.64563 3256.6301 3157545
1004.2313 894.69543 3249.5471 7172461
1050.4369 918.25824 3335.1274 7304050
1100.8982 944.60254 3430.8103 7633528
1128.1694 950.45453 3452.0652 7304563
1154.838 955.59961 3470.7522 7172977
1181.0634 960.20435 3487.4766 7304565
1205.6744 963.3609 3498.9412 7238772
1240.6669 974.56537 3539.636 7304565
1269.7953 980.86768 3562.5261 7172980
1290.295 980.40778 3560.8557 7172464
1309.3135 978.8551 3555.2163 7172463
1328.1771 977.23761 3549.3416 7106670
1351.1154 978.62183 3554.3691 7369843
1364.3054 973.01129 3533.9917 7040878
1383.2808 971.63391 3528.989 7501429
1391.863 963.1062 3498.0161 8158844
1396.8773 952.39581 3459.116 8290426
1401.8207 941.94763 3421.168 7500654
1427.5977 945.59674 3434.4216 6842211
1429.2899 933.41449 3390.1755 2894630
1424.1027 917.13947 3331.0642 920328
1435.3612 911.75574 3311.5105 1117194
1459.3464 914.49237 3321.45 459778
1469.5001 908.60394 3300.0632 722692
1444.2885 881.29077 3200.8611 1512208
1464.3871 881.97491 3203.3459 1578000
1473.052 875.84332 3181.0762 854022
1455.1697 854.28174 3102.7642 985863
1386.0155 803.53345 2918.4456 3222309
1473.4814 843.71655 3064.3911 2103571
1500.7539 848.87415 3083.1235 919299
1522.6481 850.90216 3090.4895 393472
1533.3704 846.71301 3075.2742 590336
1531.1901 835.58118 3034.8433 1840400
1551.4927 836.83435 3039.395 722176
1556.4553 829.87988 3014.136 1050882
1570.1846 827.70422 3006.2341 919298
1573.6011 820.20227 2978.9868 722435
1580.7548 814.79291 2959.3398 1050886
1605.7841 818.61505 2973.2222 393472
1628.0155 820.94342 2981.6787 393216
1638.6515 817.43744 2968.9448 524801
1652.3538 815.51929 2961.978 262144
1689.0784 824.8847 2995.9937 196608
1709.4271 826.14124 3000.5571 196608
1724.1807 824.6955 2995.3064 131072
1722.2581 815.38422 2961.4875 2235676
1778.6029 833.56842 3027.533 1446673
1850.2631 858.49585 3118.0696 1315599
1908.0366 876.55084 3183.6458 3552561
1939.7072 882.37811 3204.8105 657670
1964.0239 884.7796 3213.5327 1381651
1990.902 888.27765 3226.2378 1579030
2060.0291 910.38031 3306.5149 1447443
2066.5808 904.67322 3285.7866 987407
2050.9871 889.46869 3230.5635 1316117
2098.9114 901.83698 3275.4854 1447705
2109.9089 898.25787 3262.4858 1184533
2115.6145 892.51105 3241.6135 921361
2122.7649 887.47168 3223.3105 1316122
2185.0959 905.38617 3288.376 855313
2239.1292 919.57617 3339.9143 2039587
2144.5654 873.02576 3170.8425 921363
2260.7539 912.33313 3313.6077 3026999
2236.5212 894.78448 3249.8706 7566451
2269.4407 900.20551 3269.5598 1776413
2298.981 904.20569 3284.0884 1513240
2322.7056 905.87054 3290.1355 2236710
2339.3467 904.76813 3286.1313 2368296
2336.22 896.10162 3254.6543 1776158
2364.229 899.42194 3266.7139 3618363
2341.3743 883.4953 3208.8682 1249814
2400.4729 898.50049 3263.3669 855055
2443.3196 907.23145 3295.0781 2039588
2445.2546 900.75336 3271.5496 1184025
2455.2656 897.32874 3259.1116 3421500
2488.5051 902.38074 3277.4602 6052964
2498.2102 898.88647 3264.769 2894898
2499.3101 892.37354 3241.1138 263435
2524.6191 894.5376 3248.9741 197126
2543.2769 894.3302 3248.2205 197380
2531.6619 883.56049 3209.105 263175
2516.2168 871.62463 3165.7539 1381402
2604.8311 895.64526 3252.9968 986643
2634.5144 899.19897 3265.9041 65794
2616.9602 886.6955 3220.4912 197380
2602.4038 875.38153 3179.3987 986643
2624.9814 876.63129 3183.9377 986900
2637.3015 874.46198 3176.0588 1710879
2647.5059 871.62689 3165.762 3224119
2657.5562 868.78131 3155.4265 131587
2691.2478 873.65021 3173.1104 3684670
2698.1792 869.82458 3159.2158 3092535
2718.9561 870.48444 3161.6123 3684672
2753.3179 875.45465 3179.6646 592401
2746.7898 867.44427 3150.5706 1316895
2757.3721 864.90906 3141.3628 2040359
2752.9387 857.72949 3115.2861 6381927
2765.9775 856.05298 3109.1973 1250072
2783.281 855.70978 3107.9507 2302504
2790.8391 852.39471 3095.9104 2236713
2849.8997 864.75043 3140.7864 789523
2856.4846 861.12616 3127.6233 855573
2916.2114 873.46588 3172.4412 4079944
2863.1406 852.07867 3094.7625 3618618
2909.5371 860.37695 3124.9021 2960688
2878.8213 845.91174 3072.364 3289396
2879.603 840.82532 3053.8901 2697005
2916.3591 846.24103 3073.5601 2697518
2972.9099 857.29791 3113.7188 4539722
0 0 0 0
0 0 0 0
0 0 0 0
0 0 0 0
0 0 0 0
0 0 0 0
0 0 0 0
0 0 0 0
-2739.4927 868.0069 3086.2085 4143403
-2718.9946 867.30054 3083.6968 2695956
-2687.0776 862.91742 3068.1128 2038027
-2675.7266 865.12421 3075.959 2103820
-2650.4495 862.82776 3067.7937 3222300
-2630.3379 862.19263 3065.5359 2761236
-2624.3796 866.2204 3079.8564 4011557
-2634.9468 875.79718 3113.9067 3222042
-2590.2527 867.0119 3082.6707 2695698
-2559.2476 862.71631 3067.3977 2695698
-2533.7705 860.23615 3058.5796 1840132
-2526.9607 864.10364 3072.3303 2037511
-2503.6155 862.33185 3066.0308 2366220
-2483.4836 861.64911 3063.603 2432013
-2450.8728 856.59473 3045.6323 2760978
-2422.3306 852.89801 3032.4885 2827283
-2413.5576 856.15881 3044.0823 4669744
-2364.0537 844.91138 3004.092 2958869
-2357.8975 849.10327 3018.9963 2958357
-2342.7129 850.08313 3022.4805 2629392
-2325.8889 850.47876 3023.887 2958357
-2314.4016 852.84705 3032.3076 2695185
-2295.2007 852.38776 3030.6746 2234377
-2250.1401 842.24176 2994.6003 2826770
-2256.6741 851.40009 3027.1628 2300427
-2229.7048 847.96375 3014.9448 2892565
-2199.124 843.08746 2997.6072 3024151
-2211.7676 854.83771 3039.3853 2300427
-2173.1453 846.8042 3010.822 2168588
-2158.0825 847.89417 3014.6973 2102794
-2146.4929 850.37805 3023.5291 1708291
-2127.1025 849.7876 3021.4294 2169097
-2107.6013 849.14233 3019.135 2432526
-2102.0461 854.15283 3036.9502 2366734
-2060.3716 844.44635 3002.4387 2827284
-2074.2874 857.55292 3049.0393 2498319
-2073.644 864.81799 3074.8701 2694928
-2053.782 864.12549 3072.408 1905668
-2043.7423 867.59033 3084.7275 1116160
-2023.1542 866.5993 3081.2039 2563596
-2009.6281 868.64282 3088.4695 3287575
-2012.1261 877.71381 3120.7214 3155988
-1994.9941 878.31067 3122.8438 2958868
-1962.0203 871.87909 3099.9761 2761490
-1942.5232 871.37122 3098.1704 2564626
-1917.7482 868.4635 3087.832 3880231
-1890.1305 864.2002 3072.6736 2761493
-1885.9535 870.6756 3095.697 3288093
-1891.8439 881.9715 3135.8599 1971721
-1837.8715 865.30682 3076.6084 2695444
-1848.6263 879.0885 3125.6094 3353628
-1836.5048 882.16052 3136.5317 3616800
-1804.9279 875.85437 3114.1104 6643278
-1780.4382 872.8927 3103.5801 3748386
-1760.4059 872.07727 3100.6807 2958615
-1746.1573 874.14014 3108.0151 2695700
-1716.7979 868.60156 3088.3228 2892823
-1701.7756 870.27576 3094.2754 3221788
-1703.5369 880.66272 3131.2063 2300430
-1685.7152 881.04346 3132.5601 2958615
-1652.0676 873.06903 3104.207 2300686
-1617.979 864.67932 3074.3772 2958616
-1585.9241 857.19788 3047.7769 3089945
-1566.8519 856.64227 3045.8013 3287581
-1552.9471 858.93164 3053.9412 2892823
-1549.847 867.32153 3083.7715 2760978
-1550.0756 877.79651 3121.0154 2958100
-1512.0979 866.62726 3081.3032 2563600
-1507.0488 874.28802 3108.5413 2300685
-1496.7975 879.08313 3125.5901 2300688
-1491.5828 886.99329 3153.7148 2366481
-1454.53 875.93109 3114.3831 2169615
-1435.9285 875.83893 3114.0552 1972235
-1414.1211 873.76331 3106.6755 2630166
-1389.6398 869.95911 3093.1497 3353633
-1388.9105 881.12158 3132.8379 3485475
-1352.9315 869.92108 3093.0144 2761493
-1355.4148 883.48346 3141.2356 2761493
-1340.17 885.70709 3149.1418 2892565
-1305.7422 875.13672 3111.5586 2629392
-1274.5264 866.44708 3080.6624 3155736
-1239.2306 854.6911 3038.8638 2826772
-1226.7854 858.58069 3052.6934 2629138
-1210.1851 859.63513 3056.4426 1971209
-1197.2191 863.34259 3069.6243 2366481
-1187.2856 869.38483 3091.1077 2563604
-1159.416 862.27698 3065.8357 1708813
-1152.0336 870.42206 3094.7954 2168846
-1126.4617 864.86511 3075.0378 2234639
-1104.6868 862.08881 3065.1665 2629141
-1091.0198 865.65265 3077.8379 2037003
-1069.188 862.74933 3067.5151 2365966
-1047.442 859.8161 3057.0859 2234123
-1035.3737 864.86346 3075.032 1575680
-1015.6445 863.578 3070.4614 1839108
-1006.6664 871.55365 3098.8188 1575937
-1007.3458 888.3421 3158.5103 1839108
-976.42609 877.37244 3119.5078 1839107
-960.36383 879.58746 3127.3833 2628622
-942.9455 880.62317 3131.0659 2760208
-917.28638 873.84991 3106.9834 2695185
-915.08087 889.59967 3162.9819 3418908
-894.02112 887.29559 3154.7898 3287321
-868.30743 880.17572 3129.4749 2497808
-846.409 876.69678 3117.1055 2497552
-832.82642 881.86829 3135.4927 2036743
-822.58435 890.89355 3167.5823 1708036
-797.95587 884.39545 3144.478 2563345
-782.90448 888.45483 3158.9114 2629392
-753.34912 875.85077 3114.0974 2826771
-733.7478 874.47699 3109.2129 2892564
-720.43616 880.7215 3131.4153 2957844
-697.4682 875.17938 3111.7102 2168072
-677.09943 872.68628 3102.8462 1838850
-663.28467 878.73706 3124.3596 2036485
-642.83179 876.08838 3114.9421 1378560
-626.04944 878.43335 3123.2798 1313025
-611.85748 884.66663 3145.4424 1181696
-590.01306 879.87952 3128.4216 1378817
-578.45374 890.61725 3166.5999 2694933
-552.50537 879.17816 3125.928 787456
-535.48804 881.65002 3134.7168 1707523
-519.8891 886.71881 3152.739 2694415
-503.7077 891.13489 3168.4402 2102277
-486.54425 894.08813 3178.9404 1839106
-465.07559 889.04919 3161.0247 1444352
-447.86816 892.07526 3171.7837 1576452
-427.84961 889.52173 3162.7048 1510917
-404.87323 880.30328 3129.9285 788225
-386.93851 881.68799 3134.8516 986376
-368.78 882.67664 3138.3669 986634
-350.05557 882.34381 3137.1836 65536
-332.90433 886.16132 3150.7568 0
-313.85025 885.06647 3146.8638 1314830
-294.95419 884.30695 3144.1633 920582
-274.61099 878.8139 3124.6328 1314824
-257.16998 882.48572 3137.688 1774602
-241.40648 892.93457 3174.8389 1642757
-224.01529 898.61987 3195.0532 2497552
-204.03595 894.01422 3178.6777 2431758
-185.55943 895.72632 3184.7651 2234634
-167.99248 902.71362 3209.6084 2891794
-148.0442 897.05524 3189.49 3023381
-130.04761 903.29724 3211.6836 2760725
-112.48398 915.20148 3254.0095 2958103
-92.527916 908.53851 3230.3191 3484447
-74.163002 918.09833 3264.3091 3221275
-54.091305 905.82013 3220.6538 2892052
-34.794365 900.20441 3200.687 3483675
-15.675543 891.26495 3168.9028 3154707
3.0855558 887.75531 3156.4241 3220500
21.916964 893.13586 3175.5549 3023120
40.903538 896.94861 3189.1111 3023122
59.853371 897.80084 3192.1411 1904388
78.945023 899.86041 3199.4641 2036232
97.596352 897.07513 3189.5608 1641989
116.19274 894.77032 3181.3662 2299921
0 0 0 0
0 0 0 0
0 0 0 0
0 0 0 0
0 0 0 0
228.75848 892.75256 3174.1919 3021596
249.91074 901.21838 3204.2922 2627351
269.82001 904.32306 3215.3311 2496020
287.34204 899.54468 3198.3416 2232590
306.89572 901.32458 3204.6697 2496015
328.86383 909.57477 3234.0034 2233612
350.38077 915.73737 3255.9148 2233610
365.60104 905.65894 3220.0808 2891537
380.80997 896.55341 3187.7061 2759951
399.14938 895.33032 3183.3572 2759948
417.10419 893.3938 3176.4719 2496263
434.13132 889.72327 3163.4211 3614486
459.42203 902.59125 3209.1736 3285522
477.29428 900.44128 3201.5293 3286291
499.50122 906.3208 3222.4341 3483671
517.57513 904.54437 3216.1179 3417878
535.24469 902.21228 3207.8262 2825741
554.80823 903.12341 3211.0654 3023120
576.48907 907.30634 3225.938 2957328
592.67725 902.85345 3210.106 3023120
615.50684 908.48029 3230.1121 3286292
632.26068 905.07031 3217.988 3549464
648.40417 901.01184 3203.5581 3220500
661.67737 893.30927 3176.1711 4010017
