# .PCD v0.7 - Point Cloud Data file format
VERSION 0.7
FIELDS x y z rgb
SIZE 4 4 4 4
TYPE F F F U
COUNT 1 1 1 1
WIDTH 1326
HEIGHT 1
VIEWPOINT 0 0 0 1 0 0 0
POINTS 1326
DATA ascii
888.95636 920.96143 2338.5708 2234904
896.77319 914.80273 2322.9321 3813932
895.90436 900.1037 2285.6074 2892571
903.18774 893.91083 2269.8821 2760726
918.47443 895.70477 2274.4373 3220507
934.92151 898.56195 2281.6924 2759699
949.17981 899.26392 2283.4751 2431762
973.00482 908.88251 2307.8992 3155997
986.85217 909.04352 2308.3081 3682085
994.13867 903.23926 2293.5696 3485474
1028.9143 922.23041 2341.793 3814957
1039.5573 919.37347 2334.5386 7632240
1063.2268 927.961 2356.3445 7566704
1094.1973 942.6153 2393.5559 7961978
1121.9321 954.14301 2422.8279 7896441
1140.0884 957.33636 2430.9365 7896442
1157.2712 959.64276 2436.7932 7895669
1175.7825 962.98041 2445.2683 5524040
1177.9454 953.01025 2419.9514 1314317
1190.1693 951.32159 2415.6636 5458506
1211.067 956.52399 2428.8738 196865
1223.7438 955.18744 2425.48 852999
1236.1577 953.67908 2421.6497 524804
1252.5021 955.2027 2425.5188 65536
1272.2115 959.22913 2435.7429 328708
1278.0741 952.84192 2419.5239 1644566
1292.4498 952.8728 2419.6025 3289391
1308.2468 953.93939 2422.3108 921101
1325.5159 956.04462 2427.6565 1184015
1356.9227 968.19214 2458.5024 1184272
1343.0078 948.08716 2407.4504 1447187
1361.1073 950.76752 2414.2566 2763047
1378.97 953.22845 2420.5056 1841689
1388.9803 950.26672 2412.9849 1118222
1398.6803 947.15491 2405.0833 723465
1398.7147 937.62671 2380.8884 2170397
1424.7413 945.53864 2400.979 2893863
1431.7441 940.79358 2388.9302 1644567
1440.6417 937.37439 2380.2478 197378
1441.4321 928.79749 2358.4688 5987162
1452.3003 926.81671 2353.439 8027514
1454.4814 919.38245 2334.5613 8027770
1463.2158 916.19147 2326.4587 7896698
1476.2626 915.73517 2325.2998 7566963
1497.8322 920.52515 2337.4629 5592916
1501.4279 914.28223 2321.6106 2171169
1522.5754 918.74384 2332.9397 3026219
1530.7189 915.34875 2324.3188 2499876
1544.087 915.11078 2323.7144 2236703
1531.6873 899.74036 2284.6848 1710359
1543.2323 898.58173 2281.7427 460292
1561.7861 901.48877 2289.1245 3289648
1562.8837 894.35638 2271.0134 197378
1580.254 896.57831 2276.6555 131330
1594.9607 897.26434 2278.3975 1710362
1606.6605 896.26135 2275.8506 329221
1604.3462 887.5224 2253.6602 723725
1607.108 881.71277 2238.9077 328967
1611.954 877.13226 2227.2766 2
1604.5293 866.00342 2199.0173 921103
1604.0879 858.79248 2180.707 197381
1622.4092 861.66156 2187.9924 657932
1622.1594 854.70032 2170.3159 0
1629.9066 852.02899 2163.5327 2
1636.1483 848.61859 2154.8726 197381
1641.2366 844.66711 2144.8389 394505
1650.214 842.76263 2140.0029 4
1654.236 838.37585 2128.8635 3
1670.1049 840.01398 2133.0234 460299
1673.109 835.20557 2120.8135 4
1682.7168 833.74078 2117.094 3
1693.5131 832.88214 2114.9136 5
1706.0422 832.88214 2114.9136 657679
1715.3479 831.31982 2110.9465 65541
1728.087 831.43213 2111.2317 920850
1744.9941 833.53381 2116.5684 4
1771.0192 839.92969 2132.8091 7
1788.0377 841.99377 2138.0505 7
1801.5476 842.38831 2139.0522 7
1815.9976 843.21375 2141.1482 7
1830.8505 844.21356 2143.687 7
1843.7057 844.28473 2143.8679 7
1857.2429 844.6651 2144.8337 7
1869.0931 844.27844 2143.8518 197129
1876.748 842.01453 2138.1033 460299
1892.1455 843.23157 2141.1936 262921
1896.2987 839.45483 2131.6033 262919
1921.209 844.85583 2145.3181 2236711
1925.0166 840.96704 2135.4434 527118
1912.8153 830.18091 2108.0544 1381655
1924.2729 829.73639 2106.9258 1381910
1929.4919 826.62488 2099.0247 2105121
1927.1395 820.3302 2083.0408 2105378
1948.7568 824.25397 2093.0044 1710364
1962.2637 824.71942 2094.1863 1973539
1977.4745 825.89062 2097.1604 263174
1990.453 826.12085 2097.7449 592143
1975.8728 814.98102 2069.4578 2631469
0 0 0 0
0 0 0 0
0 0 0 0
0 0 0 0
0 0 0 0
0 0 0 0
0 0 0 0
0 0 0 0
0 0 0 0
0 0 0 0
-2452.6746 1119.4547 2800.4709 3288092
-2453.7148 1127.5565 2820.7388 3682849
-2419.7073 1119.5537 2800.7185 3353886
-2397.9604 1117.1522 2794.7109 3024920
-2391.1172 1121.7089 2806.1099 3485472
-2354.8301 1112.4199 2782.8726 2893338
-2329.2539 1108.0957 2772.0549 1971980
-2313.6174 1108.4722 2772.9966 1840650
-2291.1313 1105.5488 2765.6836 1972235
-2272.9839 1104.6921 2763.5403 2301201
-2250.9219 1101.9065 2756.5718 2366738
-2234.7937 1102.0062 2756.8213 3287839
-2224.8057 1105.1576 2764.7048 2959130
-2203.5398 1102.712 2758.5869 3288096
-2182.6992 1100.4442 2752.9136 3353889
-2168.8821 1101.7098 2756.0798 2695959
-2147.2236 1098.9814 2749.2544 2564888
-2131.3481 1099.1938 2749.7856 3222814
-2114.1914 1098.7435 2748.6592 2894113
0 0 0 0
0 0 0 0
0 0 0 0
0 0 0 0
-1998.2209 1080.0677 2701.939 13620177
0 0 0 0
0 0 0 0
-1946.2952 1077.905 2696.5286 2630937
-1964.2224 1096.8362 2743.8875 3156251
-1936.066 1090.1351 2727.124 3090201
-1890.4376 1073.4006 2685.2603 2300173
-1900.1382 1088.0647 2721.9446 1773828
-1860.6665 1074.5817 2688.2148 1971207
-1847.7925 1076.3593 2692.6616 2103050
-1828.0746 1074.1464 2687.126 2958615
-1831.2594 1085.4702 2715.4541 2564112
-1786.4862 1068.3158 2672.54 3090200
-1768.3097 1066.9017 2669.0024 2695186
-1750.6305 1065.7649 2666.1584 2498319
-1739.4386 1068.5925 2673.2324 2498062
-1716.9822 1064.4888 2662.9661 2366732
-1702.1063 1065.0519 2664.375 2169354
-1673.6514 1057.0494 2644.3555 1511426
-1651.0811 1052.6475 2633.3433 2235147
-1651.3064 1062.8335 2658.8252 2893077
-1632.2971 1060.7163 2653.5288 2498319
-1624.2885 1065.7762 2666.187 2893334
-1614.8496 1069.9879 2676.7229 2498577
-1602.5326 1072.3572 2682.6499 2038027
-1566.0907 1058.4685 2647.9055 2103819
-1560.6461 1065.4609 2665.3979 1709062
-1538.7809 1061.2712 2654.917 1380098
-1540.0696 1073.1288 2684.5803 1445379
-1527.2797 1075.3214 2690.0654 2169100
-1502.7761 1069.226 2674.8167 2234893
-1494.0487 1074.345 2687.6228 2235151
-1475.6262 1072.5276 2683.0762 1445380
-1451.9482 1066.8092 2668.771 1642756
-1424.8296 1058.4091 2647.7571 2366222
-1408.1221 1057.6416 2645.8372 2169100
-1386.7515 1053.3153 2635.0142 1971978
-1369.3649 1051.9508 2631.6006 2300689
-1342.3915 1043.1056 2609.4729 2432531
-1340.2358 1053.5634 2635.6348 1774602
-1324.1743 1053.2075 2634.7446 1840396
-1303.0914 1048.8016 2623.7227 2300946
-1299.576 1058.5995 2648.2332 3156254
-1272.7083 1049.3821 2625.1746 2827545
-1248.4337 1042.1013 2606.9607 2761752
-1222.8469 1033.5288 2585.5156 2630166
-1204.8835 1031.264 2579.8499 2827031
-1192.7515 1033.996 2586.6843 2827285
-1183.3572 1039.2035 2599.7114 3024150
-1171.4648 1042.3257 2607.522 3221271
-1140.4409 1028.2811 2572.3877 2497548
-1121.7913 1025.1647 2564.5913 1970694
-1110.9913 1029.2347 2574.7732 1839110
-1095.6948 1029.1943 2574.6721 1773318
-1074.1323 1023.1841 2559.6367 1773318
-1058.318 1022.5555 2558.0642 1970952
-1035.9839 1015.5178 2540.4585 2037001
-1027.6221 1022.1708 2557.1018 2826260
-1019.1719 1028.9337 2574.02 2300430
-996.72174 1021.5531 2555.5566 2366479
-983.15356 1023.1887 2559.6482 4077099
-970.6615 1026.0129 2566.7134 1906185
-957.10455 1027.7836 2571.1428 1906186
-940.17407 1025.9302 2566.5063 1774857
-927.40515 1028.6316 2573.2644 1972753
-901.94244 1017.1088 2544.4385 3024924
-889.74976 1020.413 2552.7043 2629909
-875.71246 1021.6794 2555.8726 2761239
-853.05615 1012.7579 2533.5542 2563860
-848.99902 1025.9934 2566.6646 2432017
-828.40045 1019.3571 2550.063 5327166
-813.75403 1019.9346 2551.5076 1577481
-793.10382 1012.8665 2533.8259 2498067
-783.73254 1020.2079 2552.1914 2366481
-766.42963 1017.31 2544.9419 3024153
-746.91455 1011.3008 2529.9089 2037260
-729.63092 1008.1287 2521.9734 2958618
-711.32703 1003.3845 2510.1055 2629398
-695.76477 1002.3879 2507.6121 3287071
-678.63342 999.03772 2499.2312 2168847
-664.52386 1000.0859 2501.8535 2498066
-647.05762 996.01489 2491.6692 2826262
-631.71814 995.10394 2489.3904 2826775
-615.91748 993.4057 2485.1421 2891542
-602.95166 996.30853 2492.4038 2562577
-591.58142 1002.0598 2506.7913 2365713
-574.35474 997.93176 2496.4644 1642249
-562.95477 1003.9769 2511.5872 1116678
-542.30981 993.4151 2485.1653 458752
-529.02649 996.12531 2491.9453 1247752
-509.73917 987.36127 2470.021 1510925
-500.65973 998.4364 2497.7271 1182729
-487.03772 1000.8512 2503.7678 1248522
-477.10812 1011.2438 2529.7664 854278
-460.72156 1008.181 2522.1045 788743
-452.22052 1022.7468 2558.543 65537
-439.07626 1027.4576 2570.3276 1
-424.02469 1027.8834 2571.3928 1
-409.04907 1028.5319 2573.0149 65795
-390.69461 1020.4059 2552.6865 657929
-373.90707 1015.8825 2541.3708 855050
-358.63837 1015.2794 2539.8618 920841
-345.21442 1020.0746 2551.8577 394498
-328.14584 1014.046 2536.7766 394241
-308.64191 999.552 2500.5178 1906966
-292.52481 995.11786 2489.425 1117705
-278.44958 997.52771 2495.4536 3288872
-264.7897 1001.7792 2506.0894 2959394
-248.59886 996.39166 2492.6116 1840913
-234.19246 997.92731 2496.4534 1906707
-218.99629 996.07782 2491.8267 1117192
-204.26108 996.20917 2492.1553 2695453
-189.38136 995.60132 2490.6345 1642510
-173.32735 988.19574 2472.1084 1708813
-157.2417 979.22607 2449.6697 2761501
-143.84901 986.90808 2468.8872 2234901
-130.00951 992.91663 2483.9185 1511434
-114.54809 986.49097 2467.8438 2695451
-100.25304 989.69958 2475.8706 2169876
-86.055984 995.14117 2489.4834 3485992
-71.37204 996.0387 2491.7288 1380362
-57.155846 1005.6343 2515.7334 2104083
-41.824635 995.461 2490.2834 2432277
-27.141033 998.01294 2496.6675 2695447
-12.393921 1001.545 2505.5037 2826776
2.4271026 992.48859 2482.8477 2432017
17.014212 985.4317 2465.1938 2563860
31.647884 986.34509 2467.4788 1642759
46.281647 986.68323 2468.3247 3156510
60.456417 979.4231 2450.1624 2169103
75.938545 992.05341 2481.759 1643273
89.758377 982.3927 2457.5913 2367512
104.86485 987.54529 2470.4812 3288615
120.07523 992.29449 2482.3621 3090979
135.0806 994.49799 2487.8745 1117706
150.77794 1000.8613 2503.793 4538426
166.23863 1004.6544 2513.2822 1972499
180.51773 1001.2701 2504.8159 2170132
194.45706 996.65851 2493.2793 4078129
209.15456 996.30951 2492.4062 3683626
222.49449 989.96637 2476.5378 3222560
236.28467 986.28723 2467.334 2827802
250.40726 984.34351 2462.4717 4340270
258.63553 960.71899 2403.3716 3682080
274.68903 967.11047 2419.3608 3944226
286.20392 957.68127 2395.7722 3286552
299.52887 954.91351 2388.8484 3022865
313.76355 955.16504 2389.4775 3154453
326.85098 952.05304 2381.6926 2957074
340.41425 950.52728 2377.8757 2430986
353.47336 947.77106 2370.9805 2233093
366.21738 944.41272 2362.5793 2956560
379.83987 943.48401 2360.2559 2824974
392.25735 939.73419 2350.8752 3351318
405.14886 937.3382 2344.8813 3153682
416.88522 932.51715 2332.8208 3219732
428.45264 927.63977 2320.6194 2957074
447.06372 937.84174 2346.1411 3877919
460.63965 937.18439 2344.4963 3286039
472.5665 933.30853 2334.8005 3351832
488.56732 937.47028 2345.2117 2891538
502.65302 937.82874 2346.1084 3878689
516.92572 938.50751 2347.8064 3352345
532.96301 942.27032 2357.2197 3615517
549.20483 946.19342 2367.0339 3747103
558.93805 938.98706 2349.0061 4536619
571.97113 937.53979 2345.3857 3286552
601.88287 963.17145 2409.5068 3944225
603.16003 942.85413 2358.6802 4536105
614.83429 939.34167 2349.8933 4470311
628.51923 938.98846 2349.0098 3746844
643.14374 940.02393 2351.6001 3878173
650.26337 930.27893 2327.2217 3023121
660.97107 925.96509 2316.4299 3615001
679.7395 932.88947 2333.7522 4010273
693.46564 932.75555 2333.4172 3681308
695.41656 917.09821 2294.248 4010532
704.39508 911.1311 2279.3206 4010788
733.1319 930.46497 2327.687 4010276
741.1709 923.30115 2309.7656 3484190
756.64136 925.48669 2315.2332 2432273
774.39209 930.33398 2327.3594 3484962
788.60522 930.836 2328.6152 3747621
791.43024 918.10992 2296.7791 2892310
801.40027 913.96252 2286.4038 3418654
814.80328 913.80304 2286.0049 3682339
824.32867 909.37122 2274.918 5524032
845.65887 917.89496 2296.2415 3287071
860.86151 919.60339 2300.5151 1840914
870.49805 915.40515 2290.0127 2958622
879.65631 910.84064 2278.594 2235156
887.75568 905.33405 2264.8186 4536110
898.45471 902.60333 2257.9873 3615263
903.64178 894.49652 2237.7068 3549213
910.61688 888.36835 2222.3765 3023382
927.10089 891.5592 2230.3589 3550241
938.51221 889.85089 2226.0852 3418397
947.15698 885.60303 2215.4587 3418140
966.71063 891.53192 2230.2905 3088660
996.06866 906.22083 2267.0369 2826259
996.19537 894.27814 2237.1606 4143148
1021.7901 905.21143 2264.5117 6711136
1051.5312 919.48706 2300.2241 7238252
1081.0883 933.23834 2334.625 8290428
1106.4507 943.0672 2359.2131 8750980
1130.4397 951.49469 2380.2957 8553599
1153.4886 958.93311 2398.9041 6447709
1185.1547 973.26691 2434.762 5920082
1189.1078 964.77142 2413.5093 5261637
1193.6096 956.9176 2393.8618 2235418
1212.4299 960.59271 2403.0557 197122
1231.223 964.16113 2411.9827 920331
1233.1866 954.61981 2388.1138 2104346
1245.1113 952.91858 2383.8577 1907225
1262.3635 955.28687 2389.7822 2302496
1281.5846 959.07611 2399.2617 2631205
1298.3785 960.98578 2404.0391 2565667
1314.1449 962.10175 2406.8308 3223596
1324.5439 959.30646 2399.8379 2105117
1335.7004 957.11328 2394.3513 1973531
1342.9082 952.16638 2381.9761 723464
1366.6243 958.90564 2398.8352 1249808
1380.5421 958.7019 2398.3254 921101
1387.7426 953.88501 2386.2754 1512723
1401.4103 953.5658 2385.4768 3881014
1426.2252 960.76221 2403.4797 2564897
1429.327 953.33411 2384.8972 3618612
1427.3181 942.6759 2358.2344 4079163
1436.3339 939.43512 2350.127 3816504
1439.3557 932.3739 2332.4624 8027000
1453.8607 932.81458 2333.5649 5329486
1466.4607 932.03632 2331.6179 8553598
1470.3174 925.76746 2315.9355 6974568
1481.0122 923.88019 2311.2144 5132878
1504.8252 930.13593 2326.8638 7961466
1520.7905 931.47144 2330.2048 7632242
1521.6467 923.61194 2310.5432 3158319
1521.1981 915.10767 2289.2686 921102
1533.2889 914.23041 2287.074 3750201
1547.222 914.45728 2287.6416 1578007
1561.9565 915.14984 2289.374 921102
1570.7295 912.36768 2282.4141 1513238
1567.3551 902.63733 2258.0723 1052689
1578.8693 901.57336 2255.4106 986639
1599.2682 905.55817 2265.3792 328710
1607.0486 902.39111 2257.4563 328966
1606.5856 894.68561 2238.1799 1776669
1615.691 892.3913 2232.4404 657932
1613.7573 884.08636 2211.6646 921103
1616.2679 878.33051 2197.2654 394759
1619.1501 872.86682 2183.5972 789518
1646.3595 880.50043 2202.6938 789518
1642.3909 871.47052 2180.1042 460553
1650.8538 869.1264 2174.24 460809
1653.0562 863.5481 2160.2852 657932
1650.8402 855.7652 2140.8152 4
1654.965 851.36267 2129.8018 4
1667.3983 851.26874 2129.5667 197128
1671.7905 847.10181 2119.1423 5
1678.3385 844.08099 2111.5854 4
1693.4812 845.39545 2114.8738 65543
1705.6593 845.22168 2114.439 262923
1714.7186 843.51605 2110.1721 131337
1726.3031 843.06842 2109.0522 328716
1738.2683 842.81183 2108.4104 7
1753.2408 844.00653 2111.3992 7
1767.8019 844.98755 2113.8535 6
1780.478 845.0603 2114.0354 7
1794.3978 845.7182 2115.6812 7
1809.061 846.71478 2118.1743 6
1822.3873 847.07642 2119.0789 6
1834.2388 846.75208 2118.2676 65543
1844.3932 845.65411 2115.521 7
1854.174 844.40082 2112.3855 6
1868.1746 845.07318 2114.0676 6
1881.8618 845.5957 2115.3748 5
1886.6769 842.15118 2106.7578 3
1893.6146 839.69324 2100.6089 262919
1910.0354 841.44476 2104.9907 526092
1890.2031 827.30652 2069.6218 262918
1917.9404 834.03662 2086.4583 987156
1917.1278 828.34485 2072.2192 986900
1912.0046 820.87469 2053.5317 1447963
1921.9802 819.94049 2051.1946 2434090
1944.7567 824.44464 2062.4624 1052436
1950.8328 821.85687 2055.9888 657422
1960.3163 820.72797 2053.1646 1578781
0 0 0 0
0 0 0 0
0 0 0 0
0 0 0 0
0 0 0 0
0 0 0 0
0 0 0 0
0 0 0 0
0 0 0 0
0 0 0 0
-2388.7612 1106.4414 2727.4944 2564113
-2406.0229 1122.0266 2765.9133 2629905
-2370.6973 1113.1335 2743.9912 2958616
-2355.3696 1113.5725 2745.0732 3024153
-2329.4673 1108.9833 2733.7603 2563858
-2322.9873 1113.6409 2745.2417 2104080
-2280.7117 1101.0828 2714.2847 2038029
-2272.2754 1104.7992 2723.446 1577478
-2248.9561 1101.2808 2714.7727 1840650
-2217.9541 1093.9226 2696.634 3156511
-2222.8708 1104.3016 2722.2195 2893338
-2212.3594 1107.1117 2729.1465 3156510
-2182.0825 1099.9994 2711.614 3222303
-2155.1309 1094.4703 2697.9844 2959131
-2128.5291 1089.0376 2684.5918 3880233
-2110.0337 1087.7018 2681.2991 1774601
-2099.3398 1090.3979 2687.9453 2761493
-2085.125 1091.2924 2690.1501 2959642
-2062.0784 1087.5428 2680.9072 3091744
-2026.7996 1077.2338 2655.4941 2762784
0 0 0 0
0 0 0 0
0 0 0 0
0 0 0 0
0 0 0 0
0 0 0 0
-1917.3511 1077.6123 2656.4275 1644817
-1930.4233 1093.9382 2696.6726 2105109
-1894.7286 1082.6705 2668.8965 2236180
-1885.2023 1086.292 2677.8237 1446150
-1842.5966 1070.7522 2639.5164 854018
-1821.1482 1067.3462 2631.1204 1445381
-1823.7151 1078.078 2657.5754 1313541
-1804.54 1076.0322 2652.5322 2629398
-1798.2346 1081.6918 2666.4839 1050624
-1778.0034 1079.0007 2659.8501 1050368
-1753.6733 1073.752 2646.9111 2760724
-1729.2017 1068.3208 2633.5229 3222042
-1721.4915 1073.2407 2645.6509 2037770
-1690.5681 1063.646 2621.9988 2695698
-1677.5688 1065.2551 2625.9656 2300425
-1646.554 1055.3472 2601.5417 2958871
-1634.9829 1057.8324 2607.668 4866868
-1629.656 1064.4436 2623.9651 2827286
-1620.0619 1068.3678 2633.6389 2827286
-1590.1069 1058.8109 2610.0798 1774598
-1593.8363 1071.7158 2641.8918 2827286
-1578.4064 1071.8661 2642.2625 2696216
-1562.3534 1071.592 2641.5867 2104335
-1546.7841 1071.6475 2641.7234 1643528
-1522.5106 1065.6119 2626.8452 1182722
-1523.949 1077.6334 2656.4795 1445637
-1502.1807 1073.3245 2645.8574 1577223
-1485.9547 1072.9264 2644.876 2103567
-1479.7261 1079.8153 2661.8579 1445895
-1461.4468 1077.9639 2657.2942 3748647
-1441.5038 1074.8319 2649.5735 2630166
-1410.4082 1063.2235 2620.9578 2301200
-1374.9502 1048.0315 2583.5078 1446148
-1373.5912 1058.7816 2610.0078 1577477
-1355.283 1056.5629 2604.5383 1708809
-1344.9944 1060.6172 2614.5327 1709065
-1321.0791 1053.8951 2597.9622 2564631
-1301.7371 1050.7061 2590.1006 2630166
-1287.4221 1051.5468 2592.1731 2564374
-1274.3114 1053.4033 2596.7498 3617060
-1241.3234 1038.673 2560.4377 3485474
-1203.3112 1019.3223 2512.7363 2235408
-1206.5652 1034.8811 2551.0903 2630166
-1193.8661 1036.9779 2556.2595 2432534
-1171.4169 1030.5511 2540.4167 2893079
-1163.0194 1036.4797 2555.0315 2892822
-1148.171 1036.7401 2555.6731 2234894
-1125.8632 1030.1818 2539.5061 1313796
-1110.9644 1030.317 2539.8396 1839883
-1094.6632 1029.1376 2536.9319 1510921
-1073.0981 1022.9075 2521.5742 1905678
-1057.7144 1022.4768 2520.5127 1181698
-1049.4835 1029.0476 2536.7104 1576710
-1013.4578 1008.1599 2485.2197 2629397
-998.63306 1008.057 2484.9663 3089943
-988.05774 1012.3049 2495.438 3353114
-974.8371 1013.9306 2499.4453 4668974
-955.39294 1009.0333 2487.373 2366220
-949.87769 1018.9241 2511.7549 2366479
-942.46478 1027.0616 2531.8147 2169101
-917.03809 1015.5142 2503.3491 2563860
-907.64618 1021.6357 2518.4392 2893338
-887.86163 1016.0686 2504.7156 2695445
-873.98358 1017.1864 2507.4712 2432274
-859.93494 1018.1409 2509.8242 3090203
-839.61951 1011.5787 2493.6475 2169102
-821.34436 1007.2836 2483.0598 2629652
-808.71472 1009.8818 2489.4646 2300944
-806.20435 1025.4475 2527.8357 2498067
-784.73181 1017.0272 2507.0789 3090204
-768.56854 1015.2957 2502.8103 2694933
-751.85529 1012.7551 2496.5476 3089691
-737.625 1013.5243 2498.4438 2365968
-720.1723 1009.8068 2489.2795 2432018
-708.09906 1013.6343 2498.7148 2760984
-686.71729 1004.0156 2475.0039 2695191
-670.98608 1002.4191 2471.0681 2827034
-659.52435 1007.2719 2483.0308 2300687
-643.17291 1004.7079 2476.7102 2760983
-628.23969 1004.2911 2475.6831 2037003
-612.25323 1002.1306 2470.3572 1905418
-596.45599 1000.1816 2465.5527 1905677
-581.76227 1000.0317 2465.1831 2037265
-563.91925 994.32111 2451.106 1313545
-551.58923 998.28625 2460.8804 656643
-539.60828 1003.1155 2472.7852 525315
-520.82953 995.22491 2453.334 196608
-509.09393 1000.726 2466.8945 656645
-492.83936 997.40662 2458.7119 656900
-481.27206 1003.6602 2474.1277 1117964
-467.32251 1005.1826 2477.8804 525315
-455.3064 1011.0971 2492.4604 65536
-443.21228 1017.2292 2507.5767 2
-429.51294 1019.9746 2514.3445 4
-414.34848 1019.3131 2512.7139 4
-399.96399 1020.5925 2515.8677 3
-383.63181 1016.8087 2506.54 65539
-368.83322 1016.9485 2506.8848 131332
-353.92654 1016.7896 2506.4929 393989
-339.34668 1017.5967 2508.4827 196867
-324.60489 1017.97 2509.4028 525830
-307.27274 1009.8657 2489.425 788998
-290.37161 1002.4323 2471.1008 3618610
-273.7944 995.38727 2453.7341 3881011
-261.71417 1004.8177 2476.9812 1775891
-246.22635 1001.5084 2468.8232 1380877
-230.38524 996.25323 2455.8689 1249291
-215.43272 994.39136 2451.2791 985865
-199.36041 986.71783 2432.363 722438
-184.64471 985.08618 2428.3408 656131
-169.08133 978.27435 2411.5488 1248265
-155.82112 984.76068 2427.5386 3156259
-143.54703 999.43188 2463.7043 2300692
-127.87117 991.0589 2443.0642 3287586
-113.76132 994.23492 2450.8936 3287841
-98.856323 990.37445 2441.377 3748647
-84.154495 987.57489 2434.4758 3354145
-69.874359 989.5896 2439.4421 3222559
-56.50716 1008.9556 2487.1814 4406576
-41.412651 1000.263 2465.7534 4538164
-26.566767 991.37427 2443.8416 4011562
-11.780693 966.0993 2381.5361 2563862
2.3706896 983.78729 2425.1389 3353376
16.722694 982.90179 2422.9561 2629656
31.09366 983.43396 2424.2678 1906445
45.681728 988.32684 2436.3293 2169618
60.213234 989.94025 2440.3066 1972751
74.476906 987.37811 2433.9907 1840398
89.087585 989.50146 2439.2251 4932665
103.94954 993.43359 2448.918 3419426
117.66035 986.74847 2432.4385 3221791
132.31149 988.54779 2436.874 3419171
146.46652 986.651 2432.1982 4669239
163.9361 1005.4222 2478.4712 3024929
175.81116 989.61664 2439.5088 1182984
191.61061 996.62396 2456.7827 2761242
204.53545 988.74585 2437.3623 3222048
217.32695 981.30469 2419.019 3155739
230.278 975.46002 2404.6113 3089688
245.64008 979.91449 2415.592 3286811
255.8291 964.37805 2377.293 2629138
268.13837 958.03839 2361.665 3418137
280.22861 951.58368 2345.7537 3549724
295.41708 955.76276 2356.0554 2957329
309.68719 956.72754 2358.4338 3088403
322.41379 953.04645 2349.3596 2957074
336.22757 952.75073 2348.6306 3088660
347.4776 945.5025 2330.7629 2233094
361.41943 945.85278 2331.6265 2628111
374.15106 943.12683 2324.9065 2758670
392.90115 955.2265 2354.7336 3285268
405.69904 952.52161 2348.0657 3088145
409.69107 930.00653 2292.5637 2627594
423.68433 930.91089 2294.793 2957076
435.84879 927.86572 2287.2864 3286039
452.50208 934.27216 2303.0789 3220758
464.99081 931.95679 2297.3713 3812896
481.63565 937.86609 2311.9385 3418138
496.03421 939.19556 2315.2156 3155222
506.66302 933.50775 2301.1946 3023636
522.58624 937.61719 2311.3247 3549724
541.02417 945.91345 2331.7759 3615774
546.3858 931.50348 2296.2539 3681311
558.67609 929.31903 2290.8689 4602412
575.13245 934.00372 2302.4172 3681310
598.82074 949.94397 2341.7114 4470569
606.27393 939.9906 2317.1755 3878687
612.13434 928.06329 2287.7734 4601897
620.79376 920.80432 2269.8794 4141345
645.16882 936.66962 2308.9888 3615258
654.90009 931.05713 2295.1536 4470824
665.5885 927.00616 2285.1675 3220499
673.33008 919.0943 2265.6638 2826001
690.5354 924.15729 2278.1445 3549724
702.75989 922.48785 2274.0293 3812895
715.93372 922.10394 2273.083 4141862
734.74274 928.85822 2289.7329 4405034
754.69946 936.79224 2309.2913 3681568
765.29608 933.0321 2300.0222 5129014
776.09741 929.64886 2291.6819 3878947
786.57385 925.99933 2282.6855 4207654
800.39539 926.3446 2283.5366 3089172
812.70514 924.95795 2280.1184 2628622
823.29651 921.69281 2272.0693 4405032
836.37262 921.26965 2271.0264 4075812
845.90424 917.01746 2260.5442 4141859
860.6217 918.43195 2264.0312 4997168
871.69696 915.97583 2257.9766 4470825
881.93103 912.72339 2249.959 3023120
888.49915 905.83038 2232.967 3220500
895.00098 899.073 2216.3093 3351315
905.01544 895.98871 2208.7061 3154707
914.2392 892.22052 2199.4172 3812637
927.52094 892.46283 2200.0146 4141859
928.44751 880.9751 2171.696 3483674
957.00598 895.66199 2207.9009 3154709
963.59003 889.66437 2193.116 3220760
984.82745 897.17548 2211.6316 3221274
1006.5062 904.88611 2230.6392 4538421
1032.6057 916.31976 2258.8245 5592397
1052.2666 921.82056 2272.3843 7632752
1086.6899 939.95123 2317.0784 8487806
1111.5695 949.4776 2340.562 8487295
1122.6763 947.14984 2334.8237 8289913
1138.089 948.46704 2338.0708 8223864
1161.4297 956.28033 2357.3315 4670526
1178.0784 958.46356 2362.7131 4669750
1195.458 961.18304 2369.417 1182987
1215.041 965.59045 2380.2817 2432796
1220.0557 958.45215 2362.6851 1972760
1231.798 956.70087 2358.3682 1841432
1247.033 957.67114 2360.76 2434081
1255.9987 953.85883 2351.3621 1579030
1273.1467 956.27594 2357.3206 2434082
1294.6128 961.84875 2371.0581 3749941
1311.1099 963.64972 2375.4978 3355181
1317.5482 958.09796 2361.812 4013114
1328.9552 956.23798 2357.2271 2105117
1343.5718 956.70209 2358.3711 1184016
1369.0066 964.7807 2378.2856 526343
1377.8969 961.15387 2369.3452 394757
1388.1929 958.57111 2362.9783 65792
1414.6001 967.05377 2383.8889 855051
1417.0508 959.15332 2364.4136 986637
1422.7156 953.56177 2350.6299 2105374
1440.3326 956.01202 2356.6699 2105374
1450.8296 953.7345 2351.0557 1052687
1429.012 930.45959 2293.6807 5724503
1450.5055 935.55841 2306.2498 1974046
1447.7965 925.09747 2280.4624 7500913
1464.6698 927.22668 2285.7109 8356222
1477.941 927.05737 2285.2937 7566449
1497.7836 930.97571 2294.9526 8355965
1505.3771 927.27838 2285.8386 6579811
1514.0513 924.30676 2278.5132 6250590
1517.1499 918.01392 2263.0007 2763562
1516.3667 909.50305 2242.0205 394758
1522.0446 904.98163 2230.8748 921103
1555.4502 916.88257 2260.2119 1118481
1547.8925 904.64008 2230.0327 789518
1566.147 907.56256 2237.2371 657931
1571.7938 903.19141 2226.4617 657932
1583.3173 902.24158 2224.1204 986897
1606.5015 907.89764 2238.063 1184276
1610.826 902.88983 2225.7183 1907998
1607.8672 893.91406 2203.592 1052690
1612.3782 889.20239 2191.9773 723471
1622.426 887.59515 2188.0151 789265
1630.0814 884.7149 2180.915 460555
1636.2776 881.09418 2171.9895 65796
1645.8936 879.35699 2167.7073 131334
1653.7432 876.71039 2161.1831 65539
1652.4985 869.32019 2142.9656 3
1658.7126 865.93665 2134.6248 4
1664.3232 862.29156 2125.6392 328714
1670.5481 859.01715 2117.5674 196872
1675.0466 854.9104 2107.4438 5
1686.0903 854.18024 2105.6438 7
1697.1587 853.47321 2103.9009 6
1707.9089 852.61768 2101.792 197129
1713.63 849.28198 2093.5693 65544
1725.1189 848.8324 2092.4609 65543
1739.6752 849.88763 2095.0623 7
1750.537 849.1358 2093.209 7
1765.7767 850.50342 2096.5801 6
1777.0859 849.97168 2095.2695 7
1789.6947 850.06482 2095.499 9
1804.7776 851.32361 2098.6021 9
1816.3889 850.93884 2097.6536 8
1827.2905 850.22913 2095.9041 394509
1840.3798 850.54004 2096.6704 460302
1854.533 851.33508 2098.6304 197130
1862.2114 849.16711 2093.2861 6
1867.1676 845.79474 2084.9729 6
1875.4969 843.9845 2080.5105 65798
1872.5745 837.16766 2063.7063 197383
1873.3472 832.08063 2051.166 3487033
1848.6113 815.80206 2011.0376 2237223
1880.9958 824.77802 2033.1644 1381656
1883.4735 820.60956 2022.8888 1776159
1916.2561 829.61414 2045.0858 591885
1908.6022 821.10895 2024.1198 920851
1925.1266 823.04694 2028.897 920851
1951.2952 829.05853 2043.7162 1907745
0 0 0 0
0 0 0 0
0 0 0 0
0 0 0 0
0 0 0 0
0 0 0 0
0 0 0 0
0 0 0 0
0 0 0 0
0 0 0 0
-2326.3828 1093.2852 2656.2708 3287580
-2330.9365 1102.8854 2679.5957 2103307
-2339.4067 1114.483 2707.7737 2234893
-2309.2102 1107.693 2691.2766 2169100
-2288.9482 1105.6073 2686.209 2563601
-2269.3245 1103.8026 2681.8245 1906698
-2252.7644 1103.4734 2681.0244 3616802
-2219.0193 1094.6617 2659.6155 3617058
-2213.4341 1099.7151 2671.8931 3617059
-2185.7156 1093.7653 2657.4375 2893079
-2198.3835 1108.0859 2692.2312 3814182
-2159.5156 1096.4495 2663.959 3419681
-2147.687 1098.4714 2668.8716 3222045
-2111.0366 1087.7336 2642.783 3353628
-2084.5239 1082.0983 2629.0908 3880228
-2069.6785 1082.4799 2630.0181 3353881
-2057.0691 1084.0458 2633.8228 3222554
-2035.188 1080.7123 2625.7234 3223068
-2028.8512 1085.6451 2637.7085 2236176
-2001.421 1079.2798 2622.2432 2170388
0 0 0 0
0 0 0 0
0 0 0 0
0 0 0 0
0 0 0 0
0 0 0 0
0 0 0 0
-1896.2382 1090.2589 2648.9182 2434075
-1883.2664 1091.8364 2652.751 3025952
-1855.775 1084.9518 2636.0239 2301972
-1814.6481 1069.9109 2599.4802 2893338
-1791.8198 1065.4937 2588.748 2300686
-1788.2384 1072.5439 2605.8777 3155992
-1769.6923 1070.6633 2601.3086 3550752
-1790.3956 1092.7043 2654.8599 2103562
-1759.7135 1083.4967 2632.4888 3222299
-1733.2324 1076.7343 2616.0583 2169355
-1740.3967 1090.9398 2650.5728 2300429
-1713.7303 1084.0049 2633.7231 2169100
-1674.8058 1069.1173 2597.552 2366223
-1667.1239 1074.0824 2609.6155 2827543
-1630.1746 1060.1078 2575.6624 2827543
-1610.9175 1057.4832 2569.2856 2893591
-1607.4629 1065.2809 2588.2312 2630419
-1587.4297 1062.1362 2580.5908 3024665
-1570.7275 1061.1808 2578.2693 2893078
-1553.1323 1059.5974 2574.4224 2893336
-1538.2041 1059.8201 2574.9634 1906700
-1529.4645 1064.354 2585.979 2103821
-1522.2673 1070.0637 2599.8516 1577734
-1501.2208 1066.0555 2590.1133 1446149
-1505.7791 1080.3347 2624.8064 2827544
-1490.744 1080.7081 2625.7134 2695957
-1479.4797 1083.8517 2633.3513 2695958
-1465.728 1085.2206 2636.677 3419939
-1449.9717 1085.1188 2636.4297 3156768
-1441.1204 1090.2385 2648.8687 2432787
-1402.4291 1072.6479 2606.1301 1511430
-1370.3572 1059.7848 2574.8777 1445383
-1356.5577 1060.9225 2577.6418 1445639
-1337.8386 1058.1947 2571.0144 1512457
-1325.7253 1060.6893 2577.0754 2366482
-1302.3817 1054.1523 2561.1929 2037774
-1277.5605 1046.2511 2541.9958 2827546
-1248.1404 1034.3502 2513.0811 3551013
-1217.5649 1021.1929 2481.1138 3090459
-1205.1487 1023.1306 2485.8215 2892825
-1172.182 1007.4537 2447.7329 2498323
-1174.0421 1021.6916 2482.3254 2629909
-1166.925 1028.3794 2498.5745 1840139
-1143.7402 1020.897 2480.395 2432019
-1140.8832 1031.6006 2506.4006 2563348
-1122.0314 1027.933 2497.4897 1774346
-1107.0483 1027.759 2497.0671 1906190
-1090.8025 1026.3923 2493.7463 1248259
-1077.4424 1027.7404 2497.0217 2103568
-1061.6532 1026.7769 2494.6809 1774602
-1047.0029 1026.9032 2494.9878 2827033
-1030.1329 1024.8248 2489.938 3484705
-1009.3704 1018.7574 2475.1965 3616543
-987.85724 1011.7421 2458.1521 3813665
-969.09894 1007.3808 2447.5557 3483929
-964.11517 1017.4231 2471.9546 3286550
-951.60364 1019.7086 2477.5076 3549464
-942.35297 1025.6147 2491.8572 2366220
-925.02911 1022.7825 2484.9761 2827029
-908.77759 1021.0635 2480.7996 2234893
-898.08472 1025.6362 2491.9094 3550754
-879.49603 1021.1936 2481.1155 3814440
-863.75342 1019.9609 2478.1206 3880233
-842.79193 1012.4163 2459.79 2892825
-833.00574 1018.2669 2474.0049 2958618
-821.86493 1022.6416 2484.6338 2827032
-797.09668 1009.91 2453.7007 3287068
-784.7829 1012.7781 2460.6692 3155482
-772.82196 1016.2188 2469.0288 3352861
-747.95795 1002.4982 2435.6929 2760724
-745.90637 1019.4149 2476.7942 2760726
-726.16864 1012.3544 2459.6396 2694932
-713.48926 1015.0461 2466.1794 2365969
-696.69958 1011.8807 2458.4888 1707785
-676.18628 1003.0564 2437.0491 2629139
-657.48468 996.59326 2421.3459 3287070
-647.37994 1003.1632 2437.3086 3024668
-629.60223 997.87183 2424.4526 2760727
-617.45953 1001.473 2433.2021 2497557
-603.07672 1001.5262 2433.3313 1380105
-591.29187 1006.0021 2444.2061 1380365
-578.70697 1009.3074 2452.2366 1380878
-562.87524 1006.9742 2446.5679 1183243
-547.19196 1004.7905 2441.2622 657928
-533.03235 1005.3619 2442.6506 394245
-516.13763 1000.6625 2431.2329 920589
-501.59735 1000.3892 2430.5686 789003
-485.21078 996.30841 2420.6541 1578773
-474.99396 1005.0337 2441.853 3552566
-467.01022 1019.1805 2476.2246 131588
-450.6214 1015.3071 2466.8137 65797
-435.87421 1014.9968 2466.0598 4
-421.99686 1016.7609 2470.3457 5
-407.56122 1017.2582 2471.5542 7
-392.84839 1017.075 2471.1089 6
-377.91077 1016.2729 2469.1604 7
-362.5647 1014.2639 2464.2791 7
-348.94791 1017.1267 2471.2346 7
-333.97305 1016.1083 2468.7603 4
-319.22278 1015.7113 2467.7957 328713
-301.99988 1007.0311 2446.7061 395016
-286.02811 1001.8579 2434.1372 1381138
-270.02396 996.01599 2419.9436 1710357
-256.233 998.14038 2425.105 1644563
-242.62254 1001.262 2432.6892 2301979
-227.15712 996.63922 2421.4578 3486252
-211.82448 992.01514 2410.2229 3025446
-196.25122 985.51428 2394.4282 2828067
-182.65421 988.69775 2402.1628 2827809
-165.30588 970.39777 2357.7009 3024673
-152.9245 980.56848 2382.4119 3155743
-138.29555 976.93048 2373.5728 3024155
-125.51964 987.04053 2398.1365 4800564
-110.81843 982.65918 2387.4915 3814178
-97.18734 987.87305 2400.1592 4603948
-82.323425 980.19537 2381.5054 5787707
-68.654678 986.51538 2396.8606 5656379
-54.507538 987.46472 2399.1672 3748385
-40.729946 998.1402 2425.1045 4077096
-25.759514 975.28845 2369.5833 4077097
-11.808627 982.53229 2387.1831 4077099
2.3417046 985.95056 2395.4883 3551268
16.398867 977.9444 2376.0364 5525573
30.466784 977.67932 2375.3923 3157282
45.013023 988.08142 2400.6655 2959906
59.550663 993.34521 2413.4543 4671035
72.82019 979.51294 2379.8474 6775897
86.005043 969.21399 2354.8247 3025181
101.61325 985.28778 2393.8779 3813672
113.41859 965.06616 2344.7471 3155742
126.76299 960.92395 2334.6831 3024156
142.27879 972.43787 2362.6575 3353121
154.31343 960.22748 2332.991 2892571
170.44467 973.42047 2365.0449 2826777
185.38159 978.30646 2376.916 2892570
199.79132 979.91681 2380.8286 3813927
212.31378 972.6687 2363.2185 3681826
226.68086 974.24548 2367.0493 3879205
238.47894 965.2403 2345.1702 2497037
245.83084 940.22156 2284.384 3023636
260.09857 942.88428 2290.8535 3286039
274.3168 945.11237 2296.2668 4207141
287.396 943.39093 2292.0845 3220502
302.77704 949.03992 2305.8093 3089429
316.28439 948.58173 2304.696 3154453
331.08737 951.88635 2312.7251 3022612
342.39792 945.28656 2296.6902 2957075
357.38443 948.9519 2305.5955 2956819
368.73035 943.0365 2291.2231 1772804
384.10367 947.47559 2302.0085 2298891
396.8566 945.3681 2296.8882 2562063
408.88361 941.72852 2288.0454 2035977
421.8634 940.44647 2284.9304 2233355
430.76099 930.4267 2260.5862 2299148
446.61313 935.57971 2273.1062 2694161
457.75949 930.862 2261.6438 3680542
474.54993 937.56335 2277.9255 3286554
482.37662 926.67426 2251.4692 3023382
501.896 938.22925 2279.5435 2957589
505.27396 919.79498 2234.7551 3286554
523.95117 929.44141 2258.1924 3549726
539.55829 933.29724 2267.5605 3286554
551.66351 931.05536 2262.1138 3615519
559.28192 921.52698 2238.9634 3286554
569.71265 916.96655 2227.8831 3351578
590.26697 928.53784 2255.9971 3549212
600.00494 922.95856 2242.4414 3088660
608.69861 916.04932 2225.6545 3483672
626.89008 923.42352 2243.571 3680794
636.46802 918.06708 2230.5569 3681565
648.59796 916.53473 2226.834 3812893
661.30151 915.85791 2225.1895 3023379
686.30591 931.91034 2264.1909 3681311
692.16571 921.84998 2239.748 3944484
699.81555 914.50726 2221.908 3352604
725.50299 930.57172 2260.9385 3681312
733.53876 923.82312 2244.542 3549725
744.22266 920.59052 2236.688 4339241
753.86963 916.21082 2226.0471 4668204
758.79474 906.34174 2202.0688 3418137
782.49988 918.85889 2232.4807 3549724
793.46497 916.24835 2226.1382 4010275
808.40277 918.23572 2230.9668 4076068
822.36487 919.06873 2232.9907 3154964
829.45709 912.31915 2216.5918 4404774
849.12946 919.40131 2233.7986 4405031
855.44922 912.03021 2215.8896 3352086
853.8089 896.52362 2178.2146 2694156
867.60065 897.44171 2180.4451 3615258
890.36102 907.47382 2204.8193 3154707
901.85339 905.89734 2200.989 2825742
896.34467 887.53174 2156.3677 4667946
911.16626 889.52997 2161.2227 3681052
919.46198 885.19 2150.6782 3681054
933.67047 886.5835 2154.0637 2628623
959.06604 898.41901 2182.8196 3220759
968.4903 895.17712 2174.9431 3352604
995.65649 908.20416 2206.5938 3221277
1010.3862 909.69635 2210.2192 3288099
1030.6761 916.09235 2225.7593 5854797
1067.3336 936.69098 2275.8062 8354936
1095.199 949.15613 2306.0916 8290171
1107.8351 948.27802 2303.9583 8027513
1115.5007 943.21875 2291.666 7895671
1138.4089 951.01447 2310.6067 7698548
1169.7063 965.5498 2345.9221 7237482
1186.0354 967.53326 2350.7412 5197642
1198.9153 966.68951 2348.6912 2631459
1206.707 961.80963 2336.835 4078648
1212.0524 955.11267 2320.5637 4801860
1226.9442 956.00421 2322.73 1315601
1248.4512 961.97327 2337.2324 591879
1258.9425 959.4165 2331.0205 0
1278.6448 963.85858 2341.813 723465
1290.0209 961.99622 2337.2883 1776152
1302.559 961.03076 2334.9426 2105118
1319.0146 962.94568 2339.595 3684149
1330.9906 961.58441 2336.2876 3486770
1352.9396 967.3819 2350.3735 1052430
1361.7518 963.76398 2341.5833 1184015
1376.8949 964.65442 2343.7468 2302495
1394.5103 967.24194 2350.0334 1775896
1409.6797 968.09863 2352.1147 1512980
1420.1951 965.7735 2346.4656 1776409
1426.8319 960.88153 2334.5801 1249808
1433.812 956.3125 2323.479 2631719
1422.448 939.71161 2283.145 1184528
1427.0391 933.86456 2268.939 7237228
1430.5092 927.39996 2253.2324 8027257
1440.9283 925.51837 2248.6609 7764598
1466.3094 933.19336 2267.3081 5593173
1483.0933 935.30713 2272.4438 8750980
1506.2687 941.37744 2287.1924 8421758
1510.9482 935.88324 2273.8435 7632242
1511.1677 927.7478 2254.0776 7500913
1508.226 917.8313 2229.9841 8224637
1512.786 912.61255 2217.3044 4342851
1528.7556 914.30731 2221.4221 986895
1524.415 903.92993 2196.209 789776
1552.3318 912.69379 2217.502 1447448
1564.134 911.91571 2215.6113 1315862
1581.4258 914.32428 2221.4634 526346
1578.6368 905.17902 2199.2439 1184276
1601.3954 910.71222 2212.6875 723725
1605.5957 905.68726 2200.4788 855567
1614.8657 903.58014 2195.3591 986897
1620.3397 899.39948 2185.2017 460299
1623.8817 894.22113 2172.6204 197127
1631.1921 891.18323 2165.2393 262920
1644.636 891.51727 2166.051 65539
1653.4572 889.35974 2160.8091 591628
1659.9375 885.98608 2152.6123 855058
1662.0978 880.37567 2138.981 1118229
1668.4304 877.0434 2130.8848 394507
1670.6602 871.62048 2117.7092 328715
1667.3406 863.40491 2097.7485 131079
1678.1249 862.56024 2095.6963 7
1681.4863 857.94061 2084.4724 7
1691.3346 856.67413 2081.3953 6
1700.2585 854.96112 2077.2332 328715
1705.3926 851.38062 2068.5342 65797
1718.4285 851.76794 2069.4751 131591
1730.1158 851.48608 2068.7903 723474
1739.9969 850.3255 2065.9705 131336
1755.5065 851.91254 2069.8264 7
1770.109 853.04034 2072.5667 7
1782.3931 853.04315 2072.5732 7
1791.016 851.3056 2068.3518 7
1801.5986 850.51691 2066.4355 131337
1816.3717 851.70361 2069.3188 262923
1830.6259 852.63287 2071.5767 131594
1827.9539 845.71875 2054.7778 526352
1837.0496 844.30444 2051.3416 592145
1852.2754 845.70764 2054.7507 197130
1853.7563 840.85773 2042.9674 328972
1844.7662 831.35211 2019.8723 986386
1839.1541 823.48132 2000.7494 197383
1854.2994 824.94617 2004.3082 986904
1864.5338 824.22131 2002.5471 1447455
1867.9438 820.50812 1993.5254 1118232
1897.7471 828.362 2012.6074 1315611
1906.9991 827.20343 2009.7925 1315607
1881.9276 811.26288 1971.0631 986643
0 0 0 0
0 0 0 0
0 0 0 0
0 0 0 0
0 0 0 0
0 0 0 0
0 0 0 0
0 0 0 0
0 0 0 0
0 0 0 0
0 0 0 0
-2301.8901 1104.8186 2646.2043 2432786
-2300.4871 1111.7164 2662.7256 2235150
-2288.7251 1113.6689 2667.4021 2366735
-2263.387 1108.9966 2656.2112 2695444
-2215.8647 1093.3132 2618.6472 3880231
-2216.4819 1101.3282 2637.8445 3024409
-2208.1323 1104.97 2646.5669 4406062
-2188.7136 1103.0853 2642.0527 2432272
-2162.0898 1097.5157 2628.7129 3221789
-2141.9993 1095.2059 2623.1804 2958615
-2099.0793 1081.1044 2589.4053 3156247
-2117.2661 1098.4991 2631.0684 3024662
-2070.4316 1082.1669 2591.9502 3814178
-2056.5261 1082.9303 2593.7786 3814179
-2053.9634 1089.7231 2610.0483 2630162
-2026.689 1083.4089 2594.9248 2761747
-2007.0673 1081.1202 2589.4431 2169613
-1999.4946 1085.3367 2599.5422 2893593
-1972.4791 1078.9829 2584.324 2499605
0 0 0 0
0 0 0 0
0 0 0 0
0 0 0 0
0 0 0 0
0 0 0 0
0 0 0 0
0 0 0 0
0 0 0 0
-1814.2611 1075.9485 2577.0559 2171160
-1800.0928 1076.6055 2578.6296 2959645
-1774.4642 1070.3611 2563.6733 1971978
-1765.8168 1074.3402 2573.2041 2038027
-1746.7014 1071.9645 2567.5139 2827799
-1742.7399 1078.9287 2584.1941 2564371
-1727.8441 1079.187 2584.813 2367248
-1706.2412 1075.2234 2575.3193 2103820
-1689.1743 1074.0724 2572.5625 2695442
-1672.2408 1072.986 2569.9604 2958870
-1640.9316 1062.5708 2545.0146 2827283
-1604.1906 1048.4125 2511.1033 3155991
-1609.3625 1061.6377 2542.7795 2761489
-1585.4773 1055.7637 2528.7104 3156246
-1575.0358 1058.8151 2536.019 3156759
-1562.974 1060.8256 2540.8345 3090710
-1542.0247 1056.7843 2531.155 2959381
-1524.4746 1055.0162 2526.9202 2630163
-1509.0911 1054.7272 2526.228 2564368
-1504.0311 1061.72 2542.9768 2630161
-1476.5538 1052.8694 2521.7783 3419933
-1494.1121 1076.2792 2577.8481 3288346
-1486.4565 1081.8223 2591.1245 3025174
-1468.2351 1079.7108 2586.0674 2959638
-1428.2599 1061.389 2542.1841 3617568
-1420.4785 1066.8561 2555.2783 3090970
-1385.2422 1051.5985 2518.7344 2893337
-1378.4308 1057.8224 2533.6414 920067
-1357.7479 1053.4208 2523.0991 1841165
-1337.6289 1049.3639 2513.3818 1643789
-1315.7228 1043.7976 2500.05 2301718
-1302.14 1044.7831 2502.4102 3025439
-1286.9983 1044.5258 2501.7942 3090461
-1255.5883 1030.9054 2469.1714 3682854
-1232.4684 1023.8509 2452.2747 2827032
-1209.0814 1016.4036 2434.4373 2695446
-1193.8586 1015.7224 2432.8057 3155995
-1178.5807 1014.9771 2431.0205 2498067
-1155.2522 1007.1945 2412.3801 2563860
-1149.7622 1014.9641 2430.9895 2169102
-1148.4916 1026.7029 2459.1055 2300688
-1115.3434 1009.8798 2418.8118 3287583
-1107.781 1016.0869 2433.6787 2563861
-1096.1997 1018.7227 2439.9919 2629911
-1076.5569 1013.8373 2428.2905 1642760
-1070.1545 1021.4573 2446.5417 3484963
-1057.348 1023.0901 2450.4524 2563604
-1049.1925 1029.3312 2465.4006 2826518
-1018.1622 1012.9898 2426.2607 3352861
-1005.6746 1014.8932 2430.8198 3089173
-992.32513 1015.9695 2433.3977 3154966
-977.698 1015.7502 2432.8723 2759950
-964.77063 1017.3165 2436.624 2825742
-946.51685 1013.2288 2426.8333 2957328
-934.67853 1015.9884 2433.4429 2891793
-918.75519 1014.3246 2429.4578 3154966
-909.2511 1019.8076 2442.5903 2431758
-901.61945 1027.6019 2461.259 2497811
-880.99066 1020.5959 2444.4785 1971723
-862.45905 1015.8258 2433.0532 2826519
-848.77417 1016.699 2435.145 2760982
-831.89728 1013.7129 2427.9927 2892567
-819.24377 1015.8586 2433.1321 5063991
-800.42505 1010.2997 2419.8174 2761237
-792.24762 1018.2142 2438.7739 2694932
-776.52728 1016.5485 2434.7842 2365967
-757.89929 1010.941 2421.3535 2102796
-745.29309 1013.3046 2427.0149 1971210
-726.31464 1006.9271 2411.7395 1971210
-715.09985 1011.2726 2422.1479 2168846
-694.39325 1002.0983 2400.1741 1971212
-684.6626 1008.7112 2416.0129 2563348
-666.32397 1002.6536 2401.5042 2563347
-651.22693 1001.316 2398.3003 3023897
-639.99316 1005.9912 2409.498 2497553
-624.98035 1004.8041 2406.6548 2366228
-609.2536 1002.387 2400.8652 1906190
-595.8606 1003.7856 2404.2153 1839889
-581.36884 1003.3564 2403.1873 788228
-572.48346 1012.8245 2425.8647 525314
-552.9552 1003.4661 2403.45 393728
-541.84198 1009.2877 2417.3938 591878
-528.34229 1010.8594 2421.1582 1117968
-514.65167 1012.1434 2424.2334 789516
-497.36282 1006.2215 2410.0496 920844
-486.49173 1013.317 2427.0444 1973277
-472.66736 1014.5062 2429.8926 1447189
-458.3049 1014.5787 2430.0664 66051
-439.79559 1005.1781 2407.5505 131335
-427.56616 1009.9814 2419.0552 5
-412.97638 1009.349 2417.5405 7
-395.35855 1001.0045 2397.5542 7
-382.28989 1003.9852 2404.6934 7
-366.29742 999.22089 2393.2822 8
-350.76047 995.36542 2384.0479 9
-337.8092 998.83203 2392.3508 9
-323.97028 999.86249 2394.8188 8
-311.88528 1006.6484 2411.0723 6
-298.52539 1009.7734 2418.5569 197125
-284.7612 1011.7769 2423.3557 394756
-266.96579 998.90955 2392.5364 3157802
-251.4196 993.487 2379.5486 3815216
-236.69656 990.86621 2373.2715 3025443
-222.15436 988.71918 2368.1292 3025699
-209.48726 995.19067 2383.6292 2959904
-194.07236 988.60028 2367.8442 3419938
-179.03497 983.05603 2354.5649 4669492
-164.59021 980.1037 2347.4937 3945512
-150.26498 977.38391 2340.9795 3221532
-136.15604 975.66083 2336.8523 2366225
-123.20512 982.7851 2353.916 3616035
-109.81141 987.74524 2365.7961 3089947
-95.977898 989.6217 2370.2908 3353119
-81.926735 989.5127 2370.0295 3024410
-67.745445 987.46185 2365.1177 3419169
-53.332523 980.08484 2347.4485 3287326
-39.54092 982.94904 2354.3086 2760726
-25.856918 993.06732 2378.5435 3023898
-11.702137 987.68646 2365.6555 3484705
2.2827466 974.96094 2335.176 3155997
16.208935 980.53101 2348.5171 3550499
30.224413 983.86206 2356.4956 4866616
44.169319 983.51678 2355.6685 4011307
57.999325 981.39319 2350.582 3221535
71.438118 974.75385 2334.6799 1577225
84.944443 971.04028 2325.7854 4602929
98.605347 969.88379 2323.0154 3155485
112.26285 968.98126 2320.8538 2431249
125.18112 962.59131 2305.5488 2102027
137.53033 953.51318 2283.8054 3023642
151.58594 956.83221 2291.7551 3418656
170.02344 984.99121 2359.2 3287583
182.77425 978.43011 2343.4851 4011306
197.77454 983.9873 2356.7954 3221787
211.6436 983.55457 2355.759 3221275
225.42632 982.79889 2353.949 3155737
237.8376 976.50037 2338.8633 4338984
245.86028 953.8689 2284.6575 2694413
258.04651 948.90991 2272.7798 4010016
269.18451 940.77899 2253.3052 4075809
280.9238 935.41876 2240.4666 3088914
297.75989 946.74774 2267.6011 3548954
312.9418 952.0661 2280.3394 3220248
324.86856 947.45087 2269.2852 2035976
334.67981 937.27795 2244.9197 2628370
351.76501 947.47485 2269.3428 2496529
366.00247 949.53314 2274.2727 1838343
382.82742 957.91968 2294.3596 1838598
390.32797 943.19946 2259.1025 2759443
405.14389 946.5462 2267.1184 3220250
418.14761 945.5802 2264.8047 2957332
428.81915 939.56421 2250.3955 2759953
440.67575 936.42932 2242.887 2957076
451.00009 930.31726 2228.2478 3549212
465.42966 932.78015 2234.1467 3088918
478.83008 933.10138 2234.916 2957589
491.50266 932.02502 2232.3381 2826003
511.50687 944.5437 2262.3223 3483677
516.98438 930.28308 2228.166 3747105
528.92151 928.06696 2222.8579 4668207
541.30103 926.71588 2219.6218 3154967
555.5567 928.5647 2224.05 3023128
567.28815 926.2066 2218.4021 2891541
581.33557 927.65088 2221.8613 2891283
592.74506 924.91504 2215.3086 2562319
604.05627 922.14758 2208.6802 2562316
619.47974 925.64221 2217.0503 2825231
629.04352 920.41779 2204.5371 3220503
642.62238 921.16125 2206.3179 3154968
659.28986 926.21429 2218.4204 2562831
674.38806 928.9082 2224.8728 2628370
685.15051 925.64117 2217.0479 3549471
700.88269 929.0849 2225.2961 3878437
708.10303 921.3266 2206.7139 3483679
723.32422 924.0708 2213.2866 3812898
737.79816 925.77985 2217.3799 4405035
738.16968 910.04297 2179.6877 3220759
755.38885 915.26044 2192.1846 4273447
766.97601 913.59308 2188.1909 3089173
775.50409 908.39783 2175.7473 4404520
801.06714 923.00031 2210.7224 3286039
808.34308 916.40137 2194.917 2891535
822.50012 917.68872 2198.0005 4338981
840.4176 923.06616 2210.8804 3942939
848.01477 917.11731 2196.6321 4732968
849.48663 904.82404 2167.1877 6574916
856.27008 898.47021 2151.9692 3351569
873.29944 902.89587 2162.5693 5193259
864.70764 881.0871 2110.3342 4667428
881.26208 885.15735 2120.083 3285776
900.05835 891.33325 2134.8752 4141602
908.92554 887.64154 2126.033 1970953
925.76678 891.73157 2135.8293 2036485
942.18384 895.30823 2144.396 3023381
953.60364 894.10425 2141.5122 3022869
972.07355 899.45538 2154.3289 2035974
976.6875 892.01306 2136.5034 2364940
1016.2704 916.28992 2194.6501 2694932
1035.2185 921.5835 2207.3291 5788746
1051.7107 924.58624 2214.521 8816254
1073.5785 932.18243 2232.7151 6776929
1068.3608 916.36194 2194.8225 7434861
1116.2622 945.93555 2265.6558 7566705
1137.311 952.32159 2280.9514 8421502
1156.2095 956.77826 2291.6257 8553600
1165.3464 953.14746 2282.9294 9079688
1183.2535 956.6908 2291.4163 5855576
1198.3147 957.87891 2294.262 1776666
1217.6146 962.39056 2305.0681 328964
1234.2025 964.68237 2310.5574 197379
1239.4562 958.16205 2294.9402 1776409
1256.0599 960.4621 2300.4492 1907996
1276.4534 965.57965 2312.7063 1776409
1288.9849 964.70435 2310.6099 1776665
1303.9758 965.66876 2312.9199 2566178
1318.6969 966.41541 2314.7083 1776407
1329.1351 964.04034 2309.0195 3487282
1344.2294 965.05627 2311.4529 2566181
1363.1299 968.75677 2320.3162 2434340
1385.5967 974.89252 2335.0122 2565927
1394.564 971.50287 2326.8933 2368546
1403.9202 968.44781 2319.5759 2040349
1417.3364 968.22546 2319.0435 3619381
1421.0392 961.43549 2302.7805 4671297
1411.4967 945.89862 2265.5674 5066564
1420.1248 942.71637 2257.9456 6777187
1421.3375 934.71704 2238.7859 7633010
1432.2203 933.16626 2235.0715 7764085
1459.6282 942.31207 2256.9771 7830135
