# .PCD v0.7 - Point Cloud Data file format
VERSION 0.7
FIELDS x y z rgb
SIZE 4 4 4 4
TYPE F F F U
COUNT 1 1 1 1
WIDTH 1456
HEIGHT 1
VIEWPOINT 0 0 0 1 0 0 0
POINTS 1456
DATA ascii
0 0 0 0
-1792.9902 1122.1471 3295.6274 6184794
-1756.2092 1111.2279 3263.5588 4803138
-1754.8573 1122.7325 3297.3467 3486767
-1741.576 1126.7783 3309.2285 2499615
-1688.3785 1104.7965 3244.6707 1775892
-1683.2584 1114.1305 3272.0835 2762530
-1661.4467 1112.5054 3267.3105 1841685
0 0 0 0
-1578.1302 1081.926 3177.5022 1249035
0 0 0 0
0 0 0 0
-1473.3082 1047.5488 3076.54 4735545
-1449.6455 1043.6349 3065.0452 4406837
-1421.7845 1036.5608 3044.2695 4143150
-1448.5127 1069.615 3141.3459 5656389
-1407.1495 1052.5948 3091.3599 3288097
-1411.2458 1069.5795 3141.2419 2432786
-1409.2424 1082.3335 3178.6987 3682854
-1396.03 1086.7073 3191.5444 3287839
-1372.1096 1082.7516 3179.9268 2564628
-1357.166 1085.8679 3189.0791 3419681
-1343.9261 1090.4546 3202.55 3090716
-1320.7249 1086.9745 3192.3289 3287840
-1303.3788 1088.282 3196.1692 1775114
-1279.0919 1083.7474 3182.8513 3880233
-1270.6698 1092.72 3209.2029 4933178
-1249.1335 1090.5162 3202.731 3946026
-1224.6403 1085.6233 3188.3608 3551526
-1225.4664 1103.3737 3240.4919 3485476
-1193.3912 1091.5945 3205.8975 3946541
-1157.5719 1075.954 3159.9631 3683112
-1146.2408 1082.9352 3180.4663 5591366
-1127.0436 1082.5938 3179.4634 3880748
-1100.9698 1075.5233 3158.698 5920844
-1091.6718 1084.8794 3186.176 5526085
-1065.4131 1077.4133 3164.2488 6776152
-1050.0256 1080.8701 3174.4014 5855309
-1029.7603 1079.3403 3169.9084 4737084
-1028.546 1098.0931 3224.9832 4013104
-1008.5835 1097.1608 3222.2451 3947054
-978.45392 1084.9192 3186.293 3223332
-952.71649 1077.1619 3163.5105 4407092
-935.04352 1078.3942 3167.1294 4999228
-910.16321 1071.1942 3145.9841 1841164
-889.59625 1068.876 3139.1755 4275506
-856.17371 1050.6825 3085.7434 5196865
-854.25684 1071.202 3146.0071 4144180
-825.13495 1057.762 3106.5349 2828838
-798.74664 1047.2931 3075.7888 65536
-784.22168 1052.2532 3090.3562 4407869
-765.01105 1051.0131 3086.7141 3092009
-751.37024 1057.5516 3105.9172 2433566
-742.56171 1071.3907 3146.5613 2433565
-729.58887 1079.7794 3171.198 3092009
-716.29492 1088.1238 3195.7043 3092008
-694.63513 1083.8676 3183.2043 3551534
-678.95111 1088.9584 3198.1553 2039579
-656.65533 1083.4325 3181.9265 1841945
-642.42889 1091.2872 3204.9949 4605502
-622.07074 1088.8873 3197.9468 4342327
-603.77167 1090.0541 3201.3735 3881776
-583.27631 1087.2029 3192.9998 3882035
-552.6521 1064.6478 3126.7581 3881525
-538.0752 1072.5146 3149.8618 3223338
-522.47308 1078.8297 3168.4087 4473664
-502.97736 1077.2761 3163.8459 3486768
-481.73273 1071.7115 3147.5032 2105115
-465.18881 1076.5775 3161.7942 3486768
-448.6655 1081.9015 3177.4304 4012855
-420.58295 1058.5975 3108.9888 3420460
-397.47476 1046.2528 3072.7336 3552044
-376.23395 1037.8741 3048.1267 2959909
-354.05847 1025.9425 3013.0847 3617838
-331.15402 1010.5194 2967.7886 4012595
-315.76389 1017.5824 2988.532 2301976
-305.00568 1041.2982 3058.1826 2697248
-285.41431 1035.9481 3042.4697 7105376
-266.67578 1033.1808 3034.3428 3354661
-249.67355 1037.2268 3046.2253 3749416
-231.0625 1034.6989 3038.801 4407090
-205.40118 997.505 2929.5667 6907736
-188.85736 1001.8101 2942.2102 4998454
-170.79924 998.1413 2931.4353 4800817
-155.83656 1013.7789 2977.3616 4471853
-139.68758 1024.7061 3009.4534 4142634
-122.74178 1032.1301 3031.2571 4077356
-104.40263 1028.3744 3020.2268 3353889
-87.020256 1034.4387 3038.0369 4011306
-69.825935 1046.4835 3073.4114 2300688
-51.57534 1045.6117 3070.8508 4011560
-33.215485 1040.3671 3055.448 3484959
-15.05481 1036.2709 3043.418 3617056
2.9592805 1030.7651 3027.2483 5459004
20.741234 1023.2589 3005.2031 3945762
38.491478 1021.845 3001.0505 3813921
56.679787 1029.2797 3022.8855 4735281
75.86554 1046.9084 3074.6594 4077351
92.662041 1031.124 3028.302 4537648
109.95546 1025.0928 3010.5889 4471599
126.27816 1012.9584 2974.9514 3024409
146.52832 1031.4424 3029.2373 4011306
161.56665 1013.2087 2975.6865 2629651
178.96721 1011.919 2971.8992 3419167
200.53651 1032.3203 3031.8154 4668721
218.37247 1031.7288 3030.0781 3353115
232.82584 1016.4596 2985.2341 4405546
254.28665 1031.7793 3030.2266 3616287
270.44589 1024.9856 3010.2744 3287322
291.13269 1035.1304 3040.0686 3089943
310.45883 1039.5372 3053.0107 3287322
327.86661 1037.3889 3046.7017 3155994
346.5181 1039.1948 3052.0051 2498577
366.66956 1045.0967 3069.3386 6512721
393.38339 1068.2617 3137.3713 4473139
402.53311 1043.7915 3065.5054 4604726
423.63983 1051.1008 3086.9719 1314826
438.67905 1043.374 3064.2791 4670264
459.22849 1048.8462 3080.3503 3879978
475.27615 1044.0114 3066.1506 3222302
492.52115 1042.0658 3060.4368 2630165
507.42322 1035.4771 3041.0867 3090716
527.44293 1039.4257 3052.6831 4538933
538.159 1025.3856 3011.449 3946282
555.81573 1025.0466 3010.4536 5327932
569.0036 1016.7435 2986.0681 5590332
583.72662 1011.6015 2970.9666 4011040
597.60016 1005.3314 2952.552 3615510
621.45312 1015.7287 2983.0876 3944220
634.59161 1008.5229 2961.9253 4996908
652.91388 1009.7218 2965.446 3549462
667.99536 1005.9771 2954.4485 2957327
699.03082 1025.8365 3012.7734 2958096
720.69891 1031.3025 3028.8264 3615769
725.02142 1012.2847 2972.9731 3352597
750.77142 1023.3768 3005.5496 2759948
751.71838 1000.9292 2939.6233 3287062
766.23242 997.15411 2928.5361 3616284
790.97522 1006.5626 2956.168 3484701
808.47815 1006.5502 2956.1313 4011045
828.63922 1009.7774 2965.6094 3812895
839.87451 1002.2194 2943.4124 3352601
860.38269 1005.8092 2953.9553 2562829
879.59338 1007.7693 2959.7117 3549723
874.56262 982.42157 2885.2683 2497036
909.51868 1002.1031 2943.0708 2102022
932.26465 1007.8443 2959.9319 2826001
939.93036 997.37146 2929.1743 3154965
956.40771 996.45911 2926.4949 3022864
961.93219 984.37073 2890.9927 3746842
977.21472 982.51636 2885.5466 3812379
1009.5615 997.58759 2929.8091 4207393
1027.9792 998.61823 2932.8359 3615256
1052.8707 1005.7988 2953.9248 3417877
1063.6792 999.51123 2935.4587 3220242
1080.2795 998.78088 2933.3137 3088914
1096.5547 997.77765 2930.3674 3483157
1106.5741 991.20239 2911.0564 3680534
1105.1388 974.72571 2862.6663 3680533
1124.9275 977.18372 2869.8853 3351056
1135.9551 972.07141 2854.8708 3746070
1150.887 970.40106 2849.9651 3745814
1168.3256 970.86194 2851.3188 3482642
1201.7205 984.38025 2891.0208 3746069
1205.9669 973.9776 2860.4692 3614482
1223.2501 974.24603 2861.2576 3877400
1243.0778 976.50604 2867.895 4008729
1255.9308 973.29993 2858.479 3746327
1270.2377 971.29095 2852.5789 4075039
1293.1516 975.82965 2865.9084 2956557
1318.8025 982.28931 2884.8796 2825742
1351.4705 993.74335 2918.519 1772801
1354.4244 983.33521 2887.9514 2167561
1380.7911 989.97272 2907.4451 2101510
1402.6467 993.25226 2917.0767 2102277
1409.0271 985.62683 2894.6816 2825999
1433.5305 990.70966 2909.6094 3681308
1457.6163 995.38647 2923.3447 4339238
1441.2084 972.62549 2856.498 6313543
1458.7078 973.01031 2857.6282 4537132
1476.5586 973.61786 2859.4128 2957587
1487.6926 969.83313 2848.2974 3352088
1507.7738 971.90051 2854.3689 3615515
1532.3958 976.81653 2868.8066 3747100
1554.416 979.98438 2878.1106 3878687
1579.6503 985.08783 2893.0986 3483929
1621.7449 1000.4832 2938.3132 3681307
1638.1515 999.87238 2936.5193 3089171
1640.3293 990.68103 2909.5254 3681309
1659.3947 991.77386 2912.7349 3747104
1646.5688 973.9801 2860.4766 3944742
1640.7252 960.63678 2821.2886 2892312
1660.8026 962.58612 2827.0137 2366225
1674.6567 960.92572 2822.1372 2563092
1683.9698 956.71832 2809.7803 2234127
1696.236 954.25439 2802.5442 2168588
1700.9937 947.65515 2783.1628 3154456
0 0 0 0
0 0 0 0
0 0 0 0
1470.1257 788.46344 2315.6335 393216
1483.5115 788.28662 2315.1145 3222047
0 0 0 0
1831.9255 955.74976 2806.936 4010522
1852.4033 957.73975 2812.7803 4142108
1910.0851 978.75818 2874.5093 3944472
1903.323 966.67487 2839.0217 3878679
1968.1741 990.85602 2910.0393 4207644
1978.5646 987.43781 2900.0002 4076319
1995.9264 987.52759 2900.2642 3221010
2032.3566 996.96991 2927.9951 3089170
2062.6555 1003.27 2946.498 3944480
2072.0564 999.38513 2935.0884 3418135
2070.8062 990.47028 2908.9065 3418392
2048.73 971.82397 2854.144 3746844
2087.2168 981.97577 2883.959 3878942
2123.1321 990.76288 2909.7656 3155218
2150.8713 995.6239 2924.042 4405283
2162.4695 992.99512 2916.3215 3746584
2169.3958 988.27979 2902.4731 2694153
2172.4231 981.87646 2883.6672 3417876
2178.645 977.00562 2869.3621 3615255
2190.1206 974.54797 2862.1443 3746841
2195.8491 969.59045 2847.5845 4602150
2218.7117 972.21643 2855.2969 5260081
2225.4028 967.77014 2842.2385 3417877
2263.793 977.0722 2869.5576 3615256
2286.6221 979.56934 2876.8916 3549464
2278.5217 968.87775 2845.4915 3549464
2285.7476 964.81226 2833.5515 3746843
2327.1091 975.1098 2863.7942 3746843
2341.385 973.99072 2860.5078 4865325
2356.155 973.09192 2857.8679 3286293
2393.1165 981.30566 2881.991 3549465
2374.2473 966.67163 2839.0122 3681051
2383.0425 963.42767 2829.4851 3088914
2402.1133 964.35437 2832.2068 2891791
2424.0449 966.40875 2838.2402 3812637
2421.8894 958.89801 2816.1821 3812380
2452.356 964.31775 2832.0994 3154707
2475.6062 966.84546 2839.5229 3088658
2479.8347 961.96039 2825.1758 3352085
2487.6538 958.52405 2815.0837 3154706
2483.0857 950.39258 2791.2024 3615257
2501.5745 951.13519 2793.3833 3812380
2498.4929 943.72052 2771.6074 3352086
2513.5283 943.20105 2770.0818 3812379
2521.6248 940.10138 2760.9783 3943965
2567.1497 950.9057 2792.7095 3944221
2556.0366 940.72656 2762.8145 4273188
2576.3494 942.16931 2767.0515 3352343
2609.7307 948.34271 2785.1824 3352087
2630.248 949.79346 2789.4429 3549722
2666.2397 956.77893 2809.9585 4076065
2665.2339 950.48358 2791.4697 5260340
0 0 0 0
0 0 0 0
0 0 0 0
0 0 0 0
0 0 0 0
0 0 0 0
0 0 0 0
0 0 0 0
0 0 0 0
0 0 0 0
0 0 0 0
0 0 0 0
0 0 0 0
0 0 0 0
0 0 0 0
0 0 0 0
0 0 0 0
0 0 0 0
0 0 0 0
0 0 0 0
0 0 0 0
0 0 0 0
0 0 0 0
0 0 0 0
0 0 0 0
0 0 0 0
0 0 0 0
0 0 0 0
0 0 0 0
0 0 0 0
0 0 0 0
0 0 0 0
0 0 0 0
0 0 0 0
0 0 0 0
0 0 0 0
0 0 0 0
0 0 0 0
0 0 0 0
0 0 0 0
0 0 0 0
0 0 0 0
0 0 0 0
0 0 0 0
0 0 0 0
0 0 0 0
0 0 0 0
0 0 0 0
0 0 0 0
0 0 0 0
0 0 0 0
0 0 0 0
0 0 0 0
0 0 0 0
0 0 0 0
-1612.9381 917.16632 2647.5562 2701120
-1717.4967 986.21179 2846.8674 2701120
-1718.9574 996.83917 2877.5454 2635584
-1676.5643 981.99371 2834.6914 2701377
0 0 0 0
0 0 0 0
0 0 0 0
0 0 0 0
0 0 0 0
-2243.3613 1397.9954 4035.5505 6
-1794.1571 1130.1083 3262.249 3223859
-1783.0264 1135.3268 3277.3132 4144698
-1725.8186 1110.9979 3207.0837 3815475
-1722.8218 1121.4144 3237.1528 3354666
-1705.0442 1122.3359 3239.813 2959908
-1667.6392 1110.2117 3204.8142 1775634
-1654.67 1114.2635 3216.5107 2828321
-1649.608 1123.7965 3244.0293 4078386
-1553.9647 1071.1183 3091.9646 4341559
-1559.1603 1087.5187 3139.3071 4275506
0 0 0 0
-1495.3673 1068.5138 3084.4463 4144174
-1460.1741 1056.2738 3049.1135 5393986
-1409.6774 1032.5183 2980.5391 3617576
-1446.6246 1073.0208 3097.4563 4143922
-1429.4871 1073.9316 3100.0857 2564891
-1427.9901 1086.7695 3137.1445 1973007
-1417.938 1093.3492 3156.1379 1512717
-1394.2106 1089.4191 3144.7927 2367507
-1367.6913 1083.1713 3126.7576 2696472
-1359.8925 1091.7816 3151.6128 4736055
-1337.7191 1088.9307 3143.3828 3551525
-1301.6212 1074.504 3101.738 3814698
-1294.0153 1083.5217 3127.769 4801593
-1286.4384 1092.826 3154.6274 5262144
-1270.2495 1094.981 3160.8481 3616805
-1240.8516 1085.6436 3133.894 4209454
-1232.752 1094.9397 3160.7292 3551011
-1215.016 1095.8317 3163.3037 3287840
-1190.6389 1090.668 3148.3982 3024926
-1172.4423 1091.0916 3149.6206 3748906
-1144.8073 1082.6034 3125.1182 3551528
-1120.0774 1076.6285 3107.8708 3222820
-1094.6156 1069.7386 3087.9819 3485992
-1076.0486 1069.4673 3087.1985 4407349
-1061.817 1073.5698 3099.0415 6184015
-1042.312 1072.3911 3095.6389 6117966
-1039.2802 1088.4224 3141.9158 3683625
-1016.701 1084.1934 3129.708 5328705
-1001.0385 1087.3202 3138.7341 6512977
-965.21576 1068.2528 3083.6929 4407861
-941.36456 1061.9551 3065.5132 4934718
-933.74591 1074.0815 3100.5186 4803132
-913.61963 1072.0187 3094.5635 5855564
-897.41797 1074.5706 3101.9302 4210225
-877.08093 1072.1741 3095.0122 3683882
-855.32379 1067.9021 3082.6802 2301719
-835.32941 1065.6926 3076.3022 2367772
-823.92224 1074.5841 3101.9692 1051915
-802.58008 1070.6285 3090.5505 263171
-772.90967 1055.1187 3045.7791 3552561
-763.98669 1067.8676 3082.5808 4802625
-742.95978 1063.9082 3071.1514 3946547
-727.216 1067.5052 3081.5347 4144181
-716.89929 1079.4592 3116.042 3354922
-706.03723 1091.2021 3149.9402 3684400
-693.10107 1100.2903 3176.1746 7105636
-669.58441 1092.6204 3154.0342 1184271
-636.47546 1068.4083 3084.1416 2039322
-618.56598 1069.0333 3085.9458 3289129
-602.60144 1073.1603 3097.8589 4275510
-584.67456 1073.9419 3100.1152 2960421
-566.53278 1074.3666 3101.3413 3355691
-544.42328 1067.0435 3080.2017 4144698
-530.12848 1075.0598 3103.3423 4342077
-507.06873 1065.2389 3074.9927 6119001
-487.32452 1061.911 3065.386 4013371
-472.13196 1068.6276 3084.7747 4144956
-450.32382 1060.3083 3060.76 3815733
-429.19583 1052.9598 3039.5471 2697251
-411.14575 1052.8494 3039.2283 2433822
-392.46942 1051.0518 3034.0391 2565408
-369.60388 1037.3241 2994.4121 3815218
-348.32492 1026.8898 2964.2915 3552045
-330.77426 1026.9224 2964.3853 2893858
-311.94611 1022.77 2952.3989 4275254
-297.41989 1033.0668 2982.1223 3616807
-278.66565 1029.051 2970.5303 3287584
-260.18707 1025.5803 2960.5115 4669491
-240.80768 1017.8006 2938.054 6248007
-223.72081 1019.2532 2942.2473 3945252
-204.51097 1010.462 2916.8696 3484960
-184.76054 997.13043 2878.386 4932144
-171.13083 1017.4793 2937.1265 4735020
-153.81845 1018.0605 2938.8042 4471850
-136.36465 1017.7347 2937.864 4077606
-118.99068 1017.9965 2938.6196 3288092
-102.44673 1026.666 2963.6455 4538675
-85.796135 1037.6318 2995.3003 2696475
-67.727684 1032.6974 2981.0562 2498835
-49.560116 1022.2377 2950.8623 4209451
-32.354191 1031.0217 2976.219 6182983
-14.569778 1020.3337 2945.366 3814692
2.8756762 1019.0719 2941.7239 5064246
20.523375 1030.1274 2973.6375 4011558
37.932671 1024.531 2957.4824 4208679
55.569828 1026.6808 2963.6882 3484447
74.08181 1040.0806 3002.3689 2826516
91.264351 1033.2405 2982.6238 3089944
108.68477 1030.8756 2975.7974 2892310
125.5442 1024.5927 2957.6604 3352604
142.91974 1023.5447 2954.6355 4340270
159.13347 1015.313 2930.873 3353376
175.90602 1011.9155 2921.0657 4998201
195.18478 1022.2526 2950.9053 2760726
211.48448 1016.5703 2934.5024 2826262
228.89822 1016.6993 2934.875 2760725
246.37386 1017.0658 2935.9329 3418654
263.79529 1017.175 2936.248 4011559
281.76898 1019.2683 2942.2908 2761748
301.76266 1027.9991 2967.4939 3946022
321.6167 1035.3192 2988.6245 5393468
338.78845 1033.6913 2983.9253 5196860
359.10956 1041.3575 3006.0549 4802361
379.24451 1047.7849 3024.6089 5723463
396.85715 1046.9783 3022.28 5658184
409.79977 1034.4525 2986.1226 1710606
427.64322 1034.8228 2987.1912 4012843
448.40479 1041.9442 3007.7485 5131068
464.08749 1037.1709 2993.9695 4406574
477.92252 1028.7715 2969.7234 2630164
492.74567 1023.0202 2953.1213 5064248
509.40945 1021.3538 2948.3108 4406061
526.22986 1020.1014 2944.6956 3747874
542.48486 1017.8685 2938.25 3945251
563.25781 1023.988 2955.9148 3878430
576.14166 1015.8287 2932.3616 4010015
590.56683 1010.785 2917.8022 3680791
607.13562 1009.593 2914.3611 3878170
615.85004 995.76691 2874.45 4733736
639.65552 1006.4291 2905.2283 3088654
657.98535 1008.1431 2910.1758 3483671
681.18103 1017.0343 2935.842 3089425
696.56055 1014.1036 2927.3818 2957840
714.30457 1014.6739 2929.0283 3681306
719.31897 997.56372 2879.6367 3484697
731.26379 990.63464 2859.635 3748128
754.60699 999.11115 2884.1038 3550493
779.91412 1009.7549 2914.8289 3154966
798.34589 1011.2289 2919.0835 3286552
802.82904 995.34686 2873.2373 3089171
816.00226 990.67456 2859.75 2299399
834.0481 991.98761 2863.5405 2826001
853.51855 994.909 2871.9736 3220758
868.54645 992.63898 2865.4207 3023379
882.25287 988.97461 2854.8428 2168331
895.3623 984.79132 2842.7671 2825999
908.77539 981.09039 2832.0837 3023378
919.52313 974.69843 2813.6323 3154708
942.47717 981.24243 2832.5227 3417879
956.16223 978.07605 2823.3823 3286291
979.86182 985.08636 2843.6189 3812635
1001.537 989.85907 2857.396 4535844
1018.3586 989.75568 2857.0977 3615254
1055.9247 1009.488 2914.0583 4602150
1068.0433 1004.6485 2900.0884 3878428
1075.2627 995.42682 2873.4683 3483415
1085.0936 988.87238 2854.5479 3154446
1098.1322 985.39758 2844.5171 3548947
1087.1364 960.78656 2773.4734 2693639
1123.1268 977.81573 2822.6309 3219727
1138.4111 976.58252 2819.071 3285006
1157.1082 978.27026 2823.9429 3351056
1171.6429 976.44098 2818.6624 3548433
1188.7994 976.81744 2819.749 3416847
1202.3123 974.23096 2812.2827 3285262
1220.6722 975.58911 2816.2034 3219726
1233.922 972.88153 2808.3875 4009498
1248.0103 970.89832 2802.6626 3153933
1274.5348 978.51501 2824.6494 3812892
1289.5056 977.17902 2820.7927 1838850
1326.4274 992.29865 2864.4382 1707780
1346.3901 994.50946 2870.8203 2958363
1364.8 995.53253 2873.7734 2892825
1373.6388 989.63489 2856.7488 1444867
1394.3436 992.32556 2864.5161 2958103
1401.551 985.46136 2844.7012 3352602
1412.397 981.28802 2832.6543 3615516
1419.3116 974.51349 2813.0984 3418138
1432.1284 971.90161 2805.5588 3615517
1460.0614 979.49048 2827.4653 3286296
1463.3221 970.5434 2801.6382 2891537
1493.9924 979.77252 2828.2795 2430731
1518.627 984.88245 2843.03 2562317
1496.6754 959.9989 2771.1997 2035716
1560.2111 989.8938 2857.4961 2035716
1583.5352 993.9079 2869.0837 2036229
1604.5746 996.41821 2876.3301 2430730
1608.3291 988.25482 2852.7649 2891538
1616.6707 983.05035 2837.7415 3089173
1627.2302 979.2879 2826.8806 2825747
1624.4232 967.63989 2793.2566 2562830
1634.5493 963.85321 2782.3257 3484192
1653.798 965.46753 2786.9858 2826518
1669.3228 964.89771 2785.3408 2826262
1686.739 965.42163 2786.8533 2629140
1676.719 950.38409 2743.4448 3352862
0 0 0 0
0 0 0 0
0 0 0 0
1469.5714 801.87927 2314.7605 393216
1493.3406 807.31567 2330.4536 2564373
1782.1816 954.64044 2755.7314 3419166
1838.5221 975.88013 2817.0435 3484181
1841.1777 968.49841 2795.7349 3943961
1857.2698 968.25305 2795.0266 3680532
1869.0381 965.77802 2787.8818 3680273
1920.0499 983.44666 2838.8855 3812117
1957.9359 994.14386 2869.7646 3812374
1963.0177 988.14392 2852.4448 3615510
1972.2584 984.32202 2841.4124 3813146
2011.2383 995.28149 2873.0488 3944480
2028.8271 995.56036 2873.8538 3352342
2033.2092 989.4079 2856.0935 3286549
2060.4326 994.38019 2870.447 3418136
2074.5149 992.98114 2866.4084 2628620
2099.3657 996.71753 2877.1941 3154964
2106.8557 992.21747 2864.2039 3484183
2126.7 993.56116 2868.0828 2562829
2130.064 987.24518 2849.8506 2628876
2144.1838 985.97443 2846.1824 2102019
2141.821 977.20355 2820.8635 2957328
2150.1064 973.38885 2809.8521 3220499
2170.8374 975.22394 2815.1492 2628361
2194.2654 978.23334 2823.8364 3746840
2185.5872 966.99213 2791.3867 3944220
2215.3101 972.78241 2808.1013 4338978
2234.1592 973.74713 2810.886 4470566
2232.071 965.63953 2787.4822 2891534
2264.3049 972.39044 2806.97 3088913
2255.2859 961.45636 2775.4067 3417878
2304.0244 975.12494 2814.8635 3286293
2283.4297 959.46448 2769.6567 3746844
2316.6084 966.46094 2789.8535 3812380
2333.1362 966.46094 2789.8535 3746844
2341.4678 963.08978 2780.1221 4010016
2365.1514 966.03607 2788.627 3812637
2376.2163 963.8233 2782.2393 3681050
2402.6497 967.8316 2793.8101 3417621
2422.603 969.19269 2797.739 3417621
2430.4478 965.72406 2787.7261 3220499
2425.2983 957.17389 2763.0447 3352085
2436.8452 955.28345 2757.5876 3417621
2460.8315 958.26239 2766.1868 2759948
2442.5071 944.83478 2727.4258 3483671
2456.103 943.85016 2724.5835 3088912
2490.3105 950.74762 2744.4941 3483669
2492.8867 945.55768 2729.5127 3746842
2505.5869 944.24994 2725.7375 4141598
2540.0593 951.11145 2745.5444 3352085
2537.7224 944.19031 2725.5654 3418135
2579.7505 953.75885 2753.1868 3417622
2598.303 954.58258 2755.5645 2891535
2609.7664 952.80768 2750.4409 2825998
2633.3149 955.43988 2758.0391 3154966
0 0 0 0
0 0 0 0
0 0 0 0
0 0 0 0
0 0 0 0
0 0 0 0
0 0 0 0
0 0 0 0
0 0 0 0
0 0 0 0
0 0 0 0
0 0 0 0
0 0 0 0
0 0 0 0
0 0 0 0
0 0 0 0
0 0 0 0
0 0 0 0
0 0 0 0
0 0 0 0
0 0 0 0
0 0 0 0
0 0 0 0
0 0 0 0
0 0 0 0
0 0 0 0
0 0 0 0
0 0 0 0
0 0 0 0
0 0 0 0
0 0 0 0
0 0 0 0
0 0 0 0
0 0 0 0
0 0 0 0
0 0 0 0
0 0 0 0
0 0 0 0
0 0 0 0
0 0 0 0
0 0 0 0
0 0 0 0
0 0 0 0
0 0 0 0
0 0 0 0
0 0 0 0
0 0 0 0
0 0 0 0
0 0 0 0
0 0 0 0
0 0 0 0
0 0 0 0
0 0 0 0
0 0 0 0
-1628.3958 932.72095 2647.1868 2108726
-1613.0029 932.88849 2647.6624 2043191
-1715.0691 1001.6595 2842.8435 2108984
-1679.3535 990.5271 2811.2485 1977397
-1681.3857 1001.6595 2842.8435 1977654
-1683.8795 1013.2947 2875.866 2240570
-1654.8657 1006.0142 2855.2026 1385259
-1709.5077 1049.9636 2979.937 1186597
-1626.3184 1009.2923 2864.5066 857632
-1837.1305 1152.1444 3269.9399 11
-1796.2139 1138.4888 3231.1833 6
0 0 0 0
0 0 0 0
0 0 0 0
0 0 0 0
-1664.4624 1114.3597 3162.7021 4604732
-1642.4667 1112.1528 3156.4387 5196868
-1635.1316 1119.9366 3178.53 3420458
-1583.8639 1097.4608 3114.7405 2301977
-1572.0868 1102.1405 3128.0225 2630940
-1542.4464 1094.2594 3105.6545 2039064
-1509.2944 1083.6665 3075.5906 3617578
-1496.6702 1087.7335 3087.1335 3880494
0 0 0 0
-1398.0303 1041.4989 2955.9131 1643790
-1409.756 1063.5562 3018.5146 3814957
-1422.4436 1086.9153 3084.811 5196608
-1407.2631 1089.3105 3091.6091 3946798
-1380.0293 1082.3163 3071.7583 4209455
-1357.4723 1078.8517 3061.9255 5328193
-1351.4434 1088.6071 3089.6123 2893852
-1339.3472 1093.6758 3103.998 3485477
-1314.8291 1088.6011 3089.5957 4537652
-1300.946 1092.3125 3100.1292 3945771
-1287.5703 1096.5624 3112.1909 4274480
-1266.7926 1094.5403 3106.4517 2235153
-1240.4335 1087.5649 3086.6548 2564118
-1218.853 1084.6334 3078.3347 2695704
-1215.166 1097.7775 3115.6394 3287841
-1198.7668 1099.666 3120.9993 3156255
-1165.6655 1086.0521 3082.3611 2958621
-1153.2427 1091.5776 3098.0435 1379846
-1121.6971 1078.8892 3062.0317 2104083
-1100.6133 1076.0112 3053.8638 2696476
-1067.1504 1060.7327 3010.501 3486248
-1057.7234 1069.2319 3034.6233 4868156
-1042.1581 1071.7129 3041.6646 6249810
-1029.4597 1077.2811 3057.468 4209716
-1011.9374 1077.9104 3059.2539 3617578
-1006.2702 1091.421 3097.5989 2630683
-983.50854 1086.5482 3083.7693 4802365
-964.11688 1085.2844 3080.1824 4275764
-932.83929 1070.334 3037.751 3354663
-920.552 1077.0133 3056.708 5986640
-895.70728 1068.9741 3033.8916 2565660
-872.34863 1062.4155 3015.2776 3947312
-857.67114 1066.3766 3026.5193 3289640
-848.43933 1077.4221 3057.8679 2960678
-831.27667 1078.6584 3061.377 2894632
-805.09253 1067.9828 3031.0779 0
-743.46918 1008.7361 2862.928 1184015
-768.57794 1067.1483 3028.7095 5065797
-743.98352 1057.6918 3001.8706 5723723
-730.01178 1063.2439 3017.6284 5986638
-711.64807 1062.5173 3015.5664 3815725
-705.69696 1080.7631 3067.3503 3355943
-699.99304 1100.3619 3122.9746 6118737
-669.76733 1081.4312 3069.2463 7039842
-644.79059 1070.1555 3037.2444 5658191
-626.8623 1070.2666 3037.5596 2696737
-596.60468 1048.7117 2976.3838 3091237
-578.33026 1047.5493 2973.0852 4143667
-563.32941 1052.4299 2986.9368 2959907
-551.90039 1064.5165 3021.2402 3881524
-539.41235 1075.302 3051.8508 4999750
-506.11267 1043.9094 2962.7549 5263179
-499.04645 1066.3147 3026.3438 4671556
-476.97 1057.1219 3000.2537 4737347
-462.68555 1065.1556 3023.0544 5461070
-442.99011 1060.8782 3010.9143 5723986
-422.84888 1055.1293 2994.5981 5329482
-401.06018 1044.5858 2964.6746 6645600
-384.51694 1047.3647 2972.5613 1315855
-362.02878 1033.4399 2933.041 4275767
-345.46088 1035.863 2939.918 4867903
-325.15253 1026.7322 2914.0034 4605245
-308.40366 1028.4475 2918.8716 4144436
-293.54538 1037.0455 2943.2739 3354149
-275.65579 1035.3442 2938.4456 3090205
-252.65048 1012.9041 2874.7573 2695446
-234.97766 1010.1437 2866.9231 3945767
-216.55869 1003.4956 2848.0549 4669233
-200.76265 1008.9055 2863.4087 4340523
-182.87787 1003.8483 2849.0557 4340525
-166.15724 1004.8027 2851.7644 4866608
-151.37146 1018.9981 2892.053 6116675
-134.18968 1018.6292 2891.0059 4208935
-117.10973 1019.0384 2892.1672 2564372
-101.77104 1037.3361 2944.0986 4077612
-85.093147 1046.7292 2970.7576 3748648
-67.156723 1041.5032 2955.9253 4340784
-50.06794 1050.3727 2981.0984 3024922
-31.929115 1034.8761 2937.1167 3748645
-14.500325 1032.8356 2931.3257 2827031
2.8611724 1031.2716 2926.887 3287582
20.158571 1029.1202 2920.781 3024410
37.366619 1026.5018 2913.3494 3024152
54.234291 1019.1417 2892.4604 4076841
72.904724 1041.0588 2954.6643 3945511
90.209587 1038.7646 2948.1531 2366481
107.43059 1036.4058 2941.458 2498325
123.42862 1024.5535 2907.8198 3221791
141.30487 1029.2858 2921.2507 3353121
157.32971 1020.9709 2897.6521 2892825
173.96196 1017.8458 2888.7827 3155997
191.35133 1019.3138 2892.949 3023898
209.18681 1022.7215 2902.6204 2629397
223.5656 1009.9952 2866.5017 2629141
242.70636 1019.0601 2892.229 2694675
261.73895 1026.5052 2913.3594 2695444
278.71466 1025.4615 2910.397 5722435
297.68271 1031.4426 2927.3721 5327421
315.61591 1033.377 2932.8621 3551264
333.61591 1035.3168 2938.3674 4274986
354.13354 1044.4897 2964.4014 3222554
364.6239 1024.6185 2908.0044 4472110
389.38797 1044.8408 2965.3979 5196606
400.92654 1029.3613 2921.4651 5262913
419.70663 1032.9858 2931.752 4143662
437.77585 1034.6422 2936.4531 2038030
454.40363 1032.8955 2931.4956 2761493
465.66199 1019.5217 2893.5388 2234891
482.09012 1018.0142 2889.2605 3222043
494.08585 1007.5714 2859.6223 3024664
512.28717 1010.0562 2866.6746 3418653
524.10919 1000.2073 2838.7222 3286808
542.89539 1003.8481 2849.0552 3088914
563.2561 1010.0929 2866.7788 3286291
574.19653 999.57294 2836.9219 3220241
592.89709 1002.7765 2846.0137 3548948
610.09399 1003.3297 2847.584 3088397
628.14014 1005.2123 2852.9272 3417876
642.97314 1001.989 2843.7788 3549462
664.24011 1008.7008 2862.8279 3089682
678.27484 1004.3691 2850.5339 3549977
693.15295 1001.4664 2842.2957 3878942
686.81 968.76825 2749.4939 3352342
725.05914 999.02673 2835.3716 3747101
741.21942 998.16882 2832.9365 3418136
763.55688 1005.4831 2853.6956 3483929
778.94116 1003.5227 2848.1318 3089171
794.46661 1001.8236 2843.3093 3417880
804.14142 992.9704 2818.1829 3154966
824.05829 996.86725 2829.2427 2562573
841.17572 997.28961 2830.4414 2562316
864.77246 1005.2274 2852.9697 3878175
861.88318 982.66309 2788.9292 3746844
872.46997 976.02313 2770.0842 3154707
899.17816 987.33026 2802.1753 3483671
913.44434 984.81317 2795.0317 2036226
936.86816 992.08331 2815.6653 3811864
946.65393 984.90985 2795.3059 3285775
962.75305 984.43848 2793.9683 3417103
976.43091 981.54913 2785.7678 3943447
1003.413 991.90771 2815.1667 3746325
1022.0167 993.78046 2820.4819 3746583
1037.6316 992.73352 2817.5105 3812634
1040.0627 979.30615 2779.4019 3220241
1064.8871 987.05377 2801.3906 3417620
1064.2883 971.36029 2756.8506 5259569
1079.9025 970.71484 2755.0186 2561799
1098.5011 972.73138 2760.7419 2758922
1115.637 973.41248 2762.6748 3482386
1132.5837 973.91132 2764.0906 3087884
1143.2233 969.0495 2750.292 3022091
1153.5909 964.09729 2736.2371 2561540
1176.3464 969.49164 2751.5471 2693129
1185.5287 963.70502 2735.1238 3482901
1207.818 968.58545 2748.9751 1969664
1246.3318 986.17371 2798.8931 2430470
1251.5784 977.32281 2773.7729 2628106
1266.0887 975.84131 2769.5684 3418136
1287.231 979.44391 2779.793 2431243
1338.4504 1005.5519 2853.8911 3155737
1341.7717 995.47253 2825.2842 2826517
1359.6754 996.32703 2827.7095 2300173
1378.8118 998.05298 2832.6079 3286554
1390.5793 994.46765 2822.4321 3549727
1396.2998 986.69421 2800.3704 2760208
1410.0751 984.72858 2794.7915 4470826
1408.2805 972.06146 2758.8406 4010018
1430.7554 976.24475 2770.7131 3615260
1458.3538 983.78943 2792.126 3352088
1477.3035 985.396 2796.6855 1510915
1493.2588 984.99164 2795.5381 2497297
1490.6168 972.46356 2759.9817 1839367
1528.6882 986.4801 2799.7627 1708037
1544.2938 985.854 2797.9856 2497554
1561.6005 986.31561 2799.2957 2431761
1581.7782 988.56183 2805.6707 1971210
1589.4338 983.01666 2789.9329 2563603
1605.7926 982.9129 2789.6384 2234382
1617.5896 980.04755 2781.5061 2563347
1609.7513 965.46344 2740.1145 3024156
1635.0953 970.87329 2755.4683 2497554
1656.1628 973.66193 2763.3828 3287069
1679.2144 977.55103 2774.4207 3616033
1679.9712 968.51178 2748.7659 3747876
1656.0966 945.58221 2683.689 3286815
0 0 0 0
0 0 0 0
1468.4083 814.94696 2312.9285 393216
1488.0033 818.18701 2322.1243 1445641
1711.1057 932.24243 2645.8289 2695189
1781.3556 961.70624 2729.4509 3154964
1783.5118 954.20874 2708.1721 3352084
1811.9664 960.78955 2726.8491 3483924
1854.7444 974.78174 2766.561 3482895
1888.2706 983.70917 2791.8982 4075288
1900.1655 981.31042 2785.0903 3812118
1938.3499 992.41266 2816.6001 4733734
1945.6427 987.64453 2803.0674 4010012
1948.6405 980.79529 2783.6282 3681562
1976.4016 986.42023 2799.5925 3681563
2009.8481 994.7655 2823.2776 3483928
2033.2661 998.05054 2832.6008 3681308
2054.1211 1000.0338 2838.2297 3681308
2059.4155 994.47107 2822.4419 2694418
2086.3337 999.35571 2836.3052 2891794
2106.4417 1000.9261 2840.7622 2168074
2088.1357 984.36304 2793.7539 1970695
2074.147 970.07965 2753.2158 1970950
2093.3618 971.42731 2757.0408 3154966
2123.427 977.75031 2774.9861 2826000
2129.0798 972.82153 2760.9978 2957841
2147.321 973.67609 2763.4231 3615257
2150.4426 967.71375 2746.501 3812378
2161.9988 965.60785 2740.5244 4273186
2191.1311 971.32501 2756.7505 3549464
2217.9043 975.91956 2769.7903 2891535
2231.2959 974.60168 2766.05 3417878
2235.1643 969.17371 2750.6445 3812637
2245.7673 966.72339 2743.6902 3746587
2246.386 960.04114 2724.7251 3088914
2262.0188 959.82507 2724.1121 3615258
2293.5374 966.30505 2742.5032 3483672
2288.1621 957.25928 2716.8298 3746587
2302.4141 956.49353 2714.6567 3352086
2345.9299 967.81122 2746.7778 2891535
2350.0327 962.82513 2732.6267 3746844
2378.8206 967.95184 2747.1768 3286292
2384.8247 963.80096 2735.3962 3417878
2391.0652 959.80109 2724.0439 3286035
2424.5759 966.72809 2743.7036 4010015
2399.7205 950.44592 2697.4927 3878686
2408.3713 947.56201 2689.3079 3877659
2427.2959 948.73181 2692.6277 3681048
2464.3538 956.92743 2715.8879 4075806
2468.1753 952.19452 2702.4553 3812634
2478.0874 949.85718 2695.8218 3417877
2508.0378 955.1814 2710.9326 3286292
2503.4663 947.37384 2688.7737 3483929
2540.9387 955.47498 2711.7656 3483929
2555.9568 955.08356 2710.655 3352343
2556.3918 949.2821 2694.1897 3286550
2554.4619 942.67975 2675.4512 3418135
0 0 0 0
0 0 0 0
0 0 0 0
0 0 0 0
0 0 0 0
0 0 0 0
0 0 0 0
0 0 0 0
0 0 0 0
0 0 0 0
0 0 0 0
0 0 0 0
0 0 0 0
0 0 0 0
0 0 0 0
0 0 0 0
0 0 0 0
0 0 0 0
0 0 0 0
0 0 0 0
0 0 0 0
0 0 0 0
0 0 0 0
0 0 0 0
0 0 0 0
0 0 0 0
0 0 0 0
0 0 0 0
0 0 0 0
0 0 0 0
0 0 0 0
0 0 0 0
0 0 0 0
0 0 0 0
0 0 0 0
0 0 0 0
0 0 0 0
0 0 0 0
0 0 0 0
0 0 0 0
0 0 0 0
0 0 0 0
0 0 0 0
0 0 0 0
0 0 0 0
0 0 0 0
0 0 0 0
0 0 0 0
0 0 0 0
0 0 0 0
0 0 0 0
0 0 0 0
0 0 0 0
0 0 0 0
-1407.3231 819.64734 2287.8022 1845810
-1659.9095 976.15863 2724.6572 1582639
-1653.8586 982.151 2741.3831 1582639
-1563.3939 937.6355 2617.1313 1056038
-1582.8569 958.8172 2676.2537 1582382
-1609.9457 985.09338 2749.5959 1516589
-1603.6815 991.29022 2766.8926 792866
-1673.1602 1044.9178 2916.5779 792097
-1726.4974 1089.4788 3040.9565 330263
-1794.1984 1144.1389 3193.5242 12
-1775.5286 1144.2996 3193.9727 9
0 0 0 0
0 0 0 0
-1669.718 1111.6469 3102.8325 5131076
0 0 0 0
0 0 0 0
-1607.3718 1106.6892 3088.9946 5197381
-1594.2483 1110.2943 3099.0571 5000257
-1573.9802 1108.9496 3095.3037 4604986
-1543.0936 1100.0038 3070.334 4144433
-1516.6259 1094.0321 3053.6658 2828576
-1488.5385 1086.7338 3033.2947 4341301
-1464.8881 1082.5359 3021.5776 4144179
-1431.5344 1070.9749 2989.3086 3617832
-1430.1511 1083.3419 3023.8274 4407092
-1412.7124 1083.7064 3024.8447 4867643
-1402.6163 1089.7852 3041.812 4933177
-1380.0745 1086.2266 3031.8789 4604982
-1355.7372 1081.1421 3017.6873 5131582
-1336.0031 1079.6417 3013.4995 6446929
-1335.358 1093.7358 3052.8389 4867896
-1312.6252 1089.8772 3042.0688 3354402
-1291.5625 1087.3173 3034.9236 3354404
-1256.2566 1072.525 2993.6353 4012076
-1261.1288 1092.1022 3048.2791 4537908
-1238.2024 1087.8257 3036.3425 3879978
-1215.6659 1083.7705 3025.0239 3551013
-1198.8439 1084.765 3027.7996 3090717
-1180.0793 1084.0051 3025.6785 3551011
-1171.1395 1092.386 3049.071 3616805
-1146.5865 1086.238 3031.9109 4012334
-1131.3848 1088.8942 3039.325 3420197
-1112.6141 1088.146 3037.2366 2235923
-1083.4583 1077.0494 3006.2637 3091233
-1050.6427 1061.8832 2963.9316 3222819
-1041.8861 1070.9309 2989.1858 3025954
-1027.8511 1074.7722 2999.9077 5196867
-1024.2687 1089.8707 3042.0508 3618607
-985.25427 1067.1335 2978.5867 3815986
-983.75653 1084.9426 3028.2954 5395016
-967.98596 1087.38 3035.0984 4341814
-950.87091 1088.3707 3037.8638 3551785
-929.77179 1084.7515 3027.7617 4472888
-906.51453 1078.4225 3010.0962 3420456
-878.04541 1065.5148 2974.0684 4078641
-861.35706 1066.6674 2977.2854 5328965
-844.47876 1067.6279 2979.9666 5460296
-822.22632 1061.6903 2963.3933 3026214
-795.5575 1049.6664 2929.8323 4013112
-753.84003 1016.8082 2838.1182 65536
-755.97253 1042.9464 2911.0754 2170906
-748.54364 1056.8062 2949.7607 4144181
-734.84924 1062.2714 2965.0151 4407095
-713.22321 1056.2577 2948.23 3354149
-699.53235 1061.9889 2964.2268 4605499
-682.25513 1062.4304 2965.4592 4934463
-677.32898 1082.6371 3021.8601 5197634
-651.89526 1070.272 2987.3467 6184273
-628.3042 1060.3263 2959.5864 4276021
-612.38873 1063.135 2967.4258 3947570
-588.02441 1051.0084 2933.5781 3815986
-570.74536 1051.1929 2934.0928 3947572
-550.01489 1044.8324 2916.3394 4934466
-536.30182 1051.8223 2935.8496 3750194
-519.70453 1053.4343 2940.3494 4539712
-491.03079 1029.8307 2874.4666 3158059
-484.78897 1053.2671 2939.8826 4078648
-459.05075 1034.5134 2887.5374 3223083
-446.32278 1044.7627 2916.145 3354669
-430.54507 1048.4109 2926.3279 2959910
-413.55695 1049.2941 2928.793 5065282
-395.82001 1048.2716 2925.939 5131332
-370.83972 1027.0939 2866.8276 3617834
-354.73441 1029.6436 2873.9443 5065024
-338.67889 1032.6022 2882.2024 4143922
-321.01706 1030.7173 2876.9417 4340787
-306.29028 1038.5735 2898.8696 2695449
-284.0386 1020.3317 2847.9531 2629398
-267.73401 1022.4983 2854.0005 2366226
-248.72661 1013.939 2830.1099 2234896
-232.38689 1015.8033 2835.3135 2103052
-214.49841 1010.6608 2820.9597 2695446
-199.0042 1016.8834 2838.3284 2432015
-182.72359 1019.8655 2846.6521 3287579
-165.43646 1017.2651 2839.3936 2958868
-148.94566 1019.5267 2845.7063 3222554
-133.39569 1029.6277 2873.9001 5722950
-116.66547 1032.2415 2881.1956 4604471
-100.42795 1040.8574 2905.2446 4736828
-83.464211 1043.9542 2913.8887 4934463
-65.799873 1037.6182 2896.2031 3158050
-49.119404 1047.7996 2924.6216 3420197
-31.31813 1032.1401 2880.9131 2432789
-14.172305 1026.4443 2865.0146 1511949
2.8080361 1029.137 2872.5303 3616550
19.91156 1033.6013 2884.9915 1446155
36.642151 1023.5245 2856.8647 3089949
53.868389 1029.2859 2872.946 2366482
71.090729 1032.224 2881.147 2103568
87.322273 1022.4237 2853.7922 3946028
105.52365 1035.1255 2889.2456 3880491
122.38651 1032.9844 2883.2693 4603702
138.6348 1026.8157 2866.0513 4077871
155.29051 1024.6815 2860.0945 4801338
174.35345 1037.2889 2895.2842 3946288
189.48746 1026.3567 2864.77 526084
205.60994 1022.1358 2852.9888 1972755
222.47122 1021.9498 2852.4697 591873
238.5741 1018.5523 2842.9866 3420196
257.5683 1027.1329 2866.9368 2893079
273.52765 1023.2981 2856.2329 2301197
291.49548 1026.9865 2866.5278 1840907
309.06302 1028.9359 2871.9692 3814179
328.65323 1037.0646 2894.658 3879972
342.76633 1027.9611 2869.248 4077351
360.3606 1029.6646 2874.0029 3222301
382.52982 1043.6967 2913.1694 3353887
393.15494 1026.38 2864.835 3682854
414.45026 1037.1997 2895.0349 4275505
429.39291 1031.8931 2880.2231 4406575
441.54398 1020.5399 2848.5342 4274989
467.13879 1039.9513 2902.7153 3748386
477.26843 1024.7778 2860.3633 4076581
490.79465 1017.6879 2840.5737 4142375
504.8049 1012.0385 2824.8049 2958357
514.24115 997.87573 2785.2739 3089685
526.85028 990.5592 2764.8521 2694413
545.34521 994.41644 2775.6184 2891791
567.99487 1005.4021 2806.2815 3154704
583.29803 1003.1288 2799.9363 3088911
602.97394 1008.2933 2814.3516 3023375
618.93549 1007.1359 2811.1208 2562567
633.4223 1003.7022 2801.5369 2759690
652.87817 1008.1168 2813.8589 2563340
669.62036 1008.2255 2814.1624 3286806
677.8067 995.7597 2779.3677 4536873
692.95764 993.87408 2774.1047 2892305
701.86859 983.33362 2744.6838 2628366
724.51282 992.07538 2769.084 2826001
739.49054 990.16473 2763.751 2562829
753.4986 987.06653 2755.1033 2628365
773.5163 991.80536 2768.3303 2299657
797.03265 1000.7402 2793.2693 3154453
810.72766 997.23102 2783.4744 3088916
825.92987 995.67871 2779.1416 3022867
836.43329 988.63324 2759.4761 3680795
848.91254 984.14832 2746.958 2628107
860.76672 979.12134 2732.9265 2562569
876.83813 978.9884 2732.5554 2628363
885.17102 970.37689 2708.519 2430471
908.65692 978.3877 2730.8789 2100992
930.3092 984.17865 2747.0427 2759178
942.51569 979.94952 2735.2383 3088396
962.26447 983.57263 2745.3511 3746327
986.36719 991.45166 2767.343 3943704
992.30078 981.10883 2738.4741 3812117
1007.8615 980.46423 2736.675 3943704
1038.6898 994.45746 2775.7329 4009241
1042.6266 982.66943 2742.8301 3812120
1059.6702 983.40668 2744.8879 3680534
1068.774 976.86475 2726.6279 2825228
1079.4624 971.94427 2712.894 3153935
1094.9255 971.40424 2711.3867 3022349
1117.0365 976.69244 2726.1472 2627592
1120.3262 965.60785 2695.2078 3022350
1142.3744 970.77563 2709.6321 2759178
1158.9778 971.2373 2710.9207 2693643
1172.4978 969.1377 2705.0603 2430984
1196.3292 975.50293 2722.8269 2628363
1215.0988 977.6261 2728.7532 2233862
1233.0468 979.04114 2732.7029 2365449
1251.9609 981.17682 2738.6638 2761235
1272.0098 984.13562 2746.9226 2958357
1295.3547 989.53778 2762.001 2629906
1308.4384 987.06403 2755.0962 3748129
1328.6937 989.99487 2763.2769 3879459
1350.7393 994.172 2774.936 3221529
1371.156 997.06421 2783.0088 3089427
1379.5674 991.26154 2766.8123 3615516
1421.0428 1009.0737 2816.5298 3813151
1416.1754 993.94659 2774.3069 4471081
1426.5143 989.71649 2762.5 3615515
1427.9281 979.46063 2733.8738 3549721
1449.9639 983.42126 2744.9287 3483929
1464.5463 982.29504 2741.7852 2826515
1472.1694 976.57703 2725.825 1774084
1491.6248 978.74695 2731.8816 2958103
1517.3787 984.95868 2749.22 2234381
1536.4353 986.73749 2754.1848 2826260
1558.1168 990.14685 2763.7012 2431759
1564.181 983.66406 2745.6064 1642500
1577.8634 982.0564 2741.1189 3353119
1598.1602 984.55621 2748.0964 2827288
1599.7047 975.56964 2723.0132 3089947
1602.5787 967.56519 2700.6711 2300433
1648.6162 985.52167 2750.7913 2169102
1654.6417 979.44196 2733.8215 3089691
1630.8323 955.99091 2668.365 3023897
1663.0479 965.51672 2694.9534 3418400
0 0 0 0
0 0 0 0
1467.4624 828.11548 2311.4385 196608
1486.0781 830.86743 2319.1199 1314827
1720.5106 953.12708 2660.3713 1708809
1764.9067 968.84668 2704.2478 2958100
1754.2173 954.31592 2663.6897 3483672
1776.6649 957.91071 2673.7234 3746327
1810.3444 967.44427 2700.3335 3680531
1828.8422 968.7688 2704.0305 3680275
1853.319 973.20996 2716.4268 3943447
1871.7274 974.41553 2719.7917 3680534
1897.6978 979.5036 2733.9937 4010013
1903.7742 974.32416 2719.5366 2825741
1914.8717 971.77979 2712.4348 3549465
1945.7338 979.22461 2733.2148 3681308
1967.3228 981.91821 2740.7332 3549466
2001.9342 991.01422 2766.1221 3747101
1959.9816 962.36877 2686.167 3616028
2036.522 991.89746 2768.5874 3616287
2042.7765 986.99469 2754.9028 3682336
2005.2408 961.1795 2682.8474 4076837
2044.9597 972.50995 2714.4729 4142887
2062.1667 973.04114 2715.9556 3681307
2057.8899 963.50543 2689.3394 4010530
2089.8772 970.9646 2710.1594 4273187
2083.4011 960.57617 2681.1633 4207650
2101.116 961.41406 2683.502 4010527
2117.0137 961.41406 2683.502 4075807
2140.1057 964.65692 2692.5535 3680536
2153.2429 963.39777 2689.0391 3680793
2183.4812 969.75232 2706.7759 3615258
2205.6567 972.45953 2714.332 2102019
2189.6428 958.4118 2675.1221 1707011
2203.1245 957.38348 2672.2517 3088659
2211.1633 954.02136 2662.8677 2562572
2231.3669 955.91846 2668.1626 2957329
2256.5452 959.90497 2679.2898 3023121
2273.9167 960.53802 2681.0569 3483671
2288.5466 960.01233 2679.5896 3023121
2269.7998 945.58923 2639.3318 2891534
2322.9966 961.12982 2682.7085 3812636
2330.2915 957.59656 2672.8467 3352085
2327.0181 949.79749 2651.0779 3615257
2366.4272 959.40753 2677.9014 3681050
2368.1846 953.72607 2662.0435 3746843
2367.6619 947.20789 2643.8496 3943964
2380.9736 946.2735 2641.2417 4141599
2411.5823 952.18079 2657.7302 3746584
2418.3579 948.66235 2647.9094 4273184
2431.678 947.73993 2645.3347 3812634
2440.8828 945.23578 2638.345 3615255
2475.2607 952.44958 2658.4805 3681049
2495.0493 953.99396 2662.791 3747356
2519.6414 957.34406 2672.1418 3549722
2526.9734 954.13525 2663.1853 3681563
2524.3865 947.24432 2643.9514 3878942
0 0 0 0
0 0 0 0
0 0 0 0
0 0 0 0
0 0 0 0
0 0 0 0
0 0 0 0
0 0 0 0
0 0 0 0
0 0 0 0
0 0 0 0
0 0 0 0
0 0 0 0
0 0 0 0
0 0 0 0
0 0 0 0
0 0 0 0
0 0 0 0
0 0 0 0
0 0 0 0
0 0 0 0
0 0 0 0
0 0 0 0
0 0 0 0
0 0 0 0
0 0 0 0
0 0 0 0
0 0 0 0
0 0 0 0
0 0 0 0
0 0 0 0
0 0 0 0
0 0 0 0
0 0 0 0
0 0 0 0
0 0 0 0
0 0 0 0
0 0 0 0
0 0 0 0
0 0 0 0
0 0 0 0
0 0 0 0
0 0 0 0
0 0 0 0
0 0 0 0
0 0 0 0
0 0 0 0
0 0 0 0
0 0 0 0
0 0 0 0
0 0 0 0
0 0 0 0
0 0 0 0
0 0 0 0
0 0 0 0
0 0 0 0
-1619.1145 977.41742 2683.7922 1319467
-1543.1881 940.82129 2583.3066 463901
-1564.9171 963.62512 2645.9214 858660
-1591.1151 989.67004 2717.4355 726303
-1605.2041 1008.6386 2769.5193 594718
-1643.1603 1043.1509 2864.2832 265242
-1626.7124 1043.485 2865.2004 395285
-1794.1984 1163.0581 3193.5242 15
-1773.4421 1161.8545 3190.2195 13
0 0 0 0
-1701.5874 1139.0574 3127.623 3354932
-1639.3943 1109.5063 3046.4819 3617842
0 0 0 0
-1600.9811 1107.9028 3042.0791 5065280
-1542.5808 1079.6423 2964.4814 6250580
-1522.731 1078.0229 2960.0347 4538934
-1502.6249 1076.182 2954.98 5854793
-1484.8936 1076.0188 2954.5317 3288609
-1466.8889 1075.6511 2953.5222 4604471
-1457.8826 1081.9526 2970.825 3354146
-1442.3014 1083.4691 2974.9888 4735799
-1418.6938 1078.9189 2962.4951 4538163
-1390.0106 1070.3466 2938.9568 3748647
-1383.8345 1079.1073 2963.0125 3222047
-1382.0522 1091.5638 2997.2153 3485731
-1351.4489 1081.2848 2968.9912 3551268
-1333.5258 1081.0139 2968.2476 3222561
-1320.5781 1084.8231 2978.7068 4472885
-1301.3203 1083.4817 2975.0232 3880491
-1272.943 1074.4059 2950.1033 3222818
-1273.5513 1089.8832 2992.6006 4604471
-1264.1432 1097.1044 3012.4287 2959902
-1230.6173 1083.3018 2974.5295 3090462
-1203.2096 1074.5623 2950.5325 2498325
-1196.2158 1084.0651 2976.6252 3945770
-1174.3615 1080.1833 2965.9668 4011819
-1154.2305 1077.7928 2959.4028 4538163
-1132.3909 1073.7086 2948.1885 4407092
-1134.7316 1092.783 3000.5627 2894109
-1096.984 1073.2435 2946.9114 3749161
-1093.4802 1087.1168 2985.0046 3288610
-1067.9747 1079.2128 2963.3018 3683881
-1049.5972 1078.3679 2960.9819 6052431
-1029.9556 1076.1737 2954.957 4539962
-989.38922 1051.6617 2887.6521 5658445
-977.65887 1057.4774 2903.6208 3750449
-976.52179 1075.1648 2952.1868 3618605
-967.76678 1084.9569 2979.074 4407608
-953.45758 1088.7703 2989.5449 4605243
-925.99194 1077.4203 2958.3799 4473657
-913.92651 1083.8965 2976.1621 5065795
-886.70007 1072.2931 2944.3018 2565146
-870.57025 1073.9126 2948.7488 3749420
-851.21051 1071.5327 2942.2139 3880748
-829.24573 1065.7052 2926.2126 2893853
-809.177 1062.1177 2916.3621 5460297
-776.72412 1041.7637 2860.4739 2631460
-749.62634 1027.8442 2822.2542 0
-720.32904 1010.2051 2773.8206 3882039
-706.92566 1014.5527 2785.7583 3683373
-701.66467 1031.0731 2831.1201 4012334
-682.65143 1027.6993 2821.8562 3353891
-674.95929 1041.6274 2860.1001 3025439
-663.5683 1050.4175 2884.2358 4538678
-649.66895 1055.5967 2898.4568 3946797
-634.80389 1059.4453 2909.0244 3683882
-610.19226 1046.7885 2874.2712 5329220
-590.54407 1042.1642 2861.5737 4737084
-575.74054 1046.0687 2872.2952 3684398
-555.20953 1039.488 2854.2258 5395018
-545.47174 1053.3363 2892.2502 4671553
-531.75806 1060.1561 2910.9761 4737347
-509.99173 1050.8403 2885.397 3551789
-494.42834 1054.103 2894.3555 2038807
-480.11606 1060.3633 2911.5449 3025447
-459.1604 1051.8711 2888.2271 4210748
-439.59204 1046.0226 2872.1682 2697509
-425.94159 1054.3518 2895.0388 3420716
-402.28284 1037.5668 2848.9502 4407352
-381.39438 1026.7695 2819.3032 4538679
-367.66818 1035.1483 2842.3096 3946025
-347.05237 1024.0031 2811.707 4011819
-333.80719 1034.578 2840.7437 5130299
-314.89719 1027.7865 2822.0957 4208686
-300.61987 1036.2018 2845.2024 5196094
-281.87762 1029.3125 2826.2856 3353633
-263.27133 1022.081 2806.4294 2301201
-245.87663 1018.8952 2797.6819 2564373
-227.87828 1012.5665 2780.3047 2432787
-210.55025 1008.4623 2769.0354 4669236
-196.41083 1020.2275 2801.3401 2169102
-176.6498 1002.2686 2752.0286 3287581
-163.14853 1019.7852 2800.1257 3156249
-145.67374 1013.6188 2783.1941 2695185
-130.99062 1027.7825 2822.0845 4208683
-116.51904 1047.9932 2877.5791 4867385
-99.29863 1046.1707 2872.575 5262402
-82.181992 1044.9139 2869.124 3486248
-65.140411 1044.2047 2867.1768 4802364
-48.124756 1043.5575 2865.3994 4078642
-31.130478 1042.9207 2863.6511 3683628
-14.100413 1038.1243 2850.4812 4472631
2.7924821 1040.3597 2856.6191 1116936
19.579556 1033.1735 2836.8872 2498327
36.621117 1039.8519 2855.2249 3222050
53.053249 1030.473 2829.4724 1774604
71.284927 1052.1589 2889.0176 1511431
87.390411 1040.1412 2856.019 2498325
103.86092 1035.662 2843.72 2893082
120.21462 1031.4308 2832.1023 2761241
135.04285 1016.7508 2791.7937 3682343
151.1602 1013.921 2784.0237 3616293
168.53636 1019.261 2798.6863 5261887
187.45216 1032.1217 2833.9993 3485220
202.37 1022.6647 2808.032 3025181
220.78198 1030.9606 2830.8108 3683112
234.9276 1019.5692 2799.5327 4275506
255.76137 1036.7925 2846.8242 920067
272.73837 1037.2177 2847.9915 1446409
287.57162 1029.9154 2827.9412 3156765
302.94748 1025.2535 2815.1406 2893334
318.87607 1022.8512 2808.5442 3221786
338.09769 1030.7262 2830.1675 2629651
351.83658 1021.9323 2806.021 1511688
369.01611 1023.4744 2810.2554 5788228
388.96487 1032.2324 2834.303 2827541
408.29111 1038.6818 2852.0117 2432526
423.31909 1034.1185 2839.4822 2629907
429.13562 1008.2617 2768.4844 3550493
446.72601 1010.9529 2775.874 3024150
457.99304 999.65137 2744.842 3287064
480.53024 1012.8804 2781.1665 3154710
493.88751 1006.524 2763.7131 2169098
511.04214 1008.066 2767.9473 2431240
523.43134 1000.4044 2746.9097 2496777
539.0257 999.14594 2743.4543 3417879
553.14746 995.31128 2732.9253 2891790
576.71997 1008.2165 2768.3604 2496776
589.21832 1001.5836 2750.1477 2562312
605.55212 1001.652 2750.3354 2562312
625.8291 1008.0683 2767.9534 2694667
635.09814 996.87836 2737.228 2694417
652.95532 999.39038 2744.1255 2827027
668.48969 998.31146 2741.1631 3023637
683.505 996.52698 2736.2632 2365450
699.15662 995.73138 2734.0786 2431245
720.69672 1003.1682 2754.4988 2760210
725.41327 987.37689 2711.1389 2431244
747.22302 995.03156 2732.1572 2036230
763.61578 995.30121 2732.8975 1839108
779.81506 995.31268 2732.929 2036229
792.19965 990.55383 2719.8623 3089173
806.94958 988.8833 2715.2754 2825745
823.64331 989.61365 2717.2808 2957330
822.95471 969.83136 2662.9624 4800820
838.32336 969.36029 2661.6689 4866353
879.40344 998.08807 2740.5498 4865840
878.22583 978.68298 2687.2673 2628622
893.66101 978.1524 2685.8103 2825742
906.1095 974.42847 2675.5852 2825741
924.1355 976.72748 2681.8977 2891532
939.354 976.03174 2679.9873 3812120
968.54205 989.63275 2717.333 3483155
977.76654 982.72424 2698.3638 2956811
986.46948 975.52234 2678.5886 3088140
1016.8321 989.6286 2717.3215 3219726
1018.4274 975.73395 2679.1697 3154189
1044.6329 985.48218 2705.9365 3746583
1052.7782 978.15582 2685.8198 3943706
1063.6106 973.50708 2673.0552 3811863
1078.5406 972.69031 2670.8125 3219472
1097.0239 975.05518 2677.3059 3285522
1112.1541 974.41486 2675.5479 2824716
1121.6078 968.88904 2660.375 2167812
1140.8126 971.82306 2668.4312 2694155
1156.6659 971.86072 2668.5347 2825485
1178.7223 977.03925 2682.7537 3352085
1191.2535 974.28955 2675.2036 3681049
1221.3545 985.79321 2706.7903 3681307
1238.9951 987.07172 2710.301 3484698
1250.4413 983.44592 2700.3452 3681823
1277.9633 992.3952 2724.9182 4603695
1291.7477 990.58643 2719.9517 3089943
1301.4843 985.75647 2706.6895 3024149
1304.7649 976.21375 2680.4871 2958613
