# .PCD v0.7 - Point Cloud Data file format
VERSION 0.7
FIELDS x y z rgb
SIZE 4 4 4 4
TYPE F F F U
COUNT 1 1 1 1
WIDTH 1300
HEIGHT 1
VIEWPOINT 0 0 0 1 0 0 0
POINTS 1300
DATA ascii
-1159.2998 974.2121 4912.4644 3222051
-1133.8705 977.37817 4928.4297 3025187
-1112.2793 984.10785 4962.3638 2169878
-1066.9899 969.66608 4889.541 2433050
-1037.1487 968.84918 4885.4219 2959394
-1004.1733 964.97363 4865.8794 2827808
-967.5199 957.22992 4826.832 2498842
-930.05872 948.1911 4781.2539 2564636
-913.2514 960.30255 4842.3257 1906449
-877.35419 952.47504 4802.8555 2630172
-826.7243 927.59247 4677.3853 2300950
-799.23865 927.85284 4678.6982 2827293
-778.63385 936.40692 4721.832 2564121
-740.02905 923.14471 4654.957 2958878
-714.97119 926.40881 4671.4165 2564120
-687.07471 926.10956 4669.9077 2893085
-653.44659 917.7356 4627.6816 2760983
-630.08252 923.67462 4657.6294 2103054
-601.88239 922.74359 4652.9346 2366226
-575.22241 924.19781 4660.2676 2497812
-541.7699 914.3349 4610.5337 2892570
-518.88721 922.21033 4650.2456 2892569
-484.41415 909.21454 4584.7144 3024155
-458.88834 912.46582 4601.1089 3090204
-428.90533 906.70508 4572.0605 2958618
-403.3541 910.16815 4589.5229 3024411
-376.25024 910.37512 4590.5664 3155997
-347.89691 907.35541 4575.3398 2892313
-317.80212 898.89978 4532.7021 2168590
-292.23233 902.86359 4552.6895 1971213
-264.03949 898.70532 4531.7217 1510919
-233.29555 883.93994 4457.2671 2037263
-205.75676 879.09955 4432.8594 3155742
-181.43735 888.60986 4480.8154 3024155
-154.35081 885.50519 4465.1602 2695191
-127.56208 883.17816 4453.4263 2366228
-101.80199 888.61646 4480.8486 2300948
-76.025986 897.70312 4526.668 1907219
-49.531113 903.57971 4556.3008 2699046
-22.881409 917.32489 4625.6108 3819325
4.5931396 931.8064 4698.6338 3360828
32.790459 942.19513 4751.019 3229242
59.965069 927.17389 4675.2744 3164218
85.658684 905.98071 4568.4077 3754302
109.88494 883.1709 4453.3892 3356978
142.00996 920.38647 4641.0488 2565148
159.60822 866.65051 4370.0854 2761244
187.35472 875.32709 4413.8369 2629400
209.04222 857.03754 4321.6118 2694680
232.38194 848.7738 4279.9419 3023902
259.89105 855.86639 4315.7065 2563350
284.14584 851.93152 4295.8647 2563094
307.68884 846.68475 4269.4082 2760473
331.99048 844.16418 4256.6982 2563094
357.19012 844.1217 4256.4839 2628630
378.94305 836.4765 4217.9326 2365714
402.31079 833.12115 4201.0137 2431508
425.45221 829.71545 4183.8403 1708040
446.88821 823.54199 4152.7104 2168590
470.65845 822.0899 4145.3882 2563348
493.57785 819.36938 4131.6699 1773832
515.70197 815.64801 4112.9053 2037004
543.22565 820.41724 4136.9541 2233870
569.3468 822.74805 4148.707 1904905
586.30389 812.19122 4095.4744 2365712
614.82788 817.85986 4124.0586 2432018
620.58148 793.96326 4003.5596 1444613
0 0 0 0
0 0 0 0
0 0 0 0
0 0 0 0
0 0 0 0
500.2406 520.61621 2625.2075 262145
513.71149 518.51532 2614.6135 196608
0 0 0 0
0 0 0 0
826.35284 764.89075 3856.9617 3483935
850.51801 766.07574 3862.937 3286553
890.19183 780.80151 3937.1919 2759695
911.72552 779.27069 3929.4727 3022869
938.86719 782.48993 3945.7056 2891026
961.25836 781.68964 3941.6702 3088662
977.80786 776.28961 3914.4407 2562320
1017.4408 789.04132 3978.741 2562576
1047.731 794.13422 4004.4219 2299405
1070.757 793.61761 4001.8167 2759956
1087.5228 788.58386 3976.4343 2365198
1104.1116 783.63794 3951.4946 1575683
1132.8291 787.32709 3970.0969 2036233
1154.0884 785.78796 3962.3362 1970440
1169.7018 780.54285 3935.8872 1707269
1201.191 785.8894 3962.8477 2562831
1202.2894 771.52887 3890.4346 2760210
1222.0892 769.48376 3880.1221 2825747
1241.4781 767.26031 3868.9102 2496524
1257.0787 762.81854 3846.5127 2562318
1278.4834 761.99426 3842.3562 2759695
1300.896 761.78906 3841.3215 2891281
1325.1425 762.64636 3845.6445 2825488
1335.3489 755.53101 3809.7651 3746333
1349.339 750.75726 3785.6936 2628109
1369.6389 749.59296 3779.8225 3878176
1392.7345 749.97156 3781.7317 2891794
1411.2357 747.90332 3771.3025 2299400
1432.6788 747.43433 3768.9377 2760210
1455.0487 747.45581 3769.0461 2694414
1465.4753 741.4342 3738.6819 3220759
1487.2559 741.25055 3737.7561 2562829
1502.5651 737.89447 3720.833 2694415
1521.2809 736.28406 3712.7126 2891794
1544.3965 736.81873 3715.4084 2694415
1585.3102 745.71039 3760.2449 3483930
1581.3295 733.53046 3698.8274 2891535
1594.1675 729.37854 3677.8914 2562570
1614.3169 728.63861 3674.1604 3417878
1634.6036 727.97955 3670.8372 4207394
1649.8915 725.14081 3656.5225 3220500
1670.1575 724.53516 3653.4688 2957328
1681.5685 720.15271 3631.3704 3023121
1703.4308 720.30042 3632.115 2562570
1739.8315 726.51538 3663.4539 2957328
1771.2927 730.53992 3683.7476 3286291
1797.5695 732.35431 3692.8965 4141601
1827.6057 735.63824 3709.4561 3878685
1844.9619 733.80103 3700.1917 3812636
1847.384 726.13678 3661.5449 3483671
1879.2103 730.07404 3681.3982 3220242
1868.7107 717.66602 3618.8308 2957327
1861.6844 706.85815 3564.3323 3220500
1865.1145 700.21838 3530.8511 3023121
1928.6591 716.04431 3610.6533 2694156
1920.3268 705.13037 3555.6201 2825742
1950.2112 708.33392 3571.7739 2299655
1976.6437 710.22833 3581.3264 2694156
2007.5012 713.65564 3598.6089 2825742
2051.8286 721.74908 3639.4199 3088403
2031.2812 707.09119 3565.5076 3352345
2060.8093 709.98694 3580.1094 1510658
2099.0073 715.78015 3609.3215 2168327
2095.6309 707.42242 3567.1775 2168327
2091.8833 699.10736 3525.249 2234121
2104.4448 696.35333 3511.3618 3023124
2113.7773 692.59521 3492.4116 2365450
2147.8501 696.93781 3514.3088 2892564
2181.356 701.01477 3534.8669 2893077
2198.45 699.7901 3528.6917 3485986
2235.1875 704.78229 3553.8647 5132098
2284.1765 713.50842 3597.8662 5264204
2319.0259 717.6972 3618.9883 6120031
2342.5642 718.3407 3622.2332 6646635
2350.8789 714.34668 3602.0933 6844527
2372.8054 714.52344 3602.9844 6976114
2398.9409 715.95312 3610.1936 6976370
2426.6995 717.83777 3619.697 7107956
2463.3367 722.29272 3642.1611 7173749
2480.6875 721.06421 3635.9666 7305335
2498.3679 719.9519 3630.3577 7305335
2520.0352 719.99774 3630.5886 7436919
2536.6875 718.62201 3623.6516 7502712
2551.4436 716.73676 3614.145 7371126
2560.7021 713.35138 3597.0745 7502456
2559.9209 707.24811 3566.2986 7238770
2555.0967 700.1369 3530.4404 6975339
2551.1794 693.38763 3496.4072 6777446
2567.7156 692.26141 3490.7283 6250844
2583.7346 691.01495 3484.4429 6645345
2585.7041 686.06042 3459.4597 6579550
2598.0093 683.9046 3448.5889 6908516
2616.342 683.35675 3445.8264 6382173
2633.3948 682.48566 3441.4341 6710624
2637.6006 678.32404 3420.449 7171175
2597.155 662.83032 3342.3218 3552303
2606.7283 660.23981 3329.2593 2367259
2596.79 652.78345 3291.6606 2564638
2547.7522 635.68268 3205.4299 3354154
2581.3442 639.29907 3223.6658 3748655
2570.6243 631.96869 3186.7021 2827809
2559.1255 624.55499 3149.3186 1445901
2558.3306 619.8421 3125.5537 1643024
2570.7795 618.38257 3118.1941 985866
2548.7573 608.71124 3069.4265 1709330
2516.0808 596.65045 3008.6099 2433053
2506.5562 590.21075 2976.1379 2038294
2537.3015 593.27716 2991.6001 1972500
2509.0601 582.60419 2937.7817 1774865
2481.438 572.22119 2885.4255 2367254
2521.2969 577.43481 2911.7153 1380872
2500.4231 568.76306 2867.9878 4208686
2489.1726 562.38251 2835.8137 4011819
2494.3818 559.78137 2822.6975 1380099
2523.2886 562.49756 2836.394 2695959
2548.3533 564.32697 2845.6189 3024667
2545.5962 560.01172 2823.8594 2432275
2549.6536 557.24231 2809.8943 2037774
2513.178 545.70746 2751.73 2431762
2541.2495 548.24664 2764.5337 2432019
2523.4673 540.92419 2727.6104 2563605
2520.4561 536.841 2707.021 2761241
2544.9604 538.63318 2716.0576 1379333
2555.9153 537.55304 2710.6113 1510150
2556.3015 534.27747 2694.0942 1773580
2569.8164 533.76953 2691.533 852993
0 0 0 0
0 0 0 0
0 0 0 0
0 0 0 0
-7495.394 1679.7529 8224.4658 2831427
-7166.2578 1616.5001 7914.7651 2897730
-7178.333 1629.8883 7980.3164 3094595
-7076.5283 1617.4254 7919.2949 3489351
-7142.2441 1643.3406 8046.1816 3949900
-7026.1255 1627.4847 7968.5483 4476240
-6857.6631 1599.208 7830.0986 4476239
-6863.2959 1611.4218 7889.9004 4015688
-6866.978 1623.342 7948.2642 3225661
-6777.9634 1613.3619 7899.3999 2831416
-6615.8389 1585.7198 7764.0576 2765883
-6585.646 1589.5342 7782.7334 2831422
-6696.9526 1627.7959 7970.0718 2699581
-6754.4976 1653.4404 8095.6333 2699582
-6540.6479 1612.542 7895.3848 2633535
-6644.4487 1649.9321 8078.4561 2699328
-6533.4336 1634.1356 8001.1123 2633791
-6421.1333 1617.7842 7921.0522 2567998
-6325.7007 1605.4731 7860.7744 2502204
-6185.8477 1581.6219 7743.9932 2436413
-6101.9727 1571.8339 7696.0688 2501950
-6037.4336 1566.9169 7671.9941 2501949
-5886.0923 1539.2263 7536.4141 2633535
-5823.4795 1534.4924 7513.2358 2567742
-5730.4526 1521.6096 7450.1587 2633535
-5622.4692 1504.5247 7366.5068 2633792
-5599.7007 1510.1536 7394.0674 2633792
-5500.7119 1495.1538 7320.625 2765377
-5424.0312 1486.0276 7275.9404 2831171
-5191.3613 1433.6759 7019.6147 2962757
-5051.2109 1406.2361 6885.2627 2437183
-4946.9678 1388.427 6798.0654 2174267
-4696.7178 1329.0107 6507.1494 4279643
-4580.7949 1306.9358 6399.0649 5924722
-4063.6487 1169.0648 5724.0161 6911874
-4399.5806 1276.3595 6249.3564 6911874
0 0 0 0
-4164.5278 1228.8501 6016.7393 7043460
-4330.7759 1288.938 6310.9438 7240583
-4314.9404 1295.4082 6342.6235 7240841
-4320.0903 1308.3477 6405.978 7176072
-4231.7607 1292.9548 6330.6113 7307659
-4191.4229 1292.0813 6326.3345 7373195
-4140.1553 1287.7924 6305.3345 7438988
-4092.5344 1284.5697 6289.5557 7438988
-4041.1765 1280.1042 6267.6919 7504781
-3984.6079 1273.89 6237.2656 7504781
-3918.335 1264.4281 6190.9375 7504781
-3866.166 1259.3815 6166.228 7504781
-3792.6375 1247.2145 6106.6558 7570574
-3771.5823 1252.2354 6131.2388 7702160
-3736.4937 1252.6489 6133.2642 7767953
-3648.6096 1235.1975 6047.8179 7767953
-3607.269 1233.3131 6038.5913 8162711
-3547.5479 1225.0436 5998.1016 8096918
-3491.0037 1217.715 5962.2192 8162711
-3442.6719 1213.1305 5939.7725 8228505
-3418.8389 1217.1732 5959.5664 8294297
-3241.3882 1166.0389 5709.2007 8096661
-3305.1521 1201.5143 5882.8965 7504008
-3179.1572 1168.0281 5718.9399 7700871
-3255.4478 1208.941 5919.2598 4936280
-3193.7637 1198.9489 5870.3359 3224633
-3089.2295 1172.4736 5740.7065 2500135
-3024.7844 1160.7935 5683.5181 3881269
-2978.5051 1155.9003 5659.5596 3881268
-2932.2014 1150.886 5635.0088 3552301
-2907.3704 1154.2814 5651.6328 3618093
-2866.8882 1151.4696 5637.8662 3026727
-2825.3081 1148.1453 5621.5898 3618607
-2789.2983 1147.0325 5616.1411 3421228
-2761.5684 1149.3387 5627.4331 3881268
-2716.4216 1144.3641 5603.0757 3815732
-2714.0503 1157.5095 5667.4395 3355182
-2654.9282 1146.4775 5613.4238 2960681
-2577.1638 1127.0133 5518.1226 2499358
-2542.2903 1126.0465 5513.3887 2960166
-2475.0183 1110.5177 5437.356 3288872
-2470.6042 1123.1549 5499.2305 3025700
-2417.7173 1113.7992 5453.4229 4144180
-2360.929 1102.3684 5397.4551 3486250
-2359.5107 1116.8323 5468.2734 3618092
-2272.6003 1090.6694 5340.1738 3157029
-2222.2957 1081.5836 5295.688 3222821
-2175.4846 1073.9623 5258.3721 3091490
-2151.7817 1077.693 5276.6382 3222050
-2095.2192 1064.8336 5213.6763 2761498
-2077.2693 1071.507 5246.3501 2958878
-2036.5878 1066.4792 5221.7334 3090464
-2000.9417 1063.974 5209.4673 2564120
-1974.4924 1066.3573 5221.1362 2629912
-1938.9822 1063.845 5208.8354 2564120
-1897.2903 1057.8049 5179.2617 2300947
-1862.8169 1055.657 5168.7446 2695705
-1831.9958 1055.5415 5168.1797 3024672
-1780.9647 1043.58 5109.6128 3616808
-1745.8833 1040.7122 5095.5718 2893085
-1712.5229 1038.7874 5086.1475 2498583
-1679.5002 1037.0022 5077.4067 2432020
-1638.1648 1029.9257 5042.7588 2497812
-1632.5575 1045.4659 5118.8477 3287071
-1561.7961 1019.0812 4989.6616 2695191
-1548.7529 1030.0663 5043.4473 3155741
-1496.7023 1015.0297 4969.8242 2761239
-1464.7821 1013.3156 4961.4316 3024411
-1445.0785 1020.1556 4994.9219 3155742
-1397.4316 1007.1425 4931.207 3550243
-1362.8723 1003.2075 4911.9404 2958362
-1338.5454 1006.7974 4929.5166 2234640
-1288.089 990.45526 4849.502 2892570
-1261.743 992.32996 4858.6807 3484963
-1226.9209 987.47009 4834.8862 3221791
-1215.5651 1001.716 4904.6372 3155998
-1176.7469 993.47443 4864.2847 3155999
-1124.824 973.47754 4766.375 2893599
-1115.1102 989.92139 4846.8877 3025186
-1078.27 982.51672 4810.6333 3156773
-1040.6906 974.01825 4769.0225 3025187
-1009.4337 971.12823 4754.8726 3156775
-970.49255 960.46729 4702.6738 3025189
-935.60168 953.30304 4667.5962 2433052
-911.76025 957.30389 4687.1851 2696222
-882.68378 955.88684 4680.2471 2762015
-851.86938 952.43488 4663.3452 2498843
-818.52942 945.83301 4631.021 2433050
-778.80969 931.14563 4559.1079 2103571
-758.36365 939.27441 4598.9087 2235155
-728.01825 935.29132 4579.4062 2300435
-706.54468 942.83868 4616.3599 2826779
-662.8728 920.17889 4505.4121 2826521
-637.57758 922.19794 4515.2979 2958363
-612.76874 925.12799 4529.6445 2958363
-584.60284 923.02612 4519.353 3221534
-554.26227 917.12402 4490.4551 3155484
-526.62579 915.32684 4481.6558 2892310
-498.33185 912.13531 4466.0293 3286811
-472.40451 913.16071 4471.0498 3221018
-447.36401 916.1239 4485.5581 2563345
-415.72278 905.09058 4431.5366 2892053
-389.35672 904.82886 4430.2549 3287582
-362.48203 903.26184 4422.5825 3616548
-337.4306 906.3479 4437.6929 3418658
-310.58148 904.71893 4429.7168 3024156
-281.61618 896.05597 4387.3008 1905933
-254.32219 891.48981 4364.9438 3221536
-227.25642 886.78052 4341.8857 2629400
-203.80658 896.77966 4390.8442 3550499
-177.99538 897.79425 4395.812 3024156
-151.90799 897.52484 4394.4927 3089949
-126.33203 900.79065 4410.4829 2037264
-99.349937 893.11884 4372.9199 1512462
-73.943192 899.1922 4402.6567 2171934
-49.357056 927.30219 4540.2896 2964017
-22.599203 933.07635 4568.5615 2570544
4.3724957 913.54309 4472.9219 3229499
30.488136 902.21039 4417.4346 3361342
55.841194 889.20349 4353.7495 3164219
84.100349 916.07068 4485.2979 3229754
106.68384 883.05719 4323.6558 3952451
133.36839 890.20068 4358.6323 3618353
165.68582 926.52631 4536.4907 3157030
186.13211 895.59296 4385.0337 2629401
210.87531 890.37958 4359.5078 3089951
229.10851 861.8158 4219.6528 3221537
250.61833 849.98486 4161.7256 2760729
276.88943 854.97498 4186.1587 2826266
302.12555 856.21155 4192.2134 2234385
320.75525 839.96014 4112.6426 1642248
346.92145 844.34589 4134.1162 2300435
372.09924 845.90619 4141.7559 2563607
396.73053 846.10797 4142.7437 2366226
417.46536 838.46027 4105.2988 2234383
441.75858 838.40814 4105.0435 2497555
460.49893 828.3725 4055.907 3155742
485.22726 829.5697 4061.7686 2431762
504.7283 822.1391 4025.3865 1971211
529.53552 823.63214 4032.6968 1971470
557.09167 829.08734 4059.4067 1181954
576.27563 822.14679 4025.4243 2300950
598.57306 820.02325 4015.0269 1708813
623.04272 820.92413 4019.4377 1313801
646.19177 820.08276 4015.3181 1050885
0 0 0 0
0 0 0 0
0 0 0 0
0 0 0 0
498.60504 534.41559 2616.6243 131072
514.90411 535.24469 2620.6838 262144
0 0 0 0
0 0 0 0
804.61108 767.0144 3755.4829 2300176
835.06641 774.62744 3792.7583 2168846
857.56232 774.65161 3792.8765 1773832
883.68469 777.86676 3808.6187 1379075
910.49609 781.51318 3826.4724 1444866
932.83795 781.23926 3825.1313 2037003
959.99579 784.91602 3843.1335 2430992
985.70856 787.26837 3854.6511 1839112
1006.2355 785.46594 3845.8262 1773575
1044.1998 797.05371 3902.5627 1905161
1069.8284 798.92725 3911.7361 2168333
1091.6342 797.92725 3906.8396 2299919
1095.6451 784.23157 3839.7825 2563091
1119.8073 785.22345 3844.6387 2497041
1163.5732 799.64819 3915.2656 3747108
1168.3632 787.24683 3854.5457 2168074
1189.2667 785.97021 3848.2952 3221017
1207.6072 783.07959 3834.1418 3813154
1209.463 769.80347 3769.1389 2694159
1233.7786 771.04474 3775.2166 2759953
1239.2703 760.68756 3724.5051 2693902
1266.5337 763.82269 3739.8555 2628109
1288.2592 763.56763 3738.6069 2562317
1291.7308 752.68481 3685.322 2299144
1305.7074 748.18329 3663.2812 2693902
1347.829 759.69244 3719.6331 3088659
1351.7094 749.62384 3670.3347 2957074
1370.8738 748.21594 3663.4414 2299146
1373.2705 737.8429 3612.6523 2496525
1402.9177 742.20496 3634.01 2628111
1416.0245 737.81677 3612.5244 2627854
1438.7723 738.50781 3615.908 3023636
1462.4946 739.67145 3621.6055 2891794
1481.4121 738.40656 3615.4121 2760207
1507.4099 740.65656 3626.4287 2760208
1521.5919 737.11926 3609.1094 3089173
1562.1287 746.27045 3653.9155 2497035
1529.3221 720.61224 3528.2871 1444352
1559.0903 724.73346 3548.4656 3154964
1576.183 722.93121 3539.6414 3483672
1589.0391 719.25879 3521.6602 2891535
1606.9315 717.93158 3515.1619 3286549
1649.7502 727.63214 3562.6582 4075552
1641.3083 714.76453 3499.6553 3088913
1683.0231 723.7879 3543.8359 2891533
1706.5322 724.85602 3549.0657 3154705
1738.3092 729.36719 3571.1533 3615257
1755.844 727.86591 3563.8027 4404516
1785.2472 731.26178 3580.4297 4404772
1750.2642 708.51404 3469.0515 3681049
1809.8309 724.12433 3545.4832 3220499
1806.9866 714.69183 3499.2996 3352085
1821.1707 712.13196 3486.7656 2562570
1839.7225 711.31824 3482.7815 2694155
1853.5199 708.70465 3469.9849 2825742
1882.015 711.7066 3484.6829 2562316
1899.3788 710.47955 3478.675 2233606
1914.7996 708.55988 3469.2759 2233350
1931.917 707.30219 3463.1179 1904899
1953.0417 707.52258 3464.197 2628622
1987.4928 712.51593 3488.6455 3352344
2012.8573 714.18243 3496.8054 2760206
2019.8037 709.34668 3473.1282 2628365
2040.9365 709.54034 3474.0767 2825488
2057.9648 708.31757 3468.0896 2365193
2073.8435 706.72711 3460.3022 2035972
2088.448 704.73779 3450.5623 2035716
2107.1648 704.16125 3447.7393 2497034
2135.8599 706.89838 3461.1406 2497292
2194.2825 719.32867 3522.0024 3090199
2166.9753 703.68555 3445.4102 4011558
2227.4128 716.56201 3508.4563 2367250
2287.1023 728.96198 3569.1694 5328965
2286.3215 722.03784 3535.2671 5263690
2290.26 716.71613 3509.2109 6711910
2332.8567 723.47913 3542.3242 6449255
2347.3481 721.48322 3532.5515 6844271
2365.0569 720.5025 3527.7498 6844270
2401.3279 725.14447 3550.478 6976626
2419.0037 724.13916 3545.5559 7042164
2444.1042 725.3548 3551.5078 7041907
2456.0684 722.6842 3538.4321 7107954
2470.5532 720.79443 3529.179 7173747
2484.7996 718.86725 3519.7432 7174004
2501.0742 717.55408 3513.3137 7370870
2507.4722 713.45245 3493.231 7304819
2515.2048 709.79443 3475.3208 6646630
2537.2183 710.1933 3477.2737 7172975
2531.6304 702.92206 3441.6716 7238512
2553.2561 703.26263 3443.3394 6119515
2558.3105 699.06958 3422.8091 6645602
2567.1194 695.96045 3407.5859 6579552
2585.9519 695.59595 3405.8015 6382173
2587.0793 690.51154 3380.907 6315867
2578.0747 682.82172 3343.2559 5986902
2578.9165 677.83716 3318.8501 5460044
2579.8831 672.96051 3294.9731 4341562
2532.9912 655.76715 3210.7903 4012340
2555.551 656.67639 3215.2419 2893603
2575.8411 656.99316 3216.7932 3156775
2568.1077 650.21021 3183.5823 2630431
2579.6128 648.36157 3174.5308 2893604
2576.6194 642.922 3147.8972 2498846
2596.9028 643.3269 3149.8799 2235674
2546.3823 626.3111 3066.5664 1906709
2539.5769 620.21234 3036.7056 3551277
2546.7644 617.59265 3023.8789 1248779
2548.3867 613.66956 3004.6704 1380364
2533.7366 605.90942 2966.675 262400
2513.7637 596.99207 2923.0137 722691
2520.1292 594.40912 2910.3669 2038036
2506.314 587.13373 2874.7449 2433049
2512.1797 584.53589 2862.0251 2499097
2529.9529 584.72485 2862.9504 2695961
2540.3713 583.22284 2855.5964 2432533
2533.95 577.90015 2829.5352 3485222
2533.2568 573.94531 2810.1711 2893085
2534.1338 570.39545 2792.7905 2827549
2533.1099 566.46661 2773.5537 2037777
2518.4038 559.5484 2739.6807 2366741
2527.0669 557.87787 2731.5012 2103315
2538.1589 556.76129 2726.0342 1905165
2547.4705 555.27081 2718.7363 787714
2554.6863 553.34509 2709.3079 1379336
2547.6753 548.3811 2685.0029 1379081
2545.4792 544.50879 2666.0432 1050115
0 0 0 0
0 0 0 0
0 0 0 0
0 0 0 0
-6943.7168 1601.2568 7619.127 4475983
-6850.9893 1590.2106 7566.5669 5134168
-6846.3594 1599.6022 7611.2534 4804946
-6807.5371 1601.0765 7618.269 3818568
-6729.9741 1593.3982 7581.7339 3028541
-6708.3037 1598.9387 7608.0967 2700091
-6652.1123 1596.2704 7595.4004 2699579
-6559.1899 1584.6918 7540.3066 2765629
-6582.1191 1601.1356 7618.5503 2699581
-6589.1982 1613.9246 7679.4028 2633788
-6562.4097 1618.5382 7701.355 2633789
-6594.2319 1637.7731 7792.8794 2567996
-6548.7354 1637.9408 7793.6768 2633788
-6543.5581 1648.267 7842.811 2567996
-6538.3975 1658.745 7892.668 2567741
-6440.582 1645.6987 7830.5908 2567742
-6305.1938 1622.793 7721.6006 2633279
-6217.5864 1611.9397 7669.9585 2567742
-6136.3218 1602.5834 7625.4385 2633536
-6015.2778 1582.6222 7530.459 2699328
-5884.0386 1559.6603 7421.2012 2699328
-5852.3052 1562.9268 7436.7441 2699329
-5739.6133 1544.458 7348.8657 2765634
-5671.3594 1537.756 7316.9756 2765634
-5576.9238 1523.797 7250.5562 2699841
-5468.1562 1505.675 7164.3281 2830914
-5289.6953 1467.9291 6984.7246 2370618
-4944.0215 1382.8193 6579.7539 2239289
-4862.3896 1370.7949 6522.5391 4147798
-4823.6753 1370.7742 6522.4399 6384760
-4490.0347 1286.265 6120.3276 6450808
-4456.2466 1286.9784 6123.7222 6450808
-4304.0435 1253.2242 5963.1123 6648702
-4315.3369 1266.911 6028.2373 6780288
-4253.9238 1259.3029 5992.0356 6911874
-4249.2524 1268.5055 6035.8237 7043973
-4332.8516 1304.4388 6206.8022 7175559
-4182.8228 1270.0496 6043.1709 7175816
-4246.5186 1300.5212 6188.1616 7307402
-4162.9321 1286.0244 6119.1831 7373195
-4157.0264 1295.4813 6164.1812 7570574
-4072.1121 1280.2656 6091.7812 7504781
-4003.6179 1269.9865 6042.8706 7504781
-3940.3572 1261.1969 6001.0479 7438988
-3900.1096 1259.6801 5993.8306 7570831
-3902.3975 1272 6052.4517 7636367
-3870.1011 1273.1711 6058.0239 7570831
-3750.1489 1245.2574 5925.2046 7636367
-3750.9739 1257.3 5982.5059 7767953
-3691.9636 1249.3247 5944.5576 7833746
-3621.5398 1237.2963 5887.3232 7899539
-3549.7454 1224.561 5826.7266 7965589
-3520.5056 1226.4001 5835.4771 8162711
-3477.5549 1223.4519 5821.4487 8360090
-3435.7544 1220.8533 5809.084 8294553
-3381.5427 1213.7474 5775.2729 8360089
-3336.0459 1209.6561 5755.8062 7964299
-3256.8518 1193.1357 5677.1982 6318184
-3195.561 1182.8976 5628.4829 3553334
-2999.4614 1122.0154 5338.7925 2960938
-3171.8845 1199.1588 5705.8574 3091498
-3027.8052 1157.0187 5505.3457 2828068
-2893.0723 1117.5713 5317.6465 2762275
-2989.4819 1167.527 5555.3462 3288362
-3007.219 1187.5276 5650.5132 3485484
-2934.8577 1171.9987 5576.6235 2959394
-2864.489 1156.9211 5504.8813 2169878
-2834.2805 1157.9031 5509.5537 2696222
-2751.354 1137.1199 5410.6626 3354665
-2737.9446 1144.9164 5447.7603 3749936
-2717.2847 1149.8309 5471.1445 2894884
-2683.7322 1149.3427 5468.8213 3157802
-2617.8894 1134.8447 5399.8369 3289388
-2641.5952 1159.2872 5516.1396 3157803
-2588.2507 1150.1042 5472.4453 3749425
-2486.4817 1118.8978 5323.958 3552045
-2470.9175 1126.1792 5358.6045 3222823
-2402.1853 1109.1023 5277.3491 3157542
-2369.1982 1108.2964 5273.5142 3815215
-2349.9082 1113.962 5300.4722 3617835
-2301.3867 1105.7363 5261.3325 3617835
-2222.3379 1082.4159 5150.3696 3091234
-2204.7891 1088.8177 5180.8306 2696477
-2175.1606 1089.3506 5183.3662 2433304
-2119.1536 1076.4988 5122.2144 2893855
-2096.5278 1080.4771 5141.1436 3024671
-2063.4182 1079.09 5134.5435 2103569
-1998.8193 1060.9473 5048.2168 3814187
-1981.0875 1067.5078 5079.4331 3222050
-1946.7894 1065.2063 5068.4819 2629913
-1914.4427 1063.9171 5062.3477 2958878
-1873.3751 1057.6631 5032.5898 2564119
-1837.5701 1054.2261 5016.2358 2498327
-1779.4784 1037.6799 4937.5059 3616808
-1744.6285 1034.3605 4921.7109 2498327
-1704.1488 1027.5336 4889.2271 2037777
-1694.9899 1039.6821 4947.0327 2695706
-1655.2533 1033.1724 4916.0581 3353637
-1639.0459 1041.379 4955.1069 3419427
-1605.1443 1038.4377 4941.1113 3024669
-1564.6021 1031.0112 4905.7749 3156255
-1523.0051 1022.5955 4865.731 2564118
-1485.7915 1016.8549 4838.416 2563605
-1466.4297 1023.3464 4869.3037 2300433
-1434.0879 1020.8585 4857.4658 2958363
-1404.5255 1020.2877 4854.75 2958363
-1361.5122 1009.7177 4804.4556 3089948
-1348.7988 1021.6472 4861.2183 2563605
-1299.1721 1005.5269 4784.5146 2695190
-1251.1456 989.95374 4710.4146 2760984
-1211.5071 980.45844 4665.2334 2958876
-1176.2029 974.10931 4635.0229 3221791
-1150.105 975.26355 4640.5151 2893083
-1122.7101 975.34741 4640.9141 2432278
-1086.447 967.5379 4603.7549 1841168
-1058.382 966.815 4600.3154 3156773
-1038.594 973.8147 4633.6211 2696222
-1010.9768 973.6543 4632.8579 3025443
-980.49622 970.65021 4618.564 2170393
-950.56897 968.03729 4606.1309 2498845
-905.09485 948.96942 4515.4019 2104087
-885.47827 956.67664 4552.0747 2498845
-851.25513 948.59137 4513.603 2762017
-821.44995 945.06439 4496.8213 2038292
-799.43127 950.55969 4522.9688 2038035
-760.46606 935.58704 4451.7256 3419431
-725.54187 924.68866 4399.8691 2366740
-706.82953 934.40979 4446.124 2695192
-678.84576 932.15247 4435.3833 2958363
-648.23077 925.95483 4405.8936 3221535
-619.31421 921.76501 4385.9575 3090204
-591.75024 919.30951 4374.2734 3023898
-567.1911 921.51099 4384.749 3089691
-540.53082 920.34631 4379.207 2826518
-511.17523 914.24371 4350.1694 2958105
-485.40848 914.25232 4350.2104 2695190
-457.5517 910.10492 4330.4761 2629653
-432.19379 910.73016 4333.4517 2300175
-404.76645 906.79865 4314.7441 2366481
-378.82211 905.88318 4310.3882 2563348
-356.12323 913.15729 4345 2234640
-328.10037 906.84973 4314.9873 2629398
-297.64581 892.18719 4245.2197 3484707
-271.92746 890.32513 4236.3599 3418914
-245.13365 884.20532 4207.2402 3418914
-220.62279 885.86676 4215.146 2695190
-195.14572 883.57764 4204.2534 2958362
-170.60938 885.50104 4213.4058 2826520
-146.02357 887.78314 4224.2646 3353121
0 0 0 0
0 0 0 0
-73.268234 916.82855 4362.4688 3554357
0 0 0 0
0 0 0 0
0 0 0 0
0 0 0 0
0 0 0 0
0 0 0 0
105.90297 902.02045 4292.0088 3689793
130.87912 898.92499 4277.2798 3423540
154.46889 888.8562 4229.3701 2631201
175.16815 867.28644 4126.7368 2366230
197.89769 859.82135 4091.2163 1576714
225.15749 871.52063 4146.8838 2037264
247.95491 865.3446 4117.4971 1905677
268.98572 854.6618 4066.6663 2563350
297.60712 867.87085 4129.5171 2563350
319.03101 859.6781 4090.5347 2760730
335.08334 839.1897 3993.0464 2628887
363.01138 849.18384 4040.6008 2826520
387.06229 849.43286 4041.7856 2431762
410.21161 847.78961 4033.9666 2168589
433.23898 846.08911 4025.8752 2365714
452.19907 837.03723 3982.8044 1905419
475.83176 837.10352 3983.1201 2037004
498.04599 834.78607 3972.0928 2168333
521.84198 835.20917 3974.1062 2234640
546.9798 837.65076 3985.7236 2300433
565.82806 830.65698 3952.4456 2695194
592.48438 835.22595 3974.186 2432021
614.08942 832.59705 3961.6772 3024414
624.52362 815.57367 3880.6763 3222050
612.98383 772.08185 3673.7324 3221538
0 0 0 0
0 0 0 0
0 0 0 0
0 0 0 0
514.35553 550.18335 2617.8916 196608
0 0 0 0
0 0 0 0
794.14288 778.99426 3706.6233 2760725
818.41577 781.203 3717.1331 2168589
841.47943 782.17206 3721.7439 2365198
870.90338 788.85266 3753.532 2365198
892.14258 787.9715 3749.3394 2299405
913.29926 787.06226 3745.0125 2496784
942.75287 793.17651 3774.1055 2299148
957.58655 786.99207 3744.679 2167562
988.14288 793.7168 3776.6765 2431762
1010.9365 794.04651 3778.2454 2234383
1028.2594 790.15802 3759.7429 1708039
1043.5659 784.91766 3734.8083 984833
1053.2634 775.76385 3691.2524 1971210
1092.0159 787.9469 3749.2222 2497555
1119.2263 791.4823 3766.0439 1971211
1147.4684 795.5946 3785.6116 2497810
1155.1102 785.53998 3737.7693 2234125
1169.2609 780.20673 3712.3926 2168074
1186.8888 777.34784 3698.7891 2826003
1200.9894 772.32416 3674.8855 2826003
1206.1654 761.84253 3625.0117 2430988
1226.5461 761.16321 3621.7793 2233609
1239.264 755.83368 3596.4202 2233354
1270.8898 762.0213 3625.8625 2233355
1289.5861 760.3797 3618.051 2430734
1299.0737 753.45081 3585.082 2562318
1320.6071 753.6189 3585.8818 2628111
1325.8728 744.64532 3543.1838 2628110
1358.9174 751.30957 3574.8938 2299146
1367.1787 744.27765 3541.4343 2759697
1392.9451 746.84381 3553.6445 2496526
1416.5502 748.19196 3560.0593 2628622
1412.342 735.02576 3497.4116 2497036
1453.1122 745.30988 3546.3457 2826002
1481.6191 749.10059 3564.3828 3154967
1502.7352 749.10059 3564.3828 2891796
1511.8286 743.19037 3536.2607 3352347
1521.887 737.90961 3511.1335 3483933
1535.6696 734.55261 3495.1604 1839108
1543.3912 728.42438 3466.001 3154197
1551.4994 722.63715 3438.4641 2496267
1577.8699 725.39557 3451.5894 2562571
1583.7664 718.79144 3420.1653 2694156
1616.1654 724.23035 3446.0447 3088914
1632.3604 722.36279 3437.1587 2167813
1676.6439 732.81812 3486.9072 2694155
1686.6163 728.20477 3464.9561 3154707
1720.063 733.71582 3491.1787 2891534
1748.6355 737.04138 3507.0027 3088913
1749.0532 728.5611 3466.6516 3088912
1786.5989 735.56372 3499.9714 3681050
1782.3544 725.39746 3451.5981 3352086
1796.7808 722.97455 3440.0696 2694156
1822.062 724.92468 3449.3486 2430730
1814.7617 714.01239 3397.4255 2496523
1833.3425 713.41064 3394.5623 3154453
1859.1595 715.6073 3405.0144 2759694
1858.4257 707.64673 3367.1365 2759951
1874.2532 706.09454 3359.7507 1904899
1936.261 721.78986 3434.4324 2430989
1944.2281 717.22314 3412.7031 1970693
1982.8833 723.95477 3444.7336 2299915
1994.6616 720.83636 3429.8955 2102280
2000.1284 715.52295 3404.6133 1773314
2027.2083 717.97028 3416.2581 2431243
2047.3821 717.94751 3416.1499 2036485
2061.1384 715.69696 3405.4409 2035972
2073.9172 713.15375 3393.3398 1378560
2109.4478 718.4079 3418.3403 1970692
2104.0896 709.7691 3377.2351 2168328
2121.2158 708.8064 3372.6543 2694670
2118.6252 701.33466 3337.1023 2497547
2173.8914 712.9765 3392.4966 2892820
2251.9407 731.80878 3482.1047 3025435
2270.8301 731.24878 3479.4399 4671034
2247.2307 717.13965 3412.3057 6317151
2261.7642 715.34259 3403.7549 7305077
2324.6433 728.73285 3467.4685 7371128
2306.5781 716.73615 3410.3857 7173496
2339.9993 720.80762 3429.7585 6976116
2372.3599 724.48499 3447.2566 6910323
2393.293 724.63965 3447.9924 6844784
2430.6438 729.72052 3472.1685 6581612
2441.3628 726.78802 3458.2148 7107954
2435.6594 719.05603 3421.4243 7239027
2472.1343 723.80072 3444.0005 6712426
2463.4402 715.35132 3403.7964 6515048
2486.2456 716.11182 3407.415 6778219
2493.7722 712.49481 3390.2046 6843500
2533.5095 718.06506 3416.709 6909546
2531.1672 711.7149 3386.4937 6646374
2533.4077 706.74316 3362.8369 6645604
2575.6731 712.92761 3392.2639 6119516
2525.6526 693.66998 3300.6321 6514017
2541.0417 692.53491 3295.2312 6448222
2530.4839 684.3996 3256.5215 6053465
2516.0676 675.35168 3213.4695 6053207
2527.1855 673.24194 3203.4309 5723984
2547.3635 673.55933 3204.9409 4408124
2537.1482 665.89496 3168.4724 3683889
2537.0713 660.98456 3145.1077 1446673
2551.8994 660.00067 3140.4263 2893604
2538.5696 651.80121 3101.4114 3091240
2556.8528 651.7782 3101.3018 1512209
2523.6995 638.73718 3039.2498 1380622
2493.3018 626.57336 2981.3718 2762274
2495.4685 622.70673 2962.9734 525829
2519.4453 624.2984 2970.5469 1380622
2509.8896 617.61658 2938.7534 1775635
2521.907 616.29877 2932.4829 1973013
2510.406 609.29095 2899.1382 2565148
2488.562 599.88507 2854.3831 3091492
2509.3081 600.80353 2858.7534 854533
2520.8428 599.51904 2852.6414 2104341
2519.24 595.14801 2831.843 1775121
2530.5796 593.87207 2825.772 1379851
2535.7937 591.18481 2812.9854 1050630
2531.469 586.32343 2789.8538 919813
2547.0999 586.117 2788.8716 1576717
2527.02 577.74884 2749.054 1510924
2542.3359 577.52844 2748.0054 1906193
2540.4595 573.43018 2728.5051 1643020
2555.6938 573.22168 2727.5127 2037778
2564.197 571.5155 2719.3943 984836
2548.0925 564.38013 2685.4429 1313802
2553.9456 562.16656 2674.9104 722433
0 0 0 0
0 0 0 0
0 0 0 0
0 0 0 0
-6503.335 1541.9773 7135.9097 2831421
-6461.4131 1542.0615 7136.2993 2765631
-6562.1357 1576.4142 7295.2759 2634302
-6421.7109 1552.9078 7186.4932 2568507
-6316.5771 1537.6786 7116.0161 2568507
-6285.0332 1540.2794 7128.0522 2568507
-6344.2271 1565.3031 7243.8564 2633788
-6399.1865 1589.616 7356.3701 2568508
-6400.1431 1600.7551 7407.9199 2633535
-6372.3486 1604.8079 7426.6748 2567741
-6467.4526 1640.0826 7589.9175 2567743
-6448.8076 1646.8036 7621.0215 2567743
-6384.8691 1641.9716 7598.6592 2567743
-6358.3062 1646.7507 7620.7764 2567742
-6308.1899 1645.4547 7614.7788 2633535
-6187.6309 1625.6328 7523.0479 2633535
-6089.9878 1611.5878 7458.0503 2699328
-6031.5083 1607.7769 7440.4146 2765121
-5970.8667 1603.3295 7419.8325 2699841
-5865.9917 1586.8499 7343.5693 2699842
-5762.106 1570.3937 7267.4141 2831428
-5671.2969 1557.2806 7206.73 2634819
-5577.6943 1543.1959 7141.5488 2371391
-5284.4487 1473.2375 6817.7983 2305854
-5094.6416 1431.2612 6623.5415 4016214
-5056.7983 1431.6565 6625.3706 5792881
-4544.5063 1296.6836 6000.7476 6780545
-4643.978 1335.5128 6180.4404 6780288
-4431.1299 1284.4288 5944.0356 6845825
-4473.2354 1307.0205 6048.5845 6977154
-4468.4321 1316.1603 6090.8813 7043460
-4432.1597 1316.1044 6090.6226 7175046
-4419.8975 1323.2356 6123.624 7175046
-4342.7607 1310.902 6066.5469 7240839
-4286.5107 1304.72 6037.938 7372425
-4263.3975 1308.6047 6055.916 7307402
-4190.9946 1297.2982 6003.5923 7373195
-4162.3345 1299.4543 6013.5703 7504781
-4092.4341 1288.6617 5963.6245 7438988
-3969.082 1260.7032 5834.2388 7504781
-4001.1628 1282.0574 5933.061 7504781
-3952.0342 1277.5382 5912.1475 7438988
-3897.8892 1271.3021 5883.2881 7438988
-3795.9705 1249.2316 5781.1509 7636367
-3774.8396 1253.5879 5801.311 7570574
-3759.2649 1259.8864 5830.459 7636367
-3693.7151 1249.3977 5781.9194 7702160
-3715.3093 1268.4648 5870.1582 7768210
-3600.4299 1240.858 5742.3999 8294554
-3564.5295 1240.2035 5739.3711 8228504
-3484.7876 1224.1359 5665.0137 8294297
-3417.3662 1212.1256 5609.4331 8097175
-3350.0344 1199.9116 5552.9097 8097431
-3306.5713 1196.0895 5535.2217 8557466
-3284.6106 1200.0466 5553.5347 8292752
-3283.1184 1211.6378 5607.1758 4344139
-3247.8831 1210.8859 5603.6958 2500386
-3028.9253 1140.9149 5279.8867 3420460
-3007.8162 1144.7856 5297.7998 3091235
-2990.4299 1150.17 5322.7173 2893854
-2965.2083 1152.6233 5334.0703 2959905
-2959.3442 1162.7351 5380.8657 2564890
-2941.3735 1168.2587 5406.4272 2959648
-2923.3892 1173.8982 5432.5259 2761758
-2884.5142 1171.1813 5419.9526 2893344
-2830.0693 1162.0104 5377.5117 2301464
-2774.144 1152.0159 5331.2593 1512204
-2733.187 1148.0785 5313.0381 2564892
-2693.6941 1144.6716 5297.272 2959393
-2636.3525 1133.5104 5245.6201 3420456
-2637.3562 1147.4677 5310.2114 3091493
-2606.2935 1147.6421 5311.0186 3617839
-2548.3813 1135.8538 5256.4648 3683632
-2549.6055 1150.4575 5324.0479 3223081
-2484.8464 1135.2808 5253.8135 2893859
-2425.9668 1122.4392 5194.3857 3223079
-2385.3699 1117.8354 5173.0801 3025444
-2345.0547 1113.2454 5151.8389 2894112
-2233.8875 1074.4561 4972.3306 2959648
-2241.5447 1092.5459 5056.0464 3880750
-2200.7615 1087.1958 5031.2871 3617578
-2135.1365 1069.2582 4948.2764 3157027
-2105.7371 1069.2152 4948.0771 2959647
-2106.2695 1084.5839 5019.1997 2499097
-2073.3367 1082.9135 5011.4697 2630683
-2035.9869 1078.8541 4992.6841 3551272
-2005.5942 1078.416 4990.6562 3485222
-1958.8546 1069.0433 4947.2822 3024671
-1939.6405 1074.6362 4973.1646 2366740
-1907.3309 1073.0343 4965.751 3222050
-1881.5616 1075.1193 4975.3999 2893085
-1819.5315 1056.2216 4887.9458 2893085
-1778.3976 1049.0387 4854.7056 2695706
-1749.5826 1049.0062 4854.5547 3419429
-1704.5322 1039.0752 4808.5967 3090464
-1680.0504 1041.5585 4820.0884 3287843
-1620.9703 1022.3071 4730.9976 3353636
-1590.2875 1020.6029 4723.1113 3090464
-1617.2548 1056.4988 4889.2285 3551013
-1578.5216 1050.0011 4859.1587 3748392
-1503.2345 1018.4955 4713.3584 2498325
-1479.3132 1021.2581 4726.1431 2827290
-1485.0729 1045.0131 4836.0757 3879465
-1428 1024.6191 4741.6973 3221535
-1391.8225 1018.7004 4714.3066 3221535
-1372.9487 1025.4635 4745.6045 3155742
-1351.197 1030.3149 4768.0562 2695191
-1310.4606 1020.5882 4723.043 3089949
-1275.0988 1014.7141 4695.8589 3616293
-1222.317 994.40607 4601.8784 2826520
-1193.6716 993.25543 4596.5532 3616806
-1155.6646 984.07935 4554.0884 2367254
-1130.7572 985.88593 4562.4492 2762012
-1103.7146 985.87372 4562.3926 3354663
-1071.562 981.18213 4540.6807 2894114
-1038.2126 975.12457 4512.6479 2762530
-1017.8555 981.27216 4541.0977 1775636
-973.07196 963.5658 4459.1567 2762274
-959.56165 976.70312 4519.9531 2367261
-916.15338 959.28906 4439.3647 3683377
-877.2674 945.72083 4376.5742 3091240
-850.39294 944.66913 4371.7075 2236186
-822.74219 942.66217 4362.4194 3551533
-806.01624 953.44794 4412.3335 2104084
-780.01825 953.62103 4413.1348 2367257
-750.00836 948.73145 4390.5068 2629914
-718.9845 942.16174 4360.1035 2498327
-691.65668 940.12622 4350.6836 1708298
-662.91473 935.9364 4331.2944 3155742
-632.39404 928.79694 4298.2544 3089948
-606.67987 928.41382 4296.4814 2892312
-575.37402 919.06537 4253.2192 3089689
-551.90436 921.95093 4266.5728 3155482
-526.17328 921.15442 4262.8867 2694931
-502.51166 924.08331 4276.4409 2629140
-472.17819 914.40277 4231.6416 2563347
-447.83292 915.88318 4238.4927 2760726
-418.80817 907.40106 4199.2393 2036747
-394.39792 908.47668 4204.2173 2498069
-369.97186 909.65857 4209.6865 4405810
-343.478 905.55957 4190.7173 2958363
-321.62689 914.01593 4229.8516 3221535
-292.80289 902.41107 4176.147 3089949
-265.02155 892.17413 4128.7729 3353121
-240.64687 892.48975 4130.2334 2892569
-211.03011 871.23492 4031.8711 2892313
-185.88145 865.35553 4004.6624 2826519
-165.1781 881.47803 4079.2737 2563346
-141.43237 884.10858 4091.4473 2694933
0 0 0 0
0 0 0 0
0 0 0 0
0 0 0 0
0 0 0 0
0 0 0 0
0 0 0 0
0 0 0 0
0 0 0 0
104.6651 916.60663 4241.8408 3558212
126.36456 892.38287 4129.7388 2897973
0 0 0 0
0 0 0 0
191.79492 856.79602 3965.0513 2497818
220.38509 877.09436 4058.9873 2629914
239.65967 859.9718 3979.748 3353123
262.56268 857.7702 3969.5593 2629398
283.61282 850.37494 3935.3359 2760984
305.33279 845.95898 3914.8999 2761240
331.97488 854.84106 3956.0042 2826520
354.62387 852.94763 3947.2415 2694677
375.66946 847.67035 3922.8196 2629141
398.46179 846.71979 3918.4204 2497555
421.74182 846.85303 3919.0376 2695191
442.10526 841.42157 3893.9019 2629398
459.7933 831.68951 3848.8643 2826520
487.01971 839.31525 3884.1541 2497555
503.70905 828.91284 3836.0142 2431762
529.78229 834.18427 3860.4094 3089692
548.43646 827.8208 3830.9609 3286814
566.84045 821.60059 3802.175 2958361
589.93011 822.38788 3805.8181 2826776
616.29291 827.51215 3829.532 2694934
619.87262 802.76709 3715.0181 3352863
0 0 0 0
0 0 0 0
0 0 0 0
0 0 0 0
514.36682 565.70477 2617.9492 919043
524.02393 559.45685 2589.0352 2892832
0 0 0 0
788.25989 795.01971 3679.1646 2826519
809.51154 794.48523 3676.6912 2629139
831.23456 794.4292 3676.4324 3154967
852.52649 793.97473 3674.3289 2694417
874.42267 794.09155 3674.8694 2102280
898.70959 796.32098 3685.1868 2496783
912.16846 789.07794 3651.6677 2234382
939.04181 793.50586 3672.1589 1905674
962.83319 795.18787 3679.9431 1510918
984.66132 795.2099 3680.0449 1643018
1010.6702 798.53424 3695.4294 1708557
1026.469 793.82172 3673.6206 2037779
1055.0962 799.01953 3697.6753 1050883
1065.8531 790.74823 3659.3975 1708297
1095.0475 796.21265 3684.6855 1905676
1128.6542 804.60889 3723.5415 1905417
1132.4523 791.84033 3664.4514 2760726
1133.728 777.82166 3599.5762 2628881
1158.6803 780.26447 3610.8811 2497039
1179.8274 780.10266 3610.1323 2562831
1196.1469 776.81158 3594.9019 2233866
1204.9755 768.8559 3558.085 2365452
1222.6855 766.74329 3548.3081 2036231
1239.5691 764.19263 3536.5042 2102025
1261.6255 764.86273 3539.6055 2562577
1286.1991 767.01196 3549.5518 2693904
1282.432 752.46344 3482.2244 2562318
1302.1625 751.94421 3479.8215 3022867
1325.9271 753.73456 3488.1067 3022867
1348.2125 754.64191 3492.3059 3220247
1359.764 749.60449 3468.9939 3154453
1376.8011 747.69617 3460.1626 2759695
1399.0616 748.63885 3464.5251 2694158
1440.4512 759.64221 3515.4463 2168071
1453.4718 755.58453 3496.668 2496779
1465.0524 750.90265 3475.0015 2759953
1485.3335 750.74823 3474.2869 2957588
1490.4783 743.05206 3438.6707 2760210
1528.5027 751.73389 3478.8484 2299657
1513.166 734.29047 3398.124 2364936
1551.1376 742.83411 3437.6621 2693645
1561.335 738.02777 3415.4194 2628108
1572.3331 733.71808 3395.4753 2430984
1564.6029 720.88812 3336.1013 3812637
1584.5842 720.98706 3336.5593 3417879
1602.4608 720.13782 3332.6289 3549208
1627.7805 722.61334 3344.0852 3746844
1654.0145 725.43036 3357.1216 1904388
1695.3108 734.70807 3400.0566 3220501
1718.7646 736.1261 3406.6191 3615257
1734.96 734.43866 3398.8101 3088913
1761.9458 737.3053 3412.0762 3023377
1785.9623 738.87848 3419.3564 3088915
1769.0206 723.66144 3348.9355 2957074
1785.832 722.43634 3343.2661 3023380
1803.4 721.54083 3339.1218 2562829
1807.6316 715.38672 3310.6421 3023380
1817.6759 711.6405 3293.3054 3747105
1853.8711 718.10339 3323.2141 2233613
1882.9869 721.71722 3339.938 1049856
1900.4792 720.84692 3335.9106 984064
1925.743 722.91205 3345.4675 3616294
1944.3232 722.4516 3343.3367 1642503
1969.2565 724.33728 3352.0632 852992
1982.2709 721.84509 3340.5298 655616
1993.6508 718.81268 3326.4968 2168847
2019.4752 720.99683 3336.6045 2102797
2043.7009 722.5733 3343.8999 1445123
2062.8533 722.34302 3342.834 1445123
2081.7964 722.04462 3341.4531 1511172
2096.4446 720.27612 3333.269 1839879
2109.2024 717.89722 3322.26 1643015
2123.2778 716.00665 3313.511 1511172
2132.6545 712.58069 3297.6565 1380359
2143.4514 709.68719 3284.2661 1117959
2219.6228 728.29626 3370.3845 3026474
2184.5566 710.39996 3287.5645 6646889
2222.4202 716.32654 3314.9912 6581353
2245.1074 717.30048 3319.4985 6844527
2267.1794 718.06262 3323.0256 6647407
2293.0225 719.99585 3331.9719 6778736
2317.4563 721.45734 3338.7354 6844784
2353.0774 726.34729 3361.365 7042163
2360.7009 722.58545 3343.9561 7042163
2381.1177 722.76947 3344.8079 7173749
2428.7385 731.14008 3383.5447 7239543
2432.0261 726.13672 3360.3906 7371383
2439.2839 722.3905 3343.0537 7305333
2458.3167 722.16364 3342.0042 7436406
2478.1248 722.16632 3342.0166 7501940
2493.6296 720.92493 3336.2715 7370611
2510.3408 720.04907 3332.2183 7304561
2494.0559 709.79633 3284.771 7238767
2516.1021 710.52667 3288.1509 6448225
2507.5864 702.6817 3251.8464 6250844
2512.9531 698.81689 3233.9609 5987673
2537.5015 700.30432 3240.8442 5592656
2547.4539 697.77148 3229.1228 5197898
2517.8823 684.53113 3167.8496 4868934
2537.3147 684.71063 3168.6804 4671041
2528.8857 677.42419 3134.9604 4144698
2558.6521 680.401 3148.7363 4341306
2545.2686 671.94324 3109.5957 3025190
2545.9614 667.29639 3088.0913 1248779
2529.8682 658.3476 3046.6785 854024
2536.9421 655.51178 3033.5549 591108
2518.0647 646.0575 2989.8027 591108
2506.1523 638.50983 2954.8738 1578003
2502.7715 633.22546 2930.4189 1775380
2498.696 627.83929 2905.4932 985864
2495.1919 622.66943 2881.5681 1643795
2496.8931 618.85999 2863.939 1643794
2513.2976 618.72162 2863.2986 393986
2541.5002 621.47009 2876.0178 920071
2526.0413 613.57648 2839.488 525570
2514.3401 606.69409 2807.6379 985864
2519.5007 603.94403 2794.9114 328193
2518.146 599.67834 2775.1709 788229
2541.5354 601.32239 2782.7791 1050886
2543.1514 597.8269 2766.6028 2563868
2545.5112 594.54987 2751.4375 2169110
2549.0376 591.58533 2737.7183 1576716
2544.6655 586.83673 2715.7429 919044
2557.71 586.13916 2712.5146 1181958
2548.0454 580.27863 2685.3933 656387
2557.6021 578.84088 2678.74 393728
0 0 0 0
0 0 0 0
0 0 0 0
0 0 0 0
-6422.2114 1564.49 7046.896 2568506
-6392.2705 1567.3849 7059.9351 2634302
-6092.9795 1503.8384 6773.7041 2634302
-6112.4272 1518.6403 6840.376 2502973
-6163.9722 1541.6675 6944.0972 2502973
-6145.4243 1547.3556 6969.7178 2568766
-6157.9492 1560.9973 7031.1641 2436923
-6230.7529 1590.2091 7162.7422 2502716
-6208.8003 1595.4723 7186.4487 2567998
-6195.1514 1602.9565 7220.1597 2567742
-6205.2329 1616.7277 7282.1885 2502205
-6198.8306 1626.3667 7325.6055 2567743
-6133.7788 1620.6454 7299.8354 2633535
-6177.1631 1643.6971 7403.667 2699328
-6141.6519 1645.9348 7413.7461 2764865
-6047.002 1632.2417 7352.0684 2765377
-5979.3838 1625.6995 7322.6001 2831428
-5850.4404 1602.2662 7217.0508 2896966
-5757.7964 1588.5028 7155.0557 2567997
-5667.8633 1575.2882 7095.5342 3094854
-5665.7178 1586.458 7145.8457 4477020
-5542.2139 1563.5582 7042.6992 5990259
-5233.7598 1487.7378 6701.1826 6385017
-4727.5557 1354.1165 6099.3154 6648190
-4554.124 1314.4874 5920.8149 6977154
-4505.6079 1310.5779 5903.2056 6977154
-4493.7754 1317.3613 5933.7598 6977667
-4420.7515 1306.1719 5883.3594 7175046
-4305.2383 1282.1505 5775.1611 7438732
-4360.9351 1309.1415 5896.7358 7438988
-4349.3101 1316.1952 5928.5073 7373195
-4295.2441 1310.4155 5902.4741 7438988
-4229.5171 1300.9542 5859.8579 7505037
-4196.3188 1301.4248 5861.9775 7504781
-4149.6357 1297.6862 5845.1372 7373452
-4099.1113 1292.673 5822.5571 7438988
-4060.4937 1291.3617 5816.6499 7373195
-4005.0312 1284.6246 5786.3052 7307659
-3955.6541 1279.7402 5764.3042 7438988
-3899.5161 1272.5643 5731.9819 7438989
-3825.1008 1259.2455 5671.9902 7570574
-3806.4868 1264.2234 5694.4121 7636367
-3756.8262 1258.8868 5670.375 7702160
-3724.7358 1259.3948 5672.6626 7833746
-3674.4446 1253.702 5647.0205 7965332
-3625.6116 1248.4065 5623.1685 8031125
-3573.749 1241.9601 5594.1318 7965589
-3542.0635 1242.4706 5596.4312 8031126
-3505.1526 1241.1404 5590.4399 8228504
-3268.8467 1168.5076 5263.2817 8096403
-3263.1697 1177.7123 5304.7422 7833229
-3226.2781 1175.7207 5295.7715 7174527
-3271.3489 1203.8521 5422.4829 6186600
-3272.8977 1216.3666 5478.8516 3487283
-3277.7107 1230.3569 5541.8682 3157802
-3140.7104 1190.8594 5363.96 3025697
-3048.8994 1167.8638 5260.3818 3024669
-2991.7778 1157.818 5215.1328 2893339
-2969.3691 1161.1368 5230.0815 2893083
-2959.3083 1169.4049 5267.3232 2827290
-2923.3062 1167.4889 5258.6934 2564119
-2898.8328 1170.1857 5270.8398 2893342
-2875.627 1173.4584 5285.5811 2828062
-2842.3865 1172.6631 5281.999 3287845
-2813.7563 1173.7733 5287 2762270
-2775.7251 1170.9429 5274.2505 3157027
-2701.5959 1152.6465 5191.8384 3288613
-2685.4993 1158.9736 5220.3384 2433304
-2635.4297 1150.6158 5182.6924 3288870
-2599.6436 1148.3706 5172.5791 3223079
-2561.7246 1145.1185 5157.9307 3157285
-2561.1013 1158.6605 5218.9277 4144182
-2487.0332 1138.9006 5129.9238 3749425
-2429.5488 1126.3402 5073.3477 2499357
-2417.9214 1134.9905 5112.311 3025700
-2324.4861 1104.9719 4977.0991 2827808
-2290.8284 1102.9631 4968.0508 2959392
-2252.6702 1098.7069 4948.8799 3091234
-2188.125 1081.299 4870.4697 3354406
-2165.1733 1084.2545 4883.7827 2959905
-2099.4558 1065.5842 4799.6865 2828062
-2078.6106 1069.4891 4817.2749 2762269
-2006.2083 1046.6061 4714.2036 2762269
-2050.2407 1084.6768 4885.6841 2564890
-2021.0868 1084.564 4885.1763 3420199
-1981.6737 1078.8627 4859.4961 3156257
-1962.1874 1084.0018 4882.644 2761499
-1934.6921 1084.804 4886.2573 3090464
-1901.2882 1082.2671 4874.8306 3748394
-1873.8224 1083.0844 4878.5117 3485735
-1855.501 1089.2955 4906.4883 2893599
-1803.7537 1075.7688 4845.5605 3024671
-1770.3595 1072.9277 4832.7632 3616808
-1680.6886 1035.3259 4663.3945 3024671
-1655.0441 1036.5676 4668.9873 2629914
-1619.5385 1031.5704 4646.4785 2958876
-1539.9751 997.85242 4494.6035 3551013
-1539.3378 1014.9892 4571.792 3485221
-1528.9724 1026.2106 4622.3364 3353634
-1509.0229 1031.2913 4645.2212 3090462
-1479.7183 1030.0486 4639.6235 3485220
-1426.369 1011.7042 4556.9956 3550500
-1427.9958 1032.3982 4650.207 3221535
-1388.024 1023.2401 4608.9565 3484707
-1371.0906 1031.0389 4644.0845 3353121
-1317.0302 1010.6665 4552.3218 3221534
-1301.4043 1019.553 4592.3491 3287328
-1270.0079 1016.2002 4577.2471 3221535
-1225.776 1002.2066 4514.2158 3221791
-1193.2887 997.4054 4492.5898 3156257
-1180.2367 1009.0007 4544.8184 3222307
-1134.0631 992.16028 4468.9644 3683371
-1087.7106 974.35437 4388.7617 2433306
-1049.681 963.31464 4339.0356 2565149
-1039.6255 978.03754 4405.3516 2959910
-1019.4069 983.7113 4430.9077 2302493
-988.16797 978.76953 4408.6489 4407869
-958.72949 975.39117 4393.4316 2696994
-925.87537 968.25232 4361.2764 2762530
-889.03052 956.41034 4307.9365 2565151
-855.41449 947.44464 4267.5527 2630687
-832.62836 950.29321 4280.3833 3156773
-815.89484 960.44543 4326.1123 2630172
-772.60938 938.98669 4229.4561 3090207
-750.21826 942.33435 4244.5347 2958877
-727.01282 944.85583 4255.8921 3419172
-698.13611 939.9231 4233.6738 2629142
-668.30756 933.29346 4203.812 2892572
-640.97742 929.77466 4187.9624 2563605
-616.1546 929.75604 4187.8784 2432019
-590.33728 928.17206 4180.7437 2760982
-563.90417 925.4389 4168.4331 2694933
-538.95282 924.99847 4166.4492 3089691
-511.76974 920.50171 4146.1943 2234382
