# .PCD v0.7 - Point Cloud Data file format
VERSION 0.7
FIELDS x y z rgb
SIZE 4 4 4 4
TYPE F F F U
COUNT 1 1 1 1
WIDTH 1297
HEIGHT 1
VIEWPOINT 0 0 0 1 0 0 0
POINTS 1297
DATA ascii
175.50813 862.8844 1832.6927 2498356
185.69255 859.76898 1826.0758 2103856
195.54895 855.56146 1817.1394 2169649
207.56567 860.75165 1828.163 525591
219.20729 863.94861 1834.953 1906988
233.29691 876.03577 1860.6252 2367794
246.67819 884.49255 1878.5865 1512484
255.74327 877.41107 1863.546 3157310
265.22736 872.29364 1852.6771 3025979
279.15378 881.61255 1872.4697 4539216
293.72354 892.17328 1894.8998 2236458
303.0675 886.66766 1883.2063 2894131
315.59839 890.54572 1891.443 2893615
321.12924 875.08264 1858.6008 2103841
333.11832 877.66016 1864.0752 2630440
341.08069 869.80359 1847.3885 3946042
352.67899 871.41931 1850.8203 3419696
360.98749 865.0542 1837.3013 2038042
376.71759 876.32599 1861.2415 2695975
384.306 868.55591 1844.7385 1972252
393.03568 863.72351 1834.4749 985358
405.1127 866.30933 1839.9669 1577752
418.63898 871.77747 1851.5808 1182995
430.44971 873.48511 1855.2078 459784
443.08328 876.73608 1862.1124 328200
452.21259 873.06329 1854.3119 723214
463.91925 874.42291 1857.1996 2302246
474.89508 874.37384 1857.0953 460298
486.08539 874.71301 1857.8157 262663
498.77274 877.67133 1864.099 657420
510.68057 879.15961 1867.2599 394248
519.20282 874.87994 1858.1702 986384
530.95355 876.1051 1860.7723 0
539.52814 872.14618 1852.364 525831
552.88855 875.92719 1860.3947 262913
561.98059 872.9303 1854.0294 1776152
575.36273 876.58441 1861.7905 986636
582.58441 870.89197 1849.7002 2170910
588.03766 862.81488 1832.545 2763047
599.63989 863.88934 1834.8273 1577747
607.1084 859.07629 1824.6046 2564898
615.64752 855.91998 1817.901 2301467
622.87775 851.08386 1807.6294 1972502
634.91193 852.8642 1811.4106 2367260
642.77417 849.07434 1803.3615 2433053
658.08936 855.09253 1816.1436 1840916
673.63287 861.20905 1829.1344 3551534
684.75488 861.56873 1829.8983 3419949
691.51324 856.51221 1819.1588 2630431
696.43573 849.37195 1803.9935 2695454
709.72345 852.49548 1810.6277 3156258
720.79901 852.90845 1811.5046 2761502
736.86334 859.12585 1824.71 3616811
752.49792 864.66962 1836.4844 4273972
754.17303 854.24359 1814.3405 2826524
761.9295 850.9021 1807.2434 2432280
771.90125 850.0929 1805.5247 2564636
786.85925 854.72217 1815.3568 5064257
791.33167 847.99023 1801.0587 2498327
800.4361 846.33496 1797.5431 3287329
807.25793 842.34137 1789.0612 2300434
824.95618 849.65338 1804.5912 2760985
842.39667 856.51624 1819.1672 3156254
837.73438 841.0163 1786.2467 3419172
851.10822 843.78406 1792.1251 2893083
860.80145 842.87946 1790.204 3287841
886.18896 857.17749 1820.5718 3681833
879.85803 840.82043 1785.8308 3813934
886.03442 836.66254 1776.9999 2432536
899.09509 839.02667 1782.021 2498328
904.82172 834.57123 1772.558 3814187
915.89056 835.08893 1773.6576 3287841
926.47815 835.16113 1773.8109 3682601
939.26111 837.18835 1778.1166 3090464
938.11615 826.89417 1756.2524 2366482
947.34412 825.86853 1754.0742 2366484
958.09125 826.17511 1754.7253 4339757
962.47211 821.04437 1743.8281 4208169
972.95496 821.17267 1744.1006 2365966
976.05328 815.13135 1731.2693 2629139
980.94586 810.69836 1721.854 2168590
986.36163 806.78467 1713.5416 1774344
997.34088 807.45483 1714.9651 1708296
1013.7562 812.46826 1725.6132 2103053
1019.154 808.63977 1717.4818 2235151
1038.4454 815.80188 1732.6935 3024667
1049.0347 816.0542 1733.2294 3090204
1067.953 822.71814 1747.3831 4077354
1077.2582 821.91949 1745.6866 1905931
1100.8965 831.96777 1767.0286 2563604
1102.2042 825.11029 1752.4637 2234641
1120.3459 830.86493 1764.6863 1181955
1131.7404 831.55566 1766.1532 2300435
1144.2366 833.03583 1769.297 2103057
1154.3921 832.80054 1768.7971 2168849
1162.0192 830.76184 1764.4672 2431765
1176.8993 833.89856 1771.1293 1774606
1184.318 831.73981 1766.5443 1050884
1187.4781 826.6543 1755.7432 1051656
1215.635 838.90729 1781.7675 920071
1222.6614 836.4928 1776.6393 1248779
1241.9047 842.40637 1789.1992 1051144
1250.6812 841.18011 1786.5948 920071
1263.9031 842.93939 1790.3312 920071
1277.4933 844.91284 1794.5227 722949
1292.5837 847.83789 1800.7352 328193
1297.7386 844.25128 1793.1177 590851
1311.188 846.07513 1796.9913 459520
1306.2111 836.07538 1775.7528 262400
1336.6509 848.72382 1802.6168 1643537
1332.1423 839.15668 1782.297 1445902
1341.6693 838.51184 1780.9275 2235161
1333.7598 827.06464 1756.6146 2893087
1362.2227 838.17462 1780.2113 2498328
1349.8861 824.20306 1750.5369 2037263
1358.1448 822.92334 1747.819 3484453
1352.972 813.58636 1727.9879 3418916
1375.1154 820.6922 1743.0802 3484966
1375.4419 814.76855 1730.4989 3682601
1386.5154 815.25177 1731.525 2629911
1395.5853 814.55835 1730.0524 3024672
1409.9994 816.97144 1735.1776 2959395
1403.0938 807.08624 1714.1823 5131079
1428.2925 815.67737 1732.4291 5000266
1445.1646 819.42462 1740.3879 5856091
1484.0483 835.51129 1774.5546 7172725
1477.5878 826.02252 1754.4012 7239289
1494.9108 829.86932 1762.5715 7765122
1515.2761 835.3399 1774.1906 7502207
1528.363 836.75043 1777.1863 7633793
1544.799 839.96246 1784.0084 7633793
1561.4309 843.23669 1790.9628 7633793
1571.0378 842.69867 1789.8199 7568513
1580.9399 842.32507 1789.0265 7634306
1594.328 843.80133 1792.162 7634050
1604.6229 843.63202 1791.8024 7634050
1615.6436 843.84381 1792.2522 7633793
1628.0065 844.74933 1794.1754 7568000
1640.1476 845.52887 1795.8311 7370621
1651.4883 845.88824 1796.5944 7436414
1666.0231 847.86871 1800.8007 7370621
1677.8221 848.44049 1802.015 7633793
1686.7369 847.55573 1800.136 7567744
1690.9899 844.35431 1793.3364 7502206
1701.3438 844.22021 1793.0515 7633277
1715.9705 846.19482 1797.2455 7633020
0 0 0 0
0 0 0 0
0 0 0 0
0 0 0 0
0 0 0 0
0 0 0 0
0 0 0 0
0 0 0 0
0 0 0 0
0 0 0 0
0 0 0 0
-1721.5836 943.54004 1979.0963 3288610
-1699.4624 937.80286 1967.0626 2104592
-1703.4495 946.49316 1985.2906 2762009
-1692.5295 946.96399 1986.2782 3157281
-1668.5796 940.1001 1971.881 1644042
-1649.7112 936.02246 1963.3281 986115
-1635.3549 934.46533 1960.062 2960416
-1616.1016 930.06763 1950.8376 2828573
-1601.6283 928.37738 1947.2922 3354917
-1598.5267 933.30194 1957.6217 3157281
-1594.4603 937.73114 1966.912 3552039
-1588.443 941.06952 1973.9144 2367765
-1563.3077 933.0473 1957.0875 2828830
-1550.6625 932.41516 1955.7617 2434071
-1536.4655 930.83368 1952.4445 1117956
-1525.2726 931.06183 1952.9231 2038800
-1508.8652 928.08612 1946.6815 1709579
-1510.6647 936.34967 1964.0144 1380615
-1501.4475 937.86011 1967.1826 1183237
-1493.447 940.16016 1972.007 1051651
-1474.609 935.62012 1962.4841 2301716
-1476.2917 944.13165 1980.3372 2762266
-1448.048 933.48724 1958.0104 2169612
-1434.2103 932.03278 1954.9597 3223070
-1418.4729 929.31012 1949.2489 3090714
-1402.7876 926.57721 1943.5165 3353629
-1384.567 922.11066 1934.1477 1709063
-1374.9073 923.31842 1936.6812 2038795
-1344.6798 910.61816 1910.042 4209707
-1341.0614 915.87494 1921.0681 4276015
-1328.671 915.17944 1919.6095 4604467
-1321.9899 918.4386 1926.4456 3223072
-1319.4227 924.63751 1939.4478 2630935
-1315.2373 929.80121 1950.2788 2630937
-1309.3433 933.83783 1958.7457 2236436
-1296.0485 932.62122 1956.1938 2302743
-1284.407 932.58307 1956.1139 2368537
-1284.2412 940.95245 1973.6688 2763296
-1254.5981 927.67932 1945.8281 2894881
-1241.1624 926.25519 1942.8409 723974
-1225.2855 922.96564 1935.9412 1118474
-1205.3665 916.54028 1922.4637 2630943
-1188.5054 912.33984 1913.6532 2894113
-1175.0845 910.72461 1910.2654 1446411
-1169.1385 914.9278 1919.0815 2367768
-1152.4089 910.69159 1910.196 2104599
-1140.4982 910.21729 1909.2012 1315341
-1132.8362 913.15839 1915.3701 2499356
-1124.5776 915.6731 1920.6449 2236184
-1112.8346 915.37323 1920.0157 2434334
-1098.7118 913.08936 1915.2252 2236954
-1086.3201 912.21136 1913.3837 2499872
-1074.7249 911.99078 1912.921 1907991
-1067.181 915.24011 1919.7367 1052681
-1054.46 914.07147 1917.2854 1907734
-1043.6663 914.56641 1918.3235 723462
-1030.9282 913.34955 1915.7711 526082
-1026.3748 919.43744 1928.5405 263170
-1024.782 928.34448 1947.2234 657669
-1014.543 929.53265 1949.7156 591875
-1002.2639 928.85748 1948.2994 1183757
-987.41882 925.76086 1941.8041 2499873
-978.9422 928.63226 1947.827 2631458
-966.91351 928.1626 1946.8418 2236699
-955.27704 928.06262 1946.6321 2368284
-934.30951 918.78418 1927.1704 2105111
-913.82446 909.75647 1908.2346 1250060
-889.65106 896.78467 1881.0259 788739
-881.91144 900.25952 1888.3145 986117
-875.93658 905.64819 1899.6174 1051911
-864.05072 904.98621 1898.2288 2565148
-857.28534 909.74048 1908.2009 591363
-844.64886 908.30823 1905.1968 986118
-835.9942 911.17719 1911.2145 1578254
-825.10699 911.65808 1912.2231 1579026
-814.63702 912.61963 1914.2402 1578770
-810.19403 920.45581 1930.6766 986634
-793.32074 914.19214 1917.5385 592134
-776.73096 908.07788 1904.7136 1644565
-767.29425 910.26941 1909.3104 1710357
-753.56665 907.35974 1903.2074 3486253
-743.90656 909.33386 1907.3481 2959908
-727.8877 903.47614 1895.0614 1841426
-709.02832 893.85382 1874.8784 2762529
-698.64868 894.78571 1876.833 2696224
-684.67401 891.06891 1869.037 3814703
-671.70673 888.56256 1863.7799 3090720
-660.48529 888.3205 1863.2721 2169360
-649.84644 888.867 1864.4185 2234895
-636.01953 884.99646 1856.2998 3024668
-620.15747 878.10809 1841.8513 2761239
-614.05829 885.04407 1856.3997 2958619
-596.91626 876.02679 1837.4858 2827288
-589.8811 881.78278 1849.5591 3419166
-581.16357 885.19409 1856.7145 3616289
-564.99542 877.1698 1839.8833 3155738
-555.87628 879.98871 1845.7961 3023897
-544.90308 879.927 1845.6665 2431761
-528.52606 870.95764 1826.8531 2366226
-519.65698 874.24438 1833.7471 2432278
-508.6369 873.97534 1833.1829 2366741
-500.0116 877.89923 1841.4133 1971986
-484.20639 869.11084 1822.9795 2169107
-473.53998 869.35565 1823.4929 2366743
-464.23694 872.17328 1829.403 2037778
-451.25311 868.0451 1820.7441 2432793
-441.6301 870.33801 1825.5535 2169364
-432.57431 873.89203 1833.0081 1775122
-418.2738 866.76068 1818.0499 1775122
-412.35785 877.08649 1839.7085 1314829
-399.62228 873.07367 1831.2915 1314572
-388.31979 872.05518 1829.1553 1117193
-374.29626 864.6922 1813.7113 1972245
-365.85471 870.17041 1825.202 1051400
-358.38266 878.35864 1842.3768 1906968
-350.02133 884.81311 1855.9153 1051916
-337.02573 879.59143 1844.9626 2630691
-324.79874 876.0929 1837.6245 985866
-312.98499 873.50513 1832.1965 1446417
-304.05774 879.07666 1843.8829 2235933
-292.15955 876.15381 1837.7523 1643796
-282.04721 878.56775 1842.8154 1972761
-270.69781 877.16748 1839.8784 1249295
-259.07294 874.71948 1834.7438 525315
-249.14961 878.05371 1841.7374 591108
-238.78275 880.05872 1845.9429 2104347
-227.19144 877.52673 1840.6321 1710359
-216.35608 877.80658 1841.2189 1973787
-206.35756 881.69159 1849.3678 1841689
-195.23021 880.91882 1847.7469 1578517
-184.92581 883.98804 1854.1847 2762020
-174.16882 885.14484 1856.6112 1643539
-163.70581 888.05237 1862.7096 1184015
-152.32729 886.05475 1858.5198 1118222
-139.77237 876.37006 1838.2058 3684406
-128.502 873.7832 1832.7798 3025963
-117.85225 875.32849 1836.0211 1381651
-106.82481 874.09766 1833.4393 1183245
-96.99453 883.49255 1853.1454 1840920
-86.177292 885.14825 1856.6184 1774872
-74.45932 876.68359 1838.8634 1051407
-64.259193 886.25122 1858.9316 722442
-53.06739 883.27057 1852.6798 1051408
-42.171776 884.95099 1856.2046 1380373
-31.268454 887.59821 1861.7571 1906716
-20.202534 885.99957 1858.4041 2235682
-9.1350126 880.41797 1846.6964 1512731
1.8059771 880.78027 1847.4563 591374
12.814787 885.20538 1856.7382 2433840
23.917242 889.02356 1864.7467 394257
35.166615 894.16455 1875.5302 789016
46.296257 894.52356 1876.2831 2104875
57.157398 890.55994 1867.9694 2302254
67.369049 879.40417 1844.5699 2301741
78.556976 882.32751 1850.7017 2696500
88.798676 875.20874 1835.7698 2235950
99.777557 876.11621 1837.6735 1380641
110.54195 875.14728 1835.641 2170158
120.44604 868.15094 1820.9659 2761525
130.81821 865.40137 1815.1986 2103595
139.66447 853.74182 1790.7426 2564146
152.5332 866.5813 1817.6737 2300975
161.40398 856.51178 1796.5526 2169648
174.51451 868.79517 1822.3173 1775148
184.45514 864.78571 1813.9073 1446440
194.73526 862.72174 1809.5782 1775149
206.48012 867.02374 1818.6017 1183268
220.44006 879.73907 1845.2723 1578280
231.99687 882.11542 1850.257 1117729
243.78305 885.11023 1856.5385 4209999
251.66771 874.29248 1833.8481 4209998
258.35553 860.38452 1804.6758 4078411
274.81665 878.83575 1843.3776 2762807
283.50507 871.97028 1828.9773 2828085
297.90005 882.51581 1851.0967 3420476
306.99286 877.16272 1839.8684 3420473
319.36465 881.22443 1848.3879 3617336
329.13632 878.08002 1841.7925 4472643
336.94281 870.06299 1824.9766 3946041
345.64944 864.79663 1813.9302 2827561
358.0947 868.91943 1822.578 2630182
370.30121 872.23871 1829.5403 2300963
379.80643 869.18719 1823.1396 1840412
391.51712 871.21216 1827.387 1051154
402.96512 872.55939 1830.2128 1051924
414.32535 873.65082 1832.5021 1380891
425.31454 873.92426 1833.0757 2302250
440.20264 881.99585 1850.006 723473
447.09653 874.04718 1833.3335 986643
460.63358 879.15442 1844.046 723472
471.13419 878.36401 1842.3882 131591
483.90317 881.74274 1849.4752 4
494.8017 881.6391 1849.2577 65798
507.05902 883.90851 1854.0179 131336
519.3606 886.15741 1858.735 263176
526.45782 879.61725 1845.0168 5
541.27979 885.98718 1858.3781 394759
549.36633 881.29828 1848.5428 1381654
558.38995 878.26648 1842.1835 1315603
571.3288 881.39099 1848.7373 4539459
576.52045 872.67108 1830.4471 789256
587.60602 873.02997 1831.2 3814963
592.66071 864.57806 1813.4718 2828068
0 0 0 0
608.00067 855.92468 1795.3212 1906965
611.7793 846.43713 1775.4209 1840403
623.54968 848.14075 1778.9941 2366233
630.60114 843.47559 1769.209 2234648
644.57458 848.07037 1778.8467 2234647
665.87897 862.00751 1808.0801 3550763
675.79742 860.99725 1805.9609 3616043
685.77362 860.09076 1804.0596 2300438
685.61023 846.69031 1775.9519 2760218
696.09875 846.65063 1775.8687 2892830
699.94897 838.65839 1759.1046 2366486
718.85968 848.68085 1780.1271 3221796
732.74933 852.57141 1788.2876 3682089
740.68066 849.51727 1781.8815 3287330
758.34247 857.55231 1798.7352 2760983
770.35132 859.06085 1801.8994 4208173
772.25067 849.40851 1781.6534 4076588
782.14673 848.69366 1780.1538 2234640
795.62213 851.82996 1786.7324 3418916
803.91345 849.40637 1781.6489 1905677
813.11829 847.99847 1778.6958 1971468
808.4198 832.31244 1745.7938 4010794
830.73871 844.487 1771.3303 1839883
839.9364 843.18585 1768.6013 2037003
847.19409 839.99335 1761.9048 2102797
859.98236 842.29529 1766.7333 4142123
867.16248 839.1153 1760.063 1839885
883.35516 844.62811 1771.6265 4603189
891.82971 842.71838 1767.6207 2497559
890.30762 831.5166 1744.1246 4274738
915.21936 844.97675 1772.3577 3616807
912.04926 832.49921 1746.1857 1446412
920.17273 830.49432 1741.9805 4406323
928.33087 828.56488 1737.9333 722176
940.01624 829.79138 1740.506 2037521
947.05817 826.93689 1734.5187 2432024
956.98846 826.63855 1733.8928 1379848
967.6983 827.01263 1734.6776 2497557
979.78406 828.54254 1737.8866 1971212
976.60547 817.26672 1714.2352 524800
984.80994 815.65088 1710.8459 656128
984.05646 806.72418 1692.1221 1577227
997.27203 809.31384 1697.5538 2300947
1018.0408 817.92017 1715.6058 1445384
1027.2551 817.1651 1714.022 2629398
1036.1564 816.17804 1711.9518 2234641
1057.9924 825.30005 1731.0853 2234386
1065.3652 823.07318 1726.4144 1642505
1078.6547 825.41608 1731.3286 2629400
1095.0341 830.05713 1741.0635 1971472
1109.089 832.86597 1746.9551 2103571
1116.9849 831.04053 1743.1262 1840399
1140.1412 840.49847 1762.9645 2827293
1140.2444 832.94434 1747.1195 4011567
1152.5415 834.35376 1750.0757 3353892
1158.9419 831.50726 1744.1051 1511433
1169.1056 831.38721 1743.8533 1642762
1182.8616 833.80145 1748.9172 1248521
1191.5511 832.63354 1746.4675 1314572
1199.9116 831.25763 1743.5815 1841430
1217.1469 836.0011 1753.5309 1380623
1242.3047 846.05969 1774.6292 2301724
1256.3063 848.41541 1779.5702 1051656
1271.7301 851.68433 1786.427 1380622
1286.0198 854.14612 1791.5906 1577745
1292.4761 851.40747 1785.8462 2696480
1298.8945 848.68854 1780.1432 5722702
1304.3959 845.41895 1773.285 3683634
1316.8446 846.6684 1775.9059 1512208
1324.0464 844.55133 1771.4652 263171
1323.0039 837.25024 1756.1511 1381137
1320.2393 828.98169 1738.8076 4011826
1354.5854 843.96277 1770.2308 4208947
1347.3954 833.03369 1747.3068 4209201
1346.157 825.92285 1732.3917 3747881
1341.8286 817.03809 1713.7557 2826780
1353.9701 818.23999 1716.2767 4011053
1358.0594 814.59418 1708.6294 3222051
1364.819 812.59204 1704.4299 3287845
1374.4202 812.29871 1703.8147 4998462
1359.8599 797.83405 1673.4749 4603703
1369.9489 797.93591 1673.6885 2038034
1399.1453 809.08563 1697.0753 2104345
1425.8398 818.63983 1717.1155 3354928
1433.0126 816.92981 1713.5284 6514021
1445.1349 818.04541 1715.8685 5462108
1431.3988 804.61017 1687.6879 6844274
1488.2037 830.73834 1742.4923 7304826
1500.729 831.95929 1745.0532 7107959
1522.6367 838.32928 1758.4146 7173242
1533.9824 838.83704 1759.4794 7173242
1535.6383 834.07489 1749.4907 7896965
1555.0825 838.97357 1759.7657 7765123
1562.3147 837.26239 1756.1765 7699842
1573.4297 837.64081 1756.9703 7699840
1586.3408 838.96429 1759.7463 7633793
1600.2719 840.80627 1763.61 7633793
1611.8246 841.38306 1764.8197 7502207
1619.6476 840.01782 1761.9561 7436414
1637.2943 843.73248 1769.7478 7436414
1686.5448 863.5824 1811.3834 7502207
1678.1931 853.87299 1791.0177 7502207
1679.0679 848.95062 1780.6929 7568001
1679.5033 843.8689 1770.0339 7568254
1693.2354 845.48975 1773.4336 7502718
0 0 0 0
0 0 0 0
0 0 0 0
0 0 0 0
0 0 0 0
0 0 0 0
0 0 0 0
0 0 0 0
0 0 0 0
0 0 0 0
0 0 0 0
-1711.103 949.4491 1967.0479 2368019
-1693.5679 946.16309 1960.2399 3749414
-1679.8649 944.98743 1957.8041 3486501
-1659.2549 939.88275 1947.2284 3815467
-1654.66 943.8421 1955.4313 3157537
-1637.0717 940.39307 1948.2858 2301972
-1626.4211 940.90887 1949.3544 2367765
-1613.4563 940.08362 1947.6447 2170130
-1601.1647 939.64154 1946.7286 3420197
-1592.5735 941.38031 1950.3311 2367254
-1571.7444 935.85791 1938.8899 1775374
-1560.3772 935.92932 1939.0378 1051652
-1544.0319 932.9939 1932.9563 986377
-1537.7629 936.14874 1939.4924 1906960
-1506.6877 924.13605 1914.6047 2038546
-1501.4222 927.89172 1922.3857 2499097
-1511.048 940.97797 1949.4976 1578252
-1500.8021 941.7959 1951.1921 1380616
-1494.2202 944.9436 1957.7135 788482
-1489.1907 949.12994 1966.3866 1511947
-1464.0109 940.43842 1948.3796 1709582
-1449.8842 938.76532 1944.9133 1249031
-1420.6646 927.21472 1920.9832 1249030
-1404.0934 923.7995 1913.9076 1249028
-1388.891 921.23663 1908.5978 1380356
-1376.1805 920.2981 1906.6533 1183236
-1364.6978 920.17175 1906.3916 920065
-1364.5695 927.76318 1922.1194 2367251
-1347.5057 923.87115 1914.056 2169359
-1334.4011 922.65057 1911.5272 2300945
-1321.8376 921.78644 1909.7369 853761
-1325.6641 932.43561 1931.7997 1446409
-1314.5105 932.64185 1932.2271 1183495
-1304.168 933.4325 1933.8649 1578252
-1281.5555 925.37708 1917.176 1776400
-1272.5343 927.07941 1920.7028 2829089
-1263.5366 928.82965 1924.3289 2960675
-1247.8953 925.68347 1917.8108 1776400
-1237.6488 926.51825 1919.5403 986632
-1217.5778 919.9455 1905.923 1972755
-1205.5005 919.34595 1904.6808 1183241
-1191.6395 917.362 1900.5704 1578252
-1188.2762 923.49878 1913.2844 1512459
0 0 0 0
-1159.5787 918.72272 1903.3896 4341812
-1145.208 916.24677 1898.26 2236436
-1138.7745 920.13507 1906.3157 4604729
-1123.8226 917.14954 1900.1302 1512459
-1114.101 918.41492 1902.752 1183496
-1094.5371 911.50995 1888.4463 2301979
-1079.5703 908.33026 1881.8586 921100
-1076.451 915.15643 1896.001 1052428
-1053.4384 905.03552 1875.0328 986633
-1059.5636 919.99902 1906.0337 1052428
-1048.5601 920.25189 1906.5577 2302494
-1031.6511 915.27118 1896.2388 460291
-1026.8029 920.99872 1908.105 1579284
-1015.795 921.26733 1908.6615 131585
-1006.791 923.37982 1913.038 2763558
-1001.4456 928.9342 1924.5455 1579285
-993.04938 931.75391 1930.3872 1381650
-979.92883 930.15497 1927.0747 66048
-966.51068 928.2326 1923.0918 2368029
-955.78345 928.87933 1924.4319 4539709
-938.56506 923.15729 1912.5769 3026470
-923.03748 918.97864 1903.9198 3421230
-901.81775 908.95941 1883.1622 1578770
-882.10211 900.2243 1865.0649 1841426
-872.1582 901.36639 1867.4312 2038805
-865.2785 905.74542 1876.5035 1775633
-853.11737 904.63806 1874.2094 2367770
-838.8819 901.27301 1867.2375 1117703
-818.47632 891.10016 1846.1617 591621
-814.77533 899.08502 1862.7046 1381133
-811.95251 908.27155 1881.7371 1842197
-801.19275 908.71167 1882.6489 3026216
-794.25989 913.56604 1892.7061 2434079
-773.32642 902.22504 1869.2101 2039321
-763.53583 903.74365 1872.3563 4276283
-752.75934 904.12299 1873.1422 3289388
-741.44421 903.85699 1872.5911 2565151
-730.04279 903.47607 1871.8019 2499356
-713.37408 896.46429 1857.275 2169878
-703.79785 898.28522 1861.0476 2301974
-695.57513 901.91913 1868.5763 3024414
-673.97662 888.04645 1839.8351 2893083
-659.59546 883.38361 1830.1748 3879465
-653.82904 890.29529 1844.4944 2431762
-637.85144 883.30157 1830.0048 2037259
-625.76355 881.54541 1826.3665 2365967
-613.45081 879.40527 1821.9326 2497552
-601.9942 878.43781 1819.9281 2497552
-592.4455 880.26965 1823.7234 2695188
-579.64917 877.2547 1817.4771 2629139
-571.03204 880.57013 1824.3459 2694931
-560.78357 881.44934 1826.1675 2563346
-546.53162 875.94666 1814.7671 2958360
-537.29443 878.42175 1819.895 2235151
-524.11444 874.42017 1811.6045 2695445
-513.07898 873.90381 1810.5347 2629398
-503.42465 875.76819 1814.3972 3156257
-491.67798 873.99451 1810.7228 2169363
-479.48856 871.33722 1805.2174 2366743
-468.91898 871.56946 1805.6985 2103571
-459.51871 874.03674 1810.8101 2235158
-446.89221 870.33856 1803.1483 1840145
-437.50345 872.91949 1808.4954 1840402
-427.66757 874.71533 1812.2161 2235673
-417.83707 876.61499 1816.1516 1643536
-407.74023 878.0415 1819.1072 2630431
-398.45828 881.34796 1825.9574 1841173
-386.65372 879.10352 1821.3074 722693
-373.62988 873.87848 1810.4822 591107
-362.67575 873.32831 1809.3425 3090983
-354.84158 880.48657 1824.1727 788488
-345.20129 883.47211 1830.358 1315087
-332.33359 878.12335 1819.2767 1314831
-322.53116 880.78705 1824.7952 854023
-311.83841 881.11969 1825.4845 1578002
-303.37524 888.00244 1839.744 722694
-290.51596 882.0509 1827.4137 2038554
-279.116 880.24091 1823.6637 1446417
-268.13843 879.67084 1822.4828 2104604
-257.85822 881.43665 1826.1411 2828070
-246.3546 878.99207 1821.0765 1775638
-235.07076 877.14362 1817.2468 1578003
-224.69669 878.67542 1820.4204 1315601
-215.44279 884.96295 1833.4468 1644566
-204.5768 884.94452 1833.4087 1776152
-194.2166 887.2348 1838.1536 920587
-183.58328 888.47528 1840.7236 1447188
-173.44115 892.39978 1848.8542 986381
-161.84326 888.85815 1841.5168 855308
-151.36427 891.3938 1846.7701 1315860
-139.23186 883.82886 1831.0972 2894637
-128.77408 886.5141 1836.6604 1841436
-118.29766 889.55481 1842.9601 854029
-107.09557 887.20221 1838.0862 1380372
-96.53952 890.27496 1844.452 1775130
-85.145744 885.42041 1834.3947 1709081
-73.980774 881.87292 1827.045 1117200
-63.531528 887.10333 1837.8813 722444
-52.521542 885.0481 1833.6233 1512474
-41.601341 883.82867 1831.0968 2565418
-30.931175 888.93457 1841.6752 1907744
-20.035898 889.61053 1843.0756 1052179
-9.0785408 885.8479 1835.2802 920595
1.7832525 880.50439 1824.2097 1907493
12.65831 885.26184 1834.066 1578530
23.630615 889.28412 1842.3993 394260
34.829777 896.60449 1857.5656 525590
45.724964 894.46344 1853.1298 1381155
55.582287 876.77972 1816.493 2893881
67.153404 887.48187 1838.6655 2893882
77.781418 884.47235 1832.4304 1511970
88.360107 881.70789 1826.703 1840939
98.806953 878.37457 1819.7972 1709613
109.5353 877.95349 1818.9247 3551817
119.97004 875.46515 1813.7695 2367801
130.05692 871.05609 1804.635 1972531
139.50826 863.38379 1788.7396 2169909
149.37537 859.18616 1780.0431 1972530
159.69476 857.97211 1777.5277 2038069
172.14273 867.63666 1797.5505 1183018
183.23125 869.72241 1801.8718 1380141
193.93468 869.8512 1802.1387 1051430
204.76404 870.50201 1803.4869 1314599
214.95227 868.49774 1799.3347 1644332
231.28725 890.34509 1844.5975 1183780
239.89116 881.80273 1826.8997 2828347
249.54942 877.70636 1818.4127 3815242
260.16147 877.16473 1817.2906 2696503
271.22198 878.11816 1819.2659 1841450
280.82834 874.47052 1811.7089 3156799
294.6282 883.66895 1830.766 4275277
305.39502 883.44031 1830.2922 4144199
315.01114 880.01263 1823.1909 2762027
326.10159 880.79449 1824.8108 3091245
335.43604 876.93542 1816.8156 4011835
342.94214 868.68506 1799.7225 2367010
353.18472 867.65466 1797.5879 1577240
364.69147 869.69946 1801.8243 1577497
378.68503 877.38977 1817.7568 1840669
390.88477 880.61334 1824.4355 1511704
399.63974 876.11188 1815.1094 1051926
409.97113 875.21149 1813.244 1249305
422.41785 878.75769 1820.5909 1117719
437.89728 888.27924 1840.3175 2565678
445.5675 881.8819 1827.0636 1118230
454.83173 878.86804 1820.8196 920851
468.52924 884.36194 1832.2015 65540
481.05832 887.45129 1838.6022 263177
492.07999 887.68469 1839.0857 131334
505.65201 892.40894 1848.8734 4
517.60492 894.13605 1852.4514 394764
524.3363 886.95868 1837.5815 6
538.26941 892.008 1848.0425 394763
547.02069 888.43976 1840.65 1841953
553.54468 881.46442 1826.1986 1908001
566.27533 884.4505 1832.3851 1776154
572.84344 877.88019 1818.7728 1512725
580.89813 873.78839 1810.2957 3551791
585.6922 865.02942 1792.1489 4538429
589.92889 855.7738 1772.9734 2695197
592.88196 845.01239 1750.6781 1510922
602.97974 844.62915 1749.8842 1181960
610.24756 840.36169 1741.043 1839633
621.89362 842.16516 1744.7792 2234390
633.82843 844.29413 1749.1902 1773582
643.59918 843.51855 1747.5831 2694683
646.53699 833.9538 1727.7671 3154976
658.67499 836.36932 1732.7715 2300180
685.57288 857.16479 1775.8552 2957080
687.38342 846.43927 1753.6344 2957338
690.53125 837.6554 1735.436 2760216
707.15741 845.23938 1751.1484 3023389
711.93414 838.64569 1737.4878 3023643
736.15558 854.81891 1770.9951 2891543
742.20416 849.73206 1760.4563 3352092
748.81293 845.41864 1751.5198 3154971
768.43646 855.71606 1772.8538 3089948
774.69397 851.05225 1763.1914 2826777
789.98938 856.3092 1774.0828 3813672
800.64612 856.46625 1774.408 1181957
802.5705 847.39893 1755.6226 1774091
807.21259 841.39636 1743.1866 1774092
817.44232 841.29633 1742.9792 2037007
827.11151 840.62903 1741.5967 985091
835.96765 839.16193 1738.5573 1247749
846.90619 839.79547 1739.8699 4208175
862.15656 844.63794 1749.9025 2563862
869.7442 841.94769 1744.3287 2037524
874.16797 836.29376 1732.615 3221537
878.91943 831.08081 1721.8151 2959136
893.58624 835.25562 1730.4642 5459272
888.52917 821.10852 1701.1547 2761758
905.42773 827.34088 1714.0667 3090979
915.33221 827.11493 1713.5985 1709584
925.37848 827.02069 1713.4033 3156770
933.87946 825.56232 1710.382 5262404
937.70587 820.04742 1698.9562 1578513
950.38593 822.31012 1703.6439 3420458
961.53802 823.21698 1705.5228 2301977
968.28406 820.37207 1699.6288 1578511
973.72357 816.49011 1691.5863 1445896
988.20312 820.19031 1699.2523 3485221
994.76221 817.30841 1693.2815 1313794
1002.4539 815.40521 1689.3387 2300945
1017.4283 819.40503 1697.6254 1840138
1032.8258 823.66394 1706.4489 2037261
1047.5183 827.28351 1713.9478 2103055
1059.8212 828.96442 1717.4303 2234643
1076.2922 833.84259 1727.5369 4471860
1081.4401 829.93909 1719.4496 1577483
1080.3394 821.35767 1701.6709 2564122
1098.719 827.60858 1714.6213 1116677
1123.3621 838.41962 1737.0194 2103571
1138.241 841.81299 1744.0498 2893087
1140.7438 836.07477 1732.1614 722690
1147.0273 833.18506 1726.1746 2169878
1158.4923 834.0769 1728.0222 1117192
1171.7419 836.22687 1732.4764 1446670
1182.4618 836.54962 1733.1451 1051912
1189.9956 834.63232 1729.1729 2630944
1221.8391 849.65222 1760.2909 920584
1228.2063 846.85211 1754.4896 1117705
1247.5736 852.9873 1767.2004 3091495
1265.0194 857.71765 1777.0005 2959394
1274.2638 856.85492 1775.2131 3946290
1281.4193 854.61316 1770.5687 3748911
1284.4752 849.69592 1760.3813 3485741
1304.4485 855.9588 1773.3566 3354411
1313.47 854.99255 1771.3549 2959395
1317.7435 850.97559 1763.0326 3748910
1321.2316 846.51849 1753.7985 7367783
1321.9778 840.38794 1741.0973 5789005
1315.8036 829.98706 1719.549 3287844
1322.9801 828.10272 1715.6449 3353121
1322.6803 821.60309 1702.1792 3484196
1332.3501 821.3476 1701.6499 4405297
1332.8777 815.5025 1689.5403 2431762
1336.751 811.77637 1681.8204 3549986
1336.2819 805.48767 1668.7917 4536881
1345.4966 805.08588 1667.9592 1773832
1349.4689 801.57593 1660.6874 3023899
1361.5645 802.90704 1663.4452 3221794
1359.2971 795.81018 1648.7421 3945004
1388.1306 806.89282 1671.7029 2893345
1408.1508 812.73181 1683.7999 4078135
1437.277 823.70721 1706.5386 4737094
1440.3025 819.6756 1698.1858 6119008
1424.188 804.88269 1667.5383 6251366
1429.8987 802.54333 1662.6917 7765120
1422.4965 792.92651 1642.7677 5593438
1462.2836 809.5658 1677.2407 6844019
1477.693 812.57538 1683.476 7699586
1509.6238 824.56879 1708.3235 7173242
1511.5963 820.14795 1699.1646 7370621
1540.722 830.42072 1720.4474 7568000
1555.3125 832.77563 1725.3263 7633794
1549.42 824.2041 1707.5679 7633793
1580.9207 835.50574 1730.9824 7568000
1591.0161 835.422 1730.809 7502207
1628.1774 849.46027 1759.8932 7370621
1669.4686 865.46106 1793.0432 7304828
1680.3967 865.61859 1793.3696 7502207
1683.0173 861.52155 1784.8813 7568000
1656.6141 842.71136 1745.9109 7502207
1671.6526 845.08502 1750.8286 7502461
0 0 0 0
0 0 0 0
0 0 0 0
0 0 0 0
0 0 0 0
0 0 0 0
0 0 0 0
0 0 0 0
0 0 0 0
0 0 0 0
0 0 0 0
-1696.6409 952.97925 1950.4226 2236179
-1683.0658 951.83661 1948.0841 3223331
-1679.149 956.1781 1956.9696 986375
-1656.4149 949.79016 1943.8956 1512460
-1640.9066 947.48505 1939.1779 3486249
-1632.2574 949.13586 1942.5564 2499098
-1599.0699 936.44006 1916.5725 3946801
-1585.2518 934.98682 1913.5984 1709838
-1569.1508 932.15643 1907.8055 986118
-1564.9712 936.41846 1916.5283 1249290
-1552.4532 935.7168 1915.0923 2762527
-1541.2345 935.79376 1915.2498 3157540
-1524.14 932.27783 1908.0538 3091491
-1507.7583 929.14844 1901.6492 2301718
-1498.3861 930.32422 1904.0555 2827805
-1492.0278 933.40332 1910.3573 2104082
-1502.5808 947.18976 1938.5735 2893854
-1492.558 948.11835 1940.474 986117
-1481.2726 948.25305 1940.7496 1314568
-1460.3748 942.18811 1928.3369 460292
-1459.3434 948.94598 1942.168 591362
-1430.9426 937.87268 1919.5046 920327
-1397.3142 923.16821 1889.4095 1446670
-1379.8378 918.98358 1880.8451 2367772
-1368.6697 918.96643 1880.8101 1183495
-1359.489 920.29437 1883.5278 1051910
-1357.9897 926.88715 1897.021 196608
-1344.0658 925.03888 1893.2382 788483
-1338.9026 929.23962 1901.8357 2499101
-1321.09 924.65814 1892.459 788999
-1306.5106 922.2807 1887.5931 526082
-1292.8672 920.52838 1884.0068 722436
-1289.9991 926.48474 1896.1974 920841
-1287.8008 933.03082 1909.595 328705
-1279.4579 935.20166 1914.038 1249806
-1286.62 948.84583 1941.963 3223593
-1278.4771 951.34741 1947.0828 723718
-1230.6573 924.10107 1891.319 855558
-1227.4974 930.19739 1903.796 1315337
-1211.0726 926.26135 1895.7404 2762525
-1183.7747 913.85773 1870.3542 3420456
-1174.5984 915.34155 1873.3912 2762270
-1155.813 909.29413 1861.0142 2170646
-1149.1193 912.7345 1868.0554 2301972
-1145.0957 918.3833 1879.6165 2696218
-1132.0637 916.84717 1876.4725 3288610
-1114.6782 911.71973 1865.9785 3485991
-1107.8877 915.24213 1873.1877 2696729
-1095.6766 914.31274 1871.2855 3946798
0 0 0 0
-1065.2316 907.2663 1856.8639 3947313
-1062.1423 914.07458 1870.7982 1776403
-1052.8459 915.62848 1873.9785 1381902
-1044.2305 917.8139 1878.4512 1118477
-1042.7322 926.3692 1895.9611 2302749
-1023.1693 918.88757 1880.6486 2697252
-1010.634 917.62201 1878.0585 526082
-997.02893 915.34607 1873.4004 262913
-999.14948 927.61865 1898.5182 2171421
-993.35028 932.73431 1908.9882 2434593
-985.7865 936.29175 1916.269 2237214
-969.83545 931.87311 1907.2256 2960679
-957.84027 931.19617 1905.8401 855305
-943.50726 928.20306 1899.7142 2105113
-927.99933 923.96796 1891.0464 1315598
-909.56006 916.67505 1876.1204 1052427
-891.91168 910.00873 1862.4767 855304
-872.25818 901.10376 1844.2513 1051910
-869.16779 909.30096 1861.0282 1183496
-858.57385 909.758 1861.9635 1249289
-849.10059 911.42963 1865.3848 1841426
-838.02179 911.39941 1865.323 1908245
-817.85571 901.35333 1844.7621 3750192
-799.19189 892.71313 1827.0785 2105623
-804.42596 910.89661 1864.2939 1710864
-789.07843 905.9563 1854.1826 4078644
-771.6734 898.48065 1838.8827 3092007
-767.98492 906.99042 1856.2992 3223080
-753.69226 903.04187 1848.2178 5065285
-741.9162 902.03668 1846.1605 1644049
-735.04004 907.04785 1856.4167 2170134
-718.72247 900.38354 1842.7771 2103570
-706.10358 898.21857 1838.3463 2301204
-693.95477 896.5932 1835.0198 2432534
-681.43591 894.43042 1830.5931 2366741
-665.05762 887.04987 1815.4878 2366740
-656.70819 890.31171 1822.1636 2234639
-639.71973 881.7746 1804.691 1773832
-632.97125 887.30182 1816.0034 918528
-615.57471 877.83557 1796.6293 2103053
-608.93439 883.6449 1808.5189 1576965
-595.20349 879.18878 1799.3987 2168844
-583.89539 878.21399 1797.4037 2563346
-574.25446 879.75714 1800.562 2102796
-561.79486 876.95886 1794.835 2168589
-548.92017 873.39203 1787.5348 2300175
-536.21521 869.96033 1780.5112 1642503
-527.60638 873.16974 1787.08 2103053
-516.83716 872.86224 1786.4506 2563605
-505.87601 872.21088 1785.1173 2169104
-497.06125 875.31128 1791.4629 2235411
-484.9473 872.6106 1785.9354 2169362
-475.99933 875.61322 1792.0809 2564123
-463.60995 872.27795 1785.2548 2564637
-452.38327 871.02557 1782.6915 1249036
-442.5094 872.38037 1785.4642 985608
-432.10629 872.73267 1786.1853 1906965
-423.41019 876.63672 1794.1757 2038295
-416.58298 884.71088 1810.7007 2762531
-404.02872 880.72766 1802.5485 1183243
-391.8472 877.36279 1795.6617 1249807
-381.26807 877.49817 1795.9386 1512980
-373.09387 883.33508 1807.8849 1118479
-359.79449 877.02411 1794.9684 5131595
-348.30621 874.87769 1790.5756 1118222
-336.61035 872.0589 1784.8063 1512980
-325.95453 871.83893 1784.3561 2039581
-317.83948 878.62793 1798.2509 1578773
-309.81781 886.15491 1813.656 657416
-300.75067 891.12488 1823.8279 986382
-287.82852 884.61731 1810.5092 1315091
-275.93411 880.88678 1802.8741 1315348
-261.0513 866.93182 1774.313 197123
-252.68556 874.35645 1789.5087 657417
-240.01227 866.87341 1774.1935 328451
-232.24927 877.25214 1795.4351 1052176
-223.30273 883.94214 1809.1272 1315346
-212.92352 885.34943 1812.0074 1775898
-201.94972 884.30267 1809.8651 789003
-192.0757 888.22424 1817.8912 920588
-181.00449 886.74658 1814.8671 1315347
-170.62538 888.68707 1818.8386 1249554
-159.93544 889.16119 1819.809 460038
-149.33353 890.22845 1821.9933 1183761
-138.83188 892.10645 1825.8369 1578521
-127.99377 891.95715 1825.5312 1052178
-117.32112 893.03955 1827.7466 1577748
-106.20209 890.59882 1822.7513 1578004
-95.591362 892.35083 1826.3369 2038301
-83.076302 874.50372 1789.8102 1577749
-73.407112 885.77466 1812.8778 1446419
-62.93063 889.49792 1820.498 1380114
-52.079578 888.37195 1818.1936 2170143
-41.39608 890.26208 1822.0621 1709849
-30.480972 886.74792 1814.8696 2038558
-19.851892 892.25909 1826.1492 986385
-9.0702114 895.89777 1833.5963 1907743
1.7710148 885.19482 1811.691 1381404
12.55908 889.10242 1819.6886 2368046
23.422293 892.26288 1826.1571 262673
34.603893 901.72302 1845.5187 591383
45.610916 903.18347 1848.5077 1051935
55.630985 888.31866 1818.0845 2499125
66.409393 888.4212 1818.2944 1973038
77.203484 888.67566 1818.8152 1380648
88.075401 889.65393 1820.8173 1709358
98.988518 890.78937 1823.1412 3157063
109.09059 885.12085 1811.5398 2235961
118.59625 876.06238 1793 2564927
128.6409 872.14709 1784.9868 2038326
138.76881 869.34839 1779.2588 2367547
148.22389 863.0271 1766.3213 1775410
157.57478 856.97302 1753.9307 2432830
169.07117 862.61438 1765.4767 1380401
179.73793 863.6123 1767.519 1577779
191.48322 869.39703 1779.3585 393505
202.37381 870.90021 1782.4349 854054
214.0491 875.46356 1791.7745 920359
226.87688 884.08673 1809.4232 1644335
239.16064 889.90753 1821.3364 1775662
246.59444 877.95831 1796.8804 5130849
257.82056 879.94116 1800.9387 2762555
269.50012 883.25262 1807.7161 2170421
278.11227 876.64209 1794.1866 2565178
291.78842 885.89294 1813.12 4011852
300.43652 879.76343 1800.575 3353150
310.27356 877.41644 1795.7714 2695729
322.16464 880.841 1802.7803 2367018
331.81116 878.10577 1797.1821 2432296
339.89868 871.54309 1783.7507 1709086
351.13095 873.19672 1787.135 1051671
361.34537 872.29639 1785.2924 1709602
372.13147 872.78802 1786.2986 1775906
386.23645 880.82129 1802.7399 1512734
396.78806 880.53662 1802.1573 1117718
408.24371 882.2207 1805.604 789267
421.00226 886.56238 1814.49 1578785
434.41559 892.03229 1825.6852 1052441
445.15302 891.87543 1825.364 197128
462.4942 904.64288 1851.4946 723221
466.19995 890.76562 1823.0927 328207
477.48019 891.66174 1824.9266 328717
484.93314 885.52917 1812.3754 65544
500.11511 893.47034 1828.6283 7
511.32663 894.1319 1829.9822 65798
523.53668 896.47583 1834.7794 131335
534.08783 895.94159 1833.6859 131334
543.68304 893.85687 1829.4193 920850
553.91754 892.88422 1827.4287 1775899
561.82184 888.26471 1817.9741 1644311
560.19092 869.02698 1778.6011 3157035
580.14429 883.36523 1807.9465 2959397
0 0 0 0
582.21674 854.95239 1749.7952 2169111
587.86798 848.15002 1735.8729 984837
598.19312 848.20868 1735.993 1510926
607.21521 846.44897 1732.3916 984839
615.15668 843.26648 1725.8782 1445134
625.70514 843.70331 1726.7721 1313289
638.19415 846.70068 1732.9067 1313032
648.69604 847.00848 1733.5367 2036754
661.93683 850.82727 1741.3524 2102547
670.72906 848.89838 1737.4048 2299411
681.08984 848.98315 1737.5782 2693911
686.2735 842.70825 1724.7356 2233616
694.29388 840.04956 1719.2942 2496786
703.65814 839.07037 1717.29 2891542
716.23999 841.90106 1723.0835 2825749
724.12634 839.21051 1717.577 3417887
744.7746 851.17975 1742.0739 2562830
757.90717 854.34967 1748.5616 3220761
770.42163 856.74677 1753.4678 3418397
777.81677 853.46289 1746.7467 2826516
788.84967 854.20453 1748.2645 2365969
797.66864 852.56042 1744.8997 3221537
807.89606 852.4447 1744.6628 1181954
815.93103 850.04761 1739.7567 1971729
823.96796 847.71246 1734.9775 3287332
835.242 848.72418 1737.0481 1642505
835.42816 838.58154 1716.2897 1971213
842.08295 835.09772 1709.1594 1774091
850.61719 833.53851 1705.9683 2300951
862.24438 835.01111 1708.9822 2103828
877.88806 840.29401 1719.7946 590848
878.51331 831.24542 1701.2751 2564895
892.6972 835.08557 1709.1346 3222568
901.94391 834.27295 1707.4714 2367772
914.79272 836.77325 1712.5886 4604475
916.82495 829.43304 1697.5658 4669240
922.78607 825.76801 1690.0647 4274995
925.43811 819.2522 1676.7291 4537655
935.3385 819.22339 1676.6702 2169366
945.45764 819.3847 1677.0004 985604
954.70099 818.79156 1675.7864 3156772
974.11627 826.84473 1692.2684 1643534
985.75916 828.20367 1695.0498 1972498
989.69373 823.12433 1684.6541 1708556
999.04419 822.60577 1683.5927 1445383
1012.566 825.49817 1689.5125 1577225
1029.0134 830.69568 1700.15 1642505
1031.9813 825.01624 1688.5261 3418916
1047.0054 828.99158 1696.6624 2234642
1058.7894 830.3504 1699.4434 2234643
1072.1489 832.90759 1704.677 2234901
1068.55 822.36566 1683.1012 2760989
1101.1697 839.63501 1718.4458 2300950
1111.1283 839.46741 1718.1027 2432535
1131.9664 847.44781 1734.4359 1972242
1131.0808 839.16736 1717.4888 1972499
1144.2905 841.39899 1722.056 2367516
1156.7217 843.02368 1725.3812 2828322
1169.0842 844.57037 1728.5468 1183499
1174.4839 841.10388 1721.4519 1512208
1194.5992 848.14484 1735.8623 3617583
1200.0033 844.70996 1728.8324 2170393
1212.2819 846.13141 1731.7417 2170392
1225.3662 848.08667 1735.7434 1183501
1245.6003 854.91669 1749.722 1841171
1250.3771 851.1123 1741.9358 2827810
1253.1041 845.98645 1731.4449 2630429
1274.9916 853.77429 1747.384 2959139
1279.8661 850.13593 1739.9375 2497818
1249.0933 823.06665 1684.5359 2827293
1215.2438 794.41522 1625.8962 2300180
1297.3672 841.43073 1722.121 2563866
1313.9492 845.53619 1730.5234 3353382
1312.0334 837.76666 1714.6219 3748394
1313.5844 832.31323 1703.4606 4537394
1309.9064 823.65509 1685.7402 3813158
1313.332 819.56067 1677.3605 2826265
1317.0707 815.72168 1669.5034 1839114
1330.2999 817.77411 1673.704 2168079
1309.0128 798.73499 1634.7374 2826266
1321.1359 800.21198 1637.7603 2497298
1341.4207 806.57495 1650.7831 3353121
1348.1729 804.76782 1647.0845 2563608
1348.4745 799.16376 1635.6149 3418916
1359.7811 800.11505 1637.562 4603191
1318.4646 770.30817 1576.5574 4274227
1408.6906 817.23315 1672.5968 3484712
1406.7383 810.40009 1658.6119 4406586
1407.3888 805.15094 1647.8687 5130055
1403.6312 797.4696 1632.1477 4999754
1405.6664 793.16199 1623.3314 4736842
1417.5959 794.45807 1625.984 5724765
1429.1373 795.52045 1628.1584 6317417
1456.2035 805.15259 1647.8721 6909811
1467.9364 806.23486 1650.087 6909814
1495.2505 815.80389 1669.6716 7370621
1510.8584 818.90216 1676.0128 7436414
1549.0089 834.09863 1707.1147 7633793
1555.184 831.99176 1702.8026 7633793
1570.5844 834.81567 1708.5822 7568000
1634.0419 862.98358 1766.2324 7568000
1651.3379 866.56897 1773.5704 7436414
1663.0051 867.17401 1774.8086 7502207
1675.2555 868.07355 1776.6497 7568000
1637.5247 843.22455 1725.7924 7568001
1658.8776 848.91986 1737.4486 7633794
0 0 0 0
0 0 0 0
0 0 0 0
0 0 0 0
0 0 0 0
0 0 0 0
0 0 0 0
0 0 0 0
0 0 0 0
0 0 0 0
0 0 0 0
-1672.6337 950.88599 1922.8245 2368022
-1670.2795 956.05865 1933.2844 3947569
-1666.0864 960.24323 1941.746 1052939
-1636.2234 949.58801 1920.1997 3618349
-1623.4862 948.79242 1918.5909 2170132
-1599.2021 941.18958 1903.217 2433561
-1582.0261 937.69208 1896.1445 1643790
-1571.2882 937.98785 1896.7426 2630941
-1556.6561 935.94629 1892.6144 3288870
-1542.9646 934.44476 1889.578 4341558
-1535.2826 936.5874 1893.9108 2959904
-1527.2667 938.55646 1897.8925 1249546
-1509.8594 934.74042 1890.1759 1117961
-1483.4413 925.24744 1870.9796 1710868
-1470.0592 923.80341 1868.0596 1644047
-1474.2341 933.45404 1887.5747 1315082
-1468.8053 937.12494 1894.9977 2894627
-1463.5428 940.95941 1902.7515 921095
-1456.601 943.76514 1908.4252 2039575
-1447.2224 945.02368 1910.9701 1842196
-1410.0989 928.04205 1876.6309 1842452
-1392.6489 923.84131 1868.1365 2236441
-1371.9429 917.39606 1855.1031 1117963
-1372.2654 925.02167 1870.5232 1117962
-1356.8695 922.0896 1864.5942 1315082
-1347.2747 923.08417 1866.6052 1315083
-1340.9171 926.33148 1873.1718 1644047
-1332.5712 928.24786 1877.047 525569
-1317.0531 925.15845 1870.7998 920325
-1300.5254 921.30139 1863.0002 262400
-1290.5815 922.08228 1864.5793 1775377
-1273.9594 918.06409 1856.454 2104855
-1264.6954 919.32458 1859.0029 1579282
-1263.0107 926.1651 1872.8354 1513234
-1263.5684 934.78577 1890.2676 1381904
-1259.2043 939.88708 1900.5831 1578771
-1238.4384 932.72723 1886.1049 2829093
-1223.0229 929.5036 1879.5863 3289388
-1199.4509 919.9646 1860.2971 1710099
-1191.3019 922.18756 1864.7922 1841425
-1187.8977 928.15961 1876.8687 2499352
-1170.6893 923.35687 1867.1566 2894366
-1159.8944 923.56909 1867.5858 5723466
-1141.6395 917.78809 1855.8959 2104595
-1134.4546 920.88068 1862.1497 1775373
-1113.1975 912.49896 1845.2006 1314823
-1095.951 907.27112 1834.629 3025439
-1075.99 899.66876 1819.256 2959902
-1082.4637 914.23907 1848.7194 2893596
-1060.9186 905.20093 1830.443 2038803
-1057.3678 911.48792 1843.156 1183496
-1043.5754 908.98541 1838.0956 1315853
-1042.8494 917.93115 1856.1853 3355435
-1034.0397 919.87665 1860.1191 1776403
-1021.5206 918.52844 1857.3929 2960933
-1014.4689 922.12054 1864.6567 2302747
-1007.7503 926.0979 1872.6996 1513488
-993.09119 922.78552 1866.0013 1447696
-982.68481 923.39471 1867.2332 2631971
-980.18146 931.52838 1883.6807 6448221
-963.28778 926.01599 1872.5338 1842455
-947.35291 921.30756 1863.0127 2697764
-937.52557 922.49762 1865.4192 2434592
-922.86127 918.90009 1858.1444 1447697
-896.65778 903.58716 1827.1796 1973528
-891.34595 909.21045 1838.5507 526083
-889.63049 918.68671 1857.713 394242
-874.87152 914.76221 1849.777 393984
-859.41516 909.99957 1840.1464 788738
-852.66327 914.44971 1849.1451 328192
-840.30402 912.92383 1846.0597 2104599
-822.29022 905.13348 1830.3065 1907475
-807.62115 900.86591 1821.6768 1447695
-799.71362 904.12701 1828.2712 2038803
-796.6731 913.05573 1846.3263 1183753
-790.85773 919.00848 1858.3636 2959905
-772.30487 910.11877 1840.3876 2235927
-756.02368 903.69006 1827.3877 2235671
-745.55164 904.11914 1828.2552 1446155
-735.30133 904.83374 1829.7003 3025187
-722.85858 902.83136 1825.6512 2170133
-706.92938 896.34753 1812.5402 2367511
-696.01184 896.11621 1812.0724 2235925
-685.14258 895.94073 1811.7175 2170132
-669.58063 889.5257 1798.7454 2300691
-658.40961 888.83075 1797.34 1445639
-649.48059 891.18915 1802.109 1445639
-635.19873 886.15881 1791.937 722433
-623.63269 884.81067 1789.2109 853248
-610.26239 880.81177 1781.1245 1379334
-602.59662 885.05054 1789.6959 1247489
-589.36273 881.11658 1781.741 2037004
-577.83307 879.63354 1778.7421 2234383
-568.29773 881.18774 1781.8849 2037260
-559.67987 884.25031 1788.0778 1050626
-546.60089 880.24689 1779.9823 1247747
-533.56958 876.16406 1771.7263 1379076
-522.25476 874.79279 1768.9534 1576968
-512.62402 876.24396 1771.8878 1708811
-501.82986 875.7254 1770.8394 2037776
-491.6409 876.26349 1771.9274 1577481
-478.86719 872.11774 1763.5441 1511433
-467.74368 870.85931 1760.9994 2235157
-461.16904 878.20593 1775.8552 2300438
-450.21902 877.36914 1774.163 787970
-439.4585 876.8703 1773.1544 985606
-430.34546 879.7149 1778.9066 2696223
-422.95621 886.31451 1792.2518 2696736
-409.38602 879.9682 1779.4187 2038806
-401.66467 886.19067 1792.0015 2762531
-389.81375 883.39258 1786.3434 2236445
-377.80188 880.06354 1779.6115 2302239
-368.12131 882.1297 1783.7896 1578772
-356.24576 878.90265 1777.2642 1381137
-345.61588 878.646 1776.7451 854793
-334.0947 876.03613 1771.4677 1446417
-315.35535 853.71625 1726.3336 1644567
-313.83301 878.07141 1775.5833 1250065
-303.94583 879.90045 1779.2817 920844
-298.71735 895.83197 1811.4974 657671
-285.03198 886.64404 1792.9183 1249808
-272.35446 880.00134 1779.4857 460293
-261.46222 878.82446 1777.106 3026219
-247.82466 867.93396 1755.0839 1052174
-237.22551 867.19684 1753.5934 986381
-229.01001 875.505 1770.3936 1249553
-219.14958 878.02014 1775.4795 1512979
-208.7007 878.31256 1776.0708 1710359
-200.35631 887.96283 1795.585 1249807
-188.85867 883.93677 1787.4438 1907738
-177.33646 879.31061 1778.089 1710617
-167.48489 882.90704 1785.3616 1381653
-160.29573 901.96948 1823.9084 1776411
-148.4711 895.81885 1811.4709 1184274
-138.3208 899.59924 1819.1155 2894893
-127.69253 900.64728 1821.2346 1907485
-116.30545 896.04266 1811.9236 1183761
-104.25845 884.90045 1789.3925 1380882
-94.313377 891.0957 1801.9202 2959657
-83.948158 894.39587 1808.5936 2630693
-71.82354 877.17456 1773.7697 2959915
-62.937794 900.3855 1820.7053 3749174
-51.740635 893.29156 1806.3605 2696744
-40.623302 884.2356 1788.048 2960172
-29.993652 883.15057 1785.854 3815223
-19.482416 886.26971 1792.1614 4012859
-8.9173183 891.47552 1802.6882 2828586
1.7561486 888.40704 1796.4833 2697005
12.491822 895.06348 1809.9436 1578528
23.313784 898.89777 1817.697 591638
34.280334 904.12256 1828.2623 460056
45.168137 905.26025 1830.5629 262679
55.622555 898.95319 1817.8091 1512490
66.301163 897.72772 1815.3311 3223110
76.925438 896.21136 1812.2648 2367801
87.648277 896.0741 1811.9872 2038840
97.733612 890.16034 1800.0288 2564931
108.91402 894.40295 1808.6078 2959948
118.6546 887.12067 1793.8821 1380918
127.53146 875.10883 1769.5924 2170434
136.88603 867.95099 1755.1183 2630726
147.13919 867.09912 1753.3956 2893896
156.64394 862.23987 1743.5696 1643831
166.83145 861.50775 1742.0891 1709625
178.27644 866.97607 1753.1469 722987
190.14664 873.79633 1766.9384 1183795
199.52916 869.06958 1757.3802 1183791
209.8019 868.49664 1756.2217 2104377
223.10541 879.93146 1779.3444 2038838
235.17561 885.68958 1790.9883 3091527
245.97652 886.37683 1792.3778 2893892
254.96065 880.7312 1780.9617 2959175
261.00629 865.78699 1750.7424 2696259
264.27078 843.1123 1704.891 6578047
279.94797 860.24994 1739.5457 3024966
296.40057 878.46881 1776.3868 2564153
302.25543 865.10571 1749.3647 1314339
317.19098 877.75751 1774.9485 2433072
326.88055 875.54602 1770.4766 2367019
337.51437 875.92267 1771.2382 1248538
