# .PCD v0.7 - Point Cloud Data file format
VERSION 0.7
FIELDS x y z rgb
SIZE 4 4 4 4
TYPE F F F U
COUNT 1 1 1 1
WIDTH 1291
HEIGHT 1
VIEWPOINT 0 0 0 1 0 0 0
POINTS 1291
DATA ascii
-67.678329 829.0188 1957.8424 3352859
-56.225258 831.17169 1962.9268 3418911
-44.636929 831.92651 1964.7092 3484962
-33.243294 838.12213 1979.3411 2169359
-21.386272 833.0213 1967.2947 3156255
-9.6754284 828.21527 1955.9446 1708812
1.9262376 834.36951 1970.4788 2761497
13.561346 832.01038 1964.9073 2892570
24.932917 823.13013 1943.9354 2234640
36.406223 822.15894 1941.6418 2497554
48.060856 824.76581 1947.7982 2234382
59.633671 825.23102 1948.8969 2366481
71.24176 825.95422 1950.605 2498067
82.89817 826.95764 1952.9746 2235411
94.236275 824.92889 1948.1833 1841171
103.01617 803.39209 1897.3214 1447443
113.82758 800.37738 1890.2017 987155
123.71378 791.97974 1870.3694 7
134.87854 792.47479 1871.5386 8
146.06992 793.03931 1872.8717 7
157.15509 792.98804 1872.7507 329223
168.3701 793.55554 1874.0909 2039581
182.96793 809.01031 1910.5895 1643792
197.46111 822.22852 1941.8062 1906706
208.18018 819.1413 1934.5151 1182467
218.98227 816.68567 1928.7161 1576709
228.8844 811.28381 1915.9587 2169362
245.1219 827.78723 1954.9337 1643018
258.78671 834.50537 1970.7996 1643018
269.40451 831.24188 1963.0925 2169362
282.94733 836.90015 1976.4553 1774604
292.15784 829.80396 1959.6965 1248003
304.35358 831.40491 1963.4774 722176
317.28812 834.83179 1971.5706 1050882
330.21179 837.98779 1979.0239 2104082
344.40665 844.04272 1993.3235 2959647
353.47321 837.54492 1977.9779 2170391
363.95468 834.70905 1971.2805 3552045
380.79361 846.17657 1998.3628 4078135
399.13223 860.18481 2031.4451 262914
410.56662 858.92865 2028.4786 3354671
423.60602 861.00647 2033.3857 9671308
428.41339 846.69983 1999.5986 13092802
439.461 845.16431 1995.9722 328708
452.95163 848.28442 2003.3407 1644052
464.48859 847.67987 2001.913 2170138
476.40604 847.78253 2002.1554 1183500
484.10574 840.55682 1985.0908 394497
495.22815 839.47583 1982.538 65536
508.87469 842.62445 1989.974 3618354
518.8631 839.71039 1983.092 1184012
529.33228 837.68616 1978.3114 2762015
541.02576 837.64502 1978.2145 6643546
553.18921 838.31799 1979.8037 460034
562.7149 835.04865 1972.0828 327680
572.39642 832.13885 1965.2108 524800
582.40503 829.8111 1959.7135 1313801
595.2713 831.56641 1963.8588 590850
608.74963 834.09302 1969.8258 328193
618.92426 832.08301 1965.0789 1905938
631.50848 833.32697 1968.0166 1445130
641.19879 830.77618 1961.9927 1050373
654.21442 832.54797 1966.177 1774862
656.93347 821.38385 1939.8113 3221795
661.6756 813.08948 1920.223 3221792
679.2226 820.54468 1937.8295 2761239
686.45264 815.49554 1925.9054 3024153
699.58264 817.5061 1930.6536 3287067
714.89624 821.96259 1941.1781 3221275
725.70691 821.18262 1939.3361 2497551
740.62494 825.0022 1948.3566 4010790
743.45209 815.44287 1925.7809 2827028
756.29388 816.99097 1929.4369 2498064
778.09174 828.02362 1955.4922 3288093
788.87396 827.18219 1953.5049 3222299
810.38007 837.44702 1977.7468 3419679
818.46295 833.74542 1969.0049 4012073
822.43079 826.01495 1950.7483 5788229
837.27661 829.27271 1958.4419 1183497
849.18054 829.56738 1959.1378 2762526
862.77045 831.47888 1963.6521 5262660
877.15955 834.09961 1969.8413 4800825
887.57166 832.91937 1967.0541 2695708
894.29779 828.35547 1956.2759 1444357
904.3125 826.91565 1952.8754 2103053
912.13184 823.52991 1944.8795 3089948
906.51947 808.25293 1908.8009 1709326
929.02765 818.11584 1932.0935 1248261
934.96002 813.31946 1920.7661 1973012
940.40369 808.21838 1908.7194 1513232
952.55756 808.93701 1910.4163 3026214
963.05646 808.24976 1908.7933 1315341
973.98749 807.93701 1908.0547 657668
987.617 809.84412 1912.5586 1775635
998.53632 809.5108 1911.7715 1709838
995.56342 798.04901 1884.7028 1906189
998.16675 791.26172 1868.6736 2695704
1007.4804 789.88428 1865.4208 3287583
1021.3627 792.0799 1870.606 787200
1041.6292 799.12622 1887.2468 1247489
1049.8318 796.86584 1881.9086 1905418
1071.7228 804.9339 1900.9625 1181954
1088.2463 808.84473 1910.1985 1379330
1100.7174 809.69409 1912.2043 1642502
1116.9612 813.27313 1920.6567 1840138
1123.8682 810.05017 1913.0453 2234895
1140.0615 813.51825 1921.2356 2037003
1158.4581 818.47424 1932.9399 1511174
1172.6219 820.37207 1937.4219 1576964
1180.2257 817.68811 1931.0833 3155995
1190.9174 817.17456 1929.8704 2103307
1197.7257 814.03143 1922.4475 1642758
1197.8578 806.4527 1904.5494 2958618
1220.6217 814.11005 1922.6332 1576710
1228.5874 811.84729 1917.2893 2037004
1237.6387 810.33667 1913.7218 1576709
1250.6895 811.4483 1916.347 1379843
1278.4335 821.98724 1941.2362 2761238
1270.2864 809.46722 1911.6686 2761237
1280.236 808.59839 1909.6167 3617061
1284.928 804.45325 1899.8274 1182466
1301.5808 807.80334 1907.739 1511434
1321.5973 813.16528 1920.4021 1051142
1342.4122 818.92291 1933.9994 656898
1359.0985 822.08563 1941.4688 196864
1371.1014 822.38629 1942.1787 1314317
1383.9171 823.16541 1944.0187 196608
1403.4294 827.8819 1955.1573 196608
1408.5217 824.08447 1946.1893 1051398
1412.7505 819.84766 1936.1835 853763
1413.7073 813.79559 1921.8905 1839630
1414.6862 807.85278 1907.8557 1445126
1424.2919 806.89148 1905.5854 2037262
1436.5044 807.41046 1906.8113 2629658
1437.0175 801.39685 1892.6091 590849
1445.4492 799.85822 1888.9756 918784
1451.965 797.29108 1882.913 590080
1470.6903 801.41644 1892.6556 1313798
1476.5813 798.53857 1885.859 853504
1483.1553 796.0705 1880.0304 590080
1492.8795 795.31757 1878.2521 721408
1497.1121 791.67157 1869.6417 1444614
1518.421 797.04291 1882.3269 1642249
1527.887 796.16473 1880.2528 1642505
1532.4647 792.77045 1872.2368 1774090
1541.0022 791.45868 1869.1389 1840140
1553.1691 792.0163 1870.4558 2498072
1552.5299 786.08215 1856.4415 2432536
1559.3223 783.96777 1851.4481 2630431
1588.7888 793.203 1873.2583 3683890
1613.4386 799.92188 1889.126 4408643
1617.6346 796.47748 1880.9915 6317411
1619.9963 792.18329 1870.8501 6515563
1629.9353 791.62744 1869.5375 6844274
1634.9373 788.69751 1862.6179 6449773
1632.699 782.33759 1847.5983 6910324
1664.3942 792.21393 1870.9225 5331292
1704.5063 805.93939 1903.3372 6778738
1720.2853 808.05463 1908.3326 6844531
1735.6237 809.93671 1912.7772 6976117
1708.0422 791.89539 1870.1703 7042167
1732.9738 798.27625 1885.2395 6976117
1752.7927 802.23547 1894.5897 6844531
1769.4468 804.70496 1900.4219 6976117
1779.887 804.33508 1899.5483 6976374
1803.5072 809.88867 1912.6638 7173496
1835.7815 819.2348 1934.736 7107703
1842.5393 817.14862 1929.8092 7107703
0 0 0 0
0 0 0 0
0 0 0 0
0 0 0 0
0 0 0 0
0 0 0 0
0 0 0 0
0 0 0 0
0 0 0 0
0 0 0 0
-1839.2886 901.69928 2100.105 2039056
-1827.3611 901.953 2100.6958 3354916
-1814.0029 901.49915 2099.6389 2762779
-1791.1064 896.26617 2087.4509 4012846
-1754.407 884.00525 2058.8948 3881260
-1744.8582 885.34912 2062.0247 3485988
-1731.7349 884.8855 2060.9448 4407090
-1723.4093 886.88416 2065.5999 3881001
-1719.4487 891.17395 2075.5908 3947310
-1706.6289 890.90051 2074.9541 3157537
-1688.0312 887.58527 2067.2327 2499097
-1647.3715 872.53625 2032.1826 65536
-1624.5819 866.80023 2018.8232 459520
-1615.2476 868.21155 2022.1104 327936
-1606.244 869.82312 2025.8636 1643277
-1604.9945 875.68951 2039.5269 2762014
-1603.9384 881.75116 2053.6448 2630683
-1588.0936 879.71356 2048.8989 2301975
-1561.4915 871.63953 2030.0942 2696732
-1556.2874 875.4776 2039.0333 2367767
-1541.488 873.93573 2035.4421 1841169
-1527.1541 872.6355 2032.4138 2630428
-1518.8973 874.81476 2037.4895 1183754
-1512.949 878.36908 2045.7677 1972755
-1489.734 871.87543 2030.6436 262656
-1474.6407 870.06799 2026.4341 1577997
-1467.3751 872.88733 2033.0005 1512720
-1455.536 873.01019 2033.2866 328963
-1446.9915 875.12762 2038.2181 2367511
-1420.8809 866.5675 2018.2812 2894366
-1413.5164 869.39197 2024.8596 3684138
-1400.8298 868.96356 2023.8617 3420450
-1382.5616 865.03534 2014.7126 2696727
-1381.1917 871.70349 2030.2433 3222044
-1364.9431 869.01611 2023.9843 3024921
-1356.3231 871.18109 2029.0265 2103820
-1340.8057 868.91486 2023.7483 1906441
-1328.8633 868.94543 2023.8195 2432785
-1312.7028 866.19318 2017.4094 2630164
-1298.0436 864.39014 2013.2101 2630164
-1285.4457 863.93909 2012.1595 2564371
-1271.1887 862.354 2008.4678 2630164
-1266.1393 867.04431 2019.3916 2301199
-1269.1373 877.38751 2043.4816 1774854
-1256.6782 877.14105 2042.9076 2038029
-1236.6464 871.55273 2029.8921 1446663
-1232.5067 877.1651 2042.9635 393984
-1224.9789 880.45343 2050.6223 2499354
-1207.7921 876.79584 2042.1035 2368026
-1207.1758 885.21521 2061.7126 1117705
-1188.1862 880.19592 2050.0225 1446668
-1179.9779 883.14215 2056.8845 1117959
-1164.8059 880.88367 2051.6243 2565404
-1149.91 878.78845 2046.7444 2631454
-1133.0745 875.15051 2038.2714 1316109
-1122.8995 876.63397 2041.7266 263424
-1101.4866 869.28088 2024.6007 329216
-1088.6998 868.64856 2023.1281 1512978
-1075.4897 867.66052 2020.8269 3223593
-1064.4689 868.43628 2022.6338 1184012
-1050.2515 866.59229 2018.3389 3025700
-1039.5094 867.60638 2020.7007 591878
-1021.8116 862.771 2009.439 2302229
-1008.163 861.28088 2005.9684 2762522
-991.62085 857.25378 1996.5891 4407090
-982.47644 859.60199 2002.0582 4341809
-972.69067 861.43951 2006.3379 3157278
-955.7171 856.87811 1995.7141 3091485
-941.75909 854.94 1991.2001 2366991
-918.52924 844.42883 1966.7191 2366735
-907.03766 844.57751 1967.0653 2629394
-894.52985 843.77155 1965.1881 2630164
-882.79462 843.68268 1964.9812 3024924
-888.26624 860.25568 2003.5807 1971980
-865.44543 849.50616 1978.5444 1511685
-855.19208 850.96686 1981.9465 1248515
-849.94006 857.51428 1997.1957 2761497
-833.74091 853.04584 1986.7885 459264
-812.09125 842.79285 1962.9088 2498580
-809.33148 852.1308 1984.6575 2235408
-787.62903 841.50562 1959.9108 2827544
-784.20184 850.38013 1980.5798 3222303
-767.99744 845.45807 1969.1162 2432531
-751.30927 839.84351 1956.0397 2827032
-738.53314 838.49463 1952.8979 2629652
-727.99811 839.68768 1955.6768 2234895
-716.64734 839.9632 1956.3184 1840137
-696.52222 829.79462 1932.6351 2234894
-684.81476 829.48193 1931.907 1905930
-679.34271 836.83984 1949.0438 1642758
-668.54962 837.784 1951.2429 1906443
-654.52075 834.63519 1943.9092 2103563
-643.35046 835.08411 1944.9548 2498322
-628.83307 831.12561 1935.7352 2169100
-620.12402 834.83954 1944.3851 1445378
-609.10529 835.52576 1945.9833 1314050
-597.64117 835.6156 1946.1927 1116418
-584.68915 833.58789 1941.4698 1708552
-571.98383 831.83734 1937.3929 1905677
-560.22119 831.41431 1936.4076 1708294
-543.79254 823.90405 1918.9158 1511175
-533.07208 824.90619 1921.2499 1247746
-520.55206 823.10663 1917.0585 1773832
-507.35046 820.12506 1910.1143 1839880
-495.25388 818.83435 1907.1082 1708038
-486.43271 823.02527 1916.869 1971210
-475.44553 823.66425 1918.3572 1773831
-465.97687 827.02942 1926.1949 2168588
-452.40466 823.09772 1917.038 1576450
-439.66699 820.52106 1911.0366 2037001
-429.41998 822.57916 1915.8301 2300173
-417.06836 820.60797 1911.239 1905416
-405.88086 820.88123 1911.8756 2694676
-394.91974 821.64124 1913.6456 1116160
-384.5448 823.70166 1918.4445 1313794
-374.42291 826.44623 1924.8365 656128
-363.07507 826.5722 1925.13 1313796
-352.93097 829.53552 1932.0319 1577223
-341.96313 830.69666 1934.7361 1708809
-331.24301 832.56085 1939.0779 2300945
-315.2923 820.93982 1912.0121 3616806
-307.22687 829.74915 1932.5293 2695703
-298.34488 836.94971 1949.2998 1380359
-287.11481 837.87775 1951.4613 919811
-274.36099 834.25049 1943.0131 328192
-260.86295 827.9433 1928.3235 1248776
-248.62033 825.22565 1921.9938 919812
-240.74632 837.44336 1950.4495 1511948
-229.56039 838.7915 1953.5895 2761758
-216.95125 834.80652 1944.3082 1577741
-205.72186 835.98138 1947.0446 1643534
-194.4025 836.90857 1949.204 1841169
-180.49834 826.1225 1924.0826 1841168
-167.88986 820.21228 1910.3174 1511689
-157.36205 824.34717 1919.948 2169363
-145.96361 824.21039 1919.6293 2103311
-132.95139 814.16791 1896.2399 2498067
-120.93105 808.90656 1883.9857 3155225
-110.06972 811.11597 1889.1317 2431502
-99.781639 818.52814 1906.3949 2365452
-87.993607 813.9574 1895.7495 2431245
-76.440376 810.539 1887.788 1839623
-65.715263 816.23468 1901.0536 3353376
-54.956242 823.77838 1918.6232 3419168
-43.859505 828.87378 1930.4905 2892825
-32.501144 830.87549 1935.1527 2958618
-21.118109 834.08447 1942.6266 2827290
-9.629859 835.84741 1946.7325 2695704
1.8915693 830.81598 1935.0142 1840394
13.473557 838.18951 1952.1874 2037262
24.919233 834.18848 1942.8687 1708298
36.166222 828.16583 1928.8418 1708297
47.5956 828.20917 1928.9425 2037260
58.975891 827.54675 1927.3999 2168846
69.977562 822.64832 1915.9911 1379331
81.617828 825.57666 1922.8114 3353377
93.104538 826.42468 1924.7865 2958618
105.19495 831.86163 1937.4495 3024668
115.06138 820.37213 1910.6897 2433821
125.19545 812.67816 1892.77 1447702
134.77351 802.93646 1870.0813 5
146.05603 804.05811 1872.6935 5
157.73474 807.04846 1879.6582 1315860
168.03609 803.06183 1870.3732 2302236
181.12068 812.04712 1891.3003 2235668
194.24992 820.17377 1910.2278 2367256
207.13602 826.43579 1924.8123 2827549
218.15225 824.97314 1921.4056 1642761
231.12903 830.70184 1934.7482 1511431
243.3873 833.42896 1941.0997 1511432
254.36423 831.72015 1937.1199 2300947
265.31912 830.08997 1933.3232 2366741
278.12085 834.13373 1942.7412 1774603
289.37173 833.38971 1941.0084 853763
301.21643 834.34729 1943.2386 919297
313.01334 835.10699 1945.0079 1972497
326.12219 839.1886 1954.5143 788481
337.78574 839.39868 1955.0037 2827805
349.84485 840.54523 1957.6741 2959394
364.17212 846.89294 1972.4581 1907477
379.11206 854.2265 1989.5383 3946804
393.8988 860.78284 2004.8085 1577745
404.53992 858.16132 1998.7028 2038295
414.82797 854.96118 1991.2495 591622
424.75037 851.20526 1982.5016 5591372
432.64685 843.70074 1965.0232 2235674
443.75027 842.67932 1962.6445 1578001
459.30814 849.95319 1979.5856 657415
467.77603 844.07135 1965.8866 591363
480.46515 845.90729 1970.1625 591877
492.49152 846.51697 1971.5824 1052684
500.31561 840.0426 1956.5033 2893605
512.35406 840.77722 1958.2144 1577999
524.09534 841.00244 1958.7389 854021
533.08606 836.89978 1949.1836 262400
544.10663 836.09033 1947.2982 262144
556.34802 837.15137 1949.7695 196608
570.06244 840.34064 1957.1976 590595
580.42426 838.5592 1953.0485 196864
591.39209 837.70587 1951.0609 986120
605.22205 840.86163 1958.4109 2038038
616.57233 840.51837 1957.6115 1248522
626.3006 838.01752 1951.7867 526085
635.38318 834.75903 1944.1975 393729
646.7417 834.55334 1943.7185 327936
653.73492 828.82056 1930.3666 721921
664.09052 827.47437 1927.2312 1643018
676.07056 828.1637 1928.8367 1313795
686.76611 827.28271 1926.7849 1839881
695.86273 824.53595 1920.3876 2761496
705.06342 821.99896 1914.4788 1774088
719.23682 825.24786 1922.0457 1642502
725.82678 819.83008 1909.4272 1971210
739.34656 822.28558 1915.1462 1708292
755.25696 827.28552 1926.7915 1511430
763.56714 823.93555 1918.9891 2432530
775.26782 824.28876 1919.8118 2300687
784.55029 822.09766 1914.7086 2497808
800.58716 826.94598 1926.0006 2037256
804.12744 818.93127 1907.334 2564112
821.27875 824.80829 1921.0217 4274729
833.73694 825.87567 1923.5078 3287835
850.7984 831.41278 1936.4039 4011303
871.03455 839.86359 1956.0863 3023899
875.28259 832.87903 1939.8188 5063482
876.80939 823.51947 1918.02 1839882
889.41791 824.6745 1920.7102 2169104
893.9126 818.37225 1906.032 3089693
896.40979 810.42126 1887.5137 3288096
912.44672 814.75641 1897.6105 2432788
915.88434 807.8725 1881.5775 3157286
937.414 816.92072 1902.6512 2762527
931.6167 802.22235 1868.418 3815472
942.81128 802.32928 1868.667 1183497
966.6687 813.08472 1893.7169 1972756
974.79669 810.51477 1887.7316 2762267
977.56927 803.60083 1871.6285 2827544
985.70856 801.2041 1866.0465 2630164
995.0401 799.81885 1862.8201 3353374
995.3241 791.2713 1842.9124 2037001
1007.8856 792.56384 1845.9229 2300172
1027.6973 799.46869 1862.0046 1641987
1044.6229 804.00555 1872.5712 1905674
1053.8284 802.56769 1869.2224 918784
1073.8768 809.3316 1884.9757 1379334
1087.4061 811.09357 1889.0795 1050368
1100.7502 812.68304 1892.7815 1971725
1104.0167 806.87506 1879.2544 1971468
1122.2389 812.00433 1891.2008 1181955
1119.4363 801.97003 1867.8302 2169359
1143.5842 811.25067 1889.4454 2300688
1146.458 805.40588 1875.8326 2432274
1162.3325 808.71899 1883.549 2234636
1176.6638 810.9054 1888.6414 2432272
1188.4758 811.33093 1889.6324 3419170
1205.9387 815.57019 1899.5057 1511173
1222.6476 819.22571 1908.0197 1576965
1237.0435 821.27875 1912.8013 1708296
1242.6934 817.54071 1904.0952 1839881
1254.9376 818.16925 1905.5591 2103054
1254.519 810.60437 1887.9402 2234896
1257.2589 805.19604 1875.3439 2168847
1267.8845 804.88855 1874.6277 2365970
1276.4574 803.29462 1870.9154 1314053
1301.4886 811.99646 1891.1824 1182984
1315.5717 813.77747 1895.3304 1117193
1336.8459 819.93909 1909.6812 919814
1355.537 824.42596 1920.1315 1644049
1382.0446 833.5528 1941.3882 131072
1386.4419 829.30365 1931.4917 459520
1398.6353 829.74896 1932.5289 327680
1398.9271 823.18384 1917.2383 524800
1405.4938 820.38702 1910.7245 2432021
1414.4437 819.01495 1907.5288 2234642
1408.8486 809.3092 1884.9237 3221020
1423.2356 811.14453 1889.1982 920069
1433.2582 810.48328 1887.6581 2629399
1427.1123 800.76001 1865.0121 1050368
1440.7604 802.20728 1868.3828 721408
1460.7826 807.15442 1879.9052 2432020
1464.6021 803.14178 1870.5594 2563608
1476.8693 803.78705 1872.0623 787200
1478.3962 798.62085 1860.03 1181958
1483.1876 795.28156 1852.2524 1510921
1494.1825 795.29315 1852.2794 918784
1507.5547 796.56061 1855.2314 2037263
1510.3013 792.23602 1845.1594 2234129
1524.3391 793.85388 1848.9275 2103055
1534.3403 793.36163 1847.7809 2431251
1537.7152 789.47412 1838.7268 2431509
1539.2592 784.70801 1827.6262 2892062
1556.4178 787.91321 1835.0913 2168854
1560.4845 784.49225 1827.1237 1840917
1584.1907 790.92371 1842.1029 6316127
1591.2218 788.99884 1837.6198 6185058
1598.0333 786.99207 1832.9458 6054500
1625.6719 795.19989 1852.0624 6976116
1603.0499 778.87756 1814.0466 7370875
1589.1285 766.97174 1786.3175 5068120
1588.0586 761.38501 1773.3057 7370875
1648.2675 785.05847 1828.4424 7041910
1671.1967 790.78259 1841.774 7173496
1684.3901 791.85553 1844.2731 7173753
1698.4883 793.33728 1847.7241 7305082
1723.2467 799.74731 1862.6536 7239289
1749.0924 806.57727 1878.5609 6976374
1777.2881 814.39764 1896.7749 6976374
1766.7791 804.49567 1873.7126 7173496
1789.7683 809.87549 1886.2426 7042167
1810.5646 814.20233 1896.3201 7173496
0 0 0 0
0 0 0 0
0 0 0 0
0 0 0 0
0 0 0 0
0 0 0 0
0 0 0 0
0 0 0 0
0 0 0 0
0 0 0 0
0 0 0 0
-1784.6433 893.02228 2051.5884 4868153
-1769.7522 891.64337 2048.4204 4276016
-1749.6002 887.57648 2039.0774 4144430
-1711.5819 874.32629 2008.6371 4012844
-1717.7429 883.61688 2029.9807 3946793
-1700.0304 880.67114 2023.2133 4407341
-1704.825 889.42566 2043.3257 5526082
-1672.223 878.65576 2018.5834 5394496
-1673.8512 885.84631 2035.1025 3683882
-1651.4772 880.34625 2022.4669 1052163
-1626.7733 873.51495 2006.7729 525825
-1612.1765 872.04999 2003.4076 459776
-1601.8154 872.8714 2005.2947 1644045
-1598.4185 877.52863 2015.9938 2499608
-1572.438 869.7641 1998.156 3223076
-1584.5698 883.12286 2028.8458 3749675
-1571.4917 882.52826 2027.48 2565400
-1565.4973 885.93335 2035.3025 2828573
-1536.3401 876.18134 2012.8987 2499609
-1520.7451 874.07184 2008.0525 1972753
-1509.0947 874.21417 2008.3795 1512460
-1505.7753 879.22333 2019.8871 1907476
-1496.3367 880.711 2023.3051 2433564
-1478.5992 877.29883 2015.4659 2237211
-1460.4019 873.55597 2006.8672 1381645
-1445.0291 871.45496 2002.0406 3223846
-1429.5035 869.22644 1996.9209 3750191
-1423.4984 872.7981 2005.1262 3552042
-1410.4918 872.10071 2003.5242 4473398
-1395.5211 870.16693 1999.0815 3946541
-1375.8274 865.2298 1987.7391 2301971
-1346.7036 854.22583 1962.4591 3353889
-1356.2382 867.76514 1993.5636 2498579
-1348.7498 870.55469 1999.9723 2367251
-1330.3268 866.27344 1990.1366 2038029
-1319.4465 866.87109 1991.5098 2169615
-1313.8713 870.99652 2000.9873 1774857
-1302.347 871.21729 2001.4945 2235407
-1289.2242 870.36279 1999.5315 1511685
-1274.9904 868.73566 1995.7933 2169615
-1262.4677 868.25476 1994.6886 2038286
-1247.1508 865.82495 1989.1064 1906958
-1247.1085 874.05426 2008.0121 1775372
-1241.5585 878.54468 2018.3282 1907472
-1233.1964 881.11334 2024.2292 3025952
-1226.3065 884.79456 2032.6863 3157282
-1217.3192 887.02051 2037.8 3486506
-1207.2334 888.4826 2041.1589 1776401
-1186.6042 882.13617 2026.5791 1250057
-1178.8937 885.36194 2033.9897 1645073
-1149.5009 872.20264 2003.7583 2631712
-1154.1333 884.85541 2032.8262 855046
-1130.4554 875.841 2012.1168 460289
-1131.899 886.30524 2036.1569 657670
-1111.7777 879.92706 2021.504 1381389
-1092.0946 873.7608 2007.3378 1051913
-1082.7656 875.83392 2012.1005 920584
-1073.7057 878.17322 2017.4747 2433563
-1054.9194 872.52051 2004.4885 2367770
-1034.4869 865.36218 1988.0433 5065282
-1018.2023 861.54858 1979.2821 3815212
-1014.0919 868.06726 1994.2577 2762781
-1000.9711 866.93591 1991.6587 3288609
-984.90912 863.19965 1983.0752 3157024
-967.24054 857.9483 1971.0109 4077611
-955.05518 857.49158 1969.9617 2827543
-934.88281 849.76367 1952.2081 2630163
-926.36285 852.56653 1958.6471 2366221
-907.52094 845.82031 1943.1486 2497808
-897.98541 847.68567 1947.4341 2629650
-886.47272 847.70892 1947.4874 2761237
-874.73376 847.51361 1947.0388 2826773
-869.99945 854.19049 1962.3779 2038029
-852.65887 848.5033 1949.3125 2432787
-844.21008 851.62994 1956.4954 2169616
-834.03351 853.07635 1959.8184 1182466
-819.32977 849.86774 1952.447 2300949
-814.31982 856.76624 1968.2954 2695958
-799.1958 853.0694 1959.8025 2827801
-773.20746 837.49591 1924.0247 2629909
-761.72375 837.40204 1923.809 2300688
-754.65625 842.23413 1934.9099 3090204
-744.88025 844.14575 1939.3016 1905930
-728.16882 838.13446 1925.4916 2300688
-712.87128 833.58521 1915.0403 1971723
-703.71136 836.18176 1921.0056 1840393
-689.36664 832.60156 1912.7806 1445895
-676.50757 830.72614 1908.472 2629910
-666.25256 832.03888 1911.4879 2037772
-653.94843 830.79388 1908.6276 2629909
-644.16272 832.76068 1913.1462 2037514
-631.76654 831.36285 1909.9348 2169100
-623.13354 834.95636 1918.1904 1708292
-609.47632 831.82623 1910.9994 1708548
-601.18695 836.04248 1920.6855 1379586
-589.44373 835.52557 1919.498 2169358
-580.52063 839.06445 1927.6282 1642760
-564.40491 832.14087 1911.7222 1643015
-558.06049 839.63513 1928.9391 2695445
-539.40747 828.53662 1903.4419 2563859
-530.72333 832.60345 1912.7848 2300686
-514.43799 824.66266 1894.5421 2300432
-502.73215 823.8725 1892.7268 1971980
-489.62827 820.70294 1885.4453 2300688
-482.44305 827.53778 1901.1472 1971723
-472.86679 830.49988 1907.9523 2103309
-459.03146 825.9436 1897.4849 2168845
-447.85406 826.06122 1897.755 852992
-435.21329 823.41614 1891.6783 1839879
-422.94379 821.35223 1886.9369 1971720
-411.26019 820.34509 1884.623 1511172
-402.00702 824.26489 1893.6282 1379331
-392.04626 826.9173 1899.7217 655616
-382.05344 829.6568 1906.0154 853504
-372.63464 833.84772 1915.6434 1248773
-360.31317 831.6026 1910.4856 1249030
-349.26855 832.25446 1911.983 1051910
-339.6366 836.42889 1921.5732 2301718
-328.51627 837.1004 1923.1158 591618
-315.12769 831.83252 1911.0139 2235925
-303.15094 830.0379 1906.8909 1577996
-293.60123 835.00671 1918.3062 1644047
-283.90891 839.95386 1929.6714 1578256
-271.48856 836.90668 1922.6708 1249291
-260.0018 836.59625 1921.9579 1775635
-247.84831 834.01416 1916.0256 3552044
-236.53441 834.14484 1916.3259 1644047
-226.6515 839.5896 1928.8345 2104599
-214.35277 836.18823 1921.0205 3025699
-203.41118 837.99683 1925.1753 1512461
-191.12016 834.13062 1916.2933 2564634
-179.12582 831.15265 1909.4519 2367256
-166.09074 822.61871 1889.8464 1117189
-153.59256 815.70233 1873.957 722433
-142.32355 814.74487 1871.7574 918784
-131.14404 814.18121 1870.4624 1510661
-119.51997 810.49878 1862.0026 1576454
-108.26354 808.81409 1858.1323 1904646
-97.732979 812.78448 1867.2538 2036487
-86.56205 811.76343 1864.9078 2365451
-75.623657 812.94305 1867.618 2497295
-64.508896 812.3064 1866.1553 2431759
-53.699268 816.04309 1874.7399 2958361
-43.130154 826.33673 1898.3881 2498068
-31.946104 827.95465 1902.1051 1181954
-20.735132 830.2583 1907.3971 1511174
-9.4667616 833.0285 1913.7614 3156000
1.8928652 842.85663 1936.34 3157283
13.227468 834.23438 1916.5316 1971983
24.601374 834.91101 1918.0862 2695706
35.95594 834.71118 1917.627 1445383
47.297291 834.37415 1916.8528 1445126
58.610031 833.76062 1915.4432 1576969
69.570038 829.14221 1904.8331 2103055
81.015343 830.78949 1908.6177 2235153
92.386963 831.3703 1909.9518 2037774
103.50362 829.78033 1906.2992 2498581
114.64761 828.70074 1903.819 2696734
125.59763 826.53796 1898.8502 2762788
134.53416 812.56976 1866.7603 65536
145.2926 810.8916 1862.905 65536
157.18042 815.30859 1873.0525 855307
168.44829 816.13947 1874.9612 2170392
179.81711 817.32642 1877.6881 2103827
192.34435 823.33362 1891.4888 1906188
204.93738 828.94562 1904.3815 2432019
215.72908 827.06586 1900.0631 1248004
226.75276 826.21796 1898.1151 787712
239.11958 830.11298 1907.0632 1314054
251.79288 834.67218 1917.5376 1248520
262.49487 832.58551 1912.7435 1709584
274.02377 833.18549 1914.1221 1314569
286.85895 837.552 1924.1534 722434
297.57098 835.6225 1919.7207 196608
308.73492 835.05743 1918.4226 459264
320.82574 836.9505 1922.7716 2301464
333.41287 839.96399 1929.6947 3222820
346.90259 844.97626 1941.2096 2762269
357.55533 842.97845 1936.6199 2762270
373.51401 853.22522 1960.1603 2499098
384.73587 852.35992 1958.1724 2104087
398.68073 857.40131 1969.7543 2038295
405.47641 847.2182 1946.3601 131072
417.69836 848.62262 1949.5867 657157
431.34152 852.76129 1959.0946 1709587
444.44147 855.63721 1965.7015 2433565
453.33267 850.47052 1953.8318 2170394
463.37891 847.67401 1947.4072 1907222
474.67477 847.24377 1946.4189 2236443
480.25064 836.86646 1922.5786 1249035
500.36432 851.71631 1956.6938 1973013
506.92599 843.34778 1937.4684 1446669
516.3855 840.06396 1929.9244 1182985
527.59698 839.71106 1929.1135 788484
540.49396 841.99854 1934.3688 196608
553.16394 843.84491 1938.6106 3157031
566.27942 846.28204 1944.2094 3090982
574.9671 842.13666 1934.686 1709330
586.03314 841.56873 1933.3812 1577742
601.54004 847.27747 1946.4963 1643278
611.42627 845.00378 1941.2728 1643535
622.18854 844.00232 1938.972 3288616
633.36548 843.58948 1938.0237 2433307
640.31232 837.65747 1924.3958 2301465
654.00336 840.60144 1931.1591 2959650
659.49823 833.0907 1913.9043 525828
668.42938 830.1012 1907.0364 327680
678.12616 828.14612 1902.5447 2037263
688.41229 826.96295 1899.8265 2300432
698.0116 825.00592 1895.3307 2037515
709.79944 825.65674 1896.8258 1708808
716.32391 820.26019 1884.4281 1313282
726.33575 818.96143 1881.4442 2235150
735.64661 816.9234 1876.7622 1642758
746.70868 816.86176 1876.6206 1182210
759.70447 818.88629 1881.2717 1379587
781.6416 830.35095 1907.61 854272
788.85675 826.07214 1897.7803 2827542
787.16974 812.72247 1867.1113 2629389
811.94263 826.68317 1899.1838 3353113
816.00867 819.46759 1882.6071 3221270
836.41162 828.63153 1903.6599 3615515
842.94232 823.99127 1892.9996 2957843
865.11725 834.56451 1917.2902 2825745
869.35468 827.784 1901.7129 2365198
866.25903 814.28387 1870.6984 2892310
875.62183 812.68787 1867.0316 3352860
880.55865 807.07501 1854.137 3221531
891.30835 806.86261 1853.6489 3550752
899.51721 804.38318 1847.953 3617318
909.82214 803.81543 1846.6484 2696217
923.38501 806.1051 1851.9088 2828062
937.59351 808.89813 1858.3253 5592139
945.78839 806.49835 1852.8123 3750189
948.37744 799.42822 1836.5696 4012587
962.4245 802.06738 1842.6327 3090713
967.55481 797.29968 1831.6796 3090454
971.69788 791.83319 1819.1211 3155479
987.90057 796.20612 1829.1672 2234121
996.59528 794.49872 1825.2448 2497039
1006.5803 793.84558 1823.7443 1905415
1018.479 794.69952 1825.7062 1379586
1045.1135 806.91278 1853.7643 1642502
1064.073 813.00793 1867.767 2103309
1071.2528 810.07001 1861.0176 2234895
1084.9619 812.07898 1865.6328 1511172
1095.1422 811.43274 1864.1482 1510918
1110.6626 814.71655 1871.6924 1576454
1122.9283 815.57178 1873.6571 2234894
1124.5342 808.74371 1857.9706 1708809
1139.1716 811.32947 1863.9109 919040
1149.0636 810.51794 1862.0466 1971721
1160.1625 810.56525 1862.1553 2432014
1174.8645 813.10535 1867.9908 2498062
1190.1348 815.98767 1874.6124 2366476
1198.9722 814.4469 1871.0728 2695699
1214.6322 817.52637 1878.1475 2432273
1220.7102 814.15918 1870.4119 1839626
1230.7249 813.45459 1868.7931 1642504
1239.3744 811.86829 1865.1488 1445640
1246.2545 809.16119 1858.9297 1511432
1256.943 808.95245 1858.4502 2235155
1256.3987 801.58093 1841.5151 1117188
1277.3063 807.90466 1856.0431 722434
1291.259 809.75928 1860.3036 1051397
1314.3892 817.2887 1877.6014 1117192
1345.8772 829.84528 1906.4484 2564638
1357.9855 830.34308 1907.5919 1643537
1368.2936 829.74091 1906.2087 1577743
1375.1991 827.10223 1900.1467 1643020
1386.037 826.85229 1899.5724 2695705
1368.5687 809.85608 1860.526 2563605
1380.8949 810.62158 1862.2847 2103053
1387.0864 807.80225 1855.8077 3484449
1406.2987 812.55048 1866.7162 853505
1415.6617 811.57837 1864.4828 2563602
1419.2352 807.32782 1854.7179 2366481
1418.6409 800.78998 1839.6981 2168589
1429.4664 800.74908 1839.604 3024411
1443.4208 802.448 1843.5072 1971724
1466.4785 809.14441 1858.8911 1839882
1473.8706 807.16168 1854.3361 2037005
1467.3368 797.63818 1832.4574 2629400
1477.3629 797.19055 1831.4288 2037263
1481.2362 793.45337 1822.8434 2563605
1491.4496 793.14197 1822.1279 1905676
1499.7644 791.8327 1819.12 2958106
1514.8407 794.08655 1824.2979 2629654
1514.6366 788.35504 1811.1305 4274222
1502.0961 776.32831 1783.501 2892569
1523.3976 781.83807 1796.1588 2761755
1545.3468 787.60156 1809.3995 3288100
1562.0219 790.61603 1816.325 2762017
1574.5477 791.50348 1818.3638 3617585
1582.4329 790.06195 1815.052 3881018
1595.3085 791.11469 1817.4706 5263441
1574.3711 775.49786 1781.5931 6053985
1580.6722 773.41669 1776.8119 5857123
1591.4565 773.54205 1777.1 6975860
1610.2023 777.51019 1786.2161 7173496
1633.5824 783.6496 1800.3207 7107448
1651.1215 786.92554 1807.8466 7305082
1663.2285 787.5871 1809.3663 7107703
1697.144 798.50092 1834.4392 7436668
1708.9182 798.92474 1835.413 7370875
1723.8215 800.79681 1839.7137 7173496
1738.141 802.37579 1843.3413 7107703
1759.5474 807.18628 1854.3926 7041910
1774.2445 808.87823 1858.2797 7107703
0 0 0 0
0 0 0 0
0 0 0 0
0 0 0 0
0 0 0 0
0 0 0 0
0 0 0 0
0 0 0 0
0 0 0 0
0 0 0 0
0 0 0 0
-1750.4825 887.84998 2012.318 2499606
-1739.1986 888.17554 2013.0558 2631448
-1711.3984 880.01282 1994.5549 4341809
-1697.1768 878.76733 1991.7321 3025949
-1686.9651 879.59515 1993.6083 3223071
-1668.0176 875.84772 1985.1147 4538931
-1660.8231 878.26208 1990.587 4604723
-1646.0592 876.67969 1987.0005 4670516
-1649.7607 884.97992 2005.8129 4078893
-1635.6251 883.76263 2003.0541 2039058
-1619.3167 881.34509 1997.5746 1446663
-1606.189 880.63586 1995.967 2894365
-1598.8517 883.11432 2001.5845 3552295
-1586.4609 882.81781 2000.9125 1644298
-1572.1127 881.41913 1997.7426 2696986
-1567.0931 885.26947 2006.4691 2828315
-1552.5184 883.73944 2003.0013 2828059
-1535.2301 880.62909 1995.9519 3354404
-1506.1348 870.64551 1973.3239 1906959
-1502.6694 875.43738 1984.1846 1709581
-1489.9773 874.88684 1982.937 2104338
-1484.2809 878.46814 1991.0541 2038545
-1466.9344 875.15649 1983.5482 3420452
-1450.2683 872.2005 1976.8483 3749161
-1442.2864 874.46161 1981.9731 3749674
-1414.8544 864.87036 1960.2346 3289380
-1413.6101 871.26099 1974.7189 3025952
-1412.0847 877.5835 1989.0488 3288868
-1397.6134 875.89905 1985.2311 4407348
-1389.49 878.19812 1990.4419 3420196
-1364.1278 869.54785 1970.8361 3091230
-1344.3081 864.31165 1958.9683 3091231
-1332.0869 863.91235 1958.0631 1840650
-1315.0597 860.36169 1950.0155 2630166
-1311.7992 865.83453 1962.4198 1577224
-1309.1224 871.79407 1975.9271 1774602
-1299.1357 872.94916 1978.5453 1906443
-1283.6373 870.38806 1972.7405 1445893
-1266.8026 866.86554 1964.7567 2235409
-1254.5258 866.42548 1963.7593 1643529
-1242.8657 866.40717 1963.7177 2170130
-1233.9885 868.34668 1968.1136 2039057
-1229.6879 873.57458 1979.9625 1775885
-1215.9922 872.16461 1976.7668 1578506
-1212.6879 878.25256 1990.5654 1118726
-1204.4078 880.82147 1996.3877 2040084
-1181.8158 872.87061 1978.3671 7435879
-1176.7743 877.85278 1989.6593 3948851
-1164.4187 877.42456 1988.6887 2632478
-1164.9264 886.77948 2009.8917 3487020
-1147.5436 882.56812 2000.3466 2170903
-1135.312 882.27185 1999.6752 3618088
-1124.3629 882.97675 2001.2727 3815981
-1115.718 885.52527 2007.0491 3223845
-1093.3723 877.13763 1988.0383 2630936
-1071.6802 869.09711 1969.8146 1775886
-1068.2698 875.8689 1985.1628 1973264
-1049.5271 870.08063 1972.0436 2039056
-1043.9004 875.15771 1983.5509 3618089
-1024.5411 868.70679 1968.9297 6250831
-1009.4015 865.72614 1962.1742 7105368
-981.51514 851.61633 1930.1942 4736309
-976.3313 857.104 1942.6321 3025435
-965.89355 858.0553 1944.7882 2103820
-950.54199 854.61163 1936.9832 2235150
-931.49414 847.71991 1921.363 3484704
-917.49609 845.31036 1915.9016 2235149
-915.71124 854.23352 1936.1261 1971721
-896.32129 846.75159 1919.1682 2300943
-886.84851 848.56653 1923.2817 2629651
-874.35339 847.49927 1920.8628 2300942
-862.30457 846.84192 1919.373 2366991
-849.49017 845.40533 1916.1169 3222044
-836.05383 843.30249 1911.3507 2235406
-838.27887 857.15582 1942.7494 3025181
-825.69336 856.04016 1940.2207 2432530
-814.01306 855.84448 1939.7772 3616549
-802.4422 855.76013 1939.5861 2958619
-781.40106 845.427 1916.166 2169360
-759.83087 834.20837 1890.7388 1971469
-750.59509 836.39838 1895.7026 1708296
-740.4682 837.64691 1898.5323 1576454
-732.17834 841.04419 1906.2322 1971467
-715.62573 834.90778 1892.3241 1642759
-704.13037 834.57007 1891.5588 1642503
-694.19019 836.09473 1895.0144 1511172
-683.10376 836.2663 1895.4031 984576
-673.66766 838.49756 1900.4604 1445124
-659.81525 835.21448 1893.0192 1839882
-646.03534 831.91113 1885.5322 1971722
-633.69812 830.38214 1882.0667 2037516
-621.43951 828.90302 1878.7144 1905929
-604.83405 821.46637 1861.859 2300689
-604.67432 836.50446 1895.9429 2563861
-594.78766 838.40076 1900.241 2959648
-584.53784 839.84851 1903.5223 2236439
-571.30536 836.98346 1897.0287 2696471
-561.58667 839.25458 1902.1763 2761752
-542.54858 827.40643 1875.3223 2827545
-531.14758 826.95312 1874.2948 2432530
-521.62738 829.47119 1880.002 2300688
-507.51657 824.64008 1869.0522 2366225
-497.65659 826.65442 1873.6178 2432274
-486.98343 827.37921 1875.2606 2629653
-481.17154 836.5899 1896.1366 1774345
-471.4292 839.24377 1902.1516 2103309
-457.97897 835.26526 1893.1344 1971721
-441.57193 825.5589 1871.1348 1840134
-430.04932 824.71979 1869.2329 1840135
-419.45221 825.65802 1871.3595 1445634
-406.29858 821.47821 1861.886 1708805
-397.6666 826.46252 1873.1829 2695445
-386.897 827.16284 1874.7701 1577223
-380.07925 836.60303 1896.1664 590336
-368.31332 835.39502 1893.4285 1116417
-358.97675 839.79431 1903.3995 1511430
-346.76999 837.54663 1898.3052 2498580
-331.91769 828.54443 1877.9016 3222303
-326.2431 842.62213 1909.8087 1511943
-313.42264 838.5918 1900.674 3222817
-302.66711 839.99194 1903.8474 1578512
-291.12619 839.23645 1902.135 2828061
-279.78455 839.01752 1901.6389 3683115
-268.32486 838.4115 1900.2654 2235925
-255.71774 834.01019 1890.2897 2235925
-245.28615 836.62598 1896.2184 2236182
-234.35732 837.71552 1898.6877 1709580
-223.66068 839.78656 1903.382 2696219
-214.27461 847.25989 1920.3202 2498842
-201.62479 841.94244 1908.2682 3617323
-189.48451 838.24725 1899.8932 2564891
-178.86066 841.21753 1906.6252 1840913
-163.25626 819.58478 1857.5945 1445898
-152.52565 821.06085 1860.9399 919811
-141.49529 821.02759 1860.8645 919298
-130.15793 819.05688 1856.3979 1182212
-119.27621 819.85413 1858.205 1313028
-107.98843 817.73871 1853.4104 1444098
-97.131104 818.77307 1855.7546 1246722
-85.21022 809.96179 1835.7838 1970696
-74.673515 813.65436 1844.1531 1773575
-63.648609 812.38153 1841.2682 2431760
-53.222328 819.80292 1858.089 2431762
-42.306408 821.58612 1862.1306 1971981
-31.469215 826.69543 1873.7107 722433
-20.422861 828.88422 1878.6716 590592
-9.2550201 825.48022 1870.9564 1643275
1.8317963 826.76501 1873.8685 1380363
13.025721 832.69116 1887.3003 2169363
24.22592 833.35876 1888.8132 1116674
35.34037 831.58679 1884.797 1642505
46.844959 837.64178 1898.5208 1905933
57.393463 827.56628 1875.6844 2563349
68.033707 821.86743 1862.7681 2695191
79.958115 831.10736 1883.7106 2432532
91.038063 830.38165 1882.0656 1708811
101.68438 826.29034 1872.7927 2235670
113.62703 832.50189 1886.8712 1051656
124.04481 827.42926 1875.374 855049
133.68596 818.43604 1854.9908 65536
144.85364 819.44464 1857.2767 65537
156.32977 821.9325 1862.9156 131328
165.8228 814.35339 1845.7375 1512720
177.96748 819.92865 1858.3738 1511947
189.3746 821.65417 1862.2847 2234899
201.51199 826.18372 1872.551 1906445
212.68469 826.49188 1873.2494 2169362
225.91704 834.37628 1891.1194 1182468
236.97977 833.88123 1889.9973 2103825
248.69856 835.63513 1893.9728 2169875
257.05692 826.43402 1873.1183 1709327
272.23013 838.99738 1901.5931 1643534
283.76221 839.78632 1903.3813 986122
295.82178 842.01648 1908.436 327936
307.88101 844.08154 1913.1165 788486
319.44449 844.68903 1914.4934 722692
330.60074 844.21503 1913.4191 1578257
342.51981 845.6557 1916.6843 1643534
354.57639 847.33252 1920.485 2959394
363.62125 841.93176 1908.2441 2301464
379.10815 851.323 1929.5293 3025446
390.09872 850.36298 1927.3535 985863
397.24933 841.32501 1906.8688 1709331
407.15961 838.46979 1900.3976 2104600
420.33307 842.3075 1909.0956 4012080
423.87659 827.15216 1874.746 3813928
442.67963 841.78784 1907.9177 3155739
453.28754 840.49915 1904.9969 3155734
462.82669 837.33948 1897.8356 3747872
477.53897 843.4668 1911.7231 3551008
487.90878 841.81793 1907.986 3288353
493.76764 832.63696 1887.1772 2103825
509.84882 840.71863 1905.4944 2170133
523.03912 843.78662 1912.448 1972754
529.91406 836.75226 1896.5046 1709070
547.13696 846.0105 1917.4885 3222309
557.39166 844.33673 1913.6949 2169878
568.06213 843.34692 1911.4515 1841171
577.89954 841.18329 1906.5476 2301468
592.05621 845.26904 1915.8081 1446159
603.2962 845.11548 1915.46 1314828
610.54773 839.48352 1902.6949 2498845
615.92029 831.51904 1884.6434 2236443
635.70911 842.9541 1910.5612 920584
645.75934 841.3017 1906.816 722947
656.4165 840.48322 1904.9609 3617839
663.18042 834.79169 1892.061 1183757
671.62714 831.37238 1884.3112 1577999
680.82117 828.97485 1878.8771 1379847
692.42761 829.54462 1880.1683 591105
696.0954 820.73621 1860.2041 2103309
709.57507 823.59076 1866.674 2431759
718.86438 821.56866 1862.0908 2037001
732.04492 823.98767 1867.5736 3089945
738.94861 819.37457 1857.118 2432014
754.6496 824.50861 1868.7544 2958358
763.80902 822.45032 1864.0892 2958357
773.46674 820.97961 1860.756 3155478
780.62604 816.93573 1851.5903 2759950
787.38898 812.59485 1841.7516 3088913
802.71082 817.08466 1851.9279 2957329
813.96381 817.36755 1852.569 3154710
826.72559 819.13788 1856.5815 2365709
837.10315 818.53046 1855.2047 2234126
850.88086 821.2204 1861.3015 2563092
857.61273 817.12817 1852.0265 2563347
865.297 814.03546 1845.0167 2497553
876.6792 814.4552 1845.9683 3155739
882.76953 810.00897 1835.8907 3418654
891.84021 808.37244 1832.1816 3155739
901.01898 806.87201 1828.7809 2827030
913.44812 808.28345 1831.9799 3221788
925.4231 809.26447 1834.2035 3484960
935.37024 808.47009 1832.403 3747873
943.71332 806.32336 1827.5374 2892305
952.7688 804.82715 1824.1461 3352343
961.19977 802.8429 1819.6488 2826510
971.67651 802.59235 1819.0809 3352342
969.6745 792.15308 1795.4204 2694668
971.99695 785.43494 1780.1935 1575937
986.53412 788.62512 1787.4242 2168330
1015.6846 803.30536 1820.697 1576452
1025.4277 802.48914 1818.8469 1905161
1056.3179 818.06708 1854.1544 1774344
1069.5211 819.76776 1858.0092 853249
1073.2129 814.21771 1845.4298 1116418
1084.536 814.51093 1846.0945 524800
1097.4873 816.00873 1849.4893 1708296
1110.8125 817.75232 1853.4412 1116419
1119.5632 816.12708 1849.7576 2497811
1117.5846 806.7879 1828.5901 590592
1139.0966 814.42303 1845.8951 1116160
1164.4537 824.63611 1869.0433 2563347
1168.3783 819.62158 1857.678 1840135
1167.3495 811.25842 1838.7227 1774342
1174.6385 808.77704 1833.0986 2366223
1191.9042 813.14734 1843.0039 2234895
1204.335 814.16974 1845.3212 1905673
1203.0093 805.95764 1826.7085 1971468
1215.4344 807.02228 1829.1213 1774602
1227.4766 807.81592 1830.9202 1971981
1234.1366 805.08466 1824.7299 1050881
1247.1061 806.48114 1827.8949 1314053
1257.4817 806.19049 1827.2362 1249030
1275.708 810.89514 1837.8993 1380616
1291.5721 814.03125 1845.0074 722690
1310.2913 818.89911 1856.0404 2169877
1324.9502 821.16968 1861.1865 2564635
1333.3578 819.56012 1857.5387 1972496
1342.5953 818.48303 1855.0973 3222562
1349.7472 816.16211 1849.837 2235153
1351.8505 810.85052 1837.7981 2234896
1373.7529 817.40448 1852.6528 1576713
1379.8763 814.54028 1846.1611 2300688
1395.2003 817.10956 1851.9843 2365968
1406.5336 817.31976 1852.4607 3221532
1400.7003 807.62866 1830.4957 1642757
1413.641 808.82812 1833.2144 1839367
1428.5314 811.11633 1838.4006 2498066
1435.8077 809.07947 1833.7839 1774344
1448.3883 810.03961 1835.9602 1971723
1449.3453 804.53314 1823.4799 1708551
1445.8683 796.66516 1805.647 2103309
1469.7535 803.87836 1821.9957 2037260
1470.9899 798.6889 1810.2339 2168847
1479.5355 797.51471 1807.5724 3089949
1473.8861 788.76062 1787.7313 2365969
1492.9718 793.27423 1797.9614 2431762
1501.2305 792.01184 1795.1001 2299922
1506.5383 789.22137 1788.7755 2300435
1515.2008 788.21497 1786.4945 2037519
1532.2131 791.53595 1794.0216 2893344
1538.5485 789.33362 1789.0299 3222052
1556.9403 793.30444 1798.0299 3617070
1575.7153 797.41528 1807.347 3683119
1576.5969 792.4765 1796.1533 3551536
1574.5037 786.11853 1781.743 4670787
1572.8582 780.0675 1768.0282 4605511
1582.1167 779.46851 1766.6705 5132628
1594.6808 780.49536 1768.9979 5527644
1608.1738 781.96039 1772.3185 6449003
1626.1093 785.55261 1780.4602 6844274
1639.3036 786.82275 1783.3392 7305082
1657.0388 790.24237 1791.0897 7371131
1682.1246 797.1015 1806.636 7436925
1708.7598 804.60358 1823.6394 7633791
1725.3223 807.29822 1829.7468 7370876
1743.6431 810.77686 1837.6311 7173496
1748.3605 807.92596 1831.1697 7041910
0 0 0 0
0 0 0 0
0 0 0 0
0 0 0 0
0 0 0 0
0 0 0 0
0 0 0 0
0 0 0 0
0 0 0 0
0 0 0 0
0 0 0 0
-1713.2531 880.63495 1969.5198 4407345
-1695.2408 877.35144 1962.1763 3354656
-1674.1549 872.4209 1951.1493 3157278
-1664.6724 873.51062 1953.5863 2170383
-1653.1318 873.52802 1953.6251 2039051
-1644.7759 875.2403 1957.4546 3091485
-1636.1074 876.80939 1960.964 2959643
-1632.3879 881.07214 1970.4976 4209968
-1609.082 874.74847 1956.3547 2433302
-1604.8031 878.75177 1965.308 1183237
-1603.4872 884.44794 1978.0474 3552295
-1582.0424 879.04364 1965.9607 2960158
-1574.4983 881.34003 1971.0967 5328706
-1554.679 876.74835 1960.8275 2565400
-1545.3777 878.06384 1963.7694 2894366
-1523.1093 871.97559 1950.1532 2367765
-1514.5907 873.7262 1954.0684 1973010
-1510.8455 878.2785 1964.2496 1907217
-1497.0428 877.00958 1961.4116 525825
-1481.6743 874.79626 1956.4617 1182983
-1469.2817 874.31909 1955.3944 1774859
-1468.6777 880.90485 1970.1234 2498582
-1448.3119 875.64832 1958.3672 2169358
-1428.8345 870.84833 1947.6321 3551011
-1399.9055 860.1626 1923.7338 2564629
-1402.1353 868.60394 1942.6127 4209454
-1398.8535 873.74249 1954.1049 4670263
-1387.3495 873.78821 1954.2072 1643785
-1366.9766 868.20172 1941.7131 3091230
-1353.0428 866.64496 1938.2314 2893852
-1354.7223 875.14752 1957.2473 3288096
-1317.958 858.74799 1920.5701 2762523
-1326.4736 871.823 1949.812 2367765
-1318.7079 874.33276 1955.425 1907214
-1285.4835 859.85785 1923.0522 1380100
-1283.4089 866.14642 1937.1163 2630166
-1271.3375 865.74078 1936.2094 2564373
-1269.0881 872.07739 1950.3809 3090460
-1258.853 872.99231 1952.4271 2695447
-1251.4352 875.896 1958.9213 2038544
-1235.951 873.1557 1952.7926 3946542
-1219.8898 869.95197 1945.6274 1775373
-1207.0321 868.99347 1943.4839 1709838
-1207.5938 877.77069 1963.1138 1775630
-1193.5446 875.99506 1959.1428 1775884
-1186.7573 879.56683 1967.1309 1973779
-1174.2799 878.95032 1965.7521 3289642
-1159.0958 876.27509 1959.769 6513495
-1143.8958 873.53363 1953.6378 6250067
-1123.9607 867.08337 1939.2119 3486762
-1130.6753 881.27106 1970.9424 1907473
-1123.5364 884.84454 1978.9343 1907471
-1108.5494 882.24744 1973.126 855043
-1088.7312 875.70905 1958.5029 1315595
-1052.4258 855.62555 1913.5868 2302229
-1052.7329 865.19495 1934.9885 2762778
-1028.7937 854.82861 1911.8046 3749674
-1020.6165 857.47406 1917.7209 3947052
-1008.6319 856.94434 1916.5361 3552038
-1003.0364 861.89246 1927.6025 1315337
-982.7912 854.22137 1910.4464 2433043
-975.44763 857.71606 1918.2622 2498067
-961.96558 855.83185 1914.0482 2168842
-947.73474 853.22864 1908.2262 2498065
-936.72357 853.49615 1908.8243 2169613
-915.61163 844.45447 1888.6029 2235406
-910.73169 850.34467 1901.7762 2038027
-901.7735 852.52698 1906.6569 2629394
-891.68011 853.67786 1909.2307 1445890
-880.82361 854.11829 1910.2158 1314307
-869.2038 853.82043 1909.5496 2103822
-857.59943 853.53003 1908.9001 1051137
-844.65338 851.87872 1905.2072 1906444
-821.25177 839.49487 1877.511 1972236
-825.02942 854.93536 1912.0432 2235408
-815.21887 856.52905 1915.6075 2761495
-799.23291 851.58789 1904.5566 2893083
-785.24982 848.66974 1898.0303 2498328
-768.92694 843.10126 1885.5765 1379846
-748.8786 833.22363 1863.4854 985091
-740.23706 835.93195 1869.5424 1182469
-728.99298 835.73865 1869.1102 1314053
-707.5531 823.67053 1842.1201 1906190
-704.64349 833.13348 1863.2838 1116674
-699.55603 840.28168 1879.2705 1182467
-685.42188 836.61877 1871.0785 787712
-675.08173 837.54248 1873.1444 1182467
-669.05707 843.94055 1887.4536 721920
-656.92798 842.72534 1884.7357 2300946
-640.57397 835.95435 1869.5925 1708295
-625.24493 830.30634 1856.9608 1905930
-613.73602 829.61987 1855.4255 1971722
-602.66125 829.5058 1855.1707 2892824
-593.81903 832.51752 1861.9062 3155997
-586.50409 837.82507 1873.7765 2761496
-574.50122 836.51141 1870.8384 2103565
-563.95123 837.30328 1872.6094 3945254
-550.98285 834.46411 1866.2596 2761237
-530.64722 820.1225 1834.1849 2300429
-524.05963 826.87335 1849.2831 2761236
-511.89749 824.92889 1844.9343 2498321
-500.3732 823.95001 1842.7451 2234637
-490.49219 825.69366 1846.6449 2169101
-481.17444 828.48676 1852.8915 2366481
-471.09506 830.06836 1856.4286 2629653
-460.89758 831.51239 1859.6582 2169102
-448.30499 828.60022 1853.1453 2037514
-436.28705 826.63074 1848.7405 1905928
-424.84903 825.68689 1846.6296 1116417
-414.64673 827.15814 1849.92 1445635
-403.3428 826.45203 1848.3409 1576965
-389.75821 820.9032 1835.9309 2300176
-382.77661 829.34198 1854.8041 787713
-375.0791 836.68262 1871.2213 1445898
-362.34705 832.89789 1862.7568 1511433
-354.43057 840.29224 1879.2943 1577223
-341.26514 835.3183 1868.1702 2432272
-330.05273 834.95172 1867.3502 2169097
-319.80139 837.0752 1872.0994 2958870
-307.7608 834.49963 1866.3391 4012072
-297.0466 835.46271 1868.493 6907219
-287.14502 838.87439 1876.1232 1775371
-274.0372 832.81683 1862.5754 1972750
-262.55304 831.39221 1859.3895 2170130
-252.69891 835.23071 1867.9742 2301716
-241.4893 834.73541 1866.8665 2630682
-229.11452 829.97162 1856.2124 1841167
-220.30322 838.28711 1874.8097 2104082
-209.36537 838.96405 1876.3237 1775117
-199.7429 845.28351 1890.457 2235412
-188.12878 843.42462 1886.2997 1840656
-175.91821 838.48816 1875.2593 1643535
-163.08057 829.69574 1855.5953 1380364
-151.61127 827.09717 1849.7837 788227
-140.67822 827.24701 1850.1189 985606
-129.4742 825.69421 1846.646 1248008
-118.54143 825.7442 1846.7578 1576973
-106.90992 820.44214 1834.8999 787972
-96.412102 823.62469 1842.0176 1181445
-85.19603 820.70062 1835.478 1049857
-73.931763 816.38885 1825.8347 1115649
-62.959518 814.37628 1821.3337 2497814
-52.484741 819.29688 1832.3385 2169106
-41.683815 820.36475 1834.7268 1971982
-31.185184 830.23401 1856.7992 1840399
-20.070332 825.51398 1846.243 1643021
-9.1463585 826.74225 1848.99 788227
1.8118216 828.72986 1853.4351 1906707
12.684015 821.73462 1837.7905 1840400
23.767275 828.55957 1853.0543 2103571
34.461235 821.78821 1837.9104 1840397
45.600864 826.34448 1848.1003 2168849
