# .PCD v0.7 - Point Cloud Data file format
VERSION 0.7
FIELDS x y z rgb
SIZE 4 4 4 4
TYPE F F F U
COUNT 1 1 1 1
WIDTH 1314
HEIGHT 1
VIEWPOINT 0 0 0 1 0 0 0
POINTS 1314
DATA ascii
3548.856 486.56351 4985.1553 2430215
3599.5017 489.43427 5014.5679 2232837
3659.4031 493.5062 5056.2876 2298630
3726.6123 498.48956 5107.3457 2496008
3816.688 506.42673 5188.667 2365194
3817.6765 502.51077 5148.5454 2101765
3886.8081 507.5553 5200.23 2167558
3885.7786 503.4306 5157.9697 2364937
3872.6707 497.81769 5100.4614 2364937
3897.9624 497.18954 5094.0259 2496522
3953.717 500.42676 5127.1934 2693388
4005.7566 503.14801 5155.0742 2758925
3962.1992 493.91141 5060.439 2759178
3995.9622 494.37946 5065.2349 2232835
4033.0273 495.24615 5074.1147 2430213
4016.3777 489.55273 5015.7817 2561799
4016.2988 485.94791 4978.8481 2824971
4060.3633 487.69775 4996.7764 2890763
4090.7178 487.78751 4997.6958 2890764
4078.8357 482.87573 4947.3716 3219729
4123.3438 484.66214 4965.6748 3219729
4134.9531 482.58377 4944.3804 3022350
4183.6826 484.8364 4967.46 2758922
4239.5 487.87317 4998.5737 2627336
4251.1006 485.81479 4977.4844 2627593
4220.9653 479.04803 4908.1543 2824715
4246.52 478.65106 4904.0869 3022094
4274.0161 478.47672 4902.3008 2956301
4291.3975 477.18005 4889.0156 2825742
4299.8408 474.91367 4865.7949 2825485
4289.9673 470.66776 4822.293 2694156
4379.9175 477.35764 4890.835 3088913
4384.3491 474.70035 4863.6094 3088914
4415.6426 474.9671 4866.3428 2891535
4432.0356 473.63815 4852.7266 2759949
4462.1084 473.77866 4854.1665 2891534
4460.2036 470.54395 4821.0244 3023120
4495.1646 471.21481 4827.8979 2891280
4558.9473 474.87939 4865.4443 3088660
4558.6553 471.86563 4834.5664 2825488
4562.7744 469.34326 4808.7227 2956560
4611.7285 471.43533 4830.1577 2890768
0 0 0 0
0 0 0 0
0 0 0 0
-8151.2534 919.97498 8886.3545 5660257
-8139.2065 924.58679 8930.9014 5988452
-7980.5215 912.49237 8814.0771 6251367
-7736.2241 890.38519 8600.5361 6317417
-7646.8193 885.93018 8557.5039 6251624
-7579.9937 884.04895 8539.333 6317416
-7538.1426 885.07495 8549.2432 6317417
-7370.5845 871.25543 8415.7549 6383210
-7315.2056 870.59808 8409.4062 6383209
-7750.4771 928.72559 8970.8799 6712174
-8582.5781 1035.5356 10002.594 4277577
-8199.0391 996.13715 9622.0312 6120294
-7708.7202 943.12323 9109.9512 6383210
-7527.3794 927.43011 8958.3662 6580845
-7340.7222 910.85443 8798.2559 6646382
-7217.856 902.01361 8712.8594 6449773
-7055.5552 888.08185 8578.2881 5594210
-6858.9751 869.60199 8399.7842 4475729
-7038.6104 898.89819 8682.7666 3619653
-6915.5869 889.6889 8593.8105 2764344
-6864.7036 889.6925 8593.8457 2106412
-6854.3389 894.98682 8644.9854 1447972
-6770.9946 890.76001 8604.1572 1185056
-6609.4058 876.09753 8462.5273 921882
-6426.9517 858.42401 8291.8125 461331
-6354.915 855.33997 8262.0225 856091
-6389.5 866.67004 8371.4639 856090
-6193.1963 846.61481 8177.7432 724504
-6221.9824 857.2558 8280.5283 658966
-6233.7427 865.70154 8362.1084 527382
-6339.4307 887.43121 8572.0029 988190
-6276.377 885.69952 8555.2754 1447973
-6233.4751 886.80652 8565.9688 1711658
-6090.4624 873.57263 8438.1377 2106418
-6090.9575 880.87366 8508.6611 2435642
-6113.3555 891.4906 8611.2139 2501435
-5983.0747 879.83423 8498.6211 2435897
-5926.2769 878.87756 8489.3809 2501432
-5933.5781 887.49207 8572.5908 2435896
-5855.3335 883.34961 8532.5771 2304053
-5685.5649 865.20721 8357.334 2238517
-5563.2007 854.02319 8249.3037 2106934
-5531.5884 856.69604 8275.1221 2106934
-5410.4155 845.42218 8166.2236 2041397
-5340.373 842.00647 8133.23 2106678
-5287.2456 841.21985 8125.6318 2172472
-5284.417 848.495 8195.9043 2106679
-5245.5078 850.05804 8211.0029 2106679
-5163.7109 844.63519 8158.6211 2106937
-5113.5513 844.33368 8155.709 2041400
-5088.3003 848.17841 8192.8467 2041401
-5054.7192 850.69531 8217.1582 2107194
-4982.2129 846.64642 8178.0493 2172729
-4986.7412 855.73743 8265.8623 2172984
-4956.0288 858.90143 8296.4238 2173240
-4910.8623 859.59863 8303.1592 2172982
-4833.3203 854.58563 8254.7363 2436153
-4815.8008 860.19135 8308.8838 2699324
-4827.8999 871.25781 8415.7783 2699578
-4795.9478 874.52271 8447.3154 3094333
-4747.876 874.88605 8450.8252 3619905
-4709.8037 877.11945 8472.3984 3422525
-4708.9243 886.4021 8562.0625 3422524
-4632.8574 881.57947 8515.4795 3553854
-4464.2783 858.85297 8295.9561 3093304
-4461.3149 867.83685 8382.7344 2567475
-4350.7256 855.85138 8266.9629 2304564
-4345.1665 864.48932 8350.3994 2107188
-4266.5674 858.62708 8293.7744 1844531
-4207.0308 856.50928 8273.3174 1778484
-4169.1626 858.80511 8295.4932 1778485
-4084.5144 851.40436 8224.0068 1778741
-3911.1221 825.10321 7969.9551 1647412
-3926.5576 838.48187 8099.1841 1712692
-3819.5894 825.72992 7976.0093 1778228
-3774.637 826.23322 7980.8706 1712435
-3684.7883 816.7973 7889.7256 1646642
-3648.918 819.23773 7913.2988 1646900
-3614.1995 822.00372 7940.0166 1646644
-3561.5703 820.71558 7927.5732 1712436
-3502.6074 817.91376 7900.5098 1712436
-3466.0015 820.32751 7923.8252 1646900
-3493.4502 838.17603 8096.2305 1646644
-3433.0244 835.14447 8066.9473 1712436
-3369.7468 831.32373 8030.0415 1844022
-3321.6345 831.18835 8028.7344 1778229
-3308.9163 840.03473 8114.1841 1844022
-3234.3884 833.21893 8048.3477 1778743
-3183.7009 832.43274 8040.7539 1778486
-3123.7612 829.16656 8009.2046 1844279
-3085.1621 831.55182 8032.2441 1778486
-3071.1978 840.75555 8121.1465 1778743
-3032.7627 843.44659 8147.1411 1910072
-2960.8569 836.76569 8082.6069 1975865
-2892.6997 830.94189 8026.353 1975866
-2857.021 834.40894 8059.8428 1712694
-2784.3242 826.99878 7988.2651 1515315
-2652.5867 801.4928 7741.8945 1449006
-2636.6211 810.68604 7830.6948 1581108
-2592.6375 811.43933 7837.9717 2831686
-2576.2817 821.0249 7930.5615 4082266
-2528.5769 820.79047 7928.2969 5463151
-2469.6797 816.84515 7890.188 6253436
-2423.3428 816.98218 7891.5117 6648451
-2420.6736 832.1358 8037.8853 6779782
-2408.585 844.5946 8158.23 6714760
-2333.2393 834.9278 8064.8545 6846090
-2231.1313 815.07996 7873.1372 6846603
-2134.6475 796.48285 7693.502 6780810
-2043.686 779.17999 7526.3667 6846347
-1990.6692 775.89459 7494.6328 6912140
-1914.4237 763.19916 7372.0029 6977933
-1847.1001 753.55072 7278.8052 7175311
-1790.7462 748.02332 7225.4141 7043982
-1700.031 727.52032 7027.3687 7109518
-1665.6864 730.71704 7058.2471 7044239
-1550.2122 697.57141 6738.082 7110032
-1476.11 681.78247 6585.5713 7241618
-1406.6335 667.33075 6445.9771 7175824
-1440.7194 702.57526 6786.4155 7307413
-1337.9244 671.17633 6483.1226 7307413
-1290.33 666.43146 6437.29 7241876
-1300.7556 692.27643 6686.936 7242133
-1217.1184 668.11139 6453.5171 7242387
-1180.3 668.9126 6461.2563 7307923
-1148.3983 672.64722 6497.3311 7242387
-1103.0072 668.46588 6456.9419 7307154
-1062.5875 667.10535 6443.7993 7373203
-1024.8649 667.39948 6446.6411 7373204
-989.37189 669.22473 6464.272 7373203
-959.97382 675.48566 6524.748 7438996
-917.62042 672.77344 6498.5498 7373206
-874.58734 669.30347 6465.0322 7636377
-843.12549 674.77649 6517.8979 7767963
-801.03369 671.85907 6489.7178 7767964
-760.51355 670.03223 6472.0713 7768474
-718.44714 666.57678 6438.6938 7702938
-689.12024 675.21625 6522.1455 7702938
-650.37341 675.10388 6521.0605 7044495
-611.83435 675.20679 6522.0542 7241872
-574.72064 677.00244 6539.3989 7570062
-540.05505 682.14996 6589.1211 4410710
-502.4425 684.08728 6607.8345 3685955
-461.28644 681.11975 6579.1699 2500910
-434.66431 701.04547 6771.6387 2566703
-390.95828 694.66785 6710.0356 2960946
-347.64035 687.61414 6641.9014 3224116
-294.14731 656.06537 6337.1611 3487029
-254.58696 650.90698 6287.334 3487027
-211.32463 632.89349 6113.3354 2960939
-178.30199 644.43811 6224.8491 3092010
-143.58748 654.29407 6320.0508 2828838
-101.97072 628.55676 6071.4458 2697251
-66.133736 629.8103 6083.5537 2631458
-29.928913 626.36816 6050.3052 2762528
5.9471707 629.83197 6083.7637 2696735
42.098934 631.48456 6099.7266 2959394
78.661545 634.9267 6132.9756 2630429
114.91113 634.46545 6128.5195 2893601
152.07368 638.05621 6163.2041 3025187
185.91368 629.01501 6075.8726 2498843
222.14182 629.67639 6082.2607 2696222
259.71545 633.43463 6118.563 3025440
291.30847 623.47235 6022.334 2367256
330.96487 631.05878 6095.6133 2104085
363.80203 625.4292 6041.2354 1577741
401.19003 627.93085 6065.3999 2498840
433.02039 622.03772 6008.4756 2433305
465.47543 617.86896 5968.2085 3814959
504.02478 621.80731 6006.2505 2301461
536.84882 618.62872 5975.5474 2433304
570.80347 617.06567 5960.4497 1972753
613.30688 624.388 6031.1782 1577995
643.50586 619.06696 5979.7808 2235671
675.79858 616.21033 5952.1875 2367511
709.53577 614.88885 5939.4229 3025441
730.2948 602.97668 5824.3589 2235925
779.63116 614.67004 5937.3091 2958878
793.01581 598.2326 5778.5347 3287586
856.40845 619.31952 5982.2197 3090464
880.72278 611.59357 5907.5923 3353636
917.74353 612.94458 5920.6426 2695706
943.50586 606.95361 5862.7739 2826779
968.16003 600.7005 5802.3726 3024158
991.74945 594.23828 5739.9517 2892570
1033.8007 598.89972 5784.978 2892569
1076.0496 603.3728 5828.1855 3287327
1092.129 593.35016 5731.373 2366481
1133.0641 597.0285 5766.9038 2300432
1156.701 591.6438 5714.8911 2234382
1194.5295 593.61786 5733.9585 2234126
1225.8763 592.35059 5721.7183 2563345
1243.3571 584.63171 5647.1587 3023896
1264.9341 579.19299 5594.624 3155481
1313.3627 586.01288 5660.5 3023896
1333.7726 580.3028 5605.3442 2826517
1362.136 578.24646 5585.4814 2826260
1406.1558 582.77643 5629.2378 2760724
1439.6464 582.8338 5629.792 2562830
1458.4226 577.06641 5574.083 2562831
1505.4768 582.49567 5626.5259 2628624
1524.8218 577.20081 5575.3809 2891539
1549.9127 574.25934 5546.9683 2826003
1589.946 576.86145 5572.103 2563088
1622.6519 576.75311 5571.0566 2299916
1648.3656 574.2135 5546.5254 2497552
1687.0562 576.20532 5565.7651 2299661
1692.2086 566.8855 5475.7417 2629140
1733.4847 569.79004 5503.7979 2497297
1772.3309 571.80341 5523.2456 2431761
1807.9626 572.72546 5532.1519 2300175
1833.8446 570.58118 5511.4399 1773831
1873.355 572.67804 5531.6943 2234382
1896.8021 569.87677 5504.6357 2037003
1917.3989 566.32837 5470.3604 1905417
1953.0138 567.25983 5479.3579 1905417
1978.4889 565.26398 5460.0791 2168588
2007.1851 564.23773 5450.1665 2234382
2039.6346 564.28247 5450.5981 1905417
2061.4729 561.43585 5423.1021 2497297
2083.7915 558.80536 5397.6929 2299918
2113.0789 558.09491 5390.8306 2168590
2143.3098 557.65118 5386.5444 2102797
2139.803 548.57123 5298.8379 2300175
2206.1577 557.40497 5384.1665 2563347
2194.5667 546.57397 5279.5459 2497554
2237.9329 549.54248 5308.2197 2365968
2252.9355 545.56049 5269.7559 2234382
0 0 0 0
0 0 0 0
0 0 0 0
0 0 0 0
0 0 0 0
0 0 0 0
0 0 0 0
0 0 0 0
0 0 0 0
0 0 0 0
0 0 0 0
693.26801 143.94293 1390.3942 262145
701.87274 144.01839 1391.123 262148
692.57916 140.46213 1356.772 9
669.78906 134.28163 1297.0724 11
705.61249 139.85912 1350.9473 15
720.25171 141.15967 1363.5096 19
730.82874 141.64406 1368.1886 789799
732.86609 140.48088 1356.953 1908801
736.77246 139.69731 1349.3844 1974856
735.15765 137.89496 1331.9749 1975113
745.23987 138.30162 1335.9028 1974857
758.08868 139.20776 1344.6556 2040649
765.60669 139.12636 1343.8693 2040906
772.88165 139.0029 1342.6768 2171978
779.29584 138.72873 1340.0284 2040643
786.21851 138.5497 1338.2991 2237505
792.06378 138.18626 1334.7886 21
770.16443 133.03743 1285.0543 19
776.15417 132.7598 1282.3724 18
810.82153 137.34525 1326.6649 2171453
817.45575 137.13968 1324.6793 2302783
822.90698 136.74147 1320.8328 2302783
829.6214 136.55867 1319.0671 65811
836.4267 136.39412 1317.4777 17
825.40393 133.35228 1288.0956 65548
831.78888 133.15283 1286.1689 65547
836.66077 132.717 1281.959 65544
859.02344 135.03851 1304.3834 196612
866.88251 135.05902 1304.5814 393475
0 0 0 0
0 0 0 0
3304.7585 501.46417 4843.8149 2298889
3352.5679 504.33948 4871.5884 2627594
3410.3127 508.64764 4913.2021 2758411
3438.855 508.56409 4912.3955 2692873
3502.7102 513.66052 4961.6235 2890509
3505.1382 509.73898 4923.7441 2759181
3483.9338 502.47382 4853.5669 2429959
3554.6838 508.4812 4911.5947 2298373
3618.8384 513.45526 4959.6406 2298887
3663.3113 515.57916 4980.1562 2233352
3692.832 515.58154 4980.1792 2364938
3755.8677 520.22607 5025.0425 2233353
3791.2583 520.99854 5032.5039 1838593
3824.6838 521.49097 5037.2607 1970179
3793.4373 513.22614 4957.4277 2562316
3807.5476 511.17761 4937.6401 2693902
3847.0117 512.53827 4950.7832 2956303
3876.5403 512.56458 4951.0371 2956558
3860.9812 506.67361 4894.1348 3219729
3906.0142 508.76273 4914.314 3285522
3923.2041 507.22113 4899.4233 2956557
3948.7493 506.77457 4895.1094 2824971
3976.6477 506.63422 4893.7539 2890764
3956.8855 500.46783 4834.1909 3022093
3961.7827 497.48657 4805.3936 3351315
4009.6582 499.90616 4828.7651 3351315
4041.4124 500.29578 4832.5288 3087629
4017.4902 493.83615 4770.1328 2890507
4065.1714 496.20682 4793.0322 3087630
4074.4785 493.89304 4770.6826 3022094
4070.2793 489.98526 4732.936 3087630
4104.7217 490.75085 4740.3311 3022351
4130.5205 490.47964 4737.7114 3022351
4162.4995 490.94095 4742.1675 2890508
4153.7983 486.63034 4700.5298 2759949
4221.6768 491.28891 4745.5283 2694156
4244.4634 490.67313 4739.5801 2365191
4241.0571 487.05734 4704.6543 3088914
4276.0415 487.86884 4712.4927 3023121
4268.48 483.84711 4673.6455 3220500
4310.3848 485.4483 4689.1123 2825742
4314.3188 482.78 4663.3379 2759950
4359.312 484.71097 4681.9897 2891534
4408.5317 487.0845 4704.9165 3022866
4467.6685 490.51706 4738.0728 3088660
4455.5737 486.13489 4695.7437 2825488
4441.9731 481.64371 4652.3623 2628109
0 0 0 0
0 0 0 0
0 0 0 0
-7459.7666 890.11053 8132.5078 6317416
-7345.1816 882.13531 8059.6421 6514538
-7243.8032 875.65228 8000.4097 6646381
-7276.3296 885.37708 8089.2607 6712174
-7333.832 898.29034 8207.2422 6449004
-7264.6943 895.7605 8184.1289 5988454
-7194.0532 893.01019 8159.0005 5198938
-7233.6758 904.0025 8259.4316 4409424
-7178.5752 903.22614 8252.3389 2896186
-7382.3574 935.23584 8544.7959 1908522
-7570.6436 965.71088 8823.2314 1316128
-7758.8345 996.59741 9105.4268 1118750
-7451.9951 963.88623 8806.5605 987159
-7266.333 946.49805 8647.6934 723993
-6777.3887 889.07751 8123.0698 856093
-6622.6968 874.99756 7994.4277 592921
-6641.2798 883.77283 8074.603 790046
-6577.6382 881.6543 8055.2471 724254
-6577.2168 888.04047 8113.5952 790560
-6522.8545 887.18427 8105.772 856097
-6497.7607 890.32574 8134.4741 921889
-6577.0947 907.92969 8295.3125 1053476
-6531.4155 908.41162 8299.7158 1317162
-6357.8364 890.97699 8140.4238 2106678
-6334.0649 894.43011 8171.9741 2172984
-6323.6362 899.83508 8221.3564 2501949
-6240.3164 894.87134 8176.0049 2370363
-6045.5112 873.71765 7982.7339 2173494
-6031.0596 878.50122 8026.439 2172982
-5894.4731 865.42896 7907.0039 2107188
-5843.041 864.74969 7900.7983 2107189
-5711.4629 852.10236 7785.2461 2106933
-5665.4429 852.11768 7785.3853 2107191
-5622.8276 852.64954 7790.2446 2041398
-5586.6528 854.17487 7804.1807 2041399
-5616.0703 865.83807 7910.7422 2041398
-5600.7607 870.74408 7955.5654 1975607
-5542.2139 868.95404 7939.2114 2041400
-5452.8311 862.25745 7878.0273 2041657
-5435.7051 866.96967 7921.0811 2041913
-5361.2368 862.53864 7880.5972 2041913
-5334.5039 865.7771 7910.1846 2041914
-5279.1489 864.38647 7897.4795 2107450
-5178.2041 855.43945 7815.7349 2173243
-5177.7666 863.08472 7885.5854 2173242
-5182.854 871.79846 7965.1992 1975608
-5092.7168 864.50763 7898.5859 2106680
-5083.2646 870.90503 7957.0366 2041401
-5029.7954 869.81042 7947.0356 2107191
-4992.6011 871.53613 7962.8027 2566970
-5006.2764 882.25958 8060.7773 3093565
-4977.5229 885.64038 8091.6655 3422269
-4946.3188 888.64642 8119.1309 3883075
-4774.1826 866.14343 7913.5317 4409418
-4714.7065 863.83588 7892.4487 4014660
-4666.4937 863.56641 7889.9868 3291195
-4690.0869 876.71411 8010.1108 2765113
-4637.8604 875.81281 8001.8765 2370613
-4506.9023 859.87164 7856.2295 1975856
-4510.3369 869.50629 7944.2563 1910320
-4458.6006 868.59589 7935.939 1778222
-4387.0757 863.77008 7891.8477 1778225
-4340.3496 863.77533 7891.896 1712433
-4294.9722 864.05219 7894.4253 1646897
-4123.1582 838.61884 7662.0532 1646641
-4063.5583 835.6969 7635.3564 1712434
-4007.2285 833.38916 7614.272 1712433
-3924.8528 825.55048 7542.6538 1712433
-3920.1868 834.06476 7620.4453 1647154
-3823.6919 823.01233 7519.4639 1515571
-3780.8665 823.38727 7522.8896 1581108
-3747.7983 825.92139 7546.043 1646900
-3697.8787 824.75818 7535.415 1581364
-3674.6077 829.58282 7579.4951 1581107
-3649.1067 834.01709 7620.0098 1646642
-3568.3306 825.77106 7544.6689 1646642
-3505.5364 821.52966 7505.918 1646642
-3466.5374 822.82751 7517.7759 1581106
-3427.5425 824.16022 7529.9517 1712436
-3414.5581 831.86469 7600.3438 1712436
-3355.7468 828.46136 7569.2495 1778229
-3287.9548 822.71875 7516.7822 1778229
-3312.1624 840.15491 7676.0869 1778486
-3272.47 841.64215 7689.6753 1778229
-3214.311 838.35486 7659.6411 1844022
-3181.3728 841.64563 7689.7075 1909815
-3096.0261 830.96588 7592.1313 1909814
-3102.5127 844.9823 7720.1929 1910071
-3035.8833 839.20673 7667.4248 1909557
-2978.0725 835.73059 7635.6646 1843764
-2926.5857 833.94928 7619.3892 1712435
-2901.6946 839.80933 7672.9302 2304830
-2809.4241 826.04474 7547.1699 3028553
-2694.3308 805.01587 7355.0391 3884631
-2745.3997 833.75793 7617.6411 5068907
-2702.5288 834.45496 7624.0098 5793142
-2658.0203 834.66156 7625.8975 5924728
-2694.0547 860.60437 7862.9243 5530484
-2540.2712 825.75671 7544.5381 5333105
-2423.7537 801.99164 7327.4082 6188159
-2417.6372 814.5564 7442.2065 6714759
-2380.9514 817.09717 7465.4199 6912138
-2388.6526 835.25507 7631.3203 6977676
-2276.2512 811.30658 7412.5142 6977677
-2225.582 808.85126 7390.0811 7043726
-2117.8479 785.14197 7173.4609 7043726
-2018.8788 763.77765 6978.2651 7109518
-1943.0402 750.45367 6856.5308 7175312
-1934.3573 763.05188 6971.6343 7307154
-1899.4032 765.61041 6995.0103 7373203
-1836.8409 756.90662 6915.4883 7307667
-1754.0245 739.2691 6754.3428 7373203
-1701.7495 733.98096 6706.0273 7307410
-1636.6951 722.79626 6603.8389 7372690
-1606.511 726.84033 6640.7876 7372947
-1524.9265 707.24841 6461.7856 7176081
-1470.5468 699.58972 6391.812 7175824
-1424.0901 695.39508 6353.4873 7175825
-1357.1959 680.72198 6219.4263 7241617
-1392.1702 717.74933 6557.7275 7307669
-1329.431 705.07916 6441.9663 7307412
-1248.6125 681.78809 6229.167 7373205
-1240.0182 697.71649 6374.6968 7438998
-1167.0718 677.29932 6188.1553 7373716
-1135.2771 680.21448 6214.7896 7505302
-1105.3901 684.50641 6254.0024 7505302
-1056.2235 676.7431 6183.0732 7439509
-1025.7477 680.82776 6220.3926 7637145
-979.94385 674.664 6164.0776 7768474
-948.37909 678.20575 6196.4365 7834267
-907.34729 674.98993 6167.0557 7834267
-885.14594 686.1004 6268.5664 7834268
-846.60101 684.96082 6258.1543 7899805
-818.67523 692.70203 6328.8818 7965597
-777.53607 689.46948 6299.3477 7899803
-742.55518 691.64709 6319.2437 7899287
-696.14673 682.84668 6238.8384 5594987
-657.56458 681.16656 6223.4883 4870484
-609.73242 669.13574 6113.5684 2763819
-585.74487 683.40552 6243.9443 3026477
-549.60345 684.46301 6253.6064 3289905
-492.61978 657.84076 6010.3716 3750199
-467.19852 672.50214 6144.3257 3618354
-431.0351 672.87207 6147.7051 3223597
-397.20169 677.28326 6188.0083 2960681
-365.6633 686.90271 6275.8965 2499874
-318.6969 666.43762 6088.917 2894888
-278.33572 656.32391 5996.5132 3289646
-240.645 650.46912 5943.0205 3157803
-205.82556 651.69873 5954.2549 2697507
-170.09946 649.9726 5938.4839 3157289
-135.58905 653.20276 5967.9966 2894115
-99.26651 646.90253 5910.4341 2301465
-64.013718 644.50586 5888.5366 2499098
-29.182076 645.68689 5899.3276 3024671
5.802629 649.69006 5935.9023 2564121
40.768391 646.52045 5906.9434 2629913
75.763 646.52509 5906.9858 2695963
110.54688 645.29669 5895.7627 2366486
145.93596 647.34271 5914.4561 2366743
179.89499 643.4812 5879.1753 2498585
212.83641 637.82281 5827.4775 2498329
248.74255 641.38855 5860.0557 2235158
278.39761 629.9364 5755.4229 2433050
317.98364 641.0025 5856.5288 2498842
351.883 639.55566 5843.3096 3025187
386.32489 639.26575 5840.6606 2893601
419.10245 636.49591 5815.354 2696476
456.62604 640.80713 5854.7437 2367511
483.3468 630.4198 5759.8394 2169362
522.93713 637.08099 5820.6997 2367511
565.45703 646.26624 5904.6211 2235927
589.28448 634.26215 5794.9453 2696222
615.95947 626.47589 5723.8062 2762016
647.66205 624.34882 5704.3716 2564635
679.8418 622.86981 5690.8589 2433306
712.90863 622.30499 5685.6982 2498584
739.98901 616.80115 5635.4126 2300692
769.79218 613.94409 5609.3091 3287842
805.87878 616.1275 5629.2578 3287583
867.72687 637.05042 5820.4204 2827032
879.73981 621.18536 5675.4688 2761239
899.78247 611.9494 5591.0845 2827032
940.64709 617.02771 5637.4824 1906189
968.40894 613.45752 5604.8633 2827032
993.7074 608.61536 5560.623 2827032
1043.3658 618.5249 5651.1616 2498066
1047.5779 601.71448 5497.5732 2563858
1086.36 605.17566 5529.1963 2958360
1120.1918 605.75726 5534.5103 2892310
1165.2236 612.19019 5593.2847 2497552
1170.8373 598.13025 5464.8257 2432014
1202.5042 597.77832 5461.6104 2563600
1211.1897 586.31995 5356.9204 3089687
1253.7169 591.41058 5403.4312 2760209
1289.9995 593.37531 5421.3823 2628623
1307.4161 586.77747 5361.1011 2365708
1350.5006 591.73932 5406.4346 2431245
1376.1288 588.99969 5381.4043 2628625
1410.2375 589.93176 5389.9199 2760211
1445.988 591.49408 5404.1943 2562574
1470 588.29102 5374.9297 3154968
1498.3739 586.93243 5362.5166 3023382
1536.4734 589.36078 5384.7031 2957589
1565.4327 588.25562 5374.606 2760467
1584.4203 583.52209 5331.3584 2563345
1606.4336 580.0661 5299.7827 2432017
1646.7383 583.22089 5328.6064 2431760
1666.3302 579.05927 5290.5835 2168332
1709.1959 582.98962 5326.4932 1905417
1750.2273 586.16321 5355.4888 2760726
1749.1678 575.3783 5256.9521 1839624
1789.3083 578.28607 5283.519 2168589
1820.7485 578.33038 5283.9238 2300175
1846.4688 576.58704 5267.9956 2102796
1870.3379 574.33319 5247.4033 2300175
1875.1172 566.3869 5174.8022 2760726
1933.2572 574.55481 5249.4282 2431761
1942.6313 568.20056 5191.3726 2234382
1969.1587 566.98334 5180.2515 2234639
2008.3999 569.40796 5202.4043 2300174
2037.9313 569.0481 5199.1162 2497555
2043.8501 562.2038 5136.583 2694933
2078.1636 563.25629 5146.1992 2497554
2097.1772 560.19153 5118.1978 2168589
2121.6458 558.65039 5104.1172 2497554
2147.9497 557.62909 5094.7861 2365968
0 0 0 0
0 0 0 0
0 0 0 0
0 0 0 0
0 0 0 0
0 0 0 0
0 0 0 0
0 0 0 0
0 0 0 0
0 0 0 0
0 0 0 0
0 0 0 0
0 0 0 0
700.92712 152.05457 1389.2488 262149
684.44037 146.75487 1340.828 65543
669.74554 141.95656 1296.9882 11
719.76862 150.82887 1378.0502 13
722.40234 149.68301 1367.5811 18
729.52649 149.48267 1365.7506 789542
734.49896 148.85069 1359.9764 2369094
736.44019 147.62477 1348.7759 2303820
743.51703 147.44359 1347.1205 2303566
750.56006 147.25963 1345.4397 2369359
758.02631 147.1617 1344.545 2434896
765.40656 147.04929 1343.5179 2172236
771.95233 146.78052 1341.0623 1974856
780.883 146.96608 1342.7577 2171973
785.54083 146.35182 1337.1455 2303041
792.94623 146.25662 1336.2756 20
769.14417 140.46408 1283.3521 19
781.79181 141.37634 1291.687 19
808.40985 144.77281 1322.7189 2171200
818.00781 145.08531 1325.574 2303043
822.79169 144.54613 1320.6478 2368321
828.07214 144.10352 1316.6039 131604
838.23102 144.51021 1320.3196 17
824.80115 140.88029 1287.1549 14
831.98615 140.80577 1286.474 65547
837.28802 140.41678 1282.92 65543
859.18268 142.79245 1304.6252 196612
867.60107 142.90602 1305.6628 328451
0 0 0 0
0 0 0 0
3218.103 516.25848 4716.8032 2825489
3245.4673 516.16638 4715.9619 2167044
3333.2271 525.5993 4802.1455 2035458
3347.7629 523.42395 4782.2705 2364423
3405.835 528.03491 4824.3989 2298630
3337.5688 513.1449 4688.356 2298373
3477.5586 530.25531 4844.6855 2298887
3490.3345 527.84698 4822.6816 1904386
3550.2644 532.55096 4865.6597 2299144
3567.5432 530.83289 4849.9624 2364937
3625.6602 535.17023 4889.5908 2430730
3625.083 530.84393 4850.063 2233353
3654.2642 530.90906 4850.6582 2102278
3627.0942 522.8501 4777.0273 2168071
3657.2271 523.11224 4779.4224 2299656
3650.416 518.12665 4733.8716 2430473
3712.1213 522.86786 4777.1899 2562317
3765.97 526.43915 4809.8188 2891535
3793.8594 526.35516 4809.0518 2759949
3744.4175 515.62366 4711.0029 3023120
3769.1687 515.19202 4707.0591 3416851
3818.667 518.12445 4733.8516 2956556
3819.5613 514.46753 4700.4399 2890507
3849.6782 514.77118 4703.2139 3022350
3880.9106 515.21844 4707.3008 3088143
3873.1125 510.51477 4664.3257 2956556
3913.6028 512.19751 4679.7002 2890506
3874.7942 503.55136 4600.7041 2824714
3916.0793 505.36182 4617.2456 2956301
3969.1072 508.65204 4647.3066 2824714
3969.3931 505.18445 4615.625 2824457
4010.6978 506.9491 4631.7476 2956301
4009.272 503.32532 4598.6392 2890765
4069.7998 507.47565 4636.5586 2693386
4034.2825 499.6745 4565.2832 2496520
4104.6553 505.00513 4613.9863 2562569
4094.7451 500.45312 4572.3975 2628363
4136.9736 502.2915 4589.1934 2430984
4175.3071 503.63593 4601.4771 2759949
4167.5845 499.44357 4563.1733 2825488
4214.3286 501.79053 4584.6162 3351832
4239.0029 501.49634 4581.9287 2759438
4256.2085 500.32803 4571.2544 2496523
4285.0508 500.53381 4573.1343 2891281
4301.2549 499.2699 4561.5869 2627852
4308.9609 497.04156 4541.2275 2693902
4306.0776 493.62698 4510.0303 2693902
0 0 0 0
0 0 0 0
0 0 0 0
-7454.5688 937.63562 8126.8413 1909292
-7309.6753 925.38745 8020.6821 1119261
-7173.833 914.13239 7923.1304 658969
-6977.3604 894.95239 7756.8901 592662
-6964.1021 899.17389 7793.479 724245
-6938.0337 901.78674 7816.126 789783
-6981.8408 913.57782 7918.3232 724249
-7040.9312 927.54187 8039.3555 658714
-6972.7822 924.81995 8015.7637 855836
-6856.4741 915.62952 7936.1064 1053215
-6849.229 920.97717 7982.4565 1119009
-6833.373 925.23315 8019.3452 1250595
-6836.9741 932.20178 8079.7451 1250595
-6750.7017 926.92841 8034.0381 1448232
-6659.0391 920.83459 7981.2212 1382439
-6611.7817 920.83813 7981.2515 1975090
-6558.5308 920.00098 7973.9956 2041142
-6528.4224 922.42145 7994.9751 2041398
-6451.0093 918.14484 7957.9072 2238777
-6393.6035 916.67358 7945.1558 2173241
-6381.3745 921.70575 7988.7715 2041399
-6295.4521 916.0896 7940.0938 1975350
-6146.3257 901.12231 7810.3667 1910071
-6068.4785 896.4577 7769.937 1975607
-5971.7007 888.90387 7704.4653 2041400
-5882.127 882.31427 7647.3506 2041400
-5867.4126 886.93842 7687.4297 2172984
-5780.9082 880.698 7633.3413 2107192
-5727.5547 879.44934 7622.5195 2172984
-5661.3223 876.18768 7594.249 2107191
-5614.2329 875.86011 7591.4102 2172728
-5532.2012 870.03198 7540.8955 2172727
-5502.9238 872.47308 7562.0537 2172727
-5482.2988 876.3374 7595.5469 2172727
-5432.3066 875.53241 7588.5698 2107191
-5404.2012 878.271 7612.3057 2041398
-5408.6509 886.39087 7682.6841 2041144
-5364.4209 886.60315 7684.5234 2041141
-5367.7769 894.75098 7755.1445 2041398
-5283.3667 888.28369 7699.0894 2172983
-5236.145 888.0105 7696.7222 2568251
-5227.8311 894.38898 7752.0063 2765112
-5120.0601 883.71436 7659.4858 3093562
-5064.3599 881.91663 7643.9038 3685438
-5078.8184 892.41412 7734.8901 3816766
-5050.8057 895.5722 7762.2622 3619644
-5056.8179 904.87677 7842.9087 3159096
-4978.0713 899.04633 7792.3735 2764598
-4939.894 900.5022 7804.9922 2106930
-4865.2402 895.27344 7759.6724 1975603
-4790.4692 889.92303 7713.2988 1844018
-4693.6787 880.33966 7630.2358 1844019
-4691.8276 888.5498 7701.3965 1844020
-4573.1318 874.57568 7580.2769 1778228
-4544.6255 877.74316 7607.7314 1778228
-4523.458 882.40588 7648.145 1712435
-4501.4165 886.99091 7687.8848 1712435
-4447.4224 885.3089 7673.3057 1712436
-4343.8511 873.6214 7572.0063 1646644
-4253.2856 864.33307 7491.5005 1646643
-4212.856 865.14447 7498.5337 1646899
-4159.3359 863.25647 7482.1694 1646899
-4116.4873 863.56641 7484.856 1646642
-4046.4517 858.11768 7437.6294 1712691
-4003.3547 858.32465 7439.4233 1647155
-3928.429 851.63605 7381.4507 1581618
-3911.7661 857.56989 7432.8813 1647155
-3820.5203 847.10181 7342.1509 1646900
-3739.314 838.64429 7268.8467 1646900
-3731.4961 846.64099 7338.1567 1581108
-3654.5042 838.94617 7271.4629 1646900
-3622.7014 841.56543 7294.1646 1646644
-3614.9824 849.91016 7366.4922 1646900
-3528.9797 839.82886 7279.1133 1712693
-3498.1272 842.78516 7304.7368 1778228
-3450.1731 841.64374 7294.8433 1712948
-3373.9712 833.49512 7224.2163 1712948
-3339.6555 835.61737 7242.6108 1844021
-3294.7544 835.11188 7238.23 1778229
-3254.4692 835.77844 7244.0073 1843765
-3230.9385 840.82312 7287.7314 1844278
-3192.0894 841.96393 7297.6187 1778229
-3187.5745 852.31647 7387.3486 1712436
-3229.0137 875.41608 7587.561 1778743
-3127.4756 859.85809 7452.7144 1844022
-3011.3735 839.79297 7278.8022 2700100
-2992.9275 846.77417 7339.311 4279647
-2968.7485 852.31537 7387.3389 5069676
-2911.2478 848.31262 7352.646 5990521
-2784.8462 823.80621 7140.2397 6451587
-2661.9451 799.5954 6930.395 6780809
-2475.6951 755.29919 6546.4629 7043981
-2381.1116 738.00427 6396.5615 6978188
-2439.9001 768.45502 6660.4893 7110031
-2288.0354 732.47021 6348.5957 7110031
-2578.1924 839.15222 7273.249 7110031
-2556.4214 846.2085 7334.4087 7110287
-2658.0654 895.0672 7757.8853 7175824
-2380.6841 815.76788 7070.5684 7241362
-2365.783 825.18085 7152.1533 7241103
-2315.2195 822.27112 7126.9341 7241359
-2285.366 826.74542 7165.7144 7307152
-2333.4329 860.11072 7454.9038 7043980
-2321.2866 872.14044 7559.1699 6320002
-2335.7222 894.82697 7755.8032 5398900
-2215.6404 865.85577 7504.6987 5530486
-2107.2812 840.37286 7283.8286 6385795
-2062.655 839.7724 7278.624 6978446
-1906.3147 792.69257 6870.5659 7176337
-1792.7996 761.75482 6602.4165 7110288
-1719.2969 746.81738 6472.9482 7241617
-1668.1854 741.14655 6423.7964 7241617
-1639.6653 745.48206 6461.374 7241874
-1568.6675 730.25055 6329.3569 7241874
-1522.6512 726.18732 6294.1392 7241617
-1475.007 721.12415 6250.2549 7241618
-1441.0209 722.64954 6263.4761 7307410
-1381.585 711.15558 6163.854 7307411
-1336.6193 706.68811 6125.1323 7438996
-1297.8508 705.33942 6113.4429 7570841
-1260.6484 704.7887 6108.6694 7702170
-1246.2469 717.32947 6217.3652 7636377
-1186.4045 703.68219 6099.0791 7834013
-1149.5823 703.26007 6095.4204 7900060
-1111.9482 702.29797 6087.0815 7900060
-1087.3981 709.81189 6152.2075 7965853
-1041.3796 703.34747 6096.1777 7768217
-1018.427 712.55682 6175.9985 7241615
-981.38019 712.22382 6173.1123 6714240
-951.39166 717.18579 6216.1201 4937310
-901.48291 706.92633 6127.1973 4607316
-878.87256 718.11102 6224.1392 3948872
-825.35199 703.91302 6101.0801 3159099
-786.28583 701.30682 6078.4912 2040101
-750.02216 701.07001 6076.4385 2698031
-721.30646 708.22046 6138.4141 2632235
-678.98108 702.05786 6085.0005 3289394
-619.19739 676.14038 5860.3638 3354927
-588.41223 680.69019 5899.7983 2236190
-551.50208 678.28149 5878.9219 2631203
-522.99323 686.57727 5950.8242 3026218
-476.75974 671.12183 5816.8657 3421489
-449.61484 682.22205 5913.0757 3289389
-414.50067 682.08411 5911.8804 3289389
-381.42264 685.58069 5942.1865 3947319
-346.62628 686.38562 5949.1631 2763043
-309.84842 683.00488 5919.8608 2696993
-270.7854 673.08118 5833.8481 2630944
-236.27997 673.2395 5835.2207 2893859
-198.09335 661.16571 5730.5728 2828580
-163.99231 660.55414 5725.272 2828322
-129.73785 658.8446 5710.4546 2828065
-97.265968 668.17438 5791.3193 2564635
-62.630428 664.70966 5761.2896 2696476
-28.567831 666.30933 5775.1543 2300948
5.5537057 655.4765 5681.2617 2235155
39.506954 660.42737 5724.1733 3090464
73.418251 660.42737 5724.1733 2432792
107.19052 659.5719 5716.7588 2235671
142.21268 664.97156 5763.5591 3025187
173.06978 652.57562 5656.1191 2630685
207.69315 656.09863 5686.6548 2762270
241.53989 656.52734 5690.3701 2762014
273.46222 652.26086 5653.3911 2498842
307.86182 654.18958 5670.1079 2367257
342.02554 655.28693 5679.6187 2564636
378.19302 659.68274 5717.7192 2828062
406.87012 651.36444 5645.6216 2499097
445.68445 659.30597 5714.4536 2564890
477.26678 656.18311 5687.3862 2564891
506.673 650.67743 5639.667 3748909
545.20203 656.84393 5693.1138 3025186
568.48804 644.99738 5590.4355 3090980
604.59857 648.20471 5618.2349 2762015
622.41321 632.48529 5481.9888 3025184
649.34729 627.13251 5435.5938 2564376
685.18024 630.47382 5464.5542 2958876
715.37726 628.56165 5447.981 3024156
740.81335 622.81207 5398.147 2958618
783.08197 631.104 5470.0166 3090204
819.67456 634.34436 5498.1016 3090204
851.47638 633.77106 5493.1328 2958618
876.26221 628.21002 5444.9336 2958618
901.81573 623.57483 5404.7583 2760983
938.32526 626.57336 5430.748 2497811
957.10095 617.92389 5355.7793 2629397
989.12372 618.10754 5357.3711 2958618
1016.5729 615.51056 5334.8623 2958618
1035.464 608.04474 5270.1533 2563860
1089.1382 620.84344 5381.0845 2103312
1114.9254 617.46991 5351.8442 2037001
1146.0693 617.16736 5349.2227 2168587
1170.6855 613.46057 5317.0942 2234380
1179.1315 601.69653 5215.1309 4800306
1206.5665 599.97577 5200.2163 2234635
1252.2887 607.2077 5262.8979 2366223
1280.1173 605.6228 5249.1616 2365966
1318.9861 609.21228 5280.2729 2628624
1334.6735 602.17657 5219.2915 2957589
1362.5328 600.82684 5207.5928 2760210
1402.8169 604.89435 5242.8477 2891796
1425.7871 601.48175 5213.269 3155482
1461.5393 603.49164 5230.6895 2694931
1489.2119 602.15118 5219.0713 2760724
1510.6984 598.41473 5186.6865 3221275
1550.7122 602.02008 5217.9351 3023896
1571.4821 598.15955 5184.4746 2694931
1590.7166 593.87384 5147.3286 2234380
1630.1566 597.15094 5175.7324 2300173
1655.4601 595.22412 5159.0322 2694933
1698.7913 599.73175 5198.1011 2168589
1715.6685 594.90582 5156.2729 2037003
1743.2841 593.90723 5147.6177 4405551
1737.2473 581.67517 5041.5981 1905416
1794.9221 590.82837 5120.9321 2168589
1826.0717 591.09119 5123.2104 2497554
1848.1334 588.45184 5100.3345 2431761
1878.6199 588.53674 5101.0698 2431504
1889.8416 582.6792 5050.3003 2102796
1926.264 584.65308 5067.4087 2234382
1950.2512 582.84998 5051.7803 2432017
1973.3196 580.83093 5034.2808 2563090
1995.4453 578.59863 5014.9326 2694933
2012.6548 575.02728 4983.9785 2365711
2046.582 576.26654 4994.7192 2826519
2065.4897 573.30151 4969.0205 2760469
2084.853 570.54456 4945.125 2497554
2101.7871 567.20844 4916.2095 3023897
0 0 0 0
0 0 0 0
0 0 0 0
0 0 0 0
0 0 0 0
0 0 0 0
0 0 0 0
0 0 0 0
0 0 0 0
0 0 0 0
0 0 0 0
691.95691 160.11357 1387.7646 262144
700.6225 160.21513 1388.645 262145
707.6001 159.93282 1386.1981 65543
711.33862 158.93329 1377.5348 10
719.12598 158.85078 1376.8197 11
699.46643 152.77528 1324.161 11
726.0918 156.83182 1359.3204 12
730.68549 156.09285 1352.9155 13
736.40796 155.60841 1348.7168 65549
744.02966 155.5314 1348.0493 131085
751.87128 155.50151 1347.7903 12
758.50134 155.22432 1345.3877 19
765.15704 154.95805 1343.08 197408
773.05347 154.94597 1342.9752 2106439
780.9953 154.94315 1342.9507 1909320
785.24719 154.21571 1336.6458 2040650
795.12622 154.59688 1339.9495 1645376
802.29193 154.44817 1338.6605 1513787
807.35168 153.90094 1333.9175 1579317
814.55316 153.7686 1332.7705 18
817.63165 152.86797 1324.9644 16
824.00073 152.59384 1322.5884 16
830.24707 152.30235 1320.062 16
838.53229 152.38684 1320.7942 15
824.85156 148.51479 1287.2336 14
831.97192 148.42461 1286.452 65547
837.87842 148.12146 1283.8246 65544
859.9068 150.64819 1305.7247 196612
868.11029 150.72948 1306.4292 459780
0 0 0 0
0 0 0 0
3182.6707 538.21008 4664.8696 2430473
3221.9253 540.15802 4681.7529 2364423
3203.1113 532.42053 4614.6895 2232836
3291.396 542.46527 4701.751 2101251
3271.2732 534.62433 4633.791 2232837
3290.4875 533.28931 4622.2197 2496009
3301.3281 530.63037 4599.1738 2364679
3408.6606 543.39746 4709.8306 2101765
3426.8638 541.86389 4696.5386 2430729
3442.1316 539.89453 4679.4697 2035972
3465.8689 539.27448 4674.0952 2299143
3483.3792 537.70306 4660.4751 2364936
3496.502 535.48438 4641.2451 2364680
3528.4817 536.16577 4647.1509 2496523
3562.979 537.21613 4656.2549 2496523
3559.7527 532.60626 4616.2993 2299144
3601.4412 534.73547 4634.7539 2298887
3646.2495 537.29224 4656.9146 2167558
3718.4465 543.8161 4713.4595 2365190
3667.9087 532.42682 4614.7441 2628363
3691.7671 531.92529 4610.3975 3022093
3751.9221 536.62256 4651.1104 3022350
3716.175 527.63489 4573.2104 2693128
3737.6191 526.83868 4566.3096 2890764
3798.1492 531.52368 4606.9165 3351315
3840.5603 533.62433 4625.1235 3022350
3836.9226 529.34235 4588.0098 2759434
3821.885 523.55896 4537.8828 2824714
3842.2651 522.67426 4530.2148 2824714
3846.3613 519.60211 4503.5874 2627335
3871.968 519.45807 4502.3389 2693128
3922.1572 522.59137 4529.4966 2627592
3967.9961 525.10645 4551.2954 2759177
3994.5828 525.05701 4550.8672 3219987
3994.561 521.53418 4520.3335 2694156
3986.6128 517.03027 4481.2964 2694155
4009.2646 516.52826 4476.9453 2825742
4049.0708 518.22845 4491.6816 2957328
4065.9565 516.992 4480.9648 2694157
4083.0444 515.79718 4470.6089 2957074
4115.5044 516.54712 4477.1089 2957074
4127.4766 514.73248 4461.3804 3022610
4151.4565 514.42883 4458.749 3022867
4173.1494 513.84741 4453.7095 2891024
4190.2065 512.70612 4443.8174 2496525
4227.2319 514.00708 4455.0933 2628109
4232.6919 511.47757 4433.1689 2693645
0 0 0 0
0 0 0 0
0 0 0 0
0 0 0 0
-6481.7168 862.70416 7112.189 790300
-6524.7969 874.12024 7206.3037 921887
-6534.314 881.16064 7264.3457 1053473
-6505.0322 883.02765 7279.7373 1185316
-6685.8359 913.62805 7532.0093 1448489
-6643.8726 913.99371 7535.0234 2238005
-6590.6382 912.80322 7525.209 2304313
-6613.1294 922.15601 7602.314 2238520
-6721.1855 943.65027 7779.5146 2304568
-6599.2563 932.92865 7691.1245 2304313
-6567.5439 934.90057 7707.3809 2239033
-6429.1382 921.60559 7597.7764 2172984
-6368.8491 919.40009 7579.5942 2107191
-6356.9814 924.20288 7619.1885 2107191
-6252.4922 915.51245 7547.5439 2041400
-6190.5312 912.96881 7526.5742 2041401
-6206.5718 921.97522 7600.8237 2041401
-6005.688 898.65411 7408.563 2041401
-5964.0137 898.98798 7411.3159 2041401
-5930.3691 900.54633 7424.1631 1975865
-5942.3472 909.10767 7494.7427 2041401
-5861.0054 903.41351 7447.7993 2107449
-5766.1714 895.53754 7382.8696 2107450
-5766.6094 902.45093 7439.8638 1975865
-5688.3203 897.05542 7395.3828 2107194
-5589.8457 888.3681 7323.7642 2172987
-5566.3169 891.54883 7349.9868 2238778
-5531.3965 892.94073 7361.4619 2041400
-5475.8579 891 7345.4619 2041141
-5430.9663 890.77441 7343.6021 2107188
-5321.0054 879.7865 7253.0171 2172468
-5229.8916 871.76117 7186.856 2633016
-5243.2983 881.16949 7264.4189 3159098
-5184.1147 878.43335 7241.8618 3356476
-5115.2651 874 7205.313 3882818
-4967.625 855.91656 7056.2319 4277830
-4992.3564 867.4776 7151.542 4145988
-4997.2754 875.7644 7219.8589 3488573
-4959.5698 876.65997 7227.2417 3159095
-4936.3525 880.15454 7256.0508 2895921
-4868.3032 875.64648 7218.8862 2435372
-4910.4248 891.05035 7345.877 1974825
-4880.7476 893.58435 7366.7681 1909033
-4879.0942 901.34131 7430.7163 1843499
-4811.7261 896.98901 7394.8359 1842990
-4750.0459 893.62683 7367.1177 1843503
-4702.6621 892.91681 7361.2642 1777711
-4683.3076 897.56543 7399.5879 1777967
-4526.1294 875.63806 7218.8169 1712434
-4474.6982 873.94568 7204.8647 1712433
-4435.9712 874.72571 7211.2959 1646643
-4410.5225 878.16492 7239.6484 1712435
-4334.6431 871.53192 7184.9653 1712435
-4272.4385 867.54395 7152.0889 1712435
-4234.1772 868.3869 7159.0376 1778229
-4215.6597 873.33685 7199.8457 1646900
-4298.4741 899.59503 7416.3203 1712436
-4169.3921 881.59143 7267.897 1712435
-4103.9697 876.81299 7228.5034 1712436
-4046.7468 873.70416 7202.8735 1778228
-3976.6301 867.71552 7153.5029 1712436
-3922.114 865.03857 7131.4341 1778228
-3884.0437 865.97009 7139.1138 1844021
-3853.9199 868.71326 7161.729 1844021
-3815.1301 869.54248 7168.5645 1712948
-3716.3381 856.56067 7061.542 1712948
-3626.4143 845.35052 6969.1245 1646901
-3632.447 856.50806 7061.1084 1712693
-3564.344 850.24127 7009.4443 1712693
-3488.2263 841.89246 6940.6157 1712693
-3519.1577 859.48907 7085.6841 1647157
-3446.4319 851.88867 7023.0254 1647157
-3387.0413 847.4389 6986.3413 1581108
-3350.5798 848.68695 6996.6304 1186349
-3399.1765 871.78101 7187.0195 1185320
-3372.5376 875.92053 7221.146 1252140
-3309.6252 870.62457 7177.4854 2173500
-3279.9548 874.04895 7205.7168 3818582
-3279.3074 885.39984 7299.2939 4542817
-3197.5193 874.85364 7212.3501 5793397
-3071.7981 851.83875 7022.6143 6122106
-3087.7598 868.02136 7156.0244 6582916
-3020.0498 860.80542 7096.5361 7043724
-2540.4629 734.33112 6053.8735 7241102
-2985.1877 875.23669 7215.5083 7110030
-2697.4368 802.35944 6614.7036 7307152
-2532.5398 764.41547 6301.8906 7307152
-2506.9036 767.99908 6331.4341 7306898
-2441.7063 759.38776 6260.4424 7372690
-2412.2356 761.7934 6280.2744 7504020
-2366.7522 759.13831 6258.3857 7570069
-2340.1143 762.53973 6286.4272 7438484
-2322.6409 769.08563 6340.3921 7570069
-2303.4849 775.28046 6391.4629 7504276
-2258.7371 772.92505 6372.0444 7504276
-2230.9153 776.38 6400.5273 7504533
-2202.1799 779.63098 6427.3286 7439252
-2174.4629 783.3631 6458.0967 7438996
-2142.6565 785.72937 6477.6045 7438996
-2116.6843 790.36053 6515.7842 7373460
-2024.6671 770.04468 6348.2983 7505046
-2038.276 789.89301 6511.9297 7306898
-1991.2708 786.56433 6484.4873 7373203
-2029.5499 817.4552 6739.1538 7307667
-1971.2042 809.88654 6676.7573 7307667
-1929.6362 809.04242 6669.7983 7241874
-1989.3368 851.5097 7019.9009 7373203
-1961.8301 857.66553 7070.6499 7373203
-1908.9844 852.77051 7030.2954 7175824
-1840.6134 840.56726 6929.6909 6517896
-1769.8595 826.69403 6815.3193 5202035
-1723.6801 823.9198 6792.4482 5004657
-1653.9366 809.47998 6673.4058 6123138
-1594.2158 799.35852 6589.9634 7175825
-1543.0198 793.1106 6538.4551 7307667
-1502.1064 791.96222 6528.9878 7636632
-1353.1135 732.26373 6036.8301 7636632
-1314.9115 730.90833 6025.6558 7899804
-1310.4442 748.75232 6172.7627 7768218
-1242.0437 730.04242 6018.5176 7899547
-1219.6062 738.04108 6084.4585 7636632
-1182.3651 737.29559 6078.313 7570839
-1136.3187 730.84009 6025.0933 7307923
-1108.1832 735.85913 6066.4707 7504015
-1071.063 735.04858 6059.7886 7503496
-951.20544 675.4317 5568.3027 3883078
-1001.0295 736.34747 6070.4961 1777181
-960.35278 732.75079 6040.8452 2499877
-878.34058 696.11591 5738.8252 1973532
-860.91632 709.78021 5851.4741 2894631
-798.76184 686.16608 5656.7979 3552562
-774.1156 694.11578 5722.3354 2828839
-756.31299 709.211 5846.7817 3420976
-698.34662 686.28522 5657.7803 3749942
-669.89398 691.5141 5700.8872 3289389
-628.15857 682.85864 5629.5312 3289390
-594.15021 682.10352 5623.3057 2697253
-568.87537 691.88062 5703.9087 3486768
-531.69489 687.49829 5667.7808 3881526
-496.02451 684.60925 5643.9634 3092267
-457.53073 677.12421 5582.2559 3815988
-430.96271 687.49744 5667.7734 3354667
-397.76746 688.15814 5673.2202 2894114
-368.51477 696.39117 5741.0942 2960165
-327.09714 680.97272 5613.9834 2959908
-293.44452 680.05939 5606.4536 2104342
-257.59308 673.16669 5549.6299 2367258
-225.77678 676.34491 5575.8315 2893601
-190.62968 668.92474 5514.6592 3025698
-158.12073 669.60706 5520.2842 2499354
-126.90474 677.54846 5585.7539 3222820
-94.059128 679.32275 5600.3809 3222306
-59.9468 668.89655 5514.4263 3156513
-27.394892 671.76062 5538.0381 2761242
5.4470553 675.89984 5572.1621 3682601
38.318275 673.44757 5551.9458 2498327
70.95858 671.07684 5532.4014 3090464
102.95693 666.05133 5490.9702 2433307
134.15524 659.50598 5437.0103 2235671
169.27415 671.03711 5532.0737 1840656
199.00266 660.92493 5448.708 2169878
229.8427 656.81177 5414.7993 2235671
263.58691 660.98889 5449.2354 2367257
290.36365 648.68872 5347.832 2235414
326.30591 657.27045 5418.5806 2103828
355.92969 652.72778 5381.1304 2563863
391.46228 658.8772 5431.8262 2235411
434.42041 675.64105 5570.0288 2761499
459.70395 664.48987 5478.0977 3616806
490.23578 661.89532 5456.708 3090716
518.99756 657.37982 5419.4819 3221790
538.07837 641.84247 5291.3911 3945513
568.99634 641.35846 5287.4009 3287583
597.78326 638.64813 5265.0571 2892825
627.59045 637.24268 5253.4702 3024411
660.91608 639.37378 5271.0391 3024411
687.7149 635.28339 5237.3174 2760727
726.64825 642.27155 5294.9287 2431761
742.24805 628.91083 5184.7817 3550242
789.20117 642.12207 5293.6963 3024155
817.47174 639.70367 5273.7588 3418656
842.98157 635.38239 5238.1338 2563860
871.40997 633.48981 5222.5308 2103309
906.55951 636.44543 5246.8975 2234895
946.52991 642.47736 5296.6255 2498067
967.03461 635.33344 5237.73 2761239
987.46344 628.58545 5182.0991 2695446
1015.4096 626.88531 5168.0835 2629396
1044.864 626.18866 5162.3398 3221276
1082.1799 630.10907 5194.6602 1971208
1118.25 633.10724 5219.3774 2431758
1140.2532 628.19427 5178.8745 2694931
1179.0959 632.57312 5214.9741 2563345
1193.3801 623.88928 5143.3838 2694931
1219.1473 621.49164 5123.6177 2497552
1239.6006 616.56732 5083.021 2300172
1265.8666 614.69922 5067.6206 2365452
1302.714 617.93695 5094.3125 3286554
1330.8628 616.99536 5086.5503 2694417
1344.7756 609.64178 5025.9263 3023382
1362.2919 604.20483 4981.104 2760210
1391.694 604.15833 4980.7207 2300173
1427.2177 606.71613 5001.8071 2629139
1480.9448 616.75079 5084.5337 2892311
1501.1593 612.70697 5051.1963 2497553
1519.7582 608.17474 5013.832 1971210
1565.0127 614.27881 5064.1543 2365968
1552.6107 597.9483 4929.5249 2037003
1594.2791 602.66016 4968.3696 2234383
1609.2224 597.28186 4924.0308 2300175
1650.8112 601.80878 4961.3506 2300175
1670.8297 598.45135 4933.6719 2431761
1694.0959 596.35266 4916.3701 2563347
1735.4484 600.58398 4951.2534 2168589
1763.246 600.06165 4946.9473 2234382
1794.8673 600.83643 4953.3345 2563347
1807.9374 595.47614 4909.144 2431761
1837.5452 595.64624 4910.5464 2431761
1874.9756 598.30731 4932.4844 3945000
1893.0192 594.79523 4903.5308 2365968
1922.4293 594.9068 4904.4507 2431761
1949.6785 594.35632 4899.9121 2563347
1974.3108 593.03589 4889.0264 2563347
1994.1001 590.32001 4866.6362 2168589
1995.3318 582.26605 4800.2393 2102796
2011.5723 578.75677 4771.3086 2563347
2061.7659 584.97809 4822.5977 2168332
2057.4548 575.77637 4746.7378 2958104
0 0 0 0
0 0 0 0
0 0 0 0
0 0 0 0
0 0 0 0
0 0 0 0
0 0 0 0
0 0 0 0
0 0 0 0
0 0 0 0
692.56531 168.483 1388.9849 262144
698.88495 168.02405 1385.2012 262146
681.42151 161.92424 1334.9139 65542
658.98792 154.79689 1276.1556 10
681.35217 158.23492 1304.499 12
722.20294 165.84094 1367.2035 15
710.89899 161.43466 1330.8779 13
717.28363 161.09784 1328.1011 16
720.9259 160.15906 1320.3617 19
725.33386 159.40872 1314.1759 19
732.30792 159.23228 1312.7213 18
739.02954 159.00525 1310.8496 24
768.66583 163.66187 1349.239 288
772.30084 162.74347 1341.6677 2171977
781.35046 162.97318 1343.5614 2040648
763.69153 157.68358 1299.9537 2105929
792.93188 162.08647 1336.2515 2105929
799.79858 161.87405 1334.5002 2106182
813.8786 163.11143 1344.7013 2434368
820.84766 162.91351 1343.0696 19
821.6488 161.50699 1331.4741 17
775.4812 150.98262 1244.7106 19
780.55383 150.5388 1241.0516 16
808.11176 154.39932 1272.8781 14
813.59546 154.00992 1269.6677 11
794.21637 148.96434 1228.0718 65547
801.18469 148.90727 1227.6012 65544
805.20074 148.30746 1222.6564 196613
0 0 0 0
0 0 0 0
0 0 0 0
3009.6294 535.08087 4411.2417 2299144
3072.0801 541.48218 4464.0142 2364423
3113.604 544.11719 4485.7373 2364423
3163.9934 548.24365 4519.7563 2956559
3213.6423 552.17377 4552.1562 2561802
3267.9402 556.83051 4590.5469 2627594
3202.1042 541.10956 4460.9424 2561802
3263.343 546.94403 4509.042 2693902
3298.2866 548.31238 4520.3228 2825488
3403.4109 561.23163 4626.8301 2364936
3423.8389 560.08936 4617.4131 2430730
3385.7041 549.46118 4529.7939 2299144
3386.708 545.302 4495.5049 2496523
3422.3645 546.74365 4507.3901 2562315
3431.3782 543.93958 4484.2734 2496523
3468.1038 545.53772 4497.4487 2299144
3490.5571 544.88361 4492.0557 2299400
3568.3943 552.81946 4557.4795 2167815
3596.6772 553.01678 4559.1064 2562316
3593.677 548.43695 4521.3501 2693646
3577.8264 541.97839 4468.105 2759949
3625.1755 545.11798 4493.9878 2299141
3628.4309 541.6297 4465.2305 2824971
3633.6611 538.48462 4439.3022 2758921
3682.3413 541.77747 4466.4487 2759177
3697.3079 540.09845 4452.6069 2824971
3732.7905 541.41901 4463.4937 2956557
3714.7375 535.01056 4410.6621 2889994
3727.9216 533.15912 4395.3984 2627592
3765.7952 534.8399 4409.2549 2364421
3762.3755 530.67322 4374.9043 2496007
3765.1208 527.42712 4348.1436 2430214
3816.6121 531.0072 4377.6577 2561800
3830.0959 529.28668 4363.4736 2430984
3851.8474 528.72406 4358.8354 2628363
3874.3599 528.27277 4355.1147 2693899
3920.8184 531.0708 4378.1821 3022864
3927.5435 528.4856 4356.8696 2957071
3977.3953 531.6994 4383.3643 2562571
