# .PCD v0.7 - Point Cloud Data file format
VERSION 0.7
FIELDS x y z rgb
SIZE 4 4 4 4
TYPE F F F U
COUNT 1 1 1 1
WIDTH 1310
HEIGHT 1
VIEWPOINT 0 0 0 1 0 0 0
POINTS 1310
DATA ascii
-1158.9852 828.07428 1781.1708 2631711
-1167.5809 841.88068 1810.868 3552042
-1154.9083 840.46552 1807.8241 2433562
-1141.8497 838.74036 1804.1133 1906960
-1123.4413 833.01575 1791.7997 4012335
-1111.3007 831.87372 1789.3433 3552295
-1098.1284 829.93011 1785.1626 5395016
-1091.5667 832.99323 1791.7512 4999486
-1082.6085 834.26984 1794.4971 3420453
-1068.1207 831.26825 1788.0409 4341812
-1053.0018 827.71057 1780.3883 4341812
-1065.5859 846.07697 1819.894 2368027
-1066.7454 855.65491 1840.4961 3091492
-1049.2349 850.30066 1828.9791 3222821
-1034.3876 847.01544 1821.9126 2499098
-1021.9044 845.61713 1818.905 4407354
-1017.7284 851.13647 1830.777 2565149
-1013.7985 856.98267 1843.3521 3880750
-1000.9872 855.36682 1839.8765 2630683
-996.15723 860.61096 1851.1564 3288868
-967.49536 845.15338 1817.9073 3091235
-959.98419 848.03186 1824.099 4341561
-947.59436 846.617 1821.0558 2894114
-940.21564 849.69836 1827.6837 2630941
-924.49908 845.2287 1818.0696 3157028
-914.25336 845.71423 1819.1139 4604732
-919.7959 860.9903 1851.9724 2236443
-912.68762 864.65015 1859.8446 2236443
-890.96057 854.38098 1837.7559 1644566
-888.30743 862.37482 1854.9503 1841945
-877.71436 862.76404 1855.7877 657672
-851.74292 847.8551 1823.7188 2105374
-842.01953 848.94476 1826.0626 3881786
-831.83893 849.5957 1827.4629 3815992
-822.49005 851.12451 1830.7513 4473922
-813.4361 853.00354 1834.793 1184271
-799.84943 850.11584 1828.5817 1973273
-787.10638 848.05792 1824.155 1578771
-774.46808 846.05701 1819.8511 1842200
-762.24792 844.46283 1816.4221 2104859
-747.52057 840.00555 1806.8347 1907736
-735.6601 838.68726 1803.999 2434080
-720.37457 833.36786 1792.557 4342077
-710.21796 833.91132 1793.7261 2170909
-698.81323 832.98358 1791.7306 2368286
-694.95465 841.16101 1809.3199 920841
-683.46356 840.21161 1807.2778 2236441
-672.22998 839.55365 1805.8625 1775635
-668.68201 848.62817 1825.3817 1775891
-657.79987 848.54028 1825.1926 2434079
-645.36414 846.4118 1820.6144 592133
-627.79218 837.36023 1801.1445 1117962
-615.91058 835.71674 1797.6095 1578256
-603.28339 832.98602 1791.7357 1446925
-593.75452 834.51196 1795.0181 2631456
-582.20398 833.2005 1792.197 3882291
-569.23639 829.7746 1784.8281 1513746
-562.10297 834.88434 1795.8191 7963772
-551.87457 835.50586 1797.1558 66049
-540.10181 833.76758 1793.4167 395013
-527.72815 831.01337 1787.4926 65792
-515.59839 828.53821 1782.1687 1052428
-503.58109 826.1441 1777.0189 2302493
-496.07623 831.20874 1787.9128 1250059
-482.30615 825.76752 1776.2089 3618607
-471.68573 825.59637 1775.8407 2565919
-472.01172 845.01416 1817.6079 3881780
-460.08176 842.88531 1813.0288 2565921
-441.61801 828.39838 1781.8678 2631201
-432.21729 830.61884 1786.644 1380876
-422.85281 833.02228 1791.8137 986120
-410.18866 828.88165 1782.9073 1380877
-399.01886 827.6217 1780.1973 1709842
-389.49158 829.79279 1784.8671 1051397
-377.17709 825.98108 1776.6683 919555
-365.20493 822.7218 1769.6577 788225
-353.36386 819.57404 1762.8868 1708811
-341.37631 815.88434 1754.9504 1840653
-330.52835 814.77209 1752.5579 3287840
-321.45938 818.11499 1759.7485 590592
-309.77515 814.80334 1752.6251 2103567
-300.56561 817.99683 1759.4941 1774604
-288.85135 814.35809 1751.6676 656128
-277.62509 811.87543 1746.3273 853505
-266.64484 809.94769 1742.1808 1379849
-256.59778 810.81348 1744.0431 919297
-246.17419 810.51239 1743.3954 853505
-236.30751 812.09857 1746.8074 1182467
-226.42969 813.79022 1750.446 1577225
-216.34793 814.87604 1752.7815 1774602
-204.99234 811.03156 1744.5122 1643016
-194.89746 812.03149 1746.663 1116672
-183.79651 808.71686 1739.5332 1248258
-173.63628 809.39343 1740.9885 984576
-162.25629 804.1106 1729.6254 2103053
-153.06285 809.68225 1741.6099 2431761
-143.66293 814.88806 1752.8075 1839623
-133.58693 816.77142 1756.8584 2299918
-124.23486 823.77313 1771.9189 2563347
-113.02121 818.58447 1760.7583 1971722
-102.31923 816.42334 1756.1097 2169102
-92.22541 819.1748 1762.0281 1840137
-82.188652 823.2002 1770.6866 2234895
-71.481026 820.70093 1765.3108 1708551
-61.23838 823.59851 1771.5435 1050625
-50.446041 818.77295 1761.1638 2103310
-40.178101 822.16144 1768.4523 2037774
-29.405375 813.96747 1750.8273 1445639
-19.280558 824.55133 1773.5928 919296
-8.7372446 821.15393 1766.2852 919812
1.730221 822.86255 1769.9603 1511691
12.157523 818.93256 1761.507 1840913
22.77412 825.49438 1775.6213 459777
33.317764 826.10083 1776.9259 1775119
44.288021 834.4541 1794.8937 1512205
54.836033 833.15753 1792.1046 2038546
65.254547 830.63306 1786.6747 2367768
76.046265 832.90088 1791.5525 2894111
87.014511 836.30975 1798.8851 1380876
97.494774 834.79645 1795.6299 3091235
108.12749 834.75775 1795.5468 1249032
118.08781 830 1785.313 1906706
128.23042 827.20044 1779.2911 459521
138.9077 828.01324 1781.0396 1840913
149.94287 830.69409 1786.8058 1117190
160.89888 832.61157 1790.9304 1577997
170.95657 829.93097 1785.1644 1051911
183.85567 840.55304 1808.0122 591619
196.00543 846.76837 1821.3812 131328
204.87773 838.91479 1804.4883 788485
213.61087 831.29852 1788.1061 196608
224.07446 830.81824 1787.0729 1512207
234.4227 829.97278 1785.2544 1117191
245.63657 832.13281 1789.9005 985861
258.24289 838.63605 1803.8888 1775377
270.58508 843.79877 1814.9937 2959393
281.14648 843.22583 1813.7614 919812
294.60352 851.06 1830.6125 1182469
305.21194 850.40094 1829.1949 787712
314.5918 846.48138 1820.764 1182726
329.01102 855.93176 1841.0914 1380362
337.92606 850.91571 1830.3021 591104
348.16394 849.43909 1827.1259 2498843
356.89908 844.49567 1816.4928 1644044
367.29626 843.65924 1814.6937 1709580
379.0665 845.93463 1819.5879 2037776
387.02341 839.80945 1806.4128 1841421
391.87674 827.46063 1779.8508 3880234
403.00601 828.66364 1782.4384 3551527
411.30865 824.14154 1772.7113 2629911
420.93118 822.42322 1769.0154 1971981
432.85489 825.17529 1774.9351 2300947
438.42209 815.96655 1755.1272 1906190
0 0 0 0
0 0 0 0
0 0 0 0
0 0 0 0
416.90927 693.67133 1492.0728 0
427.11533 695.89807 1496.8624 262916
434.87921 694.13611 1493.0725 0
444.26273 694.97809 1494.8835 65536
454.36981 696.89691 1499.0109 590848
535.94342 806.25378 1734.2352 1773835
544.9646 804.4046 1730.2577 1642503
571.46899 827.95355 1780.911 1576710
584.27356 831.16003 1787.8081 1116416
593.85883 829.75433 1784.7844 1642503
607.75116 834.31036 1794.5844 1050627
626.66644 845.48669 1818.6244 1116674
630.16205 835.83289 1797.8593 1379590
636.48444 830.18701 1785.7151 1510918
646.97668 830.07574 1785.4757 1445125
660.1814 833.39209 1792.6093 656897
669.33789 831.5741 1788.6987 1116678
681.4903 833.47681 1792.7914 590337
688.91687 829.63013 1784.5172 458752
697.81079 827.63989 1780.2363 393216
711.021 830.7522 1786.9308 1182213
718.00433 826.60431 1778.0089 2431763
726.89014 824.73505 1773.9882 1642503
736.09473 823.27563 1770.8489 1905673
745.02179 821.55115 1767.1395 1708296
756.00665 822.11218 1768.3463 2103054
765.40857 820.96002 1765.868 2103057
778.96124 824.23096 1772.9037 1116675
786.56183 821.20062 1766.3856 1248003
797.9704 822.1734 1768.4779 2564120
808.90216 822.63605 1769.473 1577226
823.83228 827.10095 1779.0771 2432535
838.49774 831.19086 1787.8744 2432279
849.48547 831.57843 1788.7081 2564636
865.05304 836.38458 1799.046 1775121
878.66254 839.20355 1805.1096 131072
892.98981 842.63214 1812.4843 131072
897.75885 837.06708 1800.5139 1512207
915.89984 843.95428 1815.3281 985865
936.57678 852.99121 1834.7665 854535
942.94733 848.94067 1826.054 131072
953.11737 848.36401 1824.8135 3551790
960.79205 845.60406 1818.877 1512721
967.21716 841.81775 1810.7327 788743
969.59998 834.63489 1795.2825 787716
977.17975 832.03296 1789.6857 656385
985.54596 830.14923 1785.6339 2038035
996.14771 830.1687 1785.6757 2366999
1014.1021 836.25073 1798.7581 2432278
1030.245 840.72803 1808.3888 2892570
1036.3394 836.99756 1800.3645 2958363
1049.4652 838.96423 1804.5947 2497555
1050.5327 831.34869 1788.214 1905675
1067.5752 836.40106 1799.0814 2168847
1065.8949 826.8299 1778.4941 2234640
1076.9332 827.21564 1779.3237 1642503
1086.3909 826.39142 1777.5509 2300433
1097.3026 826.67859 1778.1686 2432019
1098.1523 819.45184 1762.624 1181954
1103.6763 815.81628 1754.8041 1116160
1115.6765 816.99127 1757.3313 1313538
1123.4691 815.09167 1753.2454 1576453
1136.0701 816.68353 1756.6694 1181696
1144.5463 815.30823 1753.7111 1510661
1153.2484 814.11707 1751.149 1247233
1160.744 812.10309 1746.817 1641989
1170.3645 811.59827 1745.7311 1181697
1182.7119 812.97656 1748.6959 2234381
1195.9139 814.91351 1752.8621 2431761
1220.3435 824.40173 1773.2711 2958362
1227.7625 822.33453 1768.8247 3287583
1235.4948 820.51044 1764.901 2695446
1248.9791 822.50494 1769.1912 2498067
1258.833 822.09534 1768.3102 1708039
1272.897 824.41931 1773.309 2037517
1285.7433 825.92303 1776.5433 2497812
1275.2301 812.51862 1747.7108 2366226
1289.0544 814.7121 1752.4288 2234640
1294.6407 811.70538 1745.9615 2103054
1305.6633 812.12781 1746.8701 2037261
1315.4111 811.7569 1746.0724 1774089
1322.6013 809.82574 1741.9185 1971468
1340.1089 814.19299 1751.3123 1445124
1350.9863 814.49579 1751.9635 1905675
1358.593 812.8371 1748.3958 1839624
1377.8383 818.11407 1759.7465 1905417
1384.1969 815.71765 1754.5918 2300175
1391.4508 813.88055 1750.6404 2431761
1398.3113 811.84235 1746.2561 2234382
1410.6625 812.99841 1748.7429 1641989
1435.649 821.36664 1766.7427 1510917
1449.4476 823.25916 1770.8135 1379075
1463.8507 825.46539 1775.559 1576711
1479.5131 828.34515 1781.7533 1774090
1501.2168 834.54254 1795.0837 1510919
1496.9941 826.34137 1777.4432 1971468
1521.889 834.21539 1794.3801 2103566
1519.5748 827.16919 1779.2238 3287069
1535.4868 830.07294 1785.4698 3089689
1550.3456 832.37146 1790.4139 1970951
1545.7345 824.25659 1772.959 2299916
1539.4419 815.36072 1753.8241 2168073
1534.9946 807.55487 1737.0338 2168073
1546.6556 808.271 1738.5742 2299659
1551.9064 805.64996 1732.9364 2168329
1568.37 808.84601 1739.811 2233866
1576.9683 807.97052 1737.928 2365711
1570.0524 799.20911 1719.0823 2431762
1581.8271 800.01355 1720.8126 3352864
1606.444 807.26099 1736.4017 3353123
1611.9858 804.89178 1731.3055 3155489
1640.3733 813.88751 1750.6553 2695709
1650.4058 813.72052 1750.296 3748142
1659.5939 813.14178 1749.0513 2762275
1671.9818 814.12836 1751.1733 2169881
0 0 0 0
0 0 0 0
0 0 0 0
0 0 0 0
0 0 0 0
0 0 0 0
0 0 0 0
0 0 0 0
0 0 0 0
0 0 0 0
0 0 0 0
0 0 0 0
-1541.9677 840.32031 1784.7684 3487020
-1528.9261 838.96594 1781.892 3223593
-1519.2955 839.47748 1782.9784 5789775
-1511.8765 841.22668 1786.6936 3223847
-1504.5503 843.05249 1790.5715 4868929
-1494.1693 843.18048 1790.8434 3421226
-1474.0873 837.79675 1779.4087 4539706
-1471.4686 842.33215 1789.0415 5591881
-1453.7106 838.20404 1780.2738 4867645
-1448.8398 841.50079 1787.2759 4867646
-1430.4266 836.92249 1777.5519 2630941
-1394.5571 821.98712 1745.8304 2894114
-1387.2649 823.79858 1749.6777 3749163
-1368.1238 818.5481 1738.5262 1907217
-1364.9034 822.81561 1747.5901 7040096
-1365.5358 829.48877 1761.7633 7631978
-1360.9916 833.09589 1769.4246 4079155
-1353.946 835.21613 1773.9276 2893855
-1335.5851 830.33453 1763.5597 3091491
-1326.5498 831.2196 1765.4395 2301974
-1311.3314 828.21368 1759.0551 3354661
-1317.3186 838.65973 1781.2417 2302229
-1301.6959 835.40576 1774.3306 2762779
-1267.2913 819.94672 1741.4968 4999740
-1261.6938 823.02545 1748.0358 4276018
-1275.8204 839.12787 1782.236 3354916
-1267.2384 840.43872 1785.0199 4407604
-1254.866 839.23645 1782.4666 2631449
-1228.1091 828.31207 1759.2642 3485988
-1216.2611 827.34229 1757.2043 3289124
-1197.3646 821.51965 1744.8376 3288867
-1185.3085 820.32971 1742.3103 3354407
-1176.4867 821.37701 1744.5347 2630682
-1164.1416 819.96124 1741.5276 4275509
-1160.5358 824.73071 1751.6575 1709582
-1145.6455 821.49451 1744.7842 5328454
-1123.7766 813.14984 1727.0609 8158067
-1143.9823 835.3761 1774.2675 3882033
-1135.875 837.14789 1778.0305 2500123
-1124.5544 836.56238 1776.787 1446411
-1107.5555 831.70166 1766.4633 3222566
-1105.2565 837.89221 1779.6115 2038546
-1098.9819 841.15912 1786.55 2630427
-1083.1063 837.0694 1777.8639 3551785
-1071.5646 836.28174 1776.191 3354663
-1062.5118 837.44019 1778.6515 2959903
-1057.1499 841.56006 1787.4016 2170648
-1054.4359 847.89246 1800.8512 9209981
-1016.8926 826.06116 1754.4833 3354664
-1034.4872 849.03217 1803.2717 2894112
-1022.6835 848.10272 1801.2976 1775893
-1012.9906 848.92267 1803.0392 4407096
-1004.9943 851.19702 1807.8698 4407097
-1000.1943 856.25665 1818.616 4867648
-979.42834 847.6095 1800.2501 3946804
-975.758 853.72943 1813.2484 2762529
-964.96509 853.68451 1813.153 4801854
-954.06848 853.54578 1812.8583 2894114
-929.52185 841.05298 1786.3247 2894114
-932.20068 853.19049 1812.1036 4670523
-926.44849 857.80426 1821.903 2170650
-915.76959 857.91156 1822.1307 4341811
-910.95282 863.57861 1834.1672 3749932
-906.57886 869.80731 1847.3965 3223847
-892.37085 866.63782 1840.6648 2894631
-874.71832 860.00336 1826.5736 1973529
-865.3457 861.44525 1829.6361 1184528
-854.0014 860.93604 1828.5546 2039325
-842.45221 860.20441 1827.0007 1315603
-828.46686 856.93402 1820.0548 4276543
-814.19476 853.27686 1812.2872 4803140
-797.39227 846.83466 1798.6045 2763301
-784.1153 844.01276 1792.6111 3157803
-780.27362 851.40887 1808.3197 3947319
-766.78027 848.3327 1801.7863 2960426
-760.70081 853.48779 1812.7352 1645080
-742.82031 845.3606 1795.4738 4473922
-727.43738 839.8808 1783.8351 2368545
-714.96906 837.65424 1779.106 2763304
-704.01721 837.16437 1778.0656 1513236
-694.01312 837.80359 1779.4232 3749941
-683.99738 838.44836 1780.7926 3749940
-673.20575 838.14734 1780.1532 1578770
-663.93286 839.75751 1783.5732 1776149
-663.88635 853.27844 1812.2904 3026216
-652.10608 851.91473 1809.3942 2170907
-632.85095 840.57709 1785.314 2039322
-622.61578 841.03827 1786.2933 1118220
-611.9657 840.94519 1786.0958 2039579
-598.04962 836.28204 1776.1915 1776406
-588.3858 837.50433 1778.7877 2762787
-577.41486 836.87665 1777.4546 1250319
-562.95624 831.07709 1765.1367 658181
-552.59412 831.21985 1765.4399 6908774
-548.76624 841.38684 1787.0337 3289903
-538.29901 841.57367 1787.4305 65792
-526.85162 840.20508 1784.5237 394756
-504.7489 821.43951 1744.6674 1381392
-498.40793 828.07666 1758.7642 2434079
-491.14423 833.43152 1770.1373 5263432
-476.6308 826.44946 1755.308 3158057
-464.4108 823.22113 1748.4514 4341817
-455.74884 826.29663 1754.9834 3026216
-446.1427 827.76379 1758.0996 4539197
-436.95871 830.10315 1763.0681 460034
-430.40683 837.67975 1779.1603 394498
-416.27444 830.51282 1763.9384 854277
-409.07458 837.16406 1778.0649 1051913
-396.41174 832.69159 1768.5658 919813
-386.16064 833.17987 1769.6028 525312
-377.16 836.46863 1776.5879 1577741
-365.26596 833.34497 1769.9535 1446410
-350.04443 822.2207 1746.3265 1709838
-337.20572 816.1864 1733.5101 1578508
-326.61438 815.38336 1731.8047 1446409
-316.45746 815.64813 1732.3668 919040
-307.10571 818.07532 1737.5221 1643018
-295.15829 813.51678 1727.8401 1379848
-286.53299 818.11603 1737.6085 722432
-274.81583 813.901 1728.6562 853763
-262.78024 808.38031 1716.9307 854019
-253.42917 811.00568 1722.5067 1379845
-244.24382 814.40405 1729.7245 853505
-234.36255 815.67792 1732.4302 1182981
-223.28621 812.71857 1726.1449 4274737
-208.64211 795.86591 1690.3513 1248259
-201.14941 805.96857 1711.8083 1445638
-192.43346 811.98212 1724.5807 1248258
-181.17247 807.3291 1714.6981 1643016
-170.93903 806.97424 1713.9442 2234640
-160.93915 807.7467 1715.585 1313795
-151.02248 809.06909 1718.3937 2366481
-142.20688 816.90778 1735.0424 1905673
-131.77234 815.9433 1732.9939 1576965
-122.20741 820.65546 1743.0022 1248001
-111.79102 819.99207 1741.5931 1511171
-101.29938 818.58563 1738.606 1247746
-91.370102 821.91949 1745.6868 1510918
-81.549377 827.20563 1756.9141 1576710
-70.14489 815.62286 1732.3132 590592
-60.259071 820.755 1743.2135 1642246
-50.059788 822.85742 1747.679 1643016
-39.5835 820.31586 1742.2808 1182723
-29.408203 824.41913 1750.9958 1512202
-19.152676 829.51971 1761.829 788226
-8.6759434 825.7832 1753.8928 1249032
1.7067579 822.0473 1745.9583 1184013
12.059778 822.70007 1747.3446 2696478
22.350113 820.44867 1742.5629 854535
32.998085 828.6004 1759.8766 1117958
42.245571 806.11426 1712.1178 3683371
54.106392 832.54718 1768.259 2170133
64.817245 835.58038 1774.7013 1117703
75.471741 837.14166 1778.0175 2498585
85.850365 835.63538 1774.8181 853505
96.525986 837.03326 1777.7871 262400
106.52785 832.88824 1768.9835 919813
117.40915 835.74585 1775.0527 197120
126.77972 828.26385 1759.1617 1906965
137.12473 827.80103 1758.1786 525826
149.0387 836.20648 1776.0311 2301980
157.28101 824.26129 1750.6606 1775636
166.80667 820.10376 1741.8303 1314829
176.25826 816.08765 1733.3003 525571
190.87778 835.12421 1773.7324 1644564
201.36317 835.03052 1773.5334 1184012
212.72603 838.40436 1780.6993 1052425
219.62932 824.71368 1751.6215 1644307
231.04161 828.42584 1759.5056 1447184
244.30292 838.16113 1780.1826 2236698
254.92422 838.40814 1780.7073 4012854
267.27127 844.08563 1792.7657 2433309
278.26059 845.2052 1795.1436 1051655
290.44592 849.74139 1804.7781 2301206
302.79492 854.4173 1814.7094 1183240
309.74603 844.06323 1792.7181 328193
323.95428 853.51587 1812.7948 854278
336.56924 858.29877 1822.9532 328192
342.30875 845.79602 1796.3984 2433050
350.86694 840.80194 1785.7914 2958877
361.47348 840.86487 1785.9252 5130303
371.90863 840.53699 1785.2288 3484709
377.97577 830.62823 1764.1835 2695702
389.70963 833.37061 1770.0081 3814181
399.14178 831.17627 1765.3474 3748644
407.4455 826.8042 1756.0614 3353886
414.81482 820.80072 1743.3105 2366995
424.39444 819.35632 1740.2428 1906188
432.69891 815.57697 1732.2157 2300690
0 0 0 0
0 0 0 0
0 0 0 0
414.92291 714.30847 1517.1301 1775379
420.37772 708.35522 1504.486 131072
426.84091 704.31299 1495.9006 65538
435.14224 703.40662 1493.9756 2
442.7258 701.39917 1489.7119 65536
454.91962 706.63141 1500.8247 1182983
531.21588 809.32532 1718.9377 721921
541.07251 808.83685 1717.9003 1248259
567.00476 831.9538 1766.9988 1840395
573.22894 825.83972 1754.0129 3156258
581.5108 822.85492 1747.6736 1511173
600.89545 835.41052 1774.3406 1313794
611.6449 835.73547 1775.0309 2563605
623.45148 837.46967 1778.714 1840138
633.56592 836.91071 1777.5269 1510917
643.73779 836.44482 1776.5374 1248261
651.89496 833.41809 1770.1089 2366485
661.85962 832.76147 1768.7142 590849
676.1087 837.43207 1778.6342 393216
685.14447 835.6012 1774.7455 458752
694.61041 834.34229 1772.0718 393216
706.82178 836.36938 1776.3772 327680
717.22327 836.22705 1776.0747 787712
718.83887 825.9931 1754.3389 1116163
729.33905 826.11438 1754.5964 1379332
740.6062 827.08881 1756.666 1773832
746.716 822.35645 1746.6149 1773575
763.55377 829.40668 1761.5889 1576454
765.53265 820.34387 1742.3405 3024156
774.3476 818.75049 1738.9561 2300433
788.67426 822.95007 1747.8757 1576968
799.89624 823.8432 1749.7726 2103569
814.7146 828.37012 1759.3873 2103572
825.59131 828.82556 1760.3547 2103571
847.13605 839.84601 1783.7611 2761244
858.14484 840.27808 1784.679 2169622
873.67303 845.07135 1794.8593 4340792
882.27161 843.12701 1790.7296 1446671
894.5567 844.70996 1794.0918 1051914
907.30017 846.68347 1798.2834 1775123
921.89929 850.32288 1806.0132 1314829
935.92743 853.35815 1812.4597 591365
947.1189 853.76746 1813.3291 1775380
957.19611 853.17438 1812.0695 2433565
959.28589 845.55408 1795.8845 1577744
963.50818 839.95984 1784.0031 2038037
971.06213 837.36011 1778.4813 2103571
960.71606 819.54633 1740.6465 3222049
978.66986 825.99609 1754.3451 2102799
1003.5776 838.11768 1780.0903 1905675
1018.2095 841.49475 1787.2629 1971211
1025.4835 838.784 1781.5055 1905675
1031.8372 835.38318 1774.2826 1905676
1033.5189 828.30688 1759.2532 2563605
1041.2819 826.19702 1754.7719 1905675
1050.1874 825.02637 1752.2854 1708296
1057.5294 822.66229 1747.2645 1642503
1067.119 822.07562 1746.0183 1445124
1086.326 828.83801 1760.3811 1708296
1074.1813 811.77869 1724.1486 1511430
1089.2598 815.42004 1731.8826 1379076
1104.0948 818.81305 1739.0889 1181953
1114.1067 818.59924 1738.6348 1510917
1129.2891 822.15369 1746.1841 1116160
1137.4478 820.57654 1742.8345 1181698
1147.3992 820.30945 1742.2672 919041
1154.9862 818.37195 1738.1521 590080
1157.6232 812.99219 1726.726 984576
1178.6536 820.51105 1742.6954 1773832
1188.3433 820.0733 1741.7657 1773832
1199.1512 820.40814 1742.4768 1905676
1208.7638 819.92645 1741.4536 787457
1222.4305 822.1795 1746.239 2761238
1233.0854 822.38611 1746.6777 2892824
1236.4987 817.79974 1736.9368 2563860
1252.9933 821.86951 1745.5806 2037261
1260.5576 820.06299 1741.7437 2300689
1269.1614 818.95654 1739.3937 2168847
1274.425 815.72992 1732.5406 3221535
1285.7571 816.4082 1733.9812 2300432
1295.7126 816.20844 1733.557 2168847
1302.8319 814.23938 1729.3749 1642503
1314.3677 815.03961 1731.0745 2037261
1326.7493 816.3479 1733.8533 1576710
1338.6836 817.3631 1736.0094 1445124
1350.3318 818.18933 1737.7643 1510403
1357.9979 816.60858 1734.4069 1247233
1367.381 816.07623 1733.2762 1839625
1385.8522 820.93542 1743.5966 1971210
1390.552 817.62512 1736.566 1971210
1402.9606 818.86304 1739.1951 2958105
1437.0203 832.62781 1768.4303 1905675
1436.7251 826.43158 1755.2701 2168847
1440.8424 822.84436 1747.6512 2037005
1451.4805 823.0058 1747.9941 1510662
1468.9771 827.02625 1756.5331 1774091
1477.9861 826.24518 1754.8741 2103056
1503.8457 834.82935 1773.1062 2168849
1511.3782 833.19104 1769.6266 1445124
1508.8923 826.09052 1754.5457 2037003
1503.3732 817.43781 1736.168 1576453
1504.0947 812.27289 1725.1982 1839623
1512.2216 811.14984 1722.813 2365454
1518.7961 809.21484 1718.7032 2102026
1526.1902 807.73938 1715.5693 1970440
1532.7037 805.8205 1711.4938 1970440
1546.9611 807.97125 1716.0619 2102282
1546.5504 802.48303 1704.4053 1773574
1563.775 806.15735 1712.2092 1971210
1567.3722 802.8042 1705.0876 3089692
1582.2523 805.23627 1710.2531 3287071
1601.5414 809.86682 1720.088 1971470
1604.1029 806.03357 1711.9464 1905677
1625.4084 811.60791 1723.7858 1643022
1644.8849 816.2049 1733.5494 2959395
1647.7263 812.54169 1725.7692 4077620
0 0 0 0
0 0 0 0
0 0 0 0
0 0 0 0
0 0 0 0
0 0 0 0
0 0 0 0
0 0 0 0
0 0 0 0
0 0 0 0
0 0 0 0
0 0 0 0
0 0 0 0
-1523.3003 846.39636 1775.3353 3881778
-1521.2618 851.14032 1785.286 5395017
-1501.7039 846.08002 1774.6719 4013365
-1491.87 846.46564 1775.4806 3289642
-1479.4274 845.36609 1773.1743 2368540
-1445.8903 832.11096 1745.3713 1447440
-1458.2521 845.27002 1772.9727 3421230
-1438.3704 839.79443 1761.4877 4078902
-1414.8647 832.10767 1745.3644 3092265
-1405.4374 832.64825 1746.4984 1183499
-1389.6952 829.42798 1739.7438 2038805
-1378.3654 828.81274 1738.4534 3748910
-1374.1046 832.47095 1746.1265 1380363
-1356.5751 828.08502 1736.9268 3288359
-1355.059 833.48169 1748.2465 5789004
-1333.2164 826.36261 1733.3142 4144179
-1349.7369 843.09607 1768.4128 5197380
-1324.637 833.8902 1749.1033 5855564
-1308.3763 830.14764 1741.2533 4276788
-1281.7799 819.73566 1719.4138 5658698
-1269.7511 818.54773 1716.9222 4737593
-1256.0464 816.25165 1712.1061 3683881
-1268.0211 830.74194 1742.4999 3881259
-1260.4475 832.55798 1746.3091 3683625
-1261.9363 840.43951 1762.8407 3749162
-1247.9103 838.03375 1757.7944 3551526
-1226.5127 830.59521 1742.1921 3749161
-1214.1805 829.2218 1739.3114 3551783
-1196.7622 824.32166 1729.0331 3485733
-1189.2612 826.22675 1733.0291 2630427
-1165.089 816.48193 1712.5892 3946543
-1154.1324 815.90881 1711.387 1841166
-1159.5662 827.0152 1734.683 2170134
-1149.1177 826.89154 1734.4236 2565149
-1141.4955 828.81775 1738.4639 3881008
-1122.1437 822.18494 1724.5513 3552044
-1103.7528 816.14075 1711.8734 4078388
-1127.8772 841.71271 1765.5112 1775636
-1119.0544 842.9455 1768.0969 1117705
-1097.6217 834.61304 1750.6195 1578000
-1095.0524 840.60187 1763.1813 2630942
-1079.4982 836.64258 1754.8765 2565150
-1063.8259 832.51373 1746.2162 3946544
-1068.2139 844.15643 1770.6371 3552302
-1053.8624 841.07446 1764.1725 2170391
-1049.455 845.94617 1774.3911 3551278
-1028.2461 837.23639 1756.1221 1906707
-1018.6859 837.93018 1757.5773 788997
-1023.7847 850.8208 1784.6156 3880496
-1013.2974 850.89227 1784.7656 2762525
-1003.6583 851.685 1786.4283 2367512
-996.45642 854.58502 1792.5111 2630943
-982.83716 851.98444 1787.0564 2564894
-966.5329 846.97424 1776.5475 1512206
-958.17871 848.89722 1780.5809 525571
-949.58044 850.64429 1784.2454 328706
-936.80096 848.64301 1780.0476 4274997
-921.83203 844.59009 1771.5466 4077876
-921.66687 854.16339 1791.6268 2170648
-913.31915 856.28821 1796.0837 2762526
-895.66089 849.63098 1782.12 2302229
-882.5365 847.16711 1776.952 4803132
-879.99542 854.92566 1793.2256 4802875
-887.57111 872.82239 1830.7644 5658698
-865.23529 861.38361 1806.7714 3816243
-857.50067 864.37653 1813.0491 2566178
-843.95044 861.50873 1807.0338 1118733
-834.12408 862.41748 1808.9399 2895144
-820.0224 858.87201 1801.5033 2368800
-801.39795 850.43341 1783.8032 1907996
-788.93835 848.39899 1779.5359 2236961
-781.74615 852.05048 1787.1948 4013114
-769.41718 850.12659 1783.1594 1447954
-755.7196 846.61591 1775.7958 3750710
-740.4248 841.19153 1764.418 4342076
-725.98285 836.5946 1754.7759 2894630
-723.80463 846.20166 1774.9269 3947319
-709.6778 841.91687 1765.9395 2039322
-694.15637 835.82465 1753.1609 2236701
-686.63257 839.32343 1760.4998 1381392
-678.50171 842.17682 1766.4846 2895144
-672.14062 847.35052 1777.3367 4934470
-662.86841 848.96057 1780.7139 3684659
-653.21936 850.1322 1783.1714 1776405
-638.63165 844.80939 1772.0066 2236957
-625.03778 840.64532 1763.2723 1052427
-612.12677 837.27368 1756.2003 920841
-607.32587 845.07031 1772.554 197121
-596.06281 843.99127 1770.2906 1907738
-579.54163 835.29517 1752.0503 3026473
-573.05316 841.00555 1764.028 1645076
-558.18634 834.40387 1750.1808 3224108
-548.51086 835.45947 1752.3949 1316115
-545.75708 847.3017 1777.2344 1974043
-534.82965 846.67059 1775.9105 131329
-523.86121 845.94788 1774.3945 394244
-504.16235 830.80865 1742.6399 1381393
-494.2088 831.43164 1743.9464 2631459
-483.59671 830.94958 1742.9353 2763044
-472.92899 830.34869 1741.675 1446668
-461.75531 828.81305 1738.4539 1249035
-450.35547 826.79205 1734.2148 2367772
-441.32495 829.12793 1739.1144 1775892
-429.98679 827.13647 1734.9373 2434080
-422.47375 832.58588 1746.3674 1381393
-411.93527 832.19678 1745.5514 526084
-403.84952 836.87018 1755.3539 460034
-395.1232 840.42834 1762.8171 657156
-382.58585 835.85333 1753.2211 985863
-369.72684 830.30078 1741.5745 525056
-357.78555 826.54944 1733.7059 657156
-345.57758 821.94214 1724.0421 1182727
-334.17487 819.02777 1717.9291 985859
-317.96262 803.77234 1685.9305 3156256
-312.28094 815.01086 1709.5035 1445639
-302.03586 814.69366 1708.8383 1379846
-291.17203 812.62769 1704.5048 1445641
-281.16107 812.87891 1705.0317 1774606
-271.74118 814.92145 1709.316 2037521
-260.81915 812.44299 1704.1174 1511434
-249.00745 806.88214 1692.4532 2366484
-241.18013 814.30731 1708.0277 2103569
-231.3085 815.17804 1709.8542 1248260
-220.36298 812.1709 1703.5465 1248261
-210.15739 811.73279 1702.6277 1774603
-200.33919 812.82233 1704.9131 1774602
-190.7637 815.0647 1709.6165 1379843
-180.7074 815.38885 1710.2964 2629910
-170.18214 813.50995 1706.3552 2366482
-158.80148 807.04645 1692.7979 2103054
-149.45137 810.7265 1700.517 1511173
-139.37714 810.7265 1700.517 1774344
-130.29085 816.92102 1713.5101 1576710
-120.81094 821.4859 1723.085 919041
-110.8209 823.10431 1726.4797 327680
-100.05565 818.70862 1717.2598 1510917
-90.586792 825.1264 1730.7211 1708296
-80.36454 825.44409 1731.3876 1774088
-70.332123 828.0899 1736.9371 1248004
-60.031322 827.94116 1736.6251 1445636
-49.693474 827.11407 1734.8903 1116416
-39.497711 828.83728 1738.5048 1182467
-29.217283 829.37286 1739.6282 1643275
-18.814959 825.1463 1730.7629 2037776
-8.5507784 824.11041 1728.5901 1775373
1.691581 824.98895 1730.4329 2498840
11.852174 818.71106 1717.2648 2235410
22.263983 827.57056 1735.8477 3551273
32.601227 828.93561 1738.7111 2564891
42.370777 818.67639 1717.1921 2433561
54.038754 841.96887 1766.0487 5131333
64.319733 839.59979 1761.0793 1578511
74.789665 840.01416 1761.9486 2893857
85.327797 840.99927 1764.0149 2695965
95.308327 836.87335 1755.3606 722949
104.95078 830.88263 1742.7949 3815217
116.19409 837.50378 1756.6829 1973527
125.61813 831.00122 1743.0436 2039320
136.26337 832.95148 1747.1344 2763043
146.65239 833.1709 1747.5945 1315341
155.93597 827.49512 1735.6895 1381134
167.34711 833.11322 1747.4736 526083
177.70253 833.12726 1747.5032 2499358
186.62262 826.78082 1734.1914 2170391
196.01888 823.09625 1726.4629 1972756
208.42458 831.78729 1744.6925 1973013
219.84705 835.91852 1753.3578 2433308
230.41475 836.57349 1754.7317 657670
242.10167 841.06018 1764.1426 2039065
252.93047 842.31769 1766.7803 526085
263.10306 841.37683 1764.8068 1117193
273.3345 840.6889 1763.3638 2433050
284.41931 842.57965 1767.3297 3090465
295.61951 844.66589 1771.7056 1841424
305.08008 841.80884 1765.7129 1512205
317.66638 847.48016 1777.6088 1248778
329.6395 851.20422 1785.4198 526084
339.93097 850.48926 1783.9202 6314063
347.6633 843.6076 1769.4858 2761241
358.15851 843.63666 1769.5469 1116162
367.40811 840.81366 1763.6255 2365969
377.18161 839.31244 1760.4767 2102796
387.3598 838.76831 1759.3354 2365968
395.32861 833.59406 1748.4823 3484447
402.96341 827.9978 1736.7439 2431759
409.39926 820.27783 1720.551 2629138
421.51022 824.02747 1728.416 1708037
0 0 0 0
0 0 0 0
0 0 0 0
407.07477 725.32709 1521.3898 1577229
415.82199 724.86359 1520.4176 1643027
423.03131 721.79584 1513.9829 131073
422.91534 706.61615 1482.1432 65540
435.9447 713.57074 1496.7306 2
439.06342 704.34937 1477.3885 131072
456.42688 717.89331 1505.7974 1249033
466.45639 719.60394 1509.3854 1906188
524.18005 793.44409 1664.2667 1839882
491.37848 730.06085 1531.319 1642503
570.51569 832.27271 1745.7107 1839626
581.26581 832.85754 1746.9373 1774089
591.52625 832.73248 1746.6749 1971469
603.24103 834.6239 1750.6423 1313542
611.89386 832.28668 1745.7399 1643018
624.46832 835.27246 1752.0028 1445896
640.03741 842.10083 1766.3253 3222051
647.03217 837.60962 1756.9049 984837
660.70575 841.76971 1765.6309 590337
671.54498 842.2453 1766.6284 393216
680.31799 840.15472 1762.2433 393216
689.56061 838.69843 1759.1887 393216
697.62128 835.86932 1753.2548 393216
708.51367 836.46643 1754.507 393216
713.66602 830.36749 1741.7145 1181959
720.95636 826.89459 1734.4299 722435
732.10065 827.8775 1736.4915 524544
739.89038 825.09216 1730.6493 1510661
750.08514 825.0285 1730.5156 1905418
762.24194 827.09528 1734.851 4208686
773.50671 828.1521 1737.0676 1051138
780.16144 824.31036 1729.0094 1774088
793.28619 827.31567 1735.3132 1643018
804.5437 828.32159 1737.4232 1577227
829.86688 843.60077 1769.4714 2827294
835.03064 838.26117 1758.2715 1643535
844.64288 837.46381 1756.599 656898
852.10028 834.57538 1750.5405 3683118
875.34894 847.03687 1776.6788 4867906
887.68457 848.7677 1780.3093 2762274
902.58002 852.87677 1788.9281 1380877
918.57776 857.91986 1799.5062 1249548
923.56464 852.68164 1788.5188 5854800
931.75305 850.48431 1783.9099 4406841
947.9809 855.59241 1794.6241 2761760
955.57306 852.87946 1788.9337 2762016
947.7663 836.63275 1754.856 1906451
0 0 0 0
939.86749 811.84955 1702.8727 1313540
950.98578 812.72986 1704.7191 1708298
976.04291 825.37897 1731.2509 1774089
997.6261 834.85779 1751.1328 1313282
1007.2693 834.25238 1749.8632 2102797
1010.8699 828.70569 1738.2288 1905418
1024.0544 831.04852 1743.1428 2037003
1035.2831 831.77301 1744.6626 2168847
1040.075 827.36298 1735.4124 1510917
1044.7479 822.94556 1726.1467 1510917
1058.3484 825.57776 1731.6678 2103054
1063.1793 821.38434 1722.8721 1774089
1067.3658 816.77753 1713.2091 1050113
1083.6085 821.39636 1722.8972 1248261
1090.101 818.60706 1717.0466 1906190
1105.8171 822.73181 1725.6985 1971982
1114.2588 821.41833 1722.9434 2037776
1134.5073 828.75354 1738.3291 1050883
1153.6331 835.14398 1751.7333 1840139
1142.4335 819.6629 1719.2612 1642249
1145.725 814.76062 1708.9785 1971469
1157.4495 815.88849 1711.3444 984320
1177.5518 822.85107 1725.9485 1181954
1182.5195 819.20905 1718.3093 919040
1190.6095 817.7738 1715.2988 1050368
1195.0868 813.90234 1707.1783 459008
1207.3641 815.36359 1710.2433 1905673
1219.4292 816.6582 1712.9589 2366480
1225.032 813.63934 1706.6268 2300174
1242.2897 818.3476 1716.5024 2629140
1250.9513 817.36273 1714.4365 2694934
1257.9484 815.31476 1710.1411 2234383
1270.245 816.70709 1713.0614 2168334
1280.1062 816.5238 1712.677 1576712
1290.7416 816.83325 1713.326 1181954
1293.8569 812.4162 1704.061 1642505
1314.222 818.8147 1717.4822 2168849
1318.9919 815.47314 1710.4731 1905677
1335.5024 819.38586 1718.6802 1445128
1349.9825 822.00299 1724.1697 1181955
1359.2554 821.43402 1722.9763 984320
1365.241 818.90179 1717.6648 1773575
1378.5173 820.74774 1721.5367 1773831
1390.2889 821.67743 1723.4867 1773831
1411.2141 827.96375 1736.6725 2563861
1411.0402 821.86987 1723.8905 1511172
1430.4246 827.17371 1735.0153 1971468
1437.3522 825.24963 1730.9796 2037261
1453.8086 828.7851 1738.3953 2694934
1459.91 826.40918 1733.4117 2037264
1468.7745 825.61963 1731.7556 1313541
1476.2285 824.05365 1728.4709 1708298
1485.4155 823.46997 1727.2467 1445127
1487.1057 818.76678 1717.3816 1642248
1490.6841 815.15991 1709.8162 2234382
1510.8534 820.6131 1721.2543 2168590
1512.0031 815.73187 1711.016 1838855
1516.2061 812.55212 1704.3463 1970697
1523.469 811.0434 1701.1818 2496784
1513.4612 800.42053 1678.9 2562577
1538.01 808.09308 1694.9933 2167819
1555.9551 812.21875 1703.647 2628883
1561.6893 809.95825 1698.9055 2365969
1572.1897 810.18274 1699.3765 2234383
1585.9384 812.06769 1703.3301 2300176
1600.1565 814.1676 1707.7347 2234386
1602.0455 810.00745 1699.0088 2300434
1610.9463 809.4223 1697.7815 3551017
1606.8634 802.36127 1682.9707 3222565
0 0 0 0
0 0 0 0
0 0 0 0
0 0 0 0
0 0 0 0
0 0 0 0
0 0 0 0
0 0 0 0
0 0 0 0
0 0 0 0
0 0 0 0
0 0 0 0
0 0 0 0
-1498.6973 843.07367 1746.6616 1315599
-1497.8961 848.48126 1757.8649 1118220
-1481.1766 844.88452 1750.4133 2434079
-1478.707 849.42279 1759.8154 1841943
-1450.558 839.16943 1738.5729 1578771
-1436.4628 836.95801 1733.9912 2697250
-1427.5314 837.745 1735.6217 2828837
-1418.8358 838.68292 1737.5648 2960423
-1405.7092 836.99615 1734.0702 2828322
-1384.4199 830.38843 1720.3806 4341562
-1378.3591 832.88464 1725.5522 2039064
-1376.6304 838.0556 1736.2651 1972243
-1370.9982 840.90997 1742.1788 2038548
-1352.4493 835.8252 1731.6443 3090980
-1344.8458 837.47864 1735.0698 4341304
-1345.1263 844.10498 1748.7982 2170389
-1343.5391 849.65302 1760.2925 2565401
-1303.8564 831.008 1721.6641 6973275
-1285.3527 825.67358 1710.6123 4670776
-1274.403 825.14539 1709.5182 2894365
-1249.4854 815.49249 1689.5195 4210224
-1260.6597 829.42981 1718.3944 5657671
-1254.8057 832.29926 1724.3394 3354659
-1249.2273 835.40021 1730.7638 3486245
-1244.6207 839.20764 1738.652 3552038
-1231.5059 837.29395 1734.6873 2894365
-1203.5443 825.16901 1709.567 2433558
-1190.2089 822.95111 1704.972 3946284
-1175.5918 819.80157 1698.4469 3090975
-1165.6372 819.87708 1698.6034 3419687
-1151.8782 817.25476 1693.1705 4604731
-1130.4882 809.12451 1676.3265 2433563
-1142.5604 825.01245 1709.2428 2367770
-1142.5352 832.37122 1724.4883 2236184
-1134.9995 834.34161 1728.5707 3683629
-1118.3462 829.58459 1718.7151 3552045
-1105.7815 827.80084 1715.0197 2170393
-1095.4993 827.70862 1714.8286 2565409
-1102.3016 840.64392 1741.6276 723205
-1088.7253 838.13538 1736.4305 1183499
-1079.4127 838.89276 1737.9995 2630941
-1066.9763 837.21344 1734.5204 1249291
-1065.7505 844.38361 1749.3754 3157286
-1052.474 842.05316 1744.5471 2367769
-1043.6417 843.2674 1747.0629 2038803
-1039.8763 848.64117 1758.196 4933697
-1028.1313 847.54547 1755.926 2894114
-1016.7294 846.7132 1754.2018 1578253
-999.98956 841.37238 1743.137 2630942
-996.23297 846.95813 1754.7092 3946805
-984.03479 845.40918 1751.5002 4341307
-980.04883 850.95782 1762.9957 3880755
-961.08942 843.48474 1747.5133 2367260
-961.83203 853.32831 1767.9069 2630432
-946.65747 849.11176 1759.171 3749682
-931.55182 844.86365 1750.3699 4933956
-926.03217 849.31177 1759.5854 2828065
-908.11963 842.36566 1745.1946 1709843
-897.84509 842.42596 1745.3197 2301979
-899.50702 853.81812 1768.9215 2170392
-873.07208 838.49451 1737.1746 2631199
-849.38232 825.47327 1710.1974 2236955
-882.73718 868.24591 1798.8127 5131846
-865.6897 861.883 1785.6304 3750706
-855.76105 862.53802 1786.9873 4474175
-843.42572 860.75323 1783.2897 4079417
-833.59186 861.50854 1784.8545 2960936
-822.44226 860.90588 1783.606 3618867
-811.9989 861.03638 1783.8763 4408383
-796.57117 855.81537 1773.0596 4408383
-776.2207 845.09521 1750.8497 3092523
-769.2627 848.86292 1758.6556 3882039
-753.04816 842.37952 1745.2235 3816245
-742.99615 842.70526 1745.8982 3092522
-732.95471 843.05212 1746.6169 3224108
-723.98999 844.66528 1749.9589 5263692
-716.80377 848.43018 1757.7592 2039578
-707.51636 849.78265 1760.561 1052686
-698.70465 851.75525 1764.6479 1315859
-680.2406 841.84265 1744.1111 1973531
-672.04675 844.53021 1749.6791 2039322
-666.90179 851.19336 1763.4838 1249807
-649.3313 841.95697 1744.348 2828326
-641.82843 845.68726 1752.0763 2434082
-630.08551 843.86151 1748.2938 1184015
-625.091 851.16388 1763.4226 657414
-610.98083 846.09094 1752.9127 1118478
-597.03711 841.07703 1742.525 263171
-584.70709 838.20007 1736.5646 2960683
-572.83813 835.89288 1731.7844 1381651
-562.16125 835.27264 1730.4996 1579030
-557.15936 843.21808 1746.9607 1118479
-537.88666 829.45776 1718.4524 1184272
-526.0426 826.84296 1713.035 2763304
-525.07288 841.55396 1743.5129 460550
-512.1673 837.34155 1734.7858 986636
-500.71597 835.38263 1730.7274 525829
-486.56952 828.75159 1716.9893 986634
-477.11655 830.00208 1719.58 1118220
-463.94629 824.6994 1708.5942 1248523
-453.46985 824.05554 1707.2601 197121
-444.96649 827.04956 1713.4631 394498
-436.90173 831.01758 1721.684 2960423
-425.40063 828.48297 1716.4329 723463
-420.18185 838.35883 1736.8934 1776151
-409.88342 838.34106 1736.8567 2894631
-399.90396 838.99158 1738.2045 1973529
-386.91135 833.18793 1726.1804 196864
-378.77597 837.81281 1735.7622 1709842
-366.14276 832.46942 1724.6918 328448
-353.61841 827.07379 1713.5134 788482
-343.22775 826.49731 1712.3191 854020
-331.2948 822.05878 1703.1233 1314311
-317.04425 811.40991 1681.0612 2629913
-305.49817 807.21625 1672.3729 1050883
-297.41757 812.20538 1682.7094 1643018
-287.3382 811.8927 1682.0615 1445639
-276.68741 809.88513 1677.9022 3222050
-266.09433 807.90314 1673.796 2432534
-257.53625 812.18542 1682.6678 1445639
-247.48225 811.90491 1682.0869 2366741
-239.21194 817.69818 1694.0891 1643018
-229.26051 818.00049 1694.7155 1511432
-220.03676 821.04565 1701.0244 2037776
-208.46214 815.19031 1688.8933 1774605
-198.66208 816.03375 1690.6407 1051397
-189.75305 820.82111 1700.5591 1314054
-177.79675 812.22449 1682.7488 1577224
-166.7722 807.11584 1672.1649 459008
-156.36122 804.5191 1666.785 2563861
-148.1122 813.44586 1685.2794 1839882
-138.13998 813.51514 1685.4229 1774344
-129.03011 819.06915 1696.9296 2102797
-118.80688 817.89728 1694.5017 1906188
-109.23158 821.38123 1701.7196 1511429
-99.429901 823.6983 1706.52 1050881
-89.667503 826.9021 1713.1576 853504
-79.273346 824.35406 1707.8787 1774348
-69.117882 823.90576 1706.95 1840910
-59.094013 825.14142 1709.5099 985603
-49.008343 825.84668 1710.9711 2499611
-39.006233 828.69501 1716.8722 1446666
-28.826239 828.44055 1716.345 1051909
-18.489355 820.94269 1700.8112 2630940
-8.4513655 824.65063 1708.4932 2762013
1.6649749 822.10333 1703.2156 1774861
11.751759 821.862 1702.7156 1708554
21.855391 822.47766 1703.9911 3221790
32.161987 827.92902 1715.2853 3484449
42.41563 829.72687 1719.0099 3747878
53.442886 843.03186 1746.575 4735029
63.943085 845.05505 1750.7666 3551013
73.918869 840.55035 1741.4337 2828062
84.330978 841.50293 1743.4073 2762270
94.059631 836.17188 1732.3625 1644560
104.20621 835.23944 1730.4308 2368286
114.14558 832.96198 1725.7123 2039064
123.77404 828.97662 1717.4556 1775635
135.16379 836.49695 1733.036 2499358
146.06647 840.15375 1740.6122 723205
155.56705 835.79559 1731.583 2170393
166.1933 837.65021 1735.4254 1841427
173.98843 825.85059 1710.9791 1117445
183.32294 822.25464 1703.5292 2564377
193.6788 823.37598 1705.8523 2366738
206.43327 834.07758 1728.0236 2564372
217.2748 836.40393 1732.8433 2696214
228.88716 841.35382 1743.0983 2301201
240.1217 844.54749 1749.7151 4472883
253.02023 853.08722 1767.4073 3222303
260.56595 843.6178 1747.7888 2695958
268.20105 835.15039 1730.2463 2234895
276.36343 828.888 1717.272 2497810
290.77887 841.15894 1742.6947 1774089
301.59619 842.5368 1745.5493 1972240
311.93439 842.52917 1745.5334 1051399
321.78949 841.25903 1742.902 2959396
334.07391 846.22137 1753.183 3749681
342.96518 842.54871 1745.574 1840914
354.86017 846.25427 1753.251 3222564
360.22037 834.60822 1729.123 1379592
357.56247 805.5426 1668.9055 3879722
377.36066 827.27045 1713.9208 1905675
388.57098 829.52625 1718.5942 2102797
395.20276 822.14209 1703.296 2563348
405.94412 823.46198 1706.0305 1773830
413.88995 819.18469 1697.1688 2037002
0 0 0 0
0 0 0 0
399.81989 737.5835 1528.1094 262144
407.71344 735.49219 1523.7766 196610
415.83926 733.90137 1520.4807 459527
422.76953 730.31281 1513.046 4
429.21738 726.05713 1504.2292 65541
437.22406 724.55786 1501.123 65540
445.8924 724.19299 1500.3671 131073
457.98849 729.30078 1510.9493 1577743
468.1998 731.26886 1515.0267 2366741
475.59091 728.841 1509.9968 2169362
536.61768 807.18164 1672.3013 1708808
556.39935 821.76581 1702.5164 1774602
567.07037 822.61438 1704.2743 2300433
580.9527 828.01013 1715.4531 1971984
591.28271 828.24438 1715.9386 1445639
601.75616 828.66833 1716.8169 1708811
615.92877 834.08746 1728.0442 787456
631.34637 840.98798 1742.3405 459520
645.88861 846.51917 1753.7998 327936
656.35736 846.62079 1754.0105 657156
664.25073 843.4491 1747.4395 1051657
676.62805 845.9812 1752.6852 262401
686.26508 845.06219 1750.7812 591622
694.97485 843.04584 1746.6038 196608
705.57434 843.34723 1747.2283 985351
707.43304 833.34351 1726.5028 722434
715.61774 830.97058 1721.5867 262144
726.66748 831.94446 1723.6044 262144
735.47339 830.35815 1720.3177 262144
739.91998 823.96063 1707.0636 1708814
758.79602 833.5874 1727.0081 2893085
759.29523 823.03839 1705.1528 1774089
771.7724 825.57941 1710.4174 1577225
782.86865 826.59656 1712.5247 1576968
801.68304 835.63275 1731.2456 1577225
814.94275 838.72382 1737.6495 1708811
827.04126 840.55756 1741.4487 2300949
839.18756 842.39417 1745.2537 1576971
849.92706 842.79095 1746.0759 3156258
865.69513 848.10474 1757.0848 2432794
882.64703 854.43811 1770.2062 3683116
894.28333 855.53754 1772.4839 2498586
897.86279 848.9931 1758.9253 1972498
907.88446 848.62048 1758.1534 1906703
923.34094 853.27881 1767.8043 3157282
933.97229 853.42365 1768.1044 2498325
937.26215 846.93127 1754.6537 2235153
937.50031 837.85406 1735.8477 2234898
968.66077 856.30957 1774.0834 1511689
930.32214 813.59021 1685.5782 656641
946.16095 818.65448 1696.0703 1642762
969.3006 829.86285 1719.2916 1576453
975.75006 826.69757 1712.7339 1642503
1000.5742 839.005 1738.2322 1247747
996.9472 827.44781 1714.2881 1905675
1014.4232 833.4621 1726.7485 2432017
1017.0977 827.31665 1714.0165 1905675
1023.4451 824.25073 1707.6646 1839625
1033.345 824.07794 1707.3065 1774089
1043.7832 824.33362 1707.8363 1774089
1049.465 820.86401 1700.6481 2366226
1063.7042 824.09015 1707.3319 1708296
1076.2343 825.94397 1711.1725 2169360
1085.7668 825.48407 1710.2198 2629656
1103.5354 831.23651 1722.1376 2169104
1118.9113 835.09772 1730.1372 1445124
1127.8715 834.1441 1728.1614 1642503
1142.1276 837.08899 1734.2627 1905420
1140.9993 828.8064 1717.1029 1642505
1149.7986 827.81775 1715.0547 1576969
1154.0728 823.61707 1706.3517 2103314
1170.2821 827.93292 1715.2933 327936
1178.1506 826.32452 1711.9611 787968
1184.4741 823.66913 1706.4596 590336
1196.0199 824.65948 1708.5115 721920
1203.62 822.93549 1704.9396 1445125
1208.4106 819.33533 1697.4808 2300688
1213.5897 816.05566 1690.6863 1905675
1226.2917 817.84705 1694.3976 2168847
1230.3282 813.87695 1686.1725 2300433
1249.8917 820.15942 1699.1884 2366225
1260.4646 820.48914 1699.8715 2234385
1274.5327 823.0708 1705.22 2168849
1281.0883 820.79846 1700.5123 2300435
1291.7484 821.17096 1701.2841 984577
1296.4177 817.75873 1694.2146 1971470
1310.1184 820.05206 1698.9658 1774090
1327.5646 824.6369 1708.4647 1445128
1336.1971 823.71924 1706.5634 1576712
1353.7258 828.25818 1715.9672 1050370
1355.2283 822.99713 1705.0674 787200
1366.0905 823.45587 1706.0178 1116162
1380.4781 826.0174 1711.3246 1839625
1390.6165 826.0174 1711.3246 1708296
1399.6716 825.37866 1710.0015 1971468
1413.6377 827.62421 1714.6537 2168589
1420.4364 825.67151 1710.6082 2497812
1445.7369 834.42505 1728.7435 2103054
1441.1232 825.9115 1711.1053 2760984
1452.2612 826.4812 1712.2856 2103054
1462.9937 826.81378 1712.9747 2366227
1472.7555 826.59698 1712.5256 1116935
1475.9017 822.69556 1704.4426 2365969
1487.3071 823.41968 1705.9427 1774089
1494.9281 822.05292 1703.1112 2300176
1497.0667 817.71002 1694.1136 2300175
1497.8658 812.69824 1683.7303 1444867
1511.6157 814.73291 1687.9458 1116161
1524.2662 816.15222 1690.8862 1379331
1525.5842 811.52478 1681.2992 2300176
1549.3602 818.82617 1696.4261 2300176
1555.7914 816.92596 1692.4893 2300176
1565.756 816.89362 1692.4222 2431762
1568.647 813.19464 1684.7588 2365969
1580.9746 814.4035 1687.2632 2432020
1585.9204 811.81848 1681.9077 2168849
1586.3674 806.97729 1671.8778 2498073
1591.1663 804.39606 1666.5302 2893344
0 0 0 0
0 0 0 0
0 0 0 0
0 0 0 0
0 0 0 0
0 0 0 0
0 0 0 0
0 0 0 0
0 0 0 0
0 0 0 0
0 0 0 0
0 0 0 0
0 0 0 0
-1484.2318 845.18408 1729.8029 1381392
-1475.5198 846.0647 1731.6051 1578771
-1458.7169 842.28583 1723.8711 1644564
-1448.5043 842.28583 1723.8711 1249550
-1446.1788 846.9046 1733.3241 789255
-1433.1539 845.27899 1729.9969 723719
-1424.0724 845.97235 1731.4163 2236701
-1408.5961 842.84955 1725.0248 1184012
-1396.754 841.87152 1723.0232 1841942
-1390.2882 844.14355 1727.6731 1906709
-1371.1317 838.68652 1716.5044 1775637
-1361.3975 838.95441 1717.0527 1315084
-1359.5688 844.13477 1727.6552 3881012
-1359.3047 850.3725 1740.4218 1841428
-1324.7375 835.08179 1709.1268 2960677
-1310.5723 832.51538 1703.8744 3091749
-1322.912 846.87665 1733.267 4144693
-1309.0464 844.55585 1728.517 2368539
-1283.547 834.63342 1708.2092 3618604
-1274.517 835.34772 1709.6711 5329220
-1256.366 830.04742 1698.8232 3815210
-1235.9279 823.13837 1684.6827 3289123
-1238.7152 831.71094 1702.2279 3815467
-1236.0712 836.74774 1712.5364 3618089
-1230.5121 839.87799 1718.9431 2235923
-1212.6492 834.59277 1708.126 1906960
-1190.7919 826.44623 1691.4528 2104339
-1169.6025 818.62903 1675.4536 1973011
-1160.51 819.21716 1676.6573 3223077
-1148.7955 817.94867 1674.0612 1446669
-1136.24 816.05402 1670.1835 5395018
-1123.6462 814.09839 1666.181 3618864
-1135.8737 830.25079 1699.2395 3487021
-1133.9237 836.23676 1711.4906 4671039
-1117.3932 831.48077 1701.7568 1644049
-1106.9762 831.22894 1701.2413 2170390
-1100.5084 833.96509 1706.8414 2170391
-1099.809 841.16388 1721.5747 2170134
-1075.8989 830.5791 1699.9115 2038805
-1066.0544 830.75537 1700.2722 2104598
-1075.9475 846.46277 1732.4199 1249289
-1063.2446 844.52502 1728.454 2630942
-1043.0858 836.56982 1712.1724 2828321
-1039.8011 842.12457 1723.541 4473147
-1038.8688 849.7135 1739.073 4143412
-1027.4413 848.78418 1737.171 1840913
-1012.9048 845.24176 1729.9209 4406586
-1006.8083 848.74194 1737.0845 2696481
-997.57794 849.64514 1738.9331 1841172
-985.86029 848.4267 1736.4393 2433053
-975.53418 848.39282 1736.3699 3025446
-966.9895 849.92383 1739.5035 2565153
-956.01477 849.32904 1738.2861 2170138
-944.4021 848.14844 1735.8698 1314830
-921.94556 837.09583 1713.249 1709845
-915.01794 840.05389 1719.3031 1380880
-901.21716 836.69745 1712.4336 1118478
-889.23676 834.97394 1708.9061 4210747
-878.90948 834.78076 1708.5109 2763044
-872.27014 838.12677 1715.3589 263170
-856.55768 832.7309 1704.3154 788231
0 0 0 0
-860.27625 856.53906 1753.0426 4407870
-847.85693 854.48932 1748.8474 3026216
-835.73987 852.69714 1745.1793 2697252
