# .PCD v0.7 - Point Cloud Data file format
VERSION 0.7
FIELDS x y z rgb
SIZE 4 4 4 4
TYPE F F F U
COUNT 1 1 1 1
WIDTH 1320
HEIGHT 1
VIEWPOINT 0 0 0 1 0 0 0
POINTS 1320
DATA ascii
-1341.5806 735.43268 3067.0645 3092008
-1332.9944 740.75854 3089.2754 4473661
-1316.3948 741.71741 3093.2744 4737090
-1303.8254 745.00647 3106.991 1972757
-1266.2971 733.92377 3060.7715 2368027
-1224.8429 720.21063 3003.582 3683117
-1220.5072 728.24072 3037.0708 2433049
-1203.5278 728.85419 3039.6292 2104083
-1174.8912 722.3194 3012.3765 4209972
-1151.6307 718.93927 2998.28 3354663
-1125.6794 713.74707 2976.6262 3814957
-1127.2325 726.10657 3028.1704 2630683
-1112.6281 728.28955 3037.2744 2762269
-1084.2109 721.35455 3008.3525 4736059
-1055.5183 714.00116 2977.686 1314824
-1043.5737 717.91962 2994.0276 2038803
-1034.3127 723.85162 3018.7666 1906960
-1025.3054 730.17322 3045.1301 2499097
-1008.4172 731.00812 3048.6121 4801849
-996.19214 735.31549 3066.5757 2762779
-974.20374 732.4425 3054.594 3091489
-961.1618 736.31439 3070.7415 3025697
-938.45917 732.79205 3056.0518 1841424
-913.4245 727.27435 3033.0408 2828064
-900.40936 731.29736 3049.8184 1973013
-877.05261 726.91388 3031.5374 1973013
-863.3844 730.54492 3046.6802 1578256
-844.68951 729.98688 3044.353 1841427
-820.26447 724.34448 3020.822 1315082
-794.49438 717.23602 2991.1768 2433307
-768.84766 709.9173 2960.6545 2828062
-745.76538 704.67999 2938.8127 2762269
-731.78632 707.99957 2952.6567 2499097
-718.36084 712.03046 2969.4673 3354149
-698.6662 709.8938 2960.5564 2498840
-682.67767 711.50983 2967.2959 3419942
-661.97876 708.17212 2953.3762 3353635
-641.54382 704.94324 2939.9104 3156255
-629.02789 710.47858 2962.9951 2629911
-611.49194 710.49896 2963.0801 3880492
-589.7265 705.46094 2942.0696 4867902
-575.25623 709.1087 2957.2825 3091749
-560.51611 712.64258 2972.02 3157286
-551.94598 724.50464 3021.4897 1446667
-528.23413 716.62 2988.6077 4538937
-507.45761 712.30884 2970.6282 3617834
-488.22784 709.93707 2960.7368 4078128
-475.06473 716.53882 2988.269 1906962
-456.63715 715.40393 2983.5359 2367512
-436.93704 712.1037 2969.7727 3814955
-418.68909 710.99255 2965.1387 2696731
-404.50421 716.9859 2990.1335 4472885
-383.91269 711.65222 2967.8899 3814957
-363.84 706.81458 2947.7148 3683628
-346.22299 706.50018 2946.4036 4670523
-328.3324 705.56451 2942.5015 2697247
-310.0094 703.54248 2934.0688 3157800
-293.17206 704.85223 2939.531 2499357
-275.84186 705.0675 2940.429 2499356
-258.63083 705.63702 2942.804 2235413
-242.40068 709.15857 2957.4902 2696476
-224.90314 709.23206 2957.7966 2893083
-207.10477 708.28906 2953.864 3419682
-188.27867 703.33295 2933.1948 3222303
-170.02304 699.71661 2918.1133 4406321
-153.56088 703.49799 2933.8833 2300433
-136.89857 707.21069 2949.3667 2695191
-118.71342 702.99176 2931.772 2629654
-100.57935 697.68115 2909.6248 3155999
-82.689201 692.21576 2886.8315 2563861
-65.663376 693.02234 2890.1953 3682342
-48.51936 692.71045 2888.8945 2695704
-31.911888 703.89331 2935.532 3946026
-14.549846 705.28522 2941.3367 3419681
2.8808005 706.63501 2946.9658 3880489
20.505083 712.39496 2970.9873 4801335
38.109737 712.46692 2971.2876 3748392
56.196991 718.66516 2997.1367 1971984
73.850037 717.66742 2992.9758 2300433
91.867783 719.91394 3002.3447 2366482
109.44796 718.55896 2996.6938 2037517
126.16634 712.71381 2972.3171 2300688
144.26207 715.12823 2982.3862 3352863
161.51729 713.30389 2974.7778 2958105
180.87134 720.19543 3003.5188 2760725
196.38884 711.94452 2969.1086 3023896
212.69623 707.6781 2951.3162 3418399
229.7446 706.33795 2945.7271 2497554
248.28149 709.44037 2958.6655 2234384
264.16718 705.05756 2940.3875 2760728
284.24088 711.70337 2968.103 2958619
295.96292 697.88153 2910.4602 3221790
315.08609 702.07263 2927.9387 2497554
332.92099 703.10559 2932.2468 2168589
346.20535 694.90228 2898.0356 1971210
367.05161 701.9353 2927.3662 1839624
383.58179 700.45209 2921.1807 2234382
406.02124 709.42206 2958.5891 2234381
422.84836 708.24921 2953.6978 1642246
438.82193 705.79669 2943.47 2826520
460.99274 713.11835 2974.0042 1576709
474.25653 706.6297 2946.9436 1840144
490.18909 704.43701 2937.7993 2037005
518.89752 720.12494 3003.2249 2496783
532.32129 714.26404 2978.7822 3483932
545.81885 708.87506 2956.3079 2036487
561.07648 706.03589 2944.4675 2036487
579.42322 707.13794 2949.0635 2760211
594.61475 704.43756 2937.8018 4010277
609.64093 701.7005 2926.387 2365194
628.72931 703.66101 2934.5632 2891536
642.9953 700.26428 2920.3972 3023379
668.68298 709.15845 2957.4897 2431243
696.07709 719.36206 3000.043 2629135
719.3772 724.93182 3023.2715 2234380
736.27649 723.93756 3019.125 3024155
758.81635 728.40497 3037.7559 2168848
774.29205 726.04138 3027.8987 1905930
790.72705 724.66394 3022.1543 2037516
798.84088 715.8905 2985.5652 1445383
801.43579 702.65839 2930.3816 2300176
813.78113 698.3548 2912.4338 3287070
0 0 0 0
0 0 0 0
0 0 0 0
0 0 0 0
0 0 0 0
0 0 0 0
0 0 0 0
0 0 0 0
0 0 0 0
0 0 0 0
0 0 0 0
476.9743 326.30103 1360.8129 131076
482.9425 324.89261 1354.9392 65538
490.21173 324.3912 1352.848 131072
0 0 0 0
0 0 0 0
0 0 0 0
0 0 0 0
1109.4053 678.65692 2830.2854 1839624
1129.2184 680.49243 2837.9402 3550240
1150.4862 683.13782 2848.9727 2826517
1169.0428 684.12018 2853.0696 2365967
1177.8456 679.44788 2833.5842 3023896
1195.2471 679.79749 2835.0422 2300173
1230.3229 690.05048 2877.8013 1971210
1246.6443 689.64807 2876.1233 2037001
1260.1642 687.72766 2868.1143 1905415
1292.2052 695.83167 2901.9114 1642243
1321.9352 702.49469 2929.6992 2168329
1302.6925 683.29761 2849.6392 2826259
1342.7214 695.28351 2899.6255 1510400
1353.0349 691.77386 2884.9888 1576450
1383.8672 698.71155 2913.9219 2036487
1407.1738 701.72559 2926.4915 2431499
1421.1863 700.08777 2919.6611 2628365
1435.5037 698.63776 2913.614 2957074
1444.3043 694.56921 2896.6465 2167558
1476.4181 701.6759 2926.2844 2102277
1510.9817 709.76843 2960.0334 3418140
1523.0906 707.24841 2949.5239 2694417
1534.4554 704.44397 2937.8284 3088918
1571.4426 713.33325 2974.9004 2299916
1589.6732 713.60547 2976.0359 1970694
1605.4474 712.78125 2972.5984 2102537
1610.2799 707.16974 2949.196 2431244
1620.7174 704.11389 2936.4517 2365452
1626.7174 699.21533 2916.0227 2102278
1646.8845 700.44537 2921.1526 2102278
1660.5135 698.89795 2914.6992 1970692
1672.1843 696.56665 2904.9766 2036485
1691.7024 697.51837 2908.9458 1970179
1723.7369 703.55963 2934.1404 2101766
1742.3899 704.07306 2936.2815 2035971
1756.1926 702.63568 2930.2871 2167558
1793.3604 710.48309 2963.0142 2232838
1800.3632 706.34375 2945.7512 2429959
1809.5009 703.11334 2932.2791 2035459
1826.5192 702.97742 2931.7122 2167301
1848.0806 704.57611 2938.3794 2562057
1878.5757 709.5191 2958.9939 1706752
1874.7847 701.54089 2925.7214 2298628
1887.0461 699.66071 2917.8801 2298629
1919.6401 705.28485 2941.3352 2430212
1941.1866 706.7854 2947.5933 2167041
1956.777 706.10992 2944.7761 2496007
1972.739 705.57935 2942.5635 1706496
2003.2384 710.21204 2961.8835 2627591
2014.6814 708.06683 2952.9373 2232834
2034.8798 709.00916 2956.8669 2101249
2053.7727 709.48438 2958.8489 2100992
2062.8582 706.59222 2946.7876 2693385
2091.6191 710.43158 2962.7993 2167041
2114.4514 712.21008 2970.2163 2101248
2129.9971 711.52502 2967.3594 2232577
2153.248 713.40411 2975.196 2627593
2178.0493 715.76227 2985.0303 2628362
2182.7881 711.54236 2967.4316 2628363
2205.0427 713.05414 2973.7363 2364936
2208.5901 708.54041 2954.9121 2299144
2230.1028 709.8158 2960.2312 2430730
2249.4431 710.38531 2962.6062 2168072
2279.5425 714.31738 2979.0046 2496781
2306 717.05652 2990.4282 1839107
2299.0012 709.43005 2958.6226 2233608
2323.9487 711.70239 2968.0991 2562574
2330.2878 708.28467 2953.8457 2760210
2348.9854 708.64612 2955.3533 2760210
2403.7041 719.78888 3001.823 2760210
2370.4587 704.62054 2938.5647 2365452
2386.676 704.26892 2937.0984 2826003
2461.9299 721.2171 3007.7795 2826001
2475.064 719.85455 3002.0972 3418138
2442.6011 705.3446 2941.5842 2628622
2466.0593 707.07397 2948.7966 2957586
2476.5498 705.0871 2940.5105 3089172
2507.825 709.00409 2956.8459 2891793
2522.4163 708.18268 2953.4204 2628622
2519.0449 702.3642 2929.1548 2497036
2533.0164 701.42786 2925.2498 3154968
2529.4331 695.67609 2901.2625 3089175
2564.8418 700.65356 2922.0208 2431501
2567.2131 696.59979 2905.115 2167560
2592.8396 698.86823 2914.5752 2431243
2598.9753 695.88788 2902.146 2036741
2613.0061 695.04675 2898.6379 2365450
2654.968 701.59772 2925.9583 2825745
2644.1282 694.20074 2895.1099 3220502
2696.4456 703.37396 2933.366 2693902
2715.2346 703.73969 2934.8911 2364680
2728.8682 702.77307 2930.8599 2825231
2722.0901 696.59521 2905.0957 2101765
2793.8359 710.46338 2962.9319 2562316
2785.4036 703.89661 2935.5457 2364937
2810.3022 705.78217 2943.4092 2628624
0 0 0 0
0 0 0 0
0 0 0 0
0 0 0 0
0 0 0 0
0 0 0 0
0 0 0 0
0 0 0 0
-2619.0129 724.95703 2950.4805 3289899
-2555.95 712.25452 2898.7827 3224106
-2559.4395 718.05133 2922.3752 3552814
-2545.4333 718.98541 2926.1768 3552813
-2538.7151 722.00488 2938.4656 3486767
-2553.9507 731.35272 2976.51 3684402
-2519.7502 726.57562 2957.0679 4605247
-2457.4692 713.57788 2904.1687 4934468
-2452.0759 717.0318 2918.2258 3026471
-2468.5566 726.97656 2958.6997 3881780
-2448.9402 726.35718 2956.1787 3289898
-2421.2427 723.31464 2943.7961 4276280
-2399.5061 722.02167 2938.5339 5263431
-2365.5403 717.00311 2918.1091 5526090
-2385.8557 728.48468 2964.8374 3091234
-2361.9458 726.53278 2956.8936 3683627
-2355.8062 730.05872 2971.2434 3617833
-2324.1399 725.66748 2953.3718 2366996
-2293.0479 721.39032 2935.9644 3814442
-2274.8906 721.14819 2934.979 3157026
-2267.0278 724.1908 2947.3618 2828319
-2224.2412 716.03778 2914.1802 3223079
-2205.5679 715.58069 2912.3198 2762528
-2197.7124 718.65369 2924.8267 2631968
-2170.8599 715.51422 2912.0493 3815986
-2139.689 710.88971 2893.2283 4407095
-2095.8992 701.96405 2856.9021 3223077
-2111.2952 712.87726 2901.3174 2301974
-2103.8948 716.20917 2914.8777 2893855
-2050.4365 703.78748 2864.323 3683371
-2012.4211 696.50317 2834.677 5394246
-2049.312 715.23975 2910.9324 4473144
-2026.1339 713.15143 2902.4331 4407606
-2028.7306 720.17712 2931.0269 3947055
-2009.3922 719.47028 2928.1499 4802108
-1999.5186 722.16943 2939.1353 3552296
-1958.8204 713.68524 2904.6057 4407605
-1943.7296 714.46338 2907.7725 2301972
-1937.8762 718.68115 2924.9382 2762267
-1915.6691 716.85529 2917.5073 4670264
-1922.2207 725.85596 2954.1389 3354148
-1894.0378 721.78528 2937.5718 3814955
-1864.5963 717.15497 2918.7271 2038544
-1830.8304 710.75922 2892.6973 3156000
-1801.3326 705.91522 2872.9827 2564632
-1767.1174 699.11249 2845.2964 2959391
-1755.5154 701.21112 2853.8376 2170389
-1738.9744 701.3587 2854.4382 2630937
-1725.9172 702.92798 2860.8252 3354917
-1747.7405 718.87531 2925.7285 4209968
-1702.2228 707.1662 2878.074 2762523
-1719.3051 721.48969 2936.3687 2565143
-1724.3738 731.013 2975.1274 4472884
-1735.7052 743.41534 3025.6035 3025952
-1679.5885 726.8866 2958.3335 3486248
-1656.5725 724.4856 2948.5615 2893854
-1631.3784 721.07068 2934.6633 3485990
-1622.6093 724.92004 2950.3301 2301716
-1605.23 724.9649 2950.5125 3354404
-1588.2114 725.17535 2951.3689 2959647
-1536.6097 709.42413 2887.2634 4670264
-1547.985 722.72083 2941.3794 2696476
-1505.3263 710.80579 2892.8867 2433304
-1506.329 719.47046 2928.1509 2630683
-1499.0726 724.34625 2947.9946 2828062
-1478.1411 722.65125 2941.0962 2038546
-1464.7521 724.64734 2949.22 2433304
-1451.6764 726.84845 2958.1782 3486248
-1439.392 729.50439 2968.9875 2893855
-1404.4232 720.5871 2932.6953 2301718
-1404.5076 729.65698 2969.6084 3091234
-1388.8214 730.65991 2973.6904 2367511
-1357.806 723.52032 2944.6333 3420199
-1345.579 726.33673 2956.0957 1578252
-1332.4424 728.7301 2965.8362 1907217
-1321.1951 732.23438 2980.0981 3552043
-1293.3477 726.50891 2956.7964 3749422
-1269.2061 722.73645 2941.4429 3223077
-1261.4282 728.30688 2964.1138 3552042
-1256.5471 735.73059 2994.3274 3749421
-1224.594 727.28882 2959.9705 4802108
-1202.0801 724.28918 2947.7625 2894882
-1186.1274 725.21277 2951.5212 4408123
-1180.3916 732.50421 2981.1963 1842196
-1152.3004 725.93341 2954.4543 3684400
-1140.7443 729.73761 2969.9368 3486507
-1118.9402 727.00262 2958.8057 3025698
-1093.3802 721.70142 2937.2305 2894112
-1084.4249 727.36615 2960.2852 3157537
-1067.6552 727.88947 2962.415 3288613
-1038.1383 719.5946 2928.656 4736059
-1004.5658 708.15869 2882.1133 1841168
-1022.6473 733.36993 2984.7197 2499097
-1011.5137 738.14868 3004.1687 3748907
-989.93414 735.33923 2992.7346 2432790
-984.45911 744.60815 3030.458 4867388
-951.39258 732.9646 2983.0703 3485992
-934.54919 733.61542 2985.7188 3157028
-912.72729 730.30774 2972.2571 2170391
-898.6366 733.17773 2983.9375 3617838
-872.74127 726.33844 2956.1025 2565151
-857.68903 728.42798 2964.6067 2367772
-839.34741 727.75293 2961.8594 2038807
-827.81946 733.08289 2983.5515 1578256
-795.21918 719.57751 2928.5864 1775633
-783.98047 725.23047 2951.5933 1709071
-760.98749 720.01984 2930.3867 2564890
-734.77069 711.44452 2895.4861 1906960
-715.86908 709.71143 2888.4329 2104596
-688.03107 698.81702 2844.094 2564634
-674.16803 701.92596 2856.7471 2695706
-657.99304 702.72595 2860.0029 3616807
-635.9856 697.17456 2837.4094 2761497
-632.52753 712.20789 2898.593 3090461
-611.12451 707.31079 2878.6626 3287840
-592.62091 705.58472 2871.6375 3287840
-583.33392 715.05438 2910.178 2958875
-564.19141 712.65192 2900.4001 2301715
-552.44153 719.72974 2929.2061 3025441
-538.94904 724.92279 2950.3411 3617578
-521.16241 724.49451 2948.5979 3091491
-507.1293 729.43536 2968.7065 3157027
-485.84344 723.92432 2946.2773 2630683
-465.64514 719.68341 2929.0176 2235924
-450.07782 722.54883 2940.6792 3880750
-429.10718 716.62122 2916.5547 2499351
-413.28998 719.16376 2926.9026 4933436
-393.8905 715.42242 2911.6758 2499095
-379.5177 720.88654 2933.9138 2630681
-361.78207 720.18091 2931.0422 3683626
-337.82376 706.39246 2874.925 3617578
-322.30209 709.71765 2888.458 1973010
-307.75778 715.68848 2912.7585 2039064
-291.09555 717.15094 2918.7107 2301208
-273.36639 716.00354 2914.0408 1314568
-255.46048 714.20734 2906.7307 1577741
-237.79184 712.86285 2901.2585 1972239
-217.091 701.51044 2855.0559 2432534
-199.96854 700.77985 2852.0825 2169360
-184.71777 707.0791 2877.7195 2432790
-170.04396 717.09241 2918.4724 4208943
-150.85519 708.17731 2882.1892 2234384
-134.72597 713.1825 2902.5596 2169361
-115.79215 702.63379 2859.6277 2761499
-98.792953 702.2207 2857.9465 1839884
-81.7276 701.06921 2853.2603 2168848
-64.143456 693.70667 2823.2954 2168847
-47.798092 699.27295 2845.9495 1774348
-30.808754 696.35065 2834.0562 3155742
-14.284677 709.539 2887.731 2827288
2.8591416 718.64954 2924.8096 3880233
20.331161 723.80396 2945.7876 3617061
37.126442 711.23254 2894.6235 3156510
55.132526 722.47186 2940.366 2366739
72.004478 717.02045 2918.1794 2037774
89.44175 718.21942 2923.0591 2366995
107.13585 720.75726 2933.3879 3353377
122.27082 707.77307 2880.5439 2761238
139.96982 710.99353 2893.6509 2826776
157.12685 711.05865 2893.9158 2102796
173.34799 707.29236 2878.5874 2497554
190.30231 706.92426 2877.0894 2300431
208.24745 709.99481 2889.5862 1774089
224.62912 707.67334 2880.1379 1248004
243.49547 712.95471 2901.6326 3879722
258.82272 707.86047 2880.8997 3090205
274.58295 704.50739 2867.2529 1708552
292.95319 707.85138 2880.8628 1971467
306.45273 699.7063 2847.7131 3023641
325.62112 704.6792 2867.9524 1576452
340.98779 701.3396 2854.3604 2234381
357.23172 700.03455 2849.0491 2563347
374.85165 701.42206 2854.696 1971210
395.06207 707.32788 2878.7319 852736
416.56595 714.9649 2909.8137 1314054
433.50549 714.47235 2907.8091 1116163
449.57233 712.63409 2900.3276 2102540
464.82529 709.68854 2888.3396 1576454
483.59976 712.13788 2898.3081 2102797
506.56882 720.38434 2931.8701 2365968
517.84167 712.00232 2897.7566 2628624
537.33551 715.09906 2910.3596 2497294
556.56995 717.66864 2920.8176 3220761
566.65082 708.63611 2884.0564 2036487
586.44965 711.92969 2897.4607 2496780
600.99805 708.84326 2884.8994 2365709
616.85272 707.42566 2879.1299 2497036
640.65796 714.95691 2909.7812 3220759
657.36707 714.38196 2907.4414 2299656
675.14587 714.96918 2909.8311 2760978
689.02295 711.49805 2895.7041 2826774
718.34741 723.7594 2945.6062 3024151
730.64307 718.68896 2924.9702 3287582
750.60675 721.22125 2935.2764 3945510
774.7157 727.53168 2960.959 3616547
783.53833 719.52533 2928.374 2563603
791.28888 710.90259 2893.2805 2563088
799.93182 703.43011 2862.8687 2365452
805.9754 694.02966 2824.6101 2036487
0 0 0 0
0 0 0 0
0 0 0 0
0 0 0 0
0 0 0 0
0 0 0 0
0 0 0 0
0 0 0 0
0 0 0 0
469.61185 334.86142 1362.8423 196609
476.21823 333.83276 1358.6558 4
483.35916 333.20682 1356.1082 65537
490.0787 332.31555 1352.481 131072
0 0 0 0
0 0 0 0
0 0 0 0
0 0 0 0
1093.4016 685.39227 2789.457 1839367
1108.0374 684.22546 2784.7083 1379075
1127.4578 686.00403 2791.9468 2958103
1148.0533 688.43591 2801.8442 2234380
1169.6328 691.38013 2813.8267 1642244
1171.144 682.54572 2777.8718 2102280
1189.574 683.67969 2782.4871 3352344
1213.5332 687.91711 2799.7329 2168070
1231.7335 688.81976 2803.4062 2036228
1254.1902 692.04694 2816.5408 2102021
1284.6865 699.56738 2847.1479 1247234
1283.676 689.95844 2808.0408 3089173
1307.9186 693.99481 2824.4683 2365448
1341.2184 702.67438 2859.793 2299658
1345.3815 696.06287 2832.885 1904900
1361.6021 695.77563 2831.7161 1904900
1380.4397 696.81653 2835.9521 1773058
1410.1393 703.24921 2862.1323 1904388
1422.7007 701.08374 2853.3191 2167557
1429.1221 695.97882 2832.543 2825488
1461.699 703.58234 2863.488 2694158
1468.8513 698.91376 2844.4875 3089173
1488.4237 700.19373 2849.697 2299659
1536.7323 714.81177 2909.1904 3681826
1545.1743 710.76715 2892.7295 2300173
1571.7325 715.05328 2910.1733 3352862
1561.1821 702.54706 2859.2747 3024154
1600.8816 712.6795 2900.5125 2102538
1608.7136 708.56079 2883.7498 1641730
1619.5294 705.82886 2872.6313 1773316
1631.9624 703.85138 2864.583 852224
1648.7201 703.76056 2864.2136 1115392
1664.3016 703.17468 2861.8291 1641216
1677.3043 701.52203 2855.103 2101765
1708.9297 707.6134 2879.894 2628362
1717.5024 704.13336 2865.7307 2167812
1741.8057 707.10748 2877.835 2759692
1747.9778 702.73468 2860.0383 2561800
1766.4047 703.32532 2862.4421 2298628
1786.3304 704.49585 2867.2061 2364421
1806.5773 705.76971 2872.3906 2561543
1824.1156 705.97156 2873.2122 2627593
1846.9891 708.21558 2882.3447 2298628
1867.7152 709.60242 2887.9893 2101506
1890.6674 711.80225 2896.9421 2496520
1914.9684 714.46576 2907.7822 2298884
1946.9355 719.91638 2929.9656 918784
1951.9233 715.38275 2911.5144 1903872
1949.8943 708.37946 2883.0117 2166786
1987.3771 715.72736 2912.9167 2759178
2001.4104 714.57648 2908.2329 2430213
2015.6998 713.53589 2903.9978 2561799
2039.252 715.76404 2913.0662 2496005
2059.8516 716.92725 2917.8003 2101250
2047.6288 706.74231 2876.3489 2496520
2085.4944 713.87097 2905.3616 2167300
2111.1326 716.73163 2917.0042 2693642
2126.02 715.92566 2913.7239 2628363
2140.376 714.95508 2909.7737 2694156
2160.6826 715.97186 2913.9119 2694156
2159.0347 709.75519 2888.6108 2694156
2179.1367 710.73016 2892.5789 2693902
2200.0178 711.94202 2897.511 2628364
2216.9824 711.8775 2897.2485 2825743
2224.5864 708.83136 2884.8511 2825487
2236.2292 707.10883 2877.8403 3417881
2253.3684 707.13708 2877.9556 3220502
2293.2974 714.263 2906.957 3023380
2291.7151 708.45007 2883.2993 2826001
2304.3179 707.07587 2877.7065 3286551
2326.7031 708.70142 2884.3223 3418138
2319.6362 701.39795 2854.5979 2562830
2322.02 697.03693 2836.8491 2957588
2369.6086 706.211 2874.1865 3154966
2391.4766 707.64331 2880.0159 3681310
2401.4875 705.57172 2871.5847 3154966
2429.5999 708.81018 2884.7646 3023380
2449.7883 709.70776 2888.418 2957586
2460.8296 707.96136 2881.3103 2826001
2477.749 707.91846 2881.1357 3089172
2481.7849 704.22034 2866.085 2891795
2495.697 703.35596 2862.5669 3023381
2520.6597 705.59656 2871.6858 2826003
2535.21 704.91193 2868.8994 2628625
2542.7517 702.30072 2858.2722 2826517
2586.0708 709.54022 2887.7361 2957846
2591.186 706.27155 2874.4329 2300172
2609.574 706.63959 2875.9307 2628624
2626.5164 706.61389 2875.8262 3089429
2632.4968 703.65851 2863.7983 3286296
2626.2336 697.48926 2838.6902 2891794
2661.6765 702.4046 2858.6948 2825744
2669.2969 699.96179 2848.7532 3023381
2689.4089 700.80493 2852.1846 2891795
2727.866 706.38788 2874.9065 2365451
2733.4456 703.44086 2862.9124 2497038
0 0 0 0
0 0 0 0
0 0 0 0
0 0 0 0
0 0 0 0
0 0 0 0
0 0 0 0
0 0 0 0
-2548.8616 722.54993 2871.4507 3421742
-2555.3774 729.2641 2898.1333 3815986
-2529.4509 726.74805 2888.1343 4144951
-2500.0955 723.20581 2874.0571 3750193
-2474.2996 720.65167 2863.907 3355178
-2476.9534 726.40564 2886.7734 3026470
-2502.937 739.12897 2937.3367 4078901
-2461.0671 731.85278 2908.4207 4145207
-2401.8652 719.28357 2858.47 2565919
-2382.1985 718.45941 2855.1948 3025700
-2378.9895 722.62256 2871.7395 3157286
-2358.6643 721.60919 2867.7124 3354663
-2388.5449 736.05249 2925.1106 4078386
-2359.7256 732.48578 2910.9363 5986126
-2312.4138 723.08405 2873.5732 3749164
-2308.4543 727.19946 2889.9282 2893085
-2265.2556 718.92303 2857.0374 2761499
-2247.8992 718.78528 2856.49 1971984
-2220.0161 715.25403 2842.4565 1314054
-2202.2451 714.95154 2841.2544 1774863
-2200.0222 719.7309 2860.2478 2959394
-2120.8386 699.21161 2778.7031 3551788
-2140.7651 711.30212 2826.7515 2170135
-2147.6565 719.21808 2858.21 3552045
-2150.1277 725.76776 2884.2385 3354665
-2125.5798 723.22919 2874.1501 3157285
-2092.9895 717.89105 2852.936 3091235
-2077.231 718.28625 2854.5068 3420199
-2076.8049 724.03326 2877.3455 3551784
-2030.8435 713.86908 2836.9526 3485991
-2044.4661 724.65466 2879.8152 3749161
-1999.953 714.84247 2840.8208 3617575
-1982.5363 714.63074 2839.9795 4143919
-2001.7932 727.74823 2892.1091 3486247
-1979.9225 726.01117 2885.2058 3288611
-1948.6562 720.76855 2864.3716 3354406
-1941.2229 724.32666 2878.5115 2170131
-1902.7024 716.24554 2846.3967 2367510
-1887.1263 716.73425 2848.3389 920325
-1904.5526 729.87909 2900.5774 2235669
-1885.7319 729.24603 2898.0615 2695962
-1867.2887 728.74872 2896.085 1643278
-1842.4127 725.70825 2884.0022 788741
-1810.5706 719.84137 2860.6868 1709585
-1786.936 717.15759 2850.0212 1512203
-1768.3406 716.46423 2847.2659 3947055
-1739.8529 711.71088 2828.376 3157538
-1726.5398 713.13306 2834.0276 4407348
-1701.9602 709.88373 2821.1147 3025438
-1687.5364 710.84796 2824.9465 2696472
-1720.8882 732.15784 2909.6331 3025438
-1711.7637 735.64447 2923.489 3025438
-1713.3508 743.85272 2956.1091 3551783
0 0 0 0
-1604.9504 711.33209 2826.8704 3420710
-1623.2517 727.02966 2889.2534 3354919
-1611.9564 729.66467 2899.7251 2894112
-1599.4814 731.81677 2908.2778 1183236
-1586.1866 733.63647 2915.5093 1446409
-1560.6672 729.78003 2900.1836 985861
-1529.6881 723.25629 2874.2578 2170133
-1508.0203 721.03772 2865.4412 919811
-1498.4159 724.60223 2879.6067 3551531
-1489.2258 728.45148 2894.9038 1972499
-1473.9015 729.35498 2898.4944 2104340
-1439.6508 720.80365 2864.511 3288613
-1428.3717 723.68701 2875.9695 2038546
-1438.916 737.83026 2932.1755 1512201
-1428.2301 741.29999 2945.9646 3683371
-1399.8105 735.53729 2923.0632 1972753
-1387.7211 738.31848 2934.1157 2235925
-1376.361 741.56323 2947.0105 2630940
-1339.4908 730.97034 2904.9138 3552042
-1320.1964 729.81763 2900.333 3683628
-1318.1649 738.30353 2934.0564 2170389
-1303.9487 740.10046 2941.1975 2696733
-1260.6068 725.19086 2881.9458 3617579
-1234.7372 720.06104 2861.5596 2696476
-1232.1215 728.53821 2895.2485 3157028
-1228.9475 736.91998 2928.5581 3420457
-1213.071 737.81586 2932.1184 3223079
-1185.0388 731.237 2905.9736 2630942
-1170.4316 732.8703 2912.4644 4209974
-1157.2789 735.47687 2922.823 3289642
-1133.6653 731.41345 2906.6748 2960677
-1100.8959 721.22638 2866.1909 3158056
-1112.6139 740.32178 2942.0769 3025954
-1088.6564 735.90894 2924.5403 2433561
-1070.3234 735.21704 2921.7905 3815469
-1047.1671 731.13464 2905.5669 2564890
-1030.4404 731.4801 2906.9397 3157028
-998.57092 720.90509 2864.9141 2696476
-990.65057 727.55304 2891.3335 2498582
-984.26843 735.58459 2923.2512 2695447
-969.53357 737.54962 2931.0603 2169360
-954.76959 739.56378 2939.0647 2432532
-927.5733 731.84393 2908.3855 1840395
-916.23676 736.58167 2927.2136 3354405
-907.35864 743.51685 2954.7744 2301978
-887.16296 741.26843 2945.8391 2038805
-868.93347 740.60559 2943.2048 1973013
-844.77979 734.76294 2919.9858 1841687
-826.53296 733.92108 2916.6401 2565148
-812.54474 736.90527 2928.4998 2038805
-795.21918 736.92706 2928.5864 1314826
-768.86151 728.39319 2894.6721 1314569
-743.8056 720.73126 2864.2234 2235413
-733.31598 727.15552 2889.7537 3156258
-706.76453 717.57928 2851.6973 1972496
-682.36865 709.77618 2820.6873 2037776
-667.19092 711.41046 2827.1819 2761241
-655.01953 716.41699 2847.0781 2958363
-632.20544 709.74023 2820.5444 3484707
-619.23602 714.05298 2837.6836 3024412
-597.66644 708.41284 2815.2693 3287327
-581.30426 708.79822 2816.8008 3353634
-567.11267 711.93134 2829.252 3683369
-556.37653 719.72528 2860.2253 3289123
-543.26996 724.84613 2880.5759 5000768
-529.1181 728.85919 2896.5242 4277045
-512.02301 728.95111 2896.8894 4012846
-490.94809 723.18695 2873.9824 3552039
-478.27057 729.82281 2900.3535 3025439
-461.70319 730.79614 2904.2217 3354403
-443.27286 728.7821 2896.2178 2893082
-419.71085 717.82904 2852.6897 2761497
-405.90027 723.33453 2874.5688 2629911
-384.1861 714.62079 2839.9399 2432532
-371.37753 722.4328 2870.9854 2958876
-353.59155 720.84753 2864.6853 4077359
-334.64951 716.62683 2847.9119 2499096
-318.18689 717.54926 2851.5776 2301462
-299.25235 712.68817 2832.2595 3945773
-283.84805 716.15637 2846.0425 2695706
-268.92999 721.367 2866.7498 1906190
-249.68684 714.89655 2841.0359 2037776
-233.0928 715.6239 2843.9263 1511432
-216.75041 717.29724 2850.5764 2037776
-199.35089 715.45953 2843.2732 2498070
-183.90034 720.92291 2864.9849 853507
-166.42314 718.74457 2856.3281 1313539
-148.08026 711.91132 2829.1724 1774091
-130.63985 708.2262 2814.5276 1643019
-114.18896 709.61212 2820.0352 2366743
-97.564957 710.21283 2822.4224 2169364
-80.532951 707.47772 2811.553 1708812
-63.564884 704.02441 2797.8293 4143152
-47.230892 707.63495 2812.1777 3156256
-30.576221 707.75775 2812.6658 3287843
-13.980351 711.16589 2826.21 4011564
2.7937553 719.14557 2857.9216 3551013
19.903616 725.6676 2883.8406 3551013
36.342426 712.99939 2833.4963 3748392
53.642273 719.89166 2860.8867 3287840
70.482437 718.78644 2856.4946 2038029
87.509819 719.64874 2859.9214 3024669
104.36811 719.06641 2857.6069 3024412
121.17832 718.36151 2854.8059 2234640
138.21355 718.99982 2857.3425 2629142
155.30835 719.77502 2860.4231 1905675
171.89014 718.25403 2854.3787 1313283
187.79988 714.44879 2839.2563 2366226
205.91727 718.97736 2857.2532 1774090
223.37265 720.68201 2864.0276 1642506
240.18727 720.22467 2862.21 1905936
255.63007 715.98535 2845.3628 2366226
274.31851 720.79883 2864.4917 1576710
289.83112 717.19269 2850.1609 2563604
304.83456 712.79297 2832.6763 1379333
320.90005 711.20636 2826.3708 2563090
333.9498 703.42468 2795.446 2300175
353.95926 710.34558 2822.95 2168589
369.33347 707.75928 2812.6721 2563090
389.02969 713.32117 2834.7751 2563346
408.97064 718.85291 2856.7585 2892825
426.76239 720.31738 2862.5786 2103054
445.3931 723.03192 2873.3662 1905419
462.74753 723.5509 2875.4287 2300176
481.48322 726.11621 2885.6233 1839625
496.95224 723.74805 2876.2122 2497554
511.27011 719.91602 2860.9834 1971209
530.76825 723.39008 2874.7896 1904646
541.09937 714.54272 2839.6296 2825492
561.53522 719.17035 2858.02 1970954
587.82623 730.80634 2904.2622 1641987
598.54846 722.97528 2873.1411 1773574
612.74945 719.66309 2859.9783 1773828
627.57227 717.23981 2850.3479 2234380
640.92432 713.30658 2834.7173 2430987
653.46869 708.69836 2816.4038 3418138
684.01477 723.35669 2874.6567 3023381
701.47803 723.80353 2876.4326 2957587
716.14972 721.41718 2866.9492 2497039
731.96289 720.26465 2862.3689 2694417
754.35968 725.49597 2883.1584 2497295
778.12988 731.78729 2908.1604 1839367
770.03516 708.48798 2815.5679 1708038
790.23505 711.65784 2828.165 1247489
806.79846 711.48907 2827.4944 1576194
811.21069 700.82953 2785.1328 1444867
0 0 0 0
0 0 0 0
0 0 0 0
0 0 0 0
0 0 0 0
0 0 0 0
0 0 0 0
0 0 0 0
467.74377 341.57104 1357.421 196608
476.83115 342.32181 1360.4045 196611
483.58972 341.40347 1356.755 196610
490.90405 340.90112 1354.7587 131072
0 0 0 0
0 0 0 0
0 0 0 0
0 0 0 0
1091.8998 700.95355 2785.6257 984320
1097.574 694.10565 2758.4119 1509634
1121.9498 699.11206 2778.3074 1509889
1129.2993 693.51758 2756.0747 918528
1145.3291 693.33728 2755.3582 1510144
1160.0839 692.40106 2751.6377 1575681
1177.1252 692.83667 2753.3687 1444352
1204.4128 699.20862 2778.6912 2168071
1222.2677 700.00659 2781.8625 1904899
1237.0555 699.05017 2778.0615 2233607
1276.1416 711.66931 2828.2107 1969923
1280.0815 704.61536 2800.1777 2693645
1287.8972 699.84796 2781.2319 2364681
1314.2286 705.13538 2802.2444 1641729
1345.8468 713.0921 2833.8647 2497037
1351.8306 707.43781 2811.3945 1905156
1380.9429 713.87744 2836.9858 853248
1395.3827 712.66852 2832.1814 3088660
1398.3346 705.69067 2804.4512 1641216
1407.0796 701.76605 2788.8545 2233351
1439.8733 709.78723 2820.7312 3812383
1449.0017 706.09241 2806.0479 2957074
1466.8295 706.67261 2808.3533 2759952
1466.3356 698.51184 2775.9221 2760210
1508.538 710.64563 2824.1423 2628625
1514.9098 705.81915 2804.9619 3681313
1539.749 709.60834 2820.0203 2694416
1554.7284 708.82092 2816.8911 2496784
1592.5918 718.37262 2854.8499 1904647
1603.5613 715.71991 2844.3079 1181185
1623.0682 716.89337 2848.9712 1378816
1628.7974 712.01971 2829.603 1444609
1654.9165 716.06793 2845.6909 1510400
1654.6068 708.71429 2816.4673 1772800
1666.0074 706.47327 2807.5613 2101765
1690.3301 709.70203 2820.3926 2167812
1709.9768 710.92352 2825.2468 1772800
1718.235 707.4325 2811.3733 2101762
1737.5311 708.50934 2815.6528 1904128
1767.4994 713.87616 2836.9807 2167299
1783.1101 713.39752 2835.0786 2233091
1804.5695 715.24603 2842.4248 2365191
1829.1235 718.27557 2854.4644 2167812
1844.1279 717.53394 2851.5168 2102019
1869.4155 720.77051 2864.3794 2102019
1887.8513 721.33087 2866.6062 2365191
1934.4578 732.54907 2911.1877 2826001
1922.1758 721.46582 2867.1426 2430727
1936.7932 720.58478 2863.6411 2364677
1954.6244 720.9043 2864.9109 2101250
1975.1307 722.19653 2870.0461 1838336
1987.26 720.42969 2863.0249 2495749
1993.2289 716.47845 2847.3225 3351058
2014.4576 718.03271 2853.4993 2956557
2032.5072 718.43738 2855.1074 2693385
2062.97 723.18689 2873.9822 2956302
2090.7842 726.93774 2888.8882 2956045
2094.3755 722.27411 2870.3547 2167812
2103.79 719.67767 2860.0361 2562569
2114.3101 717.49786 2851.3735 2365191
2129.8381 717.03857 2849.5483 2562570
2146.4233 716.9397 2849.1555 2628108
2164.5989 717.36932 2850.8628 2365191
2188.3267 719.61816 2859.7998 2430727
2186.0056 713.33228 2834.8193 2957071
2213.157 716.68622 2848.1482 2759435
2219.876 713.42297 2835.1797 2759692
2247.6345 716.91962 2849.0754 3088914
2262.8533 716.3941 2846.9871 2628619
2287.365 718.79669 2856.5352 3023120
2289.8835 714.30347 2838.6787 2299398
2301.7405 712.76746 2832.5747 2233605
2314.325 711.47742 2827.448 3088660
2340.9797 714.50037 2839.4614 2825488
2363.604 716.25879 2846.4495 3022867
2375.4307 714.74341 2840.4272 3022867
2389.9453 714.05243 2837.6814 3022867
2398.9172 711.72662 2828.4385 3022867
2412.7046 710.85193 2824.9624 3022867
2435.9155 712.74658 2832.4917 2826001
2455.4326 713.54181 2835.6521 3483930
2467.9536 712.30713 2830.7454 3154966
2490.207 713.87915 2836.9924 2760209
2515.2954 716.23724 2846.3638 3221533
2539.8384 718.40973 2854.9973 4997687
2562.7573 720.09711 2861.7031 3287069
2543.5276 709.99701 2821.5647 2628884
2579.8467 715.43335 2843.1692 984577
2569.6909 707.99457 2813.6069 2168073
2620.1243 717.23743 2850.3386 2299402
2611.427 710.27911 2822.6858 2562829
2609.4431 705.22357 2802.595 3154966
2633.6558 707.26715 2810.7161 3418138
2661.2896 710.19794 2822.3633 3220759
2686.5576 712.46472 2831.3716 2826001
2706.4058 713.27502 2834.5918 2628624
0 0 0 0
0 0 0 0
0 0 0 0
0 0 0 0
0 0 0 0
0 0 0 0
0 0 0 0
0 0 0 0
-2474.9412 718.11273 2788.1746 3749679
-2486.8503 726.41638 2820.4146 3354664
-2501.0505 735.5061 2855.7068 2827805
-2468.5034 730.87848 2837.7395 3815213
-2444.759 728.81171 2829.7151 3091491
-2461.1094 738.75165 2868.3081 3749421
-2427.6213 733.76569 2848.9495 3749421
-2408.4824 733.07758 2846.2776 3486248
-2379.0166 729.21423 2831.2776 2828319
-2358.9346 728.19269 2827.3115 2630429
-2360.5515 733.90295 2849.4824 2169876
-2336.9141 731.78723 2841.2678 2235670
-2317.6301 731.01392 2838.2654 1906706
-2293.5603 728.7088 2829.3154 2630429
-2269.0691 726.2348 2819.7097 1643534
-2261.2786 729.10901 2830.8691 2893598
-2239.748 727.56281 2824.866 3025185
-2229.6252 729.72699 2833.2686 3683371
-2200.9702 725.81256 2818.0703 3157286
-2155.6758 716.30927 2781.1724 5657419
-2131.1721 713.62128 2770.7358 2565405
-2112.375 712.8172 2767.614 3881777
-2096.1052 712.86023 2767.781 4671037
-2078.1873 712.33881 2765.7566 3815214
-2094.1191 723.50415 2809.1074 2762526
-2053.4741 715.14471 2776.6509 3091234
-2037.7551 715.40125 2777.6467 3222818
-2027.8551 717.72131 2786.6548 3485991
-2015.9697 719.37115 2793.0605 2959646
-2007.6434 722.3288 2804.5439 4275506
-1989.1641 721.65228 2801.9175 1906960
-1943.7162 711.09814 2760.9395 3485735
-1970.0491 726.84833 2822.0918 2828061
-1962.3118 730.19043 2835.0679 3880750
-1946.3477 730.50244 2836.2795 3485992
-1906.2533 721.68445 2802.0425 3420199
-1908.5691 728.90869 2830.0916 3222820
-1852.5931 713.80121 2771.4346 3354150
-1847.3907 718.16144 2788.3635 2235925
-1862.9822 730.75677 2837.2668 2104339
-1854.584 734.08582 2850.1924 2433047
-1838.5597 734.42969 2851.5276 2564890
-1817.5767 732.78076 2845.1252 1578252
-1799.0009 732.08057 2842.4067 3617578
-1775.7744 729.45673 2832.2192 2433304
-1762.6346 730.96582 2838.0786 2696218
-1728.3223 723.63904 2809.6313 2629654
-1687.6725 713.4906 2770.2285 3287585
-1676.0804 715.54816 2778.2173 2630166
-1686.6285 727.19214 2823.4268 3353890
-1691.5629 736.62488 2860.0505 3354403
-1693.4756 744.91931 2892.2551 3288610
-1692.6233 752.15466 2920.3472 2499095
-1646.9651 739.42328 2870.9158 2367509
-1619.6835 734.76257 2852.8201 4538937
-1597.686 732.42615 2843.7485 3091492
-1603.7488 743.04059 2884.9607 1249289
-1577.161 738.59332 2867.6934 525825
-1561.8749 739.39941 2870.823 1512460
-1539.0675 736.62341 2860.0449 3420458
-1491.304 721.70825 2802.1348 1775635
-1498.4972 733.35272 2847.3459 2367770
-1480.2174 732.65405 2844.6333 3288102
-1458.1969 730.06653 2834.5869 1314829
-1441.4679 730.09875 2834.7122 1840913
-1424.2709 729.89197 2833.9092 4143923
-1410.2001 731.30145 2839.3816 1906960
-1429.5609 750.2912 2913.1121 1906959
-1408.8397 748.45135 2905.9688 2499097
-1371.7457 737.76025 2864.4587 4933692
-1344.5529 732.19305 2842.8435 3617832
-1327.7375 732.20764 2842.8999 2960415
-1312.514 733.11163 2846.4099 3552296
-1307.524 739.82953 2872.4932 3025697
-1265.3207 725.39075 2816.4324 2104596
-1233.4154 716.54865 2782.1018 3618090
-1205.8467 710.02051 2756.7554 3946799
-1217.8131 726.91156 2822.3374 4012593
-1198.8679 725.56494 2817.1089 3223077
-1198.6287 735.66113 2856.3088 2959905
-1179.4048 734.22784 2850.7437 2236182
-1166.6962 736.86774 2860.9937 2697762
-1145.557 734.18231 2850.5671 5131591
-1127.4674 733.40039 2847.531 3223852
-1105.7117 730.17358 2835.0027 4145210
-1096.8964 735.52454 2855.7783 3289900
-1077.7905 734.03461 2849.9937 3026469
-1093.6951 756.72089 2938.0762 3420713
-1062.3076 746.89062 2899.9089 3815215
-1036.5172 740.737 2876.0166 2170132
-1011.7637 735.13129 2854.2515 3223076
-994.54578 734.90314 2853.3657 2696476
-981.33148 737.67676 2864.1348 2235924
-965.96918 738.90479 2868.9028 2827035
-950.771 740.30475 2874.3381 1840138
-929.1311 736.64844 2860.1421 1314308
-921.54218 744.20331 2889.4749 2367254
-902.86853 742.92316 2884.5046 2762270
-877.13129 735.66925 2856.3403 2696735
-865.7616 740.41736 2874.7754 3420201
-842.64984 735.11249 2854.1785 3486251
-820.43353 730.38751 2835.833 3749424
-805.49518 732.07953 2842.4028 3157285
-790.69232 733.96973 2849.7415 3354663
-759.46533 720.36371 2796.9143 2433049
-751.61639 728.81976 2829.7463 2038291
-732.11188 726.10187 2819.1936 2696218
-721.51477 732.29749 2843.249 3419941
-696.31281 723.612 2809.5261 3354405
-675.96259 719.66632 2794.2068 2301203
-662.68964 723.24677 2808.1082 2958621
-646.64496 723.90857 2810.6777 3024414
-623.96826 716.98468 2783.7947 2695449
-604.00757 712.8905 2767.8987 2695706
-588.11017 713.49738 2770.2549 1511432
-569.43268 710.66956 2759.2754 4341302
-558.59143 717.74341 2786.7407 3223847
-536.93109 710.92316 2760.26 4540732
-529.97687 723.75763 2810.0918 3160104
-513.29694 723.71216 2809.9153 2830369
-493.76932 719.51392 2793.615 3158051
-480.01736 723.73267 2809.9946 3683882
-465.7724 727.48431 2824.5613 1907473
-442.53174 716.94196 2783.6289 3223075
-426.32751 717.42426 2785.5015 1709839
-415.02939 726.53387 2820.8708 3419683
-399.95285 729.51605 2832.4495 3288097
-381.33026 726.00806 2818.8293 2235153
-362.86246 722.487 2805.1584 2498325
-346.52539 723.07404 2807.4375 2169105
-326.68689 716.04559 2780.1487 2366740
-308.4097 711.87482 2763.9551 2103569
-294.27139 717.32538 2785.1174 2169362
-276.7619 714.71759 2774.9924 2827035
-261.29669 717.39294 2785.3801 2959392
-245.68741 720.00684 2795.5288 2301205
-229.06032 719.80023 2794.7266 3222307
-211.21655 715.44037 2777.7986 3024413
-195.07436 716.59418 2782.2786 3682600
-179.36839 719.71136 2794.3816 3616808
-163.22775 721.54102 2801.4856 1511432
-144.53185 711.21094 2761.3774 2169106
-129.75308 719.97961 2795.4231 2564120
-112.70171 716.85864 2783.3054 1774604
-96.33419 717.76331 2786.8179 1774604
-78.875023 709.22626 2753.6716 3419428
-62.821068 712.16718 2765.0901 3287586
-46.637707 715.1983 2776.8589 3156255
-29.755447 704.97455 2737.1638 2300433
-13.56686 706.37988 2742.6201 2366224
2.7175167 715.98975 2779.9319 2629140
19.254919 718.54443 2789.8506 2563603
35.703419 716.95386 2783.6753 2300688
52.481304 720.89288 2798.969 3024411
68.895981 719.14923 2792.199 3419427
86.568321 728.66681 2829.1523 1379845
101.88995 718.51984 2789.7551 2893082
119.81452 726.9989 2822.6765 1576711
135.6057 722.04181 2803.4297 1445382
152.85422 725.07941 2815.2236 1774348
167.87956 718.01105 2787.7798 2695448
183.27356 713.64429 2770.8252 1643019
200.24821 715.64435 2778.5908 1971726
219.95993 726.37927 2820.2708 1971725
236.88503 727.04584 2822.8586 2103054
249.01169 713.86823 2771.6948 2234640
268.73767 722.75916 2806.2151 1971468
285.66046 723.51434 2809.147 1247746
297.59787 712.25452 2765.4292 2300433
316.93982 718.96674 2791.4905 1050624
329.32016 710.00421 2756.6921 1444610
345.74103 710.18829 2757.4067 2694677
367.14026 720.12042 2795.9697 2629140
383.2016 719.17712 2792.3074 2300175
405.3226 729.21381 2831.2761 2563347
425.5242 735.13684 2854.2732 3023898
441.30362 733.2594 2846.9836 2431761
457.44699 732.10266 2842.4924 1971210
472.10364 728.73309 2829.4097 1971210
488.43124 728.08551 2826.8953 1773831
505.13336 728.02051 2826.6431 2036233
520.80072 726.51624 2820.8025 2759956
533.23621 720.73718 2798.3645 2497297
552.70624 724.5282 2813.0835 2628883
571.27649 726.95221 2822.4951 1971209
586.60413 725.22943 2815.8062 1774600
607.08661 729.79871 2833.5471 1117188
619.99231 725.25891 2815.9207 722688
625.25232 712.24762 2765.4023 1773829
642.85516 713.60187 2770.6604 1905672
660.35931 714.7818 2775.2417 2365451
683.79163 722.16522 2803.9089 2431244
702.69031 724.52405 2813.0674 2957332
710.02271 715.12421 2776.571 2891541
731.13428 719.71381 2794.3911 1312770
739.28839 711.62762 2762.9954 524288
752.65961 708.80487 2752.0356 852737
766.60236 706.6286 2743.5859 1576198
786.85321 710.23669 2757.5947 787456
805.04266 711.87506 2763.9561 1050112
0 0 0 0
0 0 0 0
0 0 0 0
0 0 0 0
0 0 0 0
0 0 0 0
0 0 0 0
0 0 0 0
470.45627 351.6402 1365.293 196608
476.56851 350.18814 1359.6552 131074
484.36765 350.00333 1358.9376 196610
491.43863 349.30701 1356.234 131072
0 0 0 0
0 0 0 0
0 0 0 0
1052.0178 701.8587 2725.0659 1313281
1064.5238 699.46832 2715.7849 1773831
1092.4998 707.16266 2745.6594 2037003
1102.2618 703.01453 2729.5537 1905416
1125.1864 707.25995 2746.0371 1905414
1133.0599 702.05847 2725.8418 1313537
1149.1189 702.00385 2725.6296 1049088
1168.5725 703.99573 2733.3633 1247746
1184.6575 703.93146 2733.1138 3220761
1193.59 699.67627 2716.5923 2233864
1207.1119 698.18878 2710.8169 2102021
1226.8895 700.3111 2719.0571 2364936
1232.8293 694.58209 2696.8135 1378560
1268.2258 705.38342 2738.7512 2036228
1284.7596 705.55298 2739.4097 2102022
1301.4624 705.81 2740.4075 1444096
1319.7236 706.89545 2744.6218 1115136
1348.401 713.46582 2770.1323 1773057
1366.6268 714.41461 2773.8162 1970436
1390.817 718.42169 2789.3743 1970179
1386.1892 707.62366 2747.4492 2299144
1403.8346 708.31439 2750.1311 2299143
1412.6271 704.57367 2735.6072 2628109
1438.3904 709.28625 2753.9045 2693902
1465.0618 714.33594 2773.5107 2101510
1477.4521 712.3877 2765.9463 2365195
1496.8514 713.82471 2771.5256 2628624
1504.4846 709.6803 2755.4343 3286296
1524.8553 711.56873 2762.7666 2825746
1551.627 716.37231 2781.4172 2628623
1568.5208 716.56232 2782.155 2628880
1595.1749 721.16101 2800.01 2036486
1618.9043 724.35638 2812.4165 1904899
1619.1295 717.07721 2784.1541 1575682
1624.6056 712.24683 2765.3994 1970436
1637.7257 710.83063 2759.9009 1838594
1654.0156 710.80475 2759.8003 1970178
1680.5815 715.15216 2776.6797 2299141
1688.5117 711.56189 2762.74 1904642
1704.8788 711.56189 2762.74 2167811
1733.5084 716.63123 2782.4224 1641472
1754.4548 718.45868 2789.5178 1575680
1779.7107 722.00043 2803.269 2496776
1798.0579 722.69971 2805.9841 2365191
1815.1035 722.86798 2806.6375 2430984
1838.8287 725.66907 2817.5132 2562570
1860.6626 727.68024 2825.3218 2496777
1900.5464 736.65155 2860.1541 4141602
1886.9805 724.93036 2814.645 3088915
1906.9105 726.17004 2819.4583 1180928
1922.5848 725.78168 2817.9504 1509376
1921.1061 718.98035 2791.5432 1180672
1948.8529 723.13959 2807.6921 1378304
1951.5188 718.00073 2787.7397 1640960
1964.8511 716.83948 2783.231 1904132
1997.8737 722.82141 2806.4568 2233094
2028.7494 727.93433 2826.3083 2562058
2044.2465 727.49072 2824.5859 2628364
2069.5061 730.50031 2836.271 2167558
2072.8689 725.79443 2818 2496523
2076.4905 721.25372 2800.3699 2299142
2099.895 723.60187 2809.4871 3023121
2127.8867 727.48145 2824.5498 2364937
2107.8289 715.00134 2776.0942 2496776
2129.1843 716.65381 2782.51 2562315
2152.0789 718.79486 2790.823 2364681
2171.3086 719.68854 2794.293 2430474
2181.9199 717.73364 2786.7029 2167560
2201.3777 718.69635 2790.4407 2299400
2219.4065 719.1817 2792.325 2299656
2247.3816 722.85889 2806.6023 2102277
2244.0559 716.4884 2781.8679 1839106
2262.155 717.00153 2783.8601 1444608
2258.8357 710.76752 2759.6558 2497036
2273.2769 710.17163 2757.342 2694159
2292.6316 711.10822 2760.9785 2759695
2309.9246 711.39655 2762.0981 2759695
2329.8313 712.48016 2766.3054 2759695
2344.2766 711.89014 2764.0144 2759694
2361.6265 712.18427 2765.1565 2826001
2376.6462 711.77649 2763.5732 2628366
2410.6938 717.03394 2783.9858 3154965
2413.9797 713.13226 2768.8372 3089173
2434.3359 714.29218 2773.3408 3154966
2461.686 717.47491 2785.6982 3286555
2492.9446 721.74689 2802.2847 3417884
2494.8469 717.51935 2785.8708 3220503
2531.6023 723.30542 2808.3359 3088918
2552.2397 724.44086 2812.7444 3549725
2591.3513 730.77136 2837.3235 2694415
2581.1462 723.20239 2807.936 3023380
2578.7402 717.90149 2787.3545 3023380
2600.4346 719.3349 2792.9197 3286295
2582.04 709.73065 2755.6301 2826001
2622.2649 716.25879 2780.9766 3154709
2656.0601 720.96021 2799.2302 3023635
2667.1062 719.46655 2793.4309 3154966
0 0 0 0
0 0 0 0
0 0 0 0
0 0 0 0
0 0 0 0
0 0 0 0
0 0 0 0
0 0 0 0
-2431.7722 721.81677 2739.5422 3157284
-2432.72 726.94983 2759.0237 2368540
-2410.8201 725.27869 2752.6812 2302747
-2438.3208 738.54785 2803.0422 4144181
-2438.5488 743.6817 2822.5269 2894114
-2423.2085 744.10571 2824.1362 3223078
-2420.0376 748.29852 2840.0496 3683629
-2368.5024 737.49078 2799.0303 1644045
-2337.5552 732.98633 2781.9343 2565150
-2302.2173 727.03131 2759.333 2630429
-2315.5461 736.46979 2795.1553 3749421
-2321.3289 743.62689 2822.3188 3683887
-2293.5447 740.05682 2808.7693 3157542
-2231.6045 725.33295 2752.8872 2959905
-2200.9736 720.64362 2735.0896 3222820
-2214.6353 730.49457 2772.4773 2564889
-2187.1265 726.8111 2758.4973 4078129
-2147.043 718.86218 2728.3284 3420710
-2110.6646 712.04248 2702.4453 2565401
-2121.6323 721.21301 2737.2507 3683626
-2090.8772 716.23267 2718.3484 3486760
-2089.2207 721.22015 2737.2778 3749676
-2068.0139 719.48389 2730.688 2894110
-2053.0498 719.9093 2732.3025 3354149
-2043.696 722.32434 2741.4685 3091234
-2030.3468 723.35461 2745.3787 3749165
-2018.1309 724.80847 2750.8967 2828062
-1999.3057 723.89313 2747.4226 3354406
-1993.7502 727.80676 2762.2761 4012336
-1963.228 722.59576 2742.4985 3814701
-1948.501 723.15991 2744.6396 2893856
-1923.4756 719.87927 2732.1887 3485992
-1916.2944 723.27814 2745.0884 3222820
-1905.1241 725.21661 2752.4456 4801851
-1888.22 724.98688 2751.5737 2104337
-1870.8486 724.57233 2750.0005 4078127
-1870.6309 730.85242 2773.8354 4012334
-1839.921 725.22491 2752.4773 3749162
-1824.5214 725.58551 2753.8457 3157025
-1813.3562 727.65179 2761.688 3354404
-1805.9309 731.27002 2775.4204 3354406
-1778.9656 726.96979 2759.0994 3288613
-1753.6902 723.28674 2745.1211 3288613
-1734.634 722.12384 2740.7075 2959648
-1723.4456 724.24518 2748.7588 2301718
-1717.5107 728.63593 2765.4231 2564119
-1703.1033 729.48199 2768.6343 2958876
-1677.6036 725.54742 2753.7012 2564375
-1659.4198 724.73059 2750.6011 1709064
-1672.8021 737.82037 2800.2812 1577478
-1660.7793 739.8548 2808.0024 2959389
-1652.8616 743.77765 2822.8911 3880748
-1639.1688 745.1554 2828.1201 1249284
-1599.738 734.74036 2788.5916 3354919
-1573.9114 730.42151 2772.2 5000260
-1580.4763 741.20227 2813.1167 5197382
-1561.2488 739.98792 2808.5078 3486763
-1546.0475 740.67639 2811.1208 4539194
-1542.3778 746.96442 2834.9861 2433820
-1524.0946 746.23584 2832.2207 2959907
-1483.803 734.59515 2788.0405 2170392
-1462.1235 732.01062 2778.2312 3618095
-1436.9937 727.62 2761.5674 4079158
-1429.1542 731.98413 2778.1309 3420715
-1432.8163 742.40942 2817.6982 2565404
-1395.8724 731.79272 2777.4043 3289127
-1397.8489 741.57013 2814.5129 2696733
-1392.8275 747.82654 2838.2581 2894112
-1378.2146 749.02301 2842.7991 1775628
-1348.9535 742.1897 2816.8643 2762267
-1337.126 744.89728 2827.1406 2565401
-1311.7437 740.02655 2808.6545 3091745
-1292.8209 738.72174 2803.7021 3749675
-1252.1367 724.78644 2750.813 3815470
-1245.6814 730.55798 2772.718 2170389
-1212.359 720.51648 2734.6069 3486251
-1203.1493 724.72729 2750.5886 4144181
-1189.9377 726.61029 2757.7351 2894115
-1176.9026 728.65479 2765.4946 3354665
-1174.4844 737.42316 2798.7737 2762527
-1156.9515 736.81659 2796.4717 3223078
-1138.4613 735.57397 2791.7554 4276281
-1079.6873 707.88318 2686.6592 3816499
-1109.811 738.52039 2802.938 3026726
-1096.9481 741.04852 2812.5332 1907989
-1081.4121 741.82098 2815.4648 4079159
-1061.58 739.62445 2807.1284 2894884
-1053.5167 745.68817 2830.1421 4144181
-1033.993 743.70496 2822.6152 3025700
-1016.1061 742.85321 2819.3826 2695964
-1006.3245 747.99756 2838.9072 2433304
-983.72491 743.62732 2822.3206 2169876
-976.93011 751.25983 2851.2886 1643018
-954.42145 746.86444 2834.6064 853504
-940.94336 749.50476 2844.6274 854274
-918.45593 744.93414 2827.2805 1972753
-898.03076 741.89752 2815.7554 1841167
-874.56055 736.18268 2794.0657 2038548
-848.11908 727.698 2761.8633 3354407
-848.78387 742.59448 2818.4006 3223077
-816.1701 728.38947 2764.4878 3288612
-799.08447 727.74451 2762.0398 3551526
-779.55646 724.8017 2750.8708 3683367
-762.72369 724.29279 2748.9395 2827803
-747.69421 725.51135 2753.5642 2367253
-730.6427 724.77856 2750.783 1972239
-717.50372 727.98193 2762.9409 2761242
-700.22394 727.03552 2759.3491 2037519
-682.54407 725.61847 2753.9709 1576968
-664.97632 724.25427 2748.7932 1905936
-648.25684 723.76862 2746.95 1774606
-625.89502 716.79608 2720.4868 1446156
-615.23639 723.21216 2744.8381 2301466
-597.13422 720.9892 2736.4011 328193
-577.70251 716.99194 2721.2302 657157
-566.10419 722.76654 2743.1467 1250322
