# .PCD v0.7 - Point Cloud Data file format
VERSION 0.7
FIELDS x y z rgb
SIZE 4 4 4 4
TYPE F F F U
COUNT 1 1 1 1
WIDTH 1322
HEIGHT 1
VIEWPOINT 0 0 0 1 0 0 0
POINTS 1322
DATA ascii
1516.6931 810.05823 1618.6602 2959648
1527.303 810.59985 1619.7424 3025697
1548.0774 816.49585 1631.5237 2498843
1551.4211 813.18225 1624.9026 2235927
0 0 0 0
0 0 0 0
0 0 0 0
0 0 0 0
0 0 0 0
0 0 0 0
0 0 0 0
0 0 0 0
0 0 0 0
0 0 0 0
0 0 0 0
0 0 0 0
0 0 0 0
0 0 0 0
0 0 0 0
-1215.9182 727.6283 1436.9382 3683889
-1205.7789 726.64807 1435.0026 3157288
-1195.163 725.36462 1432.4679 2894630
-1201.1093 734.18665 1449.8899 4473663
-1186.0944 730.23071 1442.0776 2763558
-1186.8376 735.98956 1453.4503 1974042
-1187.2618 741.63324 1464.5956 2697765
-1184.8605 745.58191 1472.3936 3290158
-1171.2816 742.5036 1466.3143 6185306
-1160.5642 741.20673 1463.7532 4145979
-1150.7928 740.49902 1462.3557 4079417
-1146.3199 743.21582 1467.7209 3947831
-1131.0055 738.89148 1459.181 2895144
-1121.7036 738.45868 1458.3264 2698021
-1115.0221 739.75769 1460.8916 3552563
-1099.3762 735.08301 1451.66 4144700
-1097.5861 739.67224 1460.7229 3815736
-1086.8549 738.26099 1457.936 4210493
-1075.9614 736.71613 1454.8851 3289135
-1066.0215 735.80444 1453.0847 2565924
-1060.8425 738.1908 1457.7974 3618867
-1040.3378 729.86432 1441.354 3618867
-1050.1868 742.87146 1467.0408 3026730
-1041.262 742.70471 1466.7115 5526351
-1027.3214 738.92761 1459.2523 2829095
-1014.1372 735.63483 1452.7498 4145211
-1005.0035 735.24908 1451.9879 4408383
-999.90186 737.83191 1457.0886 3750453
-978.6424 728.43298 1438.5273 3355695
-967.75476 726.65686 1435.0198 3487027
-964.55225 730.6709 1442.9468 1710616
-969.69513 741.13507 1463.6117 2697511
-942.09991 726.54065 1434.7903 3026733
-938.9682 730.71832 1443.0405 2302753
-934.72766 734.10199 1449.7227 4473666
-920.21136 729.40332 1440.4436 2302494
-910.93738 728.81085 1439.2736 3947318
-903.30804 729.53558 1440.7047 2236701
-891.47925 726.84998 1435.4012 2039322
-880.55145 724.85449 1431.4604 3355182
-868.05011 721.51227 1424.8601 2368287
-867.32977 727.9928 1437.6581 3026217
-860.86536 729.73267 1441.094 2302494
-854.16595 731.30627 1444.2017 4473662
-854.16992 738.70898 1458.8207 2302493
-844.53583 737.84259 1457.1097 1052425
-829.85126 732.50024 1446.5594 3092263
-825.45447 736.22211 1453.9095 3025700
-815.12653 734.6767 1450.8575 4341558
-804.255 732.60315 1446.7627 4933438
-798.91132 735.57458 1452.6307 3355691
-806.42639 750.57892 1482.2617 6381913
-797.29071 750.24542 1481.6031 4802881
-785.34161 747.2276 1475.6434 4342075
-777.03223 747.64398 1476.4657 2368286
-772.24884 751.50092 1484.0825 3486768
-762.25854 750.32147 1481.7533 3486768
-753.54468 750.38562 1481.8799 3618354
-746.88123 752.51709 1486.0892 2829096
-740.25287 754.73517 1490.4696 2763559
-734.8042 758.22418 1497.3597 1842457
-728.90936 761.33246 1503.498 2829095
-719.18909 760.47253 1501.7998 2039322
-711.539 761.80756 1504.4363 2170909
-697.78778 756.5614 1494.076 2368800
-688.35016 755.91742 1492.8043 3421234
-685.70819 762.81659 1506.429 4013371
-678.63379 764.90179 1510.5469 3355441
-668.60181 763.66461 1508.1036 3618614
-658.16541 761.92578 1504.6698 3092271
-651.24292 764.26288 1509.2852 1381653
-640.74188 762.4071 1505.6202 2303013
-627.10187 756.71112 1494.3717 2433828
-616.81537 754.95654 1490.9067 1644055
-607.94952 754.9151 1490.8248 1644053
-602.25848 758.8728 1498.6407 1314830
-589.86908 754.38239 1489.7729 3289645
-583.33484 757.3576 1495.6484 4407869
-569.05725 750.216 1481.545 4210748
-561.4809 751.82373 1484.72 3289390
-553.29932 752.65924 1486.37 3092012
-544.01361 751.99554 1485.0593 2302239
-534.01569 750.30939 1481.7295 3157548
-519.53333 742.16077 1465.6373 2696996
-512.74963 744.91974 1471.0858 2433054
-498.98517 737.45715 1456.3485 2959397
-483.28802 726.82532 1435.3525 2762018
-486.51138 744.77722 1470.8044 2564639
-475.45367 741.12299 1463.5879 2762017
-457.14673 725.82312 1433.3733 1709329
-464.79007 751.9259 1484.9218 4472636
-453.17322 747.276 1475.739 3288361
-449.55182 755.8869 1492.7441 3288361
-438.79446 752.60419 1486.2612 2696224
-431.83823 755.8399 1492.6512 2169880
-420.32791 751.07336 1483.2382 1972501
-410.72861 749.59094 1480.3107 2630687
-402.29855 750.22437 1481.5615 2959909
-392.60721 748.48145 1478.1195 3025959
-384.56308 749.87091 1480.8635 2894373
-376.63092 751.54871 1484.1769 1841174
-368.4509 752.80029 1486.6486 2762276
-361.40686 756.49097 1493.937 3551791
-351.64096 754.52661 1490.0577 3091239
-345.16125 759.69391 1500.2622 1906965
-334.0191 754.60126 1490.2051 2696480
-323.37143 750.37946 1481.8678 3881011
-313.76343 748.40186 1477.9624 2960164
-303.16562 743.88202 1469.0365 3683630
-296.78436 749.74713 1480.619 2564895
-288.68945 751.50842 1484.0973 3354155
-278.5058 747.77222 1476.719 4275513
-270.69879 750.38184 1481.8726 2630689
-263.13171 753.8537 1488.7289 3880242
-254.12103 753.28723 1487.6102 2103573
-245.7513 754.64825 1490.298 1905935
-238.10597 758.41809 1497.7427 3287332
-228.00528 754.35608 1489.7209 3287074
-218.52094 752.08838 1485.2427 2102800
-205.96162 738.60321 1458.6117 2827293
-201.09906 752.74695 1486.5432 3222821
-195.08551 763.68066 1508.1354 2564636
-185.36259 760.44641 1501.7483 2301465
-177.35786 764.29016 1509.339 2169880
-166.65399 756.29309 1493.5461 2169620
-157.57448 755.18408 1491.3561 2761501
-146.1171 741.87024 1465.0636 2827548
-136.82173 738.54517 1458.4972 4340531
-128.02328 737.63501 1456.6997 3156002
-120.86472 746.72467 1474.6503 1445641
-111.63 743.40442 1468.0934 1643279
-103.76865 749.44196 1480.0165 3353380
-94.095596 742.30188 1465.916 2102798
-85.887268 746.43958 1474.0872 1314055
-77.589828 750.65179 1482.4055 1840397
-69.222794 755.17987 1491.3478 2037777
-61.073357 763.75427 1508.2808 3090464
-52.015423 761.95929 1504.736 1774604
-43.379044 766.87415 1514.4419 2038546
-34.517479 769.33325 1519.2982 2565146
-25.342121 764.06635 1508.897 1643534
-16.471573 767.25702 1515.198 2827552
-7.5178618 769.57715 1519.7798 2235673
1.4902883 771.97577 1524.5167 2828322
10.603993 778.00104 1536.4155 1578256
19.504358 770.03748 1520.689 131072
28.49563 769.56128 1519.7485 196608
37.350304 766.51044 1513.7236 262144
46.17498 764.14453 1509.0514 393728
54.377045 753.91388 1488.8477 788486
63.375748 756.04254 1493.0514 854279
71.945465 753.15887 1487.3567 1182985
80.627403 751.95111 1484.9716 722179
89.418289 751.89716 1484.865 1576716
98.484779 753.96271 1488.9441 393472
107.17577 753.05035 1487.1423 919555
115.60732 750.59216 1482.2878 787457
126.0466 760.59619 1502.0441 1839627
135.10268 761.48456 1503.7985 2366743
144.27779 762.89258 1506.579 1971982
154.28719 768.29083 1517.2396 1248260
163.9892 771.64838 1523.8702 1906448
172.38397 768.82538 1518.2952 1248260
177.95676 754.3205 1489.6506 1708811
191.02843 771.47058 1523.5192 1906190
200.6073 773.60394 1527.7321 1248775
211.40309 780.04333 1540.4487 1774863
220.94106 781.50061 1543.3265 2234385
226.65381 769.84943 1520.3175 2760729
238.03314 777.60022 1535.6241 2760986
246.33701 775.10345 1530.6934 2958363
254.59148 772.63391 1525.8165 2103053
262.7121 769.94171 1520.4998 2037261
270.35428 766.07208 1512.858 1708041
274.32568 752.38324 1485.8248 1971216
0 0 0 0
277.3334 714.7627 1411.531 196611
284.36862 711.44281 1404.9747 9
291.73148 709.10797 1400.3639 11
299.18762 707.12292 1396.4437 11
306.44696 704.79193 1391.8405 12
313.63394 702.42102 1387.1583 14
319.35245 696.96643 1376.3865 1316390
325.55539 692.81433 1368.1868 1381926
336.88641 699.5119 1381.4133 1973290
342.57785 694.45953 1371.4357 5
351.06665 695.18048 1372.8595 1248268
397.35864 769.03156 1518.7024 2498329
406.91544 770.09076 1520.7942 525057
418.86301 775.53058 1531.5369 1248259
427.00647 773.84564 1528.2095 985088
438.33215 777.87805 1536.1727 1839882
445.57211 774.64319 1529.7844 655872
454.40491 774.25134 1529.0106 1642503
467.12686 780.37195 1541.0977 1576452
471.80145 773.07178 1526.6812 1839880
487.58521 783.90686 1548.0785 2563860
497.13086 784.4978 1549.2456 2498069
508.09827 787.27026 1554.7207 2037776
514.22333 782.57471 1545.4478 1446156
529.3551 791.5105 1563.0944 1183499
535.67633 787.19177 1554.5656 1973014
547.41949 790.85193 1561.7938 2104602
560.59277 796.42218 1572.7941 1841428
564.45081 788.79266 1557.7272 1973528
567.21899 779.91016 1540.1858 2828837
574.46661 777.37048 1535.1704 1841428
584.9751 779.25385 1538.8896 393985
597.10895 783.21143 1546.7051 2104601
606.79016 783.88074 1548.027 131072
615.85596 783.74707 1547.7629 393986
628.40009 787.97894 1556.1201 327936
637.04138 787.26526 1554.7107 328194
644.99414 785.73309 1551.6851 657155
649.52478 780.13379 1540.6273 1182984
659.99481 781.72443 1543.7687 854020
668.23816 780.67035 1541.687 853505
677.09283 780.34924 1541.0529 1906449
691.97296 786.88861 1553.9669 1840913
701.04639 786.73975 1553.673 1775120
709.79437 786.23431 1552.6748 1314569
717.62701 784.74078 1549.7255 1643534
730.0274 788.21692 1556.5901 1709070
752.79242 802.65747 1585.1077 2367256
754.89886 794.98657 1569.959 3222566
765.81824 796.67035 1573.2842 2696222
772.51025 793.96887 1567.9492 2236442
781.30365 793.46558 1566.9554 1249289
794.87714 797.77179 1575.4592 3551787
802.97906 796.55005 1573.0468 2367255
817.93573 802.07843 1583.9642 3024930
823.08911 797.97717 1575.8649 2103311
827.65503 793.40466 1566.8351 2103054
833.93646 790.55994 1561.2172 2629655
835.06586 782.94702 1546.1831 1971726
841.29138 780.22571 1540.8088 1708297
850.00446 779.84485 1540.0568 1642762
858.30182 779.09479 1538.5756 1313539
868.91772 780.44305 1541.238 1774089
887.36896 788.72748 1557.5984 1115905
889.91998 782.85419 1545.9998 1773576
890.39294 775.2912 1531.0641 1905164
906.12531 781.03351 1542.4042 1379333
914.49243 780.3761 1541.1058 2168848
922.68762 779.58624 1539.5461 1971470
920.20728 769.88055 1520.379 1576713
935.56744 775.14417 1530.7738 1839884
949.48621 779.12408 1538.6334 2168849
956.45752 777.38171 1535.1924 1181955
965.52203 777.35724 1535.1442 1379335
972.00671 775.27551 1531.0332 1642507
986.17957 779.30792 1538.9963 1774093
992.72192 777.29163 1535.0146 984578
1005.5354 780.17773 1540.7141 1774093
1020.0271 784.30219 1548.8593 1181956
1021.3188 778.29419 1536.9945 524288
1026.9553 775.67401 1531.8201 2037264
1036.8324 776.27454 1533.0061 919041
1052.7567 781.35303 1543.0352 590080
1061.5347 781.08569 1542.5072 786688
1069.3954 780.15375 1540.6669 1050369
1079.5673 780.90936 1542.1591 2103055
1084.509 777.90088 1536.2178 2366227
1095.7097 779.39447 1539.1674 2497812
1095.8485 773.05981 1526.6576 2431761
1109.4365 776.23901 1532.9359 2826776
0 0 0 0
0 0 0 0
1141.4727 779.51135 1539.3982 2103054
1167.0326 790.64929 1561.3937 1643276
1163.1726 781.83728 1543.9915 3024928
1188.6201 792.70837 1565.46 2235155
1203.3201 796.29895 1572.5507 2827292
1195.7336 785.19952 1550.6313 2037519
1198.7041 781.14893 1542.6321 1972239
1206.2129 780.09473 1540.5502 1971728
1219.4189 782.7132 1545.7213 1708556
1229.1157 783.05701 1546.4001 1708298
1238.6595 783.29889 1546.8779 1576968
1260.3071 791.13525 1562.3533 1116418
1264.6582 788.07892 1556.3175 1643018
1270.0918 785.73645 1551.6917 1971726
1278.3209 785.14465 1550.5229 2366226
1284.0529 783.03851 1546.3636 2103053
1288.0056 779.88489 1540.1359 1905675
1278.2008 768.50415 1517.6609 2629398
1307.7828 780.79785 1541.9387 2168847
1324.1506 785.08624 1550.4076 1116162
1334.1829 785.58514 1551.3928 2892568
1347.4948 787.99506 1556.152 2563605
1366.2917 793.55804 1567.1379 1576710
1385.5442 799.30884 1578.4946 2300433
1388.4713 795.6275 1571.2247 2234639
1392.3229 792.52148 1565.0909 1774344
1406.36 795.21594 1570.412 2234895
1408.1938 791.02008 1562.1259 1576967
1421.0702 793.04126 1566.1174 3748134
1429.2511 792.43304 1564.9163 3287840
1434.8354 790.40222 1560.9058 2827545
1456.9348 797.43671 1574.7976 3485216
1479.3844 804.5722 1588.8889 4801331
1469.8276 794.32062 1568.6439 4011816
1482.772 796.28143 1572.5162 4341040
1483.168 791.52118 1563.1155 3354404
1494.3474 792.53912 1565.1256 3090206
0 0 0 0
0 0 0 0
0 0 0 0
0 0 0 0
0 0 0 0
0 0 0 0
0 0 0 0
0 0 0 0
0 0 0 0
0 0 0 0
0 0 0 0
0 0 0 0
0 0 0 0
0 0 0 0
0 0 0 0
-1214.7234 735.41766 1435.5262 2565668
-1200.4846 731.92151 1428.7018 1315601
-1190.7716 731.1546 1427.2047 3420977
-1186.7444 733.89276 1432.5496 3158318
-1186.4723 739.0094 1442.5372 2500132
-1188.7612 745.80701 1455.806 4079418
-1179.1737 745.19843 1454.6182 5066825
-1164.2029 741.15375 1446.723 6251613
-1161.7573 745.08209 1454.391 3750454
-1160.2555 749.67883 1463.3638 3685173
-1152.3435 750.17181 1464.3262 723978
-1136.2905 745.33234 1454.8795 1118479
-1119.9194 740.20868 1444.8782 2763304
-1115.0239 742.64923 1449.6422 2105628
-1102.8302 740.22894 1444.9178 3289902
-1088.7292 736.48077 1437.6014 4408383
-1075.6017 733.33716 1431.4651 5790036
-1067.6967 733.73248 1432.2367 3026730
-1065.6873 738.21814 1440.9927 4013627
-1062.3252 741.83173 1448.0464 4211005
-1053.8475 741.90277 1448.1851 5790035
-1040.4718 738.49847 1441.5399 3355952
-1028.0779 735.74042 1436.1562 5921878
-1022.9177 738.15625 1440.8719 6909031
-1012.8229 737.02209 1438.658 4211260
-1004.0764 736.85797 1438.3376 4474432
-990.67816 733.24811 1431.2913 4671555
-984.17725 734.72504 1434.1742 3289902
-974.18079 733.5954 1431.9692 3224109
-963.32874 731.79602 1428.4568 3815993
-945.73718 724.79962 1414.7999 4868934
-942.71185 728.94128 1422.8844 1644821
-930.74536 726.18164 1417.4977 2763304
-928.84863 731.29993 1427.4884 1052687
-924.66895 734.6983 1434.1221 986636
-910.81879 730.40472 1425.741 1249294
-904.72906 732.31226 1429.4645 855049
-895.45154 731.65125 1428.1742 2302494
-884.93701 729.95721 1424.8674 2302494
-871.6767 725.94379 1417.0333 4210492
-862.68823 725.44458 1416.059 2499873
-854.91815 725.97021 1417.085 2236701
-854.61414 732.90906 1430.6295 2368285
-849.91217 736.17749 1437.0094 7171175
-849.03113 742.85522 1450.0443 3289642
-836.25415 739.15472 1442.8209 3026471
-823.97333 735.82092 1436.3134 3355178
-810.63226 731.46082 1427.8025 5461068
-802.71606 731.95544 1428.7681 5198155
-791.64868 729.55658 1424.0854 2829097
-780.75037 727.26349 1419.6094 6184794
-777.19464 731.83453 1428.532 6842724
-778.61182 741.24042 1446.8922 789256
-773.07245 744.15936 1452.59 2763814
-765.78503 745.44238 1455.0944 4407869
-759.69342 747.93195 1459.954 3289644
-755.56622 752.43512 1468.7441 4934213
-751.14062 756.74261 1477.1522 3157801
-742.04102 756.38721 1476.4585 3224108
-734.23853 757.36133 1478.36 5987414
-722.79126 754.55402 1472.8801 3552561
-707.96875 748.11151 1460.3044 1907736
-713.52411 763.30927 1489.9703 2368288
-701.90179 760.28137 1484.0598 4802630
-688.95227 755.72089 1475.1578 1907994
-685.24042 761.30627 1486.0604 5197644
-673.61975 758.13593 1479.8719 4145212
-668.09656 761.83496 1487.0924 2565925
-659.80078 762.42902 1488.2521 4013371
-654.1767 766.16821 1495.5509 3223855
-647.02368 768.19482 1499.5068 2894890
-631.63824 760.3678 1484.2285 4341824
-622.66132 760.14307 1483.7899 1841431
-614.43475 760.84119 1485.1526 1907737
-606.60657 762.05994 1487.5316 1775894
-598.83569 763.38782 1490.1235 3026217
-586.34784 758.65222 1480.8798 3617327
-580.77826 762.85999 1489.0933 1512208
-567.42639 756.81787 1477.2992 2564640
-555.0816 751.95062 1467.7983 5525837
-543.1142 747.44781 1459.0089 4868421
-535.80286 749.31079 1462.6455 2105115
-499.14532 709.52032 1384.975 2499103
-517.82812 748.37921 1460.827 1972759
-505.63235 743.17389 1450.6663 2433310
-494.23145 738.97711 1442.4742 2959396
-484.72617 737.51685 1439.6238 2762017
-483.67572 749.09882 1462.2317 2499102
-469.68515 740.69659 1445.8306 2235929
-463.37073 744.31232 1452.8885 7564648
-456.36667 746.93628 1458.0104 2366744
-448.36826 748.00262 1460.0919 4209720
-440.54327 749.40588 1462.8311 1906964
-430.6076 747.203 1458.531 2367259
-422.51157 748.16736 1460.4135 1577743
-413.25949 747.08228 1458.2954 3485740
-404.57925 747.00659 1458.1477 1643536
-396.98218 748.97119 1461.9825 1643536
-388.64081 749.58795 1463.1864 3354410
-379.17932 748.02307 1460.1318 1052169
-370.80902 748.58807 1461.2347 5459788
-363.93332 752.26941 1468.4207 2301468
-354.63425 750.99927 1465.9413 1578258
-345.43124 749.87378 1463.7444 2433310
-339.61343 756.22833 1476.1483 3551534
-328.97421 751.89893 1467.6975 2763043
-321.86526 755.62244 1474.9657 4210490
-311.51486 751.73151 1467.3706 2038808
-299.66754 743.90125 1452.0861 1840916
-290.61838 742.75964 1449.8577 3617584
-282.89801 745.04803 1454.3246 4670526
-276.11664 750.03088 1464.051 2433309
-267.50272 750.19757 1464.3765 4999237
-257.90588 747.52655 1459.1626 3025190
-251.07924 752.97797 1469.8037 1972502
-243.63493 756.90222 1477.4637 1708303
-236.44786 761.94781 1487.3127 2431769
-224.44151 751.25287 1466.4364 2431769
-215.84904 751.58374 1467.0823 2826525
-206.4765 749.11224 1462.2579 2037522
-194.95949 738.30328 1441.1589 2827294
-192.47095 762.26056 1487.9232 2300950
-183.24542 760.55585 1484.5956 2498329
-173.94556 758.3551 1480.2998 1906448
-165.90417 761.69861 1486.8263 1774605
-156.57005 759.14917 1481.8497 1708813
-146.03494 750.12769 1464.24 2564122
-137.37648 750.21515 1464.4108 2958879
-127.8186 745.07159 1454.3706 2958878
-119.26246 745.44592 1455.1013 2564122
-111.25517 749.57635 1463.1638 2169363
-102.24648 747.08783 1458.3063 1774606
-93.725456 748.03217 1460.1495 1314054
-85.211143 749.22748 1462.4828 2169362
-76.01342 744.00433 1452.2872 1577224
-67.98835 750.39038 1464.7528 854020
-59.812256 756.73444 1477.1364 985347
-51.477203 762.89722 1489.166 1971984
-43.021988 769.45996 1501.9764 1182726
-34.433113 776.43152 1515.5848 1051397
-25.265766 770.67633 1504.3507 1051397
-16.201576 763.50958 1490.3613 1051656
-7.3990235 766.27325 1495.756 1249037
1.4680409 769.34839 1501.7585 1512208
10.473971 777.45197 1517.5767 722949
19.428804 776.02869 1514.7985 788742
28.325094 773.90521 1510.6534 131072
37.251015 773.41663 1509.6997 262657
45.887451 768.27057 1499.6547 722694
54.629169 766.27069 1495.751 1577747
0 0 0 0
70.803986 749.88104 1463.7585 986122
80.825066 762.61353 1488.6122 525828
89.369385 760.27777 1484.0529 1709330
97.951538 758.6535 1480.8823 393729
107.18826 761.94928 1487.3156 393728
114.22198 750.27393 1464.5254 2038294
125.23238 764.52393 1492.3413 2827294
133.83395 763.15881 1489.6766 1445642
142.48875 762.24744 1487.8976 1182469
151.33806 762.42206 1488.2384 1247748
161.01328 766.50916 1496.2164 1182469
170.23991 768.14575 1499.4111 1380105
178.83658 766.91858 1497.0156 1248005
187.78513 767.245 1497.6527 393472
198.38596 773.9881 1510.8153 919557
207.65256 775.16846 1513.1193 1445128
217.07837 776.82092 1516.3448 2498070
226.08032 776.88544 1516.4708 787712
234.76727 775.90393 1514.5549 2563348
243.54695 775.28998 1513.3564 2037517
245.68633 754.33179 1472.4463 1840138
258.27252 765.78595 1494.8047 1708296
264.97357 759.60956 1482.7485 1050372
270.7139 751.1637 1466.2623 2300439
273.25342 734.63782 1434.0039 262401
277.50732 723.57849 1412.4163 196612
284.63052 720.42914 1406.2688 10
291.93304 717.89978 1401.3315 11
299.2706 715.59412 1396.8309 12
306.43597 713.01196 1391.7905 13
313.14813 709.53821 1385.0098 14
320.57742 707.82513 1381.666 1447976
327.52237 705.15466 1376.4532 1382182
336.56393 707.01825 1380.0909 1841960
342.4191 702.25861 1370.8002 65540
350.57394 702.32654 1370.9327 2038553
390.37296 764.35071 1492.0032 1445897
405.10349 775.6311 1514.0223 1971985
408.66855 765.50775 1494.2617 1314053
421.69803 773.16632 1509.2112 985088
430.93622 773.70013 1510.2531 393216
440.90558 775.49817 1513.7628 1313798
451.00015 777.44037 1517.5541 1050369
460.39435 778.12299 1518.8864 984577
469.52496 778.34241 1519.3148 1379586
482.42352 784.68237 1531.6903 2169101
490.81674 783.59528 1529.5684 2497811
498.84253 781.97174 1526.3993 1774857
506.30746 779.54248 1521.6573 2498581
517.32495 782.57227 1527.5714 3025441
528.62036 785.91101 1534.0886 2762528
531.38239 776.66455 1516.0397 4538939
542.90991 780.32416 1523.1832 4012851
549.94348 777.51056 1517.691 3552047
562.22803 782.0918 1526.6337 1775636
575.16864 787.42633 1537.0465 3222567
579.28693 780.70471 1523.9259 1972757
589.79602 782.66998 1527.7621 855306
597.41437 780.79785 1524.1078 986890
605.27887 779.29834 1521.1808 460290
621.47186 788.40845 1538.9636 1907993
624.51556 780.81494 1524.1411 723464
638.25476 786.61957 1535.4718 1249547
641.00769 778.91132 1520.4253 920328
648.65179 777.27771 1517.2366 1381131
666.88403 788.20312 1538.5629 919811
670.27393 781.52802 1525.5331 1643788
671.51697 772.56061 1508.0288 2367255
685.1261 777.86865 1518.3901 2893085
699.0202 783.35858 1529.1063 1050884
711.10675 786.70825 1535.6448 3090464
714.18195 780.12988 1522.8038 1708813
733.01935 790.71851 1543.4728 2564122
746.39197 795.22388 1552.2672 1445901
757.64264 797.38629 1556.4883 2301207
772.0144 802.74213 1566.9427 3946545
780.67102 802.09869 1565.6866 1709583
790.60547 802.76776 1566.9928 3683371
792.75348 795.60681 1553.0148 4077618
799.92682 793.59583 1549.0892 4011825
794.64203 779.41101 1521.4008 3814187
813.36658 788.82941 1539.7854 2037776
817.05585 783.61914 1529.6149 1708041
818.6355 776.52185 1515.7611 2826778
834.24243 782.73987 1527.8987 1379334
857.04205 795.50073 1552.8077 1642504
858.52057 788.41058 1538.9677 1445125
870.05286 790.60522 1543.2516 1905933
873.54346 785.52271 1533.3306 1708298
879.36542 782.61963 1527.6639 1379077
884.0885 778.80786 1520.2234 2168592
893.02344 778.74573 1520.1021 2102286
902.40582 779.07123 1520.7374 1971213
912.49164 779.99152 1522.5338 1971214
925.02637 782.96655 1528.3411 1774091
930.98346 780.37048 1523.2736 1510919
939.01691 779.54791 1521.668 1642505
950.16681 781.30371 1525.0952 2366229
959.31079 781.39246 1525.2684 1511434
964.54108 778.32153 1519.2739 1379847
973.45508 778.25226 1519.1389 721920
986.67053 781.5918 1525.6576 2497814
1000.6459 785.46716 1533.2222 1971470
1001.0198 778.69226 1519.9977 2037263
1014.8153 782.38574 1527.2073 1248263
1017.7863 777.74225 1518.1433 919297
1030.6366 780.66345 1523.8455 2300950
1040.2969 781.13855 1524.7728 1314054
1046.0502 778.69696 1520.0068 459779
1064.8623 785.93536 1534.1361 984835
1074.137 786.07153 1534.4019 1313802
1078.4176 782.5813 1527.5891 853251
1083.0844 779.42719 1521.4323 1182469
1083.0608 772.9776 1508.8428 327680
1092.116 773.06012 1509.0038 2365971
1099.7764 772.16187 1507.2505 2300435
1103.7639 768.72021 1500.5323 2300436
1124.6089 776.98004 1516.6554 2432021
1136.127 778.71619 1520.0444 1905677
1158.5431 787.83612 1537.8463 1510665
1173.687 791.90686 1545.7925 2760986
1170.6899 783.76941 1529.9082 2300691
1171.123 778.03577 1518.7163 3222050
1190.9709 785.18945 1532.6801 2169361
1199.5045 784.83197 1531.9823 2234644
1206.1741 783.26947 1528.9323 1445641
1220.5728 786.71185 1535.6519 1643020
1224.2126 783.22021 1528.8362 1906192
1237.1812 785.70422 1533.6849 1379849
1256.2725 792.01202 1545.9978 1445640
1268.774 794.10419 1550.0817 1708811
1262.4615 784.47559 1531.2866 1774602
1268.1626 782.396 1527.2273 1510917
1265.3015 775.10089 1512.9874 2234383
1280.5093 778.89929 1520.4019 2694934
1301.3086 786.02197 1534.3053 2497555
1314.329 788.37982 1538.9077 1708039
1323.1262 788.18939 1538.5361 2168590
1331.8645 787.9668 1538.1016 1181953
1344.9701 790.31335 1542.682 1116161
1360.1144 793.8183 1549.5234 1642506
1378.8551 799.36096 1560.3428 1379334
1383.8785 796.9306 1555.5988 2103055
1405.3645 803.94989 1569.3003 2103054
1405.0706 798.49945 1558.6611 2103053
1417.8315 800.49078 1562.5482 3221535
1417.8489 795.30811 1552.4316 2695448
1419.9979 791.38025 1544.7645 3024156
1439.6218 797.17914 1556.084 2760983
1449.6483 797.62378 1556.9517 3024152
1455.8228 795.95667 1553.6975 3747876
1455.4963 790.77838 1543.5897 4142886
1460.8696 788.74231 1539.6152 3879715
1480.5367 794.40088 1550.6608 3418908
0 0 0 0
0 0 0 0
0 0 0 0
0 0 0 0
0 0 0 0
0 0 0 0
0 0 0 0
0 0 0 0
0 0 0 0
0 0 0 0
0 0 0 0
0 0 0 0
0 0 0 0
0 0 0 0
0 0 0 0
-1203.078 736.79016 1421.764 3749942
-1196.0742 737.66547 1423.453 2763304
-1184.7019 735.8396 1419.9298 3223855
-1188.3809 743.40326 1434.5251 3619123
-1180.8931 744.04004 1435.7539 3881783
-1173.1063 744.49634 1436.6344 4672070
-1166.741 745.86792 1439.2811 4540996
-1154.7654 743.64685 1434.9952 4738630
-1150.1691 746.18024 1439.8838 6711907
-1152.6718 753.3913 1453.7988 7434862
-1137.547 749.10297 1445.5237 5132363
-1127.1804 747.90668 1443.2152 4803398
-1113.946 744.77466 1437.1715 5790036
-1108.5695 746.88855 1441.2506 5197900
-1096.1692 744.26642 1436.1908 4539969
-1089.6736 745.64368 1438.8484 3092524
-1064.7594 734.33984 1417.0356 5066313
-1053.9604 732.66852 1413.8105 3750453
-1061.8081 744.03668 1435.7474 4539969
-1054.3282 744.76135 1437.1458 3421488
-1046.0806 744.95105 1437.5118 3553074
-1035.715 743.62311 1434.9493 2631972
-1029.6454 745.3833 1438.3459 3816246
-1011.6937 738.49921 1425.062 2763301
-1004.2296 739.21936 1426.4515 4934470
-992.2702 736.61462 1421.4253 4605249
-985.77734 738.05817 1424.2108 1710356
-974.31342 735.77258 1419.8004 657928
-967.17548 736.74249 1421.672 2828838
-951.10352 730.8642 1410.3289 2960683
-941.08081 729.57135 1407.8341 3223855
-928.78546 726.47784 1401.8646 3158062
-929.55273 733.638 1415.6814 1644566
-927.11469 738.37573 1424.8236 2302754
-918.59906 738.31567 1424.7078 789258
-912.79877 740.45728 1428.8403 1513237
-900.51923 737.3338 1422.8131 1907995
-894.24817 739.11743 1426.2549 723721
-883.74573 737.40436 1422.9492 2368290
-871.8454 734.48077 1417.3076 855050
-857.41687 729.34961 1407.4062 3092009
-848.48743 728.84143 1406.4255 4934214
-848.21478 735.83289 1419.9169 2499871
-853.85205 748.14282 1443.6709 4803137
-846.388 749.10626 1445.53 7829359
-818.33429 731.67999 1411.9031 3224106
-820.77533 741.4411 1430.7388 3553070
-810.68286 739.96564 1427.8917 5526600
-801.2428 739.06085 1426.1456 4736575
-792.29083 738.5918 1425.2406 5460811
-779.7674 734.74738 1417.8221 5131849
-771.2652 734.64954 1417.6333 6250073
-769.05188 740.60583 1429.127 6315866
-762.32727 742.30194 1432.3999 3092266
-755.13623 743.5769 1434.8602 3223596
-755.34845 752.25391 1451.604 3355181
-754.69678 760.26044 1467.054 3157801
-741.83832 756.01349 1458.8588 3551789
-733.64636 756.47821 1459.7555 3288874
-731.93243 763.71326 1473.7168 3881012
-725.92004 766.5838 1479.256 4670531
-719.17017 768.73615 1483.4093 1052175
-717.39069 776.32037 1498.0444 1447448
-693.7337 760.12354 1466.7898 2631466
-685.97443 761.15576 1468.7817 1644569
-685.11346 769.96729 1485.785 921101
-666.96088 759.32196 1465.243 1710615
-658.37061 759.42596 1465.4437 5000266
-651.83417 761.93353 1470.2825 4210750
-642.63831 761.35822 1469.1724 5131852
-631.92114 758.94006 1464.5061 3552820
-622.94403 758.57349 1463.7987 3158064
-612.41406 756.27887 1459.3708 2105374
-609.065 762.91333 1472.1732 3289648
-597.45148 759.23822 1465.0814 4539715
-588.43903 758.80884 1464.2528 1381394
-578.55865 757.23059 1461.2074 1512209
-572.74469 761.00757 1468.4956 1643796
-564.90259 762.16455 1470.7283 3420207
-553.27295 758.16766 1463.0156 1906968
-537.22046 747.88641 1443.1761 2301726
-532.04572 752.66083 1452.3892 3485998
-509.38422 732.44781 1413.3848 2300953
-507.12692 741.38892 1430.6381 2629659
-501.9964 746.36212 1440.2347 2103314
-491.43271 743.28955 1434.3058 2695195
-488.81384 752.33685 1451.764 2958623
-469.71042 735.88239 1420.0123 2366230
-468.03864 746.63538 1440.7621 2695196
-458.71371 745.35254 1438.2866 2235158
-448.97543 743.33679 1434.3969 3287845
-444.00916 749.2962 1445.8966 3024416
-437.62024 753.04218 1453.1251 3551017
-431.02725 756.58032 1459.9525 2104088
-420.14236 752.57538 1452.2244 1643537
-412.50708 754.34564 1455.6403 985606
-403.39969 753.44183 1453.8964 1709330
-393.83801 751.63184 1450.4036 1511951
-387.75311 756.52435 1459.8445 3288619
-377.40594 753.13434 1453.303 2630689
-370.31134 756.22845 1459.2736 1051915
-359.47467 751.64587 1450.4307 4539198
-352.06998 754.19073 1455.3414 2696739
-342.89911 752.98492 1453.0146 2499617
-337.24097 759.62939 1465.8363 460035
-326.18451 754.1441 1455.2515 2630690
-317.94553 755.05188 1457.0032 1578515
-310.8866 758.89093 1464.4113 3881267
-298.79907 750.32281 1447.8777 2170136
-287.9664 744.49261 1436.6272 2696224
-279.01486 743.31873 1434.3621 2498588
-274.56091 754.4295 1455.8021 4801600
-266.03113 754.69818 1456.3206 4012084
-256.98044 753.45752 1453.9266 3156519
-248.90987 755.10431 1457.1042 4208950
-240.18266 754.80579 1456.5283 2761247
-231.89206 755.9082 1458.6556 2103060
-223.89748 758.09833 1462.8818 1905681
-214.72076 756.30103 1459.4136 1774607
-205.44386 753.98523 1454.9448 3221795
-194.86465 746.47772 1440.4579 2893087
-189.6685 759.84827 1466.2585 2893087
-181.28516 761.12073 1468.7141 2695708
-171.55115 756.56506 1459.9231 1774606
-163.57335 759.68188 1465.9376 1445384
-153.92424 754.95105 1456.8086 1380363
-144.75226 752.13727 1451.3789 1182468
-136.68874 755.09143 1457.0795 2432279
-128.0925 755.30267 1457.4872 1643020
-118.13255 746.92212 1441.3153 1840399
-109.7446 747.94946 1443.2979 1116933
-101.82741 752.62976 1452.3292 1577227
-93.228806 752.67273 1452.4122 1643020
-84.990677 755.93066 1458.699 1576970
-76.253944 754.98938 1456.8826 1774605
-67.758057 756.49677 1459.7913 1445897
-59.329754 759.31018 1465.2203 1709327
-51.058678 765.44507 1477.0586 1643790
-42.616371 771.01953 1487.8156 1182726
-33.822239 771.47644 1488.6971 1117191
-25.11916 775.06476 1495.6215 1511951
-16.239233 774.13397 1493.8253 196864
-7.433929 778.79126 1502.8124 854535
1.4576657 772.74493 1491.145 1512208
10.411705 781.76709 1508.5548 723207
19.335878 781.24811 1507.5532 196608
28.200127 779.40076 1503.9885 459522
36.941257 775.8548 1497.146 525829
45.417515 769.19598 1484.2966 722951
54.240463 769.61646 1485.108 788487
62.407894 761.91669 1470.25 1182988
70.576263 756.11292 1459.0507 1314572
80.729713 770.52228 1486.856 459779
89.788132 772.67322 1491.0066 985607
98.184563 769.25226 1484.4053 459264
105.95562 761.89697 1470.2119 591364
114.09911 758.13367 1462.9501 1445643
122.3652 755.65875 1458.1742 393728
133.27232 768.74445 1483.4253 1708556
140.86336 762.26642 1470.9248 1050882
150.59573 767.45569 1480.9385 1906192
160.25365 771.71509 1489.1577 920328
169.31752 772.8186 1491.2871 722690
178.5403 774.50189 1494.5354 1577998
187.32117 774.19983 1493.9524 262144
196.33253 774.83472 1495.1775 788743
205.0099 774.15344 1493.8629 3683376
214.32362 775.83209 1497.1022 1972501
224.31393 779.72925 1504.6224 1248521
232.28276 776.57025 1498.5266 2630170
237.57906 765.03796 1476.2731 656128
245.75439 763.26624 1472.8542 2037774
255.05518 764.9917 1476.1837 1182984
264.23254 766.24481 1478.6018 1051398
269.66226 756.89838 1460.5663 393216
272.87433 742.10211 1432.0144 459780
277.17014 731.05658 1410.7001 196612
284.88348 729.40778 1407.5184 8
291.75037 725.74719 1400.4547 11
298.88104 722.92706 1395.0127 12
305.94308 720.09711 1389.5519 13
312.97076 717.33667 1384.2252 14
320.98532 716.92151 1383.424 921377
327.65829 713.60516 1377.0245 66066
335.6738 713.30273 1376.4409 1512995
342.12131 709.76172 1369.608 4
347.78699 704.80042 1360.0343 1446418
391.56732 775.55542 1496.5682 1380106
399.80783 774.34387 1494.2303 1445641
407.93393 772.96814 1491.5757 1511434
414.14624 768.1012 1482.1841 1380106
427.04526 775.58057 1496.6168 328193
439.7406 782.39319 1509.7631 3485739
447.49222 780.31372 1505.7502 4077873
458.33545 783.60114 1512.0939 1380361
470.07675 788.26849 1521.1003 590850
476.48486 783.98523 1512.8351 2103821
486.25558 785.29065 1515.3541 2498578
494.86154 784.70178 1514.2179 4077351
503.27222 783.82983 1512.5353 3814178
515.82196 789.32196 1523.1333 4735537
518.77802 780.19727 1505.5255 4866867
528.0484 780.71667 1506.5278 2170132
538.07361 782.31628 1509.6145 3420198
548.44073 784.35254 1513.5439 2367511
556.45612 783.01404 1510.9611 3551018
567.13757 785.41016 1515.5847 2630941
578.65735 788.87439 1522.2697 2367769
588.32965 789.75238 1523.9637 2959909
595.7088 787.57208 1519.7565 525569
601.49127 783.3772 1511.6617 2235675
614.95697 789.16516 1522.8306 1184014
628.17133 794.4679 1533.0632 328192
634.36603 790.86798 1526.1166 1117448
639.90039 786.55768 1517.799 4209972
646.38708 783.52106 1511.9393 2828318
657.08374 785.60089 1515.9528 722944
670.69495 791.06219 1526.4913 1577224
676.07837 786.80298 1518.2723 1774604
684.77661 786.46271 1517.6157 1971985
689.74573 781.90375 1508.8184 2695706
704.02386 787.87921 1520.3492 1379846
707.76892 782.06506 1509.1298 1906190
718.68207 784.21771 1513.2837 985605
731.82013 788.71521 1521.9623 1380363
749.57489 798.01819 1539.9141 1117193
755.43494 794.58636 1533.2917 1380364
765.77869 795.89612 1535.8191 2630428
778.11072 799.21729 1542.2279 2235157
785.841 797.78973 1539.4731 2235413
790.99493 793.80927 1531.7922 2366741
781.50977 775.39465 1496.2581 2564376
781.44147 766.63147 1479.348 4932666
795.48975 771.75812 1489.2407 3089949
805.97107 773.34973 1492.312 4273967
820.51257 778.76038 1502.7528 919041
842.84344 791.36853 1527.0824 1905677
850.37909 789.96472 1524.3735 1181698
861.83551 792.1944 1528.676 2563350
872.56708 793.71838 1531.6168 2760986
876.10126 788.73132 1521.9934 1510662
881.3103 785.33838 1515.4462 1839884
891.30273 786.23334 1517.1731 1774091
898.37762 784.56262 1513.9491 2103056
906.453 783.78986 1512.458 2300435
909.86865 779.0426 1503.2974 2695963
925.68939 784.90582 1514.6115 1708811
930.45288 781.37085 1507.79 1314053
943.22876 784.56775 1513.9591 1445639
950.64056 783.28461 1511.4832 2300948
960.20551 783.78308 1512.4449 2104082
969.70538 784.21967 1513.2874 3222820
979.91028 785.21307 1515.2043 1709838
988.03918 784.54016 1513.9059 2498583
998.7171 785.88507 1516.5011 1905420
1004.0708 783.05377 1511.0377 1773835
1017.1419 786.23804 1517.1823 1642761
1025.2552 785.56775 1515.8888 1708811
1030.3856 782.64343 1510.2458 2235157
1049.2404 790.10406 1524.6425 1774351
1057.8506 789.78894 1524.0344 196864
1066.4349 789.46008 1523.3997 919044
1071.5752 786.6084 1517.8969 853251
1078.8281 785.3421 1515.4534 721666
1080.8311 780.30658 1505.7366 721921
1089.5177 780.13922 1505.4136 655872
1088.5626 773.12677 1491.8818 1642507
1097.0042 772.84729 1491.3425 1971471
1120.8075 783.30835 1511.5289 2497555
1133.1835 785.68054 1516.1064 1905161
1141.2767 785.06927 1514.927 2234383
1158.5345 790.72266 1525.8361 2563605
1165.236 789.13934 1522.7808 2300179
1172.517 787.96979 1520.5239 2037263
1176.533 784.6405 1514.0996 1576712
1190.1688 787.72882 1520.059 1708557
1195.1656 785.09576 1514.978 1577227
1208.5929 787.99854 1520.5795 1708813
1211.4119 783.9931 1512.8502 1971985
1219.8767 783.6734 1512.2333 1379848
1242.2305 792.21588 1528.7174 1379848
1263.1803 799.74573 1543.2477 1182211
1260.7645 792.48059 1529.2283 1050883
1262.47 787.89099 1520.3718 1708296
1262.2172 782.15289 1509.2993 1905419
1271.0614 782.09314 1509.1838 2432017
1290.4846 788.49792 1521.5432 2365711
1295.3677 785.99146 1516.7064 2431504
1308.0896 788.24323 1521.0515 2102796
1321.5864 790.92773 1526.2318 1905418
1333.881 792.86121 1529.9629 1839626
1346.293 794.83789 1533.7772 1050370
1363.4066 799.54535 1542.861 1510919
1376.4189 801.80096 1547.2136 1445638
1401.4951 811.00769 1564.9796 1709067
1398.6176 804.02368 1551.5027 2103566
1408.4139 804.3692 1552.1694 1642503
1415.1306 802.96277 1549.4554 3090204
1414.0531 797.18036 1538.2974 2958363
1429.8544 800.9267 1545.5265 2760728
1435.2814 798.85107 1541.5214 2563860
1443.7241 798.46973 1540.7854 2761239
1454.4562 799.35132 1542.4866 3221274
1454.8789 794.59137 1533.3015 3221529
1459.5522 792.19763 1528.6824 3023123
0 0 0 0
0 0 0 0
0 0 0 0
0 0 0 0
0 0 0 0
0 0 0 0
0 0 0 0
0 0 0 0
0 0 0 0
0 0 0 0
0 0 0 0
0 0 0 0
0 0 0 0
0 0 0 0
0 0 0 0
-1192.8912 738.9032 1409.7257 3552820
-1176.3041 733.76587 1399.9244 2631717
-1181.3904 742.17126 1415.9608 2236703
-1180.4688 746.89557 1424.9741 1513237
-1175.4177 749.05652 1429.0969 3355441
-1166.9603 749.06219 1429.1078 4013371
-1151.3961 744.4729 1420.3519 2763047
-1140.4634 742.83264 1417.2225 4671043
-1131.8489 742.68921 1416.949 4342079
-1113.2473 735.94141 1404.0751 5395021
-1111.6925 740.44611 1412.6694 3421489
-1103.2278 740.38177 1412.5468 3619380
-1103.0826 745.94263 1423.156 4737094
-1101.4647 750.58539 1432.0138 2894889
-1094.9672 751.94928 1434.6158 4013625
-1076.9347 745.35114 1422.0275 3816246
-1062.3074 741.02423 1413.7723 5527120
-1062.512 747.05695 1425.282 5921622
-1042.4194 738.8009 1409.5306 6316636
-1039.3782 742.59406 1416.7675 4473663
-1026.3813 739.2782 1410.4413 4407870
-1023.1917 743.02991 1417.5989 2368287
-1009.1169 738.87341 1409.6689 2368287
-1001.675 739.5448 1410.9498 2697251
-991.2926 738.03809 1408.0753 3026217
-984.8103 739.43427 1410.739 3354668
-974.53589 737.98267 1407.9695 3618357
-965.76495 737.65442 1407.3433 2499618
-957.51147 737.71912 1407.4667 1118223
-952.38336 740.21399 1412.2266 1183761
-933.38507 731.87744 1396.3215 1446933
-928.23358 734.34619 1401.0316 2697000
-926.23065 739.37286 1410.6218 2039070
-923.99323 744.30231 1420.0265 2170399
-913.13416 742.31335 1416.2319 0
-907.19086 744.32092 1420.062 65793
-900.50232 745.74884 1422.7863 1381655
-885.94196 740.62311 1413.0071 1052689
-879.55237 742.29535 1416.1975 1907738
-870.91681 742.08594 1415.798 526343
-856.62769 737.00848 1406.1108 5066057
-839.9306 729.7392 1392.2421 7039590
-843.11719 739.77209 1411.3835 3026217
-844.64648 748.53735 1428.1063 1512978
-838.93701 750.99988 1432.8046 2236700
-822.91614 744.18799 1419.8083 4999236
-813.59979 743.36102 1418.2307 3618351
-808.94476 746.82013 1424.8302 4605503
-796.70349 743.27472 1418.066 5263175
-791.2052 746.01166 1423.2877 5657676
-784.74561 747.89124 1426.8738 3552302
-776.06708 747.67407 1426.4595 4473405
-768.78961 748.81689 1428.6396 5657680
-760.47736 748.96588 1428.924 3092010
-751.88049 748.83484 1428.674 3684147
-747.95251 753.40369 1437.3906 3618354
-743.97864 758.03101 1446.219 4276541
-731.35675 753.85217 1438.2463 3486768
-720.72424 751.64948 1434.0439 3947575
-722.50336 762.49292 1454.7317 3223595
-720.41449 769.4668 1468.0369 3420977
-712.49023 770.30231 1469.6309 4605507
-703.57733 770.07629 1469.1997 5987162
-691.68933 766.54749 1462.4673 5131852
-680.96716 764.23761 1458.0604 5263438
-674.13245 766.28729 1461.9708 5000266
-665.80646 766.6731 1462.7069 2236960
-650.02429 758.37012 1446.866 723722
-636.22241 752.18652 1435.0685 2829097
-636.8866 763.16968 1456.0229 3684149
-623.08429 756.88171 1444.0262 2433825
-612.01746 753.78766 1438.1233 1841175
-598.97668 748.14081 1427.3499 1840662
-593.21051 751.54852 1433.8513 2367263
-587.00604 754.49188 1439.4668 2630691
-578.09161 753.98755 1438.5046 3288621
-572.79907 758.26263 1446.6609 1117195
-568.2121 763.61591 1456.8743 3683379
-553.92047 755.89111 1442.1364 1578001
-543.578 753.39777 1437.3794 2104345
-532.42853 749.68878 1430.3032 1972501
-521.67822 746.43109 1424.0879 3682862
-512.54144 745.41272 1422.145 2300950
-503.73682 744.85156 1421.0745 2497559
-492.74387 740.98053 1413.6891 2629402
-489.23126 748.41901 1427.8806 2958111
-480.49857 747.9931 1427.068 2695195
-468.8042 742.85889 1417.2727 2234644
-459.81812 741.90723 1415.457 2366230
-451.4198 741.88605 1415.4166 2300437
-443.36197 742.43439 1416.4628 2695452
-441.31671 753.26648 1437.1289 3156259
-430.64954 749.5188 1429.9789 4077360
-423.50424 751.87329 1434.4709 4077617
-412.7338 747.75653 1426.6167 5130564
-406.36725 751.61304 1433.9744 3748912
-399.18271 754.08881 1438.6979 1840914
-389.96576 752.74976 1436.1431 2499103
-383.47678 756.73401 1443.7445 2499103
-374.44843 755.77472 1441.9143 2564895
-367.37985 758.81848 1447.7214 1709842
-358.01068 757.1424 1444.5237 2631459
-348.38715 754.83307 1440.1178 4868163
-342.1362 759.89844 1449.7819 5855058
-331.78448 755.8822 1442.1194 2960167
-323.24646 755.89496 1442.1437 2302750
-317.10278 761.6593 1453.1412 4802627
-307.31039 758.73694 1447.5658 4868420
-295.9614 751.6933 1434.1274 2565151
-288.14343 753.46643 1437.5104 5196358
-279.10919 752.07043 1434.847 2301466
-268.89874 747.31781 1425.7797 2696224
-258.73483 742.39032 1416.3788 2498845
-253.87273 752.8551 1436.3441 2630431
-245.50244 753.28143 1437.1575 1577744
-235.76132 749.3811 1429.7162 1775122
-225.36171 743.01904 1417.5782 2498845
-213.12543 729.87457 1392.5004 1577486
-210.18567 748.79053 1428.5895 2366745
-203.62782 755.86359 1442.0839 2169621
-194.5723 753.87866 1438.2969 1314055
-187.07114 758.01019 1446.1792 2893086
-179.20094 760.97125 1451.8286 2103571
-168.42325 751.26184 1433.3043 2037778
-160.88107 755.71979 1441.8096 2103061
-152.46756 756.35522 1443.0219 984580
-143.75996 755.52063 1441.4296 1642766
-136.46991 762.50085 1454.7468 1971731
-126.32735 753.40991 1437.4026 2498075
-115.62767 739.44214 1410.7539 1379850
-109.11028 752.12732 1434.9556 985094
-100.65898 752.4989 1435.6644 984836
-92.184914 752.75305 1436.1494 787972
-83.820938 754.04944 1438.6227 1248264
-75.712967 758.20282 1446.5468 723206
-67.312721 760.11597 1450.1969 591363
-58.373489 755.61218 1441.6042 919814
-50.833767 770.78516 1470.5521 1644049
-41.848862 765.78918 1461.0205 657413
-33.388771 770.29541 1469.6178 854791
-24.879242 776.43787 1481.3367 1578513
-16.231659 782.61853 1493.1285 1249805
-7.3818674 782.1778 1492.2877 1249806
1.4643397 785.15735 1497.9723 1118223
10.290854 781.52631 1491.0448 1776151
19.231079 785.89636 1499.3823 328707
27.9233 780.57227 1489.2246 0
36.394268 773.1048 1474.9778 394756
45.06089 771.88037 1472.6416 1776152
54.161884 777.28693 1482.9567 328964
62.794415 775.3996 1479.3558 1907481
71.361359 773.26392 1475.2812 1315343
80.478996 776.91046 1482.2383 393984
89.524849 779.21466 1486.6345 591106
97.895615 775.75653 1480.0369 262400
105.63143 768.24908 1465.7136 1775380
112.25406 754.40088 1439.2932 1446157
120.04386 749.79816 1430.5118 459265
131.17403 765.29077 1460.0696 1577229
140.0222 766.37659 1462.1412 1445388
149.0542 768.28345 1465.7792 853508
158.06163 769.86066 1468.7883 524800
167.12825 771.54645 1472.0046 3814706
176.68802 775.22888 1479.0302 722950
186.10828 777.98022 1484.2793 1578000
194.65413 776.9928 1482.3955 919813
203.13962 775.86011 1480.2345 591620
212.78323 779.06146 1486.3423 2762274
222.3192 781.62994 1491.2424 1709844
229.55954 776.23944 1480.9583 1840915
236.96342 771.77869 1472.4476 1511691
244.42291 767.80914 1464.8744 525827
251.04698 761.57764 1452.9855 3420457
260.04938 762.73499 1455.1935 3618096
269.06635 763.85944 1457.3387 657414
275.18164 756.93237 1444.1229 986379
279.11902 744.61292 1420.6191 2302499
285.08582 738.27026 1408.5182 65797
292.04395 734.78241 1401.8639 9
298.22745 729.59241 1391.962 12
305.43921 727.12958 1387.2633 12
311.59265 722.34241 1378.13 15
319.93329 722.74072 1378.8899 1447976
327.45807 721.32184 1376.183 395032
336.06927 722.30707 1378.0626 1710375
342.78717 719.27283 1372.2737 6
351.81006 721.1037 1375.7667 1117710
382.81403 766.88593 1463.113 853765
391.53424 766.98859 1463.3088 919042
401.69989 769.85699 1468.7814 2037778
412.33875 773.49139 1475.7153 525828
423.59512 778.10938 1484.5256 1446156
433.85748 780.75043 1489.5646 1577484
442.44351 780.3299 1488.7622 722433
455.47281 787.60895 1502.6497 524800
462.53012 784.48029 1496.6805 590848
466.56238 776.435 1481.3313 1774090
480.29831 784.53711 1496.7891 2892824
492.08377 789.21735 1505.7183 3089945
495.65799 780.79596 1489.6514 1576969
503.20023 778.81055 1485.8635 2563858
514.13702 782.05695 1492.0571 2234894
525.86078 786.37042 1500.2866 2958871
528.94391 777.83398 1484.0002 3288096
537.78229 777.90173 1484.1295 2629909
549.47168 782.0249 1491.996 2432787
558.03131 781.63373 1491.2496 3090463
568.38599 783.7298 1495.2488 1840908
582.94171 791.46545 1510.0072 1051658
589.46539 788.22681 1503.8284 1117703
599.96594 790.32336 1507.8284 1512465
607.93451 789.07196 1505.4408 1776150
620.94733 794.30914 1515.4327 2762530
631.32629 796.07605 1518.8037 3419944
638.48169 793.78558 1514.4338 2169621
644.14709 789.73187 1506.6998 2761497
650.21222 786.2724 1500.0996 1248261
661.67694 789.34753 1505.9666 919297
668.88806 787.33392 1502.125 919298
678.47644 788.13489 1503.6531 1116676
681.62183 781.52765 1491.0474 1840397
684.76007 775.08136 1478.7488 2103568
702.10077 784.67072 1497.0439 1512202
713.03473 786.94995 1501.3923 1775374
723.17615 788.30908 1503.9855 2433050
730.99597 787.13519 1501.7458 1314828
745.68341 793.29572 1513.4993 525828
756.48566 795.22565 1517.1813 3090980
763.73218 793.41644 1513.7295 4011566
773.90198 794.65082 1516.0845 2432534
775.59033 787.24786 1501.9607 2564119
777.67621 780.41187 1488.9186 2695190
779.51831 773.48718 1475.7073 2300433
781.46484 766.81873 1462.9847 5326911
791.06592 767.72516 1464.7141 1117447
802.69897 770.56262 1470.1276 2497555
830.2533 788.45886 1504.2711 1117191
843.44147 792.47699 1511.9371 2366225
850.94769 791.12823 1509.3639 1905677
863.28082 794.24835 1515.3167 3616295
871.28418 793.36176 1513.6251 1379591
876.47241 789.95587 1507.1272 656128
880.4635 785.55066 1498.7227 1642505
891.42816 787.39307 1502.2378 1905677
893.09589 781.06842 1490.1711 2760986
901.60736 780.79413 1489.6479 2366228
914.12506 783.961 1495.6899 1445126
917.85138 779.59991 1487.3695 1181698
921.98425 775.66388 1479.86 2497814
944.1629 786.84076 1501.184 2366741
944.42426 779.71417 1487.5874 2432021
967.18018 791.11914 1509.3466 2563864
969.07764 785.40991 1498.4542 1905934
974.02081 782.25055 1492.4265 1314056
989.39661 787.45105 1502.3484 1774350
991.52185 782.10699 1492.1526 1577227
1015.7465 794.13513 1515.1007 1906193
1027.1891 796.047 1518.7482 1774606
1025.1592 787.57513 1502.5852 1379848
1042.11 793.70569 1514.2815 1642766
1054.0842 795.97357 1518.6083 2235159
1070.0669 801.20428 1528.5878 1314574
1070.8557 795.06659 1516.8778 524544
1072.2255 789.45862 1506.1785 590336
1063.7987 776.78979 1482.0082 853250
1083.8107 784.92444 1497.528 458752
1088.7841 782.12415 1492.1853 1313285
1099.3429 783.34888 1494.522 2366228
1104.9271 781.03766 1490.1125 1708042
1119.7006 785.20715 1498.0673 1970956
1128.5454 785.18622 1498.0275 2432020
1138.8267 786.15723 1499.8799 2234641
1144.0455 783.64563 1495.0881 1971212
1159.7262 788.28363 1503.9369 2103055
1165.2904 786.02698 1499.6315 1510919
1181.931 791.21948 1509.538 1379335
1184.9011 787.2511 1501.9669 1182469
1194.0742 787.4325 1502.313 1511180
1212.9995 793.99469 1514.8328 1511180
1214.2338 788.96558 1505.2379 1774352
1233.1791 795.43384 1517.5785 919300
1237.8115 792.64313 1512.2543 1116677
1255.6647 798.29773 1523.0424 985089
1252.5278 790.62225 1508.3986 721920
1250.8556 783.97351 1495.7137 1576712
1254.7281 780.86902 1489.7908 1576454
1271.5597 785.81659 1499.23 1708038
1272.9115 781.19525 1490.4132 2365968
1278.1774 779.02338 1486.2694 3418656
1303.3512 788.93152 1505.1729 2234125
1318.5016 792.67908 1512.3228 2366224
1335.2411 797.32483 1521.1863 2168846
1341.9342 795.94952 1518.5623 1905421
1376.0646 810.75824 1546.8152 1314311
1379.4077 807.3515 1540.3158 1511691
1383.9763 804.70221 1535.2611 1708813
1381.1439 797.81213 1522.116 1183240
1390.0253 797.73407 1521.967 1775121
1399.7927 798.16229 1522.7841 1840656
1408.2897 797.86517 1522.2172 3419684
1427.5066 803.60669 1533.1711 2234641
1416.8086 792.54163 1512.0604 2037261
1432.1495 796.08984 1518.83 1839625
1436.5962 793.57568 1514.0333 2102797
1443.5084 792.44635 1511.8787 2299148
0 0 0 0
0 0 0 0
0 0 0 0
0 0 0 0
0 0 0 0
0 0 0 0
0 0 0 0
0 0 0 0
0 0 0 0
0 0 0 0
0 0 0 0
0 0 0 0
0 0 0 0
0 0 0 0
0 0 0 0
-1184.7406 742.14886 1400.0934 2697515
-1176.9222 742.44928 1400.66 2697514
-1172.8187 745.11395 1405.6871 2040097
-1174.9548 751.80933 1418.3182 3553077
-1165.0002 750.80896 1416.431 3027246
-1153.1193 748.54364 1412.1573 3749942
-1140.1245 745.51697 1406.4474 4474175
-1132.3063 745.85547 1407.0859 4869191
-1103.0519 731.97418 1380.8983 4474176
-1084.8318 725.26239 1368.2363 6776677
-1090.4897 734.53333 1385.7263 2961194
-1088.97 739.07349 1394.2915 3750711
-1091.228 746.2666 1407.8616 2631974
-1087.335 749.33148 1413.6437 3224111
-1079.8993 749.98376 1414.8741 2828840
-1066.2385 746.289 1407.9038 1579031
-1062.5317 749.55798 1414.0709 2894890
-1049.1592 746.00604 1407.3701 6052954
-1042.2678 747.04266 1409.3257 2829096
-1029.4313 743.80029 1403.2089 4539715
-1024.1321 745.99561 1407.3503 3947577
-1013.1196 744.03113 1403.6443 5263179
-1001.9124 741.88989 1399.6047 1710101
