# .PCD v0.7 - Point Cloud Data file format
VERSION 0.7
FIELDS x y z rgb
SIZE 4 4 4 4
TYPE F F F U
COUNT 1 1 1 1
WIDTH 1329
HEIGHT 1
VIEWPOINT 0 0 0 1 0 0 0
POINTS 1329
DATA ascii
-281.24103 684.44147 1491.2219 3222048
-272.66373 685.08728 1492.629 3550757
-265.7171 690.01093 1503.3563 1708553
-255.83551 687.39026 1497.6466 1510917
-245.7238 683.94086 1490.1312 2432533
-236.42862 682.59174 1487.1918 3024669
-227.09787 681.03143 1483.7924 3616805
-218.45065 681.47784 1484.765 3354148
-208.56967 677.95142 1477.0818 2695704
-197.79515 671.08441 1462.1204 2695704
-192.29329 682.297 1486.5498 3353633
-182.92102 680.19385 1481.9674 4275505
-173.44771 677.48389 1476.0631 3354147
-163.56346 672.79572 1465.8489 4998971
-154.73199 672.15527 1464.4535 4077869
-146.58186 674.57416 1469.7236 2827289
-139.08969 680.51782 1482.6733 2498324
-130.23331 680.13818 1481.8462 3090462
-121.77931 681.95703 1485.809 5524546
-113.13708 682.92303 1487.9137 4406323
-104.73029 685.59363 1493.7322 3945771
-95.587845 683.49683 1489.1638 1577478
-86.402306 680.63409 1482.9268 1709067
-77.664818 681.05249 1483.8383 7037527
-69.268028 684.94653 1492.3224 3287323
-60.272686 683.19537 1488.5071 5721407
-51.7803 687.52222 1497.9341 1840137
-42.762268 685.21588 1492.9092 2563606
-33.846523 683.77319 1489.7659 1840655
-24.947538 681.77069 1485.4031 1051656
-16.261848 686.59119 1495.9056 2432535
-7.3349748 680.57971 1482.8081 2235157
1.4614613 686.18823 1495.0277 3682601
10.401808 691.73877 1507.1208 3748393
19.315208 691.19757 1505.9418 2499097
28.413544 695.52521 1515.3706 1380364
37.584919 699.13354 1523.2322 1841170
46.495007 697.42523 1519.5103 2367255
54.460094 684.39539 1491.1216 3683115
62.974583 680.94336 1483.6005 2038292
71.750305 680.81561 1483.3221 1644562
80.358559 679.30005 1480.0201 2499098
88.906464 677.62274 1476.3657 5722439
97.972633 679.84216 1481.2013 2695704
106.97147 681.26794 1484.3076 2629911
115.66222 680.664 1482.9918 3682855
125.11655 684.32172 1490.9611 2169104
135.72189 693.37732 1510.6909 2695962
142.60272 683.46185 1489.0875 4472630
150.81586 680.71509 1483.1031 2433304
161.50833 688.8454 1500.8169 1577995
171.06085 691.5188 1506.6417 2630426
180.55951 693.72021 1511.438 1906706
187.42578 686.07764 1494.7867 853763
198.13559 692.55933 1508.9087 2038292
207.86929 695.21686 1514.6987 1840915
217.36581 696.89386 1518.3525 2433566
225.10109 693.01538 1509.9023 4275514
233.11819 690.26782 1503.9161 1446159
241.21535 687.95099 1498.8683 1248266
244.28545 671.97034 1464.0505 1050627
249.48659 662.74658 1443.9543 1116161
263.66312 677.18652 1475.4153 1708039
268.49753 667.47565 1454.2578 3154968
277.30362 667.93506 1455.2588 2957588
287.5029 671.6214 1463.2903 2891280
300.29834 680.97913 1483.6783 3088660
310.96094 685.10559 1492.6688 3220245
318.14713 681.5564 1484.9362 4602414
327.50644 682.72839 1487.4896 3221790
338.42206 686.99835 1496.7927 1445897
346.32776 685.09601 1492.6481 2037265
356.12961 686.94604 1496.6787 1708555
365.37198 687.65314 1498.2194 1643789
376.66681 692.09796 1507.9034 2630684
392.69937 704.84039 1535.6659 1182983
402.25565 705.64496 1537.4189 1446926
408.47888 700.69641 1526.6373 2565151
420.55518 705.78503 1537.7241 3157287
426.85632 701.17139 1527.6721 2893858
433.81952 697.81427 1520.3578 3288617
439.4274 692.45789 1508.6877 2301464
451.49677 697.29437 1519.2251 1906190
457.69791 693.05591 1509.9906 1051138
461.51056 685.43262 1493.3813 2300948
0 0 0 0
471.06555 673.79059 1468.0164 3748651
0 0 0 0
0 0 0 0
0 0 0 0
429.10281 571.56012 1245.2826 196609
436.31775 571.34747 1244.8192 4
441.28751 568.25079 1238.0724 5
446.94986 566.13263 1233.4574 0
450.15686 561.02246 1222.3237 1446159
459.96985 564.17676 1229.196 2432534
551.40527 665.78656 1450.5778 1708808
564.35693 670.96802 1461.8667 1840137
584.77081 684.73053 1491.8518 1511172
593.68408 684.81726 1492.0408 1576966
600.6424 682.67957 1487.3832 590592
601.17957 673.41089 1467.1892 1905675
607.07275 670.3205 1460.4561 1050112
624.25208 679.60388 1480.6821 2826520
636.17938 682.99152 1488.0629 1115905
643.65625 681.57391 1484.9742 1247746
653.88153 683.06555 1488.2242 2958362
668.89185 689.44971 1502.1335 2366482
682.13062 693.8642 1511.7516 1181953
690.9455 693.72247 1511.4429 1445123
689.90356 683.81458 1489.8562 2958617
704.19446 689.16266 1501.5082 1839882
714.7074 690.72601 1504.9144 2103054
728.03503 694.93762 1514.0903 984577
731.22632 689.48895 1502.2191 1642503
742.06964 691.29974 1506.1644 4405809
744.59106 685.40717 1493.3259 2695703
759.45654 690.88245 1505.2551 3156254
766.5459 689.23871 1501.6738 1774345
770.56372 684.90259 1492.2266 1971468
787.45233 691.97504 1507.6356 2694935
789.65564 686.12885 1494.8983 1774345
773.93365 665.00983 1448.8855 1576967
806.55823 685.44073 1493.3992 1576966
808.50256 679.63812 1480.7567 2695445
809.27808 672.9881 1466.2679 1773831
822.5155 676.7323 1474.4257 2102539
827.75946 673.89038 1468.2339 2102796
841.93347 678.30194 1477.8456 2103053
854.12384 681.04114 1483.8135 1116417
860.93982 679.48285 1480.4183 1642503
877.93213 685.90643 1494.4137 1050370
884.44678 684.0976 1490.4728 1971724
889.14154 680.93079 1483.5731 853504
897.06299 680.27289 1482.1396 2761243
895.82648 672.75024 1465.7499 2432274
901.68152 670.64655 1461.1664 1577222
923.43756 680.29718 1482.1926 1708038
933.15771 680.98267 1483.6862 1313793
943.81903 682.33569 1486.634 2037516
953.00409 682.60645 1487.2239 2037516
962.14154 682.83838 1487.7291 2432275
971.96826 683.55084 1489.2815 2037774
981.61169 684.12268 1490.5275 1182465
991.49597 684.85077 1492.1138 1379844
1006.4306 689.0235 1501.2051 1445639
1020.5923 692.59869 1508.9945 524800
1032.2662 694.43817 1513.0022 1510660
1039.6488 693.38391 1510.7052 2103311
1053.1388 696.38605 1517.2461 1839627
1063.6727 697.39929 1519.4537 1511429
1089.7451 708.49792 1543.6348 2366481
1097.37 707.51794 1541.4996 1972236
1095.076 700.21191 1525.5817 2696216
1103.934 700.09772 1525.3329 3485992
1109.0063 697.60419 1519.9001 1973010
1119.3624 698.44769 1521.7379 722947
1135.6357 702.94043 1531.5264 1973014
1147.8042 704.84119 1535.6677 1841428
1149.7595 700.48975 1526.187 1709329
1169.5789 707.00488 1540.3818 2235415
1168.5792 700.9317 1527.1499 2235930
1172.9924 698.17346 1521.1405 2959396
1180.6224 697.35742 1519.3625 3682861
1193.3136 699.52057 1524.0754 3419431
1189.6239 692.12085 1507.9534 3879466
0 0 0 0
1187.0277 680.39166 1482.3984 2169364
1209.0698 687.9364 1498.8364 2564121
1228.899 694.12115 1512.3115 3090464
1231.4414 690.52289 1504.4718 2169617
1229.4219 684.43671 1491.2115 1709579
1239.8224 685.30243 1493.0978 3616549
1251.5217 686.86865 1496.5103 2892828
1271.6948 693.03082 1509.936 1708809
1270.4259 687.50336 1497.8931 1643018
1286.1584 691.18927 1505.9237 1708811
1300.3514 694.00281 1512.0536 1380361
1302.7963 690.55048 1504.532 2498588
1310.3682 689.84442 1502.9937 1379593
1323.7222 692.17126 1508.0632 985089
1318.5358 684.83722 1492.0842 524544
1328.7881 685.56616 1493.6724 656384
1334.4167 683.91571 1490.0765 1445642
1346.6266 685.63788 1493.8286 1774604
1351.4536 683.60303 1489.3953 1708811
1354.6699 680.78516 1483.2557 2169619
1363.9636 681.03809 1483.8069 1643018
1374.3729 681.84119 1485.5566 1643017
1382.1273 681.32538 1484.4327 2366741
1381.87 676.89166 1474.7729 2235155
1399.672 681.3042 1484.3867 1708810
1405.816 680.02246 1481.594 1906191
1418.3561 681.8313 1485.535 1642762
0 0 0 0
0 0 0 0
0 0 0 0
0 0 0 0
0 0 0 0
0 0 0 0
0 0 0 0
0 0 0 0
0 0 0 0
0 0 0 0
0 0 0 0
0 0 0 0
0 0 0 0
0 0 0 0
0 0 0 0
-1254.6611 689.32489 1482.7236 2368030
0 0 0 0
-1240.2346 691.07532 1486.4888 2105111
-1247.5353 700.11456 1505.932 3289642
-1227.1807 693.6521 1492.0314 4013365
-1217.1173 692.95502 1490.532 4605502
-1208.9917 693.35919 1491.4012 2565919
-1197.6243 691.89636 1488.2548 2697505
-1183.8208 688.99402 1482.012 3485994
-1178.2222 690.85931 1486.0242 3749423
-1169.7585 691.06018 1486.4562 3618347
-1161.9753 691.66907 1487.7659 4275765
-1153.8954 692.10925 1488.7128 4209972
-1151.8599 696.20959 1497.5325 4209972
-1146.5962 698.40729 1502.2598 3157284
-1130.2874 693.85901 1492.4764 3091493
-1114.7811 689.73566 1483.6072 3947572
-1101.0435 686.6496 1476.9691 4605759
-1085.8953 682.62732 1468.3174 5263689
-1087.0339 688.86139 1481.7267 4210744
-1073.9015 686.07953 1475.7429 3289898
-1059.0649 682.15436 1467.3 4407866
-1047.4375 680.24835 1463.2002 3618608
-1039.4536 680.69666 1464.1644 4079158
-1040.2888 686.9762 1477.6716 5394763
-1033.7574 688.45648 1480.8557 1907990
-1022.1013 686.51984 1476.6901 4342588
-1011.1581 685.0329 1473.4917 5986900
-1008.1813 688.96393 1481.9473 3421485
-998.82373 688.56543 1481.09 3158056
-993.69019 691.09753 1486.5365 3749425
-985.06647 691.22577 1486.8124 5526091
-982.23865 695.46014 1495.9204 3092006
-969.47516 692.67273 1489.9248 3815986
-958.92694 691.4314 1487.2546 4144696
-947.54565 689.56079 1483.231 5065799
-939.78119 690.31189 1484.8467 2039322
-931.64862 690.8042 1485.9056 3157802
-922.84662 690.80487 1485.907 3684402
-923.9162 698.26617 1501.9561 2433822
-915.54236 698.66602 1502.8162 1118220
-902.25024 695.28375 1495.541 3420716
-891.92505 694.14337 1493.0881 2236954
-891.20856 700.53314 1506.8323 3223850
-881.9212 700.24695 1506.2167 2829348
-866.31793 694.88867 1494.6912 3816245
-855.96783 693.67694 1492.0848 2763556
-856.30249 701.18915 1508.2434 5066313
-847.98071 701.69678 1509.3353 5066312
-835.64111 698.85504 1503.2228 987147
-821.1593 694.14124 1493.0835 921098
-809.03241 691.3371 1487.0519 2565923
-801.18561 692.16888 1488.8409 2105885
-799.94769 698.79236 1503.088 987146
-788.74799 696.76495 1498.7271 328963
-776.36676 693.63574 1491.9962 4276797
-767.88818 693.96143 1492.6968 3026729
-766.99146 701.22644 1508.3236 3289901
-759.7981 702.83813 1511.7903 2105627
-752.08716 704.00378 1514.2976 3684659
-734.83612 696.15955 1497.4248 1316112
-729.74817 699.78735 1505.2281 2763044
-716.6272 695.70642 1496.4502 2565921
-708.94434 696.86865 1498.9502 1513233
-695.47174 692.29724 1489.1171 2368539
-685.00256 690.63635 1485.5446 1446923
-664.96899 679.16364 1460.8671 4342071
-660.86951 683.87732 1471.006 5591368
-656.34308 688.26917 1480.4528 1709837
-646.92499 687.58093 1478.9724 328449
-636.92938 686.25153 1476.1129 2564634
-641.12958 700.39319 1506.5312 722951
-624.41986 691.76886 1487.9805 3091233
-616.86786 693.18823 1491.0336 3617578
-605.84875 690.69617 1485.6732 2696476
-596.81201 690.42407 1485.0879 1446411
-587.29584 689.58075 1483.2739 3749421
-572.81067 682.78888 1468.6648 3091232
-568.78363 688.44574 1480.8326 3354403
-560.15973 688.62885 1481.2264 2698012
-554.96149 693.09601 1490.8352 5658182
-547.00854 694.21173 1493.2351 3289122
-542.74597 700.12457 1505.9535 6184273
-527.58167 691.93701 1488.3423 4539449
-510.60849 681.05859 1464.943 3617579
-500.62637 679.28986 1461.1385 5789006
-493.68298 681.65479 1466.2253 5197636
-487.85419 685.6709 1474.8639 3882033
-476.14145 681.41284 1465.705 1908248
-457.68872 667.17175 1435.0728 3420970
-459.28601 682.17163 1467.3372 2235923
-450.87195 682.59369 1468.245 1774603
-441.14453 681.005 1464.8276 1511429
-436.85712 687.9187 1479.699 2432534
-429.4429 690.09106 1484.3717 2300690
-420.87558 690.46259 1485.1708 3945772
-411.44296 689.40002 1482.8853 1577741
-404.8374 693.13147 1490.9115 1511436
-394.18118 689.93933 1484.0453 1971984
-380.1748 680.60406 1463.9653 1708553
-368.06 674.29828 1450.4017 3419681
-355.67902 667.19177 1435.1157 2629909
-355.2413 682.68927 1468.4506 3418910
-343.28192 676.26721 1454.6368 1642757
-334.52341 675.98242 1454.0243 2498065
-322.29318 668.48181 1437.8906 2958103
-312.86258 666.53839 1433.7103 2628881
-303.43573 664.49475 1429.3145 2695444
-296.05637 666.94623 1434.5876 2893081
-290.71475 674.26886 1450.3384 7695712
-282.97079 676.29608 1454.6989 3879720
-274.06229 675.57977 1453.1582 2168847
-266.34131 677.83942 1458.0186 2365969
-259.5744 682.75995 1468.6025 2102797
-251.3754 684.12439 1471.5375 2498069
-243.44431 686.3421 1476.3077 1642504
-235.94849 689.99799 1484.1715 2037773
-224.80238 682.84906 1468.7942 3814185
-216.02385 682.60553 1468.2704 2629911
-209.18117 688.71521 1481.4122 2366739
-198.74425 683.00812 1469.1364 3485220
-188.35127 676.9361 1456.0756 3616806
-180.83292 681.10846 1465.0503 2827291
-171.90889 680.1402 1462.9675 2366738
-163.53748 681.37152 1465.6161 2827289
-154.47792 679.71307 1462.0487 4274734
-145.99925 680.56537 1463.8821 3222302
-138.10933 684.44299 1472.2228 3222303
-128.57288 680.13354 1462.9532 2037773
-119.95554 680.41443 1463.5574 4472629
-111.7709 683.38477 1469.9465 3551785
-103.12292 683.78473 1470.8068 2893598
-94.55703 684.85297 1473.1046 4011564
-85.492477 682.15973 1467.3114 1972237
-77.356422 687.10382 1477.9462 2432017
-68.487846 685.97308 1475.514 3484449
-59.808315 686.68207 1477.0389 3353118
-50.750725 682.54944 1468.1498 3813927
-42.033512 682.23199 1467.4669 3813671
-33.812103 691.89453 1488.2509 2235153
-24.823307 687.13171 1478.0061 2300948
-16.107082 688.83466 1481.6691 2235413
-7.2710795 683.35913 1469.8914 2235155
1.4287521 679.4892 1461.5673 3156257
10.256574 690.88422 1486.0778 1774604
19.019255 689.39154 1482.8671 1446157
26.847864 665.68225 1431.8688 3353380
37.031868 697.73718 1500.8182 4537397
44.880112 681.89105 1466.7336 4932155
53.406082 679.81256 1462.2628 6577494
62.330936 682.68298 1468.437 1840654
70.961487 682.02167 1467.0145 3222305
79.23291 678.42969 1459.2883 2695704
87.696815 677.03046 1456.2786 2629913
96.719391 679.80853 1462.2542 2300689
105.61722 681.3252 1465.5164 2432275
114.07109 679.96503 1462.5907 2827290
124.22603 688.22095 1480.349 2893341
133.92845 693.04639 1490.7285 1117703
142.31709 690.89685 1486.1049 3683629
150.82974 689.56482 1483.2396 1314825
160.09236 691.61932 1487.6589 2104339
168.69818 690.77002 1485.832 2301718
177.94395 692.49554 1489.5436 1249031
187.15347 693.9234 1492.615 1643533
196.52794 695.80664 1496.6656 1709327
207.25627 702.11359 1510.2318 2433051
214.85289 697.72839 1500.7993 1709329
222.82529 694.86353 1494.6371 1709330
229.5074 688.34784 1480.6219 1709329
236.26443 682.5282 1468.1041 656643
240.32327 669.60406 1440.3044 459008
247.26144 665.31366 1431.0759 1643534
255.48964 664.66364 1429.6779 918784
268.55453 676.23462 1454.5667 918784
274.84305 670.5531 1442.3459 3089432
285.35397 675.20538 1452.3529 2760208
296.05371 680.01904 1462.707 2497037
303.93686 678.27338 1458.952 1838337
314.58377 682.62134 1468.3044 3154711
325.38855 687.06866 1477.8705 1970182
334.80255 688.42322 1480.7842 2037002
344.01578 689.30634 1482.6837 1708040
353.48532 690.64624 1485.5658 590336
362.91058 691.83661 1488.1262 1314571
372.10385 692.53876 1489.6366 3551785
386.54883 702.7561 1511.6139 2828320
395.59991 702.92664 1511.9807 1841172
405.54828 704.64856 1515.6846 5328199
412.32239 700.90009 1507.6217 2301724
420.84381 700.21777 1506.1539 920070
430.04547 700.67206 1507.1312 2893603
433.99826 692.72998 1490.048 3748399
447.44492 699.95612 1505.5912 525569
452.29565 693.71558 1492.168 1576711
0 0 0 0
0 0 0 0
0 0 0 0
0 0 0 0
0 0 0 0
0 0 0 0
431.59576 582.30096 1252.5173 460294
437.34225 580.08099 1247.7422 2
441.8768 576.354 1239.7256 5
448.21317 575.06073 1236.9437 131072
455.13577 574.54901 1235.843 1775124
469.05252 582.74292 1253.468 1906192
547.7085 669.85895 1440.8528 1840395
564.85211 680.22473 1463.1494 1511172
569.95636 675.99792 1454.0576 2103308
579.16687 676.69458 1455.5562 2234895
590.25092 679.52789 1461.6505 2827032
594.86847 674.94232 1451.787 1379587
606.32867 678.14044 1458.6661 1642503
615.55548 678.78589 1460.0544 590336
627.21893 682.06323 1467.1039 1181953
641.88873 688.4754 1480.8964 1774091
653.26221 691.22687 1486.8147 2234640
663.52808 692.74872 1490.0881 1774088
674.48175 694.93921 1494.7999 1510918
681.18604 692.75146 1490.0941 2037261
689.65332 692.38971 1489.3159 1248001
698.18933 692.10516 1488.7039 1379845
706.84778 691.94757 1488.3649 1248515
713.55902 689.91119 1483.9847 1248515
724.3573 691.82788 1488.1075 1576710
732.79517 691.47113 1487.3402 2168847
738.47644 688.55267 1481.0626 2234640
741.38892 683.15143 1469.4447 1905675
753.52216 686.27344 1476.16 656128
759.14813 683.46527 1470.1198 1971467
778.30005 692.76025 1490.1129 1576966
777.46289 684.25397 1471.8162 1247746
773.66937 673.3634 1448.3907 1642758
786.91986 677.3833 1457.0375 1840136
797.79456 679.29297 1461.1451 5524800
802.09106 675.62073 1453.2462 1709066
808.44299 673.73944 1449.1996 2169357
825.47662 680.70599 1464.1846 1905414
833.05426 679.81122 1462.2599 3747877
842.31018 680.29028 1463.2904 262144
849.72003 679.28381 1461.1255 918784
861.10803 681.44574 1465.7758 655872
877.03516 687.12079 1477.9827 1182725
888.48114 689.20752 1482.4712 1971727
880.21948 676.1156 1454.3107 2103056
881.86719 670.81512 1442.9095 589824
902.12787 679.6391 1461.8896 590592
903.914 674.50934 1450.8557 1115905
918.58929 679.00366 1460.5228 1313281
930.71716 681.54858 1465.9969 1247746
943.0426 684.18988 1471.6783 2300175
957.71606 688.47064 1480.8862 1049856
967.2038 688.97974 1481.9812 1116418
968.36145 683.59912 1470.4076 1774346
981.79333 686.90204 1477.5121 1708553
984.53864 682.7359 1468.5508 1445380
1008.9302 693.52197 1491.7515 1379845
1022.8319 696.97284 1499.1742 1576710
1028.374 694.71692 1494.3218 2103565
1037.0884 694.62433 1494.1226 2366484
1058.5817 703.01984 1512.1812 2037773
1072.3048 706.15753 1518.9303 3090462
1080.416 705.57819 1517.6841 657155
1087.4413 704.30499 1514.9454 131328
1093.2781 702.28912 1510.6094 2433561
1097.3281 699.16754 1503.895 2630426
1105.3201 698.58771 1502.6478 3025442
1122.792 703.96088 1514.2053 2696477
1126.7322 700.83197 1507.4751 3222820
1141.5774 704.48193 1515.326 2367512
1154.6763 707.00562 1520.7545 1906706
1157.985 703.54224 1513.3048 2038289
1164.0026 701.7652 1509.4824 2432534
1175.2157 703.12372 1512.4045 1906189
1166.469 692.61017 1489.7902 2958365
1174.4243 692.09711 1488.6865 3287328
0 0 0 0
1109.0161 643.8811 1384.975 1839625
1188.5271 684.97656 1473.3704 2235154
1197.75 685.25934 1473.9786 2103569
1213.3895 689.18256 1482.4175 2235154
1215.5133 685.42792 1474.3413 1643017
1228.3322 687.71466 1479.2601 2695703
1228.1425 682.73761 1468.5544 1972236
1235.5361 682.01648 1467.0034 2695446
1259.7125 690.50482 1485.2616 2826521
1258.722 685.1759 1473.7992 1708808
1272.4645 687.88501 1479.6265 1906192
1291.0675 693.16656 1490.9871 1906192
1301.743 694.14917 1493.1006 1708556
1308.8864 693.24762 1491.1614 1445387
1303.6757 685.85883 1475.2682 853251
1307.653 683.36993 1469.9147 1510924
1314.2462 682.27203 1467.5531 1314054
1332.9813 687.45038 1478.6917 1971985
1325.0468 678.89685 1460.2931 3090464
1331.4337 677.7442 1457.8138 1445639
1360.2101 687.93011 1479.7234 1643275
1357.6831 682.25513 1467.5167 1774603
1363.0315 680.58459 1463.9235 1840653
1375.0269 682.23328 1467.4697 2037776
1382.0112 681.3905 1465.657 1643019
1382.0284 677.14465 1456.5242 1314057
1396.5454 680.01178 1462.6913 4274995
0 0 0 0
0 0 0 0
0 0 0 0
0 0 0 0
0 0 0 0
0 0 0 0
0 0 0 0
0 0 0 0
0 0 0 0
0 0 0 0
0 0 0 0
0 0 0 0
0 0 0 0
0 0 0 0
0 0 0 0
-1245.3457 692.92566 1471.7148 4408123
0 0 0 0
-1227.7312 692.82581 1471.5028 2697762
-1222.8022 694.97906 1476.076 2763298
-1217.9751 697.22156 1480.839 2565918
-1210.1383 697.76129 1481.9854 3289642
-1198.7953 696.2724 1478.8231 5131846
-1190.9325 696.79785 1479.9391 5197639
-1169.5444 689.35901 1464.1396 3487021
-1164.7092 691.63849 1468.9811 2565406
-1166.2401 697.76117 1481.9851 1710866
-1147.0048 691.45813 1468.5979 2434334
-1141.9594 693.67822 1473.3132 3815732
-1131.5553 692.65247 1471.1346 4210746
-1119.5734 690.63739 1466.8547 986635
-1112.4716 691.62469 1468.9518 1579027
-1095.5905 686.49988 1458.0671 4408123
-1082.4729 683.67059 1452.058 4276280
-1073.1072 683.18457 1451.0258 3420972
-1064.3683 683.09302 1450.8312 3486766
-1061.6449 686.89209 1458.9001 5131592
-1050.7529 685.42493 1455.7839 4078904
-1045.5114 687.64984 1460.5095 3750451
-1031.8129 684.30328 1453.4016 3487280
-1027.8419 687.40594 1459.9915 5197898
-1025.9849 691.98712 1469.7216 3026986
-1024.2651 696.73999 1479.8163 1512978
-1014.2828 695.90607 1478.0449 3420717
-1002.8864 694.0788 1474.1641 2696994
-995.10077 694.74048 1475.5695 3092007
-989.41333 696.89166 1480.1384 3223336
-979.66937 696.19861 1478.6664 3289641
-966.36591 692.94061 1471.7467 5723982
-950.2196 687.56635 1460.3322 4934466
-939.11963 685.77826 1456.5344 4802881
-930.56415 685.83228 1456.6492 3158055
-927.6958 690.11804 1465.7517 4868673
-919.8869 690.77478 1467.1466 3355436
-915.23492 693.83728 1473.6511 3091749
-912.12274 698.13739 1482.7842 2893858
-897.17712 693.37567 1472.6707 1184010
-894.07184 697.76099 1481.9847 2697249
-889.52496 701.09717 1489.0704 2367771
-877.44611 698.50415 1483.5632 1184268
-870.35065 699.86591 1486.4554 2105368
-850.68707 691.04596 1467.7225 4539709
-853.97015 700.87683 1488.6025 657927
-848.33807 703.51953 1494.2155 1907734
-840.81494 704.63324 1496.5808 1381392
-826.39655 699.9306 1486.5928 788999
-815.57758 698.20813 1482.9343 131841
-796.9212 689.66553 1464.7906 2697765
-786.83881 688.43652 1462.1803 1513491
-793.83685 702.29089 1491.606 2434337
-787.37225 704.41302 1496.113 1052427
-769.2746 696.0575 1478.3667 2763044
-761.0426 696.53912 1479.3896 3816502
-756.58203 700.52399 1487.853 2960933
-749.83984 702.46521 1491.9761 4408378
-736.89917 698.57666 1483.7172 3026726
-726.13605 696.68341 1479.696 2434331
-720.47327 699.69714 1486.097 2500125
-711.84796 699.87286 1486.4702 1249807
-702.31274 699.14716 1484.9288 2433822
-691.90869 697.52716 1481.488 1776149
-676.8045 691.06628 1467.7657 1249293
-664.96216 687.81116 1460.8522 1512461
-652.84161 684.17859 1453.137 2894371
-647.40771 687.55029 1460.2981 2104083
-630.15228 678.28876 1440.6274 2170133
-622.15833 678.87866 1441.8802 2235926
-629.54614 696.50275 1479.3124 2367511
-622.72809 698.68579 1483.949 2301718
-605.77795 689.4007 1464.2281 3420199
-604.0401 697.40948 1481.2382 2959648
-592.14355 693.75244 1473.4709 2104339
-580.51331 690.30273 1466.144 2366484
-573.00275 691.72144 1469.1572 1512203
-564.48846 691.95349 1469.6501 2301460
-554.19489 689.97766 1465.4536 4802361
-546.78741 691.58929 1468.8766 4012842
-542.06097 696.69891 1479.729 3749413
-528.40894 690.3161 1466.1725 3683619
-517.33429 687.14337 1459.4338 3617828
-508.90442 687.4353 1460.0538 3683881
-491.87003 675.91333 1435.5822 6775898
-483.65347 676.31622 1436.4379 5657673
-473.27838 673.66119 1430.7988 5723723
0 0 0 0
-454.14301 670.43903 1423.9552 1578768
-450.79294 678.08911 1440.2034 2170130
-444.88751 682.11639 1448.757 2103567
-438.29413 685.22656 1455.3627 1050880
-427.82562 682.28168 1449.108 1445127
-420.73169 684.70807 1454.2615 1446151
-413.85803 687.60181 1460.4075 4209459
-406.1376 689.18225 1463.7642 2828063
-397.26999 688.84253 1463.0426 3552043
-383.29227 679.42932 1443.0498 3157028
-375.49393 680.79022 1445.9403 2300947
-366.27441 679.57782 1443.3652 1050881
-358.32608 680.72241 1445.7963 3221791
-348.48322 678.23578 1440.5149 1905928
-339.44818 677.23608 1438.3916 3024409
-335.85416 687.31976 1459.8085 2300688
-320.6102 673.46497 1430.3821 2366480
-310.33005 669.56781 1422.1049 2300175
-303.06134 672.13196 1427.5509 2497554
-295.95795 675.22052 1434.1106 2168333
-287.26242 674.75183 1433.1152 3550755
-280.7666 679.57886 1443.3674 1643017
-271.18079 676.99506 1437.8796 5525059
-263.15094 678.25409 1440.5537 3287584
-255.30292 680.08185 1444.4357 2958878
-243.63551 671.5094 1426.2286 1182466
-238.2762 680.33197 1444.967 2037775
-230.28099 682.00555 1448.5216 1445639
-222.77435 685.31171 1455.5436 3814184
-213.73254 683.97144 1452.6969 2761241
-204.51901 681.94604 1448.3951 3025183
-196.91707 685.35223 1455.6295 2498327
-186.83403 680.03967 1444.3462 3024928
-179.54054 684.85797 1454.5798 1051909
-170.87061 684.64697 1454.1316 2630428
-162.41449 685.31567 1455.552 2170391
-152.98717 681.73157 1447.9396 3881007
-145.67342 687.69952 1460.615 1907218
-137.21034 688.65283 1462.6398 3222820
-125.16412 670.5387 1424.1669 2433563
-119.34971 685.60468 1456.1658 2762270
-110.74748 685.75604 1456.4872 3617578
-102.32834 687.16223 1459.4739 2893855
-93.499046 685.8197 1456.6224 2498327
-85.269585 689.05121 1463.4858 1708810
-76.742508 690.33704 1466.2169 1774088
-68.142166 691.20789 1468.0665 2694933
-59.133804 687.58942 1460.3811 3089689
-50.472065 687.45166 1460.0886 2563346
-41.878475 688.3772 1462.0544 3352604
-33.203125 688.091 1461.4465 3024152
-24.536364 687.84375 1460.9213 2432018
-15.956181 691.07666 1467.7877 2958618
-7.2371502 688.83765 1463.0323 2432020
1.4285313 688.0415 1461.3414 3484707
10.063541 686.51978 1458.1094 2629912
18.504833 679.29266 1442.7595 3222305
26.590647 667.70605 1418.1506 3155999
35.125153 670.24512 1423.5433 3813671
43.959938 676.42145 1436.6614 2760729
52.327278 674.56812 1432.725 2497813
61.773487 685.19904 1455.3042 2892571
70.425591 685.4964 1455.9358 1051138
79.010986 685.15039 1455.2009 2366739
87.280487 682.40271 1449.365 4472115
96.311867 685.57037 1456.0929 1248776
103.71526 677.58154 1439.1254 1972240
113.76149 686.76068 1458.6211 2366738
122.31448 686.26581 1457.5699 1709326
131.69922 690.19507 1465.9154 2235158
141.1111 693.77167 1473.5117 2236187
150.95023 698.90967 1484.4244 2762015
159.87035 699.46118 1485.5958 1183499
168.29898 697.91705 1482.3162 1511949
177.75652 700.58112 1487.9745 788225
186.38795 699.89148 1486.5096 1051398
195.36899 700.51758 1487.8395 3025187
204.54926 701.77313 1490.5062 3354152
212.34604 698.37476 1483.2883 2301466
217.45801 686.76733 1458.6351 1314572
226.58705 688.2489 1461.7819 1512463
235.11974 687.87665 1460.9912 788228
238.92499 674.1911 1431.9243 1775378
243.49878 663.53833 1409.2987 2761756
254.52698 670.59717 1424.291 1181953
267.85474 683.0672 1450.7764 458752
273.67529 676.21252 1436.2177 2694930
282.96158 678.07648 1440.1765 2168073
292.01093 679.28009 1442.7329 2102279
300.11133 678.27057 1440.5887 1444096
312.26498 686.22418 1457.4816 1181955
321.2782 687.03418 1459.2019 2497554
331.07755 689.43878 1464.3091 2695448
342.77466 695.57153 1477.3346 196608
351.57343 695.66394 1477.5308 1314827
355.65179 686.63849 1458.3615 1906707
365.69394 689.28192 1463.976 6973533
374.18713 688.95099 1463.2731 2367515
389.81964 701.48224 1489.8884 4670525
399.51898 703.01837 1493.1509 2038807
409.8035 705.49518 1498.4115 5131078
416.01776 701.00848 1488.8822 1775379
422.95837 697.90662 1482.2941 1906708
425.04309 687.08136 1459.3021 2367517
441.42072 699.3316 1485.3206 2893087
444.44373 690.35913 1466.2638 2300437
0 0 0 0
0 0 0 0
0 0 0 0
0 0 0 0
0 0 0 0
0 0 0 0
432.56363 591.04364 1255.3262 65538
436.63556 586.52362 1245.7261 65541
443.3078 585.58875 1243.7405 4
447.03354 580.85583 1233.6882 0
473.92377 605.89001 1286.8586 1906965
475.33307 598.07104 1270.2518 1905933
508.07901 629.30957 1336.5997 1774344
552.62494 673.98059 1431.4772 2169102
564.07074 677.54248 1439.0424 2234382
578.07001 684.01978 1452.7996 1708039
586.97681 684.36969 1453.5428 2958104
594.81537 683.48199 1451.6573 2037003
600.29688 679.94977 1444.1553 1971210
614.87952 686.68073 1458.4512 655872
623.78375 686.9715 1459.0687 458752
633.96313 688.6394 1462.6113 1642761
647.6817 694.05505 1474.1136 1379332
659.7854 697.61896 1481.6831 1379334
670.78949 699.94202 1486.6171 1642246
679.28601 699.62225 1485.9379 524544
684.77405 696.25171 1478.7791 1511430
696.46216 699.19061 1485.0211 985346
701.99054 695.94952 1478.1373 1248259
711.25012 696.44183 1479.1829 1379844
713.31274 689.96075 1465.4177 3156255
729.16699 696.81531 1479.9762 787970
731.7063 690.9339 1467.4846 2169360
738.914 689.54724 1464.5394 1774346
750.2641 692.01343 1469.7775 1182467
759.18744 692.21045 1470.1959 1708296
767.15826 691.54425 1468.781 1445379
768.59766 685.07153 1455.0334 1116674
771.22882 679.79279 1443.8218 1708807
782.25659 681.94971 1448.403 1510916
786.31433 678.04956 1440.1193 2826517
793.74884 677.11377 1438.1317 2234638
802.29938 677.13959 1438.1866 2168587
818.86768 683.86084 1452.462 2037001
828.07355 684.35767 1453.5172 2497295
833.60992 681.8429 1448.176 1116418
845.2948 684.35712 1453.5161 787456
851.7558 682.63403 1449.8564 787200
861.69543 683.70551 1452.1321 590080
874.43958 686.95905 1459.0422 787457
882.99841 686.89301 1458.902 1181957
881.79395 679.30688 1442.7898 1050113
891.70276 680.34564 1444.996 458752
903.21661 682.57751 1449.7363 393216
909.36273 680.74908 1445.8529 1445122
921.62097 683.48761 1451.6693 1181696
934.87421 686.90662 1458.931 1181440
943.7323 687.06323 1459.2635 2102796
954.49133 688.58826 1462.5027 590592
962.49292 688.11456 1461.4966 327680
967.14667 685.27716 1455.4702 1313540
979.07037 687.59558 1460.3943 1511173
989.33032 688.71515 1462.7721 2300689
998.91638 689.35022 1464.121 1774346
1004.8652 687.4859 1460.1614 2169359
1017.2197 689.99854 1465.4979 4538164
1029.3522 692.31927 1470.427 1906443
1051.2883 701.13947 1489.1604 2300946
1055.991 698.41492 1483.3737 2695704
1062.058 696.63025 1479.5831 2630170
1080.4707 702.90637 1492.9131 1643278
1097.4539 708.15814 1504.0674 787457
1094.9114 700.82733 1488.4974 2103572
1104.7174 701.45465 1489.8297 656641
1109.8525 699.12958 1484.8915 3419945
1120.6262 700.36505 1487.5155 3288615
1138.2734 705.84357 1499.1514 2366743
1133.6578 697.53888 1481.5131 1116676
1132.1407 691.25372 1468.1638 1445640
1151.5201 697.72589 1481.9102 2037262
1141.7947 686.59851 1458.2766 2234642
1153.8085 688.61255 1462.5542 2497812
1144.3903 677.90088 1439.8036 3353121
1163.8544 684.33014 1453.4587 1905675
1174.1569 685.31763 1455.5562 2300435
1188.5237 688.64563 1462.6245 1971467
1197.5686 688.8642 1463.0887 1905676
1205.9031 688.67401 1462.6847 1839881
1213.7771 688.22528 1461.7317 1116163
1229.7662 692.35181 1470.4961 2168847
1232.8074 689.18182 1463.7633 1774089
1237.4008 686.91785 1458.9548 2432018
1246.3193 687.06964 1459.2772 2169359
1254.8812 687.02417 1459.1807 2169362
1266.6095 688.70087 1462.7418 2169362
1271.8755 686.86493 1458.8424 1116676
1285.6594 689.62286 1464.7 2103571
1272.9402 678.22272 1440.4872 2564122
1284.9097 680.04108 1444.3492 1445641
1303.6761 685.40894 1455.75 1182469
1310.9158 684.68579 1454.2141 1445639
1320.953 685.42377 1455.7815 1116418
1314.8009 677.80621 1439.6024 1379333
1329.693 681.06555 1446.525 2366229
1340.8417 682.37817 1449.3129 2037262
1345.6162 680.45074 1445.2192 1905675
1352.8021 679.7594 1443.7509 1774089
1362.4504 680.30627 1444.9124 2300432
1376.0216 682.79279 1450.1936 2366225
1379.4386 680.24115 1444.7742 1708552
0 0 0 0
0 0 0 0
0 0 0 0
0 0 0 0
0 0 0 0
0 0 0 0
0 0 0 0
0 0 0 0
0 0 0 0
0 0 0 0
0 0 0 0
0 0 0 0
0 0 0 0
0 0 0 0
0 0 0 0
-1241.5425 699.50165 1467.2203 4473661
0 0 0 0
-1219.7239 696.96777 1461.9055 2499872
-1207.913 695.15485 1458.1028 2828323
-1198.3949 694.64478 1457.033 1907479
-1190.7695 695.23236 1458.2655 2105115
-1179.9659 693.95941 1455.5955 986636
-1173.1582 695.03503 1457.8516 1315601
-1163.9014 694.66486 1457.0751 4210745
-1160.1544 697.60229 1463.2365 5920335
-1148.9476 696.06458 1460.011 3355177
-1126.1447 687.42493 1441.8892 5263173
-1120.9517 689.4848 1446.2098 4210740
-1116.9569 692.31921 1452.1552 5592649
-1105.4879 690.52899 1448.4 5132611
-1096.2571 690.11969 1447.5415 5132355
-1090.4653 691.88605 1451.2465 6316628
-1080.7924 691.19824 1449.8038 5856078
-1065.2694 686.72815 1440.4277 3487278
-1067.6516 693.82184 1455.3068 3421228
-1055.3169 691.38916 1450.2042 2960677
-1043.0834 688.9834 1445.1581 3749938
-1037.3617 690.87463 1449.125 3815732
-1026.1874 689.13574 1445.4777 4342075
-1018.6566 689.83496 1446.9442 3684401
-1018.6096 695.65717 1459.1565 4210746
-1014.3535 698.67975 1465.4965 3224105
-1003.7902 697.37268 1462.7549 3355435
-993.24701 696.05695 1459.995 4737089
-990.45276 700.19623 1468.6772 4934723
-975.73792 695.90692 1459.6803 4473914
-967.53119 696.22412 1460.3456 4671035
-948.54584 688.72076 1444.6072 3881777
-930.59589 681.83954 1430.1737 5592395
-923.15485 682.60236 1431.7737 723719
-927.08325 691.86407 1451.2004 4211000
-925.44373 697.10516 1462.1936 2630943
-914.57471 695.42719 1458.6741 2368027
-911.1062 699.39813 1467.0033 525827
-899.14807 696.86597 1461.6919 1644047
-890.42358 696.815 1461.5851 1775632
-888.5401 702.16913 1472.8156 1578253
-876.03326 699.15125 1466.4854 1907989
-871.51855 702.51501 1473.541 394754
-866.53009 705.56116 1479.9304 657670
-857.90356 705.67706 1480.1735 1184270
-851.05194 707.27039 1483.5155 4802627
-843.80334 708.56372 1486.2283 1974041
-831.15771 705.30444 1479.3918 2697506
-818.56915 702.02454 1472.5122 5000260
-809.41473 701.65094 1471.7286 5000517
-793.71985 695.53796 1458.9064 2171676
-782.61603 693.3576 1454.3331 1908249
-782.01166 700.53436 1469.3866 2303007
-777.27716 704.13123 1476.931 2039065
-767.23816 702.94995 1474.4532 2499872
-754.88043 699.59253 1467.411 3092009
-754.58356 707.4646 1483.9229 789512
-746.6217 708.25122 1485.5729 3487023
-733.57239 704.17303 1477.0188 2039576
-722.58411 701.99878 1472.4581 3289644
-711.42206 699.6004 1467.4275 4671295
-702.56586 699.43829 1467.0874 1842707
-691.11841 696.6601 1461.2601 3355945
-683.06195 697.27295 1462.5457 3684913
-669.36865 692.07355 1451.6398 6645599
-662.70526 694.10175 1455.8939 5725783
-655.19617 695.28595 1458.3778 1381648
-646.5741 695.30493 1458.4177 2565148
-632.698 689.59796 1446.4471 1906960
-622.37616 687.66138 1442.3851 3288870
-608.06842 681.20551 1428.8439 2236182
-607.68469 690.38635 1448.1008 1709581
-599.46198 690.79675 1448.9617 2104595
-595.91296 696.68317 1461.3086 2959647
-587.31824 696.7572 1461.4639 4143920
-576.98175 694.73621 1457.2247 2498326
-570.14948 696.93726 1461.8416 1973007
-550.62933 683.4577 1433.5679 3287841
-528.94409 666.82635 1398.6831 3879979
-541.90326 694.03595 1455.756 1643531
-532.5033 693.02637 1453.6383 3749161
-518.55096 685.96149 1438.8196 4472628
-515.05536 692.72424 1453.0046 3288353
-505.3327 691.19958 1449.8066 3353377
-490.71265 682.80762 1432.2042 3024670
-480.7923 680.77478 1427.9403 3749419
-471.504 679.58014 1425.4346 4407092
-465.07785 682.54236 1431.6479 2104336
-456.71701 682.72266 1432.026 3617576
-449.78601 685.08752 1436.9865 985858
-441.59473 685.5871 1438.0343 854016
-433.84549 686.80603 1440.5909 1511943
-425.75351 687.52045 1442.0895 985347
-416.56036 686.44946 1439.8431 591105
-408.41861 687.10254 1441.213 2301465
-402.62698 691.82172 1451.1116 1446411
-393.41415 690.73999 1448.8427 2433053
-383.08966 687.61469 1442.2871 525828
-373.58881 685.85876 1438.6041 1446669
-363.75778 683.40063 1433.4481 4669750
-352.85391 678.76123 1423.7169 3879977
-345.07657 680.05615 1426.433 2103566
-335.96573 678.72211 1423.6349 3353376
-329.13995 682.05463 1430.6249 2169102
-320.41376 681.52106 1429.5056 2366225
-307.84412 672.56152 1410.7129 2365968
-300.07465 673.88184 1413.4823 1707781
-293.92691 679.02441 1424.2689 1971210
-285.73093 679.59937 1425.4749 1774345
-275.65616 675.60449 1417.0956 4800823
-269.3262 680.8252 1428.0461 2893080
-260.96582 681.08539 1428.5918 4274990
-252.65295 681.49121 1429.443 3814184
-246.38327 687.62732 1442.3137 3485733
-236.52908 683.84113 1434.3721 2038289
-228.88887 686.41217 1439.7649 2367511
-220.2202 685.97864 1438.8556 1907217
-214.25468 694.26947 1456.2457 3485992
-204.90549 691.83154 1451.1322 3025697
-194.88756 686.8233 1440.6273 3354405
-186.76271 688.3335 1443.7949 2367511
-178.25586 688.51318 1444.1718 2894112
-169.43826 687.4502 1441.9421 197120
-160.7076 686.64575 1440.2549 4933695
-152.15852 686.5705 1440.0969 4209972
-143.07097 683.91223 1434.5212 2170130
-136.34842 692.93744 1453.4518 3420197
-125.07204 678.47632 1423.1193 3354404
-117.376 682.75073 1432.085 2828572
-108.99821 683.41669 1433.4817 3749421
-101.3151 688.91876 1445.0225 3683370
-92.557365 687.45483 1441.9519 1577483
-84.007179 687.39154 1441.8191 1446155
-75.182045 684.80939 1436.4031 1445125
-67.004639 688.22125 1443.5594 2432019
-58.91116 693.61963 1454.8827 3813671
-49.901707 688.23529 1443.5889 3024411
-41.198566 685.72211 1438.3175 2432018
-32.491413 681.81409 1430.1202 2497554
-24.030443 682.13733 1430.7982 2826775
-15.837275 694.55737 1456.8497 2629653
-7.1354709 687.70532 1442.4773 2037261
1.3971765 681.40698 1429.2665 1181697
0 0 0 0
18.054945 671.11707 1407.6831 4142894
25.922913 659.12939 1382.5386 3682599
34.732925 671.09998 1407.6472 3024412
43.62355 679.69128 1425.6677 1379589
52.284317 682.49506 1431.5487 2826779
60.456287 679.02618 1424.2727 1576710
69.089485 680.95294 1428.314 1839883
77.250023 678.30884 1422.7681 1840141
86.059692 681.32422 1429.0928 2102797
95.003006 684.76263 1436.3049 2432019
103.26965 683.15948 1432.9423 2432274
112.30321 686.48773 1439.9233 2497811
121.09718 687.98499 1443.0638 1840394
130.93253 694.81091 1457.3815 2433046
139.66132 695.28351 1458.3728 2301718
148.96831 698.41187 1464.9344 854276
159.02846 704.53247 1477.7726 788485
166.13103 697.59515 1463.2216 2959653
174.64044 696.96051 1461.8903 1447187
183.52173 697.79974 1463.6506 2235414
192.34248 698.34344 1464.791 459520
200.82164 697.65356 1463.344 1972501
208.45531 694.20502 1456.1106 1446157
217.23273 694.68817 1457.124 1512463
225.29599 692.93793 1453.4528 591106
235.52872 697.74347 1463.5326 328193
0 0 0 0
242.30119 668.58282 1402.3674 4209204
251.73433 671.58466 1408.6638 1117190
264.00421 681.71893 1429.9208 1313797
271.76694 679.94647 1426.2029 2037004
281.04727 681.96326 1430.4332 2102796
290.55917 684.40759 1435.5602 2102796
298.5206 683.16461 1432.953 2892570
307.92477 685.20074 1437.2239 1643277
316.83331 686.05408 1439.0138 1510917
325.71533 686.80682 1440.5927 2958875
335.10236 688.55878 1444.2675 4405808
347.0737 695.40149 1458.6201 2498325
354.3284 692.69092 1452.9347 853504
363.93912 694.60565 1456.9508 985863
371.87112 693.30188 1454.2162 4735290
383.61951 699.01123 1466.1917 3748908
396.10455 705.78021 1480.3898 4735806
402.25668 701.21643 1470.8171 3617842
409.89633 699.38428 1466.9742 1249036
421.49274 704.23926 1477.1576 2235929
426.10501 697.46478 1462.948 2761248
0 0 0 0
0 0 0 0
0 0 0 0
0 0 0 0
409.94504 609.0719 1277.542 262144
413.42575 603.1087 1265.0339 262145
418.24066 599.26953 1256.9812 1445907
425.66306 599.23541 1256.9097 328452
430.96432 596.2677 1250.6848 65538
435.86829 592.85992 1243.537 4
442.65607 592.08521 1241.9119 5
446.07895 586.90863 1231.054 65537
451.18921 584.08282 1225.1268 722693
490.61841 625.07056 1311.0995 1906448
534.03491 669.78149 1404.8817 1116161
547.02484 675.54517 1416.9711 1708809
557.43268 677.9939 1422.1074 1510658
568.48395 681.14081 1428.708 1576453
579.78741 684.49304 1435.7395 1971211
587.31189 683.35138 1433.3448 2497554
594.60931 681.98193 1430.4724 2169102
602.35364 681.15637 1428.7407 1379331
614.06769 684.78046 1436.3423 327936
623.8996 686.23529 1439.3939 919297
637.19617 691.41034 1450.2487 1511947
655.57605 701.89014 1472.2302 1709326
667.82629 705.61823 1480.05 5393477
670.35376 699.10986 1466.3986 2893085
678.27448 698.32056 1464.743 1906191
689.45294 700.86298 1470.0758 1577739
696.8335 699.52936 1467.2784 1117446
699.90759 693.95868 1455.5939 525056
711.88538 697.2442 1462.4854 2235153
717.23187 694.03394 1455.7517 1314313
724.89233 693.11243 1453.8188 2037775
736.23602 695.69305 1459.2317 131072
741.62628 692.65332 1452.8558 327680
754.12897 696.24994 1460.3999 1182212
760.63501 694.29144 1456.2919 852992
758.34717 684.44 1435.6282 852992
764.5979 682.42798 1431.408 787200
770.70734 680.33539 1427.0188 1181952
779.46027 680.59644 1427.5663 1116672
788.85626 681.40735 1429.2671 1971206
792.50403 677.28851 1420.6278 2234380
805.8808 681.4834 1429.4268 1708038
818.04614 684.57727 1435.9161 1444610
822.63141 681.32941 1429.1038 721665
833.70074 683.46332 1433.5796 1840140
840.53894 682.12061 1430.7632 787713
837.39929 672.78809 1411.1881 788226
856.30042 681.17322 1428.7761 327680
864.92499 681.29938 1429.0408 919044
875.78485 683.16675 1432.9576 327680
886.23962 684.68542 1436.1429 327680
891.93005 682.5293 1431.6205 524544
902.51544 684.12427 1434.9659 458752
913.39777 685.91248 1438.7168 852993
924.33704 687.70996 1442.4871 1511431
935.12183 689.36072 1445.9495 590849
945.94867 691.01215 1449.4135 853248
956.10358 692.1474 1451.7947 1314054
961.43213 689.79968 1446.8702 590848
962.10071 684.17957 1435.082 1313282
973.47998 686.20795 1439.3365 1576709
987.87799 690.31049 1447.9418 1247746
993.36707 688.17072 1443.4535 1050880
1006.1555 691.08099 1449.5579 1511431
1010.8426 688.42462 1443.9861 1708809
1023.3653 691.10443 1449.6071 2300946
1044.0872 699.23071 1466.6521 2563862
1050.1469 697.4845 1462.9894 2037776
1055.9052 695.56842 1458.9703 2037776
1083.1554 707.72601 1484.4712 1511177
1086.0692 703.91473 1476.4769 327680
1086.3997 698.5033 1465.1263 1248004
1094.1266 697.89551 1463.8514 919042
1101.222 696.89771 1461.7585 1774093
1108.3105 695.91107 1459.6891 1642761
1115.585 695.0556 1457.8947 3221793
1120.5712 692.79852 1453.1604 2629913
1137.1802 697.70697 1463.4559 2234386
1130.7373 688.50476 1444.1542 1905677
1133.084 684.75269 1436.2841 2563606
1141.2229 684.53076 1435.8186 2958363
1153.0869 686.52997 1440.012 2366226
1160.9397 686.12921 1439.1714 1774089
1160.6238 680.94165 1428.2903 2497812
1185.4844 690.49341 1448.3254 1971468
1199.3752 693.56439 1454.7668 1247745
1202.7118 690.53186 1448.406 1313538
1212.2008 691.04968 1449.4922 2168848
1224.054 692.89844 1453.37 1905678
1230.4467 691.6521 1450.7557 1444867
1240.9457 692.71509 1452.9855 1445637
1237.9142 686.26263 1439.4513 2958878
1247.8542 687.04028 1441.0824 1906190
1245.5734 681.12451 1428.674 1840397
1254.7648 681.51978 1429.5029 3551016
1251.3254 675.09528 1416.0275 1445641
1275.3964 683.49945 1433.6554 2169364
1281.3831 682.16504 1430.8564 1116676
1290.8506 682.68903 1431.9556 1511433
1305.1058 685.7218 1438.3168 1511175
1309.4425 683.53754 1433.7354 1314053
1319.0261 684.10278 1434.9209 2301204
1326.1858 683.41168 1433.4713 2300948
1337.9486 685.08636 1436.984 1971983
1341.2141 682.41638 1431.3837 1445381
1341.3359 678.19049 1422.5198 1510919
1358.5181 682.58936 1431.7465 2037263
1368.2052 683.1911 1433.0087 2234642
0 0 0 0
0 0 0 0
0 0 0 0
0 0 0 0
0 0 0 0
0 0 0 0
0 0 0 0
0 0 0 0
0 0 0 0
0 0 0 0
0 0 0 0
0 0 0 0
0 0 0 0
0 0 0 0
0 0 0 0
-1230.3158 701.78998 1453.953 2368286
0 0 0 0
0 0 0 0
-1199.3466 698.80176 1447.7621 2434592
-1191.8146 699.41492 1449.0325 1973786
-1188.3555 702.44446 1455.3091 921099
-1172.9167 698.38538 1446.8995 1446928
-1153.3182 691.77142 1433.1969 3881269
-1141.5685 689.80212 1429.1168 3947572
-1133.7428 690.19214 1429.9249 5000002
-1128.2671 692.02942 1433.7313 5460810
-1118.8495 691.4585 1432.5485 5921360
-1099.4529 684.66455 1418.473 2763556
-1085.7478 681.33765 1411.5803 3815983
-1084.2181 685.65863 1420.5326 4144949
-1089.9379 694.66772 1439.1974 4539707
-1092.5292 701.80927 1453.993 3750192
-1068.0138 691.51331 1432.6621 3289643
-1056.6704 689.64935 1428.8004 3223849
-1038.6957 683.39233 1415.8372 3092007
-1047.1506 694.5639 1438.9823 3750449
-1039.6307 695.2359 1440.3745 3289898
-1028.5774 693.53662 1436.854 3619121
-1012.0885 688.11334 1425.6182 3816243
-1011.3571 693.40234 1436.5758 4276794
-1002.3135 693.03381 1435.8123 5987413
-995.44702 694.17719 1438.181 2631966
-983.034 691.43903 1432.5082 3947569
-978.00989 693.89557 1437.5977 5723978
-972.94574 696.36676 1442.7173 3486759
-960.03412 693.21503 1436.1877 3815468
-954.87854 695.65759 1441.2482 3749674
-941.78625 692.31 1434.3126 2828833
-924.01465 685.43024 1420.0593 4276021
-915.39423 685.27478 1419.7373 4276021
-915.05078 691.37024 1432.3656 2762525
-916.14612 698.67688 1447.5034 2433561
-909.59808 700.23755 1450.7368 3288870
-894.06152 694.84235 1439.5592 1249287
-888.64276 697.28223 1444.614 1117702
-885.68365 701.71838 1453.8048 3354663
-880.11462 704.1535 1458.8497 2368282
-867.89954 701.26685 1452.8693 3092263
-862.6178 703.98071 1458.4918 2105367
-857.44824 706.84198 1464.4197 1052170
-850.57605 708.34369 1467.531 1710356
-841.16846 707.74341 1466.2872 2170908
-828.90118 704.69922 1459.9803 3223078
-802.18762 689.17975 1427.8274 3223077
-796.31799 691.42786 1432.485 3485735
-789.50916 692.90002 1435.5352 4078129
-780.4386 692.39783 1434.4946 2105367
-778.98853 698.71979 1447.5923 3421485
-771.2301 699.46112 1449.1282 592134
-763.8797 700.59338 1451.474 987149
-752.59479 698.10181 1446.312 3289901
-745.88348 699.84424 1449.9219 4211002
-738.78198 701.25677 1452.8484 5263690
-743.1178 713.68701 1478.6011 2960935
-724.44635 704.05414 1458.6439 3092520
-713.27728 701.56787 1453.4929 4342331
-701.90533 698.81885 1447.7976 3355180
-695.17755 700.6828 1451.6593 3158056
-689.92236 704.09631 1458.7313 2895140
-680.49359 703.28302 1457.0464 2039575
-669.64203 700.95959 1452.2327 3815986
-662.80792 702.83563 1456.1194 3684653
-655.87219 704.65204 1459.8827 6052688
-643.72888 700.84735 1452.0001 3618604
-632.6496 698.11365 1446.3365 3815727
-629.04187 703.66284 1457.8333 4012592
-611.47858 693.53809 1436.8571 7368035
-599.88782 689.99719 1429.521 2301717
-593.30005 692.19177 1434.0677 2038288
-589.52783 697.78265 1445.6508 3354404
0 0 0 0
-569.3645 694.08331 1437.9866 3024924
-562.24609 695.81659 1441.5776 2959646
-552.22656 693.95764 1437.7262 1249801
-546.26575 697.22076 1444.4867 1907220
-536.25739 695.33942 1440.589 8157551
-527.25787 694.72656 1439.3192 1644046
-522.55157 699.84332 1449.92 2038804
-508.1741 691.96228 1433.5923 1314826
-493.75024 683.74908 1416.5764 4275506
-483.96896 681.79211 1412.522 3222561
-479.85303 687.88776 1425.1508 2104080
-466.96213 681.39722 1411.7037 3025954
-458.98813 681.97552 1412.902 3683627
-450.83881 682.31006 1413.595 2499613
-444.73059 685.80481 1420.8353 2828574
-436.91452 686.74988 1422.7933 262656
-432.61462 693.36761 1436.5039 657152
-425.34744 695.39984 1440.7141 393728
-416.73242 695.26648 1440.4379 328192
-406.28204 692.00153 1433.6736 2104857
-398.09216 692.52954 1434.7676 1709841
-391.26126 695.49634 1440.9141 394241
-381.21811 692.758 1435.2408 1577741
-371.05783 689.67712 1428.8579 854016
-362.09476 688.72949 1426.8947 2235153
-349.93112 681.50342 1411.9238 2300691
-341.47415 681.31897 1411.5417 1839881
-332.21695 679.48865 1407.7496 1379589
-324.89987 681.63434 1412.1951 1576965
-316.302 681.13544 1411.1614 1774088
-305.99463 676.82806 1402.2375 5590338
-300.26129 682.67999 1414.3615 1708555
-292.12827 683.25531 1415.5533 2432274
-285.09 686.50079 1422.2772 1247489
-275.17416 682.80371 1414.6178 2892824
-265.42325 679.29651 1407.3516 3813926
-258.27649 682.44275 1413.8699 3353376
-249.62146 681.68097 1412.2916 2827545
-242.86562 686.2326 1421.7217 4143406
-233.66106 683.94379 1416.9797 5656902
-226.22774 686.86206 1423.0258 3682600
-218.84138 690.15436 1429.8467 1380618
-211.55829 694.0506 1437.9188 1643533
-202.74632 693.04773 1435.8411 2038803
-192.76497 687.78455 1424.9369 4537909
-183.06677 683.09583 1415.2229 3485990
-173.98914 680.38373 1409.6041 5065281
-166.87599 685.46765 1420.1368 1710099
-159.68927 690.77313 1431.1287 3354920
-151.77538 693.35162 1436.4707 2894112
-142.90784 691.62122 1432.8856 2894111
-133.96159 689.26721 1428.0087 3420196
-125.16498 687.41766 1424.1768 2498325
-116.08765 683.64746 1416.3658 2827290
-108.21974 686.96729 1423.2437 3814185
-100.75885 693.6499 1437.0887 2498068
-92.116875 692.68494 1435.0895 2564375
-83.441444 691.24658 1432.1095 3090464
-73.992958 682.35345 1413.6849 1643018
-65.781296 684.05182 1417.2036 2497555
-57.924164 690.47339 1430.5076 1708808
-48.888397 682.63843 1414.2753 4077098
-40.692135 685.70911 1420.6371 2694929
-32.065338 681.23438 1411.3665 3090199
-23.95153 688.34583 1426.0997 3616033
-15.380328 682.89935 1414.8159 1773830
-7.0345831 686.40668 1422.0823 1445127
1.3888799 685.77771 1420.7793 1905675
9.7825813 684.14703 1417.4009 1576713
18.016087 677.9942 1404.6536 2958363
26.215326 674.84729 1398.1338 2103054
34.615154 677.13538 1402.8741 2958363
43.475822 685.80701 1420.8398 2497555
51.710426 683.39148 1415.8354 2037260
60.316029 685.86896 1420.9683 1642246
68.616669 684.69647 1418.5392 2563605
76.916054 683.76874 1416.6171 2103054
85.368225 684.24811 1417.6102 1774089
93.650314 683.40057 1415.8542 1313541
102.64776 687.48334 1424.313 1774601
111.72628 691.44769 1432.5261 2564373
120.02892 690.38953 1430.3339 1314566
129.15868 693.91461 1437.6371 2103824
138.11719 696.14062 1442.2488 1709581
