# .PCD v0.7 - Point Cloud Data file format
VERSION 0.7
FIELDS x y z rgb
SIZE 4 4 4 4
TYPE F F F U
COUNT 1 1 1 1
WIDTH 1387
HEIGHT 1
VIEWPOINT 0 0 0 1 0 0 0
POINTS 1387
DATA ascii
166.58676 679.7052 2766.3115 4340268
184.3018 684.63397 2786.3708 3484703
200.71861 684.32617 2785.1182 4735029
217.77298 686.07367 2792.2302 4077354
236.54359 692.59961 2818.79 3748390
252.14189 689.58887 2806.5366 2827032
264.85178 679.53973 2765.6379 2827031
285.18155 689.07312 2804.4375 3024410
296.82245 677.71796 2758.2236 2695446
312.8009 676.93488 2755.0364 3419682
330.33514 679.42926 2765.1885 2958875
350.96402 687.75232 2799.062 3946028
363.53018 680.23737 2768.4771 3353377
378.58438 677.82587 2758.6626 2498325
396.75748 680.96704 2771.4468 1643276
413.14944 680.92291 2771.2673 2629398
426.13016 675.47498 2749.095 2103053
435.08752 664.2854 2703.5547 2629653
455.70639 671.06274 2731.1377 2366481
473.5864 673.48047 2740.9775 2827033
489.92554 673.61926 2741.5425 2366482
501.16501 666.96246 2714.45 2892824
515.30133 664.45483 2704.2444 6905942
535.28925 669.41632 2724.437 2629652
552.53564 670.75922 2729.9023 3747365
569.49457 671.68671 2733.6772 3024154
579.90295 665.05048 2706.6687 3879463
0 0 0 0
0 0 0 0
0 0 0 0
0 0 0 0
0 0 0 0
0 0 0 0
0 0 0 0
0 0 0 0
0 0 0 0
0 0 0 0
0 0 0 0
0 0 0 0
0 0 0 0
0 0 0 0
0 0 0 0
323.99893 257.60373 1048.4136 1051914
329.47974 257.03409 1046.0951 394760
333.19086 255.13037 1038.3473 5
337.34332 253.62749 1032.2307 8
341.98273 252.53773 1027.7955 9
346.22903 251.20087 1022.3547 10
350.28329 249.77301 1016.5436 10
353.90103 248.08746 1009.6835 9
358.3577 247.03622 1005.4052 9
362.09723 245.5331 999.28766 8
366.76724 244.69913 995.89349 9
371.07187 243.65167 991.63043 11
374.05084 241.77994 984.01276 11
384.51584 244.73027 996.0202 11
389.32275 244.04466 993.22992 11
391.18906 241.56363 983.13239 11
393.7421 239.57321 975.03168 11
397.93445 238.6234 971.16602 11
402.41205 237.86923 968.09668 11
407.48999 237.48618 966.53772 12
411.6608 236.59235 962.89996 11
411.40381 233.21303 949.14655 11
414.83157 231.98541 944.15027 11
419.96466 231.73143 943.11664 11
424.43106 231.12108 940.63257 11
429.43304 230.81442 939.38458 11
433.45819 229.9973 936.05896 9
435.34296 228.07945 928.25354 9
440.90735 228.11316 928.39081 7
445.36389 227.57999 926.22083 65540
447.84949 226.06487 920.05444 196608
0 0 0 0
0 0 0 0
0 0 0 0
1318.7302 634.76489 2583.4102 4076839
0 0 0 0
1370.9633 644.93726 2624.8103 4801333
1391.5712 647.28992 2634.3855 4866869
1399.5691 643.78998 2620.1411 4143404
1401.5334 637.62183 2595.0376 4142890
1419.679 638.8692 2600.1143 2892823
1450.235 645.61475 2627.5676 2365965
1467.2731 646.263 2630.2061 2036484
1481.8473 645.82379 2628.4185 2496779
1502.7539 648.12488 2637.7837 2299656
1516.9697 647.52258 2635.3323 2036486
1530.2889 646.55371 2631.3892 2102279
1547.2675 647.13495 2633.7546 1444352
1540.918 638.04517 2596.7603 1838594
1538.9379 630.92633 2567.7878 2364938
1564.0699 634.95349 2584.1777 2233608
1588.7642 638.7265 2599.5334 2299144
1602.7507 638.16357 2597.2424 2694415
1622.3386 639.8205 2603.9858 1510144
1645.5446 642.85962 2616.3547 2497037
1658.387 641.83112 2612.1689 3418139
1659.5503 636.34338 2589.8345 1379587
1694.9674 643.97021 2620.8748 2562830
1701.5498 640.60291 2607.1699 2826772
1705.4539 636.29681 2589.645 3155482
1748.2808 646.46008 2631.0081 3419169
1753.4912 642.6571 2615.5305 3156253
1745.6815 634.19073 2581.0735 2432274
1758.9989 633.48004 2578.1809 2168845
1769.4474 631.7572 2571.1694 590336
1795.8313 635.70483 2587.2356 1313282
1813.5819 636.55536 2590.6973 1115904
1805.3011 628.33148 2557.2271 1181696
1818.9628 627.81787 2555.1367 1642245
1808.9425 619.20636 2520.0891 1839624
1832.3654 622.0899 2531.8247 2102796
1828.5391 615.75049 2506.0242 1708039
1862.818 622.2417 2532.4424 1971210
1888.5623 625.80109 2546.9285 1905417
1889.1947 621.04871 2527.5872 1576452
1903.6992 620.89563 2526.9641 1050113
1934.1263 625.89758 2547.3213 1510659
1927.7388 619.00085 2519.2524 2102796
1989.6888 633.9848 2580.2351 2168589
1991.9335 629.86102 2563.4521 1576451
1992.7742 625.35913 2545.1299 1379073
2009.7538 625.95142 2547.5405 1379074
2007.9125 620.71667 2526.2358 1708038
2025.3489 621.47473 2529.321 1708038
2015.212 613.82294 2498.1792 1971210
2035.0658 615.35114 2504.3987 2497554
2055.7522 617.10724 2511.5457 2168589
2074.8369 618.36066 2516.647 2102796
2084.4014 616.77911 2510.2104 2365968
2115.4692 621.53778 2529.5776 2037003
2122.8357 619.31494 2520.531 1115904
2147.7095 622.19513 2532.2527 1773574
2141.708 616.15265 2507.6606 1313281
2150.6121 614.45209 2500.7397 1773831
2152.6711 610.83252 2486.0085 1774087
2134.0522 601.43463 2447.7603 1970697
2121.126 593.75696 2416.5132 2102540
2128.9358 591.94794 2409.1509 2760727
2156.5217 595.62506 2424.1162 2037003
2203.8335 604.66577 2460.9106 1904645
2215.325 603.82428 2457.4858 2167819
2223.6208 602.12836 2450.5837 1773061
2230.3457 600.0318 2442.051 1838854
2244.1775 599.86194 2441.3596 1838597
2270.3618 602.97485 2454.0291 1772804
2278.9814 601.41302 2447.6724 2167562
2298.0393 602.60803 2452.5359 1838854
2315.3269 603.32678 2455.4612 1773062
2317.085 600.01514 2441.9832 1445125
2345.9878 603.73022 2457.103 1181698
0 0 0 0
0 0 0 0
0 0 0 0
0 0 0 0
0 0 0 0
0 0 0 0
0 0 0 0
0 0 0 0
-2796.3115 792.6969 3150.2185 5920843
-2706.5188 772.39752 3069.5476 5065532
-2663.2275 765.18402 3040.8809 4670774
-2644.6067 765.00873 3040.1841 4999739
-2632.6184 766.76282 3047.155 5460291
-2605.5781 764.12683 3036.6794 5591880
-2601.8555 768.34009 3053.4231 4275763
0 0 0 0
0 0 0 0
-2552.6394 769.86359 3059.4775 3288611
-2496.1345 758.20551 3013.1479 4604470
-2482.2397 759.41583 3017.9578 4341553
-2453.2542 755.99323 3004.3562 5591620
-2378.543 738.3269 2934.1492 5657156
-2353.6548 735.97986 2924.822 5591365
-2362.3452 744.17596 2957.3936 4078124
-2319.0225 735.987 2924.8503 4341552
-2318.8523 741.47321 2946.6528 4472881
-2321.6863 748.0105 2972.6323 4867382
-2234.7771 725.51294 2883.2258 4801589
-2251.8826 736.6969 2927.6714 5261884
-2251.032 742.13458 2949.2812 4407089
-2282.4121 758.36658 3013.7881 4998968
-2256.8589 755.78833 3003.5417 5723204
-2235.3169 754.52313 2998.5139 4538672
-2225.3489 757.1756 3009.0549 6841427
-2172.3601 745.11499 2961.1255 5065272
-2153.833 744.77448 2959.7722 5525565
-2143.8123 747.39392 2970.1821 4735793
-2127.1526 747.72302 2971.49 4867121
-2118.7253 750.97565 2984.416 4340264
-2084.4685 745.05078 2960.8704 4472364
-2062.1711 743.33618 2954.0564 6381130
-2051.5103 745.82275 2963.9382 5327930
-2027.7928 743.56451 2954.9639 4669999
-2010.6074 743.68304 2955.4348 4011812
-2005.0872 748.15625 2973.2117 5591615
-2013.9633 758.12811 3012.8403 4539183
-1986.9901 754.66266 2999.0684 4407082
-1952.9093 748.41077 2974.2231 4143654
-1933.812 747.83954 2971.9529 5525307
-1971.3544 769.36249 3057.4863 5196084
-1950.6046 768.32404 3053.3594 6776144
-1925.1615 765.40009 3041.7395 4538928
-1906.6958 765.22113 3041.0283 5328443
-1879.1692 761.36774 3025.7148 5394239
-1853.9155 758.36987 3013.801 4933688
-1856.1643 766.67328 3046.7993 3880999
-1816.746 757.76062 3011.3799 4604723
-1808.0621 761.61755 3026.7075 4472881
-1764.9325 750.89667 2984.1023 5525826
-1731.201 743.99786 2956.6858 1775885
-1760.9929 764.53656 3038.3076 4670517
-1716.6447 752.97913 2992.3779 4473138
-1687.8857 748.08984 2972.9478 4407088
-1659.0977 743.08447 2953.0562 5197118
-1642.9285 743.68445 2955.4404 4341809
-1620.9252 741.62799 2947.2681 2762777
-1606.3336 742.95483 2952.5408 1183238
-1584.6207 740.9809 2944.6963 3157024
-1564.9419 739.92474 2940.4993 3486246
-1539.6888 736.1795 2925.6155 3815208
-1497.6473 724.23053 2878.1296 4275759
-1523.662 745.29584 2961.8442 4538931
-1483.71 734.20868 2917.7832 3814438
-1483.0988 742.55719 2950.9607 3814437
-1455.8486 737.60822 2931.2932 2893078
-1445.521 741.2171 2945.635 1643013
-1406.1722 729.85114 2900.4663 3550497
-1423.0513 747.74927 2971.5942 3156252
-1407.6927 748.94415 2976.3428 2169613
-1401.9956 755.37482 3001.8984 1643016
-1381.6124 753.9563 2996.2615 1840393
-1341.2954 741.48138 2946.6853 2762008
-1318.0875 738.26019 2933.884 3288351
-1309.8599 743.45551 2954.5305 3683367
-1288.3671 741.16046 2945.4099 3288608
-1254.7692 731.74304 2907.9849 5460292
-1210.2773 715.62207 2843.9189 3486501
-1213.801 727.83765 2892.4644 2828315
-1200.6361 730.25269 2902.062 1972237
-1189.3813 733.91663 2916.6226 2301199
-1165.1399 729.55682 2899.2966 3814438
-1155.9303 734.61981 2919.417 3419681
-1128.3054 727.95538 2892.9321 3880229
-1099.4336 720.26849 2862.3843 3090968
-1087.899 723.87677 2876.7236 3288346
-1073.6277 725.74994 2884.1677 4340778
-1071.774 736.2135 2925.7505 4538672
-1056.0975 737.37 2930.3464 4473137
-1051.1085 746.15173 2965.2456 5065276
-1042.8831 752.89563 2992.0461 591874
-1015.1593 745.5528 2962.8652 394752
-986.73901 737.43091 2930.5886 1841169
-965.69495 734.62952 2919.4556 3815216
-949.87311 735.771 2923.9919 722945
-932.58441 735.79761 2924.0977 1446667
-921.90918 741.14191 2945.3362 591619
-900.83606 738.17206 2933.5339 1643786
-875.97339 731.91901 2908.6838 2499352
-852.32373 726.44885 2886.9453 4012333
-826.0863 718.50397 2855.3718 2564887
-813.77039 722.5885 2871.604 2828059
-796.25092 722.1283 2869.7751 3288867
-785.31781 727.75159 2892.1223 5920586
-757.67969 717.79993 2852.574 6447188
-742.02832 719.00916 2857.3794 2697502
-702.76526 696.86145 2769.3635 5328967
-711.69928 722.5896 2871.6084 2039319
-693.05054 720.88715 2864.8428 3750192
-671.43622 715.93713 2845.1711 3486763
-656.48566 718.02057 2853.4509 4210488
-640.04083 718.53662 2855.5017 3091490
-623.14478 718.5603 2855.5959 3485991
-597.73737 708.49689 2815.6033 3749162
-579.17511 706.20209 2806.4836 3946541
-566.797 711.5351 2827.6772 3683627
-545.68005 705.88837 2805.2368 3025697
-521.99249 696.45715 2767.7566 4144176
-509.82919 702.28882 2790.9319 4538677
-484.44269 689.68591 2740.8474 4341298
-474.03455 698.27264 2774.9714 4078127
-454.91202 694.17859 2758.7014 4604471
-438.03156 693.32806 2755.3215 3288611
-424.49359 697.9071 2773.519 3420196
-409.02127 699.54669 2780.0347 4012331
-393.93259 702.00751 2789.814 4341295
-373.75043 695.20953 2762.7986 3420451
-356.0907 692.69568 2752.8083 3222817
-340.44601 694.0484 2758.1843 4275506
-325.02246 696.01117 2765.9844 4670517
-308.43124 695.54913 2764.1482 4209967
-297.69363 708.97595 2817.5071 2959900
-283.01434 714.05298 2837.6833 5788485
-266.9173 715.96814 2845.2944 5920324
-247.84897 709.6344 2820.1238 5591103
-231.05267 709.36041 2819.0349 3946795
-211.11464 698.64667 2776.458 3486246
-192.07149 689.33411 2739.4495 3090973
-175.02661 686.13623 2726.741 3748647
-158.28391 683.59302 2716.634 2564373
-142.10126 683.16663 2714.9395 2958616
-126.78187 687.31134 2731.4106 2826773
-110.09077 684.14447 2718.8254 3616546
-95.729012 696.84821 2769.3108 3748391
-78.969215 693.74036 2756.96 853760
-62.497787 692.20551 2750.8606 2103310
-46.267628 693.20288 2754.824 1445124
-29.943787 693.11853 2754.489 1247748
-13.539729 688.75195 2737.1357 1313796
2.6820552 690.39264 2743.656 2629912
18.998512 692.66833 2752.6997 3353636
35.220982 690.9978 2746.061 1708814
51.493752 691.05798 2746.3 1183499
67.148918 684.79083 2721.3943 985601
82.142357 675.50873 2684.5066 1314312
99.736328 687.15472 2730.7886 2893335
116.15843 688.60297 2736.5437 3814179
132.84637 691.07935 2746.385 2432526
148.65927 688.9599 2737.9624 2498066
164.3714 686.83649 2729.5237 2366994
181.06064 688.81055 2737.3689 3353374
198.15384 691.87073 2749.53 2958359
214.9232 693.42102 2755.6909 3484703
230.00877 689.70349 2740.9172 2629394
248.14726 695.02704 2762.0732 3353117
263.75705 693.04742 2754.2063 2497810
279.44748 691.49817 2748.0496 3089946
296.28113 692.7926 2753.1936 2695446
306.9718 680.33734 2703.6958 3418912
320.39334 674.86969 2681.967 2826519
342.70486 687.75964 2733.1924 2497554
359.2066 688.35309 2735.5508 3681826
371.82547 681.7757 2709.4119 2958103
385.12683 676.94238 2690.2039 2365966
398.73117 673.00446 2674.5544 2563603
419.82501 681.52582 2708.4187 1182210
431.02774 673.95398 2678.3279 2761240
444.99838 671.09406 2666.9626 2431762
464.24872 676.11951 2686.9338 1445898
480.37399 676.41138 2688.0938 1641988
493.51016 672.6106 2672.9893 2365709
518.50122 684.70105 2721.0374 1840139
528.74622 677.17676 2691.1353 2629138
541.92639 673.742 2677.4856 2826261
548.48419 662.5036 2632.8235 2497552
574.09369 674.26251 2679.5542 3023896
578.37256 661.01044 2626.8896 3155481
0 0 0 0
0 0 0 0
0 0 0 0
0 0 0 0
0 0 0 0
0 0 0 0
0 0 0 0
0 0 0 0
0 0 0 0
0 0 0 0
0 0 0 0
0 0 0 0
0 0 0 0
0 0 0 0
0 0 0 0
0 0 0 0
0 0 0 0
0 0 0 0
341.98273 258.62662 1027.7955 1775895
346.66574 257.582 1023.6442 592136
351.68927 256.82196 1020.6238 3
355.56342 255.26248 1014.4263 5
359.59009 253.86253 1008.8628 9
363.73465 252.59019 1003.8065 10
367.35583 251.00121 997.49176 10
371.07187 249.52631 991.63043 10
374.50964 247.91316 985.21973 10
378.76065 246.87964 981.11243 11
383.77722 246.36879 979.08228 11
394.10855 249.23419 990.46954 11
397.4512 247.66072 984.21655 11
401.01218 246.26686 978.67725 11
401.95251 243.32628 966.99121 11
405.8219 242.21655 962.58112 12
410.65292 241.7036 960.5426 11
415.63644 241.29318 958.91156 11
415.28348 237.83757 945.17883 11
420.42493 237.57877 944.15027 11
424.19611 236.56258 940.11188 9
429.43304 236.37956 939.38458 9
433.70862 235.67882 936.59979 9
435.34296 233.57863 928.25354 9
439.96646 233.11467 926.40973 7
444.04486 232.37688 923.47766 65539
447.13843 231.1479 918.59369 196608
0 0 0 0
0 0 0 0
0 0 0 0
1301.4647 641.55859 2549.5869 2234377
1329.8971 648.05328 2575.3972 2957844
1351.2365 650.9834 2587.0417 4340010
1376.7112 655.81781 2606.2539 3287065
1384.597 652.25922 2592.1118 2760721
1406.5587 655.33679 2604.3423 3287322
1412.8564 651.12872 2587.6191 3944996
1425.1471 649.74323 2582.113 1839882
1446.1863 652.33331 2592.4062 2760723
1459.0577 651.22351 2587.9958 1379073
1477.6384 652.65839 2593.6982 1379073
1501.9935 656.58813 2609.3152 656128
1501.671 649.75995 2582.1797 1181184
1517.9248 650.16962 2583.8076 787200
1522.6569 645.68524 2565.9866 1050112
1534.6324 644.33081 2560.604 3484189
1555.5637 646.72626 2570.1235 4405548
1564.0742 643.96136 2559.1357 3221271
1568.9741 639.77722 2542.5078 3221014
1598.5787 645.65076 2565.8494 4207653
1612.1952 645.01685 2563.3303 3944483
1631.6482 646.70819 2570.0518 2102282
1645.5344 646.18225 2567.9617 2628623
1664.356 647.58624 2573.5413 5391928
1682.3981 648.66425 2577.8252 2760208
1693.9182 647.23077 2572.1287 2957586
1713.4921 648.8728 2578.6541 2760209
1725.3213 647.57886 2573.512 2168587
1742.8235 648.41827 2576.8477 3484190
1736.1364 640.32159 2544.6711 1773574
1738.7377 635.7605 2526.5452 787200
1780.9814 645.64874 2565.8416 1313283
1782.9575 640.89514 2546.9504 1182471
1795.2155 639.88611 2542.9404 655616
1811.4012 640.28229 2544.5149 1379331
1803.0997 632.08777 2511.9495 1313538
1817.3082 631.85382 2511.0198 2102797
1831.8713 631.74597 2510.5911 2563347
1836.5873 628.2713 2496.7825 2037003
1864.5114 632.72784 2514.4932 1905160
1867.5958 628.75116 2498.6897 1971210
1884.3275 629.39551 2501.2502 1708297
1896.2919 628.44977 2497.4919 328192
1915.8475 630.01508 2503.7124 2168589
1926.9902 628.81104 2498.9275 1510658
1947.8738 630.77966 2506.751 1247488
1964.2683 631.27588 2508.7229 1642246
1986.2903 633.55963 2517.7986 1247488
1975.1382 625.30664 2485.001 1181696
1988.7913 624.97089 2483.6665 1247233
2006.9625 626.04944 2487.9526 1313281
2016.0785 624.30804 2481.0325 1247488
2032.2919 624.77393 2482.8838 1313281
2043.5262 623.71332 2478.6689 1642246
2060.3914 624.37421 2481.2954 1773830
2087.3892 628.07458 2496.0007 1905417
2101.3511 627.82806 2495.0212 1115648
2109.2258 625.77905 2486.8784 1379074
2104.7063 620.10681 2464.3364 655616
2110.1416 617.42548 2453.6807 1642244
2121.8591 616.60638 2450.4255 1050112
2121.8728 612.42041 2433.7903 1247489
2126.3513 609.57092 2422.4663 1247745
2136.0481 608.24554 2417.1992 2300175
2158.2942 610.48749 2426.1089 1905160
2179.1782 612.31702 2433.3794 1904647
2192.4128 611.9873 2432.0691 1904647
2202.6663 610.83508 2427.4902 1773061
2210.5215 609.03717 2420.3452 1707012
2223.2708 608.60211 2418.6162 1575939
2235.8728 608.13251 2416.75 1576195
2254.521 609.30292 2421.4014 1510403
2267.4282 608.91681 2419.8669 1839110
2273.9504 606.83167 2411.5806 1576453
2283.3357 605.5318 2406.4148 1773832
2304.0879 607.2439 2413.2185 1708039
0 0 0 0
0 0 0 0
0 0 0 0
0 0 0 0
0 0 0 0
0 0 0 0
0 0 0 0
-2670.5718 769.7384 2988.6187 4802105
-2631.8425 763.63824 2964.9338 4933435
-2611.7839 762.90985 2962.1057 4867385
-2601.3491 765.00177 2970.228 4999482
-2544.5652 753.39899 2925.1785 5131068
-2517.5664 750.51642 2913.9866 4999482
-2511.2476 753.80157 2926.7417 4867895
-2521.4375 762.12231 2959.0481 5789257
0 0 0 0
0 0 0 0
0 0 0 0
-2386.2605 741.89606 2880.5166 5393986
-2373.4268 743.22089 2885.6606 4538677
-2397.437 756.18622 2936.0002 5460035
-2378.0239 755.54456 2933.509 4604214
-2359.2388 755.09448 2931.7615 4078639
-2335.0383 752.89154 2923.2083 4604210
-2290.3215 743.99115 2888.6514 4735797
-2283.0642 747.21686 2901.1755 3551265
-2265.1707 746.98395 2900.2712 4538160
-2236.1096 743.03656 2884.9451 4538159
-2234.3992 748.18677 2904.9414 5261882
-2233.3643 753.6449 2926.1333 4538159
-2205.3523 750.01373 2912.0349 5525054
-2220.9282 761.26605 2955.7234 5130296
-2201.6072 760.64044 2953.2944 4669746
-2195.0273 764.44214 2968.0552 3946024
-2145.5034 753.22876 2924.5176 3288092
-2122.1797 751.10577 2916.2747 3880229
-2108.3535 752.33698 2921.0552 4538158
-2068.7888 744.32819 2889.96 2498577
-2033.9667 737.90631 2865.0259 4866611
-2052.5674 750.92078 2915.5564 4011812
-2015.8074 743.7309 2887.6406 4866608
-2008.0822 747.22192 2901.1951 5722174
-1997.7015 749.77649 2911.1138 4143655
-1966.3986 744.45477 2890.4514 3617311
-2020.1238 771.51294 2995.5085 4209450
-2000.2291 770.68512 2992.2942 5327674
-1948.2175 757.35718 2940.5469 4406314
-1914.3234 750.89532 2915.4578 4340778
-1911.1382 756.47119 2937.1067 4340522
-1935.983 773.34637 3002.627 5130038
-1907.9015 769.19647 2986.5144 3419419
-1882.1239 765.90643 2973.7405 3485212
-1858.269 763.34412 2963.7917 3484955
-1827.6769 757.9389 2942.8054 3682850
-1812.604 758.92743 2946.6433 2629905
-1798.1199 760.18402 2951.5225 3946022
-1773.5297 757.15094 2939.7458 2565144
-1760.9257 759.22552 2947.8008 6512719
-1707.2777 743.46826 2886.6211 5657411
-1681.1388 739.49261 2871.1851 3749415
-1697.7025 754.41168 2929.1106 3223071
-1667.3116 748.55804 2906.3828 4604724
-1662.7676 754.3075 2928.7061 4802102
-1635.3025 749.67072 2910.7029 4670774
-1622.3446 751.65631 2918.4124 4012844
-1615.2605 756.43549 2936.968 3749671
-1592.9585 754.1145 2927.9565 2762519
-1568.46 750.6911 2914.6648 2827799
-1527.6562 739.30072 2870.4399 4077609
-1491.5223 729.93921 2834.0928 4867125
-1486.6414 735.83368 2856.9788 4736051
-1462.3485 732.14508 2842.6572 5130552
-1456.4128 737.66833 2864.1021 5524797
-1458.3939 747.37891 2901.8047 4012069
-1417.8854 735.28687 2854.8557 2104333
-1401.2349 735.4245 2855.3901 3485982
-1412.5493 750.42212 2913.6204 2564626
-1392.1213 748.71875 2907.0068 2038544
-1375.6931 749.15088 2908.6846 4078380
-1342.8937 740.5658 2875.3518 3157277
-1358.3564 758.71716 2945.8269 3683367
-1328.8585 751.90106 2919.3625 3683109
-1284.0448 736.12494 2858.1096 5064763
-1255.1246 729.16058 2831.0693 5130815
-1236.6969 728.18555 2827.2837 4012077
-1222.0387 729.43384 2832.1304 5985608
-1208.4122 731.34131 2839.5364 4077355
-1165.3322 715.22534 2776.9639 2695959
-1148.0231 714.69141 2774.8909 2169615
-1169.3934 738.57129 2867.6079 2630166
-1164.459 746.29651 2897.6023 2695960
-1134.851 738.20325 2866.179 1972236
-1110.8687 733.5791 2848.2249 3024922
-1090.516 731.24615 2839.167 2762263
-1081.0757 736.27203 2858.6807 1643785
-1064.876 736.78113 2860.6572 1314564
-1044.8971 734.64954 2852.3811 3551523
-1033.0999 738.29492 2866.5347 2827801
-1034.6494 751.75952 2918.8132 2762266
-1012.3506 748.05975 2904.448 4012592
-996.47571 749.06073 2908.3347 3092005
-974.27325 745.2569 2893.5657 2763040
-959.83276 747.36047 2901.7332 2894882
-942.7041 747.40955 2901.9236 2236952
-923.58435 745.85248 2895.8782 3157540
-897.41583 738.4364 2867.0842 2565147
-896.15112 751.62164 2918.2776 2236183
-872.74194 746.38708 2897.9539 2630941
-845.13818 737.2832 2862.6067 4078640
-807.09723 718.51489 2789.7361 3025953
-802.50531 729.36224 2831.8523 3354661
-787.46332 730.97229 2838.1038 3947054
-774.72607 734.83875 2853.1157 3815468
-756.28015 733.34216 2847.3049 4736313
-727.14313 721.17395 2800.0601 5263169
-699.44208 709.89496 2756.2678 4671291
-681.78918 708.51886 2750.925 4144948
-679.22742 723.14227 2807.7026 3881778
-671.92169 733.32245 2847.2285 1710608
-649.48322 727.08588 2823.0142 5789004
-618.97083 711.24225 2761.499 2170644
-596.61713 704.16785 2734.0315 4736314
-581.28455 705.21661 2738.1035 4670263
-566.92529 707.54022 2747.1252 2959645
-548.39612 704.64331 2735.8777 4209198
-520.07831 688.60925 2673.623 4274990
-503.42224 687.49359 2669.2915 4012074
-491.17737 692.52515 2688.8271 3485732
-470.97122 686.29285 2664.6294 4078382
-459.8566 693.33582 2691.9746 4275506
-443.9924 693.46643 2692.4819 5262401
-416.21637 674.30865 2618.0991 4143919
-417.86172 703.17804 2730.1885 4341298
-402.35934 704.35413 2734.7549 3880747
-388.89279 709.34235 2754.1223 4867899
-365.39145 695.66241 2701.0081 4012589
-346.27182 689.4538 2676.9021 3617829
-330.2059 689.02106 2675.2222 5460033
-317.92892 696.84961 2705.6174 5657668
-304.03915 701.78668 2724.7864 1973008
-283.48361 691.02863 2683.0168 1249030
-265.88104 686.61853 2665.8938 787968
-255.15594 700.53339 2719.9204 2037772
-244.16513 715.54572 2778.2078 1905675
-225.315 708.03101 2749.0308 2037518
-206.26717 698.67554 2712.707 2301203
-187.92343 690.32562 2680.2874 5064764
-170.89883 685.72748 2662.4343 2893596
-154.27029 681.94495 2647.748 3156510
-137.98784 679.00928 2636.3499 3550497
-123.01677 682.60077 2650.2944 3221787
-107.84813 685.98669 2663.4407 3484703
-92.732941 690.93127 2682.6387 4932406
-78.110718 702.35376 2726.9883 3287838
-61.790825 700.48785 2719.7437 2564116
-44.673424 685.07562 2659.9033 2761753
-29.277952 693.66162 2693.2397 4011819
-13.267416 690.78888 2682.0859 3222560
2.6411874 695.87909 2701.8494 3485731
18.871311 704.22913 2734.2695 2498324
35.031658 703.46436 2731.3 3551012
50.150375 688.87482 2674.6543 3551270
66.243439 691.46155 2684.6975 3551268
81.026939 682.02362 2648.0535 1511687
97.581589 688.13745 2671.7915 3353372
113.87196 690.94122 2682.6772 3681822
129.38203 688.90344 2674.7654 2300426
144.16418 683.85736 2655.1733 1576964
158.9234 679.70605 2639.0552 3024409
175.45345 683.19379 2652.5967 3616548
192.75281 688.85736 2674.5864 3287844
210.04802 693.64691 2693.1826 985347
226.01247 693.67584 2693.2949 1577226
240.96747 690.80707 2682.1565 1116932
257.34152 692.10968 2687.2141 4274478
276.31879 699.85394 2717.2822 2761238
287.01895 686.93555 2667.1248 3879205
303.30188 688.02954 2671.3723 2497553
320.11859 690.16595 2679.6672 2102795
336.40646 691.01416 2682.9604 2431759
356.03278 698.3338 2711.3801 2826260
366.0567 687.00024 2667.376 3090202
382.40125 687.97614 2671.165 2563858
393.15872 679.22217 2637.1765 3024154
409.82486 680.95508 2643.9048 3484962
428.28091 685.42493 2661.2595 2169103
446.73938 689.58112 2677.3965 1314569
459.0799 684.33258 2657.0183 2103567
475.17142 684.83801 2658.9807 788741
480.95261 670.92822 2604.9741 1510915
501.92206 678.41217 2634.0315 721920
516.7525 677.39734 2630.0913 1774090
533.50409 678.8866 2635.8735 2234383
540.66479 668.43378 2595.2891 2103309
553.03857 664.82581 2581.2805 2432273
553.57538 647.56525 2514.2642 4011307
0 0 0 0
0 0 0 0
0 0 0 0
0 0 0 0
0 0 0 0
0 0 0 0
0 0 0 0
0 0 0 0
0 0 0 0
0 0 0 0
0 0 0 0
0 0 0 0
0 0 0 0
0 0 0 0
0 0 0 0
0 0 0 0
0 0 0 0
0 0 0 0
0 0 0 0
0 0 0 0
0 0 0 0
356.29721 261.81137 1016.5198 2368028
360.18817 260.27142 1010.5407 1644567
363.62122 258.45633 1003.4934 1250068
366.81461 256.53204 996.02209 197638
371.55893 255.73619 992.93201 7
375.53384 254.44379 987.91412 10
380.08109 253.57289 984.53278 10
384.9119 252.91466 981.97705 11
390.022 252.4568 980.19934 11
393.31766 250.85512 973.98059 11
398.67386 250.59499 972.97058 11
407.52896 252.51016 980.40662 11
406.72128 248.46855 964.71442 11
410.3978 247.24036 959.9458 11
414.86786 246.5173 957.13843 11
419.4422 245.87485 954.64398 11
423.80475 245.12698 951.7403 11
427.65814 244.10815 947.78455 9
430.3934 242.48575 941.48535 9
434.36176 241.59071 938.01025 9
436.6929 239.81915 931.13196 9
440.91541 239.11755 928.40784 8
444.31198 237.99081 924.03314 65539
448.41519 237.2654 921.21661 131072
0 0 0 0
0 0 0 0
0 0 0 0
1296.6023 654.20953 2540.0613 3945251
1294.1005 645.4563 2506.0757 3024150
1321.1879 651.49237 2529.5117 3024150
1351.1606 658.79993 2557.8843 2958100
1372.9442 661.99683 2570.2966 2299403
1387.1584 661.51379 2568.4214 2366223
1397.6716 659.29553 2559.8083 1379074
1409.7726 657.86572 2554.2571 1444611
1421.3767 656.23694 2547.9331 1510658
1441.6685 658.61121 2557.1516 1773831
1464.936 662.28149 2571.4019 1576710
1474.8965 659.92212 2562.2412 1839625
1479.2905 655.14557 2543.6956 1905933
1508.7939 661.47357 2568.2651 721408
1519.4147 659.47955 2560.5229 590080
1513.1968 650.28857 2524.8376 2037002
1530.4978 651.28577 2528.7092 2760725
1549.4326 652.95203 2535.179 2826259
1549.0081 646.50647 2510.1531 3286552
1561.132 645.37091 2505.7441 2628622
1589.0417 650.72113 2526.5171 3483931
1589.7123 644.92108 2503.9976 2497036
1604.8368 645.03772 2504.4504 2826001
1623.4344 646.53546 2510.2656 3352347
1637.4653 646.2038 2508.9778 1575936
1655.2286 647.33777 2513.3806 3023380
1699.2097 658.61353 2557.1604 3154968
1708.6304 656.41272 2548.6155 2760724
1717.0513 653.86975 2538.7422 722176
1730.1976 653.15497 2535.9668 1971212
1738.8772 650.78058 2526.748 3484706
1771.6768 657.39679 2552.4363 1774091
1782.3818 655.77197 2546.1279 1642504
1784.3477 650.98615 2527.5461 393216
1786.9077 646.49493 2510.1084 458752
1788.4799 641.72333 2491.582 655360
1799.1936 640.28314 2485.9902 787200
1805.071 637.15924 2473.8611 590080
1826.3508 639.47864 2482.8665 2103054
1842.8748 640.10901 2485.314 1708295
1836.9979 633.01031 2457.7524 1642502
1856.3878 634.66144 2464.1631 1576710
1841.1115 624.52759 2424.8169 2958105
1878.9351 632.42334 2455.4734 1708038
1877.3066 627.02081 2434.4973 2234383
1886.6432 625.33508 2427.9521 1642246
1920.512 631.74463 2452.8381 2234382
1932.6444 630.96155 2449.7976 2102026
1936.5944 627.53857 2436.5076 2168332
1933.1788 621.79724 2414.2161 2299918
1956.059 624.53601 2424.8496 1970953
1972.3441 625.14447 2427.2122 1642245
1988.2488 625.62445 2429.0757 1181696
2004.7576 626.28619 2431.645 1247488
2027.7816 628.95935 2442.0239 1115904
2046.2531 630.19263 2446.8123 1379074
2064.9431 631.47534 2451.7927 1115904
2079.0386 631.34491 2451.2861 458752
2086.4871 629.21179 2443.0042 918528
2087.8271 625.27869 2427.7332 786944
2094.8713 623.09607 2419.2588 1379331
2105.3264 621.95062 2414.8115 1247489
2104.2708 617.44318 2397.3108 1115904
2107.292 614.18433 2384.658 1510659
2137.5774 618.86243 2402.8213 1641989
2146.123 617.22626 2396.4685 1970183
2154.3843 615.53027 2389.8835 1904390
2159.4822 612.95856 2379.8984 1509889
2165.3008 610.62341 2370.832 2102026
2176.4712 609.81787 2367.7043 1575682
2209.6809 615.1582 2388.4392 1576452
2210.4402 611.45416 2374.0576 1905417
2213.1265 608.3266 2361.9146 1247232
2236.3389 610.84497 2371.6924 1510659
2247.0474 609.93787 2368.1704 1642245
2262.6394 610.35938 2369.8069 1708039
0 0 0 0
0 0 0 0
0 0 0 0
0 0 0 0
0 0 0 0
0 0 0 0
0 0 0 0
0 0 0 0
-2592.2681 769.45642 2920.3508 4012333
-2529.679 755.92322 2868.9878 4341298
-2520.2751 758.20746 2877.6572 4603956
-2500.168 757.28094 2874.1406 5459774
-2470.0142 753.27765 2858.9468 4736307
-2437.0066 748.34277 2840.2173 5196859
-2420.0835 748.31274 2840.1035 4670517
0 0 0 0
0 0 0 0
0 0 0 0
-2360.054 750.62573 2848.8818 4670519
-2323.6045 744.3559 2825.0857 5065020
-2316.8223 747.56775 2837.2759 5459779
-2317.8279 753.35797 2859.2517 4407348
-2308.3191 755.79065 2868.4846 3551525
-2320.0347 765.26038 2904.4255 3288863
-2259.8672 750.98383 2850.2412 4736054
-2251.8757 753.96173 2861.5432 4670774
-2225.106 750.64978 2848.9731 5130809
-2118.3892 720.1106 2733.0667 6512460
-2196.1604 752.29755 2855.2271 5262135
-2191.782 756.62537 2871.6526 3485980
-2171.5896 755.51892 2867.4534 4143399
-2153.3767 755.08923 2865.8225 3748386
-2141.2644 756.8089 2872.3491 4603439
-2139.5095 762.24615 2892.9854 1971466
-2127.7163 764.16595 2900.2717 2432528
-2083.7307 754.46106 2863.4385 2761237
-2046.0652 746.90405 2834.7568 2827543
-2036.5048 749.56641 2844.8613 4143145
-2024.2091 751.258 2851.2815 3682082
-1988.6987 744.28967 2824.8345 3748386
-1978.1932 746.64093 2833.7583 4472108
-1971.2769 750.39862 2848.02 5130296
-1972.3811 757.30084 2874.2163 4735280
-1932.772 748.55505 2841.0229 3024662
-1865.5652 728.87323 2766.3237 3353884
-1879.7457 740.92224 2812.054 4208936
-1893.5009 753.01764 2857.96 5524796
-1878.5413 753.80878 2860.9626 3945765
-1872.9495 758.40765 2878.417 985345
-1842.0039 752.73022 2856.8691 2761488
-1823.2883 751.99164 2854.0662 3551007
-1821.8784 758.44348 2878.553 3419421
-1838.4825 772.58734 2932.2339 2629905
-1817.5168 771.06244 2926.4463 2432528
-1766.8439 756.78369 2872.2537 3814439
-1769.1665 765.1474 2903.9968 4472111
-1718.6987 750.61993 2848.8599 4407344
-1723.4319 760.15161 2885.0359 5328446
-1670.9917 744.40424 2825.2693 5920583
-1640.0404 738.00812 2800.9939 4143916
-1632.7664 742.24481 2817.0735 4802103
-1634.2582 750.59509 2848.7656 3354657
-1627.0016 755.05957 2865.71 4999481
-1596.6338 748.77966 2841.8755 5328447
-1598.3586 757.57703 2875.2644 5788997
-1585.8287 759.73462 2883.4534 4802101
-1549.4639 750.39618 2848.0107 1907210
-1529.4937 748.87933 2842.2539 3025434
-1466.3823 725.97058 2755.3074 5327678
-1449.6318 725.75659 2754.4951 3946025
-1447.2521 732.81439 2781.2817 2828056
-1428.6824 731.74249 2777.2136 5657410
-1381.3235 715.72864 2716.4355 5657411
-1415.354 742.00604 2816.1672 5789254
-1390.5365 737.69092 2799.7898 2894107
-1376.3208 738.96381 2804.6211 4604982
-1362.2426 740.34271 2809.8542 6052943
-1355.9161 746.02057 2831.4038 4013102
-1343.2386 748.30261 2840.0649 7368028
-1331.8905 751.39246 2851.792 3683109
-1320.7449 754.67749 2864.2598 4604212
-1286.0544 744.41931 2825.3267 3485732
-1267.9446 743.61469 2822.2727 4143405
-1253.3998 744.90735 2827.1787 2235408
-1208.8708 728.17383 2763.6692 1643272
-1184.9297 723.55225 2746.1287 5130554
-1199.1594 742.43469 2817.7942 4538417
-1162.3755 729.82031 2769.9182 3748644
-1142.9769 727.91681 2762.6938 3024922
-1149.6653 742.81311 2819.2302 2762264
-1128.8668 740.12708 2809.0359 4340523
-1111.9091 739.9165 2808.2368 3617570
-1094.5486 739.42749 2806.3809 2565139
-1063.9758 729.86017 2770.0696 4802101
-1066.0824 742.76141 2819.0342 4012585
-1049.896 743.12537 2820.4155 3157276
-1025.0305 737.25861 2798.1492 3881000
-1020.1122 745.78192 2830.498 1446664
-1013.5103 753.33875 2859.1787 1249540
-1002.48 757.80487 2876.1294 2499609
-982.90155 755.85187 2868.717 2565657
-962.28198 753.0155 2857.9519 3157284
-949.81702 756.57306 2871.4541 3025951
0 0 0 0
-905.35089 747.94495 2838.7075 2959905
-891.23169 750.216 2847.3269 3288870
-874.0127 749.91504 2846.1846 2367511
-855.0174 748.04816 2839.0991 3091491
-835.42834 745.57648 2829.7183 3288868
-796.63031 725.50946 2753.5571 4538935
-783.09821 728.09467 2763.3689 2894111
-772.25671 733.34546 2783.2974 3420710
-750.40851 728.14514 2763.5603 3355173
-728.35706 722.51123 2742.1777 5460293
-712.02515 722.42328 2741.844 4802362
-700.4646 727.2854 2760.2974 4999743
-663.89111 705.78845 2678.709 5525831
-661.61542 720.59375 2734.9004 3617836
-647.51941 722.94525 2743.8252 3551785
-621.7807 712.08429 2702.604 3815214
-601.01556 706.49554 2681.3928 2762780
-582.87488 703.77216 2671.0566 3880491
-566.43286 703.00519 2668.1455 3617317
-551.38031 703.96796 2671.7998 3617060
-539.13165 708.6734 2689.6584 4077609
-515.28229 697.95215 2648.9678 2629906
-502.29465 701.73181 2663.3127 3221787
-483.32748 697.13202 2645.855 3221788
-469.70352 700.1889 2657.457 2892566
-451.13177 695.82642 2640.8999 2629651
-438.95731 701.37213 2661.9478 2564373
-420.78085 697.38379 2646.8105 2432787
-406.40952 699.63721 2655.363 3683111
-395.7605 708.7381 2689.9041 4209199
-377.82858 705.013 2675.7661 2498837
-360.81635 702.75299 2667.1885 1709063
-341.30103 695.1875 2638.4749 5525313
-325.12634 694.02673 2634.0693 5262141
-312.22141 700.08051 2657.0457 4406319
-296.57227 700.2973 2657.8682 1116933
-281.32315 701.53595 2662.5693 787713
-265.11508 700.38824 2658.2136 1840142
-249.55548 700.91711 2660.2207 1578256
-235.96605 707.42365 2684.9153 985862
-217.62196 699.58612 2655.1692 3025442
-203.20378 704.13116 2672.4192 2959646
-182.01843 684.01367 2596.0664 5986126
-167.52451 687.64948 2609.8655 4078384
-152.4131 689.23236 2615.873 3748904
-137.63013 692.8269 2629.5156 3353887
-121.89269 691.92096 2626.0771 4143404
-107.01002 696.31183 2642.7422 2893339
-91.907448 700.5318 2658.7583 2827804
-76.494629 703.64331 2670.5676 5787973
-60.44474 700.9895 2660.4954 4143405
-44.459213 697.47296 2647.1489 3222046
-28.64839 694.35815 2635.3271 4735284
-12.997363 692.29401 2627.4932 3090715
2.5913072 698.44116 2650.8235 4340782
18.248739 696.66034 2644.0649 3485472
33.668293 691.63806 2625.0034 3090716
49.382572 693.93085 2633.7056 1576965
64.994278 694.02734 2634.0715 2563858
78.994011 680.20599 2581.615 2366733
96.785278 698.22113 2649.9885 3156250
112.54756 698.6131 2651.4761 4406063
127.25986 693.18982 2630.8931 3024664
141.27087 685.54681 2601.8853 2893079
156.98094 686.84155 2606.7991 2432785
174.16985 693.79517 2633.1904 4932404
188.42793 688.8905 2614.5757 3156253
206.00677 695.94952 2641.3669 1774344
222.25958 697.84833 2648.5735 1774860
238.46059 699.34473 2654.2529 1971981
255.59505 703.2243 2668.9773 4274736
268.35269 695.31128 2638.9446 1248259
282.02197 690.50165 2620.6904 985089
297.09256 689.4458 2616.6831 1840139
313.18854 690.75629 2621.6567 1840137
329.87854 693.1911 2630.8977 2432272
348.41721 699.11572 2653.3838 2892567
362.84747 696.64099 2643.9912 3024409
376.36725 692.69531 2629.0161 2761496
383.38245 677.56738 2571.6006 2563860
406.50003 690.96655 2622.4551 4208685
415.86194 680.85822 2584.0903 2959129
432.46777 682.90643 2591.864 2630165
446.35172 680.66351 2583.3513 3353630
469.10272 691.64282 2625.0215 1774345
481.27008 686.81372 2606.6936 2432272
492.72104 681.29437 2585.7456 1774342
507.80893 680.98511 2584.5718 3550754
523.68921 681.72534 2587.3813 2629137
533.15283 674.30804 2559.2302 2432274
542.68616 667.38666 2532.9612 2104336
556.46295 665.91583 2527.3789 4011819
566.67059 660.36298 2506.3037 3024667
580.90021 659.66083 2503.6389 4537647
593.19159 656.84741 2492.9612 3879972
610.37915 659.46057 2502.8789 4077351
625.26611 659.52313 2503.1165 3879717
639.32294 658.7276 2500.0969 4208681
0 0 0 0
0 0 0 0
0 0 0 0
0 0 0 0
0 0 0 0
0 0 0 0
0 0 0 0
0 0 0 0
0 0 0 0
0 0 0 0
0 0 0 0
0 0 0 0
0 0 0 0
0 0 0 0
0 0 0 0
0 0 0 0
0 0 0 0
0 0 0 0
0 0 0 0
0 0 0 0
0 0 0 0
380.3978 259.62161 985.35309 591881
385.75385 259.29803 984.12494 131589
390.85657 258.81631 982.29669 6
395.35098 257.95187 979.01575 9
398.90833 256.50983 973.54279 10
404.43799 256.3591 972.97058 11
410.42081 256.49579 973.48944 11
411.60956 253.67412 962.78021 11
414.38361 251.89322 956.02112 11
417.99619 250.66322 951.35284 11
423.2381 250.43002 950.46783 11
427.57761 249.67601 947.60602 8
432.81171 249.45715 946.77539 9
434.87653 247.44061 939.12189 9
438.88678 246.56793 935.80981 9
442.11023 245.28053 930.92371 8
446.26608 244.53577 928.09705 65540
449.05432 243.06888 922.52966 196608
0 0 0 0
0 0 0 0
1212.8162 633.36072 2403.821 3089171
1234.6908 637.30103 2418.7759 2036484
1271.109 648.57166 2461.5518 4010273
1296.5249 654.03644 2482.2925 4208421
1308.275 652.56226 2476.6975 2169614
1332.373 657.21155 2494.343 4208167
1364.25 665.55377 2526.0046 3155737
1379.9127 665.89062 2527.2832 3221019
1383.7332 660.56696 2507.0781 3682084
1406.8167 664.45459 2521.833 2103310
1422.3069 664.71179 2522.8091 3352865
1422.6995 657.98114 2497.2639 2497812
1430.0037 654.55267 2484.2517 2694934
1454.6425 659.04779 2501.3123 3550759
1467.5459 658.18896 2498.0527 1510918
1488.7225 661.02075 2508.8003 1708040
1499.0792 659.03973 2501.2817 1576454
1491.0317 649.08575 2463.5029 1905418
1505.8329 649.17493 2463.8413 2563347
1497.959 639.58081 2427.4285 2892567
1538.3844 650.5954 2469.2324 2563088
1560.063 653.54895 2480.4421 1378561
1559.9763 647.41443 2457.1597 1510144
1566.208 643.99127 2444.1677 1773316
1596.3302 650.3642 2468.355 2826001
1589.6648 641.76978 2435.7363 2233864
1600.0781 640.16284 2429.6375 3417882
1647.2524 653.16077 2478.969 3352861
1672.8567 657.45184 2495.2551 3681826
1695.8749 660.66028 2507.4321 1905931
1706.2184 658.91809 2500.8201 3418655
1714.0009 656.2254 2490.6003 3089690
1723.4226 654.20099 2482.917 2958105
1752.3251 659.54303 2503.1919 1642503
1758.1893 656.19696 2490.4924 1050112
1771.5331 655.67493 2488.5112 590336
1780.8468 653.68225 2480.9482 393216
1785.8911 650.16785 2467.6099 524288
1795.0126 648.1828 2460.0759 393216
1802.6426 645.6955 2450.6357 459008
1806.149 641.78271 2435.7854 459264
1795.0774 632.79291 2401.666 1840140
1811.7306 633.64111 2404.8853 1839881
1814.0413 629.49902 2389.1646 2037516
1830.5864 630.32239 2392.2896 1971209
1839.124 628.39703 2384.9822 2234380
1857.3569 629.78845 2390.2632 2102280
1885.4761 634.48578 2408.0911 2759953
1902.5797 635.43353 2411.688 2167301
1910.5659 633.34473 2403.7603 2101508
1921.1953 632.15643 2399.2505 1904899
1932.448 631.18933 2395.5798 2233865
1930.4222 625.93085 2375.6221 2694415
1946.2756 626.50372 2377.7964 2365194
1962.9675 627.3363 2380.9563 1905160
1991.8398 632.02197 2398.74 1379077
2012.8977 634.1792 2406.9275 1247489
2028.0007 634.44324 2407.9294 1773575
2046.2798 635.69019 2412.6621 1510659
2051.7251 632.96051 2402.3022 1247488
2063.7754 632.29224 2399.7659 1181696
2069.8513 629.81512 2390.3643 1642245
2085.8 630.35541 2392.4148 1379074
2094.2183 628.62787 2385.8584 1576452
2088.3682 622.66937 2363.2437 1181696
2112.0701 625.54272 2374.1489 1444867
2124.7898 625.14691 2372.6467 1379073
2128.5779 622.14569 2361.2561 1247489
2121.5078 616.03082 2338.0481 1379074
2133.2087 615.41052 2335.6938 1971210
2155.0779 617.71271 2344.4314 1969927
2164.9795 616.57715 2340.1216 1839624
2164.2034 612.43439 2324.3984 1708038
2158.8711 607.06287 2304.0117 1773831
2176.8538 608.27368 2308.6072 2234639
2198.3865 610.45514 2316.8865 1642245
2228.9143 615.09192 2334.4846 1444609
0 0 0 0
0 0 0 0
0 0 0 0
0 0 0 0
0 0 0 0
0 0 0 0
0 0 0 0
0 0 0 0
-2557.7476 776.28015 2881.4612 4801848
-2515.5359 768.59851 2852.9478 4209965
-2457.6218 755.98279 2806.1196 4604981
-2425.7642 751.26483 2788.6072 4999737
-2419.5349 754.47394 2800.519 4801588
-2380.7437 747.50348 2774.6455 5130552
-2350.9155 743.2699 2758.9309 4472365
0 0 0 0
0 0 0 0
0 0 0 0
-2311.1155 751.58801 2789.8069 4340783
-2303.7944 754.60358 2801.0002 4077611
-2263.1675 746.6745 2771.5684 3880747
-2272.2151 755.138 2802.9841 4472884
-2228.0271 745.90387 2768.708 3946795
-2217.8601 748.00696 2776.5144 3552293
-2192.271 744.90118 2764.9861 4341294
-2183.9583 747.66302 2775.2378 4472111
-2145.4773 740.06061 2747.0186 4998708
-2146.3252 746.01178 2769.1084 5525308
-2129.6177 745.90582 2768.7151 5327672
-2106.2717 743.45502 2759.6179 4340521
-2141.5156 761.80804 2827.7424 4077862
-2099.8809 752.88672 2794.6274 4801331
-2111.2742 762.9873 2832.1196 4209452
-2129.2825 775.6593 2879.1567 2169616
-2091.5508 768.06702 2850.9751 1314310
-2060.7454 762.91528 2831.8523 2235151
-2022.9388 755.0658 2802.7161 2761752
-2001.6613 753.30695 2796.1873 2498579
-1973.5991 748.94403 2779.9927 4669490
-1956.9928 748.8916 2779.7981 3683103
-1923.0055 742.13055 2754.7019 5854273
-1936.1584 753.60199 2797.2825 4867378
-1948.0472 764.77521 2838.7561 4143399
-1909.5677 756.19696 2806.9146 3485470
-1864.1526 744.69727 2764.2292 3880228
-1867.2552 752.54761 2793.3687 3880228
-1850.5366 752.47845 2793.1121 2695441
-1817.8308 745.84857 2768.5027 2629905
-1840.4919 762.02161 2828.5352 3156249
-1799.7261 751.98975 2791.2981 4142887
-1824.7628 769.52155 2856.374 3024663
-1796.6969 764.77795 2838.7664 4406316
-1777.7518 763.86377 2835.373 1971977
-1758.9283 762.98492 2832.1108 2959128
-1718.7323 752.72888 2794.0415 4603955
-1683.5793 744.50354 2763.51 3090714
-1663.1515 742.6922 2756.7866 3157280
-1675.8149 755.76862 2805.3247 3815209
-1646.8036 750.12402 2784.3728 2828570
-1620.3075 745.52252 2767.2925 4604724
-1599.5618 743.49982 2759.7844 3025692
-1585.5228 744.58496 2763.8123 4012587
-1583.9537 751.60986 2789.8879 3486243
-1556.1085 746.18304 2769.7441 5591619
-1567.8115 759.80664 2820.3135 3946793
-1560.8708 764.59131 2838.0735 1709576
-1531.2327 758.24072 2814.5007 5130297
-1480.6471 741.26318 2751.4824 3748645
-1459.5563 738.83826 2742.4812 3682852
-1449.6467 742.08252 2754.5234 1972237
-1436.0853 743.50989 2759.8218 3682852
-1416.7139 741.92749 2753.948 5459263
-1407.546 745.71405 2768.0034 4275241
-1393.4595 746.95325 2772.603 4473137
-1368.5544 742.35358 2755.5298 2828316
-1353.0853 742.82318 2757.2727 6907477
-1347.806 748.96661 2780.0764 2433813
-1339.1757 753.37677 2796.4465 3420706
-1318.6699 751.13306 2788.1182 3815465
-1302.3582 751.25171 2788.5586 3946024
-1288.8403 753.00574 2795.0693 3090459
-1259.8688 745.65906 2767.7993 2103820
-1235.0579 740.61371 2749.0715 4604469
-1213.2915 737.28351 2736.7102 1577993
-1187.166 731.17828 2714.0483 2433817
-1177.1067 734.93652 2727.9985 3420702
-1163.8141 736.7525 2734.7393 4143913
-1150.5826 738.65912 2741.8162 2630675
-1147.7332 747.38074 2774.1899 3748900
-1126.4174 744.15631 2762.2212 2893845
-1108.285 742.97089 2757.821 4077865
-1090.4401 741.94543 2754.0146 3946792
-1070.8353 739.67328 2745.5808 5065528
-1051.5802 737.57648 2737.7976 3880997
-1036.5789 738.44415 2741.0183 4736563
-1018.8282 737.34961 2736.9556 4210220
-1013.6118 745.43787 2766.978 4670773
-1003.0856 749.82281 2783.2546 2631191
-1004.8364 763.68488 2834.709 4210222
-979.3739 756.98438 2809.8374 1644041
-950.50647 747.37482 2774.168 2630424
-932.25403 745.92047 2768.7695 2367766
-905.56213 737.54047 2737.6641 2170387
-894.59216 741.89319 2753.8208 4670777
-895.94897 756.82019 2809.228 3157540
-871.09406 749.75171 2782.9907 4210227
-867.83154 761.35376 2826.0562 3552552
-845.87396 756.68823 2808.7383 3947314
-790.44629 721.29358 2677.3574 3947313
-783.72308 729.80292 2708.9431 3157284
-769.31097 731.35846 2714.717 1249289
-745.7337 724.08142 2687.7056 2959646
-727.12573 721.41711 2677.8159 3091489
-711.36584 721.52264 2678.2078 4012334
-693.95782 719.92334 2672.2712 3617833
-675.18896 716.8045 2660.6946 4209971
-656.03625 713.11932 2647.0156 5723210
-635.92426 708.18549 2628.7017 4801852
-623.98248 712.33081 2644.0886 3618091
-612.23767 716.92035 2661.1245 3683627
-588.39551 707.21222 2625.0891 3749162
-574.78778 709.61212 2633.9973 2235667
-562.16425 713.39484 2648.0383 2432274
-546.26776 713.12219 2647.0261 1774600
-525.59668 706.4162 2622.1343 2103307
-510.43088 706.92627 2624.0276 2827285
-495.28314 707.4942 2626.1357 2827284
-477.47574 704.17657 2613.821 2432525
-460.70074 702.21008 2606.5217 2300430
-441.69019 696.5816 2585.6294 4340782
-429.41864 701.55847 2604.103 2893852
-415.34177 703.84692 2612.5974 1446407
-403.44 710.14117 2635.9609 1051651
-386.71689 708.11407 2628.4365 920066
-371.00943 707.85455 2627.4734 854019
-355.56042 708.08704 2628.3362 1906444
-337.7265 703.37378 2610.8413 2761752
-324.22537 707.6651 2626.77 3814440
-305.72952 700.93768 2601.7988 3354401
-289.66153 699.35785 2595.9346 4801849
-274.59372 700.15106 2598.8789 3946540
-258.22125 697.51434 2589.0918 2630167
-247.30116 710.20276 2636.1897 3682855
-230.01724 705.0943 2617.2275 1840138
-214.69072 705.68103 2619.4055 3287841
-198.87544 704.62762 2615.4954 3287584
-181.79558 698.53699 2592.8877 3484963
-166.17004 697.42615 2588.7644 2564117
-150.15364 694.2821 2577.094 2959130
-137.45883 707.52307 2626.2429 3551267
-121.65875 706.12067 2621.0374 2695958
-104.84176 697.54205 2589.1946 3551267
-90.98291 709.07739 2632.0125 5064507
-75.157501 706.88812 2623.886 3551012
-59.617977 706.94708 2624.105 4406576
-43.176304 692.5766 2570.7632 1972234
-27.704578 686.58063 2548.5071 3946023
-12.723188 692.92786 2572.0671 3551265
2.5011187 689.28998 2558.5637 4274988
17.406839 679.46155 2522.0818 4143403
32.948914 692.0788 2568.9155 2630422
47.890503 688.09528 2554.1292 2958361
63.574902 694.13495 2576.5476 2695444
77.800911 684.99548 2542.623 3090202
93.595459 690.39111 2562.6511 3879718
109.51535 695.07611 2580.0413 3616546
122.80169 683.94592 2538.7273 3484704
138.13896 685.42096 2544.2024 2760980
153.52339 686.81671 2549.3833 2629138
168.88655 687.87592 2553.3149 3419425
182.81349 683.39197 2536.6711 3682592
199.15231 687.92053 2553.4805 2761233
213.40706 685.11902 2543.0815 2827283
233.50462 700.20776 2599.0894 3222301
248.39687 698.78607 2593.8123 2104079
262.10297 694.3877 2577.4858 1314311
278.23383 696.54376 2585.489 327680
291.85825 692.52747 2570.5811 1182469
307.09167 692.53815 2570.6206 2301459
322.20834 692.29694 2569.7253 4670261
337.15121 691.72089 2567.5872 4669747
350.2215 687.51855 2551.9885 3945766
365.71353 688.22131 2554.5972 4537135
377.74292 682.61108 2533.7725 2958103
393.64017 684.15198 2539.4922 3287324
410.36722 686.96857 2549.947 1248260
425.142 686.43304 2547.9592 2103306
439.27203 684.92896 2542.3762 2958616
457.02408 688.98492 2557.4314 1708295
471.67075 688.24933 2554.7009 3419167
489.16141 691.58026 2567.0652 4142890
503.59796 690.52264 2563.1394 1380103
509.80276 678.57013 2518.7729 1117185
521.50549 674.40729 2503.321 2169102
531.0368 667.7442 2478.5884 3616546
548.43475 671.06537 2490.9163 3813668
563.29779 671.19202 2491.3862 3747875
577.15826 670.14807 2487.5112 2366219
585.78882 663.2348 2461.8501 3352856
601.04047 663.97174 2464.5854 2760976
616.04962 664.41217 2466.2202 2892564
633.7616 667.67969 2478.3489 3090456
644.14874 663.25714 2461.9329 3616545
662.43561 666.98431 2475.7678 3419167
666.4884 656.52875 2436.958 2761237
0 0 0 0
0 0 0 0
0 0 0 0
0 0 0 0
0 0 0 0
0 0 0 0
0 0 0 0
0 0 0 0
0 0 0 0
0 0 0 0
0 0 0 0
0 0 0 0
0 0 0 0
0 0 0 0
0 0 0 0
0 0 0 0
0 0 0 0
0 0 0 0
388.44638 271.07578 1006.2015 1709585
393.48492 270.44177 1003.8483 460549
402.44064 272.47888 1011.4097 65536
396.1423 264.27972 980.97534 4
401.44363 263.94424 979.73022 3
404.01526 261.84918 971.95355 394761
409.46402 261.65152 971.21991 7
414.32462 261.08871 969.13086 7
419.82211 260.93716 968.56824 9
419.92032 257.47903 955.73212 10
422.77496 255.78062 949.42773 11
426.55115 254.67697 945.33118 8
430.71439 253.83006 942.1875 9
435.90662 253.60344 941.34631 9
439.5452 252.49011 937.21375 9
443.53122 251.60161 933.91577 9
448.09909 251.06102 931.90918 4
450.87643 249.5426 926.27295 196608
0 0 0 0
0 0 0 0
1193.1918 637.1228 2364.9253 1707779
1228.7032 648.47034 2407.0461 2431241
1248.0029 651.09979 2416.8062 2760205
1256.937 648.32288 2406.4988 2891536
1274.2581 649.88574 2412.3 2365963
1294.5573 652.91602 2423.5479 2760721
1307.9026 652.41101 2421.6733 3023640
1342.8622 662.58173 2459.426 2168587
1338.6267 653.4024 2425.3533 2497552
1360.9298 657.23438 2439.5771 3418654
1375.3402 657.21417 2439.5022 2431761
1401.7117 662.85065 2460.4241 2629652
1422.2792 665.65472 2470.8325 3024671
1439.2136 666.71869 2474.7817 2169105
1433.719 657.47565 2440.4727 3023899
1466.2329 665.6731 2470.9006 3813415
1482.5022 666.40631 2473.6223 3418914
1462.7653 651.09827 2416.8005 2432019
1465.6592 646.06268 2398.1091 3023898
1466.7817 640.35046 2376.906 2563347
1513.5431 654.48187 2429.3601 2497553
1524.547 653.03058 2423.9731 4537134
1532.7466 650.41632 2414.2693 2168586
1550.3901 651.82092 2419.4829 3220758
1559.5874 649.68121 2411.5408 2694414
1574.184 649.8092 2412.0159 2826000
1592.881 651.6123 2418.7087 2036484
1596.7245 647.36121 2402.9292 3089172
1620.6991 651.27484 2417.4561 2891536
1651.7769 657.94934 2442.231 4207653
1651.1335 651.98218 2420.0815 3418137
1654.9899 647.87927 2404.8521 3286552
