# .PCD v0.7 - Point Cloud Data file format
VERSION 0.7
FIELDS x y z rgb
SIZE 4 4 4 4
TYPE F F F U
COUNT 1 1 1 1
WIDTH 1353
HEIGHT 1
VIEWPOINT 0 0 0 1 0 0 0
POINTS 1353
DATA ascii
-767.78864 607.10034 2030.2581 1973005
-752.1286 604.18243 2020.5002 2499347
-742.31506 605.94269 2026.3867 3552037
-735.34521 610.12018 2040.3572 2696730
-722.29694 609.30975 2037.6469 5920582
-712.19739 611.00146 2043.3043 3552035
-702.51453 613.11536 2050.3735 1973006
-691.63367 614.23969 2054.1335 4736310
-679.67566 614.43054 2054.772 6249805
-665.26837 612.37384 2047.8938 3289121
-658.23627 617.1557 2063.8853 4473395
-642.12946 613.44904 2051.4895 3223588
-629.21527 612.70831 2049.0125 3881260
-619.08496 614.70264 2055.6816 3157537
-604.69904 612.46661 2048.2041 1118218
-583.27777 602.86743 2016.1027 5197122
-576.07141 607.86646 2032.8202 4012845
-566.58917 610.6261 2042.0491 4209968
-552.40442 608.3277 2034.3627 3552035
-541.14783 609.22314 2037.3572 3223069
-530.08453 610.38208 2041.233 5788997
-511.49622 602.72791 2015.636 3420196
-506.8064 611.47675 2044.8938 2893854
-490.6658 606.50012 2028.251 6380881
-483.31674 612.41339 2048.0261 4341809
-482.36157 626.94153 2096.6108 5197118
-472.06265 629.77234 2106.0776 4407347
0 0 0 0
0 0 0 0
-396.21088 574.10095 1919.902 3288870
-381.98587 569.84772 1905.6783 3025441
-364.54306 560.38892 1874.0463 5657159
-361.58505 573.30182 1917.2295 5591620
-350.30997 573.43768 1917.6838 3091487
-351.26706 594.27716 1987.3751 5723204
-335.10669 586.59833 1961.6957 4868153
-327.61819 594.09308 1986.7594 1314821
-319.85226 601.62451 2011.946 2894366
-312.65768 610.85529 2042.8156 2565144
-296.52448 602.66241 2015.417 3551525
-285.19733 603.95972 2019.7555 4407603
-273.97278 605.5976 2025.2328 5592132
-259.10556 598.96472 2003.0513 3947051
-247.99425 600.79437 2009.1698 3947053
-232.34683 591.2652 1977.3025 4999741
-220.62726 591.25024 1977.2524 3289124
-211.24445 597.8468 1999.3127 4868157
-199.00392 596.65912 1995.3409 2104336
-186.91287 595.79785 1992.4606 4407090
-177.17134 602.81458 2015.9257 2893337
-165.20195 602.71753 2015.6013 3683107
-152.40987 599.37006 2004.4067 4077609
-136.95009 584.07947 1953.2721 4538160
-125.31699 583.79303 1952.3142 4735540
-114.52999 587.79083 1965.6836 3486242
-104.10181 594.74347 1988.9346 6117709
-92.917366 598.59894 2001.8279 2696728
-81.097328 598.88873 2002.797 4341298
-67.87632 587.15887 1963.5701 4736568
-55.92944 583.8783 1952.5992 4210224
-44.29361 582.98077 1949.5978 3551525
0 0 0 0
-21.243347 584.34113 1954.1471 4735537
-9.530302 576.10571 1926.6064 4275500
1.8975376 580.44556 1941.1196 4868152
13.293838 575.96857 1926.1478 6447186
25.053352 584.09546 1953.3254 4407347
37.170506 592.79034 1982.403 3288870
48.831451 591.78143 1979.0288 4604730
61.119957 597.29596 1997.4705 3223076
71.775459 587.65155 1965.2178 3288608
83.312515 586.90942 1962.7361 3946283
95.048592 587.57941 1964.9767 4735544
106.83472 588.37891 1967.6501 5065279
119.06237 591.2135 1977.1295 6381139
130.23102 588.75269 1968.9003 6578006
141.72539 588.04803 1966.5437 6380886
153.44124 588.29956 1967.3848 6710362
164.75159 587.07062 1963.2749 5526338
179.41769 597.17303 1997.0593 4604466
191.24779 597.17004 1997.0496 3881257
199.31055 586.08936 1959.9935 5394241
210.15701 583.96368 1952.8849 7696742
222.79034 586.76599 1962.2562 4013103
233.16505 583.63672 1951.7914 5986893
245.08742 584.49408 1954.6586 4670520
254.91379 580.50098 1941.3051 4670263
269.57861 587.39539 1964.3611 5065021
279.90988 584.66736 1955.238 4933435
290.66641 583.00903 1949.6924 3222818
300.47318 579.64539 1938.4436 3814955
316.06326 587.27527 1963.9595 3617578
326.94662 585.92841 1959.4552 2433304
339.70978 587.92719 1966.1394 2959908
348.75403 583.5705 1951.5699 3222049
359.58011 582.37933 1947.5865 1774606
367.26645 576.33521 1927.3738 4669235
0 0 0 0
0 0 0 0
0 0 0 0
0 0 0 0
0 0 0 0
0 0 0 0
0 0 0 0
0 0 0 0
0 0 0 0
0 0 0 0
0 0 0 0
0 0 0 0
0 0 0 0
0 0 0 0
0 0 0 0
0 0 0 0
240.51709 246.92632 825.76825 2
244.93153 246.44577 824.16119 5
249.68922 246.32262 823.74939 3
0 0 0 0
0 0 0 0
0 0 0 0
0 0 0 0
0 0 0 0
0 0 0 0
0 0 0 0
0 0 0 0
0 0 0 0
0 0 0 0
708.71942 575.44775 1924.4059 3682085
727.42169 581.28247 1943.9185 2103309
732.46442 576.19012 1926.8888 2629136
746.49005 578.21204 1933.6503 3616287
764.86823 583.49323 1951.3114 2037256
776.90356 583.85046 1952.5062 4668460
770.70062 570.69196 1908.5017 1708806
784.7641 572.70404 1915.2306 3089688
800.60724 575.93903 1926.049 3747364
817.28693 579.67639 1938.5472 3747619
831.25964 581.41681 1944.3677 5589822
848.02441 585.03583 1956.4703 4208681
856.46417 582.89154 1949.2993 5787971
870.3092 584.43396 1954.4575 6840662
881.09332 583.90741 1952.6967 4143662
884.68286 578.68835 1935.2433 4736569
900.04669 581.20618 1943.6632 5131071
915.91174 583.97992 1952.9392 2038290
930.28613 585.74591 1958.8451 2695706
920.49847 572.44244 1914.3556 1906190
933.70941 573.59113 1918.197 4340788
957.65753 581.22882 1943.7391 3551272
969.44073 581.38965 1944.2767 4078641
987.63452 585.34595 1957.5074 1840913
1002.098 587.02527 1963.1234 4472115
1011.8301 585.92627 1959.4482 1381133
1030.8369 590.16205 1973.6134 3485476
1038.5233 587.89447 1966.0302 3484706
1059.7191 593.23987 1983.9061 2959131
1060.8817 587.37622 1964.2971 1972237
1068.9667 585.43091 1957.7915 2432788
1078.2661 584.18542 1953.6263 1576968
1089.2999 583.896 1952.6584 1643021
1099.0874 582.9516 1949.5002 656128
1128.6895 592.42712 1981.1882 1708810
1130.6326 587.33942 1964.174 1313282
1141.4501 586.91852 1962.7664 2694935
1141.7443 581.1496 1943.4741 2629140
1148.6353 578.82019 1935.6841 2300685
1165.7211 581.62335 1945.0585 1577221
1169.2295 577.66382 1931.8169 3419424
1190.5531 582.49725 1947.981 3221528
1203.4852 583.17169 1950.2363 5656640
1208.2383 579.90771 1939.3209 1052166
1228.3689 584.0163 1953.0608 5327937
1234.5576 581.48151 1944.584 2103308
1245.4349 581.18152 1943.5808 2629395
1255.4231 580.47589 1941.2211 1576709
1261.8691 578.16022 1933.4771 2366226
1271.6318 577.39215 1930.9083 2103052
1287.1259 579.21686 1937.0105 2563601
1299.5244 579.62866 1938.3877 327936
1301.6958 575.51154 1924.6194 1839626
1304.4088 571.70331 1911.884 2694933
1333.0498 579.22681 1937.0437 2037003
1348.1654 580.79492 1942.288 2168075
1366.5919 583.75085 1952.1731 2037255
1375.7936 582.74976 1948.8252 2167816
1369.8994 575.42432 1924.3276 1773314
1397.2113 582.05286 1946.4948 3615517
1388.5488 573.70929 1918.5923 3812896
1398.0841 572.95898 1916.0831 3220759
1421.0018 577.66095 1931.8073 2431244
1430.0073 576.67731 1928.5179 3023380
1446.3115 578.62939 1935.046 3681310
1447.3932 574.50848 1921.2649 2760464
1476.6144 581.53406 1944.7599 1641472
1492.0712 583.07208 1949.9031 1641732
1503.5985 583.06262 1949.8716 2562829
1510.6982 581.34949 1944.1425 2562828
1525.9236 582.76556 1948.8781 2299402
1530.7786 580.22949 1940.3971 3089431
1563.4757 588.20599 1967.0719 5984580
1576.0895 588.56464 1968.2714 3483933
1601.3177 593.59412 1985.0908 2497299
1592.6 586.05841 1959.89 2826519
1604.3602 586.11304 1960.0728 4668466
1648.3721 597.8645 1999.3718 4603188
1661.9478 598.48785 2001.4564 2037261
1659.1477 593.24701 1983.9301 3155742
1670.8212 593.21869 1983.8353 1445126
1671.7498 589.40247 1971.0732 1708811
1668.5591 584.19696 1953.665 1511434
1682.7913 585.12128 1956.756 1643019
1693.1232 584.68597 1955.3004 1511690
1713.4706 587.69183 1965.3525 1906190
1712.2351 583.30444 1950.6803 1577226
1723.2167 583.11005 1950.03 2629913
1731.483 582.00549 1946.3362 1708297
1745.3525 582.78644 1948.948 984578
1756.996 582.81879 1949.056 1313540
1758.4142 579.48102 1937.8939 458752
1769.6852 579.41235 1937.6644 1313281
1766.7837 574.73431 1922.0201 2103055
1771.0469 572.43195 1914.3207 3681829
1776.2009 570.44507 1907.676 3221535
1789.0923 570.95233 1909.3726 4142636
1790.4352 567.79108 1898.8007 2563346
1819.9869 573.55908 1918.09 3089691
1834.5251 574.55347 1921.4154 3550239
0 0 0 0
0 0 0 0
0 0 0 0
0 0 0 0
0 0 0 0
0 0 0 0
0 0 0 0
0 0 0 0
0 0 0 0
0 0 0 0
0 0 0 0
-1785.2269 625.83728 2052.2593 5855300
-1740.693 614.40961 2014.7854 4210475
-1735.9966 616.9826 2023.2229 6710609
-1714.895 613.72034 2012.5253 3618338
-1689.7123 608.94171 1996.8549 4407856
-1719.21 623.94037 2046.0389 4276015
-1687.1123 616.63904 2022.0961 3881001
-1671.9908 615.48236 2018.3031 5196861
-1681.5913 623.47504 2044.5129 4868153
-1669.5424 623.4986 2044.5903 2433555
-1656.026 622.97058 2042.8588 3617827
-1616.2385 612.47919 2008.4552 4999479
-1585.4087 605.25189 1984.7552 6644304
-1587.6754 610.64612 2002.4441 3289374
-1577.3689 611.24927 2004.4219 4341804
-1562.9919 610.27222 2001.218 5262651
-1547.0555 608.66669 1995.9531 4143400
-1532.0973 607.42432 1991.879 2630162
-1521.5236 607.91437 1993.4861 2959128
-1483.7141 597.44519 1959.1553 2169869
-1466.2006 595.04785 1951.2938 2827542
-1462.2917 598.17761 1961.5571 4143403
-1457.3243 600.92108 1970.5535 3485473
-1452.4717 603.75653 1979.8517 4538161
-1444.0352 605.13629 1984.3762 3419422
-1436.9486 607.10913 1990.8456 2498576
-1425.6008 607.29926 1991.4691 4209453
-1399.6681 601.22766 1971.559 5064502
-1370.5352 593.66766 1946.7679 2169614
-1382.4951 603.93036 1980.4218 2498581
-1381.215 608.53552 1995.5229 3880228
-1358.832 603.84229 1980.1329 3485214
-1346.1489 603.41547 1978.7332 3617056
-1330.8557 601.80084 1973.4384 5525054
-1319.8068 602.09375 1974.3989 5853763
-1302.6852 599.5968 1966.2109 5130807
-1286.4036 597.44495 1959.1545 4209705
-1274.6174 597.36078 1958.8785 4933172
-1256.0111 594.04932 1948.0195 5788998
-1254.0381 598.61633 1962.9958 3486243
-1254.7433 604.55933 1982.4841 3815467
-1222.3779 594.53003 1949.5958 2762780
-1208.5416 593.40735 1945.9143 2763037
-1199.2146 594.49847 1949.4923 4341813
-1158.8904 580.09485 1902.2598 6710102
-1150.7031 581.65277 1907.3685 2104853
-1139.1737 581.53552 1906.984 7104855
-1145.0869 590.40936 1936.0833 855046
-1142.201 594.88 1950.7435 1841418
-1147.2805 603.633 1979.4467 4999482
-1130.5654 600.98126 1970.751 7236701
-1111.5435 597.03522 1957.8108 6578770
-1123.4293 609.78217 1999.611 5460032
-1110.8376 609.37317 1998.2698 5723205
-1094.1724 606.69666 1989.493 5262911
-1071.1865 600.41913 1968.9075 5460291
-1075.2423 609.32745 1998.1199 5262912
-1056.1506 605.17065 1984.4889 4671032
-1050.3147 608.60138 1995.739 3354659
-1039.8464 609.39551 1998.343 3815466
-1031.7828 611.6333 2005.6813 3946798
-1021.0403 612.31671 2007.9222 6381395
-1012.6708 614.45605 2014.9377 5065535
-1002.2139 615.36481 2017.9177 4012846
-981.02161 609.62433 1999.0934 4933950
-968.41608 609.14471 1997.5208 4473142
-953.54938 607.21344 1991.1875 3289123
-931.16785 600.38837 1968.8066 4210478
-937.52655 612.15607 2007.3954 4933686
-920.28857 608.62067 1995.8022 3946792
-911.86646 610.89948 2003.2749 2894104
-904.98047 614.28107 2014.3639 5196861
-894.4408 615.23981 2017.5079 3617828
-888.45471 619.39917 2031.1473 6249550
-875.33759 618.63293 2028.6346 5789255
-853.51611 611.60822 2005.5989 4802104
-844.70154 613.83691 2012.9073 5064765
-827.64746 610.05621 2000.5096 4932666
-816.48462 610.57123 2002.1985 3551012
-805.61755 611.32581 2004.673 3551268
-805.16705 620.12567 2033.5295 2235408
-786.54102 614.98169 2016.6613 2169873
-770.8877 612.03925 2007.0123 1512458
-759.41327 612.37433 2008.1112 4604470
-749.07013 613.64679 2012.2841 2630680
-738.67322 614.91571 2016.4451 2893852
-728.6806 616.56848 2021.8649 4210225
-713.88391 614.14362 2013.9132 5526083
-703.41589 615.42346 2018.11 5394240
-699.35162 622.44708 2041.1422 5526081
-678.64166 614.64209 2015.5477 6380879
-664.21204 612.34735 2008.0228 2696727
-649.84875 610.03125 2000.4277 3486241
-641.65723 613.53027 2011.9019 5723461
-630.24854 614.0274 2013.5321 6776410
-614.4729 610.20703 2001.0044 6315859
-603.06476 610.659 2002.4863 3157538
-593.2948 612.82111 2009.5763 4341811
-589.87115 621.76117 2038.8928 4802362
-579.97015 624.10486 2046.5781 5393983
-566.44714 622.56763 2041.5374 3948079
-545.63049 612.77222 2009.416 7434082
-539.78229 619.7251 2032.2162 2301716
-526.71759 618.521 2028.2677 2499353
-506.64566 608.84003 1996.5215 4275245
-494.51471 608.4671 1995.2986 5328190
-482.02097 607.61859 1992.5161 3946538
-461.37091 596.18774 1955.0319 4144174
-446.57614 591.92932 1941.0676 5394498
-437.18115 594.7923 1950.4559 5065275
-423.42343 591.71405 1940.3617 3749417
-409.10999 587.66571 1927.0862 3354405
-392.94925 580.65521 1904.0973 4802107
-380.35703 578.6593 1897.5522 5130301
-365.92026 573.65015 1881.1261 3749159
-353.90247 572.23761 1876.4941 4867126
-346.2699 578.05408 1895.5675 8815993
-336.62973 580.79663 1904.561 5131326
-327.63681 584.88495 1917.9674 7105116
-321.62479 594.77948 1950.4139 5526591
-317.58679 609.19806 1997.6956 2236430
-305.38953 608.47589 1995.3274 3288610
-288.31653 597.58972 1959.6293 6446675
-278.40555 601.25745 1971.6565 5855307
-265.72253 598.99762 1964.2461 6184015
-256.40491 604.4646 1982.1735 3026208
-244.12498 603.1377 1977.8223 4736570
-229.8763 596.56769 1956.2778 2039057
-218.65512 597.5741 1959.5781 3881261
-207.50232 598.89075 1963.8958 1841939
-195.9346 599.09515 1964.5659 3880746
-184.22185 598.85388 1963.7747 6249291
-175.46159 608.82477 1996.4716 4538930
-159.40424 593.08716 1944.8644 4933172
-149.72804 600.48907 1969.1368 4933431
-136.69244 594.53052 1949.5974 3551523
-122.26582 580.86346 1904.78 5788228
-111.55946 583.88861 1914.7002 3946281
-101.72046 592.65198 1943.4373 4407089
-90.262672 593.01709 1944.6346 4736566
-79.332832 597.46509 1959.2206 6775892
-67.058662 591.57831 1939.9165 4868148
-55.498898 590.86224 1937.5684 4802099
-43.69313 586.4707 1923.1675 3156760
-32.480793 589.7561 1933.941 2300940
-21.080763 591.35712 1939.1913 5919811
-9.4517918 582.67944 1910.7351 3419682
1.8723274 584.08081 1915.3306 3485472
13.248106 585.35889 1919.5217 4669746
24.603468 584.97095 1918.2495 3353886
35.988171 585.3053 1919.3459 4603954
48.135113 594.8996 1950.8077 3090720
59.530121 593.28485 1945.5127 4999485
70.289299 586.88513 1924.5266 5920846
81.571465 586.02899 1921.7191 2762270
93.441666 589.08978 1931.7561 6315348
106.1936 596.43488 1955.8424 2695963
118.27258 598.92694 1964.0144 4274222
128.28633 591.45117 1939.4996 5196352
139.59654 590.69025 1937.0044 4407605
151.64511 592.93195 1944.3553 6644563
162.27449 589.69977 1933.7563 3749928
175.71013 596.41931 1955.7913 3814182
190.54042 606.74854 1989.6631 4867896
199.91887 599.52502 1965.9756 3814438
210.41072 596.25195 1955.2424 4735541
220.5538 592.38367 1942.5575 4077612
229.96674 587.03522 1925.0187 6643539
243.21413 591.51794 1939.7185 5328193
254.98631 592.17017 1941.8573 5657929
264.34702 587.40759 1926.2397 3947055
277.63052 591.39526 1939.3162 3946794
290.23239 593.67169 1946.7811 4670516
301.17123 592.50244 1942.947 2236181
312.7099 592.55597 1943.1224 3617317
325.17688 594.30219 1948.8488 2433045
336.29254 593.5437 1946.3615 5657161
346.11755 590.63306 1936.8168 1184012
354.56915 585.64075 1920.4458 3025183
365.51639 584.9527 1918.1896 3946027
375.96835 583.53748 1913.5488 3024667
0 0 0 0
0 0 0 0
0 0 0 0
0 0 0 0
0 0 0 0
0 0 0 0
0 0 0 0
0 0 0 0
491.6745 600.23737 1968.3115 7630689
502.55759 599.31 1965.2705 4078381
518.97845 604.87915 1983.5328 5328449
0 0 0 0
0 0 0 0
0 0 0 0
0 0 0 0
241.07571 252.40323 827.68622 2
245.22397 251.62836 825.1452 4
249.74362 251.25745 823.92889 1
253.20699 249.85841 819.34113 197123
0 0 0 0
0 0 0 0
0 0 0 0
0 0 0 0
0 0 0 0
0 0 0 0
0 0 0 0
0 0 0 0
693.33777 583.49799 1913.4194 1840140
704.52753 583.37732 1913.0236 2628883
723.46381 589.57324 1933.3416 3944997
728.09247 584.09821 1915.3876 2628365
738.70087 583.51459 1913.4738 4010532
749.08411 582.7735 1911.0436 3418652
754.42572 578.19055 1896.015 4339756
760.21191 574.07776 1882.5283 2234384
779.53088 580.15552 1902.4587 2234382
787.29346 577.58197 1894.0194 2365969
809.86322 585.79102 1920.9387 2037001
819.0249 584.20874 1915.75 1642246
829.6911 583.72809 1914.1738 3484700
842.31195 584.61707 1917.089 3616801
856.74908 586.72626 1924.0055 4076841
863.5094 583.59174 1913.7267 5063995
873.13849 582.45215 1909.9899 3089693
884.53491 582.50568 1910.1654 3484708
897.7713 583.75421 1914.2596 5722432
908.76318 583.53033 1913.5254 2959127
906.44733 574.87219 1885.1334 4735026
921.45898 577.28015 1893.0298 2169103
946.30518 585.71741 1920.6974 4471856
959.22125 586.65778 1923.7809 1906441
975.4942 589.60486 1933.4452 4538418
985.53394 588.75989 1930.6742 5591107
1005.9964 594.08936 1948.1509 4012076
1014.8696 592.53162 1943.0426 1906187
1027.0308 592.90704 1944.2737 2695444
1034.2805 590.47009 1936.2825 3616805
1050.754 593.29462 1945.5448 854276
1066.6172 595.7171 1953.4885 4866616
1063.1033 587.38141 1926.1541 1184012
1082.6632 591.836 1940.7615 1577481
1093.8809 591.68463 1940.2653 3419427
1095.2001 586.23804 1922.4044 524800
1113.9696 590.14807 1935.2266 2037260
1127.9026 591.44238 1939.4708 2563348
1141.4766 592.52429 1943.0184 1511172
1147.7257 589.82025 1934.1514 3221789
1146.6674 583.45148 1913.2667 1379847
1156.4368 582.66284 1910.6807 4471858
1185.7385 591.63531 1940.1034 1511172
1197.7493 591.89081 1940.9413 4142891
1202.8014 588.73553 1930.5944 2629395
1211.9482 587.62494 1926.9525 3221788
1224.6216 588.22906 1928.9336 3813927
1239.3303 589.79065 1934.0543 2168846
1253.1498 590.90424 1937.7061 2169102
1251.5764 584.8053 1917.7062 1446410
1260.7607 583.79736 1914.4011 2892310
1270.8055 583.20233 1912.45 2892311
1276.6005 580.68475 1904.1941 3747876
1307.631 589.58948 1933.3948 1445123
1308.275 584.75787 1917.5508 4931895
1316.2174 583.24347 1912.5847 2103053
1339.8604 588.65277 1930.323 1641987
1343.4521 585.23578 1919.118 2892309
1364.1886 589.2821 1932.3867 5063731
1363.0729 583.90015 1914.7382 3024148
1369.106 581.64417 1907.3403 1971460
1380.269 581.58673 1907.1519 3484701
1384.8527 578.7804 1897.9492 3352602
1392.0514 577.10339 1892.4501 4668461
1400.0287 575.77338 1888.0886 2562830
1421.092 579.80359 1901.3044 3484444
1425.5547 577.05054 1892.2766 2431501
1444.4459 580.13544 1902.3927 2036487
1460.2968 581.96088 1908.3789 2168586
1489.6333 589.09143 1931.7614 2365709
1486.1656 583.23932 1912.5712 4536876
1495.5665 582.48773 1910.1066 2957843
1479.8175 572.02582 1875.7994 3286552
1520.1049 583.21924 1912.5052 2563087
1530.6208 582.90918 1911.4886 2629137
1542.6285 583.16766 1912.3361 3944998
1554.9929 583.55615 1913.6101 4208426
1577.5481 587.73578 1927.3159 2760978
1605.1479 593.72125 1946.9437 3287066
1618.4412 594.36725 1949.0621 4010791
1626.6665 593.15613 1945.0905 2629652
1632.7222 591.17645 1938.5988 4471601
1647.704 592.4339 1942.722 4340272
1640.1461 585.62585 1920.3971 1577226
1672.4635 593.05133 1944.7468 2103568
1682.6302 592.57434 1943.1827 2958877
1678.3096 587.0365 1925.0228 2498070
1687.2866 586.19324 1922.2577 2103569
1698.2172 586.0354 1921.7401 2432790
1711.1006 586.54907 1923.4246 3682088
1721.3456 586.15753 1922.1406 459778
1722.1106 582.56415 1910.3572 656128
1729.5171 581.24988 1906.0472 853762
1750.1208 584.35907 1916.243 656384
1748.2417 579.9696 1901.8491 1247747
1750.7457 577.08118 1892.3771 3616293
1769.2737 579.47766 1900.2358 3221791
1749.2505 569.29736 1866.8524 3155741
1767.8615 571.7395 1874.8607 3287326
1784.4108 573.48859 1880.5962 3945511
1802.1182 575.58582 1887.4735 3221789
0 0 0 0
0 0 0 0
0 0 0 0
0 0 0 0
0 0 0 0
0 0 0 0
0 0 0 0
0 0 0 0
0 0 0 0
0 0 0 0
0 0 0 0
-1707.3346 610.15857 1962.7159 5460541
-1683.2354 605.67096 1948.2804 5263162
-1644.0431 595.65302 1916.0555 7895139
-1689.1028 616.23328 1982.2566 6710867
-1655.9945 608.38416 1957.0082 3815718
-1662.8546 615.21161 1978.9701 5262653
-1654.4718 616.45648 1982.9746 5788998
-1641.7839 616.10364 1981.8396 4275760
-1652.6322 624.6416 2009.304 4341809
-1558.8998 593.48859 1909.093 5197118
-1577.1027 604.80646 1945.4996 4868155
-1588.2036 613.54742 1973.6169 6052171
-1574.7018 612.84314 1971.3514 7565666
-1540.1246 603.86493 1942.4711 3354657
-1539.0581 607.98962 1955.739 3091482
-1546.118 615.41144 1979.613 2959896
-1517.3593 608.58069 1957.6403 3353629
-1499.8622 606.19629 1949.9702 2959126
-1497.3621 609.88312 1961.83 3617057
-1473.5359 604.87354 1945.7155 2235404
-1468.0908 607.38977 1953.8094 3353885
-1453.1694 605.9942 1949.3202 2498577
-1444.5115 607.20911 1953.2284 3617059
-1434.6699 607.94214 1955.5863 4209196
-1437.1283 613.94165 1974.885 1973010
-1398.1246 602.18158 1937.0562 4209196
-1382.0878 600.20081 1930.6844 3880231
-1383.9369 606.0191 1949.4003 4209193
-1353.9757 597.88843 1923.2462 4209451
-1329.665 592.13617 1904.7428 4736053
-1353.9344 608.10468 1956.109 3617057
-1344.0657 608.88367 1958.615 4209194
-1324.9154 605.43506 1947.5216 2959127
-1335.3899 615.58197 1980.1616 3420194
-1328.3354 617.7569 1987.1577 5393466
-1322.1042 620.35693 1995.5212 7038288
-1283.1525 607.51221 1954.2032 3354141
-1265.4844 604.60217 1944.8425 3552034
-1254.6868 604.95123 1945.9655 3551782
-1253.2356 609.8551 1961.7397 4933691
-1237.4138 607.79218 1955.1039 2960158
-1218.8052 604.30847 1943.8977 2499351
-1185.9268 593.61548 1909.5012 4539190
-1170.8894 591.73303 1903.4458 2894366
-1146.8829 585.23712 1882.5502 7105117
-1135.1802 584.95355 1881.6382 4078384
-1132.7794 589.50531 1896.2799 4736314
-1128.0247 592.91089 1907.2349 3354916
-1119.8096 594.54822 1912.5016 4473651
-1104.6477 592.49298 1905.8905 4867641
-1121.0002 607.47308 1954.0774 4933431
-1104.8083 604.9458 1945.9478 4144170
-1086.528 601.20959 1933.9294 5525824
-1070.1249 598.4436 1925.0321 4933689
-1050.077 593.55786 1909.3159 4604980
-1047.3553 598.466 1925.1041 3551781
-1041.0192 601.3941 1934.5229 6183757
-1035.5115 604.87134 1945.7084 4144172
-1032.96 610.17316 1962.7627 2433811
-1026.5765 613.30621 1972.8411 1446662
-1010.5955 610.71173 1964.4952 2235925
-1005.1061 614.47076 1976.587 3748905
-1000.7916 619.04504 1991.3013 3748905
-986.54584 617.51221 1986.3707 3485990
-976.16986 618.39386 1989.2067 3157285
-953.89893 611.66968 1967.5768 2236697
-943.56836 612.53033 1970.3452 4670775
-925.67804 608.4436 1957.1992 2565658
-923.74963 614.87787 1977.8967 4078380
-903.51764 609.13757 1959.4316 3749414
-880.28375 601.19763 1933.8911 6250061
-878.31738 607.76471 1955.0155 7236954
-881.02216 617.78271 1987.2407 6052167
-870.37994 618.5863 1989.8256 3288862
-858.86255 618.78137 1990.4531 5328189
-845.42615 617.58008 1986.5889 4407345
-831.65167 616.09442 1981.8098 4341555
-822.44116 617.99567 1987.9257 5656389
-806.05127 614.47894 1976.6134 4669750
-795.36475 615.27063 1979.1602 2499094
-782.83209 614.63647 1977.1201 4341042
-773.66895 616.66888 1983.6578 2828060
-761.48267 616.31708 1982.5261 2696473
-742.75671 610.57837 1964.0663 4012333
-730.96033 610.44409 1963.6343 1051654
-730.80005 620.18018 1994.9528 1709581
-719.7558 620.84808 1997.1012 2828059
-707.3299 620.3266 1995.4238 4472884
-695.19904 620.05054 1994.5358 3157026
-678.29352 615.4328 1979.6816 2301972
-659.24927 608.67786 1957.9529 2827801
-649.92914 610.81989 1964.8433 3157280
-642.51215 614.86139 1977.8435 5393984
-631.89429 615.93292 1981.2904 3223330
-622.60089 618.36053 1989.0994 3157537
-610.25006 617.7865 1987.2529 5591878
-603.31201 622.7774 2003.3074 5724233
-593.94928 625.41541 2011.7931 5592390
-586.16418 629.85675 2026.0797 4868671
-577.66193 633.69696 2038.4327 4671034
-564.52789 632.51178 2034.6201 6447445
-543.96924 622.77454 2003.298 4934206
-529.18542 619.36176 1992.3201 5393986
-497.28558 595.30365 1914.9316 7039322
-491.48709 602.09784 1936.7867 4276016
-478.99387 600.81934 1932.6741 4473395
-470.91925 605.15631 1946.6251 4341299
-454.97272 599.34131 1927.9198 3683111
-438.62701 592.68756 1906.5164 5130814
-427.79694 593.33185 1908.5889 2432787
-415.448 591.84735 1903.8136 2563858
-404.99329 593.05396 1907.6948 3682339
-392.85577 591.79468 1903.6442 3617061
-377.32312 585.1955 1882.4164 6051659
-364.78537 582.98065 1875.2919 5788231
-353.46515 582.63354 1874.1753 6577999
-345.34048 587.70215 1890.4797 5657155
-334.96487 589.15149 1895.1417 7631201
-324.92575 591.31366 1902.097 8289132
-318.07581 599.64355 1928.892 4539701
-307.9223 602.13422 1936.9038 5197119
-295.59586 600.40411 1931.3385 4275762
-282.4866 596.88068 1920.0044 3749162
-273.23785 601.56073 1935.0591 7697255
-262.8447 604.02094 1942.9728 6578515
-252.83617 607.6308 1954.5848 2828570
-241.10085 607.23816 1953.3217 3749161
-228.6064 604.79749 1945.4708 4078383
-217.93344 607.17249 1953.1106 4209712
-204.30733 601.12488 1933.6569 4275505
-193.12956 601.99023 1936.4407 3420196
-180.96356 599.69019 1929.042 6248779
-170.58957 603.4187 1941.0356 3156511
-159.60431 605.3678 1947.3053 3156511
-144.72252 591.68994 1903.3073 4472368
-133.82509 593.36676 1908.7012 4604724
-121.58511 588.85101 1894.1753 4407602
-110.9174 591.80597 1903.6805 4144429
-99.572403 591.40704 1902.3972 3815211
-88.509407 592.79504 1906.8621 3157279
-76.719261 589.00653 1894.6754 5262395
-66.006462 593.60815 1909.4778 2564883
-54.716404 593.84821 1910.25 3946016
-43.293076 592.38995 1905.5591 2827281
-31.884661 590.17889 1898.4467 2958867
-20.737986 593.04297 1907.6595 3287833
-9.3916063 590.21674 1898.5684 4669488
1.8758076 596.53442 1918.8906 3946023
13.345957 601.13806 1933.6995 1906698
24.557428 595.21912 1914.6598 4801335
35.663818 591.29828 1902.0474 4998708
46.863754 590.43872 1899.2823 4866868
57.809727 587.33179 1889.2883 4669487
69.877327 594.77985 1913.2467 4208936
81.011345 593.31146 1908.5234 5326651
91.758263 589.71503 1896.9545 1380878
103.93476 595.08856 1914.2397 2366736
115.15015 594.4433 1912.1641 2629396
126.46201 594.367 1911.9187 3155738
136.59818 589.23181 1895.4 4801074
148.69879 592.70679 1906.5782 5985347
160.51843 594.65039 1912.8302 3419677
173.06955 598.86871 1926.3995 5590591
185.76607 603.03717 1939.8083 4077608
198.01112 605.33978 1947.2152 4998969
209.84979 606.21484 1950.03 4143404
221.01363 605.15088 1946.6075 4538417
231.44522 602.28693 1937.395 3288095
240.1754 595.47528 1915.4836 4998711
254.45024 602.40503 1937.7749 5261883
263.96393 597.95123 1923.4481 3486249
275.02652 597.22955 1921.1267 4341040
285.89789 596.16638 1917.7068 3880231
300.7294 603.12689 1940.0968 5130810
309.25919 597.40167 1921.6803 3156763
318.7019 593.78387 1910.0428 2104337
332.4176 598.10236 1923.9343 6708557
346.30832 602.43903 1937.8842 2365966
356.69058 600.58984 1931.936 3352089
368.39316 601.00977 1933.2866 4734514
377.83017 597.81958 1923.0248 1379075
0 0 0 0
0 0 0 0
0 0 0 0
0 0 0 0
0 0 0 0
0 0 0 0
0 0 0 0
0 0 0 0
486.02689 604.86957 1945.7026 4143144
498.55353 606.08508 1949.6127 6972242
511.88281 608.19928 1956.4133 2959129
525.28522 610.30469 1963.186 3222562
539.19189 612.89215 1971.509 4604219
0 0 0 0
0 0 0 0
242.51265 258.84033 832.61963 2
246.0078 257.33664 827.78271 3
250.03233 256.43469 824.88141 1
252.94385 254.44765 818.48962 1973785
0 0 0 0
0 0 0 0
0 0 0 0
0 0 0 0
0 0 0 0
0 0 0 0
0 0 0 0
671.16125 585.37823 1883.0042 2301207
685.85101 588.41046 1892.7581 1906444
699.09314 590.12317 1898.2675 3550499
710.20081 590.00842 1897.8983 2563345
721.3656 589.94403 1897.6912 2760724
730.6709 588.38422 1892.6736 3418654
732.28595 580.7724 1868.1885 2893336
743.8125 581.13098 1869.3419 3287841
753.09729 579.7533 1864.9103 5195834
769.05103 583.4751 1876.8824 1971979
785.08521 587.15106 1888.707 2497552
791.33612 583.50977 1876.9939 5458237
812.77313 591.01196 1901.1265 1380102
825.91205 592.35767 1905.4552 4142377
836.95764 592.18591 1904.9027 2629138
843.08618 588.58594 1893.3226 1773829
855.67273 589.52991 1896.359 3155997
864.35193 587.79224 1890.7694 3287580
868.03168 582.74274 1874.5265 4801080
885.91766 587.23743 1888.9849 5721923
895.87537 586.4303 1886.3884 2761236
897.039 579.95752 1865.5671 4668717
911.72461 582.27802 1873.0317 5458491
923.72961 582.85144 1874.8762 4405803
947.50861 590.75201 1900.2903 3352861
960.89453 592.06329 1904.5083 3418913
970.1662 590.83856 1900.5686 2695191
981.85516 591.09717 1901.4005 1576711
997.80927 593.88849 1910.3795 2169618
1011.6831 595.39294 1915.2189 2169619
1033.3748 601.41382 1934.5865 3880749
1036.6979 596.72968 1919.5188 5131072
1049.187 597.36597 1921.5656 1117961
1049.4312 591.09155 1901.3824 4801595
1065.2859 593.64966 1909.6112 131072
1085.066 598.31854 1924.6299 327680
1092.4618 596.13251 1917.5978 787970
1096.3229 592.08246 1904.5699 2235155
1109.2065 592.93805 1907.3223 919040
1114.5332 589.77753 1897.1555 656899
1124.5099 589.11615 1895.028 1971466
1146.5508 594.72559 1913.0721 3748389
1157.359 594.45575 1912.2042 2103565
1167.1882 593.6933 1909.7515 2234891
1182.9657 595.94189 1916.9847 1577737
1194.4625 596.01184 1917.2097 4340271
1199.504 592.88977 1907.1667 3024666
1206.4094 590.73859 1900.2471 3089688
1223.8015 593.71472 1909.8204 3155483
1235.7654 594.02704 1910.8251 2497551
1254.8337 597.71771 1922.6971 2431760
1279.2678 603.87488 1942.5031 2827032
1280.8695 599.24042 1927.5952 2498067
1278.6801 592.92987 1907.2959 1773576
1287.8831 591.96637 1904.1965 2300175
1301.5393 593.04871 1907.6781 2365968
1304.45 589.2583 1895.4854 2563347
1302.7815 583.48175 1876.9038 1379074
1327.6333 589.5802 1896.5209 2563345
1333.3987 587.17145 1888.7726 2497552
1354.2993 591.41217 1902.4138 3024150
1366.5193 591.82343 1903.7368 3484701
1372.2296 589.43182 1896.0436 2826515
1379.8899 587.90985 1891.1477 2695186
1377.446 582.14215 1872.5946 2827283
1376.556 577.11798 1856.4332 6051398
1383.9452 575.617 1851.6049 2630162
1413.6918 583.36548 1876.5298 2827284
1432.975 586.70905 1887.285 2234382
1455.3625 591.26196 1901.9307 5656127
1455.6024 586.81628 1887.63 2958616
1467.7601 587.2063 1888.8846 4406061
1466.7694 582.37 1873.3276 3484447
1476.9429 582.00568 1872.1556 2431760
1482.2589 579.74689 1864.8898 3681827
1492.6471 579.49072 1864.0658 3813412
1514.8308 583.78406 1877.8763 3155482
1542.4897 590.1095 1898.2234 3287070
1539.4224 584.6734 1880.7371 3418656
1577.0546 594.66217 1912.8682 3550243
1595.3595 597.27258 1921.2651 1708038
1598.7678 594.30853 1911.7306 2365967
1598.5417 590.04468 1898.0149 4800822
1591.882 583.48218 1876.9052 2827031
1619.0502 589.32391 1895.6965 2300432
1652.0673 597.19952 1921.03 3485221
1658.561 595.44501 1915.3864 3353636
1658.8439 591.49976 1902.6956 2629656
1679.1731 594.70752 1913.014 2892828
1689.4963 594.35229 1911.8715 2959137
1698.1866 593.43115 1908.9082 2695708
1702.6991 591.07184 1901.3191 2169364
1709.861 589.65729 1896.7687 1840913
1706.9697 584.81689 1881.1985 1774606
1715.8372 584.04175 1878.7051 2366231
1721.0229 582.03149 1872.2386 1247493
1741.517 585.19098 1882.4019 854019
1738.7725 580.55121 1867.4771 3681829
1736.2367 576.03931 1852.9635 2629141
1758.6008 579.7934 1865.0394 3616292
1762.2548 577.37061 1857.2458 3747877
1775.428 578.07727 1859.5192 4405550
0 0 0 0
0 0 0 0
0 0 0 0
0 0 0 0
0 0 0 0
0 0 0 0
0 0 0 0
0 0 0 0
0 0 0 0
0 0 0 0
0 0 0 0
0 0 0 0
-1608.7712 589.90826 1862.0909 5592128
-1568.2144 579.00708 1827.6805 6052680
-1548.6039 575.74182 1817.3734 6184267
-1634.7229 612.01416 1931.87 3486753
-1619.3363 610.52808 1927.179 4538927
-1616.6381 613.83862 1937.6289 5657923
-1641.1034 627.58429 1981.0182 6579025
-1609.2386 619.8313 1956.5453 5328701
-1565.1833 607.23627 1916.7881 6579024
-1551.0585 606.15399 1913.3718 6118730
-1563.2811 615.42822 1942.6466 4540212
-1566.2843 621.18359 1960.8138 5066043
-1538.6508 614.78369 1940.6122 4276269
-1526.4551 614.50232 1939.7239 3355169
-1527.4861 619.58167 1955.7572 3223068
-1516.1332 619.677 1956.0583 3880998
-1494.2599 615.44086 1942.6866 3288605
-1482.6501 615.39905 1942.5546 2433553
-1474.6923 616.88416 1947.2424 4078379
-1459.9113 615.51593 1942.9236 2368019
-1447.5365 615.14868 1941.7642 5196860
-1434.793 614.61743 1940.0873 2499094
-1419.9708 613.18005 1935.55 3420708
-1422.1823 619.1347 1954.3463 2959644
-1372.7972 602.54059 1901.9659 6446675
-1360.2777 601.98657 1900.2172 5262655
-1354.7827 604.55798 1908.3339 4012846
-1335.0105 600.74799 1896.3073 7170397
-1317.9937 598.12366 1888.0236 4604721
-1332.7683 610.00543 1925.5292 4012075
-1330.6007 614.27094 1938.9935 5327676
-1314.8718 612.29565 1932.7583 3814436
-1319.3944 619.79895 1956.4431 5064246
-1312.6517 622.09637 1963.6952 4998964
-1289.6926 616.68079 1946.6006 5328699
-1249.6442 602.92242 1903.1711 2959897
-1250.4996 608.82825 1921.8134 5196857
-1244.3693 611.41022 1929.9635 4406573
-1241.6125 615.71307 1943.5458 2367766
-1223.0797 612.19977 1932.4558 6249035
-1201.4883 607.07483 1916.2784 6643280
-1160.686 592.0528 1868.8602 6907222
-1148.196 591.32227 1866.5544 5328446
-1135.0585 590.24091 1863.1409 7565666
-1124.7646 590.63147 1864.3738 5131326
-1129.6096 599.05829 1890.9736 4078638
-1118.9088 599.32703 1891.822 3946796
-1107.7739 599.36639 1891.9462 3618086
-1081.1832 590.95862 1865.4064 7433825
-1089.6984 601.76367 1899.5134 4538933
-1098.9608 613.21118 1935.6483 4012333
-1065.696 600.92004 1896.8505 5065532
-1049.303 597.98193 1887.576 4867642
-1053.0419 606.57697 1914.7069 3946284
-1042.8746 607.26172 1916.8684 4209712
-1030.3792 606.59076 1914.7506 6578260
-1019.2812 606.73694 1915.2119 2762266
-1016.3876 611.82501 1931.2728 5788743
-1007.0681 613.11682 1935.3506 4341808
-1003.1267 617.75037 1949.9767 3420707
-987.04541 614.92865 1941.0697 2301719
-967.84955 610.07721 1925.7557 3551783
-968.09607 617.5116 1949.2229 3157539
-955.20245 616.64264 1946.4801 4407350
-941.63409 615.31158 1942.2784 5131329
-944.30176 624.68829 1971.8767 5262914
-926.77679 620.77441 1959.5225 5394240
-916.48138 621.66522 1962.3342 7302494
-898.49695 617.29626 1948.5433 6841944
-870.47546 605.82806 1912.3431 3354403
-870.6925 613.96991 1938.0435 5131067
-867.28998 619.74286 1956.2662 4342063
-856.96545 620.659 1959.1578 4868407
-844.2229 619.82483 1956.525 5460033
-828.35699 616.64246 1946.4796 5986379
-807.22571 609.39532 1923.6033 5854537
-804.49652 616.03162 1944.5514 4802106
-799.2702 620.92096 1959.985 3485474
-786.5993 620.08569 1957.3484 3616803
-773.05963 618.5304 1952.439 1775115
-765.46387 621.75586 1962.6202 2104334
-739.91205 610.27081 1926.3669 2630934
-726.00555 608.18134 1919.7714 4999739
-715.63318 609.03302 1922.4598 3749417
-715.10638 618.42676 1952.1118 4999228
-702.94885 617.9057 1950.467 5526086
-688.40771 615.237 1942.0431 5920845
-667.31805 606.52557 1914.5448 5065272
-665.18286 615.03857 1941.4166 5788744
-644.92822 606.80273 1915.4197 3617831
-637.15826 610.229 1926.2349 4604980
-633.75311 618.03668 1950.8806 4671803
-621.03162 616.88049 1947.2308 5658442
-611.08698 618.49091 1952.3142 3552554
-599.77997 618.75806 1953.1576 3157539
-586.65875 617.12726 1948.0098 3749675
-561.11835 602.10474 1900.5901 6052430
-571.60242 625.91431 1975.7468 2105110
-526.28345 588.33673 1857.1302 7828840
-507.57281 579.53522 1829.3477 8618614
-504.19382 588.237 1856.8154 4210740
-503.20261 600.1748 1894.498 5525829
-494.14383 602.81549 1902.8336 4802103
-482.52682 602.38586 1901.4774 3748902
-476.13986 608.62085 1921.1587 3946024
-462.47876 605.63544 1911.735 2564371
-446.51001 599.40234 1892.0597 2038029
-433.6344 597.10742 1884.8157 3353886
-425.43262 601.29706 1898.0406 3353885
-410.33301 595.70032 1880.3741 2761236
-401.65982 599.3811 1891.9927 3024410
-393.27161 603.71069 1905.6593 3484962
-379.30017 599.47205 1892.2797 1774601
-364.54214 593.69421 1874.0415 3221792
-351.42599 590.31134 1863.3633 5261883
-343.05203 594.93304 1877.9521 5262137
-334.57263 599.67572 1892.9227 5525821
-321.64551 596.49884 1882.8947 6184014
-308.74985 593.15424 1872.337 5723208
-304.1763 606.1441 1913.3406 4736315
-292.64078 605.72919 1912.0309 4867644
-281.21982 605.52747 1911.3942 3091488
-271.08459 608.19354 1919.8099 3551526
-259.98276 608.82941 1921.817 5854792
-248.50209 608.59583 1921.0796 6381135
-237.97845 610.79608 1928.025 4736570
-224.53026 605.33362 1910.7823 789255
-213.88782 607.25708 1916.8538 2039057
-203.58369 610.41058 1926.8081 1907470
-192.33836 610.9491 1928.5078 4538420
-180.23474 608.65704 1921.2729 2893851
-170.12029 613.22626 1935.696 3091231
-156.85522 606.27838 1913.7644 1512715
-144.6908 602.83331 1902.8899 3156509
-131.94774 596.19183 1881.9254 4209709
-121.863 601.44409 1898.5046 1906441
-110.47337 600.66949 1896.0597 3353884
-98.408875 595.63483 1880.1672 3024665
-87.195221 595.12213 1878.549 2696212
-75.465225 590.41968 1863.7053 2169611
-64.453209 590.68542 1864.5442 5723713
-53.427387 590.90839 1865.2479 5328697
-42.459709 592.05841 1868.8781 920321
-31.310286 590.59155 1864.2477 4011561
-20.407688 594.71887 1877.276 3156248
-9.3084478 596.13849 1881.7572 2498322
1.8597358 602.69391 1902.4497 4208935
13.07214 600.02527 1894.026 1182723
24.281641 599.75018 1893.1577 3748131
35.574894 601.06396 1897.3048 2169358
46.340336 594.97021 1878.0695 4274727
57.472973 595.03784 1878.2828 5460284
68.301941 592.44952 1870.1125 2960156
79.577286 593.91504 1874.7388 4077352
91.107315 596.68976 1883.4972 2958361
103.03344 601.16998 1897.6394 2695447
114.06497 600.0625 1894.1437 1642761
124.35 595.57806 1879.988 3550755
135.27994 594.66577 1877.1084 3419422
148.22581 602.08063 1900.514 6709070
159.02873 600.35852 1895.078 4011298
171.36534 604.27179 1907.4304 3945764
184.12997 609.1167 1922.7239 3682593
196.31514 611.59186 1930.5369 4340269
208.61626 614.13593 1938.5674 4406063
218.68108 610.17462 1926.0632 6512209
229.56601 608.78101 1921.6643 5525059
239.68515 605.58429 1911.5736 4669748
251.05693 605.69818 1911.933 2893337
262.57498 606.13983 1913.3271 1774858
274.75031 607.99939 1919.197 4077611
285.0882 605.80682 1912.2759 2564626
296.64322 606.26923 1913.7355 2762266
307.81665 605.94641 1912.7166 3354912
317.70102 603.1991 1904.0446 5328952
329.55014 604.24268 1907.3385 5394231
341.64371 605.65033 1911.7819 3484701
353.20407 606.05267 1913.0521 4602927
366.70554 609.65729 1924.4302 1577224
375.05795 604.74213 1908.9152 5458240
0 0 0 0
0 0 0 0
0 0 0 0
0 0 0 0
0 0 0 0
0 0 0 0
0 0 0 0
0 0 0 0
482.98804 612.54236 1933.5372 3879972
493.87198 611.83527 1931.3052 4998452
510.79489 618.47217 1952.2551 4669233
523.35358 619.64801 1955.9667 2695957
528.47815 612.16156 1932.3352 3946546
0 0 0 0
0 0 0 0
241.66373 262.84958 829.70502 2
245.80724 262.02682 827.10785 2
250.25929 261.55865 825.63007 65536
253.93462 260.31223 821.69568 1578513
0 0 0 0
0 0 0 0
0 0 0 0
614.25775 584.8396 1846.0913 2366480
638.42352 597.21484 1885.1547 853762
643.20483 591.34302 1866.6199 3353117
656.82727 593.66058 1873.9353 4339757
669.23419 594.82074 1877.5975 2234637
679.28644 593.88434 1874.6417 2366738
685.90662 590.0257 1862.4617 2169102
701.77618 594.11981 1875.385 1247746
710.31488 591.97668 1868.6201 3156253
718.03906 589.23102 1859.9531 1510918
720.13129 582.01648 1837.1799 3945770
742.26007 590.96942 1865.4406 3879724
751.76953 589.75983 1861.6224 4603701
757.8385 585.92523 1849.5182 4866616
771.06897 587.6579 1854.9875 4011049
781.80457 587.46722 1854.3856 4076585
796.47003 590.19391 1862.9926 4340268
811.95856 593.44763 1873.2632 2432015
824.74469 594.6651 1877.1062 2827289
833.46893 592.96039 1871.7252 3155992
849.1026 596.15149 1881.7981 986118
855.10828 592.58777 1870.549 3484706
870.62152 595.61957 1880.1191 2301203
878.92841 593.70703 1874.082 1839623
891.74072 594.8476 1877.6824 2694930
896.42224 590.60315 1864.2844 3352861
904.60602 588.74139 1858.4075 3418912
913.81989 587.58667 1854.7626 3419164
929.43353 590.52557 1864.0396 4142376
942.98621 592.10144 1869.0138 3879462
968.66785 601.16803 1897.6333 2958876
980.31757 601.41821 1898.4229 2629653
988.21155 599.38464 1892.0039 2826778
1002.0345 600.95251 1896.953 2893084
1021.5147 605.84088 1912.3834 1511690
1026.8502 602.32495 1901.2853 3617322
1020.2934 591.98535 1868.6475 4143671
1043.9266 599.19629 1891.4093 3617583
1059.8418 601.87109 1899.8524 5722701
1076.3424 604.81854 1909.1565 3946541
1085.8712 603.82794 1906.0295 524544
1098.8459 604.75415 1908.9532 1511690
1100.5017 599.49554 1892.354 2103570
1105.0374 595.89606 1880.9918 1972497
1123.548 599.8291 1893.4069 920066
1132.3585 598.55713 1889.3917 1051910
1157.6453 605.93396 1912.6772 6249043
1166.1603 604.47424 1908.0695 2038032
1162.5499 596.81775 1883.9012 919553
1180.0979 600.06555 1894.1533 3419427
1193.9167 601.37396 1898.2832 1511431
1193.3661 595.48749 1879.7021 2365968
1215.3086 600.83014 1896.5668 2365968
1226.214 600.66833 1896.056 2431759
1238.302 601.08356 1897.3667 1313282
1250.7725 601.67523 1899.2344 3550496
1274.6763 607.70734 1918.275 2234893
1269.9725 600.11456 1894.3079 2760982
1265.672 592.84357 1871.3564 3287326
1277.7745 593.31543 1872.8459 1248259
1282.5057 590.38586 1863.5985 2563347
1308.043 597.00238 1884.484 2365969
1303.1276 589.72565 1861.5145 2563089
1312.475 588.97144 1859.1338 2234380
1331.0817 592.35034 1869.7994 2497806
1346.7406 594.3725 1876.1826 2432270
1353.6484 592.53094 1870.3695 3220758
1367.1837 593.59668 1873.7338 2562829
1387.2546 597.46008 1885.9288 2234376
1374.5568 587.26172 1853.7369 2497549
1368.6831 580.11743 1831.1854 5458491
1379.1183 579.94373 1830.6371 2826771
1411.3361 588.86121 1858.7858 3418394
1421.6697 588.58038 1857.8994 3944740
1409.7087 579.14465 1828.1149 4602669
1453.6306 592.63605 1870.7013 3089172
1459.5508 590.5473 1864.108 4339239
1469.6946 590.18604 1862.9678 1050624
1476.1763 588.37054 1857.2371 3746590
1478.7979 585.05475 1846.7704 3220505
1487.5558 584.19751 1844.0646 2628624
1507.4003 587.67499 1855.0414 4076070
1522.5612 589.28943 1860.1375 2957331
1544.9259 593.64874 1873.8981 2562577
1557.0774 594.04932 1875.1626 3023641
1563.4038 592.23773 1869.4441 1905416
1577.2491 593.27972 1872.7333 2760985
1580.6831 590.41846 1863.7013 2103053
1596.6604 592.24945 1869.481 3090206
1609.7196 592.98029 1871.7881 2629912
1672.5155 611.89752 1931.5017 3551016
1637.709 595.09204 1878.454 2367258
1655.5294 597.50732 1886.078 2104086
1656.9928 594.02625 1875.0896 3090980
1663.4578 592.37262 1869.8699 4538169
1664.0576 588.66614 1858.17 3420200
1686.0355 592.52118 1870.3389 2432791
1689.599 589.89679 1862.0547 2103572
1708.3602 592.57806 1870.5184 2498072
1712.9237 590.33185 1863.428 1774606
1705.2887 583.93719 1843.2428 1774606
1720.9618 585.5545 1848.348 1972242
1714.0562 579.51758 1829.2919 3616296
1725.3545 579.67249 1829.7809 2300181
1736.2422 579.68842 1829.8312 3024160
1742.1633 578.05621 1824.6791 2629402
0 0 0 0
0 0 0 0
0 0 0 0
0 0 0 0
0 0 0 0
0 0 0 0
0 0 0 0
0 0 0 0
0 0 0 0
0 0 0 0
0 0 0 0
0 0 0 0
-1603.4181 598.94019 1855.8951 5591870
-1566.0233 589.01062 1825.127 5920584
-1550.4967 587.22522 1819.5947 6446669
-1571.4951 599.34491 1857.1492 4933686
-1579.5118 606.64954 1879.7837 6973270
-1569.5354 607.09821 1881.1738 3157276
-1561.6484 608.36719 1885.106 4209962
-1567.7797 615.15485 1906.1384 6316108
-1562.3297 617.46399 1913.2935 6447953
-1543.9451 614.65735 1904.5968 3158560
-1535.8846 615.94983 1908.6017 4737589
-1541.318 622.71307 1929.5587 4540210
-1514.9636 616.63885 1910.7368 3750437
-1503.4675 616.56653 1910.5127 4276526
-1514.7814 625.91833 1939.4905 3552544
-1502.1626 625.4483 1938.0339 5196858
-1486.3014 623.6106 1932.3397 3815204
-1478.7631 625.26355 1937.4617 3223069
-1463.257 623.54706 1932.1427 1578251
-1443.9323 620.16339 1921.6581 1512199
-1448.7178 627.16345 1943.3486 4143918
-1419.0011 619.21973 1918.734 3946540
-1406.9984 618.94006 1917.8674 3157278
-1387.7866 615.45874 1907.0801 1973265
-1371.4498 613.20581 1900.099 6051916
-1346.9203 607.22211 1881.5577 5130814
-1328.019 603.69696 1870.6348 3683622
-1331.4819 610.36456 1891.295 4933946
-1304.7859 603.20276 1869.1034 6052168
-1316.9976 614.05945 1902.7443 8420715
-1316.7203 619.23029 1918.7666 3222299
-1317.4303 624.95941 1936.519 4078635
-1297.7555 621.03412 1924.3561 3881001
-1275.4922 615.78967 1908.1055 7696995
-1253.0814 610.37952 1891.3414 5854791
-1246.7034 612.75183 1898.6924 5394240
-1233.4554 611.76007 1895.6193 5328704
-1222.4478 611.8714 1895.9642 5525825
-1213.2413 612.89471 1899.1351 6578511
-1206.8373 615.36615 1906.7931 3223333
-1186.6682 610.79913 1892.6416 5525056
-1158.587 602.03369 1865.4807 5393727
-1124.1 589.73865 1827.3831 5065018
-1122.6174 594.68811 1842.7195 5591619
-1121.2272 599.78412 1858.5103 6447187
-1113.1132 601.34882 1863.3585 6841944
-1095.2328 597.61578 1851.7913 5854792
-1095.9128 604.03723 1871.689 7697253
-1077.5897 600.00879 1859.2063 5197121
-1082.0214 608.69806 1886.1312 4473140
-1075.8429 611.53754 1894.9297 4407344
-1054.7385 605.86322 1877.347 3354402
-1058.7389 614.64227 1904.5502 5986123
-1054.4523 618.74774 1917.2714 4275505
-1044.6428 619.66656 1920.1185 3880749
-1030.4174 617.95715 1914.8217 6841432
-1017.6467 617.09198 1912.1409 3880747
-1006.1247 616.97296 1911.772 5525571
-987.55463 612.48004 1897.8502 6249551
-976.19269 612.40564 1897.6196 2894621
-966.33936 613.28687 1900.3502 5131326
-957.22192 614.6615 1904.6097 5591877
-949.17639 616.76538 1911.1288 4539189
-935.43756 615.17596 1906.2039 6052429
-933.43756 621.36194 1925.3718 1512201
-913.58337 615.66876 1907.731 5788741
-908.2807 619.76239 1920.4154 4143917
-888.94507 614.26288 1903.3745 6117706
-881.38489 616.86359 1911.4331 4144172
-867.00128 614.69409 1904.7107 4868151
-854.2337 613.62842 1901.4086 3223326
-866.26239 630.58429 1953.9485 7236188
-846.80316 624.76776 1935.9254 6381395
-834.43726 624.0968 1933.8463 6446931
-821.73334 623.15094 1930.9153 4933436
-804.76959 618.90228 1917.7504 5591622
-791.48267 617.40015 1913.0957 3551269
-789.96521 625.16852 1937.1671 4670003
-779.87866 626.28448 1940.6251 5393727
-752.54944 613.37988 1900.6383 5327932
-743.8941 615.53497 1907.3163 5394238
-733.62933 616.40424 1910.0098 4736309
-709.5556 605.51654 1876.2728 5920584
-715.16949 620.02014 1921.2142 3881001
-697.37561 614.37122 1903.7101 5656901
-686.76227 614.96637 1905.5543 4670262
-683.6463 622.40723 1928.6108 5197117
-664.80927 615.54486 1907.347 4999479
-651.71039 613.85016 1902.0956 6842196
-637.95551 611.46686 1894.7108 5657929
-620.26215 605.15576 1875.155 4408377
-614.31976 610.28839 1891.059 5723978
-610.67712 617.93866 1914.7645 2696988
-595.43182 613.91577 1902.299 3683884
-573.90265 603.13367 1868.8893 4275763
-563.3017 603.63818 1870.4525 4078638
-550.67664 601.95032 1865.2224 5855048
-533.9494 595.61743 1845.599 6249552
-518.78699 590.8017 1830.677 6315344
-516.49799 600.75385 1861.515 5657158
-504.87033 600.0412 1859.3068 3222817
-493.89658 600.09131 1859.462 3879976
-484.24393 601.7854 1864.7114 3748907
-473.66827 602.38483 1866.5687 2564626
-465.24677 605.81781 1877.2064 4011815
-454.43283 606.22748 1878.4757 656384
-439.71173 601.31451 1863.2523 2366737
-429.08209 601.88776 1865.0287 1775374
-422.85645 608.83234 1886.5472 2169613
-409.97385 606.3089 1878.7281 2432017
-403.66397 613.63635 1901.4331 524800
-388.05002 606.83466 1880.3572 655872
-375.29895 604.24023 1872.3181 2563605
-360.70044 598.42285 1854.2921 4800568
-344.63031 589.72168 1827.3304 3682854
-337.17059 595.66797 1845.7557 5064506
-322.44818 588.75201 1824.3257 4341552
-318.91046 602.48651 1866.8839 6184011
-306.61447 600.06726 1859.3876 6249297
-298.1102 605.16492 1875.1833 2367510
-289.60504 610.65533 1892.1962 1841165
-277.30817 608.27087 1884.8075 3880747
-267.36374 611.06287 1893.4589 3880747
-255.24904 608.92194 1886.825 3420195
-243.36717 607.16589 1881.3835 4604214
-230.82329 603.51025 1870.0562 3947053
-219.87701 603.87378 1871.1825 5592135
-210.66623 609.29535 1887.9819 1118729
-198.339 605.80603 1877.1699 4342069
-186.77953 604.38654 1872.7712 2433302
-177.29471 609.92487 1889.9326 3025439
-165.13867 606.40094 1879.0133 4736057
-153.18317 603.15723 1868.9622 1446410
-142.06891 602.97858 1868.4086 3222560
-131.52481 605.39398 1875.8932 1577734
-120.548 606.07983 1878.0183 3288093
-109.41473 606.03851 1877.8901 2958872
-97.947929 603.93127 1871.3607 3616545
-87.011719 604.97522 1874.5956 2300943
-75.749687 603.72791 1870.7305 3222298
-64.059608 598.05682 1853.1578 5590845
-52.845169 595.39874 1844.9216 3748899
-41.86105 594.62628 1842.528 3486241
-30.71516 590.20032 1828.8135 2433038
-20.033962 594.74548 1842.8973 2630676
-9.2313747 602.25824 1866.1765 5064762
1.8184272 600.32703 1860.1924 5919557
12.806779 598.83771 1855.5776 3550752
23.848177 600.05902 1859.3619 1840136
34.937553 601.33429 1863.3136 2695182
45.900665 600.34583 1860.2506 3484957
55.176891 581.94849 1803.2441 3222042
66.713341 589.49133 1826.6166 4340524
79.028992 600.85284 1861.8218 2563859
90.218727 601.91956 1865.1271 6050887
