# .PCD v0.7 - Point Cloud Data file format
VERSION 0.7
FIELDS x y z rgb
SIZE 4 4 4 4
TYPE F F F U
COUNT 1 1 1 1
WIDTH 1363
HEIGHT 1
VIEWPOINT 0 0 0 1 0 0 0
POINTS 1363
DATA ascii
-1003.2157 720.28925 1389.9227 1973260
-995.59827 720.73578 1390.7843 4999993
-982.29602 717.04004 1383.6527 2631192
-976.81653 719.04041 1387.5128 4407857
-966.02472 717.13123 1383.8286 5460291
-956.15466 715.87939 1381.4131 3617829
-947.58887 715.59094 1380.8564 1644554
-929.94153 708.3797 1366.941 3091488
-934.18115 717.86041 1385.2357 3552041
-919.49603 712.83777 1375.5437 525571
-909.09326 711.07495 1372.1421 2959646
-895.93359 707.10449 1364.4803 1381126
-888.90637 707.94568 1366.1036 1183755
-888.57452 714.18372 1378.141 5459783
-879.81396 713.7002 1377.2079 2236439
-868.87213 711.42151 1372.8108 5394757
-854.72015 706.44659 1363.2108 4539961
-842.80884 703.24634 1357.0354 592133
-836.55908 704.75403 1359.9447 5394497
-821.54736 698.83771 1348.5282 1907476
-814.92035 700.00769 1350.7859 6710356
-805.33044 698.63049 1348.1283 1709836
-795.84796 697.31982 1345.5991 196864
-783.7478 693.66577 1338.5481 4801078
-786.50879 703.22461 1356.9934 3485215
-778.78009 703.505 1357.5345 3813926
-771.19073 703.91846 1358.3324 4011811
-765.91736 706.47687 1363.2693 5129783
-762.59796 710.91144 1371.8265 6907218
-761.58923 717.61871 1384.7694 5987144
-754.10968 718.30847 1386.1005 1710094
-755.591 727.64288 1404.1127 1841423
-742.05707 722.56415 1394.3125 1840914
-731.6076 720.40845 1390.1527 2367253
-714.98846 712.05927 1374.0415 2762527
-707.26624 712.48029 1374.8539 2499094
-692.36017 705.5899 1361.5577 1249030
-673.5437 694.50507 1340.1676 3420456
-671.9458 701.12195 1352.936 3485987
-666.36084 703.68823 1357.8881 4012586
-662.61469 708.28278 1366.754 4670517
-658.14276 712.20563 1374.3239 5854792
-648.07428 710.09448 1370.2501 2696984
-638.70081 708.70117 1367.5614 3946535
-620.07074 696.86877 1344.7288 3486240
0 0 0 0
-592.84406 683.84155 1319.5905 1710095
-603.146 705.02155 1360.4609 4406827
-597.63879 708.04559 1366.2964 4538156
-587.82739 705.98322 1362.3168 1249283
-581.38617 707.96747 1366.1456 5130293
-573.59381 708.33917 1366.8629 6117188
-562.59076 704.69983 1359.8402 4999479
-549.84607 698.74146 1348.3424 4341290
-549.11914 708.10468 1366.4104 4867637
-535.76019 701.21503 1353.1156 4736313
-522.51184 694.26306 1339.7006 3157026
-507.91589 685.27832 1322.363 4472884
-504.02335 690.67944 1332.7854 3617575
-499.29996 695.0957 1341.3074 4472370
-497.76334 704.16309 1358.8044 4077610
-477.99054 687.30658 1326.277 4801333
-481.39938 703.77686 1358.0591 4406315
-468.03687 695.87146 1342.8043 4801074
-460.24234 696.11432 1343.2729 3550748
-449.93295 692.49506 1336.2889 3748383
-438.61365 687.16394 1326.0016 3945504
-427.72595 682.3269 1316.6677 5327158
-421.3949 684.71411 1321.2743 4340262
-416.88739 690.21082 1331.8811 4537639
-411.58746 694.58246 1340.3169 4011296
-403.36255 694.09271 1339.3719 7695706
-396.24179 695.52148 1342.1289 3616030
-390.29303 699.10815 1349.05 6248515
-386.8504 707.42761 1365.1039 3353889
-378.5271 706.98663 1364.2529 2433296
-369.93881 706.02063 1362.3889 4933430
-367.65152 717.30511 1384.1643 1446661
-360.72009 719.83685 1389.0497 1380872
-350.89392 716.57526 1382.7559 1577996
-343.1105 717.42908 1384.4034 1183756
0 0 0 0
-318.58145 699.5849 1349.97 2564887
-308.45001 694.77826 1340.6948 4209197
-298.99768 691.28772 1333.9592 2827542
-291.53253 692.32678 1335.9642 2038027
-283.44739 691.91034 1335.1606 3222299
-276.94125 695.43506 1341.9622 1446405
-267.73016 692.17505 1335.6714 2827540
-260.60605 694.27612 1339.7258 6577996
-254.02194 697.9931 1346.8984 4472361
-245.54326 696.57654 1344.1649 4998445
-240.79402 705.99957 1362.3483 1840640
-231.00772 700.79559 1352.3063 5130540
-222.2153 698.341 1347.5697 5196080
-212.96733 694.21851 1339.6146 2630156
-211.49927 716.11902 1381.8755 7367508
-202.09648 711.83508 1373.6089 4144421
-191.95512 704.48114 1359.4182 3618341
-184.2043 705.64062 1361.6556 4671031
-176.70209 707.90234 1366.0199 5723719
-167.52042 703.3299 1357.1967 2631194
-159.51404 703.47968 1357.4857 3223333
-154.93956 719.58417 1388.562 2368021
-144.02785 706.41223 1363.1445 2828312
0 0 0 0
-128.59351 710.37201 1370.7856 4801075
-119.69736 705.80042 1361.964 4933174
-110.48827 698.58929 1348.0488 7367772
-103.65789 706.46625 1363.2488 3485986
-95.49778 705.84607 1362.052 3617060
-87.309372 704.88287 1360.1934 6051400
-78.915886 701.89978 1354.437 2235923
-71.287033 705.81201 1361.9863 5459515
-63.158546 705.14478 1360.6987 5196345
-55.351711 708.39868 1366.9778 1972751
-47.007072 704.70544 1359.8511 6052169
-39.007729 705.73169 1361.8313 4209449
-31.019993 707.55786 1365.3552 4143655
-22.984612 709.20215 1368.5282 4867639
-14.943613 712.37103 1374.6431 3881003
-6.8187919 714.34833 1378.4586 5591881
1.3408885 710.83838 1371.6855 3223334
9.501874 713.45209 1376.7291 2104596
17.46883 705.81171 1361.9857 2959645
25.625862 708.25275 1366.6962 2893082
33.652168 706.776 1363.8466 4537648
41.623409 704.93854 1360.3008 3353373
49.727425 705.58105 1361.5406 7564892
57.935532 707.31512 1364.8868 3222555
65.68837 703.74689 1358.0013 4603694
73.667 703.11237 1356.777 2367767
81.259399 699.27905 1349.3799 3748390
89.794113 703.5152 1357.5542 4078127
98.143402 705.72156 1361.8118 3025954
106.48257 707.52545 1365.2927 3947056
114.89474 709.52545 1369.1521 3092514
122.96094 709.26605 1368.6515 4408121
131.02283 709.01544 1368.1678 4144690
138.77524 707.21686 1364.6973 4802105
144.84007 697.48969 1345.9269 3157538
154.75769 706.36292 1363.0493 5196350
162.73555 705.94147 1362.2361 4144432
169.80782 701.81702 1354.2773 5196607
178.43172 704.18835 1358.8531 7565663
186.46155 704.11157 1358.7051 4933433
195.12273 706.3266 1362.9794 1116676
203.75943 708.28052 1366.7498 3024926
212.883 711.71277 1373.3728 1051909
220.12926 708.84711 1367.843 2367510
226.87831 704.64075 1359.7262 4407351
0 0 0 0
0 0 0 0
0 0 0 0
0 0 0 0
0 0 0 0
0 0 0 0
0 0 0 0
0 0 0 0
0 0 0 0
0 0 0 0
0 0 0 0
202.80161 441.68045 852.29883 65536
207.07332 440.02829 849.11072 1
211.51852 438.81442 846.76831 0
0 0 0 0
0 0 0 0
352.15442 682.04919 1316.1318 2367512
371.16971 703.30591 1357.1504 1709324
379.97113 704.71796 1359.8751 2630941
388.36725 705.33527 1361.0664 1644047
395.30316 703.32953 1357.1959 131072
401.20212 699.59546 1349.9905 262400
407.79105 697.18701 1345.3429 1906705
415.62991 696.96692 1344.9182 196864
422.09805 694.49982 1340.1575 1116932
430.40491 695.09326 1341.3026 327680
439.18225 696.41119 1343.8458 590592
447.04895 696.26398 1343.5618 524544
453.22778 693.539 1338.3035 1971468
461.90399 694.66364 1340.4736 2168846
469.25082 693.78479 1338.7777 1182211
475.41306 691.21283 1333.8146 1839874
486.85425 696.27466 1343.5824 2168584
493.75055 694.77838 1340.6949 4668718
500.53418 693.17328 1337.5978 3287577
509.27963 694.29291 1339.7582 2235152
518.14734 695.54224 1342.1689 2432016
525.53058 694.79114 1340.7196 2169360
534.96637 696.73572 1344.472 656642
542.92859 696.73218 1344.4652 3353120
552.75824 699.09064 1349.0162 2695446
562.87891 701.74457 1354.1375 2893081
569.04346 699.46112 1349.7312 3945511
574.74133 696.67535 1344.3556 1051139
586.79401 701.56342 1353.7878 4340015
595.7348 702.64923 1355.8832 2234641
605.7063 704.90576 1360.2375 459265
614.82739 706.12628 1362.5928 3024672
613.79309 695.80298 1342.6721 2366997
622.52197 696.66974 1344.3447 2761499
625.3111 690.95142 1333.3103 1972753
633.05365 690.78088 1332.9812 2828317
641.29303 691.15009 1333.6936 1973008
652.83997 695.03149 1341.1835 788482
657.58783 691.66815 1334.6934 5459266
664.35773 690.48627 1332.4127 1183237
670.21429 688.3941 1328.3755 2366995
674.7301 684.98932 1321.8053 1445894
684.18127 686.61566 1324.9436 1511173
680.1983 674.87598 1302.2899 1643019
697.05975 683.849 1319.6049 2103308
705.40973 684.36542 1320.6014 1248003
719.13861 690.0318 1331.5356 2234639
731.63831 694.40851 1339.9813 2760724
730.93402 686.2937 1324.3224 3615518
745.0564 692.12463 1335.5741 2891798
756.49359 695.36469 1341.8264 2694933
773.51685 703.61871 1357.7539 918528
782.70026 704.64484 1359.734 1708296
780.22217 695.25836 1341.6212 1839882
789.82349 696.71674 1344.4354 2498067
795.30841 694.55109 1340.2565 2629398
800.63593 692.29218 1335.8975 2168590
810.55219 694.00641 1339.2053 2695959
809.72992 686.58197 1324.8787 2037776
820.38605 688.93945 1329.4279 1116933
830.06519 690.43939 1332.3223 2892828
842.9873 694.58325 1340.3185 1971984
857.30792 699.7912 1350.3682 1708813
861.67224 696.85107 1344.6947 3946032
868.78729 696.16895 1343.3784 2827807
875.82782 695.44012 1341.9719 3156770
869.76453 684.41296 1320.6932 3617065
885.55267 690.62402 1332.6785 3155998
900.79553 696.30371 1343.6384 4866618
905.81171 694.04816 1339.2859 5590340
914.46729 694.59607 1340.3431 0
927.06598 698.10376 1347.1119 5129531
940.35168 702.06451 1354.7549 3090717
939.86731 695.76453 1342.598 4209199
951.47888 698.44958 1347.7793 4735802
965.18274 702.61298 1355.8132 1052169
964.52521 696.33954 1343.7075 1907477
975.0885 698.20319 1347.3038 5856081
987.20697 701.14124 1352.9733 3289385
995.86847 701.59656 1353.8518 4737088
994.01416 694.69525 1340.5345 5525834
1012.9849 702.3421 1355.2905 1052429
1014.1541 697.62323 1346.1847 2762529
1026.8041 700.81396 1352.3418 2959650
1029.597 697.27979 1345.522 3354921
1032.1793 693.65826 1338.5336 3749420
1047.1936 698.383 1347.6508 5525572
1053.3993 697.20612 1345.3798 2827034
1062.4032 697.88507 1346.6899 2564120
1068.3818 696.58142 1344.1743 4537909
1080.9655 699.57166 1349.9445 2498327
1084.7073 696.83783 1344.6691 2498071
1104.4315 704.33643 1359.1389 3287587
1109.0066 702.13519 1354.8912 1708813
1110.3729 697.94867 1346.8126 1380105
1115.8793 696.40564 1343.8351 2300948
1131.6379 701.23749 1353.1589 4735289
1130.1403 695.38336 1341.8624 4274738
1139.4672 696.22498 1343.4865 2300435
1148.675 696.98267 1344.9486 4209201
1153.5884 695.14209 1341.3969 1314571
1163.217 696.14868 1343.3392 3485481
1175.9818 699.00574 1348.8524 4472376
1186.2441 700.34674 1351.4402 3682603
1198.4885 702.83203 1356.236 3616809
1198.1449 697.95154 1346.8181 4208944
1201.6006 695.33405 1341.7673 4736060
1213.5768 697.64917 1346.2347 5262148
1228.5493 701.64539 1353.9462 4867387
1229.2012 697.46399 1345.8774 2432533
1227.3313 691.91492 1335.1694 4866617
1229.967 688.96063 1329.4686 2892830
1223.1344 680.77399 1313.6711 2235157
1221.6437 675.64539 1303.7745 3419945
1238.2091 680.50458 1313.1512 262144
1239.5804 677.00482 1306.3978 788227
1244.0436 675.2265 1302.9663 590852
0 0 0 0
0 0 0 0
0 0 0 0
0 0 0 0
0 0 0 0
0 0 0 0
0 0 0 0
0 0 0 0
0 0 0 0
0 0 0 0
0 0 0 0
0 0 0 0
0 0 0 0
0 0 0 0
0 0 0 0
0 0 0 0
0 0 0 0
-1123.8771 706.04034 1347.028 5262911
-1125.5437 712.14398 1358.6729 3025949
-1122.2017 715.14355 1364.3956 3552294
0 0 0 0
-1087.9564 703.4538 1342.0933 2367252
-1090.7522 710.45355 1355.4478 2696473
-1088.5242 714.26068 1362.7112 2432532
-1076.7981 711.8457 1358.1038 4274991
-1056.7594 703.85779 1342.8639 2037771
-1046.3536 702.21332 1339.7266 4340521
-1036.796 701.11725 1337.6354 4932658
-1029.5964 701.61127 1338.5779 5393461
-1030.6589 707.78674 1350.3599 6577993
-1023.3575 708.27008 1351.282 6446664
-1019.2455 710.98596 1356.4635 3157018
-1011.4735 711.17151 1356.8175 3684133
-1020.8441 723.5097 1380.3571 5592131
-1015.5037 725.53674 1384.2244 6447442
-995.45752 717.00458 1367.9462 2697496
-992.82147 720.97534 1375.5219 3815464
-993.03729 727.09998 1387.2068 3881258
-973.65717 718.85889 1371.484 1775626
-971.78607 723.51514 1380.3674 2236175
-962.54718 722.7182 1378.847 2499607
-952.20203 721.07001 1375.7025 4999737
-938.79688 717.05609 1368.0444 3683877
-925.95215 713.40405 1361.0769 6579792
-920.28253 715.26459 1364.6265 6513490
-910.53082 713.95709 1362.1321 2105623
-905.45331 716.32416 1366.6481 2894621
-899.62384 718.13373 1370.1005 1908241
-875.03906 704.86835 1344.7919 3684652
-877.82147 713.60675 1361.4636 6842460
-868.48108 712.56085 1359.4681 987144
-859.90839 712.13104 1358.6482 4933949
-842.39313 704.21747 1343.5502 5065535
-842.36908 710.91455 1356.3273 1841938
-835.70172 712.08008 1358.5509 3618345
-822.01093 707.22559 1349.2892 4539191
-816.63989 709.50397 1353.636 4275759
-807.68542 708.68341 1352.0706 1447177
-799.12555 708.19611 1351.1407 3749927
-784.14032 701.94696 1339.2184 2235919
-779.6499 705.06104 1345.1595 1578512
-771.44971 704.84979 1344.7566 3946023
-771.63031 712.37134 1359.1066 1446408
-763.71283 712.49652 1359.3455 5459258
-757.48389 714.21643 1362.6268 6709839
-755.16193 719.69696 1373.0829 4670772
-751.34576 723.85724 1381.0201 4473143
-746.09271 726.70959 1386.462 723205
-736.60706 725.45685 1384.072 1315085
-727.20154 724.25586 1381.7806 131585
-713.32788 718.52673 1370.8502 5920843
-699.31232 712.52106 1359.3922 722432
-688.6767 709.85931 1354.314 5395013
-651.51508 679.47064 1296.3367 4999996
-654.30414 690.51898 1317.4153 1578507
-664.6767 709.9339 1354.4563 3223071
-654.05499 707.12549 1349.0983 3288862
-647.97247 709.21588 1353.0864 2762523
-637.39105 706.3728 1347.6622 8684660
-630.0589 707.10419 1349.0576 2105366
-617.43237 701.83624 1339.0071 4605239
-611.80688 704.49286 1344.0756 3354917
-599.40479 699.31342 1334.1938 5394746
-599.00238 708.18237 1351.1146 1907210
-595.03857 713.02405 1360.3519 4341291
-588.30676 714.63623 1363.4277 3946791
-573.76294 706.67175 1348.2325 4538929
-562.38959 702.44238 1340.1635 2104847
-554.63007 702.67023 1340.5983 1315339
-545.98315 701.76428 1338.8699 3946278
-538.6311 702.52039 1340.3124 5788226
-529.08319 700.39227 1336.2522 4144179
-512.16986 688.30121 1313.1841 3881001
-508.07877 693.33459 1322.7871 3881001
-501.46637 695.03113 1326.0239 5986375
-494.06833 695.67548 1327.2533 5131579
-490.06082 701.19208 1337.7781 2960412
-480.94812 699.46509 1334.4833 3683369
-473.61487 700.31165 1336.0984 3090457
-466.99048 702.25299 1339.8022 4010532
-457.28705 699.55121 1334.6476 4010526
-446.32492 694.79486 1325.5731 4800558
-435.59766 690.24042 1316.8838 4734510
-428.56573 691.48206 1319.2528 4208421
-420.33362 690.79749 1317.9467 3682854
-417.15921 698.55646 1332.7496 5393208
-410.99899 701.51831 1338.4005 5524796
-405.80664 706.28119 1347.4874 4997934
-398.22787 706.9986 1348.8562 4669485
-389.55487 705.76282 1346.4984 3551258
-385.92181 713.7973 1361.8271 4999222
-377.07394 712.32367 1359.0156 5460284
-371.95703 717.98755 1369.8215 7763298
-365.35803 720.97937 1375.5295 3354914
-356.09357 718.72784 1371.234 2499608
-345.00934 712.61243 1359.5667 394240
-334.41776 707.24664 1349.3295 1052167
-325.13898 704.4624 1344.0175 1643789
-314.82608 699.24164 1334.0569 3288096
-307.00552 699.43005 1334.4164 4603699
-298.73148 698.56787 1332.7715 2432785
-290.09604 696.79102 1329.3815 3156503
-280.31903 692.09637 1320.4248 1972235
-271.04837 688.41821 1313.4073 3156507
-265.94324 695.41516 1326.7566 1051648
-259.89655 700.30121 1336.0785 5590835
-253.27849 703.90631 1342.9564 5656635
-244.56012 701.71875 1338.783 4077857
-239.20732 709.36511 1353.3711 3353621
-231.44603 710.15179 1354.8721 2498571
-220.16211 699.7981 1335.1187 4537898
-213.9037 705.24194 1345.5046 3288344
-211.44228 724.11047 1381.5032 5394238
-200.94994 715.88812 1365.8162 4802361
-191.68376 711.5274 1357.4965 5196864
-182.82185 708.35101 1351.4364 3815469
-175.39522 710.6994 1355.9169 4078126
-167.86224 712.82184 1359.9661 4933949
-160.18155 714.49927 1363.1664 4736570
-150.75388 708.1485 1351.05 4473398
-143.71706 712.94604 1360.2031 4078637
-134.57849 707.26794 1349.3701 3419421
-125.62957 701.93243 1339.1907 3156509
0 0 0 0
-111.20065 711.13104 1356.7404 4801331
-101.83362 701.96729 1339.2571 3485470
-94.368935 705.4762 1345.9517 2103823
-86.800438 708.78516 1352.2646 4143144
-78.413536 705.4046 1345.8151 1446410
-70.63903 707.39154 1349.6058 6314313
-62.989532 711.29724 1357.0574 4932914
-54.180756 701.3396 1338.0596 4670515
-46.318474 702.32037 1339.9308 6841682
-38.967228 713.05835 1360.4174 3024405
-30.945986 713.93915 1362.0978 2959385
-22.895939 714.54236 1363.2487 5130548
-14.770146 712.15094 1358.686 4538677
-6.7846198 718.8938 1371.5505 4407091
1.3311471 713.74146 1361.7206 1182722
9.349844 710.06244 1354.7015 1512205
17.444899 712.90253 1360.12 4274736
25.249044 705.81567 1346.5994 525312
33.543308 712.54327 1359.4347 3090460
41.576591 712.19537 1358.7709 2826775
49.136719 705.16986 1345.3672 3419423
56.897831 702.58728 1340.4399 4998453
64.717804 701.27509 1337.9365 1446149
72.88855 703.63544 1342.4397 7302238
80.99437 704.96637 1344.9789 3749162
88.82238 703.8573 1342.863 3617577
97.048088 705.82306 1346.6134 4802359
106.46336 715.48462 1365.0464 2500127
114.57462 715.63715 1365.3373 1710358
121.24452 707.36041 1349.5464 3157284
130.10963 712.12262 1358.6321 2368031
136.31282 702.60938 1340.4822 1184011
144.39262 703.28394 1341.769 7760996
153.89919 710.47467 1355.488 3880492
159.65538 700.49719 1336.4524 3091748
167.81793 701.52185 1338.4072 5722953
175.59326 700.90833 1337.2368 5065281
185.9462 710.19257 1354.9498 197121
194.41068 711.79419 1358.0055 1249288
201.8741 709.74896 1354.1035 3288360
210.68465 712.41534 1359.1907 525312
221.20471 720.45325 1374.5258 1972752
0 0 0 0
0 0 0 0
0 0 0 0
0 0 0 0
0 0 0 0
0 0 0 0
0 0 0 0
0 0 0 0
0 0 0 0
0 0 0 0
0 0 0 0
0 0 0 0
202.2995 445.62369 850.18872 2
206.89627 444.67807 848.38464 2
211.3904 443.56201 846.25531 0
216.10327 442.94598 845.08008 263170
0 0 0 0
0 0 0 0
367.88507 705.05096 1345.1404 5525572
375.17892 703.78467 1342.7244 1578513
383.65393 704.7406 1344.5482 1183239
390.65219 703.00018 1341.2277 1511691
398.30127 702.47699 1340.2295 327680
405.65652 701.46613 1338.301 1182982
412.00082 698.77936 1333.175 2827808
417.81128 695.30536 1326.547 920068
423.81189 692.27008 1320.7562 591106
436.49869 700.06848 1335.6345 262144
446.16888 702.83722 1340.9167 1379847
453.07419 701.22974 1337.85 1248263
459.88788 699.53821 1334.6228 787712
468.13223 700.04321 1335.5863 3747876
477.7644 702.57239 1340.4116 1380099
484.40393 700.69 1336.8202 1247744
486.66763 692.64032 1321.4625 2958103
494.22327 692.25781 1320.7328 3221786
501.89822 692.05194 1320.34 3682339
515.51636 699.92139 1335.3539 788484
525.05939 702.10376 1339.5175 1643273
532.71698 701.73755 1338.8188 1445637
539.60437 700.38245 1336.2334 853760
544.09619 696.00201 1327.8762 590849
555.00195 699.83429 1335.1876 2499096
562.92908 699.85559 1335.2283 2433819
569.07654 697.69452 1331.1052 6314834
580.95325 702.52051 1340.3126 3288616
592.05652 706.29382 1347.5115 2564636
598.76404 704.79248 1344.6472 262144
604.30438 701.97479 1339.2715 1445126
610.57355 700.0658 1335.6294 852992
614.23602 695.25513 1326.4512 1247746
622.6377 695.86249 1327.61 788224
628.04968 693.15509 1322.4447 2235152
636.31342 693.62305 1323.3374 1708552
643.80713 693.25043 1322.6266 2235666
651.85468 693.47601 1323.0569 2630168
659.03174 692.78113 1321.7312 919552
667.58191 693.52905 1323.1581 2235152
672.27075 690.29468 1316.9874 2103567
676.95441 687.12933 1310.9484 1840652
682.11761 684.51703 1305.9645 1774344
690.99487 685.64868 1308.1234 2300687
696.89392 683.83282 1304.6591 854017
708.39008 687.48871 1311.6339 1181440
713.59467 685.02557 1306.9347 2892566
727.49719 690.87549 1318.0955 2168075
744.10052 699.13873 1333.8606 2957589
755.56946 702.45483 1340.1873 1313539
755.38062 694.97638 1325.9194 1642245
760.65723 692.62854 1321.4401 1906190
762.88495 687.58057 1311.8092 787713
781.78088 697.50586 1330.7454 2168847
782.711 691.36389 1319.0272 2234640
789.31891 690.3089 1317.0145 1971468
799.67065 692.51666 1321.2267 2037776
802.0686 687.86047 1312.3433 3024671
801.40082 680.68976 1298.6625 1840654
814.48944 685.22858 1307.322 1577484
829.81134 691.54315 1319.3693 1445641
845.50317 698.04517 1331.7742 1708811
857.92755 701.75433 1338.8508 1445895
861.79889 698.4635 1332.5724 2235155
867.88153 697.00848 1329.7964 657155
870.16852 692.55859 1321.3066 1775633
869.38379 685.76514 1308.3457 2892828
891.55243 697.03729 1329.8513 4275506
894.70917 693.37811 1322.8701 2104338
900.44373 691.76294 1319.7887 5722695
917.88599 699.09259 1333.7726 1709580
925.44244 698.83203 1333.2754 3090464
934.09619 699.39734 1334.354 4932410
940.71094 698.43939 1332.5264 985092
951.72559 700.73688 1336.9097 787714
951.87494 695.06274 1326.0841 722177
957.22766 693.24969 1322.6251 2235672
965.69971 693.70691 1323.4974 4406581
975.50812 695.10907 1326.1725 3288357
997.82898 705.33344 1345.6792 1973011
1002.2001 702.80811 1340.8613 2894116
1005.8857 699.84576 1335.2095 591621
1018.2357 702.91064 1341.0569 1248777
1025.8959 702.71576 1340.6851 1710098
1027.7454 698.57428 1332.7837 3880496
1029.1116 694.16986 1324.3807 2169622
1037.8302 694.75403 1325.4952 3617067
1052.4648 699.26007 1334.0922 2958878
1056.1169 696.45648 1328.7433 2234898
1069.2616 699.90802 1335.3284 2498071
1076.7236 699.61639 1334.772 4011311
1086.5587 700.8598 1337.1442 1774605
1092.2107 699.40649 1334.3715 1971985
1104.1271 701.95667 1339.2368 2301207
1109.0992 700.08704 1335.6699 1906450
1120.5411 702.29895 1339.8899 1971982
1120.1093 697.09015 1329.9521 2498070
1122.8739 693.9295 1323.9221 2892059
1130.942 694.06757 1324.1855 2563350
1138.4148 693.84082 1323.7529 2365971
1146.0288 693.7027 1323.4894 2629401
1162.55 698.92151 1333.4462 2629914
1170.2548 698.80511 1333.2241 1906450
1177.6633 698.51453 1332.6698 3157029
1187.197 699.48004 1334.5117 5328455
1188.5601 695.65051 1327.2056 3683374
1200.4934 698.0174 1331.7213 2564636
1214.0651 701.29974 1337.9835 1380877
1206.1525 692.20972 1320.641 3485737
1216.1919 693.47302 1323.0513 3747883
1205.6808 683.07739 1303.2178 5064768
1207.8944 679.97723 1297.3031 3814188
1218.567 681.64819 1300.4911 1643275
1223.0973 679.88385 1297.1249 3090723
1241.673 685.90009 1308.603 1512721
1242.0845 681.87012 1300.9144 4932670
0 0 0 0
0 0 0 0
0 0 0 0
0 0 0 0
0 0 0 0
0 0 0 0
0 0 0 0
0 0 0 0
0 0 0 0
0 0 0 0
0 0 0 0
0 0 0 0
0 0 0 0
0 0 0 0
0 0 0 0
0 0 0 0
-1101.3295 694.76233 1310.6968 6448210
-1103.5306 701.09393 1322.6416 2631444
-1093.1373 699.4574 1319.5542 1776140
-1078.9437 695.34814 1311.8019 6316366
-1072.4904 696.20367 1313.4159 986632
-1080.2697 706.37842 1332.611 3749672
-1071.8912 706.05975 1332.0098 1183750
-1077.6036 715.08691 1349.0399 854790
-1077.1871 720.15155 1358.5945 3550758
-1067.2539 718.88208 1356.1996 2103308
-1046.3666 710.15894 1339.743 788224
-1034.7661 707.6535 1335.0165 3551005
-1022.4117 704.59003 1329.2371 5458745
-1018.2502 707.16876 1334.1019 4012068
-1018.4867 712.86615 1344.8503 5920580
-1014.6391 715.7724 1350.333 4604719
-1008.6309 717.18842 1353.0044 2039055
-1004.2249 719.77545 1357.885 6512464
-1014.9131 733.31042 1383.4193 3288864
-994.78271 724.617 1367.0188 789250
-986.39368 724.40369 1366.6163 920322
-985.45551 729.70398 1376.6156 3683366
-973.11859 726.58185 1370.7255 2565399
-967.29468 728.31097 1373.9877 2368021
-960.27374 729.16064 1375.5905 1710350
-946.65302 724.97046 1367.6855 3881260
-940.75909 726.67639 1370.9039 591875
-931.50903 725.79712 1369.2451 1578504
-916.40015 720.29724 1358.8694 6118223
-904.71295 717.41327 1353.4287 3288867
-898.63245 718.96338 1356.353 3683881
-891.94196 720.04913 1358.4012 723460
-884.53595 720.57166 1359.3871 4210483
-873.17877 717.85541 1354.2628 6118222
-869.20386 721.21436 1360.5995 3683880
-861.66193 721.64862 1361.4188 3553064
-841.75879 711.64069 1342.5385 7105116
-841.6886 718.36902 1355.2317 5592136
-826.9375 712.57623 1344.3035 4605496
-818.40472 712.08142 1343.3699 6645336
-810.53363 712.15814 1343.5146 7961196
-803.17566 712.69165 1344.5211 6250578
-798.70734 715.82574 1350.4337 2105620
-785.82361 711.40466 1342.0933 3552037
-773.52014 707.42407 1334.5836 526341
-767.93713 709.5708 1338.6335 2433043
-772.52399 721.25745 1360.6808 4340523
-763.73651 720.5719 1359.3876 2037769
-757.82117 722.6106 1363.2336 4670001
-752.18024 724.95758 1367.6614 3881000
-742.44501 723.3667 1364.66 6447702
-733.95795 722.97015 1363.912 1842708
-733.76941 730.8302 1378.7402 1907989
-726.73596 731.97284 1380.8959 2959651
-709.56982 722.81976 1363.6282 1643531
-697.6333 718.8443 1356.1284 262914
-693.78296 723.20544 1364.3558 5919296
0 0 0 0
-642.80792 686.05402 1294.2682 2499861
0 0 0 0
-639.74481 699.47162 1319.5811 2762007
-635.79144 703.74884 1327.6501 2564885
-625.45386 700.97803 1322.4229 3814434
-616.56415 699.78021 1320.1632 3617828
-607.1051 697.89716 1316.6107 4209966
0 0 0 0
-590.69745 696.94391 1314.8124 2039573
-592.49084 708.40125 1336.4271 2828572
-584.78864 708.66187 1336.9188 2894361
-577.492 709.42792 1338.364 3486498
-573.7066 714.58881 1348.1002 2170642
-556.53027 702.98065 1326.2009 1775627
-551.39465 706.46692 1332.778 5263168
-540.02222 701.94769 1324.2522 3683876
-529.83862 698.86334 1318.4335 6381391
-520.29559 696.54413 1314.0582 3749415
-512.12006 696.01306 1313.0564 5591363
-506.07614 698.40735 1317.5732 985860
-500.42267 701.42395 1323.2642 4209713
-490.65262 698.67462 1318.0774 6117965
-483.00208 698.90332 1318.5089 4670263
-479.16473 704.74792 1329.535 1709328
-470.94473 704.23425 1328.5659 590849
-459.76266 699.19836 1319.0656 3155485
-452.29385 699.73303 1320.0742 1905417
-445.29941 701.03345 1322.5275 2169354
-434.73883 696.66571 1314.2875 6577483
-427.4418 697.46368 1315.793 2366730
-415.21036 690.09027 1301.8828 3616283
-413.48035 700.22186 1320.9963 2893334
-408.64716 705.38763 1330.7418 4998193
-402.52197 708.48267 1336.5807 4011298
-394.47787 708.25671 1336.1544 3682334
-386.58569 708.29974 1336.2356 2038026
-379.40884 709.68262 1338.8445 3353112
-372.60797 711.84283 1342.9198 4406058
-366.3429 715.14319 1349.1461 3748386
-359.98282 718.40125 1355.2925 2499347
-349.39368 713.17566 1345.4342 1775885
-343.9021 718.35406 1355.2035 2105108
-330.58435 707.04163 1333.8622 328449
-319.08713 699.16425 1319.0012 1644299
-310.51074 697.45197 1315.7709 3946539
-302.63275 697.26056 1315.4098 3486241
-295.30377 698.35742 1317.479 4012069
-283.07947 687.62268 1297.2275 2301965
-278.11801 694.42316 1310.0569 1841412
-271.30136 696.84894 1314.6333 6051901
-264.19852 698.66132 1318.0524 3551258
-256.87399 699.97998 1320.54 4735529
-250.11017 702.9574 1326.1571 3682844
-242.18292 702.75201 1325.7695 4603946
-234.64954 703.71393 1327.5844 1643778
-227.6263 706.32568 1332.5115 3551259
-217.89755 700.42828 1321.3857 2827540
-205.08241 683.80042 1290.0167 4144169
-197.27054 683.21326 1288.9089 8157544
-199.76123 719.69684 1357.7367 2038288
-189.26514 710.49011 1340.3678 1775372
-181.40149 710.79175 1340.9369 3815466
-173.89554 712.58691 1344.3235 6776921
-166.99547 717.15625 1352.9437 3224099
-159.0479 717.46106 1353.5188 4933948
-150.67021 715.75494 1350.3002 2170646
-143.06277 717.7218 1354.0107 3618345
-132.9355 706.52972 1332.8965 723202
-125.75742 710.58856 1340.5536 4472369
-118.64553 715.59375 1349.996 4209449
-109.29037 706.81439 1333.4335 4341033
-101.1628 705.22491 1330.4348 4866865
-93.190643 704.54181 1329.1461 7038036
-86.636131 715.43945 1349.705 1971979
-78.118347 710.69202 1340.7488 2037514
-70.15406 710.47546 1340.3402 1248773
-62.296917 711.42712 1342.1356 4077094
-54.321678 711.11133 1341.5398 2037515
-46.436172 712.06329 1343.3357 4471850
-38.469376 711.90466 1343.0365 5459258
-30.594219 713.80139 1346.6147 3287835
-22.82538 720.39166 1359.0475 6775891
-14.757629 719.58972 1357.5347 6446930
-6.6826124 716.08844 1350.9293 5591365
1.3247362 718.33221 1355.1624 2499094
9.3213444 715.89917 1350.5723 3025438
17.100941 706.74506 1333.3026 2433303
25.153688 711.0976 1341.5139 1249030
33.139576 711.92371 1343.0724 5261888
40.990475 710.09149 1339.6158 1446927
48.892384 709.59393 1338.6772 1971978
56.050476 699.94672 1320.4773 2103566
63.95293 700.81952 1322.1239 3353374
72.392136 706.742 1333.2969 3221790
79.580063 700.48517 1321.493 2827543
88.578575 709.85889 1339.177 4144173
96.58815 710.41779 1340.2314 5197119
103.25903 701.79346 1323.9613 2565148
113.46447 716.71332 1352.1082 1775888
120.31139 709.84979 1339.1599 1578512
128.31161 710.21924 1339.8568 2564635
136.02461 709.0484 1337.6481 1051651
144.27422 710.64966 1340.6688 1380875
152.05595 709.89948 1339.2535 7630689
157.34802 698.17664 1317.1379 2236434
166.73993 704.89362 1329.8098 9802374
175.68915 709.21747 1337.9669 5788742
184.80063 713.7948 1346.6023 6381392
193.86258 717.80988 1354.1769 2631452
202.72797 720.80701 1359.8311 2894112
210.09415 718.44824 1355.3811 1380875
0 0 0 0
223.68285 710.59998 1340.5751 788740
0 0 0 0
0 0 0 0
0 0 0 0
0 0 0 0
0 0 0 0
0 0 0 0
0 0 0 0
0 0 0 0
0 0 0 0
0 0 0 0
0 0 0 0
202.868 451.92682 852.57788 0
206.87506 449.65802 848.29773 1
211.47485 448.75467 846.59351 0
215.19527 446.07031 841.52936 197378
0 0 0 0
0 0 0 0
360.43185 698.57434 1317.8883 3091230
369.67462 701.29724 1323.0251 6644057
377.54395 701.35565 1323.1353 4537911
389.07785 708.08081 1335.8225 2367508
395.49155 705.40527 1330.7751 656896
405.75266 709.56268 1338.6182 1248777
413.67178 709.5434 1338.5819 657156
419.0943 705.32336 1330.6206 196608
426.04141 703.77759 1327.7043 920326
433.50415 703.12408 1326.4716 327680
442.05612 704.22919 1328.5563 262144
452.11145 707.64862 1335.0072 1116673
455.72153 701.03571 1322.5317 4603187
465.19678 703.51624 1327.2114 328193
473.78629 704.59723 1329.2506 1314052
483.43329 707.1897 1334.1415 2234638
485.63821 698.98724 1318.6672 327680
492.01282 696.95099 1314.8258 1642503
498.84918 695.62213 1312.3188 197120
509.73264 699.89099 1320.3722 3748392
524.40912 709.16003 1337.8586 4866871
532.11304 708.8645 1337.301 2038548
537.05621 704.95386 1329.9235 1314823
541.66113 700.71857 1321.9335 1248518
0 0 0 0
555.52338 698.45465 1317.6625 459008
565.16638 700.73218 1321.9591 3222306
572.75354 700.43323 1321.3951 2629913
585.521 706.39203 1332.6367 5854029
588.7948 700.8913 1322.2593 1249293
594.78137 698.72174 1318.1664 262657
604.56189 701.00763 1322.4788 590848
611.29749 699.74957 1320.1053 2038035
617.50824 697.93011 1316.6729 131072
618.48688 690.31622 1302.309 591618
626.74915 690.91925 1303.4467 2893853
639.69379 696.60669 1314.1761 1643789
646.82709 695.90509 1312.8525 4209970
651.2735 692.36359 1306.1714 1249286
663.46252 697.03986 1314.9934 1511688
669.24622 694.95612 1311.0624 1511176
668.70789 686.43073 1294.9788 590080
663.79272 673.65668 1270.8801 2366484
675.06873 677.41675 1277.9736 1774089
685.57196 680.3266 1283.4631 2563604
692.73743 679.89661 1282.652 2563861
706.80127 686.1731 1294.4928 1445381
711.53564 683.35474 1289.1759 2497552
725.40961 689.28076 1300.3556 3418911
745.50873 700.93512 1322.342 1248004
749.57465 697.42932 1315.7281 1444867
755.04443 695.28851 1311.6893 2563348
765.51764 697.75171 1316.3363 1839882
772.15564 696.70483 1314.3613 2234640
777.83478 694.82227 1310.8098 2103055
783.69208 693.13452 1307.6259 2432019
0 0 0 0
798.24921 692.32263 1306.0941 787970
802.72748 689.52283 1300.8123 1379590
812.69159 691.44373 1304.4362 1380361
836.05566 704.62207 1329.2975 854019
837.41003 699.17767 1319.0265 3091236
847.84943 701.3493 1323.1233 1051911
854.61646 700.47107 1321.4666 1972243
860.44965 698.85034 1318.4089 1446409
865.93451 696.97845 1314.8776 393728
867.14429 691.72961 1304.9753 1248262
875.94543 692.57581 1306.5718 2761754
880.39948 690.00012 1301.7126 722945
895.60797 695.82465 1312.7008 5065020
899.69324 692.98138 1307.3369 5656642
916.34961 699.78668 1320.1754 1511948
925.97949 701.15637 1322.7594 2695193
930.87079 698.94507 1318.5876 787713
933.48346 695.07397 1311.2847 196864
940.15417 694.26343 1309.7555 131072
944.26624 691.5921 1304.7159 6512715
949.16498 689.53571 1300.8365 6380603
974.11328 701.96051 1324.2764 5262124
987.93774 706.23468 1332.3398 657668
990.77631 702.65009 1325.5773 2893343
1002.9941 705.72119 1331.3711 1446158
1002.5078 699.87524 1320.3425 1051911
1006.7291 697.38098 1315.637 1183498
1014.9333 697.66296 1316.1689 131328
1023.3461 698.08289 1316.9611 591361
1019.3966 690.12714 1301.9523 657154
1023.4081 687.64001 1297.2603 394499
1037.7611 692.08679 1305.6492 2301716
1064.2979 704.53302 1329.1295 2367515
1066.1178 700.55475 1321.6244 2038035
1067.9436 696.63837 1314.236 1577483
1091.0763 706.57697 1332.9855 1840145
1099.2871 706.77875 1333.3662 1050886
1103.4583 704.39893 1328.8766 327937
1108.3036 702.48022 1325.2568 1445641
1105.7118 695.90771 1312.8575 2827291
1112.8335 695.49774 1312.0841 2300692
1121.5424 696.07855 1313.1798 3879468
1123.4866 692.48181 1306.3944 1905934
1139.1924 697.3584 1315.5944 656898
1137.5646 691.63013 1304.7877 1182470
1155.2076 697.61658 1316.0814 3155744
1162.923 697.56775 1315.9893 3287072
1171.5841 698.08307 1316.9615 1774608
1178.0986 697.32111 1315.5239 2761757
1186.5029 697.68024 1316.2015 3156773
1189.1112 694.64886 1310.4827 3156775
1188.8773 690.0072 1301.7261 2629916
1196.2253 689.79749 1301.3303 3353125
1200.0848 687.59174 1297.1691 2958879
1203.675 685.26068 1292.7715 3748910
1212.3093 685.81256 1293.8126 3420201
1217.0651 684.17725 1290.7275 3420458
1220.3459 681.73834 1286.1265 3486510
1236.6019 686.5332 1295.1722 5064773
0 0 0 0
0 0 0 0
0 0 0 0
0 0 0 0
0 0 0 0
0 0 0 0
0 0 0 0
0 0 0 0
0 0 0 0
0 0 0 0
0 0 0 0
0 0 0 0
0 0 0 0
0 0 0 0
0 0 0 0
0 0 0 0
-1091.3776 696.17902 1298.853 4539443
-1082.413 695.36316 1297.3309 4473393
-1086.5902 703.0387 1311.651 197632
-1078.048 702.53577 1310.7128 8487274
-1074.5845 705.35925 1315.9805 3684132
-1073.7756 709.97925 1324.6 2499606
-1061.6632 707.13831 1319.2997 2828317
0 0 0 0
-1076.3197 727.61377 1357.5005 3880752
-1068.0109 727.43207 1357.1615 2038803
-1041.4725 714.73718 1333.4768 197121
-1031.6912 713.43604 1331.0493 2630422
-1019.2678 710.2738 1325.1495 4932909
-1017.5931 714.61084 1333.2411 5262390
-1016.167 719.19165 1341.7874 3486492
-1011.2136 721.32849 1345.7742 7566173
-1006.0073 723.3175 1349.485 3552541
-1001.5168 725.85724 1354.2233 4670515
-1002.9634 732.77557 1367.1307 3815464
-993.15839 731.51917 1364.7867 855041
-984.79669 731.3139 1364.4038 854272
-970.83044 726.90887 1356.1853 591617
-971.65973 733.60089 1368.6705 2301975
-966.7572 736.04156 1373.2241 196864
-946.66772 726.86304 1356.0999 2565148
-942.82043 730.10504 1362.1484 1249288
-934.54291 729.94269 1361.8455 3420711
-924.52625 728.40729 1358.981 1577993
-912.86487 725.53772 1353.6272 4012333
-900.65826 722.18005 1347.3629 4209712
-889.80853 719.86017 1343.0347 4077870
-883.84381 721.48602 1346.068 2104847
-877.06946 722.47455 1347.9124 6119246
-873.26556 725.95056 1354.3975 4803130
0 0 0 0
-846.61481 716.97107 1337.6445 2039318
-836.61328 715.1955 1334.3319 3618087
-827.72565 714.34735 1332.7495 7829097
-813.59186 708.91168 1322.6083 2960927
-812.29834 714.6673 1333.3464 4474167
-807.88611 717.7652 1339.1261 5263426
-797.30493 715.38934 1334.6935 5000249
-790.97809 716.82135 1337.3652 7171162
-784.15826 717.83112 1339.2491 5526336
-775.94208 717.57013 1338.7622 131585
-768.11493 717.6673 1338.9435 3354143
-763.34338 720.65118 1344.5105 1116930
-763.67371 728.56531 1359.2758 2827031
-756.96289 729.85919 1361.6897 1315080
-754.60736 735.42535 1372.0745 3946541
-741.23285 730.25708 1362.432 4867902
-730.15692 727.2644 1356.8486 855301
-727.28571 732.46826 1366.5574 1776658
-709.46161 722.56036 1348.0724 4145462
-703.0321 724.16388 1351.0641 3026723
-693.9538 723.04462 1348.9758 1513486
-694.65338 732.20569 1366.0675 3419426
-651.51508 694.83026 1296.3367 2566684
-647.98102 699.30438 1304.684 4276784
-656.85022 717.43372 1338.5077 5262916
-646.92438 715.22675 1334.3901 4012589
-634.2771 709.91919 1324.4879 3157537
-624.43719 707.66016 1320.2733 3684139
-616.60181 707.64435 1320.2438 1315597
-606.21143 704.65826 1314.6726 723203
-591.84735 696.91522 1300.2266 4472885
-585.63861 698.69769 1303.5521 3683369
-583.84949 705.87122 1316.9357 4736054
-577.04132 707.08887 1319.2074 4078125
-571.57239 710.00348 1324.6451 2038797
-566.48517 713.47998 1331.1312 3749413
-560.5672 715.99359 1335.8208 5591358
-548.14355 710.1507 1324.9198 2564626
-539.29718 708.8399 1322.4744 3815212
-525.7392 701.20636 1308.2325 4801851
-521.82745 706.40265 1317.9271 4407861
-514.65222 707.27179 1319.5487 2368536
-505.7749 705.7926 1316.7889 8947834
-498.69839 706.81934 1318.7046 3222559
-488.92944 704.00208 1313.4484 3748905
-482.67407 706.23444 1317.6134 3617062
-474.33383 705.43976 1316.1306 2695449
-464.95148 703.04266 1311.6584 2432531
-458.48706 705.05127 1315.4059 985349
-451.52408 706.34924 1317.8275 2301201
-441.36258 702.60138 1310.8352 2827030
-429.07452 695.27338 1297.1633 4274985
-426.20953 703.22559 1311.9998 1380614
-420.1745 706.14569 1317.4478 5195827
-416.07388 712.48889 1329.2821 4603692
-407.47031 711.21716 1326.9095 4537900
-397.98392 708.32416 1321.5121 2498576
-390.82568 709.54187 1323.7839 1906181
-382.36508 708.39648 1321.647 2761488
-375.74469 710.6839 1325.9146 2498317
-371.8461 718.32678 1340.1738 3879971
-361.95355 714.47162 1332.9813 1577478
-355.57257 717.53064 1338.6885 1577736
-345.51324 713.13708 1330.4916 591874
-337.55185 712.96973 1330.1792 525824
-327.32333 707.8913 1320.7045 196608
-318.74817 706.22736 1317.6001 1117443
-309.0285 701.88031 1309.4899 4603697
-302.20734 704.06232 1313.5608 3353629
-291.07639 696.05347 1298.6188 4077349
-282.42542 693.70129 1294.2303 3090454
-275.74136 696.18378 1298.8619 5261623
-271.18726 704.34082 1314.0804 1774599
-263.60614 704.8858 1315.0972 4932657
-253.82446 699.40033 1304.863 4011299
-246.46295 700.44843 1306.8185 4735022
-239.85265 703.76874 1313.0131 3156500
-232.77821 705.90405 1316.9969 3682844
-224.84299 705.48669 1316.2183 3617307
-214.29814 696.55695 1299.5581 3091223
-205.17026 691.73895 1290.5692 4275497
-194.68364 681.78967 1272.007 7434845
-187.21687 682.04059 1272.4752 4671027
-185.64108 704.67419 1314.7024 1841932
-177.8965 704.84857 1315.0277 2236436
-173.22395 717.76813 1339.1316 2367504
-163.41806 709.6366 1323.9607 3683111
-155.63976 709.93372 1324.515 1314824
-148.62569 713.93347 1331.9773 6183245
-140.19542 711.19745 1326.8727 2762009
-132.26817 710.83978 1326.2054 3486243
-124.04568 708.75006 1322.3066 3748900
-115.77151 706.06342 1317.2942 1577992
-109.11898 713.5932 1331.3424 4143142
-100.13754 705.87952 1316.9512 5458489
-93.635796 715.81897 1335.4951 2694930
-85.910484 717.3761 1338.4001 1840907
-77.66983 714.50891 1333.0509 788224
-68.913757 705.71454 1316.6434 3879972
-60.689232 700.81342 1307.4994 3090710
-54.12759 716.48975 1336.7466 3419420
-46.146725 715.53345 1334.9624 2893074
-38.240112 715.57104 1335.0325 3485467
-30.161722 711.5755 1327.5781 6182724
-22.542774 719.42395 1342.2208 6380616
-14.791764 729.31512 1360.6747 3748900
-6.5144396 705.86932 1316.9321 4275247
1.3130214 719.93726 1343.1785 4539192
9.2414913 717.69885 1339.0023 5657416
17.142403 716.37653 1336.5353 6249296
24.845812 710.24408 1325.094 2565408
32.715595 710.67035 1325.8894 3157281
40.686821 712.70862 1329.6921 1249033
48.582832 712.98181 1330.2018 4143401
56.825272 717.5531 1338.7305 1051651
64.049362 709.7207 1324.1176 4472365
71.710609 707.9129 1320.7449 4801580
79.424812 706.93213 1318.915 3552028
87.589371 709.77655 1324.2218 6250574
95.806526 712.54443 1329.3859 3486507
102.94637 707.48816 1319.9524 6578262
111.96538 715.14844 1334.244 4144690
119.01986 710.078 1324.7842 6314834
126.89606 710.23407 1325.0753 1445639
135.47183 714.0592 1332.2119 2629913
142.4174 709.34375 1323.4143 656385
152.33682 719.15936 1341.7272 6314320
155.4751 697.57629 1301.46 3749162
165.64215 708.07898 1321.0547 2762778
175.00859 714.36591 1332.7842 4538934
183.34308 716.07965 1335.9814 6249809
192.14626 719.40631 1342.188 1447183
202.45844 727.89392 1358.0232 1447181
210.41206 727.57715 1357.4321 3223592
214.79453 715.38965 1334.6941 1709579
0 0 0 0
0 0 0 0
0 0 0 0
0 0 0 0
0 0 0 0
0 0 0 0
0 0 0 0
0 0 0 0
0 0 0 0
0 0 0 0
0 0 0 0
0 0 0 0
202.37184 455.86005 850.49274 0
207.02422 455.01135 848.90936 0
211.20387 453.1886 845.50867 0
215.01097 450.6694 840.80865 920842
0 0 0 0
0 0 0 0
359.40076 704.36108 1314.1182 6051143
366.12695 702.32977 1310.3284 4538160
374.87048 704.17224 1313.7659 1051395
383.22861 705.23047 1315.7402 1972750
391.92487 706.85638 1318.7737 2170391
402.70197 712.09839 1328.5536 1512718
410.81735 712.52283 1329.3455 1446670
420.25244 715.17712 1334.2976 1512718
426.30292 712.08002 1328.5193 4144179
431.67587 707.98389 1320.8772 1051910
439.81714 708.4931 1321.8273 1511945
447.17563 707.74554 1320.4326 197120
453.97647 706.15631 1317.4675 591619
460.73953 704.56293 1314.4949 4144434
469.67761 706.29346 1317.7234 1973525
476.68677 705.11401 1315.5229 2762776
484.36716 704.9494 1315.2158 2498580
491.22272 703.60864 1312.7144 2432789
498.91629 703.49133 1312.4955 1906700
507.8338 705.07678 1315.4535 2564119
519.5412 710.42932 1325.4397 5064765
526.23413 708.8678 1322.5264 2564631
536.22015 711.7229 1327.853 459776
546.37848 714.72083 1333.4463 2104336
544.25531 701.79681 1309.3341 1643532
548.14661 696.88245 1300.1654 196608
559.31262 701.22479 1308.2668 1248519
563.44379 696.74915 1299.9167 2498588
577.4057 704.3869 1314.1664 0
585.89044 705.2287 1315.7369 5196872
591.65857 702.82135 1311.2456 920588
602.46106 706.37909 1317.8832 459520
606.57678 702.10602 1309.911 393985
617.07239 705.23218 1315.7434 262912
620.29254 700.06921 1306.111 3486250
623.89313 695.45758 1297.5071 1709839
631.04327 694.86676 1296.4048 3420197
639.91553 696.16357 1298.8242 525825
652.07526 700.9635 1307.7794 3354404
651.01093 691.60223 1290.3142 3354151
655.15222 687.92413 1283.452 2695706
666.6283 691.94385 1290.9515 459264
665.30206 682.73456 1273.7699 327680
668.57483 678.39844 1265.6801 3682086
681.55505 683.89935 1275.943 1577225
695.84015 690.57458 1288.3969 1050883
697.7157 684.92291 1277.8527 1971466
707.82538 687.38898 1282.4536 2365967
721.94281 693.65338 1294.141 2431760
732.85089 696.73499 1299.8903 3023898
739.56982 695.81116 1298.1667 1050112
747.10278 695.66437 1297.8928 2037518
744.414 686.09955 1280.0479 2234640
771.54431 703.93359 1313.3207 1839883
772.09625 697.40448 1301.1393 1905932
776.37622 694.33838 1295.4189 3024669
782.10052 692.61145 1292.1971 4735032
798.69318 700.44952 1306.8204 3814442
806.80695 700.77252 1307.4231 1116932
811.96985 698.5506 1303.2777 1051656
828.84375 706.35101 1317.8308 1248776
834.88538 704.86041 1315.0498 5131078
840.96503 703.4292 1312.3796 1117961
853.84686 707.66187 1320.2765 3617326
856.96295 703.79736 1313.0665 196608
858.28894 698.54547 1303.2681 657152
858.72559 692.66986 1292.306 1380359
875.49902 699.95923 1305.9058 1709067
878.07715 695.87128 1298.2789 1708550
890.78296 699.81079 1305.6288 1971720
898.24158 699.5957 1305.2274 2366481
903.30908 697.53778 1301.3881 3484707
919.0567 703.69208 1312.8701 919553
0 0 0 0
931.60345 701.42682 1308.6438 590592
934.84503 698.05829 1302.3591 458752
944.29401 699.34216 1304.7544 656898
947.07983 695.71051 1297.9789 1839879
960.61273 699.96832 1305.9227 4011030
965.44745 697.87073 1302.0093 6708288
967.6369 693.90936 1294.6187 4273958
981.35236 698.21094 1302.6439 131072
988.80463 698.02393 1302.295 2235929
991.1488 694.26184 1295.2761 591878
1006.5706 699.64746 1305.3241 855049
1009.0789 696.04358 1298.6003 460549
1013.0104 693.46838 1293.7959 65792
1012.0718 687.62317 1282.8905 1644564
1013.9437 683.76025 1275.6835 1315600
1038.6975 695.271 1297.1589 1577743
1057.7948 702.85406 1311.3066 723207
1055.4126 696.15863 1298.8149 1643536
1062.8184 695.9696 1298.4624 591107
1086.9506 706.65753 1318.4027 1511691
1091.3008 704.42401 1314.2356 4143924
1101.2684 705.82239 1316.8446 1511948
1105.6626 703.65405 1312.7991 1708814
1111.064 702.15247 1309.9977 3156258
1111.5635 697.59558 1301.4958 2169618
1116.978 696.16467 1298.8263 4274738
1123.5233 695.45331 1297.499 656898
1138.2778 699.79846 1305.6058 1116674
1148.0492 701.04211 1307.926 2037521
1157.2953 701.9505 1309.6208 2103572
1162.4542 700.38434 1306.6989 1906193
1166.4897 698.16638 1302.5609 1971985
1173.635 697.82666 1301.927 196608
1181.7727 698.07758 1302.3951 1379850
1192.9606 700.1153 1306.1969 590592
1192.6879 695.44421 1297.4822 656385
1201.054 695.83789 1298.2166 2761757
1206.5486 694.57349 1295.8577 5262405
1207.989 691.00604 1289.2019 2893342
1217.9523 692.32812 1291.6685 4077617
1218.7377 688.44916 1284.4315 2104085
1220.3422 685.07819 1278.1423 4077875
0 0 0 0
0 0 0 0
0 0 0 0
0 0 0 0
0 0 0 0
0 0 0 0
0 0 0 0
0 0 0 0
0 0 0 0
0 0 0 0
0 0 0 0
0 0 0 0
0 0 0 0
0 0 0 0
0 0 0 0
0 0 0 0
-1082.5503 698.18054 1288.3475 6842197
-1075.4705 698.53955 1289.0099 3158560
-1077.007 704.54016 1300.0828 2302996
-1071.623 706.06744 1302.9011 5790028
-1071.5992 711.17419 1312.3246 1842706
-1061.6146 709.69678 1309.5983 131584
-1060.342 714.06451 1317.658 1842195
-1051.3292 713.24579 1316.1472 4408374
-1055.0741 721.1347 1330.7046 4737079
-1043.4934 718.58856 1326.0062 6183752
-1029.8943 714.60339 1318.6525 5855042
-1027.9836 718.72937 1326.2661 5789249
-1019.6157 718.36945 1325.6019 4276011
-1011.1722 717.95032 1324.8285 2893849
-1013.881 725.50488 1338.7689 5591355
-1008.6342 727.44092 1342.3414 5657144
-1006.6934 731.81091 1350.4054 6118212
-991.85156 726.79755 1341.1542 4012834
-991.57678 732.46362 1351.6099 4539186
-987.80463 735.61755 1357.4297 3091999
-983.38989 738.3407 1362.4547 657920
-975.71661 738.64215 1363.011 1512460
-961.25134 733.76404 1354.0094 3815473
-959.93274 738.92365 1363.5304 1644047
-949.15851 736.83044 1359.6678 1775631
-934.16455 731.39764 1349.6427 2236182
-920.74353 727.11316 1341.7366 2631450
-913.03076 727.30115 1342.0835 2959902
-904.4256 726.77527 1341.1132 3157024
-896.31805 726.64362 1340.8701 3749417
-886.76086 725.32379 1338.4347 4999739
-875.81732 722.83594 1333.8439 4473140
-863.55408 719.20374 1327.1414 4670774
-857.21637 720.48517 1329.506 5066304
-857.6554 727.53888 1342.5222 6382163
-833.15747 713.37299 1316.382 3026206
-833.62451 720.51715 1329.5651 4802363
-821.99719 717.24438 1323.5259 5131586
-809.28687 712.95459 1315.6099 8355954
-813.78131 723.88556 1335.7808 2960926
-805.87714 723.89386 1335.796 3157024
-798.71466 724.5752 1337.0533 5986373
-792.24921 725.90894 1339.5144 3684133
-782.09912 723.85931 1335.7323 7104846
-777.52112 726.97766 1341.4866 4407849
-767.30597 724.83533 1337.5333 4078886
-758.71564 724.19922 1336.3595 2564881
-756.04681 729.26129 1345.7006 4077610
-747.11285 728.32379 1343.9706 2762266
-755.91223 744.83966 1374.4471 4933694
-739.95087 737.05139 1360.0756 1184013
-724.8595 729.9679 1347.0044 1710609
-714.71826 727.76715 1342.9435 3158056
-712.31555 733.48541 1353.4952 1447699
-705.39111 734.62476 1355.5977 4539708
-695.60327 732.77386 1352.1823 6710873
0 0 0 0
-659.67456 711.30823 1312.5719 3487015
-654.05414 713.66022 1316.912 4473910
-655.19763 723.53839 1335.1401 4999734
-642.97864 718.7215 1326.2515 4342063
-632.37225 715.61017 1320.5103 6973784
-593.13348 679.61389 1254.0865 4013099
-618.98907 718.23584 1325.3553 3618086
-605.89874 712.07916 1313.9945 4210481
-602.89075 717.76562 1324.4877 3420197
-587.85413 709.09271 1308.4836 3616808
-576.41992 704.59149 1300.1775 3946027
-568.58289 704.42487 1299.87 7169883
-564.89581 709.46564 1309.1718 2959129
-561.22931 714.67303 1318.7809 2959392
-552.17169 713.06549 1315.8146 3288094
-545.82727 714.9657 1319.321 3748643
-542.65332 721.13452 1330.7042 3484961
-520.55658 701.9679 1295.3363 6118737
-519.54321 711.08398 1312.1581 6382164
-513.73798 713.81879 1317.2046 3683880
-506.83005 715.08221 1319.536 3486247
-497.65286 713.13348 1315.9399 4143915
-487.54984 709.77472 1309.7422 3946283
-477.89951 706.97717 1304.5798 2565145
-470.37347 707.28174 1305.1418 2893597
-465.7312 712.00519 1313.858 2367252
-458.70905 713.18915 1316.0427 656899
-452.82629 716.21606 1321.6283 327936
-442.58478 712.33417 1314.4651 1972234
-430.81464 705.80884 1302.424 4471851
-424.2356 707.70526 1305.9233 3550491
-417.00711 708.5686 1307.5165 2827028
-412.29495 713.82123 1317.2091 3287323
-406.43066 717.24335 1323.5239 788736
-396.16898 712.88715 1315.4855 5262140
-389.44507 714.85004 1319.1075 4406573
-382.26825 716.0448 1321.3123 2563856
-374.95218 717.02332 1323.1179 3025688
-366.94455 716.69287 1322.5082 2630674
-357.96826 714.41492 1318.3046 4671027
-351.2995 716.7431 1322.6008 1644297
-343.185 716.16064 1321.526 4079155
-332.49524 710.05145 1310.2528 131072
-324.69882 709.97675 1310.115 722947
-313.81689 702.98639 1297.2157 2630681
-301.73376 692.88684 1278.579 1840908
