# .PCD v0.7 - Point Cloud Data file format
VERSION 0.7
FIELDS x y z rgb
SIZE 4 4 4 4
TYPE F F F U
COUNT 1 1 1 1
WIDTH 1448
HEIGHT 1
VIEWPOINT 0 0 0 1 0 0 0
POINTS 1448
DATA ascii
-411.09103 663.04364 1658.6956 5197633
-403.41772 666.6015 1667.5961 4078895
-395.10938 669.26239 1674.2526 4538677
-384.48608 668.03809 1671.1898 4867639
-374.81921 668.45477 1672.2322 4473136
-365.3931 669.33508 1674.4344 5657413
-355.33603 669.07642 1673.7874 6709590
-347.22559 672.57361 1682.536 3551781
-336.77377 671.60822 1680.121 3551526
-329.80704 677.74579 1695.475 1840908
-316.39758 670.6134 1677.6323 5459265
-305.22525 667.91388 1670.879 5130814
-296.58804 670.76672 1678.0159 3090460
-290.0405 678.70752 1697.8807 2301456
-275.98663 669.02252 1673.6526 1182464
-261.00848 656.29181 1641.8048 2300684
-254.36853 664.35291 1661.9708 2958871
-242.0257 657.56891 1644.9998 5129781
-233.20457 660.18536 1651.545 4668973
-222.40999 657.19952 1644.0756 3353113
-212.8656 657.80365 1645.5869 3221273
-207.40128 671.67926 1680.2987 5327160
-198.09232 673.87512 1685.792 4077610
-189.2932 678.13068 1696.4377 4209448
-177.33296 670.90399 1678.3593 6314823
-164.38443 658.85767 1648.2236 3880745
-154.75664 659.43994 1649.6803 5986116
-148.99757 677.6972 1695.3535 5920582
-135.06079 658.7099 1647.854 6578512
-127.81671 671.9483 1680.9717 5657412
-118.46225 675.39191 1689.5863 4341808
-109.1638 679.81989 1700.6636 2565141
-99.665665 683.77844 1710.5665 5131069
-89.408569 682.83661 1708.2104 9473152
-80.092567 689.75922 1725.5281 2104594
-69.866249 689.7207 1725.4319 4012075
-58.141479 672.34106 1681.9543 5130040
-48.604313 678.3017 1696.8656 5262395
-38.599945 679.15063 1698.9893 4999475
-28.702124 683.13434 1708.9551 5196862
-18.593925 683.72406 1710.4304 2960154
-8.4463081 682.54089 1707.4706 3157026
1.6415541 671.26276 1679.2568 5065790
11.780199 682.28735 1706.8363 3881002
21.937544 683.71045 1710.3964 3485990
31.375437 668.89618 1673.3364 5591879
41.376225 670.31476 1676.8853 4407605
50.253868 656.51135 1642.3541 3946540
61.299252 670.91156 1678.3783 7170907
71.499084 673.32941 1684.4268 1512973
0 0 0 0
91.057716 670.39026 1677.0741 2696732
0 0 0 0
0 0 0 0
0 0 0 0
0 0 0 0
0 0 0 0
0 0 0 0
0 0 0 0
0 0 0 0
0 0 0 0
0 0 0 0
0 0 0 0
0 0 0 0
0 0 0 0
0 0 0 0
0 0 0 0
0 0 0 0
0 0 0 0
0 0 0 0
0 0 0 0
0 0 0 0
0 0 0 0
0 0 0 0
0 0 0 0
0 0 0 0
0 0 0 0
0 0 0 0
0 0 0 0
0 0 0 0
0 0 0 0
0 0 0 0
0 0 0 0
0 0 0 0
0 0 0 0
0 0 0 0
0 0 0 0
0 0 0 0
0 0 0 0
0 0 0 0
0 0 0 0
0 0 0 0
0 0 0 0
0 0 0 0
0 0 0 0
0 0 0 0
536.76672 668.66809 1672.7657 6774870
550.7605 673.66333 1685.2621 6314062
558.5766 671.05902 1678.7471 3551013
566.76337 668.98334 1673.5544 4340529
579.64813 672.42908 1682.1744 4209965
593.99725 677.42828 1694.6807 6380880
603.05066 676.32214 1691.9136 4078127
603.45166 665.70721 1665.3588 8355185
618.41803 671.24335 1679.2081 4079158
634.63348 677.93842 1695.9568 5196867
642.5083 675.65393 1690.2418 4077616
647.33136 670.2796 1676.7972 4472117
665.64777 678.82831 1698.183 4866876
664.92157 667.99188 1671.0742 4077360
675.03149 668.19989 1671.5945 1248779
685.11389 668.37494 1672.0325 6182988
685.01123 658.75049 1647.9556 3288101
700.20801 663.90265 1660.8444 2432536
713.49353 667.125 1668.9055 2300949
719.78082 663.80518 1660.6006 4340273
725.75415 660.28931 1651.8052 3616293
741.91754 666.01459 1666.1277 4866870
757.79114 671.33276 1679.4319 3419167
762.09796 666.3988 1667.0889 5984583
779.80884 673.16199 1684.0079 4866615
785.86371 669.81952 1675.6462 5195840
797.6142 671.35443 1679.4861 4471086
813.4361 676.23621 1691.6985 4537398
827.78674 679.79095 1700.5912 6577752
830.04535 673.44946 1684.7271 2103830
819.39307 656.90802 1643.3463 3024416
876.74579 694.63446 1737.7242 6313808
877.75439 687.36261 1719.5327 3813672
892.32001 690.7522 1728.0122 3945257
901.78473 690.16101 1726.5333 1905675
920.10223 696.28241 1741.8469 5260861
915.78772 685.33136 1714.4513 4142637
922.71667 682.94232 1708.4747 4339759
923.2489 675.92194 1690.9124 4405809
927.56525 671.79297 1680.5831 3747878
949.65161 680.48505 1702.3275 4077099
955.34277 677.36963 1694.5339 4603445
973.77563 683.25946 1709.2681 4998459
985.64954 684.47314 1712.3044 6051404
1004.0347 690.13782 1726.4753 4933438
1003.4553 682.78412 1708.079 6052435
1000.7923 674.17358 1686.5386 2500129
1015.9004 677.5863 1695.0759 4078391
1030.3956 680.52747 1702.4337 7894127
1036.7048 678.05743 1696.2546 6775390
1034.0148 669.80554 1675.6112 7432038
1048.8787 672.97321 1683.5356 591620
1067.2546 678.31348 1696.8951 4405810
1085.475 683.45612 1709.7601 4669497
1083.8483 676.12268 1691.4146 4340529
1085.212 670.77209 1678.0293 6380884
0 0 0 0
1102.9746 669.4856 1674.8109 3024415
1138.8352 685.08948 1713.8462 1446155
1164.2496 694.18903 1736.61 4932668
1158.876 684.9325 1713.4534 5919306
1141.7894 668.97406 1673.5314 4275508
1152.9983 669.72595 1675.4122 2959652
1169.4552 673.48743 1684.822 2104087
1184.8083 676.55493 1692.4958 1906709
1202.4351 680.85822 1703.2611 1380622
1217.1791 683.47131 1709.7981 2564378
1224.2729 681.78094 1705.5693 3617064
1215.8568 671.5517 1679.9795 4603447
1238.849 678.69531 1697.8503 3089952
1248.5251 678.48755 1697.3306 1051398
1245.5844 671.48151 1679.804 2629145
1248.973 667.97156 1671.0233 4274740
1254.6243 665.71735 1665.3842 3813933
1254.4404 660.42633 1652.1478 2958623
1269.6564 663.26202 1659.2418 2958623
1290.8187 669.13666 1673.938 3682088
1295.9261 666.6626 1667.7488 5063998
1309.5498 668.57379 1672.5299 3550503
1318.4387 668.05719 1671.2375 3945773
1328.3989 668.08704 1671.3123 5261376
1344.6123 671.2381 1679.1951 5130049
1378.0223 682.8645 1708.2802 5327941
1386.9011 682.25385 1706.7524 2893604
1400.5833 683.99774 1711.1151 4537914
1406.1735 681.79321 1705.6001 5261638
1418.6189 682.92017 1708.4194 3879728
1428.8827 682.9884 1708.5901 3024158
1441.5619 684.20209 1711.6262 2563607
1453.7784 685.18079 1714.0746 4010796
1475.5547 690.62018 1727.682 5129788
1472.2883 684.34442 1711.9824 4604214
1458.3768 673.24042 1684.2041 4932927
1486.8408 681.71643 1705.408 6117199
1491.2472 679.12207 1698.9178 4011568
1507.2899 681.82617 1705.6826 6116944
1515.6263 681.03156 1703.6947 5327173
1534.1527 684.7959 1713.1117 3155748
1545.2029 685.19556 1714.1116 2630431
1546.0736 681.10553 1703.8798 657416
1574.3625 689.06909 1723.8018 3880497
1567.1912 681.50964 1704.8907 1840400
1573.3649 679.81311 1700.6466 3485221
1576.608 676.88 1693.3091 3945002
1573.8589 671.42761 1679.6691 4142636
1580.3304 669.95264 1675.9794 5524544
1589.9 669.80133 1675.6007 4208684
1586.6538 664.28619 1661.804 5458239
0 0 0 0
0 0 0 0
0 0 0 0
0 0 0 0
0 0 0 0
0 0 0 0
0 0 0 0
0 0 0 0
0 0 0 0
0 0 0 0
0 0 0 0
0 0 0 0
0 0 0 0
-1405.0371 664.27399 1637.5051 5130289
-1396.1869 664.67896 1638.5034 4998704
-1388.8202 665.8009 1641.269 6117184
-1377.2365 664.90265 1639.0548 4735532
-1370.9205 666.55298 1643.123 5196082
-1362.6294 667.25958 1644.8649 5459252
-1366.0758 673.76556 1660.9028 4801323
-1358.0978 674.69031 1663.1825 5064753
-1348.2802 674.70813 1663.2263 6841167
-1339.7106 675.35522 1664.8215 5788480
-1337.3118 679.14581 1674.1656 4012069
-1327.0735 678.98199 1673.7618 4209445
-1319.0237 679.94385 1676.1329 3617054
-1312.313 681.61584 1680.2545 5064497
-1298.9871 679.8512 1675.9045 5525048
-1285.8674 678.16809 1671.7556 5393719
-1282.7675 681.78442 1680.67 5130546
-1277.9977 684.56274 1687.519 5788476
-1270.019 685.65259 1690.2056 5985856
-1253.2516 681.97711 1681.1451 4801588
-1239.642 679.97498 1676.2096 5789249
-1224.8209 677.27051 1669.5428 5460027
-1196.6652 667.08856 1644.4434 7565660
-1200.1307 674.51166 1662.7421 5065527
-1196.4667 678.01746 1671.3842 4998967
-1174.5326 671.14197 1654.4353 5657150
-1154.592 665.2995 1640.0331 7104340
-1140.5903 662.80896 1633.8937 3222810
-1139.6476 667.9295 1646.5162 5985859
-1140.1272 673.97919 1661.4294 8618096
-1132.1995 675.12109 1664.2444 4670516
-1105.8312 665.19043 1639.7642 2960416
-1114.5233 676.3606 1667.2998 5130808
-1091.1486 668.0965 1646.9279 5591101
-1076.6901 665.19159 1639.7671 5591101
-1066.3594 664.80731 1638.8198 4538925
-1057.522 665.35553 1640.1713 3025174
-1072.132 680.80304 1678.2509 5788478
-1061.785 680.54376 1677.6118 4341033
-1042.1119 674.24542 1662.0858 5656890
-1029.2153 672.25323 1657.1748 5591613
-1017.7349 671.15668 1654.4716 4276009
-1006.2017 670.00348 1651.6289 4407596
-1004.3399 675.33093 1664.7616 6250057
-998.80078 678.26678 1671.9988 8092263
-993.11505 681.16089 1679.1332 1184013
-981.59174 680.06921 1676.4419 2170389
-966.20898 676.25397 1667.037 5854535
-942.72534 666.63147 1643.3165 4999994
-942.65527 673.53748 1660.3406 5328702
-922.61945 666.17285 1642.186 3091487
-896.23187 654.01617 1612.2186 4341550
-898.39459 662.65637 1633.5175 5394236
-891.53998 664.76111 1638.7058 2565395
-878.49896 662.24854 1632.5122 6643791
-873.69293 665.95715 1641.6542 1643786
-869.60498 670.30261 1652.3662 3486240
-857.42871 668.44153 1647.7784 2958614
-851.97491 671.83868 1656.1528 3682593
-843.33832 672.77588 1658.4631 5064243
-827.08612 667.58826 1645.675 4932656
-820.1748 669.90625 1651.3892 6577483
-817.10901 675.45917 1665.0778 3419931
-808.21893 676.27441 1667.0874 7169875
-802.80414 680.05359 1676.4034 9539706
-803.06091 688.79211 1697.9448 1315848
-795.15662 690.66364 1702.5583 1644047
-781.92847 687.89966 1695.7449 2828570
-768.02002 684.4574 1687.2594 4472364
-752.69653 679.64667 1675.4004 5525308
-752.83075 688.8515 1698.0912 6249289
-745.13391 691.04297 1703.4934 5788486
-720.96478 677.80835 1670.8688 4999482
-711.3277 678.05768 1671.4834 5920584
-701.47437 678.10492 1671.5999 4341552
-685.67395 672.32233 1657.3451 4275500
-675.73676 672.20416 1657.0538 5986372
-661.23413 667.47412 1645.3938 3814948
-647.45001 663.33862 1635.1993 3617569
-633.1308 658.521 1623.3234 2828051
-616.27856 650.87939 1604.4861 4340771
-592.3371 635.39398 1566.3127 5723458
-587.15192 639.85547 1577.3108 7104593
-578.94415 641.11414 1580.4136 6511945
-576.94226 649.39935 1600.8375 4669999
-569.58319 651.83087 1606.8314 7565406
-563.42731 655.74524 1616.4808 9342076
-556.37067 658.72852 1623.835 7169881
-547.21912 659.29291 1625.2262 8222824
-537.85889 659.62152 1626.0364 4538672
-539.95947 674.27386 1662.1559 6577994
-527.36853 670.78375 1653.5524 6578255
-511.87549 663.40027 1635.3513 8552815
-504.10904 665.9389 1641.6093 6776406
-515.40576 694.25574 1711.4132 4933946
-503.47232 691.78979 1705.3345 7104858
-494.59799 693.51233 1709.5807 5789509
-481.52402 689.2951 1699.1848 3749671
0 0 0 0
-446.11334 666.47064 1642.92 4144171
-444.2258 678.45276 1672.4573 4933690
-422.79037 660.44568 1628.0679 4472627
-413.84747 661.56812 1630.8348 4736567
-398.40598 652.10742 1607.5132 5196864
-397.58307 666.69678 1643.4775 5591878
-390.91519 671.97144 1656.4801 4933949
-382.87537 675.09851 1664.1887 7039323
-376.25385 680.95795 1678.6327 4999739
-365.28302 679.05017 1673.9299 3749415
-353.54669 675.57324 1665.3589 6117962
-341.29855 670.89056 1653.8157 5789255
-334.19778 676.34839 1667.2698 3420710
-325.18048 678.14178 1671.6907 3881000
-315.77405 679.21088 1674.326 2893851
-306.40775 680.43842 1677.3522 4998715
-294.54675 676.02264 1666.4668 3683112
-283.77353 673.88379 1661.1942 3748646
-268.74783 661.12988 1629.7546 1709062
-258.55188 659.74969 1626.3523 2300939
-250.30276 663.42261 1635.4064 2103561
-239.98969 661.70056 1631.1614 5459002
-229.64113 659.73218 1626.309 3485468
-220.46506 661.10718 1629.6986 3221782
-210.59213 660.42279 1628.0115 4340263
-202.29599 664.85492 1638.9371 4669483
-192.67793 665.17041 1639.7148 5393465
-180.16257 654.98608 1614.6095 5393978
-169.87115 652.1983 1607.7373 6512460
-165.04451 671.30695 1654.842 5525824
-153.25778 662.73151 1633.7028 4802101
-144.99101 669.2475 1649.7653 6183754
-134.28004 664.60797 1638.3284 5196859
-124.94242 666.57227 1643.1707 6052168
-119.20425 689.69446 1700.1692 5196601
-107.85069 681.59637 1680.2067 4012584
-97.890419 681.55231 1680.0979 4999740
-87.942909 681.59698 1680.2081 7696999
-77.981422 681.53094 1680.0453 4933436
-68.884583 690.10791 1701.1885 3419939
-58.536659 686.94293 1693.3865 2959131
-48.008972 679.92285 1676.0812 2630168
-38.232502 682.65497 1682.8162 3815200
-28.68528 692.85168 1707.9521 6643796
-18.547646 692.13007 1706.1732 2960159
-8.3506203 684.80927 1688.1267 4012076
1.6185553 671.66699 1655.7297 3814954
11.54635 678.6543 1672.954 854787
21.685551 685.87311 1690.7493 1314822
31.307934 677.34894 1669.7362 2236179
40.937347 673.03357 1659.0984 3090717
51.127445 677.82245 1670.9036 5064764
60.992115 677.4433 1669.9688 5788487
71.172256 680.18488 1676.7272 2630422
0 0 0 0
0 0 0 0
0 0 0 0
0 0 0 0
0 0 0 0
0 0 0 0
0 0 0 0
0 0 0 0
0 0 0 0
0 0 0 0
0 0 0 0
0 0 0 0
0 0 0 0
0 0 0 0
0 0 0 0
0 0 0 0
0 0 0 0
0 0 0 0
0 0 0 0
0 0 0 0
0 0 0 0
0 0 0 0
0 0 0 0
0 0 0 0
0 0 0 0
0 0 0 0
0 0 0 0
0 0 0 0
0 0 0 0
0 0 0 0
0 0 0 0
0 0 0 0
0 0 0 0
0 0 0 0
0 0 0 0
0 0 0 0
0 0 0 0
0 0 0 0
0 0 0 0
0 0 0 0
0 0 0 0
0 0 0 0
485.69727 662.97589 1634.3052 3615776
0 0 0 0
517.8028 679.70117 1675.5348 4011307
526.78973 678.49146 1672.5526 2037517
532.48572 673.16595 1659.4247 5130043
541.87939 672.62329 1658.087 5063993
553.76031 675.13239 1664.2721 6445388
562.57153 673.87677 1661.1769 5458751
574.21045 675.99304 1666.3938 4800822
592.30145 685.50531 1689.8425 5129274
601.35254 684.41278 1687.1493 3287580
604.72473 676.99841 1668.8721 1905929
620.06836 683.00916 1683.6892 3747877
633.37201 686.6181 1692.5857 3485735
634.33911 676.94934 1668.7512 2499097
639.84088 672.34241 1657.3945 5261887
652.00769 674.7724 1663.3848 2564376
661.24408 674.14246 1661.8319 4932151
666.7804 669.81415 1651.1621 3418912
679.4422 672.66528 1658.1906 4997690
686.79456 670.25366 1652.2456 4997944
698.2041 671.81366 1656.0912 2497812
711.74622 675.35394 1664.8184 4603445
720.2384 674.07123 1661.6564 4274478
718.34485 663.23419 1634.9419 2366997
731.25781 666.17413 1642.1891 6314574
743.61469 668.53699 1648.0138 3880233
755.59052 670.50037 1652.8538 5853766
766.46936 671.45264 1655.2012 7432798
780.45276 675.06616 1664.1089 5063735
791.9563 676.47125 1667.5726 5524544
799.07581 674.14319 1661.8336 3288103
807.1673 672.6817 1658.231 2432024
798.51886 657.47235 1620.7383 327680
805.0639 654.9856 1614.6083 3156517
839.94208 675.33789 1664.7787 7038044
840.40344 667.8667 1646.3616 6248528
861.35742 676.66571 1668.052 5261889
866.99628 673.37024 1659.9283 920586
0 0 0 0
895.2392 679.88269 1675.9823 5195839
908.46759 682.36102 1682.0916 1643536
920.88831 684.18542 1686.5889 3551016
928.28467 682.27795 1681.8867 4537910
940.49646 683.9126 1685.9163 2893084
945.56763 680.37482 1677.1954 5130047
960.96143 684.26105 1686.7753 4472888
972.20068 685.13947 1688.9407 5393735
979.4649 683.22717 1684.2267 4735806
993.9978 686.37256 1691.9805 2038038
992.44739 678.46027 1672.4757 6117461
999.4032 676.46191 1667.5496 3947063
1020.0603 683.68591 1685.3574 6710368
1022.1619 678.45374 1672.4596 7697006
1025.0179 673.81799 1661.032 3025189
1030.3395 670.87567 1653.7789 3682860
1043.3903 672.97412 1658.9518 5393477
1058.2275 676.17487 1666.842 3880496
1055.9003 668.45013 1647.7998 3682604
1073.0973 673.11401 1659.2966 5262406
0 0 0 0
1059.2101 652.44958 1608.3567 7170402
1082.0974 660.6051 1628.4609 7169887
1153.5903 698.02734 1720.7106 2827292
1153.1912 691.67371 1705.0482 3222049
1157.4927 688.22534 1696.5477 2564376
1163.0869 685.59839 1690.072 3880492
1174.3322 686.31891 1691.8481 3025188
1183.0674 685.57275 1690.0088 4735805
1187.0417 682.10339 1681.4564 5197384
1180.3362 672.6059 1658.0441 5328970
1177.1431 665.25018 1639.9115 3553327
1194.368 669.45953 1650.288 3618604
1215.3417 675.68457 1665.6334 4539196
1220.1644 672.9024 1658.775 1577487
1220.1742 667.53162 1645.5355 1379079
1224.7218 664.70886 1638.5771 1839373
1233.4047 664.15723 1637.2173 2759961
1240.7955 662.92395 1634.1771 2694166
1254.4404 665.02527 1639.3571 1970443
1271.9294 669.11646 1649.4423 2233100
1282.5583 669.56403 1650.5455 4799027
1302.6445 674.90454 1663.7106 2760470
1311.66 674.47235 1662.645 3879208
1310.9261 669.07062 1649.3292 5326654
1313.1915 665.26819 1639.9559 3880236
1324.8949 666.26782 1642.4202 5656649
1363.7618 680.81354 1678.2767 4341045
1372.3573 680.14587 1676.631 4341047
1382.7407 680.36761 1677.1776 6840157
1403.2433 685.52972 1689.9027 4932417
1407.3781 682.6792 1682.8759 4274740
1415.2365 681.66223 1680.369 2892830
1438.3881 687.97418 1695.9286 2958624
1454.5614 690.88403 1703.1016 1444873
1441.879 680.1424 1676.6223 2168850
1456.7384 682.45038 1682.3119 6050637
1459.7236 679.20209 1674.3044 3550502
1465.5723 677.32098 1669.6674 5392706
1480.2247 679.50653 1675.0549 4603192
1497.172 682.70947 1682.9504 4208690
1514.6096 686.09204 1691.2889 5130049
1534.5327 690.54871 1702.275 4669244
1545.778 691.06757 1703.5541 2827808
1539.6584 683.86682 1685.8035 2235931
1549.6626 683.87433 1685.822 4341049
1550.9985 680.08093 1676.4709 2235418
1551.1279 675.81018 1665.943 3814444
1558.0931 674.5528 1662.8435 4669752
1545.4364 664.86963 1638.9734 4538421
1554.3787 664.54156 1638.1647 4407348
1535.9904 652.60541 1608.7408 6972761
0 0 0 0
0 0 0 0
0 0 0 0
0 0 0 0
0 0 0 0
0 0 0 0
0 0 0 0
0 0 0 0
0 0 0 0
0 0 0 0
0 0 0 0
0 0 0 0
0 0 0 0
0 0 0 0
-1380.9187 667.01105 1620.5854 2958610
-1373.972 668.30194 1623.7219 6775373
-1367.0389 669.61768 1626.9187 5064756
-1358.64 670.22913 1628.4042 3354396
-1350.5199 670.98767 1630.2472 4340772
-1347.6 674.3595 1638.4395 4406820
-1338.1881 674.508 1638.8003 5327926
-1333.6409 677.1286 1645.1674 4406826
-1315.5863 672.87921 1634.8429 5854016
-1325.4282 682.9408 1659.2888 5262135
-1319.1924 684.80652 1663.8218 6643788
-1310.2494 685.28455 1664.9832 6117442
-1301.606 685.92767 1666.5457 4998961
-1263.7924 671.09082 1630.4977 5525304
-1280.1031 684.98755 1664.2616 4998961
-1270.8278 685.30249 1665.0269 5196340
-1260.9509 685.29547 1665.0098 5722684
-1259.9993 690.17725 1676.8706 5459512
-1238.792 683.95325 1661.7487 5262391
-1227.9155 683.37897 1660.3534 5196855
-1209.0372 678.30615 1648.0283 5722942
-1191.2379 673.76099 1636.9854 5130806
-1181.8929 673.96222 1637.4742 6709583
-1176.0044 676.15405 1642.7996 1841422
-1159.3502 672.14111 1633.0496 3091488
-1145.6884 669.80994 1627.3857 7170649
-1140.8116 672.61902 1634.2107 5262649
-1132.7249 673.5672 1636.5145 5657408
-1113.1407 667.63599 1622.1039 5130806
-1109.3391 671.1499 1630.6414 6380616
-1102.265 672.72833 1634.4763 5788479
-1081.7373 666.05096 1618.2528 8223076
-1066.8199 662.73956 1610.2073 6446920
-1061.1792 665.18317 1616.1444 4801836
-1070.6198 677.211 1645.3674 4143399
-1053.0099 672.19208 1633.1733 6512202
-1048.9595 675.81598 1641.9781 5722687
-1031.5956 670.84998 1629.9126 2367509
-1031.4048 677.06342 1645.0089 5130546
-1021.7462 677.12091 1645.1487 6972752
-1009.0254 675.13062 1640.313 5262645
-1002.1985 677.08362 1645.058 7894881
-992.76154 677.29419 1645.5697 6776916
-988.04321 680.76013 1653.9906 8223339
-983.76917 684.60468 1663.3314 4210224
-975.47687 685.70245 1665.9985 2894365
-955.83722 678.76459 1649.1422 3946538
-929.44104 666.83588 1620.1599 5262654
-919.39777 666.51324 1619.376 5657409
-917.6582 672.26697 1633.3555 7302237
-890.56494 659.37158 1602.0244 7433822
-886.81195 663.66559 1612.4572 2236435
-874.22638 661.37103 1606.8823 5328956
-867.09088 663.19446 1611.3126 3683880
-863.58319 667.86401 1622.658 6052428
-855.18585 668.81482 1624.968 986630
-852.74786 674.50085 1638.783 2433044
-835.19623 668.22571 1623.5367 1709575
-833.35352 674.51923 1638.8275 2564368
-819.64124 671.2406 1630.8617 4801318
-810.73627 671.86768 1632.3853 6577477
-815.34961 683.84784 1661.4926 4208673
-810.67267 688.2337 1672.1486 4011293
-804.24109 691.22009 1679.4043 4933434
-804.6297 700.21637 1701.2618 6051912
-786.0296 692.70654 1683.0159 3618084
-772.12091 689.19141 1674.4755 3946793
-761.40338 688.47028 1672.7234 6446412
-751.9635 688.90057 1673.7688 3551523
-736.14417 683.41992 1660.4528 1643787
-727.4104 684.45782 1662.9746 6710350
-725.46594 692.00049 1681.3004 3815466
-707.70416 684.45544 1662.9688 2828569
-689.65881 676.41913 1643.4436 2433558
-678.45746 674.96143 1639.902 3157534
-665.62396 671.81415 1632.2552 6381388
-657.21069 673.10107 1635.382 1644303
-645.68237 671.18848 1630.735 4999729
-633.21777 668.22968 1623.5463 4472619
-610.44775 654.13672 1589.3057 4735789
-592.22992 644.55652 1566.0294 8024929
-583.61469 645.28876 1567.8085 4801072
-580.2785 651.97607 1584.056 5854018
-574.98126 656.64355 1595.3964 6117448
-566.32239 657.56384 1597.6323 6051657
-560.46655 661.82544 1607.9865 6052427
-554.00323 665.50464 1616.9254 4077353
-541.32538 661.71661 1607.722 6775625
-535.5647 666.3999 1619.1006 5393721
-528.90393 670.11365 1628.1235 4077609
-515.48389 665.24243 1616.2883 7038292
0 0 0 0
-483.87238 648.54071 1575.7095 6052425
-506.91946 692.79651 1683.2344 5657410
-501.76993 699.51929 1699.5682 5460542
-484.51251 689.29218 1674.7201 6644816
-472.30862 685.97705 1666.6658 5000249
-453.30142 672.42847 1633.7478 4539697
-438.57092 664.77112 1615.1433 4670770
-432.42209 670.07013 1628.0178 1841415
-422.15643 669.08594 1625.6267 3946277
-407.28983 660.59351 1604.9933 7564639
-397.05966 659.39484 1602.0809 4472882
-388.25385 660.56073 1604.9136 4867383
-379.9032 662.57898 1609.8173 4407090
-377.47836 675.30243 1640.7303 5722950
-369.74597 678.95233 1649.5983 2893596
-359.27277 677.63092 1646.3877 2894109
-349.48007 677.55505 1646.2034 2959643
-338.60098 675.30811 1640.7441 5525824
-328.81882 675.18073 1640.4347 7434335
-322.3631 682.08398 1657.207 4540214
-312.8349 682.71576 1658.7419 723715
-302.50912 681.59137 1656.0103 2696474
-294.42969 685.62262 1665.8046 2762266
-278.11295 670.08643 1628.0575 1380103
-267.1001 666.6723 1619.7625 2235149
-256.11142 663.06622 1611.001 3222044
-246.44943 662.74884 1610.2299 1116929
-236.77608 662.37396 1609.3191 2629390
-226.91016 661.40637 1606.9683 3353113
-217.9185 663.01398 1610.8741 5196086
-208.51842 663.46936 1611.9805 4012326
-198.33498 661.3562 1606.8463 8157285
-191.87276 672.06415 1632.8627 4868143
-179.02609 660.35938 1604.4244 4538411
-165.82127 645.9469 1569.4075 3814437
-157.37828 649.47333 1577.9755 7302493
-149.26027 654.87109 1591.09 4012588
-141.75922 663.88593 1612.9926 6710099
-133.36526 669.72003 1627.1672 5855046
-125.57359 679.72339 1651.4716 4998710
-116.73672 685.28137 1664.9756 5064759
-106.70393 684.1972 1662.3414 4078380
-97.517105 688.86841 1673.6906 6775895
-87.473 687.85571 1671.2301 5789515
-77.391602 686.25378 1667.338 5394756
-67.72393 688.38855 1672.5248 2960158
-57.449421 684.0296 1661.9341 4407346
-47.05732 676.17786 1642.8573 5921098
-37.1511 673.03357 1635.2179 6710101
-27.58806 676.08118 1642.6224 5327937
-18.077513 684.43793 1662.9263 4670007
-8.2282791 684.63086 1663.3949 5327937
1.6021451 674.56665 1638.9427 2564632
11.384336 678.9035 1649.4796 2564630
21.460478 688.66693 1673.201 3814695
31.288706 686.81879 1668.7108 3288353
40.888256 682.04364 1657.109 1446926
50.74086 682.5213 1658.2695 1710098
60.423203 680.92535 1654.392 5394246
70.373932 682.37732 1657.9197 4802109
0 0 0 0
0 0 0 0
0 0 0 0
107.15962 666.80914 1620.095 2894366
116.88663 667.54712 1621.8878 3420454
0 0 0 0
0 0 0 0
0 0 0 0
0 0 0 0
0 0 0 0
0 0 0 0
0 0 0 0
0 0 0 0
0 0 0 0
0 0 0 0
0 0 0 0
0 0 0 0
0 0 0 0
0 0 0 0
0 0 0 0
0 0 0 0
0 0 0 0
0 0 0 0
0 0 0 0
0 0 0 0
0 0 0 0
0 0 0 0
0 0 0 0
0 0 0 0
0 0 0 0
0 0 0 0
0 0 0 0
0 0 0 0
0 0 0 0
0 0 0 0
0 0 0 0
0 0 0 0
0 0 0 0
423.61533 637.51172 1548.9132 4537649
434.61453 640.1972 1555.438 5064508
459.49344 662.79181 1610.3344 3945513
476.26132 673.00555 1635.1498 3616292
486.05823 673.15778 1635.5197 4340271
503.91635 684.25 1662.4697 2498067
509.8772 679.0719 1649.8888 5129787
518.45178 677.50415 1646.0797 1577739
521.66284 669.11462 1625.6964 2563602
533.78558 672.25281 1633.3209 3616542
547.46588 677.20587 1645.355 4537900
560.12048 680.73895 1653.9391 4144425
564.45544 674.21338 1638.0844 5920067
574.04773 674.08167 1637.7644 5130045
594.29163 686.25433 1667.3394 2629654
609.19452 691.96228 1681.2075 2695189
620.7666 693.76404 1685.5851 3813672
623.8468 686.16858 1667.1311 1511690
625.79492 677.58411 1646.274 1183499
632.2879 674.10858 1637.8298 4407351
642.94965 675.11548 1640.2761 2893857
654.62665 677.14246 1645.201 5656377
662.78882 675.52765 1641.2776 2563603
669.92572 672.92969 1634.9655 6379854
682.38306 675.67383 1641.6328 1116162
699.97943 683.35785 1660.3021 3419173
710.88672 684.38922 1662.8079 2826519
711.5799 675.69342 1641.6803 3681827
717.37805 672.01428 1632.7415 3221533
729.211 674.01093 1637.5925 4669493
735.96027 671.31805 1631.0498 6446160
746.35284 671.97522 1632.6465 5064507
756.51392 672.40979 1633.7023 6314572
764.28931 670.73962 1629.6445 2498323
776.28986 672.77295 1634.5847 6643025
787.73212 674.27832 1638.2422 4142638
797.12354 674.01282 1637.5972 1708812
791.00201 660.79456 1605.4817 393216
802.32141 662.28705 1609.1079 2498074
807.28284 658.55798 1600.0476 7629927
835.62366 673.76624 1636.998 6116944
834.72675 665.32153 1616.4806 5327684
850.7301 670.38611 1628.7855 6577750
867.18927 675.6922 1641.6774 5195841
886.48462 683.06592 1659.5928 3419430
896.11597 682.91315 1659.2216 3682859
907.9505 684.4245 1662.8937 2630684
920.16443 686.18634 1667.1742 2499355
926.83759 683.82275 1661.4315 4209713
934.2052 682.01581 1657.0414 3682343
957.95526 692.08209 1681.4987 4078127
966.49347 691.06433 1679.0259 6446164
969.32513 686.02856 1666.7909 3090980
967.68097 677.95862 1647.184 2433049
974.71686 676.07037 1642.5962 1248780
990.71576 680.37476 1653.0542 5327945
1006.629 684.53662 1663.166 2301467
1000.5823 673.82928 1637.1511 2367518
996.92316 664.91986 1615.5046 7564649
1007.511 665.59186 1617.1373 2893858
1030.0469 674.07007 1637.7362 4735546
1039.9779 674.21838 1638.0966 4932669
1048.1621 673.24182 1635.7239 5262406
1072.4784 682.55017 1658.3396 7893869
1068.1442 673.62103 1636.6453 5130817
1059.6022 662.2229 1608.952 7301217
1062.407 658.05615 1598.8285 2301465
1080.9199 663.60675 1612.3143 7038045
1091.3286 664.12836 1613.5815 4274740
1146.8032 691.82751 1680.88 5327169
1152.671 689.38129 1674.9368 2300948
1159.0702 687.29193 1669.8604 5524803
1154.9075 679.02808 1649.7823 1183237
1164.9808 679.20282 1650.2069 1774606
1162.5511 672.14575 1633.0609 5524550
1174.1382 673.24237 1635.7253 3814190
1173.4202 667.32312 1621.3438 3551275
1195.3016 674.24799 1638.1685 2958880
1207.5133 675.65057 1641.5763 4208177
1209.3912 671.29492 1630.9937 2892059
1201.7518 661.76733 1607.8452 2893090
1214.822 663.7041 1612.5508 1510406
1228.9611 666.19 1618.5906 1970957
1247.1431 670.81207 1629.8206 3353122
1261.8131 673.48853 1636.3234 1181699
1276.8746 676.33173 1643.2311 1971210
1282.665 674.25818 1638.1932 3615266
1291.1521 673.62274 1636.6494 3024156
1303.9163 675.21161 1640.5098 1182470
1305.4777 671.01868 1630.3225 4339250
1318.3883 672.6781 1634.3542 4668983
1310.6199 663.83917 1612.879 4537142
1340.866 674.24347 1638.1575 5853003
1357.1681 677.53705 1646.1597 3747883
1381.6871 684.85651 1663.9431 4932157
1403.4114 690.69672 1678.1327 4998206
1402.3247 685.30725 1665.0383 919556
1417.2366 687.75677 1670.9899 3748140
1415.6583 682.22559 1657.5511 4932413
1423.1295 681.10162 1654.8203 985348
1431.0476 680.20551 1652.6429 3682090
1440.2938 679.94843 1652.0184 4340533
1456.9077 683.14966 1659.7961 4077361
1458.9008 679.49805 1650.9242 3287333
1467.3613 678.88745 1649.4407 5392708
1493.6399 686.474 1667.873 4340533
1492.2825 681.34283 1655.4062 2629661
1511.8704 685.77942 1666.1855 3485226
1525.525 687.48462 1670.3285 3222568
1522.3522 681.6333 1656.1119 2301724
1522.7544 677.44739 1645.9419 4406840
1522.901 673.20178 1635.6267 2104342
1508.8712 662.78278 1610.3124 2564122
1527.6298 666.8067 1620.089 3090463
1523.4276 660.82074 1605.5453 5590596
1535.3386 661.85504 1608.0583 5459010
0 0 0 0
0 0 0 0
0 0 0 0
0 0 0 0
0 0 0 0
0 0 0 0
0 0 0 0
0 0 0 0
0 0 0 0
0 0 0 0
0 0 0 0
0 0 0 0
0 0 0 0
-1371.9985 667.59967 1599.0001 2696208
-1375.4945 673.95404 1614.2198 3748897
-1374.0887 677.97882 1623.8597 7893596
-1359.8057 675.66187 1618.3103 5393460
-1337.0918 669.09326 1602.5775 6117182
-1329.1622 669.88165 1604.4658 5327926
-1322.0167 671.07953 1607.335 4275238
-1327.5168 678.76038 1625.7318 4604203
-1310.3405 674.87439 1616.4242 6183750
-1324.5635 687.22205 1645.9987 3091995
-1314.2184 686.91168 1645.2552 3749665
-1299.2668 684.17096 1638.6909 3552544
-1281.5997 679.94824 1628.5769 4669996
-1256.0977 671.47321 1608.2778 6512454
-1244.4641 670.33887 1605.561 6380613
-1260.5891 684.25464 1638.8914 5393719
-1243.5996 680.27216 1629.3527 4209445
-1240.615 683.94824 1638.1575 4209191
-1198.6704 666.03436 1595.2511 5327927
-1227.0397 687.21582 1645.9838 5196086
-1224.1384 691.08295 1655.2461 5986115
-1216.1149 692.09735 1657.6758 7104339
-1191.015 683.33087 1636.6788 7170132
-1173.3312 678.71039 1625.6121 2565653
-1172.5369 683.86401 1637.9557 5592131
-1154.2428 678.81201 1625.8553 7631716
-1135.986 673.69702 1613.6041 4341805
-1129.9215 675.78723 1618.6106 3420189
-1120.463 675.86591 1618.7991 3288092
-1113.7742 677.63116 1623.027 4998710
-1099.8972 675.01562 1616.7625 8354154
-1091.4385 675.70862 1618.4224 2696728
-1073.6987 670.61707 1606.2273 6249544
-1065.7257 671.58917 1608.5557 5525818
-1058.5643 673.09497 1612.1622 6512199
-1054.4436 676.5791 1620.5073 6644557
-1047.0861 678.03137 1623.9857 5591357
0 0 0 0
-1020.522 673.20111 1612.4165 2762004
-1029.3464 685.43811 1641.7258 3551517
-1018.3848 684.60736 1639.7362 4340520
-1001.1501 679.50311 1627.5106 3879712
-994.867 681.80487 1633.0237 5327671
-984.33923 681.21429 1631.6091 5591869
-975.06097 681.48529 1632.2583 2499607
-983.41583 694.20923 1662.734 2169612
-967.15057 689.63507 1651.7782 4735283
-931.88275 671.27899 1607.8126 3749159
-921.84998 670.90942 1606.9275 7499360
-907.21521 667.14795 1597.9182 3486506
-897.23535 666.76648 1597.0045 6776148
-879.1637 660.29938 1581.5149 6183498
-869.28467 659.91235 1580.588 5064758
-863.31104 662.51398 1586.8192 5788995
-860.99225 668.00854 1599.9795 5724228
-854.27649 670.17603 1605.1709 4539955
-852.91559 676.64044 1620.6542 4605492
-842.96381 676.35907 1619.9802 4276016
-826.55768 670.83289 1606.7443 5262910
-827.82025 679.685 1627.9463 3156761
-810.55988 673.35803 1612.7924 6182973
-813.35193 683.73706 1637.6516 5524787
-809.72437 688.90503 1650.0297 6314562
-800.49811 689.37769 1651.1617 3946016
-798.72675 696.36157 1667.8893 6841166
-799.72742 705.96747 1690.8967 1775374
-774.47571 692.34851 1658.2772 5656384
-764.80865 692.4906 1658.6177 3026203
-757.87494 695.14349 1664.9717 2828570
-742.3576 689.8894 1652.3875 6446417
-726.86035 684.51385 1639.5121 2959647
-708.45575 676.21765 1619.6415 3617833
-711.88953 688.82434 1649.8364 6315087
-698.99237 685.76031 1642.4977 3157278
-690.02374 686.51837 1644.3132 3683111
-675.24048 681.43011 1632.1262 2499348
-663.09167 678.89136 1626.0455 5460031
-652.35931 677.74927 1623.3099 3617825
-638.31689 673.08264 1612.1327 5657661
-628.06824 672.33545 1610.343 5328185
-607.91248 660.79626 1582.705 3354913
-587.70807 648.8418 1554.0723 4472361
-586.29376 657.5816 1575.0055 5459512
-578.11023 658.8891 1578.1371 4604205
-572.13385 662.79645 1587.4957 6906961
-564.59045 664.98871 1592.7465 5327930
-560.41028 671.28412 1607.825 4012325
-547.73163 667.44135 1598.621 6051907
-539.15106 668.54492 1601.2643 3353626
-531.81549 671.25952 1607.7661 4800814
-521.71069 670.5141 1605.9807 5261882
-499.97623 654.5166 1567.6643 7235159
-480.22037 640.5528 1534.2189 5525305
-483.6629 657.59076 1575.0273 6314822
-466.12686 646.21545 1547.7819 5722429
-458.03705 647.74219 1551.4386 3880227
-468.13394 675.57715 1618.1074 4998709
-463.14563 682.35101 1634.3319 4999479
0 0 0 0
-431.26385 663.10437 1588.2333 4538155
0 0 0 0
-416.98477 670.40192 1605.7119 3682849
-404.58099 665.64514 1594.3187 5656896
-392.64417 661.44757 1584.265 7959394
-383.35495 661.61383 1584.6632 4340779
-379.76144 671.86511 1609.2166 5656896
-374.12497 678.93695 1626.1547 3749155
-365.78479 681.34644 1631.9257 3815460
-357.76239 684.49469 1639.4662 6447183
-346.09363 680.64752 1630.2517 526339
-336.5062 680.79022 1630.5935 3815725
-325.93686 678.89618 1626.057 4078126
-318.25119 683.07617 1636.0686 3222817
-309.00775 684.07013 1638.4493 2828060
-298.25415 681.677 1632.7174 1643785
-282.03165 666.20502 1595.6598 3288354
-274.75412 671.52216 1608.3951 65536
-263.69299 667.64172 1599.101 2893077
-255.57071 671.19019 1607.6 2761491
-245.37398 669.35443 1603.2031 3353626
-234.80275 666.30817 1595.9069 3879457
-223.01801 659.41815 1579.4042 1512199
-215.51231 665.13104 1593.0874 3616284
-207.31131 669.12299 1602.6487 4668715
-196.43059 664.43384 1591.4176 4406057
-186.96649 664.3053 1591.1096 6116932
-178.11098 666.44025 1596.2231 4801330
-165.4487 653.77216 1565.8812 6775376
-158.45723 663.33838 1588.7938 4538930
-149.40425 664.93793 1592.6249 5657411
-140.88835 669.3045 1603.0835 6578769
-130.47517 664.6377 1591.9058 4933944
-122.3469 671.78973 1609.036 4933687
-112.22876 668.30109 1600.6802 3551007
-103.08798 670.5257 1606.0084 3945768
-94.955109 680.42505 1629.7189 5722436
-85.771553 684.18433 1638.7229 7959399
-76.52504 688.33685 1648.6688 6512468
-66.346916 684.09875 1638.5178 2762013
-56.206558 678.86395 1625.9797 5459520
-46.260429 674.29498 1615.0364 3090716
-36.53157 671.33594 1607.9491 5986125
-27.139713 674.66699 1615.9275 6052178
-17.601688 676.01483 1619.1558 5986130
-7.9660182 672.34967 1610.3772 6315346
1.594931 681.19501 1631.563 5130814
11.372418 687.95447 1647.7529 2630933
21.002659 683.67645 1637.5065 2104336
30.814791 686.15198 1643.4357 4143919
40.658749 687.97723 1647.8075 526085
50.3251 686.67236 1644.6821 2433818
60.00066 685.89612 1642.8229 4736570
69.391319 682.53418 1634.7705 3814954
78.513901 677.68188 1623.1487 2367509
87.788536 675.05774 1616.8633 3419940
95.029053 658.84711 1578.0364 3814441
107.6861 679.7301 1628.0544 2827546
117.53059 680.88611 1630.8231 6446161
127.55009 682.80334 1635.4152 6841688
136.06029 676.94055 1621.3729 4012591
148.19385 688.68951 1649.5135 7631979
158.47493 690.90857 1654.8285 4474172
0 0 0 0
178.86189 693.93402 1662.0748 2762528
0 0 0 0
0 0 0 0
0 0 0 0
0 0 0 0
0 0 0 0
0 0 0 0
0 0 0 0
0 0 0 0
0 0 0 0
0 0 0 0
0 0 0 0
0 0 0 0
0 0 0 0
0 0 0 0
0 0 0 0
0 0 0 0
0 0 0 0
0 0 0 0
0 0 0 0
0 0 0 0
0 0 0 0
0 0 0 0
0 0 0 0
0 0 0 0
0 0 0 0
0 0 0 0
420.58835 656.2829 1571.8949 3616548
431.0264 658.00153 1576.0112 2498065
440.78183 658.62726 1577.51 3616546
446.75946 653.6994 1565.7069 4340784
473.51291 678.75287 1625.7137 4669747
465.94424 654.58954 1567.8389 3485476
493.76877 680.12152 1628.9918 5590848
494.41714 667.95959 1599.8622 3419679
508.07501 673.50055 1613.1335 2695702
517.01379 672.69666 1611.2083 2826777
528.62225 675.33258 1617.5216 4537649
530.13483 665.20648 1593.2681 7893343
548.84875 676.64117 1620.6559 5064246
564.4353 683.89331 1638.0259 4471341
573.85553 683.5553 1637.2162 6445643
583.55365 683.55389 1637.2129 5524802
595.12317 685.70886 1642.3744 1710097
609.17609 690.60986 1654.113 1182468
607.08899 677.3479 1622.3486 2761755
617.17462 677.86902 1623.5967 5525575
629.79163 681.11176 1631.3636 1841424
637.68585 679.22607 1626.8472 4538928
641.46747 673.08124 1612.1294 7696996
651.95398 674.04889 1614.447 3485477
663.4118 675.97821 1619.0681 7761248
677.34644 680.34039 1629.516 3418655
689.59961 682.91473 1635.682 2694673
691.43018 675.23914 1617.2979 4273966
707.19855 681.19879 1631.5721 3418654
713.33929 677.84918 1623.5493 1577223
724.17023 678.98615 1626.2725 3419169
734.38647 679.52454 1627.562 5392959
740.14893 675.98126 1619.0754 5392958
743.87305 670.69092 1606.4042 5458495
751.15344 668.70007 1601.6357 4998200
763.63904 671.33496 1607.9467 4273965
772.07343 670.38721 1605.6768 4273709
784.95941 673.28088 1612.6075 3155484
790.94592 670.25818 1605.3677 1642248
801.34241 671.00006 1607.1445 4734519
806.87659 667.70074 1599.2423 4998204
818.00818 669.05634 1602.4891 4735288
831.93011 672.63678 1611.0648 5393733
850.2832 679.67816 1627.9299 3090979
861.87238 681.21545 1631.6119 4144179
872.56586 682.01849 1633.5354 6973021
883.65424 683.10919 1636.1478 8091760
895.33405 684.62854 1639.7869 1512206
904.79034 684.43323 1639.319 5591115
924.46466 691.88947 1657.1779 1249807
923.96063 684.24585 1638.8702 2104084
937.84521 687.30585 1646.1993 1578000
945.21631 685.57867 1642.0625 3683115
935.8985 671.90521 1609.3126 4012079
940.5 668.39978 1600.9166 4275251
967.37683 680.63708 1630.2267 4538683
979.78888 682.55579 1634.8223 2696224
991.46729 683.93079 1638.1157 2563868
994.89539 679.64319 1627.8462 4077618
992.34949 671.39606 1608.093 2235671
999.23608 669.62683 1603.8555 3420202
1020.2557 677.27277 1622.1687 5525578
1030.9644 677.99518 1623.8989 6512214
1030.949 671.71698 1608.8618 4997948
1038.7363 670.59119 1606.1653 4932153
1062.832 679.91864 1628.5059 5195324
0 0 0 0
1063.8815 668.45453 1601.0476 5853513
1076.8741 670.63892 1606.2797 4208431
1080.2621 666.85608 1597.2191 4340018
1093.0289 668.87823 1602.0625 4735289
1127.1067 683.79462 1637.7894 4537397
1138.7583 684.96692 1640.5973 3155744
1132.4409 675.4024 1617.689 3747881
1089.4791 644.32672 1543.2579 2103316
1155.937 677.94128 1623.7699 3287333
1162.8582 676.37183 1620.0107 2893090
1169.2368 674.51501 1615.5634 2761762
1178.3662 674.26233 1614.9583 3748655
1197.2303 679.53906 1627.5968 6906718
1192.4879 671.4397 1608.1976 4538423
1198.4232 669.43317 1603.3917 3945516
1203.5023 666.98376 1597.525 5721671
1224.1962 673.15875 1612.3151 3418658
1235.5115 674.12097 1614.6198 2432278
1254.7278 679.34631 1627.1351 2234385
1265.9998 680.22345 1629.236 787457
1276.9172 680.89825 1630.8523 1445384
1280.2695 677.5592 1622.8547 3945259
1292.1691 678.7597 1625.7301 1905420
1290.0391 672.62738 1611.0424 2103057
1305.3208 675.59698 1618.1549 2037263
1309.3832 672.75879 1611.3571 5063741
1315.4764 670.99756 1607.1387 4800569
1348.108 682.70111 1635.1704 4734776
1362.6565 685.14539 1641.0248 5589828
1387.8865 692.88776 1659.5688 3353382
1380.2852 684.24561 1638.8698 2366230
1389.5831 684.0434 1638.3853 2366230
1390.9025 679.94342 1628.5653 5590087
1390.4473 675.03851 1616.8173 5261378
1412.7921 681.19403 1631.5607 1117450
1417.1079 678.63196 1625.4242 2761245
1419.3684 675.12695 1617.0292 3353638
1424.8973 673.21313 1612.4453 2037524
1444.3229 677.84674 1623.5433 3485225
1462.9648 682.05377 1633.6199 5656394
1437.7976 665.91522 1594.9656 3419177
1473.3462 677.92432 1623.7292 3879727
1471.8127 672.82593 1611.5178 1708816
1491.4056 677.38873 1622.4464 3682093
1505.5621 679.4397 1627.3588 2103318
1516.7097 680.11536 1628.9771 4537912
1525.0618 679.53687 1627.5914 2037778
1515.647 671.09875 1607.381 4011566
1520.3821 668.99219 1602.3354 3156001
1533.6189 670.62952 1606.2571 4471345
0 0 0 0
0 0 0 0
0 0 0 0
0 0 0 0
0 0 0 0
0 0 0 0
0 0 0 0
0 0 0 0
0 0 0 0
0 0 0 0
0 0 0 0
0 0 0 0
0 0 0 0
0 0 0 0
0 0 0 0
-1366.4799 683.79138 1614.8678 4209192
-1354.5037 682.57727 1612.0004 6907213
-1332.5355 676.27484 1597.1165 5393717
-1327.0465 678.30548 1601.912 5459509
-1316.8463 677.93994 1601.0487 4538921
-1313.0547 680.89221 1608.0209 6052424
-1303.8193 681.04419 1608.3799 6249808
-1299.8373 683.96259 1615.2721 4736311
-1276.462 676.64417 1597.9885 5657658
-1271.1844 678.88141 1603.2722 4933168
-1269.3671 683.01422 1613.0323 2959641
-1199.1796 650.14252 1535.4012 6841936
-1173.6471 641.16327 1514.1956 4933681
-1167.2466 642.57806 1517.5367 6052421
-1169.2881 648.69818 1531.9904 3617825
0 0 0 0
-1141.6838 643.37146 1519.4105 5921094
-1217.3318 691.45282 1632.9613 5394236
-1198.5479 686.23694 1620.6432 5526079
-1193.6996 688.9801 1627.1216 3420958
-1186.1249 690.18158 1629.959 5592129
-1167.2469 684.77161 1617.1826 5592130
-1152.9629 681.98944 1610.6122 2499602
-1145.4933 683.22534 1613.5309 5920066
-1130.519 679.96814 1605.8386 5920836
-1119.9678 679.33856 1604.3518 3223068
-1115.3407 682.32251 1611.3987 4538160
-1108.6941 684.11169 1615.6241 4406829
-1099.2246 684.17505 1615.7738 2300944
-1083.0083 680.0033 1605.9216 6972497
-1078.3459 683.07654 1613.1794 4406569
-1072.2458 685.28571 1618.3967 5393719
-1055.8208 680.87653 1607.9839 5327926
-1045.0072 680.03864 1606.0051 4472869
-1026.6516 674.23242 1592.2928 7565403
-1007.4492 667.75702 1577.0004 7960416
-997.74725 667.5166 1576.4325 5986372
-1022.2988 690.40448 1630.4855 591621
-1007.3237 686.78027 1621.9264 920580
-989.67126 681.24329 1608.8501 2432786
-983.21173 683.3783 1613.8921 5525053
-981.50812 688.89319 1626.9164 5130295
-970.32178 687.79584 1624.3248 6446152
-965.38782 691.15283 1632.2528 6248776
-955.74634 691.17334 1632.3011 4538673
-928.3894 678.25189 1601.7854 7039065
-905.77942 668.56738 1578.9141 4671029
-904.2901 674.43286 1592.7662 5525825
-884.4444 666.58722 1574.2377 5065786
-874.03229 665.75995 1572.2841 4867894
-865.3819 666.27136 1573.4917 5920838
-860.35651 669.61517 1581.3887 6973783
-854.03589 672.01349 1587.0526 6842196
-841.2196 669.297 1580.6372 6578770
-834.98737 671.81683 1586.5881 7434337
-837.03931 681.13519 1608.5947 5658183
-829.67902 682.9209 1612.8119 4736819
-819.42456 682.33807 1611.4355 4604202
-814.56989 686.29114 1620.7712 4077855
-805.93964 687.11938 1622.7273 6380353
-805.40607 694.95404 1641.2299 6841933
-797.45825 696.50446 1644.8915 5855041
-791.60022 699.9411 1653.0076 5788482
-785.84705 703.5578 1661.5488 722688
-773.34607 701.14832 1655.8585 1051654
-758.22632 696.27209 1644.3427 3222560
-750.32489 697.98376 1648.385 3288096
-736.87134 694.50769 1640.1758 1380874
-723.74365 691.24994 1632.4821 5065020
-706.78607 684.19641 1615.8242 6381909
-698.09406 685.06049 1617.8649 3882031
-690.81519 687.35468 1623.2828 2236434
-673.65894 679.74695 1605.3163 5394757
-673.72998 689.55328 1628.4752 3881003
-652.95227 677.99615 1601.1814 2959902
-633.22491 667.2049 1575.6965 6315599
-628.56732 672.20685 1587.5092 4670515
-617.66943 670.58588 1583.681 5788994
-604.44482 666.34973 1573.6769 3355171
-591.19592 661.95386 1563.2953 4143910
-582.99713 663.16241 1566.1495 7367256
-575.13367 664.79767 1570.0115 4143654
-565.93451 664.91754 1570.2944 4012069
-559.99493 668.935 1579.7822 5985858
-555.74609 675.14294 1594.4432 5459772
-547.13928 676.17987 1596.8921 5789258
-532.28772 669.39996 1580.8804 5591612
-523.21753 669.77795 1581.7731 2433298
-511.46399 666.67218 1574.4384 4802355
0 0 0 0
-477.38184 645.80182 1525.1501 4077346
-478.68878 660.06281 1558.8293 5657405
-466.76001 656.27509 1549.8842 5591611
-465.13641 667.11542 1575.4851 3420192
-454.15762 664.70746 1569.7983 3485471
-455.70245 680.91156 1608.0667 5590590
-447.0618 682.26349 1611.2594 4274474
-437.08322 681.58807 1609.6643 3090202
-427.89755 682.14661 1610.9834 2958869
-414.38196 675.67041 1595.689 2958870
-399.75967 667.04535 1575.3196 3814178
-390.27655 666.78802 1574.712 4867378
-380.58582 666.15479 1573.2164 4670512
-371.5477 666.66077 1574.4114 6512715
-368.4588 678.14221 1601.5264 4999990
-362.13345 684.11646 1615.6354 5591871
-355.58032 689.97314 1629.4668 4342070
-344.7659 687.65729 1623.9976 5395011
-333.12607 683.51483 1614.2146 3684138
-324.57343 685.64911 1619.255 2171159
-314.59576 684.8114 1617.2766 3026208
-305.79861 686.57153 1621.4335 2236437
-289.12616 670.19098 1582.7484 1643529
-278.40054 666.95911 1575.116 2958874
-269.12149 667.08868 1575.422 1182464
-262.29941 673.53674 1590.6499 3353628
-252.22729 671.80872 1586.5691 2234888
-240.99869 666.7475 1574.6162 2432010
-232.05338 667.84998 1577.2198 2497805
-221.34566 663.75995 1567.5607 4734768
-212.18347 664.14929 1568.4802 1576966
-206.40965 675.66589 1595.6783 4537646
-197.08934 676.12164 1596.7545 2958100
-186.09862 670.604 1583.7239 2826771
0 0 0 0
-164.32132 658.53076 1555.2112 4208936
-155.07375 658.38568 1554.8687 4208937
-147.66966 666.54352 1574.1344 6906706
-137.66135 663.25378 1566.3654 6248776
-129.01151 666.50677 1574.0477 4735537
-119.53351 665.65485 1572.0358 4472365
-110.32237 666.27063 1573.4901 3551005
-100.85472 665.30792 1571.2164 4998708
-92.786102 674.31683 1592.4922 3946022
-83.700294 677.13599 1599.1501 4274990
-75.250526 686.47711 1621.2104 4603443
-65.413338 684.04297 1615.4618 4406322
-55.606304 681.1438 1608.6151 4735287
-45.788227 676.88226 1598.5509 2499356
-36.438194 679.12152 1603.8391 3419429
-26.943016 679.28107 1604.2159 4669497
-17.40354 677.88898 1600.9283 6315092
-7.8995781 676.2027 1596.946 4539195
1.571981 680.91968 1608.0858 5394757
10.894501 668.39514 1578.5073 6118222
20.624762 680.90161 1608.0431 5920843
30.077999 679.24915 1604.1406 2104599
40.459797 694.32507 1639.7444 2104597
50.004604 691.98071 1634.208 1644048
59.628166 691.30988 1632.6238 525827
68.409088 682.42059 1611.6304 3288874
78.222908 684.75049 1617.1328 4210227
87.388252 681.51471 1609.491 3946541
97.576729 686.10968 1620.3427 2169873
0 0 0 0
117.34955 689.48376 1628.311 2037776
126.12679 684.76453 1617.1659 2827805
135.95036 685.99127 1620.063 3551528
145.54182 685.96222 1619.9945 2170134
156.03526 689.92493 1629.3529 3683887
164.82861 686.3468 1620.9027 5855055
0 0 0 0
0 0 0 0
0 0 0 0
0 0 0 0
0 0 0 0
0 0 0 0
0 0 0 0
0 0 0 0
0 0 0 0
0 0 0 0
0 0 0 0
0 0 0 0
0 0 0 0
0 0 0 0
0 0 0 0
0 0 0 0
0 0 0 0
0 0 0 0
0 0 0 0
0 0 0 0
0 0 0 0
0 0 0 0
0 0 0 0
0 0 0 0
0 0 0 0
0 0 0 0
405.78159 656.70312 1550.895 2169104
419.79095 664.33325 1568.9147 3616292
423.91971 656.33527 1550.0262 2958360
434.29205 658.138 1554.2838 3813926
446.79648 663.02997 1565.8368 4406062
457.33444 664.86401 1570.1681 4208685
467.33829 665.86389 1572.5295 4142890
485.6778 678.4693 1602.299 2826773
494.4791 677.5224 1600.0627 5458491
506.23544 680.58392 1607.293 1906190
512.8941 676.8056 1598.3698 4340528
522.12158 676.49249 1597.6304 5131070
532.2749 677.36884 1599.7 5854024
542.69098 678.54297 1602.4729 4669228
556.5528 683.91107 1615.1504 2104084
564.30261 681.71393 1609.9614 5919810
583.16541 692.79193 1636.1238 1971980
593.20673 693.19928 1637.0857 3880233
594.40088 683.42126 1613.9937 5525574
608.30243 688.33203 1625.5912 2301204
611.95172 681.66962 1609.8568 5064513
622.64746 682.94043 1612.858 4472629
630.83063 681.45856 1609.3584 5658187
644.27643 685.62115 1619.189 3947312
647.6861 679.13812 1603.8784 5130810
654.27393 676.12689 1596.767 2432272
666.64264 679.09033 1603.7655 3748132
678.3407 681.29688 1608.9767 3287839
684.0993 677.55957 1600.1505 1380101
698.92621 682.78339 1612.4872 6248268
708.18079 682.49603 1611.8086 3747878
717.89813 682.65631 1612.1871 1511689
730.67352 685.68225 1619.3333 3484451
734.7464 680.56891 1607.2574 4669749
727.74188 665.45709 1571.5687 5327424
739.30713 667.49292 1576.3767 5129786
754.01678 672.28156 1587.6857 3748135
768.74896 676.97205 1598.7628 3484706
774.7533 673.95605 1591.6403 5392704
789.12415 678.203 1601.67 3945257
792.49146 673.00464 1589.3933 3287582
805.40613 675.94098 1596.3279 4932408
809.59662 671.57227 1586.0106 7564128
825.74847 677.11218 1599.0939 6972249
840.84424 681.67029 1609.8584 5458498
860.07501 689.44061 1628.2092 3945515
872.10681 691.33203 1632.676 4669751
881.09784 690.79785 1631.4146 6644057
881.32104 683.47577 1614.1223 5393992
886.24451 679.91681 1605.7173 3223080
909.95905 690.69653 1631.1753 3749168
921.08887 691.79797 1633.7764 3090979
916.39423 681.11475 1608.5465 4209717
920.3877 677.04254 1598.9293 3814703
933.08118 679.38788 1604.4681 2498841
0 0 0 0
928.6933 662.69135 1565.0371 3814960
954.54236 674.40363 1592.6973 4471605
973.77167 681.25543 1608.8787 3945773
983.88501 681.65869 1609.8311 3222050
1003.4376 688.53107 1626.0612 3222050
1002.9152 681.62891 1609.7606 4011051
1006.2353 677.44366 1599.8767 2827035
1013.9821 676.28894 1597.1497 1972242
1014.7943 670.57336 1583.6515 3353120
1027.0327 672.44354 1588.0682 4011051
1040.1165 674.82843 1593.7004 4076587
1036.4819 666.42096 1573.8451 3944999
1053.1913 671.12732 1584.9597 3155485
1057.8546 668.14209 1577.9098 2366225
1076.9543 674.24744 1592.3284 6971993
1082.8081 672.02588 1587.0819 3814186
1087.1658 668.922 1579.7516 4932667
1114.5244 679.90259 1605.6837 4274736
1118.9768 676.84192 1598.4556 3814441
1134.2177 680.30347 1606.6305 4406322
1138.9514 677.4577 1599.9099 4998460
1151.3282 679.16766 1603.9481 3353636
1155.1389 675.83777 1596.0841 1051143
1163.9889 675.48627 1595.2542 3221538
1175.4519 676.64471 1597.9899 2234645
1175.5759 671.30945 1585.3899 2431765
