# .PCD v0.7 - Point Cloud Data file format
VERSION 0.7
FIELDS x y z rgb
SIZE 4 4 4 4
TYPE F F F U
COUNT 1 1 1 1
WIDTH 1406
HEIGHT 1
VIEWPOINT 0 0 0 1 0 0 0
POINTS 1406
DATA ascii
-5472.8193 84.240562 9639.5195 6512721
-5468.3252 85.058945 9733.165 7565408
-5393.9092 84.795547 9703.0254 7039065
-5292.8779 84.103577 9623.8438 6776149
-5261.3706 84.513275 9670.7256 6052170
-5127.9214 83.276497 9529.2021 6052680
-5045.9976 82.858246 9481.3428 6117963
-4962.2373 82.400093 9428.917 6578514
-4948.2485 83.103279 9509.3818 6973271
-4951.1904 84.110283 9624.6113 6710100
-4902.1626 84.24762 9640.3262 6841687
-5001.3379 86.965179 9951.293 6644307
-4932.5649 86.792404 9931.5225 6512723
-4863.8813 86.61705 9911.457 7170910
-4821.2524 86.907066 9944.6426 6644566
-4821.3208 87.983429 10067.81 6447187
-4740.2646 87.587784 10022.537 6249808
-4762.7241 89.119072 10197.76 6644567
-4715.4878 89.368813 10226.337 6315602
-4945.4536 94.947021 10864.643 6315347
-4809.4199 93.55291 10705.117 6315604
-4804.9204 94.71434 10838.018 6052689
-4610.1343 92.105507 10539.493 6842464
-4599.4976 93.154648 10659.545 6250070
-4618.0459 94.832336 10851.52 5987154
-4560.8677 94.980377 10868.46 6513497
-4454.2944 94.089272 10766.492 6974048
-4420.9463 94.741493 10841.125 6710619
-4361.8354 94.852707 10853.851 6052176
-4197.314 92.640694 10600.733 6841948
-4205.9922 94.24231 10784.004 6447190
-4184.5879 95.208893 10894.608 6710876
-4099.0679 94.724113 10839.136 7039841
-3997.4834 93.846779 10738.744 6908255
-3920.7686 93.534348 10702.993 6250325
-3737.4966 90.627838 10370.405 6842462
-3865.6477 95.301834 10905.244 6645083
-3561.7695 89.302658 10218.767 6316118
0 0 0 0
0 0 0 0
0 0 0 0
0 0 0 0
0 0 0 0
0 0 0 0
0 0 0 0
0 0 0 0
-3343.2332 98.961563 11324.021 6053465
-3294.0078 99.501068 11385.756 2961197
-3153.2339 97.239952 11127.02 1118479
-3102.1069 97.705849 11180.331 2170911
-3226.6868 103.84698 11883.053 3026475
-3034.7024 99.846596 11425.294 5987161
-2886.626 97.141289 11115.729 6645348
-2812.9282 96.871101 11084.812 7961981
-2613.5132 92.155075 10545.165 7304307
-2392.4141 86.424744 9889.4521 5264727
-2275.8257 84.276894 9643.6768 1053205
-2165.135 82.242447 9410.8779 13
-2181.8022 85.065994 9733.9717 18
-2106.3513 84.35376 9652.4727 1515317
-2063.5972 84.947746 9720.4414 1449783
-2010.3597 85.131897 9741.5137 1186356
-1963.1915 85.591545 9794.1104 4674146
-1873.2715 84.158516 9630.1309 2305845
0 0 0 0
0 0 0 0
0 0 0 0
0 0 0 0
0 0 0 0
0 0 0 0
0 0 0 0
-1703.5018 101.18423 11578.357 9413312
-1651.0232 102.18153 11692.477 9413314
-1645.6409 106.30861 12164.732 9347521
-1552.3302 104.8734 12000.503 9347521
-1482.9059 104.99159 12014.027 9281729
-1508.3531 112.17738 12836.286 9347519
0 0 0 0
0 0 0 0
0 0 0 0
0 0 0 0
0 0 0 0
0 0 0 0
0 0 0 0
0 0 0 0
0 0 0 0
0 0 0 0
0 0 0 0
0 0 0 0
0 0 0 0
0 0 0 0
0 0 0 0
0 0 0 0
-305.85706 159.14793 18211.055 2172733
-199.52385 160.39655 18353.932 2370117
-89.407288 157.952 18074.207 2304839
17.452681 156.02348 17853.529 2239561
123.21831 156.02003 17853.135 2239561
229.78339 156.56448 17915.436 2239816
336.67117 156.9153 17955.578 2370375
438.64099 155.35585 17777.133 2304581
505.28592 144.31131 16513.324 2304580
625.8844 149.7596 17136.764 2238787
744.48822 153.27641 17539.188 2172993
860.12341 155.39548 17781.668 2107456
934.59735 150.42703 17213.137 2041406
1007.451 146.20103 16729.561 1975611
1191.1597 157.37842 18008.572 2238525
1299.3149 157.55647 18028.947 2436158
1401.3063 157.01682 17967.195 2896453
1394.6239 145.23607 16619.143 3027782
1496.8875 145.60651 16661.529 3291465
1600.4532 146.04991 16712.27 3423053
1693.7188 145.55647 16655.805 3357260
1934.49 157.09601 17976.256 3422796
2010.0125 154.71199 17703.457 3488846
2090.4885 152.9268 17499.182 3423055
2214.9351 154.37494 17664.889 3094605
2351.9336 156.52777 17911.234 2896972
2421.5879 154.20627 17645.588 2568264
2479.856 151.38184 17322.393 2502729
2531.5938 148.39908 16981.08 2239558
2636.4604 148.63963 17008.607 2370631
2917.4448 158.42621 18128.471 2370630
3017.8501 158.06001 18086.566 2370887
3120.5066 157.83279 18060.566 2370631
3214.885 157.21582 17989.967 2370375
3275.5964 155.04488 17741.549 2436168
3422.1416 156.94539 17959.021 2370375
3541.4944 157.5218 18024.98 2501959
3463.9766 149.56421 17114.404 2633288
3790.6946 159.01656 18196.021 2436164
3767.4409 153.67108 17584.348 2567492
3887.2783 154.2928 17655.49 2501186
4089.7371 158.07539 18088.326 2172477
4226.7734 159.20071 18217.096 1909304
4323.3013 158.78221 18169.207 1975610
4437.7964 159.02794 18197.324 1646132
4607.1787 161.18222 18443.836 1316903
4619.8599 157.8815 18066.139 1251106
4629.0806 154.61467 17692.32 856344
4748.2207 155.0826 17745.865 724499
4910.2139 156.89955 17953.777 724497
0 0 0 0
4386.1362 134.33362 15371.591 987677
4415.1172 132.47087 15158.439 2040366
0 0 0 0
0 0 0 0
4874.0737 137.83104 15771.797 4607575
4949.5327 137.33226 15714.722 5397096
5031.7358 137.03555 15680.77 6252149
5153.7471 137.8141 15769.857 6449782
5425.7549 142.5045 16306.573 6778236
5549.0708 143.19382 16385.449 7172994
5801.0303 147.12199 16834.945 7567752
6141.8926 153.13397 17522.887 7633545
6241.438 153.02943 17510.924 7567751
6149.6655 148.31419 16971.367 7501957
6085.2368 144.39951 16523.416 7370372
6457.0703 150.79716 17255.49 7173506
6438.0112 148.00887 16936.43 7107713
6307.0645 142.77332 16337.334 7041664
6177.856 137.73479 15760.782 6975101
5987.0322 131.49306 15046.549 6646650
5808.4341 125.69901 14383.546 6382450
6167.8896 131.54805 15052.843 5922411
6309.7773 132.65625 15179.652 5658724
6916.6465 143.37167 16405.801 4408910
7114.3115 145.42546 16640.814 3947843
7214.7266 145.46239 16645.039 3421497
7200.0298 143.20872 16387.156 2763566
7204.0859 141.38307 16178.25 2039843
7251.3262 140.44174 16070.534 1776673
7323.3228 139.99805 16019.764 1052948
7373.2793 139.1498 15922.698 1316119
7434.3413 138.52989 15851.764 1052947
7496.9048 137.95308 15785.761 1316118
7792.9229 141.63342 16206.897 2303013
8020.0015 143.9865 16476.156 2105635
8081.0225 143.33752 16401.895 1842463
7919.6982 138.80698 15883.472 1974049
8177.9375 141.65009 16208.804 1908257
8307.3486 142.22165 16274.207 1908256
8129.3574 137.57777 15742.815 1710877
8180.3213 136.87004 15661.829 1974048
8134.8076 134.58203 15400.017 1710877
8220.1426 134.48553 15388.975 1711387
8255.0449 133.5751 15284.795 1119762
8430.3223 134.93118 15439.97 527625
8608.6855 136.30704 15597.406 659211
8850.502 138.64766 15865.241 593418
8971.9375 139.07312 15913.925 790541
8825.8018 135.38525 15491.928 1316886
9067.707 137.66447 15752.735 1184787
9235.2188 138.7793 15880.305 1382165
9181.335 136.57826 15628.443 1447705
9255.0986 136.30107 15596.724 1052947
9347.2148 136.29697 15596.254 790032
9499.25 137.15808 15694.79 723982
9544.4238 136.47452 15616.57 921361
9507.8311 134.64612 15407.35 526603
9650.8486 135.37189 15490.399 987154
9899.3818 137.55011 15739.649 1250328
9901.793 136.29974 15596.573 1184535
10062.26 137.22809 15702.8 1250328
10030.805 135.54594 15510.316 921363
10098.933 135.22783 15473.914 1381914
10057.719 133.46446 15272.135 1316122
10812.271 142.1981 16271.512 921364
11043.132 143.95088 16472.08 921364
10551.134 136.33279 15600.354 723985
11036.095 141.36084 16175.706 789778
10809.724 137.26933 15707.521 1250585
11011.172 138.63403 15863.682 2303017
10966.508 136.90323 15665.629 1645087
11173.418 138.31572 15827.258 1842466
11448.926 140.5468 16082.556 1908259
11158.431 135.85016 15545.126 1513501
10996.709 132.78534 15194.425 1381916
10992.362 131.65518 15065.102 2105639
0 0 0 0
0 0 0 0
0 0 0 0
0 0 0 0
0 0 0 0
0 0 0 0
0 0 0 0
13659.82 153.62479 17579.049 1184535
13230.878 147.6748 16898.203 460814
12772.721 141.49059 16190.552 592144
12392.03 136.25029 15590.914 197641
12366.192 134.96028 15443.3 855571
12258.49 132.80234 15196.369 1710880
12091.241 130.03546 14879.76 1579293
12176.425 130.00378 14876.134 1513500
12080.467 128.05246 14652.848 1579293
12417.061 130.6813 14953.662 1776672
12455.854 130.16093 14894.117 1579293
12490.271 129.60251 14830.218 2039842
12536.684 129.17546 14781.352 2039842
12666.945 129.61232 14831.34 1579034
12425.047 126.26133 14447.892 1644827
12357.002 124.71077 14270.463 1644827
12630.648 126.60632 14487.367 1842206
12945.031 128.88184 14747.752 2302757
11716.424 115.86769 13258.563 2763564
11575.259 113.70936 13011.589 3157296
12335.263 120.37363 13774.172 3157553
12519.366 121.36733 13887.879 3157040
12709.499 122.40612 14006.745 3485748
12978.622 124.18726 14210.558 3486007
13359.992 127.01257 14533.854 3420984
13781.625 130.18201 14896.529 2762800
14195.226 133.23572 15245.961 1973802
0 0 0 0
0 0 0 0
0 0 0 0
0 0 0 0
0 0 0 0
0 0 0 0
0 0 0 0
0 0 0 0
-7000.2842 112.63177 7681.1973 8684149
-7099.2456 114.97137 7840.7524 8223598
-6924.292 112.87659 7697.8931 8026218
-6817.9854 111.88049 7629.9609 8026219
-6695.4458 110.60292 7542.835 7763047
-6623.9849 110.15765 7512.4678 7499876
-6442.231 107.85975 7355.7578 6973532
-6537.1758 110.19476 7514.999 6447187
-6255.4082 106.16816 7240.3955 6512980
-6215.8501 106.22516 7244.2827 7105117
-6318.2534 108.72585 7414.8237 7105117
-6484.1221 112.36135 7662.7549 7039324
-6426.9458 112.15578 7648.7349 7697253
-6505.8726 114.33926 7797.6431 7828840
-6486.7612 114.81864 7830.3364 7697254
-6454.2236 115.06559 7847.1772 7302495
-6386.2744 114.68021 7820.895 7105115
-6303.1479 114.01466 7775.5068 7170908
-6302.708 114.84601 7832.2026 6973529
-6259.2456 114.89993 7835.8799 6710357
-6285.0391 116.23547 7926.96 6775893
-6277.4473 116.96905 7976.9878 6841688
-6211.6836 116.62161 7953.2935 6644565
-6201.9263 117.32838 8001.4932 7105117
-6190.1372 118.0073 8047.7944 7039324
-6169.1533 118.52013 8082.7676 7302496
-6046.4507 117.07148 7983.9741 7104861
-6161.1763 120.23334 8199.6045 6643797
-6019.4521 118.40115 8074.6538 7170141
-5866.8613 116.32413 7933.0073 6709847
-5769.478 115.31705 7864.3262 7302240
-5818.3379 117.24038 7995.4922 7236703
-5831.6147 118.47239 8079.5122 7105117
-5787.6079 118.55141 8084.9014 7039324
-5915.5444 122.18319 8332.5791 7105115
-5860.7832 122.07076 8324.9121 6841686
-5833.29 122.52922 8356.1777 6183242
-5883.8032 124.64807 8500.6777 5459774
-5859.8618 125.21259 8539.1758 5854020
-5718.6787 123.25991 8406.0088 6183757
-5722.6157 124.42831 8485.6904 6447185
-5634.5459 123.59916 8429.1445 7762788
-5557.0439 122.98907 8387.5381 7170396
-5416.2261 120.954 8248.752 7236959
-5374.2246 121.10873 8259.3037 7301983
-5388.9736 122.55693 8358.0674 7630692
-5373.3257 123.33429 8411.0811 7433826
-5349.9668 123.94756 8452.9043 7039325
-5382.9297 125.88959 8585.3457 7565156
-5333.6655 125.9273 8587.918 7433571
-5287.0381 126.0286 8594.8262 6446418
-5291.1909 127.35407 8685.2207 5854023
-5277.5605 128.27338 8747.915 6182989
-5290.7871 129.87016 8856.8105 6709589
-5194.8145 128.79163 8783.2578 6051402
-5212.2705 130.53188 8901.9385 6906967
-5102.3545 129.0853 8803.2852 6380623
-5178.5259 132.36533 9026.9746 5393984
-5169.2197 133.50613 9104.7754 6578515
-5018.1523 130.97115 8931.8945 7104858
-4918.3237 129.73366 8847.502 7631460
-4869.0083 129.81628 8853.1367 7565666
-4834.6172 130.30295 8886.3262 7105114
-4775.3013 130.12117 8873.9297 6841943
-4702.5405 129.5649 8835.9932 6710357
-4645.8262 129.44322 8827.6943 7236444
-4592.5737 129.41629 8825.8574 5525826
-4604.6807 131.25175 8951.0322 6315341
-4540.6421 130.93425 8929.3789 6446929
-4600.6797 134.22931 9154.0938 5920328
-4585.6582 135.38692 9233.04 5657158
-4516.7983 134.96378 9204.1826 6447443
-4503.9424 136.22417 9290.1377 5789000
-4430.9341 135.67387 9252.6094 6381394
-4261.0083 132.10506 9009.2256 7894377
-4414.5049 138.60004 9452.166 6249808
-4295.3716 136.5923 9315.2441 6645082
0 0 0 0
0 0 0 0
0 0 0 0
0 0 0 0
0 0 0 0
0 0 0 0
0 0 0 0
0 0 0 0
0 0 0 0
-3932.6479 143.49332 9785.875 6184786
-3965.8889 146.87132 10016.246 6447187
-3994.1062 150.16309 10240.736 6249808
-3930.8533 150.06442 10234.008 4341811
-3782.0942 146.64725 10000.965 5855050
-3735.041 147.12761 10033.725 6512727
-3652.511 146.20343 9970.6982 6513497
-3575.2917 145.46495 9920.3359 6842463
-3442.2336 142.39195 9710.7656 7039841
-3354.8689 141.1368 9625.166 7039841
0 0 0 0
0 0 0 0
0 0 0 0
0 0 0 0
0 0 0 0
0 0 0 0
0 0 0 0
0 0 0 0
-3177.3289 157.80769 10762.078 6119258
-3054.0828 154.79254 10556.453 6579553
-3016.3572 156.07648 10644.014 6514016
-2885.4028 152.48824 10399.306 6777189
-2938.6355 158.68977 10822.234 6579809
-2871.5815 158.52744 10811.163 6777190
-2777.9446 156.85667 10697.222 5987675
-2628.425 151.87883 10357.746 3948608
-2386.2324 141.18007 9628.1182 3224631
-2286.9919 138.62212 9453.6719 2961975
-2199.0251 136.63623 9318.2393 5198940
-2147.7014 136.88348 9335.1016 5594727
-2111.8225 138.15421 9421.7617 5726316
-2087.8987 140.29726 9567.9121 5002851
-2040.1073 140.91139 9609.7939 4279129
-2009.6398 142.79167 9738.0244 6319741
-1951.5066 142.75928 9735.8154 8162204
-1881.4639 141.82715 9672.2461 2898753
0 0 0 0
0 0 0 0
-131.13037 10.878718 741.90063 1045
0 0 0 0
0 0 0 0
0 0 0 0
0 0 0 0
0 0 0 0
-1549.8058 160.93951 10975.66 9281983
-1517.4785 164.4834 11217.345 9281728
-1425.2478 161.56143 11018.074 9413571
-1361.3353 161.72314 11029.103 9413314
-1267.0491 158.11089 10782.756 9348032
-1321.892 173.71243 11846.741 9413568
-1253.6362 173.97986 11864.979 9413312
-1179.7169 173.4464 11828.598 9347521
-1122.0847 175.39136 11961.239 9347778
0 0 0 0
0 0 0 0
0 0 0 0
0 0 0 0
0 0 0 0
0 0 0 0
0 0 0 0
0 0 0 0
0 0 0 0
0 0 0 0
0 0 0 0
0 0 0 0
0 0 0 0
0 0 0 0
0 0 0 0
0 0 0 0
104.97029 223.01683 15209.174 5265517
197.71191 226.03391 15414.931 3883353
285.84531 223.54066 15244.898 2567751
373.62415 222.03397 15142.146 1646904
474.14392 227.21631 15495.568 1843764
582.50287 233.86476 15948.975 2041407
677.94916 234.1967 15971.612 2172993
801.96826 243.1089 16579.402 2370628
848.50555 229.15123 15627.523 2436166
937.41724 228.25778 15566.593 2370374
1017.8119 225.63623 15387.811 2239046
1118.7334 227.62218 15523.246 2172998
1218.2054 229.03389 15619.522 2238790
1242.947 217.18816 14811.674 2304326
1400.4752 228.57733 15588.386 2238790
1476.1663 226.02669 15414.438 2238788
1571.5486 226.61267 15454.4 2041922
1657.156 225.8022 15399.13 2042175
1722.7582 222.49265 15173.427 1845311
1786.9497 219.33821 14958.302 1976128
1866.2441 218.24808 14883.957 1976129
1964.226 219.34306 14958.633 2239300
2030.5681 216.96289 14796.312 2436420
2135.2388 218.70561 14915.159 2633799
2213.4949 217.7117 14847.378 2896711
2314.4868 218.94456 14931.456 3291467
2425.3772 220.98857 15070.852 3357257
2491.7495 218.97516 14933.543 3423049
2606.3555 221.19325 15084.812 3685707
2684.0374 220.23457 15019.431 3685963
2873.5173 228.21645 15563.774 3423049
3002.2214 231.02525 15755.327 3159367
3314.1414 247.33826 16867.832 2699330
3443.0486 249.43762 17011.004 2501439
3623.7639 255.06422 17394.725 2370110
3770.6509 258.06442 17599.328 2369855
3872.6897 257.91632 17589.23 2369856
4019.3042 260.6669 17776.812 2435907
4084.6577 258.14148 17604.586 2370114
3922.7156 241.73488 16485.697 2370116
4042.2063 243.0472 16575.193 2238530
4174.394 245.04263 16711.277 2172996
4405.5039 252.61789 17227.891 2041410
4439.9458 248.82826 16969.447 2107203
4396.4717 240.93648 16431.248 2173253
4414.6646 236.69289 16141.845 2172996
4392.2705 230.49927 15719.457 2172996
4393.5649 225.78018 15397.627 2238532
4404.8979 221.75839 15123.353 2172736
4410.686 217.62341 14841.357 2106941
4426.2979 214.12527 14602.794 1975097
4466.7739 211.94104 14453.834 1777973
4598.2461 214.07536 14599.389 1448488
4691.4033 214.38002 14620.166 1316896
4787.1143 214.78824 14648.005 1119007
5041.9092 222.1926 15152.963 986905
5150.4956 223.00731 15208.525 723729
5375.6001 228.75233 15600.32 855314
5449.6196 227.98256 15547.824 920854
5533.1562 227.6299 15523.774 1250594
5588.6987 226.15598 15423.255 2040367
5697.8218 226.86276 15471.457 2764345
5876.5269 230.27379 15704.081 3685448
5915.2124 228.17731 15561.106 4146513
5861.8716 222.64975 15184.141 5001567
5916.1489 221.31511 15093.122 5528168
5938.5723 218.84636 14924.759 5922927
5994.6816 217.67322 14844.754 6580856
5965.3071 213.47487 14558.437 6975614
5887.9102 207.70215 14164.752 7173248
5807.1201 201.97363 13774.082 7172992
5959.999 204.41835 13940.806 7238527
5921.2529 200.31366 13660.876 7172991
5951.3989 198.6188 13545.292 7041406
5969.9062 196.58582 13406.647 6844283
6092.2778 197.98149 13501.828 7041408
6230.2222 199.84052 13628.608 7106944
6395.6191 202.52126 13811.428 7041151
6570.4111 205.42801 14009.661 6975357
6787.4614 209.567 14291.931 6711671
7117.6948 217.05556 14802.63 6119790
7304.3394 220.03632 15005.911 5856104
7558.5083 224.95509 15341.358 4869209
7775.7773 228.6718 15594.829 4013642
7785.7485 226.27654 15431.479 3684673
7873.0776 226.15904 15423.465 3092020
7695.75 218.52904 14903.118 2236967
7764.1079 217.96948 14864.957 1513499
7651.2905 212.3932 14484.67 263431
7875.103 216.18155 14743.024 1
7763.9731 210.79301 14375.542 66052
8066.7842 216.63806 14774.157 263687
8016.4639 212.97585 14524.405 197894
8275.9727 217.53534 14835.352 329480
8404.6094 218.5952 14907.63 790543
8446.7314 217.40622 14826.545 725005
8580.6211 218.57939 14906.552 658444
8661.9609 218.40364 14894.566 395016
8875.5615 221.53264 15107.957 197639
8888.7021 219.64569 14979.271 263432
9018.8457 220.65868 15048.354 197640
9051.127 219.28091 14954.395 65796
9115.3057 218.69518 14914.448 65797
9284.7451 220.62184 15045.842 329226
9398.0947 221.19177 15084.709 66053
9194.0967 214.35223 14618.271 260
9551.5244 220.60738 15044.855 263175
9358.3154 214.14664 14604.25 395019
9529.0566 216.05626 14734.48 723984
9839.2139 221.06352 15075.963 789777
9739.9277 216.86426 14789.585 329227
9956.4229 219.70822 14983.535 329227
10060.031 220.03284 15005.674 395020
10104.705 219.07407 14940.288 526607
10201.911 219.26099 14953.035 592400
10391.668 221.41666 15100.046 1052950
10454.672 220.85786 15061.938 658192
10653.214 223.14755 15218.089 1184536
10733.682 222.94632 15204.365 1250329
10837.339 223.22612 15223.447 1118743
10818.841 221.00591 15072.034 1184536
10858.165 219.99358 15002.996 2566188
10851.649 218.07646 14872.254 2039844
10725.73 213.81 14581.292 2368810
0 0 0 0
10732.519 210.5538 14359.228 1842466
0 0 0 0
11147.603 215.2843 14681.836 1579294
11391.27 218.28688 14886.604 1842466
11418.673 217.13095 14807.772 1579294
11622.064 219.31363 14956.626 2237481
11671.627 218.58244 14906.761 1250330
11703.717 217.53745 14835.495 1842466
11833.221 218.30519 14887.853 1513501
11798.882 216.06128 14734.823 1710880
11237.878 204.27686 13931.156 2829360
10917.379 197.00418 13435.178 2763567
10904.288 195.3438 13321.944 2039842
10834.464 192.69823 13141.523 2631979
10935.829 193.11343 13169.839 2763565
10965.262 192.26151 13111.74 3158067
11061.258 192.58043 13133.49 1907999
11236.679 194.26808 13248.584 460552
11474.84 197.00949 13435.54 2236964
11268.867 192.1404 13103.48 2566186
11355.851 192.29883 13114.285 2631979
11250.509 189.2204 12904.345 3026480
11014.403 183.99908 12548.265 3158066
10957.481 181.82104 12399.728 2829101
11088.065 182.76263 12463.941 2433830
12046.135 197.24084 13451.317 2499624
12324.789 200.47725 13672.032 2170403
11586.251 187.23358 12768.849 1840924
11833.167 189.98335 12956.376 920847
11938.066 190.43228 12986.991 723217
12249.037 194.14162 13239.958 1315354
12872.55 202.72581 13825.38 1052699
12359.718 193.41872 13190.659 526093
0 0 0 0
0 0 0 0
0 0 0 0
0 0 0 0
0 0 0 0
0 0 0 0
0 0 0 0
-6597.2988 149.03346 7239.0142 7894374
-6569.1118 149.36766 7255.2471 7763046
-6469.3818 148.06883 7192.1592 7960426
-6392.1592 147.27133 7153.4224 7697254
-6267.0767 145.35316 7060.2505 7697255
-6289.1675 146.84557 7132.7412 7105118
-6211.3037 146.00854 7092.084 7039325
-6128.9272 145.0533 7045.6855 7236704
-6097.8086 145.30641 7057.98 7105118
-6103.6802 146.45055 7113.5537 7565670
-6025.9404 145.59048 7071.7783 7105117
-6062.4077 147.49704 7164.3848 6841945
-6073.1411 148.79993 7227.6704 7105117
-6100.5181 150.53201 7311.8037 7697254
-6094.4434 151.45753 7356.7593 7894633
-6120.3877 153.19788 7441.2925 7039323
-6033.4463 152.11732 7388.8071 7434080
-5983.8594 151.96968 7381.6353 7039322
-5925.3965 151.59277 7363.3276 6710357
-5965.8223 153.75896 7468.5459 6512978
-5964.4272 154.87161 7522.5908 6381392
-5948.061 155.60933 7558.4248 6776150
-5878.0537 154.94429 7526.1216 7105115
-5814.1431 154.43102 7501.1899 6644564
-5672.0273 151.81662 7374.2002 6973530
-5754.3091 155.21443 7539.2427 7499617
-5743.5508 156.13614 7584.0132 6907480
-5703.7256 156.27602 7590.8066 6446928
-5631.5425 155.52446 7554.3013 6315086
-5597.2778 155.81644 7568.4839 7565153
-5441.1392 152.69304 7416.7705 8025706
-5305.0864 150.08701 7290.188 7894629
-5460.6934 155.75732 7565.6128 8289133
-5399.7197 155.29277 7543.0479 7763046
-5480.0469 158.91811 7719.1416 7894632
-5440.1221 159.08786 7727.3872 7763046
-5396.1709 159.14175 7730.0054 7697253
-5441.8452 161.86241 7862.1558 7368029
-5467.1294 164.0183 7966.8735 6578514
-5296.2339 160.27495 7785.0479 6381135
-5365.4429 163.79572 7956.062 5986377
-5283.7368 162.73093 7904.3423 7236443
-5205.6021 161.75809 7857.0879 7631201
-5201.6016 163.0921 7921.8857 7499875
-5109.7881 161.67203 7852.9082 7828840
-5129.5781 163.78941 7955.7559 7565669
-5102.6216 164.43959 7987.3374 7828840
-5105.0337 166.05724 8065.9111 7499875
-4954.5991 162.68668 7902.1924 7499875
-4982.8672 165.17555 8023.085 7697511
-4990.7139 167.02893 8113.1094 6775639
-5064.7974 171.15669 8313.6074 6052169
-5012.3369 171.0472 8308.2891 6841942
-5052.3491 174.12248 8457.665 6775893
-4974.9243 173.17152 8411.4736 6117962
-5020.251 176.51738 8573.9922 5262395
-4968.0034 176.46574 8571.4844 6183242
-4937.8599 177.20631 8607.4561 4998711
-4846.8018 175.75346 8536.8867 5524800
-4697.7212 172.14378 8361.5537 6775892
-4757.7085 176.19994 8558.5732 8025961
-4723.1162 176.80301 8587.8662 7697254
-4653.5015 176.09395 8553.4248 7236703
-4588.6108 175.54999 8527.0029 7434082
-4551.1494 176.05498 8551.5322 6447186
-4508.4712 176.36726 8566.7012 7039581
-4459.5977 176.44153 8570.3086 6841944
-4396.9136 175.96484 8547.1543 5394500
-4300.998 174.13162 8458.1084 5065534
-4234.2417 173.44962 8424.9814 6052428
-4205.6055 174.33153 8467.8193 6578773
-4283.6475 179.71016 8729.0762 7631461
-4174.5923 177.27512 8610.7979 5723464
-4099.2466 176.229 8559.9854 6316373
-4080.9531 177.64012 8628.5273 6908255
0 0 0 0
0 0 0 0
0 0 0 0
0 0 0 0
0 0 0 0
0 0 0 0
0 0 0 0
0 0 0 0
0 0 0 0
0 0 0 0
0 0 0 0
-3783.2346 193.8127 9414.0791 5987151
-3735.0674 194.20808 9433.2842 5855310
-3780.5962 199.56126 9693.3047 5789515
-3730.1494 199.93532 9711.4736 4670779
-3606.7688 196.35062 9537.3535 6052432
-3600.1597 199.10994 9671.3828 6381911
-3527.4417 198.24319 9629.2822 6710876
-3322.6575 189.80377 9219.3535 7368806
-3223.9353 187.24225 9094.9326 7434599
-3028.8354 178.90099 8689.7715 7434599
-2981.1804 179.13081 8700.9355 7039841
0 0 0 0
0 0 0 0
0 0 0 0
0 0 0 0
0 0 0 0
0 0 0 0
0 0 0 0
-2870.5991 200.17549 9723.1396 7303271
-2922.8679 207.994 10102.909 6908514
-2780.8123 202.02202 9812.8311 6579551
-2709.9177 201.07513 9766.8389 7040102
-2698.2617 204.57834 9937 6447965
-2583.8181 200.27078 9727.7686 5527376
-2526.8369 200.32217 9730.2646 5263949
-2453.855 199.07787 9669.8242 6579809
-2372.5552 197.08308 9572.9326 6119257
-2306.3406 196.2744 9533.6523 6185051
-2240.0623 195.41959 9492.1309 6317151
-2158.9736 193.19545 9384.0977 6317407
-2127.5615 195.41647 9491.9805 5067342
-2054.9922 193.87523 9417.1162 5659737
-1980.9587 192.10596 9331.1777 5659480
-1895.4001 189.08536 9184.458 6252129
-1785.2209 183.35748 8906.2373 5792352
-1721.5277 182.20062 8850.0449 2964031
0 0 0 0
-134.36986 15.143656 735.57397 1298
-130.06323 15.149606 735.86304 1299
0 0 0 0
0 0 0 0
0 0 0 0
0 0 0 0
0 0 0 0
-1356.6854 197.80484 9607.9902 6251883
-1353.9313 206.04803 10008.388 7503237
-1300.7295 207.01732 10055.469 8754598
-1219.677 203.43433 9881.4316 9281466
-1170.2172 205.02516 9958.7031 9018812
-1201.4232 221.66817 10767.105 9479364
-1152.2604 224.51764 10905.513 9347521
-1069.3049 220.73001 10721.536 9413314
-998.79065 219.19435 10646.945 9281729
-943.93689 221.12019 10740.488 9281729
-885.52509 222.43069 10804.144 9281729
0 0 0 0
0 0 0 0
0 0 0 0
0 0 0 0
-515.35101 202.70747 9846.126 9216448
-447.40082 198.4408 9638.8809 9216449
0 0 0 0
0 0 0 0
0 0 0 0
0 0 0 0
0 0 0 0
0 0 0 0
0 0 0 0
0 0 0 0
87.74942 261.7507 12714.038 8953018
165.65042 265.89224 12915.205 8953018
265.8046 291.85043 14176.074 8953275
369.24518 308.08578 14964.675 8756153
485.22592 326.47183 15857.741 8360881
583.36743 328.83743 15972.646 7965353
665.95215 322.99744 15688.979 7372445
718.06964 305.62064 14844.935 6582671
759.07269 287.8215 13980.376 5594486
845.20844 288.95407 14035.389 4146784
917.62238 285.61279 13873.093 2699591
983.33521 280.90659 13644.497 1449523
1061.6034 280.22952 13611.61 1448235
1150.5271 282.26224 13710.346 1777720
1260.351 288.81622 14028.693 1844289
1330.1626 285.95752 13889.837 2173766
1414.3965 286.35175 13908.986 2239560
1477.2784 282.61777 13727.616 2173767
1594.8774 289.19519 14047.1 2173766
1637.0557 282.12253 13703.56 2042181
1711.5571 281.02545 13650.271 1976644
1793.2339 281.15237 13656.437 2042436
1864.1215 279.64978 13583.451 2042178
1946.6613 279.94724 13597.898 2042178
1969.2776 271.94595 13209.252 1976129
2073.1167 275.34399 13374.306 2041663
2149.0488 274.92178 13353.798 1975613
2260.658 278.93158 13548.566 1909564
2323.5159 276.85748 13447.82 1909306
2354.291 271.22482 13174.225 1843768
2442.1733 272.32153 13227.495 2040888
2618.6677 282.92377 13742.479 2303545
2713.3118 284.31012 13809.817 2369850
2848.729 289.7626 14074.662 2567484
3021.188 298.56558 14502.25 2699070
3131.5615 300.91586 14616.41 2962242
3307.8032 309.29877 15023.593 3290950
3418.8542 311.30634 15121.106 3225159
3520.042 312.33621 15171.132 3422794
3623.9958 313.55417 15230.291 3554381
3708.853 313.10077 15208.269 3488846
3767.4443 310.50412 15082.142 3159627
3822.5396 307.74634 14948.187 2699334
4268.6489 335.88055 16314.753 2436166
4275.4634 328.96811 15978.994 2172996
4358.582 328.09912 15936.784 2238533
4501.1631 331.64813 16109.171 2304583
4515.8472 325.82193 15826.175 2304582
4630.2783 327.28317 15897.152 2304582
4749.8423 329.04175 15982.571 2304582
4550.9053 309.09891 15013.886 2304582
4672.5371 311.2764 15119.653 2239044
4559.9897 298.06482 14477.925 2172994
4553.8208 292.16614 14191.408 2172737
4361.604 274.76114 13345.994 2172994
4476.3379 276.96811 13453.193 2238529
4563.5527 277.42496 13475.385 2304321
4589.7427 274.22009 13319.715 2369600
4644.9521 272.82806 13252.1 2304061
4724.9292 272.9129 13256.22 2303803
4807.5498 273.14514 13267.501 2238266
5036.7939 281.56647 13676.55 2172216
4982.9868 274.14856 13316.238 1909299
5067.9946 274.47995 13332.337 1843249
5028.3013 268.15109 13024.925 1579821
5075.6748 266.58649 12948.927 1316132
5481.064 283.59238 13774.954 987165
5534.6099 282.16183 13705.469 789784
5720.376 287.41595 13960.679 855316
5603.0386 277.50818 13479.427 855569
5783.8384 282.4375 13718.859 920851
5597.9731 269.5733 13094.005 921115
5648.252 268.27698 13031.038 1579816
5741.3735 269.02304 13067.277 2698296
5887.709 272.20953 13222.056 3948364
6040.4038 275.60254 13386.863 4607066
6185.0532 278.54526 13529.801 5001567
6338.0596 281.78421 13687.127 5528170
6362.3159 279.28958 13565.954 6120305
6502.627 281.88809 13692.172 6317940
6632.9131 283.99338 13794.433 6844028
6724.7935 284.42307 13815.304 7041406
6725.1445 281.01773 13649.896 7041149
6701.6538 276.70889 13440.604 6975613
6774.9282 276.44977 13428.016 7041149
6785.9355 273.68533 13293.738 7041149
6777.9731 270.22803 13125.808 7106944
6675.1592 263.11047 12780.085 6844028
6646.0947 259.02686 12581.732 6975614
6676.8779 257.34048 12499.819 7041664
6799.4321 259.18939 12589.626 7107200
6900.8564 260.20142 12638.784 7172737
7598.1763 283.41922 13766.544 6843773
7946.1001 293.24945 14244.029 6383476
7254.0757 264.89731 12866.878 5462375
6849.9561 247.53891 12023.727 5133410
7366.8975 263.47989 12798.029 4211794
7935.7871 280.93509 13645.883 3487814
8164.5562 286.11908 13897.686 2763570
8272.8564 287.02005 13941.447 2171687
8408.2021 288.83218 14029.468 1579033
8455.0361 287.59814 13969.526 1381911
8559.0762 288.31497 14004.346 789773
8796.7158 293.47519 14254.994 789518
8602.3711 284.26254 13807.507 921362
8753.4971 286.53186 13917.734 1052948
8680.4482 281.48929 13672.802 855568
8791.7832 282.46387 13720.14 592396
9092.6113 289.45291 14059.618 526861
9297.2881 293.28195 14245.607 526604
9493.9541 296.79169 14416.087 1118741
9479.7891 293.70682 14266.244 1052948
9236.4102 283.63757 13777.15 1316121
9504.5449 289.31506 14052.924 460810
9621.3838 290.32852 14102.15 329225
9732.2637 291.14633 14141.873 723981
9838.8975 291.82416 14174.798 987153
10210.307 300.27737 14585.396 1381911
10303.837 300.48511 14595.487 1052947
10529.232 304.50293 14790.644 723982
10512.203 301.50134 14644.849 1447705
10437.797 296.91678 14422.162 1579291
10431.533 294.32932 14296.481 1710877
10269.384 287.42062 13960.904 1974049
10237.963 284.25189 13806.989 1447706
10376.835 285.82401 13883.353 1315864
10170.313 277.93256 13500.04 1513243
10411.761 282.31076 13712.703 1579293
10467.497 281.62466 13679.377 1513500
11113.271 296.70197 14411.728 1250328
10884.581 288.38086 14007.547 1645085
10889.756 286.33499 13908.171 1908256
11168.505 291.45911 14157.066 1513498
11304.327 292.80481 14222.431 1710876
11230.397 288.73776 14024.882 1908256
11069.522 282.51147 13722.452 1645085
10681.237 270.61444 13144.576 1447958
10533.837 264.94839 12869.358 1184786
10444.171 260.80542 12668.123 1316373
10365.084 256.98392 12482.5 2040096
10812.217 266.17081 12928.735 2040095
10849.094 265.19998 12881.579 2303011
10941.76 265.59692 12900.86 2368548
11183.926 269.5921 13094.918 1710618
11136.074 266.58942 12949.068 1184275
11109.996 264.14551 12830.36 1184276
11015.616 260.12192 12634.923 1381654
11316.038 265.41257 12891.905 2302755
11334.71 264.06824 12826.607 3026478
10665.642 246.82603 11989.101 2368548
11599.367 266.65869 12952.434 3158064
11878.059 271.27103 13176.469 2697514
11260.528 255.48885 12409.88 2960430
11815.559 266.34293 12937.097 3092019
11461.482 256.69638 12468.533 2631467
11564.194 257.33829 12499.712 2170919
12163.958 268.96255 13064.339 1710625
11727.044 257.66229 12515.451 855318
0 0 0 0
0 0 0 0
0 0 0 0
0 0 0 0
0 0 0 0
0 0 0 0
0 0 0 0
-6007.9233 174.77376 6592.3101 7828581
-5961.4053 174.55519 6584.0664 7762788
-5995.5244 176.71046 6665.3608 6710359
-6016.1201 178.49307 6732.5991 7368289
-5942.1733 177.47575 6694.2271 6973275
-6001.9287 180.4649 6806.9751 6973275
-5868.3149 177.64096 6700.4585 7236704
-5959.7227 181.63664 6851.1719 7236704
-6035.9307 185.22067 6986.3584 6447188
-5772.3354 178.35489 6727.3872 6907739
-5768.9585 179.48982 6770.1958 6907738
-5789.126 181.37831 6841.4277 6249808
-5741.4692 181.15346 6832.9468 6183759
-5898.4512 187.42796 7069.6152 6249550
-5812.0796 186.00417 7015.9106 6710359
-5664.0864 182.57356 6886.5117 7368288
-5645.499 183.29466 6913.7109 7565409
-5659.5356 185.09325 6981.5522 7302494
-5576.2432 183.71178 6929.4443 7368287
-5497.8076 182.47102 6882.644 7368287
-5589.9253 186.91461 7050.2524 7105372
-5563.5264 187.43239 7069.7822 6447442
-5566.022 188.93881 7126.6035 6447185
-5462.2417 186.83316 7047.1802 7039065
-5566.2437 191.8569 7236.6709 6644307
-5505.7046 191.24321 7213.5229 6578514
-5375.5308 188.18222 7098.0649 6644307
-5375.0806 189.64999 7153.4287 6644307
-5265.2515 187.25121 7062.9482 7631201
-5273.6538 189.05243 7130.8887 7828580
-5192.1743 187.63455 7077.4082 7828327
-5166.4102 188.22345 7099.6206 7631202
-5150.1582 189.17142 7135.377 6973272
-5052.7017 187.12762 7058.2871 7236444
-5036.3232 188.07751 7094.1162 6775893
-5041.0977 189.84001 7160.5957 6446672
-5026.2129 190.88577 7200.041 5986378
-5031.3892 192.71785 7269.145 7104602
-5070.645 195.89818 7389.104 7367519
-5112.5981 199.239 7515.1172 7170397
-5040.4702 198.1537 7474.1812 6578260
-4998.3125 198.23782 7477.354 6381394
-5052.1514 202.16483 7625.4766 7170910
-5030.5503 203.11665 7661.3789 7236703
-4903.3999 199.78532 7535.7236 7105117
-4893.6929 201.22185 7589.9087 7236703
-4818.9648 199.98665 7543.3179 7302496
-4884.8521 204.61847 7718.0259 6841944
-4786.5068 202.39342 7634.0986 7170909
-4779.687 204.0329 7695.9385 7434082
-4780.9614 206.05276 7772.1265 6578003
-4718.8936 205.35545 7745.8242 5986121
-4708.3677 206.90944 7804.439 6842201
-4622.9609 205.17097 7738.8657 7236959
-4609.6138 206.62778 7793.8154 6249808
-4605.2861 208.52246 7865.2812 6315601
-4611.9419 210.9583 7957.1582 7105117
-4546.02 210.09029 7924.418 6315599
-4420.0977 206.40237 7785.3135 6052426
-4481.4365 211.47333 7976.585 6381135
-4615.0332 220.09845 8301.917 4736566
-4510.1528 217.4135 8200.6436 6446926
-4374.9146 213.19073 8041.3643 6710358
-4422.3506 217.87479 8218.042 5789257
-4333.5161 215.87473 8142.6025 6841945
-4280.2974 215.62386 8133.1396 7039323
-4215.2949 214.76691 8100.8154 6776152
-4099.2905 211.26175 7968.605 6907739
-4023.356 209.76405 7912.1128 6841946
-4076.4031 215.03497 8110.9268 6973532
-4091.6492 218.41377 8238.3721 6710360
-4046.2847 218.59972 8245.3857 6447188
-3885.1624 212.45998 8013.8003 6578774
-3733.4548 206.68951 7796.144 6579287
-3755.822 210.53229 7941.0898 6579290
0 0 0 0
0 0 0 0
-2629.689 153.16243 5777.1504 4342075
-2585.8032 152.59236 5755.6479 4407875
-2577.0645 154.10883 5812.8477 329226
-2591.7134 157.08391 5925.0649 7
-2494.0664 153.24097 5780.1123 6
-2479.1616 154.44566 5825.5527 65797
-2421.635 152.99167 5770.7095 789518
-2427.1016 155.53275 5866.5562 5526867
0 0 0 0
0 0 0 0
0 0 0 0
0 0 0 0
-3246.9878 224.11873 8453.5586 6381654
-3328.8774 233.37053 8802.5273 6184789
-3211.5598 228.7291 8627.457 6381911
-3193.0476 231.08835 8716.4463 6381911
-3138.0371 230.84027 8707.0889 7171426
-3055.5325 228.52759 8619.8564 6908255
-2942.1973 223.79121 8441.2051 6447703
-2870.6611 222.12541 8378.3721 6250581
0 0 0 0
0 0 0 0
0 0 0 0
0 0 0 0
0 0 0 0
0 0 0 0
0 0 0 0
-2625.6377 235.78023 8893.4199 6579549
-2567.0359 235.23816 8872.9736 7960947
-2511.5647 234.96634 8862.7207 7303531
-2465.6484 235.59589 8886.4658 6842723
-2484.3081 242.5578 9149.0635 7369580
-2420.8357 241.63239 9114.1582 7303787
-2349.189 239.83026 9046.1836 7632752
-2306.3289 240.95143 9088.4727 7171945
-2224.5564 237.9637 8975.7783 7369326
-2143.3665 234.89346 8859.9717 7632497
-2133.5247 239.68448 9040.6846 6909288
-2038.5319 234.90985 8860.5898 7041131
-1997.2841 236.23984 8910.7559 7238510
-1928.1816 234.25793 8836 7106924
-1862.7476 232.62354 8774.3525 6909545
-1814.114 233.05362 8790.5742 6975338
-1749.2137 231.35757 8726.6016 6844783
-1644.9282 224.1904 8456.2617 3030595
0 0 0 0
0 0 0 0
-128.47446 19.270716 726.87421 1299
-123.67581 19.194283 723.99121 1042
-118.99548 19.131382 721.61865 66311
0 0 0 0
0 0 0 0
0 0 0 0
0 0 0 0
-1205.6901 236.28807 8912.5752 6777964
-1175.8992 241.00389 9090.4512 7041136
-1116.6642 239.84807 9046.8545 7830912
-1065.0979 240.30592 9064.125 6777968
-993.49005 236.05058 8903.6172 4935765
-932.59186 234.00529 8826.4707 5463140
-931.43701 247.59825 9339.1846 7437712
-897.94592 253.76941 9571.9561 8491435
-854.46686 257.75961 9722.4629 9083831
-790.19257 255.60007 9641.0068 8688818
-711.02881 247.91258 9351.041 8426160
-649.87579 245.73633 9268.9551 9281983
-615.47418 254.20741 9588.4766 9150398
-551.70508 251.0383 9468.9404 9281728
-505.5582 256.07782 9659.0273 9347521
-435.22565 248.58958 9376.5771 9347521
-388.17383 254.15298 9586.4238 9216705
0 0 0 0
0 0 0 0
-233.29753 272.24048 10268.668 9150653
-183.10847 289.04379 10902.474 9281726
-117.55441 286.68954 10813.673 9215933
-53.30587 285.69324 10776.094 9150141
9.9119158 268.81784 10139.569 9150141
74.609795 286.59836 10810.234 9150140
140.70949 290.8511 10970.645 9084347
219.56685 310.45511 11710.09 9018554
294.49295 316.42151 11935.137 9018554
371.73215 322.0817 12148.634 9018554
442.14297 320.94897 12105.908 9018555
531.98438 332.26843 12532.869 9018299
608.11926 333.30286 12571.887 9018554
650.52191 317.64059 11981.119 9018811
717.52393 315.8898 11915.081 9018811
0 0 0 0
0 0 0 0
0 0 0 0
0 0 0 0
1124.3162 331.78195 12514.519 8030885
1211.5371 335.40359 12651.125 7043217
1271.4952 331.49554 12503.716 5924733
1347.9459 332.08081 12525.792 4805224
1409.1316 329.04059 12411.117 3225936
1402.7444 311.30569 11742.174 2107454
1472.8508 311.42056 11746.506 1251630
1517.2252 306.32971 11554.483 1514284
1564.1732 302.17557 11397.793 1515320
1746.5475 323.44495 12200.055 1910592
1833.6958 326.08975 12299.814 2042180
1909.8699 326.6554 12321.15 2107203
2059.8813 339.34332 12799.728 2107202
2138.5916 339.80121 12816.998 2107201
2171.7271 333.23462 12569.312 2107457
2239.5361 332.24741 12532.075 2107201
2331.6421 334.81244 12628.826 2107201
2459.437 342.18341 12906.854 2106944
2554.3872 344.67798 13000.946 1975358
2606.8203 341.4574 12879.468 1975358
2708.5886 344.69843 13001.717 1909565
2788.1157 345.00803 13013.395 1843771
2920.4324 351.6575 13264.207 1843770
2969.7117 348.22174 13134.613 1843770
3137.9949 358.55927 13524.535 1844027
3132.5454 349.02493 13164.909 1843771
3203.9138 348.3049 13137.75 1909564
3339.2871 354.41211 13368.108 1975871
3300.8562 342.21713 12908.124 2238528
3384.2949 342.92319 12934.757 2435906
3451.5068 341.99011 12899.562 2633282
3537.2241 342.89142 12933.558 2765120
3681.624 349.32245 13176.131 3291205
3714.6091 345.13455 13018.167 3291204
3742.2527 340.63083 12848.291 3619913
3851.6912 343.60345 12960.416 3883085
3867.155 338.24042 12758.126 3685451
3948.469 338.73215 12776.674 3291207
4320.2676 363.6568 13716.81 2830659
4472.6777 369.53516 13938.536 2633025
4766.9507 386.70865 14586.306 2369855
4868.8203 387.94031 14632.762 2304063
4932.0259 386.10199 14563.423 2304321
4896.6401 376.74139 14210.35 2369601
4992.9351 377.65738 14244.898 2369603
5102.7764 379.55045 14316.304 2369603
5037.3257 368.5564 13901.618 2369860
5097.5166 366.96072 13841.432 2369603
5146.6772 364.63416 13753.675 2303808
4951.3188 345.32626 13025.398 2303808
5251.6416 360.65137 13603.447 2303808
5020.2114 339.54755 12807.431 2303807
5276.937 351.59747 13261.943 2238272
4952.1963 325.11972 12263.226 2238275
5117.3486 331.10486 12488.979 2304067
5377.0928 342.95245 12935.86 2304067
5322.1377 334.67755 12623.738 2238272
5427.0215 336.54398 12694.139 2238014
5496.9731 336.22281 12682.023 2106683
5596.8799 337.71777 12738.412 1974839
5696.4106 339.15057 12792.457 1580337
5821.7148 342.06009 12902.201 1645615
5956.562 345.44766 13029.977 1579821
6119.7393 350.37048 13215.661 1185317
6177.7163 349.22205 13172.344 987166
6181.9209 345.10049 13016.882 790038
6191.7236 341.38913 12876.893 789268
6201.8232 337.7843 12740.922 789265
6199.772 333.6123 12583.558 789267
6142.9229 326.62576 12320.032 855322
6029.0337 316.80606 11949.642 1118753
5882.5898 305.52347 11524.072 1776427
5956.4409 305.80997 11534.879 2566713
6588.5029 334.42401 12614.175 3355971
6420.0898 322.22083 12153.882 4211280
6664.0176 330.754 12475.745 5263967
6711.9067 329.47668 12427.566 5725032
6754.9663 327.99265 12371.59 6120561
6866.4062 329.82504 12440.706 6317940
6938.4907 329.7482 12437.808 6581112
7012.853 329.78006 12439.01 6712698
7021.6968 326.76233 12325.183 6975357
7097.2261 326.87802 12329.547 6844027
7098.7939 323.6196 12206.643 6646392
7246.1685 327.0069 12334.408 6646392
7293.6587 325.86395 12291.298 6778235
7322.6016 323.92319 12218.094 6844028
7389.0239 323.66211 12208.245 6843771
7397.6011 320.89685 12103.942 7041149
7699.394 330.7818 12476.795 7041404
7802.2437 332.01309 12523.237 7107196
7905.5669 333.24112 12569.557 6909561
7899.3101 329.87021 12442.41 6580596
7651.5894 316.5715 11940.795 5988201
8233.1133 337.51077 12730.604 5198174
8237.7881 334.63696 12622.208 5132124
8405.417 338.37491 12763.199 4672084
8713.2207 347.63885 13112.627 2500144
8686.3438 343.50403 12956.665 2171433
8791.3506 344.61133 12998.432 1908515
8899.4824 345.82083 13044.053 1776417
9013.8105 347.24826 13097.895 1381655
9193.0947 351.13229 13244.396 986899
9528.2197 360.8526 13611.038 657678
9754.6748 366.32877 13817.594 394759
9786.0439 364.44846 13746.67 460811
9756.8984 360.36411 13592.612 921362
9869.498 361.53903 13636.93 855569
10148.616 368.74527 13908.742 789776
9785.0938 352.67346 13302.527 1118740
9899.2402 353.93695 13350.186 1447705
9816.4004 348.19321 13133.537 1841953
9962.0713 350.58151 13223.621 2039587
10111.498 353.06363 13317.245 920850
10074.945 349.06378 13166.374 329226
10148.42 348.90817 13160.505 1315864
10358.994 353.43256 13331.16 1315864
10602.991 359.0202 13541.921 1052947
10513.075 353.3024 13326.251 921361
10767.846 359.16708 13547.461 1316119
10444.269 345.7966 13043.139 1974049
10487.578 344.68045 13001.038 2105635
10453.486 341.0553 12864.302 1776925
10512.495 340.49811 12843.284 1776924
10736.537 345.25592 13022.745 1776924
10737.539 342.82468 12931.041 2105889
10674.817 338.40781 12764.439 1974560
10709.388 337.11563 12715.7 2237475
10745.231 335.88132 12669.144 1447446
11003.145 341.55759 12883.247 1447446
11027.396 339.9523 12822.697 1250067
10890.437 333.4332 12576.803 1776924
10855.619 330.1087 12451.406 2631720
10767.123 325.20782 12266.549 2565927
10536.939 316.12186 11923.834 2500134
10511.725 313.26523 11816.084 3355443
11259.907 333.34235 12573.376 3223344
10734.591 315.70224 11908.006 3157551
10680.393 312.0575 11770.53 3223346
11286.505 327.62769 12357.824 3223348
10875.437 313.66052 11830.995 2894639
10943.969 313.61591 11829.312 2960432
10867.029 309.42966 11671.41 3026740
10804.225 305.69629 11530.591 3092533
10739.03 301.9426 11389.006 2500652
11443.173 319.73175 12059.997 1974054
11568.303 321.22241 12116.223 1974054
0 0 0 0
0 0 0 0
0 0 0 0
0 0 0 0
-5848.1953 208.1432 6417.0454 7565665
-5781.2852 207.10811 6385.1328 7236701
-5767.6099 207.979 6411.9829 6841945
-5784.2344 209.96132 6473.0972 6841945
-5769.6548 210.82983 6499.874 7236703
-5721.8706 210.48854 6489.3521 7697254
-5804.6025 214.97638 6627.7114 7565669
-5729.0054 213.62161 6585.9438 7894634
-5714.0547 214.52512 6613.7993 7894890
-5729.5586 216.59238 6677.5327 8158062
-5652.2603 215.15582 6633.2437 7565668
-5532.5962 212.0752 6538.2681 6776152
-5579.6953 215.38853 6640.4185 6512979
-5521.4785 214.65466 6617.793 6381136
-5471.7837 214.24394 6605.1309 8026218
-5377.6064 212.07309 6538.2036 7368288
-5416.3843 215.15204 6633.1274 6644564
-5419.1987 216.83701 6685.0747 7828838
-5291.144 213.2718 6575.1592 8157803
-5306.7007 215.48523 6643.3994 6512978
-5231.8018 214.0312 6598.5723 7302494
-5262.1914 216.89503 6686.8643 7236701
-5195.0479 215.75175 6651.6167 6973529
-5081.396 212.64473 6555.8271 6052682
-5205.9014 219.53294 6768.1899 6578512
-5178.2959 220.06377 6784.5552 6117961
-5242.6172 224.5401 6922.5605 6512720
-5105.1206 220.37503 6794.1523 6381133
-5142.9873 223.77394 6898.9404 6315597
-5080.7559 222.83711 6870.0576 6776149
-5036.0894 222.6617 6864.6499 7565409
-4950.1074 220.64192 6802.3804 7302236
-4849.9126 217.95024 6719.396 6907479
-4715.9785 213.68529 6587.9072 6183756
-4862.394 222.15802 6849.1216 7433823
-4788.3931 220.61803 6801.6431 7762788
-4757.4712 221.0535 6815.0688 7039323
-4803.8516 225.119 6940.4082 7631459
-4828.7676 228.24014 7036.6328 7894374
-4801.0327 228.90532 7057.1406 6446675
-4781.6602 229.98441 7090.4087 6117709
-4755.6299 230.75958 7114.3071 6776152
-4686.8428 229.45535 7074.0977 7368289
-4721.7227 233.24861 7191.0439 7434082
-4672.0425 232.89575 7180.165 6841945
-4665.9478 234.72905 7236.6851 6841945
-4596.4897 233.37918 7195.0688 5855049
-4711.8218 241.47426 7444.6401 6118222
-4633.8711 239.72324 7390.6562 6907738
-4548.1064 237.53076 7323.062 7170910
-4538.9277 239.33437 7378.667 7039068
-4424.2749 235.55737 7262.2227 7170911
-4354.585 234.12361 7218.02 7104605
-4485.0806 243.53113 7508.0532 7170655
-4348.9697 238.50587 7353.125 7302497
-4382.9194 242.79976 7485.5049 6315602
-4324.832 242.03075 7461.7964 7236447
-4208.3711 237.94534 7335.8438 5723207
-4281.9126 244.6297 7541.9224 7631462
-4323.7427 249.62422 7695.9028 7236448
-4307.0718 251.31174 7747.9292 5328707
-4273.3887 252.0323 7770.144 6249809
-4265.439 254.30273 7840.1411 6381395
-4182.2847 252.09018 7771.9282 7368290
-4137.7397 252.18143 7774.7417 6249809
-4072.6824 251.01053 7738.6431 6710360
-4009.2642 249.91518 7704.873 7302497
-4009.0591 252.78027 7793.2041 7499876
-3942.4851 251.47871 7753.0767 6644313
-3889.7869 251.04193 7739.6113 6183506
-3877.937 253.26253 7808.0718 5722954
-3839.2334 253.76178 7823.4634 6052176
-3706.9688 248.01355 7646.2456 6249555
-3472.6482 235.2106 7251.5317 5855051
-3221.2217 220.91379 6810.7622 6775640
0 0 0 0
-2656.6289 186.87514 5761.3516 4472885
-2638.7019 188.02983 5796.9512 5196354
-2569.6013 185.52037 5719.5845 1052169
-2609.3071 190.90442 5885.5742 394756
-2554.7441 189.44392 5840.5474 1
-2526.8066 189.94479 5855.9893 4
-2500.3022 190.56888 5875.2295 4
-2458.9326 190.06155 5859.5889 6
-2428.0986 190.36571 5868.9658 11
-2433.3582 193.54959 5967.125 65547
-2414.1467 194.85225 6007.2856 65801
-2376.0906 194.65009 6001.0527 1644825
0 0 0 0
-3038.7085 256.6109 7911.3018 5394758
-2971.46 254.86287 7857.4102 5460295
-2932.9834 255.56628 7879.0967 5855052
-2917.0522 258.28873 7963.0288 5920590
-2791.0664 251.19571 7744.3521 5920590
-2778.2095 254.21739 7837.5103 5394246
-2624.198 244.20605 7528.8608 5328196
-2416.9431 228.80803 7054.1406 5722954
0 0 0 0
0 0 0 0
0 0 0 0
0 0 0 0
0 0 0 0
0 0 0 0
0 0 0 0
0 0 0 0
-2477.4487 277.75958 8563.3154 7105893
-2402.019 274.93262 8476.1592 6842979
-2374.1189 277.54123 8556.583 6645601
-2393.6807 285.93317 8815.3066 6251098
-2263.7241 276.44064 8522.6523 7040615
-2251.563 281.22809 8670.249 7435373
-2186.6912 279.50156 8617.0205 7501166
-2125.2537 278.14203 8575.1055 6974822
-1992.8959 267.20688 8237.9756 7698545
-2023.542 278.12692 8574.6396 6909029
-1952.833 275.31979 8488.0957 7237995
-1904.9692 275.6702 8498.8994 7501167
-1841.3168 273.69284 8437.9375 6579808
-1777.1788 271.53094 8371.2861 6580324
-1710.7653 268.88727 8289.7812 7699061
-1640.8931 265.52765 8186.2046 7042162
-1566.4037 261.19345 8052.5825 3556939
0 0 0 0
-133.04565 23.623941 728.32501 1296
-127.92698 23.476412 723.77667 1042
-123.70652 23.489202 724.17102 1037
-119.44648 23.495125 724.35364 518
0 0 0 0
0 0 0 0
0 0 0 0
-1123.4579 258.06989 7956.2817 7172464
-1115.0746 267.3613 8242.7363 7040878
-1107.6603 277.7468 8562.9209 6975085
-1056.3694 277.59903 8558.3652 7633272
-1007.712 278.16333 8575.7627 7896188
-958.82526 278.72089 8592.9521 7238515
-900.4126 276.41663 8521.9111 6646635
-863.09894 280.7005 8653.9834 7764861
-804.36499 278.11911 8574.3984 7699325
-758.96729 280.11172 8635.8311 7436153
-696.12885 275.49023 8493.3516 7238516
-651.75177 278.0239 8571.4639 6711659
-598.96582 277.09558 8542.8438 7172725
-525.92664 265.76151 8193.415 7041399
-500.47641 278.61542 8589.7002 7437189
-455.53976 282.3031 8703.3916 7635089
-403.15674 281.72858 8685.6787 8161951
-354.55081 284.01157 8756.0635 9280949
-301.56073 282.96326 8723.7441 8557486
-249.24751 282.24783 8701.6875 8820917
-206.46867 294.77136 9087.7871 9150910
-153.10052 295.67896 9115.7686 9150910
-97.260849 290.20139 8946.8955 9084861
-43.480621 285.10788 8789.8623 9150398
9.0458746 300.15088 9253.6377 9084606
65.729424 308.90591 9523.5547 9150654
123.46381 312.23071 9626.0576 9085118
186.79161 323.13052 9962.0986 9084862
301.41833 396.23178 12215.807 9019069
314.34402 333.21893 10273.124 9019070
381.49976 338.80991 10445.493 9019069
449.1304 343.20312 10580.937 9019067
522.66797 350.4812 10805.319 9018811
569.90607 340.45984 10496.361 9018811
647.30524 348.65579 10749.042 9019067
0 0 0 0
0 0 0 0
0 0 0 0
862.20654 333.26523 10274.551 8887222
925.95905 334.30637 10306.649 8887221
1014.6278 343.65787 10594.956 8821431
1056.1759 336.88971 10386.294 8689845
985.14172 296.93311 9154.4336 8624309
966.16663 276.01871 8509.6436 8492980
1046.3213 284.09406 8758.6064 8360882
1169.493 302.53436 9327.1201 8360880
1262.2316 311.79318 9612.5693 8097194
1119.067 264.496 8154.3994 7965348
1098.0533 248.78946 7670.1675 7766941
1461.9972 318.0863 9806.5859 6976654
1516.5603 317.34692 9783.791 5133935
1659.3011 334.43439 10310.596 3094351
1740.827 338.40848 10433.117 1186354
1899.2842 356.55237 10992.493 1185062
