# .PCD v0.7 - Point Cloud Data file format
VERSION 0.7
FIELDS x y z rgb
SIZE 4 4 4 4
TYPE F F F U
COUNT 1 1 1 1
WIDTH 1336
HEIGHT 1
VIEWPOINT 0 0 0 1 0 0 0
POINTS 1336
DATA ascii
-3688.845 378.59061 8549.0664 6315088
-3668.2539 381.7182 8619.6914 6973018
-3577.6006 377.54053 8525.3535 6709846
-3490.3804 373.61063 8436.6113 6512466
-3421.0559 371.50995 8389.1758 6709589
-3395.0029 374.11569 8448.0166 7894633
-3332.1597 372.68457 8415.7002 7763303
-3275.1926 371.87723 8397.4688 7499618
-3235.4072 373.02591 8423.4082 6907738
-3173.624 371.63464 8391.9912 6841432
-3082.002 366.64929 8279.416 6117965
-3099.0886 374.64438 8459.9551 6644566
-3099.0408 380.79688 8598.8867 7236959
-3013.3655 376.45761 8500.9004 6644565
-2993.7175 380.35983 8589.0176 6578770
-2948.0806 381.0379 8604.3291 7236700
-2856.3616 375.67902 8483.3184 7236701
-2794.7766 374.16245 8449.0723 7170907
-2767.3613 377.24854 8518.7607 7236701
-2733.6553 379.57593 8571.3154 6841943
-2670.2642 377.79141 8531.0195 7434080
-2640.3108 380.76022 8598.0586 7499362
-2624.9429 385.99048 8716.165 6184015
-2548.8032 382.31509 8633.1699 6973531
-2522.9729 386.19 8720.6699 7302496
-2480.7812 387.6701 8754.0928 6118222
-2488.4182 397.16632 8968.5303 6710358
-2400.3521 391.46899 8839.876 6644566
-2369.8557 395.11572 8922.2246 5723464
-2307.417 393.48184 8885.3291 5986636
-2215.3787 386.6062 8730.0684 5131326
-2175.2039 388.66891 8776.6475 6644566
-2037.8571 373.04462 8423.8301 5920844
0 0 0 0
0 0 0 0
0 0 0 0
0 0 0 0
0 0 0 0
0 0 0 0
0 0 0 0
0 0 0 0
0 0 0 0
0 0 0 0
0 0 0 0
0 0 0 0
-1037.4094 278.59839 6291.1123 197636
-1005.2303 280.01651 6323.1353 3
-956.4751 276.74826 6249.334 260
-932.37109 280.63663 6337.1382 1316121
0 0 0 0
0 0 0 0
-890.42444 304.83414 6883.5493 7631982
-1066.3571 382.58585 8639.2832 6842464
-1001.0818 377.27417 8519.3389 6710877
-972.57245 385.99002 8716.1543 6184534
-968.70502 406.01135 9168.2617 5921362
-921.07812 408.98099 9235.3203 6382167
-838.72614 395.93317 8940.6836 5857112
-745.17169 375.48157 8478.8594 4806743
0 0 0 0
0 0 0 0
0 0 0 0
0 0 0 0
0 0 0 0
0 0 0 0
0 0 0 0
0 0 0 0
-304.19974 389.70694 8800.0869 5987671
-263.61765 407.56631 9203.375 7369067
-214.89786 418.87766 9458.7998 7895668
-156.31209 412.15475 9306.9883 7040615
-99.484192 405.26544 9151.418 6316892
-44.600643 399.28094 9016.2812 7303532
8.931283 404.60101 9136.4141 7895413
63.308254 406.21017 9172.751 7171690
118.25569 408.3024 9219.9971 7369581
172.22203 406.75543 9185.0645 7303532
217.91306 391.09918 8831.5254 7106153
272.84393 394.87781 8916.8525 7303533
324.43665 393.38315 8883.1006 7435120
375.51569 391.76974 8846.668 7369327
426.8479 390.78336 8824.3936 7040362
487.21161 397.37845 8973.3193 6908778
545.92047 401.45895 9065.4629 7303536
609.48895 408.06213 9214.5713 7171950
670.44702 411.97568 9302.9443 6645606
734.11053 416.83084 9412.5801 6777192
781.61279 412.47189 9314.1494 7369329
855.73145 421.80756 9524.9609 7106156
896.08771 414.37555 9357.1367 7764086
937.44635 408.24597 9218.7227 7303536
978.69922 402.74777 9094.5664 6711142
1044.144 407.25922 9196.4404 6975087
1091.8949 404.76407 9140.0967 6909294
1151.3665 406.64426 9182.5537 6777708
1222.9923 412.45383 9313.7412 7895931
1287.171 415.35873 9379.3379 8159617
1306.3669 404.10828 9125.2881 7501431
1355.9158 402.76819 9095.0273 5264211
1416.1383 404.57996 9135.9385 6317933
1550.8375 426.75241 9636.6221 5857650
1629.0402 432.35596 9763.1572 7174801
1684.4751 431.73975 9749.2422 8556714
1736.073 430.2135 9714.7783 6319752
1788.6257 429.01431 9687.6982 6648974
1822.4906 423.54654 9564.2295 9149624
1876.9838 423.05801 9553.1973 9150140
1931.9109 422.69302 9544.9561 9412798
1993.6936 423.80615 9570.0908 9347521
2036.1975 420.8728 9503.8525 9281727
2108.356 424.06189 9575.8662 9347520
2192.7297 429.47641 9698.1328 9281727
2222.5647 424.20496 9579.0967 9216192
2301.1787 428.27429 9670.9883 9215679
2383.1018 432.74686 9771.9844 9281215
2444.8899 433.43762 9787.583 9150142
2538.0386 439.52737 9925.0967 9150399
2521.6042 426.79385 9637.5576 9150142
2581.5354 427.26324 9648.1572 9150142
2604.105 421.6626 9521.6875 9150143
2776.6482 440.0687 9937.3203 9084349
2740.967 425.39429 9605.9541 9084349
2838.9072 431.63297 9746.8311 9084349
3294.1497 490.86487 11084.364 9018555
3389.0732 495.13937 11180.888 8952761
3469.2769 497.14056 11226.077 8952762
3380.084 475.24887 10731.735 9018555
3086.6667 425.9812 9619.207 9084348
3132.1262 424.41925 9583.9365 8953019
3196.3662 425.41254 9606.3652 9018555
3191.6643 417.3558 9424.4346 8952506
3246.385 417.21295 9421.208 8886969
3182.6953 402.11444 9080.2646 8821177
3268.1694 406.0506 9169.1475 8755385
3309.7937 404.49896 9134.1104 8689334
3543.3135 426.07211 9621.2598 8294575
3141.3491 371.75702 8394.7549 8162219
0 0 0 0
3556.6455 407.98636 9212.8604 7108501
0 0 0 0
3527.5479 392.59918 8865.3975 5397367
3552.0364 389.52515 8795.9814 4606817
3561.2368 384.88763 8691.2607 3488337
3625.6313 386.26251 8722.3076 2370113
3689.1948 387.51154 8750.5117 1382705
3664.1313 379.54556 8570.6299 1645361
3842.9146 392.62396 8865.958 1711413
3986.6492 401.81717 9073.5518 1843516
4169.1372 414.61978 9362.6514 2041409
4371.2461 429.01181 9687.6426 2106947
4754.1035 460.54041 10399.599 1975618
4908.8647 469.44879 10600.762 1909825
4998.48 471.98065 10657.935 1975361
4953.6387 461.91177 10430.565 2041666
4987.5186 459.341 10372.514 2107203
5082.5938 462.40021 10441.595 2107202
5248.2798 471.73257 10652.332 1975617
5317.8481 472.30643 10665.291 1909824
5218.6104 458.05035 10343.37 1909568
5220.7231 452.91766 10227.467 1975361
5090.5649 436.55939 9858.0762 1844032
5292.0854 448.69385 10132.088 1909312
5181.8564 434.42065 9809.7803 1909313
5286.3213 438.26324 9896.5518 1909311
5330.9292 437.11359 9870.5898 1909310
5249.207 425.74268 9613.8203 1777981
5378.5801 431.55319 9745.0293 1843770
5637.9038 447.55627 10106.399 1843769
5550.3696 435.97757 9844.9375 1843768
5599.0532 435.22824 9828.0166 1844279
5679.1001 436.90714 9865.9287 1909301
5721.2383 435.66519 9837.8838 1975348
5789.689 436.43173 9855.1934 2106417
5868.7305 437.97333 9890.0049 2369331
5867.1641 433.52829 9789.6299 2500659
5993.0415 438.495 9901.7842 2764086
6021.9082 436.33621 9853.0361 3158842
6114.4087 438.78537 9908.3418 3487553
6238.4707 443.4314 10013.255 3882313
6289.8052 442.86902 10000.556 4079692
6433.6992 448.77362 10133.889 4014157
6290.6709 434.74008 9816.9941 4079949
6379.7617 436.85822 9864.8242 3882316
6499.3955 441.01038 9958.585 3422022
6800.1128 457.26456 10325.625 2896196
6661.8257 443.9718 10025.458 2633281
6778.3374 447.74478 10110.657 2435393
6901.7578 451.90405 10204.578 2303807
6879.6611 446.54581 10083.583 2369345
7056.314 454.06927 10253.472 2172737
7064.6479 450.72549 10177.965 2304325
7417.9341 469.2601 10596.5 2238533
7564.3691 474.50793 10715.004 2369862
7763.0015 482.91556 10904.858 2304327
8238.9766 508.29474 11477.953 2238534
7968.6392 487.59232 11010.466 2238535
8380.2188 508.61307 11485.142 2238277
7825.0215 471.0921 10637.87 2238277
7790.1211 465.24402 10505.812 2238276
7927.9453 469.72235 10606.939 2172995
8167.1133 480.08759 10840.999 2041409
8279.2207 482.88034 10904.063 2041409
7570.9795 438.15393 9894.083 1975615
7666.5581 440.27673 9942.0186 2041151
7629.4526 434.80539 9818.4688 2041151
8030.9736 454.22519 10256.993 2040893
8145.5415 457.24542 10325.193 2041406
7745.3691 431.54132 9744.7617 2106942
7759.8003 429.14673 9690.6885 2172734
7818.9878 429.24435 9692.8926 2238528
7850.0625 427.80841 9660.4678 2172734
7812.3491 422.67166 9544.4727 2238269
7819.2827 420.00687 9484.2988 2172732
7712.7007 411.3262 9288.2783 2303804
7739.6655 409.84027 9254.7246 2369852
7901.5161 415.46765 9381.7979 2304060
7917.6157 413.40631 9335.249 2040888
8071.9634 418.54181 9451.2158 2040375
8072.4868 415.68555 9386.7178 1711410
8155.877 417.10635 9418.8008 1448238
8276.9082 420.41974 9493.6221 1382189
8366.3008 422.09222 9531.3887 1316395
8401.0391 421.00339 9506.8018 1185066
8535.5098 424.89365 9594.6484 1119017
8564.748 423.52869 9563.8262 921894
8650.6777 424.96667 9596.2979 1052966
8697.4619 424.47534 9585.2031 987172
9040.7266 438.36618 9898.876 1052708
8692.3535 418.758 9456.0977 987171
8673.4102 415.16974 9375.0703 921120
8635.4639 410.72333 9274.6641 723741
8517.8926 402.56989 9090.5488 723997
8388.3389 393.95615 8896.04 789535
8321.5693 388.38025 8770.1289 855578
8220.835 381.29816 8610.2061 921369
0 0 0 0
0 0 0 0
0 0 0 0
-6873.6455 376.24011 7493.5293 7821398
-7127.3174 392.66122 7820.5869 7952983
-7146.6201 396.30078 7893.0757 8150362
-7101.4219 396.388 7894.812 8019031
-7209.8613 405.10895 8068.5063 8150616
-7237.145 409.35593 8153.0933 8676960
-6991.2173 398.10242 7928.9575 6374462
-6874.1987 394.08679 7848.9795 8809315
-6826.2417 394.00266 7847.3032 8480865
-6684.6724 388.47711 7737.2524 8283488
-6680.7275 390.9285 7786.0762 7625561
-6796.2954 400.45593 7975.833 8151903
-6855.2251 406.75623 8101.3145 5782842
-6989.3228 417.63681 8318.0225 5716792
-6833.8579 411.24673 8190.7515 8545377
-6697.9473 405.95038 8085.2646 8150875
-6583.2861 401.87485 8004.0933 7886931
-6397.3662 393.3587 7834.4785 7754829
-6379.6304 395.13492 7869.8545 6833724
-6370.2397 397.45795 7916.1221 11636609
-6490.6562 407.97452 8125.5801 12031621
-6715.6865 425.27298 8470.1113 11570552
-6611.981 421.85785 8402.0928 11505017
-6434.854 413.67099 8239.0352 11965569
-6269.793 406.1405 8089.0522 10057061
-6412.7896 418.603 8337.2656 9596513
-6236.3013 410.24216 8170.7441 9859173
-6217.5962 412.21121 8209.9619 9990762
-6293.9292 420.5618 8376.2783 9201503
-6356.4438 428.11438 8526.7031 8873310
-6322.7505 429.25638 8549.4482 9202280
-6251.8521 427.87057 8521.8467 8481134
-6204.2134 428.06696 8525.7578 11777219
-5268.4653 366.48749 7299.2876 11385031
-5403.4019 378.98465 7548.1919 11056839
-5359.8574 379.0676 7549.8438 11057096
-5280.9087 376.62692 7501.2334 10925510
-5212.3325 374.8909 7466.6567 10926022
-5129.1851 372.06815 7410.4365 10992071
-5145.708 376.48914 7498.4888 11255498
-5121.2217 377.96051 7527.7939 11452364
-5184.9414 386.02475 7688.4082 10398895
-5257.6553 394.9075 7865.3247 8227201
-5208.0142 394.67673 7860.7285 7566699
-5007.707 382.9209 7626.5898 7500648
-4973.6289 383.77768 7643.6543 7697255
-4921.6826 383.25876 7633.3188 7105117
-4947.2783 388.82455 7744.1724 7236702
-5048.4399 400.48914 7976.4937 6776151
-4860.0435 389.18661 7751.3838 6907479
-4832.2153 390.64935 7780.5161 7104858
-4805.3159 392.216 7811.7188 7499616
-4730.3569 389.85226 7764.6406 7696995
-4615.5615 384.12677 7650.6064 7696996
-4698.5073 394.90778 7865.3306 7565408
-4579.4448 388.75595 7742.8062 7236443
-4577.2231 392.49887 7817.353 8683888
-4547.3442 393.92239 7845.7051 10262918
-4344.2783 380.21777 7572.7515 10328710
-4368.4639 386.32404 7694.3691 10657675
-4356.5488 389.33282 7754.2954 10263173
-4344.8174 392.42236 7815.8291 9013362
-4287.813 391.44537 7796.3706 8618605
-4255.3779 392.71454 7821.6489 8420714
-4205.6445 392.39771 7815.3379 8025957
-4175.7588 393.94623 7846.1797 7039062
-4275.5552 407.90173 8124.1294 7696993
-4148.6152 400.29727 7972.6733 7302235
-4134.2192 403.50211 8036.5034 6973273
-4106.0352 405.4201 8074.7041 7433825
-4027.8921 402.39246 8014.4028 7499875
-3970.9055 401.43137 7995.2603 7763047
-3939.2634 403.0401 8027.3013 7828839
-3862.3901 400.00381 7966.8281 8157548
-3857.6084 404.4509 8055.3999 6710359
-3813.6726 404.85281 8063.4048 7105117
-3855.9397 414.53217 8256.1875 7434082
-3659.1516 398.43051 7935.4927 6907737
-3635.6924 401.02841 7987.2349 7697254
-3551.9021 396.95236 7906.0527 8223598
-3539.3291 400.83282 7983.3394 6578773
-3487.8865 400.35672 7973.8569 7039580
-3467.6348 403.49701 8036.4019 6578259
-3463.7996 408.66156 8139.2632 6117965
-3406.677 407.59625 8118.0454 6446158
-3367.6045 408.69098 8139.8496 6577746
-3279.0388 403.72379 8040.9189 6314830
-3220.2202 402.32669 8013.0923 6380880
-3196.8799 405.38669 8074.0381 7499361
-3134.0337 403.45392 8035.5435 6973529
-3127.4602 408.81738 8142.3672 6512724
-3040.2847 403.64771 8039.4033 7500131
-2980.0596 401.94858 8005.561 7631461
-2991.3884 410.00159 8165.9526 7434082
-2923.8127 407.32697 8112.6826 7697254
-2847.124 403.27213 8031.9229 5657413
-2848.4304 410.31461 8172.1865 6315600
-2812.3574 412.12305 8208.2051 7499875
-2758.5247 411.3468 8192.7451 7368288
-2701.2727 410.0238 8166.3945 6710616
-2662.4934 411.50754 8195.9463 6183756
-2645.082 416.4104 8293.5957 5854791
-2538.2783 407.15958 8109.3481 7368287
-2535.8931 414.62451 8258.0264 7105117
-2493.3606 415.68982 8279.2441 7105117
-2422.1145 411.91473 8204.0566 7039324
-2422.3994 420.39902 8373.0371 7170910
-2392.0442 423.80939 8440.9609 6644564
-2364.4358 427.86243 8521.6846 7565411
-2322.3943 429.42355 8552.7773 6512979
-2290.3123 432.93698 8622.7539 7565411
-2237.699 432.64111 8616.8613 6447186
-2147.8083 424.95596 8463.7969 6512980
-2074.8333 420.3302 8371.666 6512981
-1946.8181 404.05453 8047.5054 7170911
0 0 0 0
0 0 0 0
0 0 0 0
0 0 0 0
0 0 0 0
0 0 0 0
0 0 0 0
0 0 0 0
0 0 0 0
0 0 0 0
-1135.348 322.51517 6423.4956 3946292
-1103.8579 324.44452 6461.9224 921104
-1036.5433 315.60468 6285.8604 5
-1017.9207 321.4841 6402.9604 11
-971.46259 318.68738 6347.2578 11
-938.89551 320.40576 6381.4829 12
-897.65533 319.18442 6357.1577 12
-873.04877 324.02963 6453.6592 11
-825.84424 320.54736 6384.3032 7
-788.29706 320.65915 6386.5298 5000011
-968.34644 413.75742 8240.7568 7105634
-902.04889 405.89313 8084.125 5066305
-888.54431 422.23404 8409.585 6250324
-867.67188 436.80713 8699.835 6052945
-785.25238 420.27979 8370.6621 5396560
-712.9278 407.29147 8111.9751 4280142
0 0 0 0
0 0 0 0
0 0 0 0
0 0 0 0
0 0 0 0
0 0 0 0
0 0 0 0
0 0 0 0
-294.1293 427.21362 8508.7627 7764083
-248.79964 436.11505 8686.0518 6974565
-203.37712 449.45346 8951.7109 5658962
-148.07529 442.66776 8816.5605 6842980
-95.099899 439.23111 8748.1133 6645600
-42.891769 435.35043 8670.8223 6974567
8.472971 435.18747 8667.5762 7303532
59.185432 430.55905 8575.3936 8159097
111.63691 437.01389 8703.9531 7369068
162.18132 434.28314 8649.5654 7895669
210.24257 427.81088 8520.6582 7040104
262.80618 431.23257 8588.8076 7369325
313.41476 430.85672 8581.3213 7698290
362.92661 429.28842 8550.0859 6908775
414.81516 430.57123 8575.6357 7698292
467.6265 432.42752 8612.6064 7566706
521.85455 435.09967 8665.8281 7435121
571.4386 433.76804 8639.3066 7237742
625.87451 436.03555 8684.4678 6908778
696.53857 448.40567 8930.8418 7632500
731.20697 437.49243 8713.4844 7435120
781.75171 436.89114 8701.5088 6908776
836.28998 438.45801 8732.7158 6448225
879.27783 434.13934 8646.7012 7632501
928.79761 433.34372 8630.8555 6053210
996.40216 440.62863 8775.9473 6909292
1032.6901 434.0289 8644.502 7040879
1120.7323 448.77695 8938.2363 7106669
1147.8459 438.89713 8741.4619 7172719
1206.1782 441.29199 8789.1602 7304305
1247.9788 437.69067 8717.4326 7567222
1299.194 437.54626 8714.5566 6843756
1374.5961 445.24725 8867.9365 6909037
1424.6189 444.46332 8852.3223 8225153
1486.535 447.31384 8909.0957 8027774
1528.5974 444.19949 8847.0684 7830652
1583.5586 444.91574 8861.333 7567223
1638.4658 445.57129 8874.3896 8093567
1697.7523 447.34 8909.6172 8159362
1696.3789 433.50073 8633.9814 7106418
1793.5386 444.91422 8861.3027 6054502
1792.2994 431.96335 8603.3623 6844795
1890.8464 443.11325 8825.4336 7174022
1995.4534 455.0451 9063.0781 8688031
1949.8467 432.99429 8623.8955 6385794
1972.3954 426.81812 8500.8848 8951724
2131.6096 449.78699 8958.3535 9215416
2219.9243 457.04294 9102.8691 9281211
2261.3481 454.52972 9052.8145 9281214
2291.7537 449.9696 8961.9902 9280957
2349.9856 450.95575 8981.6318 9215164
2279.3398 427.7146 8518.7402 9215677
2412.1355 442.8288 8819.7676 9215677
2481.2617 445.86124 8880.165 9084093
2513.4644 442.27069 8808.6523 9084350
2692.3994 464.12012 9243.8252 8953020
2729.1267 461.07318 9183.1396 9018554
3273.5767 542.24622 10799.853 9018554
2961.802 481.19797 9583.9619 9018554
3032.9475 483.4884 9629.5811 9018554
3088.543 483.26117 9625.0547 9018554
3084.2568 473.84238 9437.4619 9018555
3106.8708 468.81818 9337.3955 9149371
3084.9045 457.36035 9109.1914 9083834
3015.1057 439.3269 8750.0215 9018040
3064.6311 438.99576 8743.4258 8952247
3162.9644 445.55096 8873.9854 8952247
3144.9609 435.77197 8679.2178 8886710
3385.8889 461.60849 9193.8008 8952246
3232.2664 433.68826 8637.7168 8886453
3220.5728 425.38477 8472.3369 8820660
3256.5342 423.534 8435.4756 8820403
3255.4746 416.99707 8305.2803 8689332
3130.5854 395.02948 7867.7554 8623539
3201.1763 398.01108 7927.1387 8689332
3268.3875 400.49228 7976.5566 8557746
3282.6238 396.50403 7897.1226 8426161
3308.5542 394.02048 7847.6582 8294062
3505.7449 411.71881 8200.1543 8096426
3613.136 418.53131 8335.8379 7701409
3757.9304 429.4343 8552.9912 6582671
3844.1042 433.4375 8632.7227 5529467
3880.4751 431.79385 8599.9863 4672868
3954.1492 434.28989 8649.6992 3356493
4066.6384 440.93063 8781.9619 2435396
4177.6035 447.24039 8907.6328 1645620
4223.2012 446.48199 8892.5283 1579827
4411.5151 460.64459 9174.6035 1777718
4563.7407 470.73999 9375.6719 1909051
4782.5645 487.37952 9707.0791 1974589
5414.8032 545.25317 10859.741 1909566
4752.2891 472.92111 9419.1133 1975361
4954.3442 487.30658 9705.627 1975361
4974.249 483.65137 9632.8262 1975104
4934.1016 474.30634 9446.7021 1975614
5341.6328 507.72275 10112.253 2041151
5245.7886 493.08273 9820.6699 2041151
5281.3096 490.97626 9778.7158 2041151
5549.9751 510.35458 10164.671 2106944
5514.6162 501.66006 9991.5029 2041149
5564.7363 500.84357 9975.2412 2041149
5736.9365 510.91632 10175.859 2041406
6089.2954 536.65723 10688.538 1975616
5630.0366 491.07562 9780.6943 1909822
5540.2837 478.32419 9526.7256 1909566
5361.6626 458.23477 9126.6074 1974588
5479.7769 463.65393 9234.5391 1909052
5478.5366 458.96683 9141.1875 1908796
5662.5815 469.74194 9355.7939 1843259
5816.8076 477.85855 9517.4512 1777466
5826.5396 474.06284 9441.8525 1712185
5811.9121 468.37622 9328.5928 1712185
5764.0591 460.14432 9164.6396 1777721
5874.3525 464.57309 9252.8467 1843512
6010.7095 470.96216 9380.0967 1777976
6145.0122 477.07465 9501.8389 1909560
6233.9351 479.58508 9551.8389 1909560
6264.2812 477.58447 9511.9922 1975353
6389.3394 482.77594 9615.3906 1843768
6441.7808 482.43723 9608.6445 1975609
6415.7778 476.28113 9486.0342 2304315
6450.9648 474.73489 9455.2383 2370108
6631.1636 483.79507 9635.6885 2699069
6650.0913 481.0351 9580.7178 3093570
6695.0371 480.18784 9563.8438 3422020
6719.395 477.89062 9518.0898 3882824
6858.5679 483.72937 9634.3799 4013898
6786.1729 474.67325 9454.0107 4014155
6753.9956 468.55548 9332.1631 3816778
7034.2383 484.035 9640.4678 3356229
6874.2769 469.2182 9345.3623 3027526
7097.6377 480.5936 9571.9248 2632771
7292.1577 489.85123 9756.3076 2435907
6899.1377 459.80557 9157.8926 2172736
7545.7944 498.97934 9938.1113 2041152
8414.9766 552.14752 10997.056 2041408
7608.7075 495.40878 9866.9971 2106945
7548.4595 487.73892 9714.2373 2304323
7505.3267 481.28262 9585.6484 2238529
7346.481 467.5589 9312.3145 2304321
7224.3052 456.35614 9089.1904 2238528
7270.9805 455.90646 9080.2344 2172735
7286.7559 453.54019 9033.1055 2304065
7369.5811 455.3512 9069.1758 2238526
7212.5146 442.42093 8811.6445 2238526
7292.1279 444.09033 8844.8936 2172733
7321.0996 442.67374 8816.6797 2238270
7306.1055 438.63766 8736.2939 2172221
7464.3657 444.98691 8862.751 2106429
7551.0098 447.0079 8903.0029 2106429
7413.73 435.83685 8680.5107 2040637
7414.938 432.905 8622.1172 1974843
7591.7129 440.1933 8767.2773 2040636
7767.1338 447.3045 8908.9102 1909307
7831.3311 447.95764 8921.9189 2106429
7988.3701 453.87714 9039.8164 2040636
8103.9585 457.37827 9109.5479 1975101
8148.3657 456.84232 9098.873 2172733
8093.5786 450.78854 8978.3008 2172733
8157.0381 451.35681 8989.6191 2434878
8135.2363 447.23053 8907.4365 2500926
8173.5068 446.43854 8891.6631 2434876
8176.5991 443.74765 8838.0684 2631998
8246.0977 444.67188 8856.4766 2566205
8268.2314 443.04645 8824.1035 2303289
8319.3447 442.98453 8822.8701 2039860
8265.2588 437.35684 8710.7832 1711152
8308.167 436.89951 8701.6748 1579566
0 0 0 0
0 0 0 0
0 0 0 0
0 0 0 0
-6623.7339 407.97498 7268.0195 9074033
-6529.8628 404.82474 7211.8989 7955811
-6644.0996 414.61978 7386.3965 7429212
-6715.7095 421.86703 7515.5049 7560284
-6734.9805 425.90118 7587.373 7165009
-6800.0854 432.90747 7712.189 6243392
-6691.1753 428.85547 7640.0029 7164750
-6622.46 427.34201 7613.041 7098443
-6615.3296 429.80905 7656.9907 6835271
-6600.7964 431.82587 7692.9199 6835273
-6577.9927 433.3259 7719.6431 6966601
-6575.6172 436.20209 7770.8813 7229516
-6598.064 440.77701 7852.3833 7295565
-6584.542 442.99701 7891.9326 7623759
-6320.771 428.29202 7629.9653 8938848
-6244.7949 426.19174 7592.5493 9662570
-6193.5752 425.76279 7584.9077 9991535
-6086.7505 421.47723 7508.5605 9597031
-6069.1597 423.35303 7541.978 9925996
-6027.8589 423.59055 7546.209 9991788
-5993.1123 424.29559 7558.7695 9794152
-5978.2861 426.43219 7596.8325 10978425
-5833.5972 419.26782 7469.2002 10978682
-5887.4727 426.37405 7595.7974 7689031
-5990.0869 437.14667 7787.7095 8346963
-5872.7993 431.91385 7694.4878 9004381
-5799.4722 429.85751 7657.854 8873055
-5753.7153 429.82834 7657.335 8741990
-5616.7847 422.93356 7534.5049 7099483
-5502.3389 417.63489 7440.1099 11052467
-5754.1992 440.27832 7843.4995 10792384
-5318.2026 410.23111 7308.2124 10793411
-5146.0474 400.20963 7129.6812 11188679
-5075.394 397.98148 7089.9863 11648968
-5006.479 395.85355 7052.0781 12241102
-4981.4243 397.18698 7075.8325 12570067
-4926.7788 396.1636 7057.6016 12636370
-4819.3628 390.84314 6962.8184 12570832
-4841.7563 396.04901 7055.5605 12372682
-4822.3887 397.89981 7088.5322 8358273
-4998.2739 416.03522 7411.6118 7041127
-4826.2534 405.27716 7219.9585 7632489
-4817.5928 408.16724 7271.4453 7631974
-4672.4214 399.43939 7115.9595 7369059
-4697.1343 405.20804 7218.7271 7763304
-4672.3135 406.77029 7246.5586 7565668
-4605.1138 404.63785 7208.5688 7434079
-4711.6123 417.87064 7444.3091 7236444
-4539.9355 406.44919 7240.8374 7631202
-4552.1411 411.42932 7329.5586 7828581
-4541.624 414.43198 7383.0503 7631202
-4531.353 417.51569 7437.9858 7960165
-4347.2329 404.48431 7205.8345 8618095
-4376.2803 411.22513 7325.9209 9276024
-4323.6646 410.35056 7310.3403 9736575
-4272.0068 409.55008 7296.0801 9933953
-4224.5015 409.13544 7288.6929 9868415
-4159.7856 407.02817 7251.1523 9868415
-4147.4624 410.05688 7305.1089 9342071
-4064.896 406.13144 7235.1777 9407864
-4097.2783 413.72946 7370.5347 7696992
-4147.75 423.33743 7541.6997 7368026
-4084.3411 421.40494 7507.2725 7302235
-4042.7231 421.70294 7512.5815 7499614
-4035.4607 425.63113 7582.562 7565408
-4064.6816 433.53909 7723.4409 6973015
-4004.1289 431.94287 7695.0044 7104857
-3895.2332 425.03482 7571.9385 5986374
-3847.5879 424.72708 7566.4565 6710099
-3876.9692 433.01517 7714.1074 6775892
-3814.0618 431.0704 7679.4614 6183755
-3728.343 426.46936 7597.4946 5459775
-3610.1245 417.99295 7446.4883 5920840
-3662.2651 429.2756 7647.4873 8092266
-3595.3259 426.70801 7601.7461 9078905
-3535.7522 424.96054 7570.6152 8026217
-3540.0208 430.93988 7677.1367 7828838
-3460.3706 426.72629 7602.0713 7763045
-3415.7207 426.77454 7602.9316 7368287
-3447.6001 436.51379 7776.4346 6512721
-3400.417 436.37088 7773.8887 6841686
-3301.7104 429.5213 7651.8647 6248522
-3292.5754 434.29562 7736.9185 5787969
-3239.3718 433.31 7719.3599 5854019
-3190.616 432.89969 7712.0498 7433051
-3084.5359 424.5867 7563.9551 5854019
-3146.8835 439.55444 7830.6035 5656640
-3059.0588 433.68036 7725.957 5590846
-2958.0696 425.73303 7584.3774 6644049
-2926.4131 427.67313 7618.9399 7828582
-2867.3015 425.59872 7581.9849 8025707
-2850.3508 429.81595 7657.1138 7894120
-2771.4075 424.67029 7565.4443 7894120
-2766.3098 430.85703 7675.6602 8420977
-2770.6201 438.74033 7816.1001 7960682
-2715.6807 437.34967 7791.3257 8092012
-2662.0264 436.12149 7769.4458 7565667
-2614.6975 435.9046 7765.5825 8092012
-2551.8018 433.03827 7714.519 7039325
-2528.9731 436.99072 7784.9316 7236704
-2485.1006 437.38623 7791.9775 6973531
-2461.2256 441.383 7863.1787 6381394
-2356.542 430.76257 7673.9775 7236704
-2344.1335 436.92349 7783.7334 6973532
-2304.3145 438.12006 7805.0503 7302497
-2250.7915 436.70679 7779.873 7434083
-2222.4915 440.23059 7842.6489 7368290
-2179.0359 440.83871 7853.4829 7499619
-2130.239 440.36926 7845.1191 7499876
-2100.0564 443.81262 7906.4624 7368803
-2013.9187 435.31818 7755.1348 8289649
-1980.2106 438.02457 7803.3491 7434597
-1922.6543 435.45905 7757.6445 6578774
-1890.2173 438.59644 7813.5366 6249809
0 0 0 0
0 0 0 0
0 0 0 0
0 0 0 0
0 0 0 0
0 0 0 0
0 0 0 0
0 0 0 0
0 0 0 0
-1194.2814 366.98523 6537.793 5130819
-1119.4918 355.53375 6333.7861 1381650
-1072.1196 352.29721 6276.1279 3
-1035.0458 352.33374 6276.7788 10
-1000.0687 353.11337 6290.6675 15
-963.4375 353.34668 6294.8237 20
-929.5163 354.63269 6317.7344 20
-900.57495 358.00626 6377.834 21
-859.31641 356.56442 6352.1479 18
-822.38843 356.86975 6357.5874 15
-775.94519 352.87714 6286.459 1842208
-816.83649 390.20148 6951.3872 7106151
-845.21796 425.19589 7574.8081 6448220
-823.84149 437.67984 7797.208 7105893
-784.37384 441.46469 7864.6348 7105636
-736.58008 440.74554 7851.8232 6382942
-677.09058 432.45932 7704.2051 6121319
0 0 0 0
0 0 0 0
0 0 0 0
0 0 0 0
0 0 0 0
0 0 0 0
0 0 0 0
0 0 0 0
0 0 0 0
-235.57027 461.64755 8224.1895 263175
-188.19356 464.97128 8283.4014 8224381
-139.83951 467.37332 8326.1934 5790548
-89.928856 464.35574 8272.4355 6448478
-40.389027 458.31824 8164.8784 7171946
8.0402927 461.69077 8224.96 6908517
56.862881 462.47214 8238.8789 7303275
105.41547 461.35001 8218.8887 6710881
152.36673 456.14301 8126.127 5921621
199.33806 453.48212 8078.7231 7105895
242.80779 445.42786 7935.2378 6382172
290.06656 445.80991 7942.0444 6513758
335.17154 443.23724 7896.2119 6842723
377.13345 437.64722 7796.627 7237481
427.57599 442.04471 7874.9678 7369325
480.79462 448.16467 7983.9937 6842726
538.37518 456.89008 8139.436 7040360
591.42261 460.65024 8206.4229 7500654
631.31946 454.37442 8094.6191 6447965
687.29492 459.73981 8190.2031 6447965
734.23877 458.75464 8172.6523 6250586
761.94147 446.61307 7956.3525 6119001
819.61279 452.42908 8059.9639 6250587
844.78772 440.65408 7850.1934 6974311
930.00476 459.79257 8191.1431 7829877
976.12366 458.66141 8170.9917 6316639
1038.2169 464.7886 8280.1465 7171948
1101.9806 471.07693 8392.1729 7171948
1140.2015 466.37466 8308.4023 7172205
1155.1526 452.93738 8069.019 6645604
1230.8396 463.4364 8256.0576 7171948
1302.275 471.59332 8401.3721 7303535
1358.615 473.88431 8442.1855 7369327
1365.4388 459.35471 8183.3423 7369327
1433.4126 465.68787 8296.167 7040620
1475.8771 463.58835 8258.7646 7566965
1545.4518 469.86597 8370.5996 7106671
1530.8521 450.95724 8033.7427 6975087
1574.9735 449.96521 8016.0703 7698810
1606.4642 445.52832 7937.0278 7830396
1653.5837 445.55496 7937.502 7435638
1687.7369 442.18289 7877.4297 7633016
1741.4166 443.97064 7909.2773 7698808
1800.2401 446.94171 7962.207 6514536
1897.2511 458.99969 8177.0181 6317154
1936.1191 456.74106 8136.7803 5067349
1971.6804 453.83096 8084.9375 6449779
2022.6097 454.51233 8097.0767 7964050
2081.4495 456.89859 8139.5874 8555938
2125.4895 456.00168 8123.6089 9082280
2183.323 458.03818 8159.8892 7174540
2196.0396 450.72644 8029.6313 7635606
2206.1738 443.20593 7895.6548 9150136
2304.1172 453.27182 8074.9766 8953273
2364.8792 455.76254 8119.3486 8953019
2456.71 464.02225 8266.4941 9018556
2551.9231 472.58539 8419.0459 8952763
2597.0583 471.7243 8403.7051 8952763
2609.8301 465.12762 8286.1865 8887227
2662.0923 465.68268 8296.0752 8821177
2738.5845 470.37936 8379.7451 8821177
2790.7827 470.81039 8387.4238 8821177
2840.5442 470.82239 8387.6377 8755384
2854.1624 464.9462 8282.9541 8821177
2913.5325 466.59567 8312.3398 8821175
3035.1106 477.98727 8515.2793 8821175
2998.9014 464.56332 8276.1338 8886968
3024.3684 460.97192 8212.1533 8887225
3097.207 464.60028 8276.792 8886968
2997.302 442.60672 7884.98 8821432
3196.7739 464.81836 8280.6768 8821432
3202.1709 458.56613 8169.2939 8886968
3297.2493 465.15158 8286.6133 8886968
3314.7139 460.75531 8208.2939 8755639
3504.1328 480.04272 8551.8975 8755639
3386.3262 457.29242 8146.603 8886711
3297.8247 439.08319 7822.2085 8820659
3332.9746 437.61389 7796.0332 8886709
3393.1685 439.42801 7828.3516 8886452
3457.7102 441.74872 7869.6948 8952245
3555.1011 448.14856 7983.707 8952246
3665.2095 455.96246 8122.9106 8755124
3898.2241 478.66559 8527.3633 8755126
3973.8254 481.70621 8581.5312 8689333
4256.8481 509.49585 9076.6006 8491954
4028.7793 476.18362 8483.1475 8359855
4161.1899 485.77423 8654.0029 7964840
4228.4097 487.61377 8686.7744 7043224
4285.021 488.20041 8697.2246 5529213
4299.9082 484.07584 8623.7461 3949923
4426.7246 492.50101 8773.8398 3224392
4448.4946 489.17914 8714.6611 2171447
4564.2285 496.14771 8838.8047 1646390
4631.1167 497.70877 8866.6152 1711925
4609.29 489.8075 8725.8545 1711414
4680.2563 491.8327 8761.9336 1843258
4678.6655 486.2724 8662.8779 1975102
4751.7695 488.51178 8702.7725 1909053
4844.6138 492.71088 8777.5781 1975613
5050.5146 508.19675 9053.457 1909821
5244.3906 522.15991 9302.209 1909565
5730.8237 564.65839 10059.313 1909565
5539.0073 540.14185 9622.5547 1909566
5607.5532 541.25574 9642.3984 1909822
5604.064 535.46417 9539.2227 1909565
5592.1006 528.98669 9423.8271 1909565
5802.9526 543.50623 9682.4902 1975359
5677.7275 526.57251 9380.8184 1975615
5446.0103 500.18637 8910.7529 1975358
5696.3042 518.15192 9230.8076 1909822
5797.6548 522.35638 9305.709 1975358
5835.4048 520.80524 9278.0762 1844028
5628.7969 497.67792 8866.0654 1909310
5658.8892 495.71286 8831.0586 1909312
5621.9365 487.96454 8693.0234 1975105
6216.1372 534.64154 9524.5684 1777983
5482.3359 467.28659 8324.6484 1843517
5756.2588 486.26016 8662.6602 1712187
5649.8135 473.05075 8427.3359 1646650
5788.2827 480.39944 8558.252 1646650
5783.1045 475.802 8476.3496 1646650
5891.498 480.54736 8560.8867 1712185
5835.2681 471.89859 8406.8105 1712184
5953.3667 477.37485 8504.3691 1712441
6071.2134 482.73914 8599.9336 1777976
6068.8936 478.53897 8525.1074 1909305
6179.1777 483.21371 8608.3877 2040889
6338.8379 491.64157 8758.5293 2106681
6427.4937 494.47018 8808.9199 2500923
6506.9287 496.54962 8845.9648 2500922
6583.9702 498.41455 8879.1885 2764347
6683.2485 501.91998 8941.6377 3092541
6860.6777 511.19333 9106.8408 3290431
6714.8662 496.42508 8843.7461 3487807
6677.8975 489.86978 8726.9648 3619393
6742.0566 490.77673 8743.1221 3685186
6757.1997 488.12894 8695.9521 3750465
6776.0049 485.78378 8654.1729 3487805
6758.9326 480.92105 8567.5439 3355965
6542.3584 462.04138 8231.2051 3159100
6881.6367 482.40665 8594.0098 3093055
6824.2168 474.86819 8459.7139 2829629
6529.8579 451.0723 8035.793 2566715
6601.4395 452.71655 8065.085 2435389
7296.2046 496.767 8849.8379 2435389
7508.0518 507.5437 9041.8232 2303804
7482.6621 502.24414 8947.4121 2369597
7803.1836 520.07373 9265.0439 2238269
7527.6299 498.20392 8875.4365 2172477
7667.2993 503.92783 8977.4072 2172477
7773.7666 507.40573 9039.3652 2172223
7667.9629 497.07553 8855.334 2172223
7544.1143 485.72388 8653.1064 2106431
7654.3506 489.49527 8720.293 2238015
7795.2812 495.1658 8821.3125 2172224
7860.7832 496.00134 8836.1982 2106431
7720.4507 483.92404 8621.042 2171967
7828.8882 487.496 8684.6768 2171965
7892.0566 488.22095 8697.5908 2237501
8048.3975 494.66293 8812.3545 2237500
8088.8521 493.94531 8799.5703 2237499
7971.5508 483.66522 8616.4316 2171705
8028.2144 484.00397 8622.4658 2237242
7998.5845 479.16876 8536.3281 2237242
7957.9771 473.74088 8439.6309 2105911
8007.3774 473.70554 8439.001 1975095
8020.4717 471.5361 8400.3525 2040888
0 0 0 0
0 0 0 0
0 0 0 0
0 0 0 0
-6308.0073 429.53354 6921.583 7362134
-6319.9824 433.16467 6980.0962 7296597
-6345.5112 437.77884 7054.4497 7296853
-6342.5107 440.47275 7097.8604 7362133
-6346.3281 443.67941 7149.5327 7098705
-6369.7241 448.30707 7224.1035 6572360
-6453.6816 457.28848 7368.832 6243651
-6254.0273 446.15955 7189.498 6177856
-6242.9053 448.42001 7225.9233 7164751
-6178.9331 446.88934 7201.2578 7888474
-6235.2046 454.09439 7317.3618 7361871
-6246.4746 458.10004 7381.9097 8085078
-6110.1826 451.2641 7271.7539 8874070
-6028.0537 448.35965 7224.9512 9267784
-5848.1416 438.08865 7059.4424 9136450
-5939.4121 448.13049 7221.2588 9530970
-5809.1436 441.48157 7114.1167 9991529
-5784.6016 442.82919 7135.8325 9268321
-5862.0342 452.06058 7284.5889 8215633
-5796.5249 450.32401 7256.6045 6175793
-5748.2949 449.91385 7249.9951 7491910
-5676.3848 447.63013 7213.1953 8017998
-5693.9824 452.42377 7290.4409 8083537
-5591.8579 447.70526 7214.4062 8083539
-5617.0679 453.18744 7302.7471 8150101
-5495.499 446.82071 7200.1519 7492438
-5367.4331 439.82193 7087.3726 6967895
-5360.5713 442.7229 7134.1191 11842749
-5137.6274 427.68219 6891.7505 11977414
-5267.7563 442.02753 7122.9141 12241102
-4974.8667 420.82162 6781.1982 12701396
-4833.7759 412.21558 6642.5186 12898514
-4829.5713 415.23743 6691.2134 12833234
-4833.5361 419.01755 6752.1274 12833234
-4716.2979 412.26608 6643.332 12636113
-4693.6167 413.73596 6667.0186 12307662
-4696.5879 417.51123 6727.854 11715785
-4616.542 413.90802 6669.791 10399150
-4585.0532 414.63373 6681.4849 8423813
-4447.1694 405.66675 6536.9897 7567216
-4597.8003 423.09152 6817.7759 6579803
-4594.9263 426.57434 6873.8984 5724237
-4517.0415 423.09351 6817.8076 7631975
-4558.6655 430.84476 6942.7129 6513750
-4532.2388 432.24701 6965.3091 7170908
-4476.0322 430.80887 6942.1343 7368289
-4468.7544 434.09692 6995.1191 7763300
-4447.4951 436.07571 7027.0059 7631714
-4423.0469 437.77631 7054.4092 7697507
-4323.2061 431.97601 6960.9419 8618608
-4270.5469 430.82385 6942.376 10197383
-4166.4082 424.40543 6838.9478 10855314
-4088.6892 420.57846 6777.2798 9868160
-4073.4131 423.16248 6818.9194 8420714
-4002.9417 420.0069 6768.0698 9539195
-4037.7056 427.94098 6895.9209 10328711
-4068.8467 435.64935 7020.1353 9933953
-4035.8066 436.57416 7035.0371 9736574
-3983.5581 435.41864 7016.4175 9144437
-3902.5847 431.06595 6946.2773 7960164
-3871.1589 432.15161 6963.772 7499614
-3916.1328 441.88138 7120.5586 7762786
-3839.6802 437.9725 7057.5703 8223337
-3808.7761 439.23022 7077.8379 7960677
-3772.1575 439.84964 7087.8193 7697252
-3798.9141 447.95602 7218.4468 8092010
-3768.3552 449.41153 7241.9014 7368030
-3737.4902 450.86371 7265.3018 8881268
-3683.512 449.52899 7243.7939 6183754
-3609.4766 445.68622 7181.8706 7894372
-3569.9688 446.06595 7187.9897 9670785
-3563.7754 450.66772 7262.144 9737090
-3516.7185 450.15131 7253.8223 9407869
-3455.5322 447.79117 7215.7905 9407869
-3390.9126 444.92139 7169.5464 7565666
-3370.0117 447.7879 7215.7378 7960424
-3400.9324 457.7023 7375.5 7631459
-3418.6743 466.07809 7510.4692 6381135
-3289.3303 454.3576 7321.6035 5591362
-3278.843 458.96109 7395.7847 7236443
-3156.7522 447.8558 7216.832 6841685
-3133.8086 450.70499 7262.7446 7104601
-3081.7998 449.39508 7241.6367 6841427
-3011.501 445.34354 7176.3486 5985605
-3044.7793 456.71231 7359.5469 6446156
-2966.3269 451.40851 7274.0806 6182984
-2958.9172 456.91876 7362.8745 6380106
-2882.4612 451.77225 7279.9424 5591104
-2835.5288 451.16696 7270.188 7104858
-2754.2886 444.99991 7170.812 7696995
-2726.3804 447.39136 7209.3481 6907480
-2673.5098 445.69751 7182.0527 7236188
-2670.7036 452.42996 7290.541 6907225
-2601.1248 447.88623 7217.3223 7367776
-2592.2522 453.81827 7312.9126 7434082
-2547.3015 453.52853 7308.2432 8289390
-2512.7344 455.10947 7333.7192 7499875
-2464.5906 454.2438 7319.769 7236704
-2420.8428 454.17178 7318.6084 7368290
-2374.8591 453.66998 7310.5225 7894633
-2322.9873 452.00394 7283.6753 8157806
-2293.2214 454.65747 7326.4351 7894634
-2265.5959 457.84595 7377.8154 7565668
-2229.7654 459.46921 7403.9722 7434339
-2123.467 446.34546 7192.4941 7368290
-2126.7451 456.18848 7351.106 7105118
-2086.0972 456.82388 7361.3457 7105118
-2073.3372 463.72391 7472.5332 7105118
-2009.9194 459.3476 7402.0132 6644567
-1961.4708 458.27347 7384.7041 6841946
-1890.7407 451.82578 7280.8052 7368290
-1870.5602 457.43881 7371.2539 6973532
-1859.4669 465.59546 7502.6919 6710360
-1798.0886 461.25235 7432.7061 6776153
0 0 0 0
0 0 0 0
0 0 0 0
0 0 0 0
0 0 0 0
0 0 0 0
0 0 0 0
0 0 0 0
-1216.2312 400.19476 6448.813 4472887
-1110.8113 377.3605 6080.8574 920845
-1097.6274 385.37988 6210.0835 16
-1074.4076 390.3096 6289.5215 17
-1033.1287 388.79739 6265.1533 22
-992.49628 387.42477 6243.0352 22
-957.38086 388.18292 6255.252 23
-924.46863 389.93137 6283.4268 22
-888.55658 390.50809 6292.7207 21
-851.52228 390.62061 6294.5332 22
-816.40588 391.66345 6311.3379 19
-780.02814 392.17233 6319.5381 131599
-743.896 392.86215 6330.6538 4473925
-776.86609 432.0567 6962.2422 6711138
-759.36273 446.00153 7186.9521 6579551
-718.68091 447.18082 7205.9551 6908516
-693.42554 458.71399 7391.8027 6975593
-587.2569 414.66824 6682.0415 5858660
0 0 0 0
0 0 0 0
0 0 0 0
0 0 0 0
0 0 0 0
0 0 0 0
0 0 0 0
0 0 0 0
0 0 0 0
0 0 0 0
0 0 0 0
0 0 0 0
0 0 0 0
-36.585285 458.97009 7395.9297 6381912
7.3951426 469.46161 7564.9917 6711136
51.768661 465.4765 7500.7754 6974052
95.825653 463.64133 7471.2026 6316378
141.63141 468.7536 7553.5835 6645342
182.41269 458.77435 7392.7754 6776928
231.29646 469.09189 7559.0342 5724496
266.44031 452.71637 7295.1562 5789776
309.19321 452.03619 7284.1958 6381913
364.03134 467.02713 7525.7622 6381915
391.61237 447.59326 7212.6011 6645344
425.73196 438.72107 7069.6333 6974051
466.17569 437.37161 7047.8872 6842721
549.36816 473.05438 7622.8862 6645084
572.01208 455.13901 7334.1948 5197893
627.6264 464.13504 7479.1582 5526858
652.91284 450.99579 7267.4307 6184531
730.40479 473.31216 7627.0405 4671035
763.30908 465.81812 7506.2803 5921358
800.31708 461.51569 7436.9497 6053204
816.26312 446.1503 7189.3486 7434859
878.03687 456.11496 7349.9214 6777188
879.3371 435.20807 7013.0234 7172201
1002.6094 473.83142 7635.4077 6514015
1035.603 468.29639 7546.2153 5987413
1064.1343 461.28516 7433.2349 6645086
1108.3866 461.37512 7434.6851 6710878
1187.7183 475.5022 7662.3311 6842466
1209.7567 466.49631 7517.208 6250585
1265.5183 470.67218 7584.499 6382172
1355.418 486.82303 7844.7568 6119001
1380.6516 479.44702 7725.8989 6645346
1442.3583 484.80368 7812.2168 6908775
1469.1338 478.4512 7709.8521 7172205
1471.6135 464.80804 7490.0034 6448481
1522.28 466.73779 7521.1001 6908262
1483.748 441.98691 7122.2593 6645345
1545.6868 447.70599 7214.418 5790035
1596.7194 450.04333 7252.082 6579552
1724.8751 473.42621 7628.8779 6119258
1769.245 473.20544 7625.3208 6250843
1825.0997 475.99094 7670.207 7567219
1851.1963 471.0687 7590.8887 6383202
1917.0685 476.26147 7674.5659 6251102
1950.3806 473.31198 7627.0376 6777702
1973.4236 468.06049 7542.4141 7172205
2007.7211 465.65173 7503.5991 5593431
2055.1033 466.31641 7514.3096 6777705
2117.9048 470.37744 7579.75 7172983
2219.5251 482.7124 7778.5171 7371398
2260.9958 481.72989 7762.6855 8293537
2300.2412 480.32196 7739.998 9280953
2431.1877 497.74332 8020.7285 9347519
2425.8174 487.12317 7849.5938 9215677
2439.6189 480.68002 7745.7676 9018556
2487.3433 481.03522 7751.4912 8952763
2492.1799 473.2337 7625.7764 9150141
2593.0959 483.62943 7793.2949 9018556
2639.3105 483.63776 7793.4292 9018557
2670.1179 480.87106 7748.8457 9018556
2644.158 468.14716 7543.811 9084347
2703.0144 470.61346 7583.5532 9084347
2760.4844 472.76163 7618.1689 9150139
2815.4407 474.41711 7644.8462 9084346
2685.6504 445.38226 7176.9727 9084347
2806.9507 458.24371 7384.2246 9018554
2908.6924 467.56641 7534.4526 9084347
2919.72 462.24564 7448.7119 8952762
3010.3608 469.49985 7565.6079 9018554
3117.8828 479.13544 7720.8779 8952762
3179.0737 481.47543 7758.585 8952761
3186.3792 475.70404 7665.5835 9018297
3217.9023 473.65961 7632.6392 9083831
3259.8347 473.18277 7624.9551 9018038
3314.5298 474.54617 7646.9258 9018038
3381.5356 477.61166 7696.3232 9018294
3434.5183 478.64124 7712.9141 9083320
3466.698 476.78271 7682.9653 9017527
3533.5254 479.67581 7729.5854 8951991
3545.0806 475.08765 7655.6509 8951734
3544.491 469.00836 7557.688 8886197
3462.6616 452.46524 7291.1089 8820660
3564.01 459.97058 7412.0518 8820661
3585.5654 457.12051 7366.1255 8820406
3666.4419 461.81088 7441.7065 8755127
3769.5127 469.15201 7560.0034 8755127
4389.6338 539.91711 8700.3252 8820663
4536.6904 551.52887 8887.4385 8820662
4492.6709 539.91132 8700.2314 8820919
4458.9102 529.77625 8536.9131 8425389
4437.0112 521.26196 8399.7129 7964325
4404.1362 511.66144 8245.0078 7437723
4415.4141 507.34482 8175.4492 6648206
4502.8716 511.78015 8246.9209 6055811
4490.3906 504.88361 8135.7886 4542313
4438.0498 493.69943 7955.5645 3488854
4602.4712 506.60999 8163.6079 2567495
4532.9556 493.76959 7956.6953 1842741
4742.6895 511.29877 8239.1641 1645360
4829.5083 515.35461 8304.5205 1250865
4969.1919 524.91302 8458.5459 1514551
5016.4614 524.61591 8453.7578 1711930
5037.8374 521.64349 8405.8604 1975103
5278.1494 541.17719 8720.6299 1909567
5437.6475 552.12653 8897.0693 1909567
5099.998 512.87103 8264.499 1909310
5744.9258 572.23334 9221.0742 1843774
5737.7393 566.13422 9122.792 1909311
5739.4331 561.01697 9040.332 1909566
5791.0137 560.82556 9037.2471 1909310
5648.2588 541.98981 8733.7246 1909310
5724.2046 544.29132 8770.8125 1843772
5625.5952 530.10315 8542.1807 1844028
5697.1123 532.05603 8573.6504 1909822
5820.3687 538.76367 8681.7383 1843772
5857.9204 537.49005 8661.2148 1843772
6119.0859 556.57794 8968.8008 1909565
5600.9595 505.06476 8138.708 1975358
5649.1807 505.06528 8138.7163 1844029
5785.667 512.89038 8264.8105 1843772
6388.4492 561.57361 9049.3018 1909563
5738.7305 500.2623 8061.3203 1777977
6365.7485 550.34143 8868.3047 1843257
5870.1929 503.3447 8110.9907 1843257
5920.5205 503.5383 8114.1104 1777464
5882.3379 496.26166 7996.853 1711671
6034.6025 505.03992 8138.3071 1645879
6063.3579 503.42438 8112.2744 1711672
6043.2393 497.80829 8021.7759 1645879
6078.1479 496.77734 8005.1626 1580341
6179.9604 501.18814 8076.2393 1712182
6173.7344 496.8367 8006.1191 1712182
6176.1245 493.23969 7948.1567 1842738
6250.6733 495.41629 7983.2305 1842737
6269.0005 493.13763 7946.5122 1908529
6256.2021 488.46277 7871.1802 2040370
6307.3965 488.81647 7876.8799 2171956
6354.4287 488.84476 7877.3354 2369334
6424.9966 490.67004 7906.7485 2500919
6430.3164 487.52203 7856.021 2764345
6486.8184 488.27182 7868.103 3159101
6550.0562 489.51431 7888.125 3487808
6553.7114 486.31787 7836.6167 3882564
6572.041 484.24765 7803.2568 4408651
6691.3359 489.59378 7889.4058 4474441
6625.4253 481.40863 7757.5083 4606029
6783.103 489.4704 7887.4175 4276556
7005.0005 502.02429 8089.7129 3224640
6913.1699 492.07657 7929.4131 2961215
7087.8418 501.10455 8074.8921 2632254
7125.4697 500.3876 8063.3389 2303804
7451.3931 519.79095 8376.0088 2040890
7453.7534 516.51593 8323.2344 1974843
7852.8491 540.59552 8711.2568 2040380
7468.5239 510.78156 8230.8291 2040637
8033.1455 545.83301 8795.6553 2171966
8061.3599 544.21997 8769.6621 2106686
8102.2568 543.47839 8757.7119 2106430
7753.3701 516.76685 8327.2773 2172222
7737.4399 512.44458 8257.627 2172222
7947.896 523.07574 8428.9395 2172222
7942.5444 519.45984 8370.6729 2041406
7812.5327 507.78641 8182.5645 2106942
0 0 0 0
0 0 0 0
0 0 0 0
0 0 0 0
-6059.7974 452.02356 6649.2295 7295310
-6166.2876 462.97665 6810.3486 7361616
-6127.8296 463.11935 6812.4478 7690069
-6116.0547 465.29391 6844.4351 7624274
-6091.4282 466.51328 6862.3721 7557712
-6162.2583 475.1087 6988.8096 8610141
-6092.0303 472.87128 6955.8975 9596779
-6178.4404 482.84467 7102.605 10452343
-5989 471.2493 6932.0381 10321012
-5688.7993 450.71832 6630.0298 10254961
-5629.5269 449.12317 6606.5649 9202530
-5758.0337 462.59158 6804.6841 9267548
-5894.0957 476.86111 7014.5879 8873045
-5764.5522 469.69196 6909.1299 8807251
-5706.1396 468.25742 6888.0278 8938579
-5647.999 466.82468 6866.9526 8873044
-5609.3149 466.99094 6869.3979 8215628
-5579.0757 467.86786 6882.2974 7294274
-5523.7441 466.63788 6864.2051 7228483
-5465.1787 465.11447 6841.7959 7162690
-5516.2817 472.97144 6957.3706 7162689
-5506.6587 475.70068 6997.5181 7688523
-5444.1089 473.86456 6970.5088 7886162
-5397.2051 473.37262 6963.2725 6965834
-5342.4697 472.18091 6945.7427 8415854
-5290.6948 471.23444 6931.8193 13027782
-4779.4561 429.02924 6310.9844 13357519
-4789.3687 433.30859 6373.9341 12964044
-4828.4663 440.31747 6477.0337 12832974
-4813.7612 442.49292 6509.0342 12636371
-4785.5327 443.45041 6523.1191 12373203
-4727.4751 441.63681 6496.4414 11781583
-4698.3042 442.51419 6509.3477 11058119
-4714.0005 447.66693 6585.144 10728898
-4613.1133 441.74188 6497.9868 10465212
-4607.0488 444.87357 6544.0532 9938606
-4659.0327 453.7113 6674.0562 9411740
-4546.3433 446.5267 6568.3711 8752518
-4516.0342 447.379 6580.9082 9607053
-4437.2593 443.40308 6522.4224 7567212
-4385.3511 442.06558 6502.7485 7830125
-4302.9209 437.60043 6437.0659 8685177
-4311.7354 442.41769 6507.9277 7303523
-4401.978 455.75253 6704.082 7368546
-4313.5649 450.66492 6629.2437 7631715
-4306.9629 454.10962 6679.915 8552047
-4284.8076 455.96317 6707.1807 8552302
-4222.9888 453.59113 6672.2876 9473917
-4189.6821 454.26566 6682.2104 10263433
-4078.3328 446.41061 6566.6636 10131847
-4036.3867 446.07428 6561.7158 10460812
-3968.939 442.88568 6514.812 9737088
-3956.0557 445.78299 6557.4312 10329225
-3907.0664 444.62888 6540.4541 10395018
-3898.9548 448.15012 6592.2515 10526604
-3918.4468 454.94757 6692.2417 10723983
-3837.094 450.05579 6620.2837 9671040
-3874.405 459.12491 6753.6895 8881525
-3766.0574 450.94223 6633.3232 8157803
-3816.9775 461.8587 6793.9033 8881269
-3762.5454 460.12421 6768.3887 7104858
-3722.8467 460.17349 6769.1138 7302494
-3764.8757 470.436 6920.0752 7368031
-3680.5608 464.96353 6839.5757 7762788
-3678.4717 469.87247 6911.7852 7894375
-3654.2991 472.03931 6943.6592 6841688
-3613.9683 472.14444 6945.2061 7565153
-3563.946 470.97134 6927.9497 7170651
-3493.1123 466.98862 6869.3643 9210233
-3448.7246 466.48923 6862.0181 8552561
-3337.6313 456.84741 6720.1875 9473663
-3379.6497 468.18335 6886.939 9868421
-3284.3176 460.53671 6774.457 10197386
-3257.678 462.45224 6802.6343 7631458
-3253.478 467.64114 6878.9629 7895141
-3249.1301 472.94016 6956.9106 8421228
-3213.293 473.73288 6968.5718 8026470
-3199.4353 477.82892 7028.8242 7631199
-3112.3647 470.95456 6927.7026 8749937
-3089.6067 473.75806 6968.9419 7236442
-2986.2708 464.11444 6827.085 6907477
-2975.7556 468.8299 6896.4492 7499613
-2940.998 469.80411 6910.7798 7104856
-2944.2134 476.95737 7016.0039 7170649
-2915.6355 479.09131 7047.3936 7104855
-2818.6475 469.88287 6911.9385 6446927
-2796.6816 473.09393 6959.1729 6644307
-2690.4536 461.93381 6795.0083 7762533
-2664.0952 464.35599 6830.6387 6907224
-2617.3042 463.23657 6814.1724 6775639
-2596.2373 466.70633 6865.2119 6775640
-2560.6047 467.62653 6878.7476 7170650
-2476.5046 459.58194 6760.4126 8354670
-2485.1909 468.77496 6895.6411 8091499
-2483.2183 476.23114 7005.3208 7368289
-2433.1396 474.5582 6980.7119 7236703
-2343.6892 465.01553 6840.3403 7368290
-2364.6658 477.43262 7022.9946 8223599
-2325.9639 478.02948 7031.7739 8289392
-2279.2209 476.96524 7016.1196 7697255
-2224.708 474.20538 6975.5225 7828841
-2198.6541 477.52197 7024.3091 6973532
-2171.677 480.76221 7071.9722 7697254
-2092.9834 472.45578 6949.7856 6644566
-2056.3081 473.49118 6965.0166 6447187
-2013.0328 473.01822 6958.0591 5986380
-2027.5179 486.38156 7154.6328 6446932
-1940.3951 475.42044 6993.3955 6775898
-1894.0115 474.18036 6975.1538 6578520
-1816.5173 464.92255 6838.9722 7762792
-1819.2854 476.25336 7005.6475 7105118
-1790.4885 479.6572 7055.7178 6710359
-1720.9274 472.04239 6943.7046 5723465
-1715.2749 482.01373 7090.3823 7368036
-1576.8143 454.22806 6681.6572 7237219
0 0 0 0
0 0 0 0
0 0 0 0
0 0 0 0
0 0 0 0
0 0 0 0
-1247.6246 436.01874 6413.7998 3880241
-1208.6765 435.67584 6408.7554 1183512
-1124.4695 418.46771 6155.6255 1380898
-1102.0975 423.88907 6235.3735 14014688
-1080.5189 430.00223 6325.2974 11844807
-1021.3791 421.0697 6193.9004 460829
-987.79657 422.40024 6213.4731 25
-955.97156 424.61444 6246.0435 25
-919.06879 424.6608 6246.7251 25
-883.0636 425.14307 6253.8198 27
-846.51929 425.3967 6257.5503 31
-815.48706 428.57037 6304.2349 28
-772.67639 425.56165 6259.9766 20
-730.45874 422.5925 6216.3013 2500137
-698.08344 425.30457 6256.1948 6908523
-720.73138 463.72302 6821.3271 6974310
