# .PCD v0.7 - Point Cloud Data file format
VERSION 0.7
FIELDS x y z rgb
SIZE 4 4 4 4
TYPE F F F U
COUNT 1 1 1 1
WIDTH 1440
HEIGHT 1
VIEWPOINT 0 0 0 1 0 0 0
POINTS 1440
DATA ascii
0 0 0 0
0 0 0 0
482.40985 641.24469 4248.8901 7565420
508.27362 642.11938 4254.686 1710357
477.7233 575.00903 3810.0122 3
0 0 0 0
0 0 0 0
517.6709 545.73706 3616.0562 394502
539.24957 545.89532 3617.1047 4
563.8396 548.97345 3637.5005 2565680
579.39996 543.35699 3600.2859 13
602.45038 544.91406 3610.6033 855070
600.50531 524.53125 3475.5464 12
633.84375 535.29779 3546.8853 21
656.45099 536.60126 3555.5222 22
677.99933 536.98511 3558.0657 24
696.85248 535.27557 3546.738 22
719.36609 536.39539 3554.1584 16
705.65991 511.21237 3387.2954 10598354
770.32336 542.62671 3595.4468 9216452
798.24573 547.16583 3625.5234 9741008
823.21234 549.49426 3640.9514 8950726
843.41071 548.60211 3635.0403 7568818
857.40234 543.81781 3603.3394 7568805
872.16846 539.74524 3576.3545 5857675
891.82764 538.82202 3570.2373 3092055
891.85193 526.35358 3487.6211 275
908.85925 524.24579 3473.655 10397099
931.84564 525.60382 3482.6533 5460296
1124.5861 620.57806 4111.9531 5525570
1144.1322 617.97791 4094.7244 4735537
1185.5392 627.04822 4154.8242 5459259
1197.1409 620.30566 4110.1484 5985865
1225.3583 622.26996 4123.1636 7038810
1249.7708 622.26294 4123.1172 6315088
1263.6273 617.1012 4088.9153 5986124
1298.7555 622.32629 4123.5366 6907226
1342.9821 631.6377 4185.2344 6381138
1364.9368 630.32635 4176.5454 6512467
1368.131 620.55243 4111.7832 5854536
1398.48 623.22174 4129.4702 5459776
1465.3455 641.79279 4252.522 6182730
1471.6813 633.6734 4198.7227 7038293
1480.1473 626.72577 4152.688 3748645
1499.7053 624.62524 4138.7695 6182984
1534.7596 628.94263 4167.3765 6906709
1546.8955 623.88 4133.8315 5657154
1549.957 615.37244 4077.4604 6577999
1587.5529 620.62659 4112.2744 6643280
1605.3514 618.09949 4095.53 5590850
1663.6617 631.01343 4181.0977 3682854
1678.9868 627.48364 4157.7095 4867127
1712.6348 630.80475 4179.7153 4801333
1695.4119 615.56128 4078.7117 5919814
1736.6409 621.67035 4119.1904 5525313
1728.3221 610.11914 4042.6523 5262139
1748.6619 608.86224 4034.3237 4670515
1776.9338 610.36389 4044.2742 5788743
1853.1217 628.06537 4161.564 7696742
1874.3169 626.90845 4153.8984 4867642
1932.8425 638.10577 4228.0918 7170398
1946.2064 634.29779 4202.8599 7038812
2006.5647 645.70856 4278.4678 6183503
1980.8768 629.49066 4171.0078 6709845
2004.7515 629.22845 4169.2705 5920585
2040.6758 632.70862 4192.3301 5590849
2051.4641 628.4054 4163.8169 6446158
2064.3252 624.83185 4140.1387 5196090
2069.8818 619.15729 4102.5391 5459261
2115.0349 625.32135 4143.3818 6314571
2138.0422 624.87158 4140.4019 6445900
2149.3496 621.05127 4115.0884 6314312
2199.9126 628.53229 4164.6577 5722174
2194.304 619.97675 4107.9688 6182729
2265.613 633.10278 4194.9419 5459006
2281.0916 630.5119 4177.7749 4603697
2271.1082 621.01434 4114.8438 6117195
2328.9294 630.06219 4174.7949 5656901
2352.6055 629.77936 4172.9209 5064764
2370.9536 628.09113 4161.7344 4604213
2390.3804 626.72028 4152.6514 5065021
2421.9602 628.53131 4164.6514 6249294
2458.7173 631.63586 4185.2222 6117708
2490.2979 633.36182 4196.6582 6512721
2511.1809 632.35992 4190.0195 5394497
2568.5593 640.47778 4243.8086 5919814
2567.6125 634.03571 4201.1235 5393470
2656.5574 649.70172 4304.9263 5722435
2611.1855 632.5329 4191.166 6511950
2633.8137 632.0047 4187.666 5722434
2653.291 630.7373 4179.2681 4998711
2674.5852 629.92133 4173.8613 5722691
2705.0303 631.25568 4182.7031 5064763
2723.3984 629.77313 4172.8799 5788999
2762.709 633.11658 4195.0332 6907225
2752.3511 625.11957 4142.0449 3880747
2784.636 626.8634 4153.5996 4670263
2797.0869 624.15088 4135.6265 5657158
2894.3525 640.24695 4242.2793 6249295
2868.9529 629.16522 4168.8516 3880748
2883.6365 626.98798 4154.4253 6380881
2882.9265 621.52893 4118.2534 5525573
2915.481 623.27264 4129.8076 2498840
3042.2112 644.95282 4273.4604 5262403
3009.717 632.79797 4192.9224 5196355
3006.7119 626.99146 4154.4482 5460039
3025.7734 625.84338 4146.8413 5657417
3063.7117 628.58685 4165.0195 5986637
3075.3381 625.93121 4147.4229 4209713
3078.7566 621.66028 4119.1235 4407092
3132.1392 627.46582 4157.5913 4275506
3172.9497 630.68188 4178.9009 4670265
3164.2378 624.08087 4135.1626 5130817
3174.9797 621.38867 4117.3242 5065023
3234.4102 628.19397 4162.416 5854540
3252.0754 626.84583 4153.4834 5065281
3290.2317 629.43805 4170.6592 5460039
3286.8655 624.10736 4135.3384 5657420
3363.2163 633.88019 4200.0928 5328455
3387.7666 633.81799 4199.6812 5723212
3359.6328 623.97198 4134.4414 5789008
3460.7805 638.10571 4228.0913 2762530
3430.2966 627.94019 4160.7344 3552303
3463.0361 629.41064 4170.4775 1578002
3505.5923 632.63171 4191.8208 5394765
3547.7688 635.73956 4212.4131 6052694
3545.0884 630.82202 4179.8296 6513245
3635.5869 642.43811 4256.7979 6579039
3703.7029 649.96631 4306.6797 5592146
3762.5364 655.77356 4345.1587 5131595
3799.2449 657.672 4357.7378 5394767
3829.3992 658.41785 4362.6797 5789524
3807.3311 650.23499 4308.46 5723475
3733.4221 633.36639 4196.6885 5592145
3786.2393 638.07751 4227.9043 5000008
3803.2803 636.73706 4219.0229 5526355
3827.4519 636.60028 4218.1162 4736839
3812.8083 630.05115 4174.7217 4342341
3855.1785 632.94702 4193.9097 5131857
3853.7078 628.65405 4165.4644 6250851
3954.6018 641.00812 4247.3228 6580075
3950.8047 636.34375 4216.4165 6909303
4004.9468 641.01147 4247.3447 7436164
4056.9124 645.27466 4275.5928 7041924
4079.115 644.78046 4272.3179 7437458
0 0 0 0
0 0 0 0
0 0 0 0
0 0 0 0
0 0 0 0
0 0 0 0
-3813.7681 664.99854 4239.8525 2170920
-3790.1626 665.2641 4241.5454 1381660
-3672.3752 648.89154 4137.1587 854803
-3722.8809 662.23541 4222.2354 394250
-3627.6313 649.65717 4142.04 591373
-3633.2346 655.09186 4176.6899 1315096
-3583.2253 650.505 4147.4458 1907233
-3575.1284 653.51636 4166.645 1117462
-3676.4097 676.70233 4314.4727 1380891
-3571.6042 662.01379 4220.8223 4012611
-3586.4058 669.44421 4268.1968 3157814
-3619.8337 680.48151 4338.5679 4671053
-3555.4851 673.16467 4291.9175 4144708
-3541.3589 675.31952 4305.6562 3881537
-3511.2344 674.43274 4300.0024 2828848
-3513.2222 679.74609 4333.8789 1973539
-3480.2893 678.33154 4324.8599 1973538
-3429.2251 673.33575 4293.0083 3025969
-3400.4744 672.67944 4288.8237 2894641
-3393.6418 676.38171 4312.4282 2697262
-3365.1272 675.78583 4308.6294 3157813
-3368.8286 681.70007 4346.3369 2565676
-3359.0725 684.96124 4367.1289 3552316
-3328.447 683.98425 4360.9004 3289147
-3298.7244 683.17914 4355.7671 4013383
-3289.644 686.6701 4378.0244 3881798
-3284.0342 690.94672 4405.291 1644835
-3236.1382 686.32379 4375.8164 2763316
-3210.9158 686.47363 4376.772 2302766
-3178.7024 685.11914 4368.1357 2368555
-3142.7947 682.93964 4354.2397 2171176
-3019.5601 661.59058 4218.124 2631469
-3013.759 665.82977 4245.1519 1052180
-2979.0808 663.70679 4231.6167 920337
-2961.4761 665.38385 4242.3091 986643
-2947.7244 667.96277 4258.7515 3025970
-2977.9478 680.63708 4339.5596 2565420
-2970.8845 684.93573 4366.9668 4144710
-2954.4248 687.12451 4380.9219 4473421
-2957.2261 693.87146 4423.9385 3947592
-2924.7498 692.38763 4414.478 6513520
-2982.5952 712.45221 4542.4043 4671572
-2973.2532 716.68695 4569.4038 4210763
-2925.9128 711.7561 4537.9658 4868952
-2856.9099 701.41522 4472.0352 5330272
-2800.8438 694.08661 4425.3101 7370627
-2755.5681 689.31891 4394.9126 12832211
-2739.0557 691.72412 4410.2476 12898772
-2699.9421 688.41302 4389.1367 12767440
-2691.7449 692.99689 4418.3623 12439250
-2678.491 696.35626 4439.7808 12110542
-2652.458 696.42694 4440.2314 11781836
-2626.0298 696.39423 4440.0229 11453129
-2591.4451 694.17596 4425.8799 11321545
-2561.6377 693.2052 4419.6904 11058375
-2523.9932 690.07172 4399.7119 10992328
-2511.0408 693.69403 4422.8071 10992330
-2480.5098 692.48547 4415.1016 10992330
-2447.3955 690.52222 4402.5845 10992329
-2414.9148 688.69739 4390.9497 10795720
-2379.7253 686.05194 4374.083 10663364
-2358.8213 687.51184 4383.3911 10399160
-2311.0378 681.08276 4342.4009 8686988
-2308.9236 688.11938 4387.2646 8422523
-2205.7371 664.85132 4238.9136 7763818
-2178.2207 664.11829 4234.2402 8223599
-2141.458 660.51624 4211.2744 7895404
-2170.9304 677.49982 4319.5571 7631976
-2120.0388 669.50964 4268.6138 8421491
-2065.436 660.14026 4208.8774 7829610
-2029.1721 656.47491 4185.5083 8223854
-1987.1968 650.84833 4149.6343 7829353
-1975.0175 654.96179 4175.8608 7105374
-1947.3424 653.97571 4169.5737 7829354
-1932.2122 657.23132 4190.3306 8355441
-1898.3206 654.10706 4170.4111 8881270
-1882.3354 657.15186 4189.8237 8026218
-1854.7911 656.18854 4183.6821 7039578
-1841.4426 660.28931 4209.8276 8947831
-1794.1156 652.15179 4157.9448 10000777
-1748.924 644.57458 4109.6348 9934984
-1716.6743 641.62073 4090.8018 10263949
-1728.5151 655.29742 4178.0005 8948088
-1715.6088 659.85321 4207.0469 8026730
-1689.7371 659.48309 4204.6875 8684401
-1681.1086 665.9325 4245.8071 10329226
-1668.8805 671.13013 4278.9458 9013366
-1588.5796 648.69092 4135.8794 8947573
-1568.9067 650.69379 4148.6489 9737089
-1558.3318 656.59369 4186.2651 8947060
-1494.183 639.74634 4078.8511 8091492
-1462.5129 636.47974 4058.0242 7499612
-1455.6359 644.0741 4106.4438 8486507
-1433.2087 644.92926 4111.896 8618350
-1404.4022 642.89368 4098.9175 8289385
-1386.661 645.94092 4118.3462 8091749
-1350.8462 640.52747 4083.8315 7828831
-1360.165 656.70776 4186.9927 7565658
-1326.9827 652.58777 4160.7246 5460027
-1282.4076 642.60297 4097.0645 5788222
-1266.3147 646.78058 4123.6992 5590843
-1233.3374 642.32898 4095.3171 7499611
-1222.2847 649.34619 4140.0571 6710097
-1189.9095 645.09125 4112.9287 7499611
-1170.8352 648.01996 4131.6016 5592128
-1151.3721 650.85394 4149.6704 7236696
-1124.7635 649.68439 4142.2134 6249546
-1107.0079 653.69019 4167.7534 7236441
-1073.4575 648.33917 4133.6367 7434334
-1039.1877 642.29376 4095.0925 8421229
-1009.7867 639.04041 4074.3503 8947575
-987.67572 640.35413 4082.7263 8092265
-948.37512 630.30933 4018.6833 6907735
-929.80481 633.87982 4041.4475 8026471
-904.57074 632.97601 4035.6851 8223850
-879.21014 631.93213 4029.0298 8289643
-863.89569 638.25214 4069.3247 9013365
-823.47644 625.85504 3990.2842 8882036
-806.1748 630.81427 4021.9023 10395534
-781.82831 630.39508 4019.2297 9277054
-762.17108 633.84937 4041.2534 8289642
-741.04395 636.26562 4056.6589 7960676
-722.68304 641.29858 4088.7476 7894882
-706.1142 648.32599 4133.5527 6907729
-683.21619 649.83838 4143.1953 7302486
-657.60443 648.78619 4136.4868 8420968
-627.19873 642.73981 4097.9365 8355176
-586.82477 625.5799 3988.5295 8815472
-561.4433 623.63318 3976.1179 8749935
-540.6557 626.84222 3996.5779 6249802
-521.75635 632.63477 4033.5098 4012583
0 0 0 0
0 0 0 0
0 0 0 0
0 0 0 0
0 0 0 0
0 0 0 0
0 0 0 0
0 0 0 0
0 0 0 0
0 0 0 0
0 0 0 0
0 0 0 0
-205.63644 616.21503 3928.8218 5196342
0 0 0 0
0 0 0 0
-138.50937 628.45947 4006.8889 5261878
-121.07381 662.96838 4226.9087 7170132
0 0 0 0
0 0 0 0
0 0 0 0
-20.900833 662.70447 4225.2261 7236442
0 0 0 0
0 0 0 0
0 0 0 0
0 0 0 0
0 0 0 0
0 0 0 0
0 0 0 0
0 0 0 0
0 0 0 0
0 0 0 0
0 0 0 0
0 0 0 0
0 0 0 0
0 0 0 0
0 0 0 0
0 0 0 0
0 0 0 0
0 0 0 0
0 0 0 0
0 0 0 0
0 0 0 0
0 0 0 0
0 0 0 0
0 0 0 0
513.6839 562.7912 3588.2058 13
532.5564 560.28217 3572.209 15
552.11365 558.6579 3561.8528 19
577.36285 562.70056 3587.6277 1053734
596.34851 560.56836 3574.0334 1909307
608.19824 552.10461 3520.0708 4213085
632.64246 555.25592 3540.1628 276
657.08417 558.20288 3558.9519 20
677.18939 557.39728 3553.8154 21
697.58502 556.87195 3550.4663 19
718.45477 556.74487 3549.656 12
731.68762 550.87531 3512.2332 7963272
755.97168 553.42053 3528.4609 16
774.55304 551.76636 3517.9146 20
811.51617 562.95044 3589.2209 25
829.46906 560.71259 3574.9529 25
852.04144 561.63116 3580.8098 18
869.6217 559.29443 3565.9114 14
884.20984 555.18976 3539.7412 16
893.70801 548.15344 3494.8794 16
914.19604 548.02368 3494.052 11254203
915.23444 536.4986 3420.571 3289388
958.93701 549.94025 3506.2715 5197118
1073.1676 602.40131 3840.7495 5788997
1136.8131 624.87872 3984.0593 5854534
1167.4271 628.65442 4008.1318 5788998
1182.7312 624.19965 3979.7295 7104860
1210.75 626.49805 3994.3835 7828327
1234.9318 626.76105 3996.0605 6578261
1247.8855 621.42285 3962.0251 5986124
1273.1783 622.31287 3967.6997 5920331
1301.8693 624.80139 3983.5662 7301983
1324.301 624.25092 3980.0564 6644310
1369.5526 634.28839 4044.0527 6117966
1381.2816 628.72217 4008.564 7235933
1373.5692 614.64447 3918.8081 6643279
1426.5699 627.75104 4002.3721 6117444
1450.3782 627.79309 4002.6404 5064503
1494.311 636.40466 4057.5454 6314313
1514.3827 634.74231 4046.9465 4932662
1526.6848 629.92584 4016.2383 4274987
1547.6432 628.77423 4008.8958 5327420
1572.9921 629.41412 4012.9756 4801076
1620.446 638.74835 4072.4883 3090715
1611.2753 625.81592 3990.0344 5656385
1620.4258 620.27039 3954.6775 4801333
1644.1666 620.38824 3955.4292 4603954
1672.3749 622.16479 3966.7559 6116937
1685.0583 618.19659 3941.4556 3287582
1726.5823 624.77289 3983.3843 4998457
1757.3556 627.33411 3999.7141 5722436
1831.6001 645.13892 4113.2329 6182988
1864.0878 647.96149 4131.2285 5788745
1905.0938 653.63342 4167.3916 6841433
1923.0942 651.3681 4152.9482 6907226
1954.7985 653.74292 4168.0898 5657160
1953.3579 645.1123 4113.063 5722952
1993.3969 650.22437 4145.6562 6315088
1997.9841 643.78888 4104.625 4802104
1980.8342 630.5882 4020.4612 5722950
1983.0509 623.79315 3977.1379 6381136
2012.3354 625.57227 3988.4812 6578772
2055.0051 631.42285 4025.783 6710357
2057.9617 625.0769 3985.3228 6973274
2092.4309 628.33777 4006.1133 6381136
2118.4836 629.02661 4010.5049 6446159
2187.637 642.35565 4095.4873 5854022
2207.6895 641.13306 4087.6924 6051401
2248.2183 645.81891 4117.5679 4603954
2256.6299 641.27728 4088.6118 5656643
2228.5037 626.5592 3994.7734 6511952
2293.897 638.16791 4068.7874 6117193
2329.0454 641.20844 4088.1731 5525058
2329.1379 634.63446 4046.259 5327679
2356.4419 635.53339 4051.9902 5722435
2331.4456 622.45093 3968.5803 6182986
2402.4849 635.01349 4048.6758 4867126
2414.6775 631.92737 4028.9993 4735540
2473.4575 640.9743 4086.6802 4932406
2518.6553 646.36023 4121.0195 4998712
2552.3723 648.72473 4136.0952 4274734
2517.1104 633.67896 4040.1672 5524800
2524.6565 629.59198 4014.1099 5722436
2582.1479 637.92029 4067.209 5065274
2583.2104 632.28265 4031.2649 4999482
2654.8674 643.86926 4105.1377 5788998
2644.5376 635.54218 4052.0466 5788998
2710.2729 645.48065 4115.4116 5590850
2688.7051 634.63507 4046.2632 5985864
2733.2351 639.44495 4076.9294 4011819
2733.7688 633.96759 4042.0076 6775382
2804.7317 644.77631 4110.9209 4867641
2818.2456 642.30579 4095.1692 5723207
2823.2488 637.95428 4067.4255 4998972
2845.5327 637.54816 4064.8362 5788744
2855.6189 634.4389 4045.0125 4209200
2962.9531 652.80743 4162.125 4603444
2960.3398 646.84863 4124.1333 4669237
2949.824 639.27484 4075.845 5130045
2968.636 638.12823 4068.5344 4275248
2989.5422 637.44659 4064.1885 5327936
2991.249 632.71472 4034.0195 5854024
2980.0457 625.34875 3987.0562 4670263
3022.5391 629.27814 4012.1084 5065021
3033.7566 626.68542 3995.5781 6314575
3033.791 621.84064 3964.689 5064765
3037.4441 617.80634 3938.9675 4933179
3097.8542 625.28973 3986.6797 4078127
3112.1582 623.42401 3974.7842 5591111
3172.5627 630.75165 4021.5037 4275251
3196.9995 630.8725 4022.2739 3683371
3259.604 638.46765 4070.6985 5986384
3191.7988 620.59503 3956.7476 4802111
3316.5293 640.14569 4081.3972 6579038
3305.4016 633.38019 4038.2622 5986901
3267.7817 621.67194 3963.6138 5658192
3277.8262 619.13397 3947.4324 5460557
3314.7886 621.6803 3963.667 6579038
3402.1738 633.58093 4039.5422 5460558
3437.3027 635.65173 4052.7449 5723730
3531.1924 648.4848 4134.5654 6250074
3593.1479 655.31708 4178.126 5460558
3610.8711 654.04388 4170.0083 5394765
3622.4226 651.67773 4154.9224 4736835
3657.5122 653.54944 4166.856 5065802
3668.7573 651.16394 4151.647 5855318
3669.8567 647.02142 4125.2354 4210493
3687.2974 645.79584 4117.4209 5921368
3623.2268 630.40411 4019.2876 6316126
3691.9324 638.16425 4068.7642 6447712
3710.6951 637.24701 4062.9158 6250848
3626.3237 618.74408 3944.9465 5066574
3703.9714 627.94586 4003.6145 5263957
3705.6787 624.23804 3979.9744 5790813
3753.0898 628.22742 4005.4097 6514538
3881.8042 645.69043 4116.749 6382695
3890.6218 643.11658 4100.3389 5461593
3969.4622 652.07758 4157.4717 5330007
0 0 0 0
0 0 0 0
0 0 0 0
0 0 0 0
0 0 0 0
0 0 0 0
-3665.3289 663.2558 4074.8296 4
-3617.8528 659.00507 4048.7144 789263
-3630.9768 665.80981 4090.5205 394248
-3580.7981 661.0202 4061.095 986131
-3620.6931 672.90607 4134.1177 986131
-3598.4868 673.33362 4136.7446 1051667
-3593.9146 677.08936 4159.8184 1249302
-3542.0176 671.91937 4128.0557 1249302
-3604.5054 688.52716 4230.0889 657421
-3564.5217 685.65656 4212.4526 1052437
-3531.6746 684.12781 4203.0605 1184023
-3549.9741 692.55548 4254.8374 2171175
-3514.1091 690.46136 4241.9717 2499884
-3428.8977 678.57141 4168.9238 1644833
-3380.0569 673.75885 4139.3569 2960691
-3400.9868 682.88525 4195.4268 2565678
-3384.9563 684.6701 4206.3921 2697263
-3454.0508 703.82721 4324.0874 2894643
-3316.5969 680.8681 4183.0342 2500399
-3329.644 688.69238 4231.1035 3158072
-3293.2229 686.32593 4216.5649 4013383
-3337.8213 700.93726 4306.332 4539726
-3278.8201 693.85034 4262.7925 4013383
-3288.468 701.29346 4308.5205 3947847
-3211.8086 690.30322 4241 4013641
-3171.448 687.00275 4220.7231 4210762
-3206.7197 700.16357 4301.5791 1315870
-3171.2871 697.97394 4288.1265 2960692
-3100.2959 687.8595 4225.9868 4605262
-3057.8835 683.97278 4202.1079 2368810
-3047.1099 687.15704 4221.6714 2236967
-2986.6677 679.10065 4172.1753 1973537
-2989.3652 685.38611 4210.791 1578778
-2964.7632 685.46558 4211.2793 1249557
-2907.74 677.98688 4165.3325 3026226
-2934.2104 690.01465 4239.2271 591628
-2913.5535 691.07184 4245.7222 6974835
-2838.9585 679.24237 4173.0459 4145220
-2930.7468 707.36328 4345.8115 2960690
-2914.4475 709.66339 4359.9429 3552828
-2908.272 714.49188 4389.6074 3749954
-2890.4084 716.51007 4402.0068 4737363
-2871.2837 718.24951 4412.6934 3882054
-2829.0125 714.17767 4387.6772 2302761
-2789.3555 710.69641 4366.2896 12436682
-2665.6843 685.5437 4211.7593 12898515
-2694.8418 699.59064 4298.0591 12570321
-2685.6238 703.84796 4324.2148 12439249
-2670.0425 706.50366 4340.5303 12044751
-2649.9988 708.01868 4349.8384 11715530
-2623.2866 707.76434 4348.2759 11518665
-2597.179 707.66968 4347.6938 11189446
-2558.1812 704.0257 4325.3066 10992328
-2526.8389 702.43597 4315.54 11058122
-2500.3411 702.17444 4313.9331 10992330
-2464.4482 699.24176 4295.9155 11058122
-2443.9468 700.66046 4304.6318 10992330
-2404.1963 696.53235 4279.27 10926536
-2370.137 693.98254 4263.605 10926278
-2327.0405 688.70337 4231.1714 10729413
-2306.6194 690.09314 4239.7095 9675427
-2241.8113 678.08765 4165.9517 8094847
-2213.8569 677.08624 4159.7993 7369833
-2213.335 684.54663 4205.6338 8026991
-2173.0984 679.75403 4176.1895 9276543
-2144.51 678.53662 4168.71 6579286
-2136.708 683.9444 4201.9336 7697767
-2102.7744 681.01648 4183.9453 8026475
-2075.2048 680.10443 4178.3423 8684662
-2025.9943 671.99237 4128.5044 8224111
-1966.1243 660.10327 4055.4617 7961196
-1967.3473 668.68506 4108.1851 8948090
-1913.7965 658.63141 4046.4189 8619125
-1897.374 661.26245 4062.5833 8158317
-1858.3533 655.98413 4030.155 8289388
-1840.6704 658.19861 4043.7598 8421229
-1826.145 661.61536 4064.7512 7236954
-1804.9296 662.66724 4071.2136 8618608
-1770.0997 658.68146 4046.7266 8618864
-1756.1199 662.45142 4069.8877 9276538
-1710.4491 654.20538 4019.2266 8684401
-1705.274 661.43372 4063.6353 9210745
-1702.8857 669.96545 4116.0513 9868675
-1701.3595 679.08917 4172.1045 9473917
-1649.566 668.12213 4104.7271 9934467
-1628.8499 669.6026 4113.8223 9408122
-1618.3927 675.40942 4149.4976 9276537
-1573.7039 666.88892 4097.1504 9144952
-1537.337 661.68341 4065.1692 9342328
-1490.1208 651.56824 4003.0251 7631454
-1487.8068 661.07721 4061.4451 7763040
-1436.9644 648.98181 3987.1348 6973780
-1436.6542 659.68555 4052.8953 7434074
-1389.063 648.67358 3985.2412 8421226
-1368.6957 650.21381 3994.7039 8025955
-1362.3086 658.56653 4046.0203 7960163
-1336.6951 657.75751 4041.05 8223589
-1274.057 638.36792 3921.9265 7499353
-1272.5686 649.46613 3990.1104 5722683
-1249.7738 649.90479 3992.8054 5525304
-1228.1354 650.97327 3999.3699 6314822
-1174.4166 634.74512 3899.6692 7828832
-1146.0758 631.85712 3881.9265 7894113
-1145.3224 644.37195 3958.8132 7960675
-1095.2728 629.09546 3864.9597 7631968
-1109.7163 651.00079 3999.5386 8025956
-1082.5616 648.92639 3986.7944 6907477
-1070.1942 655.82117 4029.1538 5131066
-1041.8743 653.03186 4012.0171 8026727
-1006.0382 645.2912 3964.4609 8223850
-1007.636 661.76526 4065.6721 8026471
-962.83582 647.828 3980.0464 8684402
-936.22693 645.7381 3967.2063 8947572
-914.23578 646.80737 3973.7756 8487022
-888.03217 644.87427 3961.8992 7434332
-872.54565 650.83002 3998.4897 7433563
-854.57947 655.21692 4025.4414 9210487
-814.37396 642.31512 3946.1768 8947572
-789.47046 641.07635 3938.5662 10461328
-761.56427 637.24969 3915.0564 9408640
-750.12305 647.39264 3977.3713 9145208
-715.21307 637.28186 3915.2542 7697506
-703.37817 647.74335 3979.5259 7960676
-690.19849 657.64899 4040.3833 7631710
-656.96399 648.47083 3983.9954 6249799
-634.34094 649.47327 3990.1541 6447178
-612.35736 651.23328 4000.9673 6447178
-582.34821 644.25635 3958.103 9013105
-560.35645 645.93573 3968.4209 7434074
-539.01031 648.53912 3984.415 6117958
-516.87402 650.38672 3995.7659 6381131
0 0 0 0
0 0 0 0
0 0 0 0
0 0 0 0
0 0 0 0
0 0 0 0
0 0 0 0
0 0 0 0
0 0 0 0
0 0 0 0
0 0 0 0
0 0 0 0
0 0 0 0
0 0 0 0
0 0 0 0
0 0 0 0
0 0 0 0
0 0 0 0
0 0 0 0
0 0 0 0
0 0 0 0
0 0 0 0
0 0 0 0
0 0 0 0
0 0 0 0
0 0 0 0
0 0 0 0
0 0 0 0
0 0 0 0
0 0 0 0
0 0 0 0
0 0 0 0
0 0 0 0
0 0 0 0
0 0 0 0
0 0 0 0
0 0 0 0
0 0 0 0
0 0 0 0
0 0 0 0
0 0 0 0
0 0 0 0
0 0 0 0
0 0 0 0
0 0 0 0
0 0 0 0
0 0 0 0
551.95343 579.59082 3560.8188 20
575.12567 581.69171 3573.7263 263444
597.72705 583.08649 3582.2954 2042178
612.66345 577.16479 3545.9141 279
627.96753 571.97058 3514.0027 66584
650.14484 573.16919 3521.3667 1053733
674.22687 575.92029 3538.2683 2567479
699.33258 579.35345 3559.3606 18
720.98846 579.8114 3562.1741 14
739.00763 577.40186 3547.3706 8949397
766.35583 582.21295 3576.9285 20
789.79962 583.87872 3587.1626 6779526
805.87549 580.15302 3564.2729 11055290
834.04712 585.10297 3594.6838 11844810
855.04364 584.89838 3593.4268 12240083
848.46307 566.29755 3479.1494 12503772
880.91754 574.01471 3526.5613 9148068
892.27142 567.94348 3489.2615 14
899.14093 559.35748 3436.5117 8819347
936.61469 569.76904 3500.4771 2433824
986.62488 587.19067 3607.5098 3946795
1046.6252 609.69312 3745.7576 5262653
1112.6504 634.69788 3899.3792 6249550
1143.7579 639.17236 3926.8687 6709845
1152.2914 631.10474 3877.3037 5986378
1148.0271 616.4801 3787.4548 5985867
1185.2742 624.28015 3835.3757 6775638
1205.073 622.76965 3826.0959 6249037
1226.0337 621.9043 3820.7793 4801591
1276.5635 635.7973 3906.1335 5065020
1310.4061 641.03253 3938.2969 5328192
1320.2751 634.56207 3898.5447 5722695
1351.45 638.37836 3921.9905 6380111
1361.4233 632.22003 3884.1558 6051402
1388.9708 634.29181 3896.8843 5656385
1407.649 632.31183 3884.7197 5459777
1449.2469 640.52545 3935.1816 4341293
1466.1884 637.75397 3918.1545 5525568
1492.7458 639.18646 3926.9553 6248779
1521.2458 641.39404 3940.5181 7301723
1547.3993 642.56049 3947.6841 6447183
1569.3103 641.95667 3943.9746 4604208
1585.6693 639.13281 3926.6257 6183242
1547.298 614.64941 3776.2078 6248779
1584.1526 620.3208 3811.051 5524799
1627.4596 628.32397 3860.22 4274991
1667.2998 634.78552 3899.9172 3024924
1692.8612 635.70831 3905.5867 3814440
1733.5787 642.22101 3945.5986 6116939
1734.5935 634.04773 3895.3845 5458751
1792.7821 646.71356 3973.1995 5590594
1802.3995 641.75702 3942.748 5130044
1826.6802 642.08136 3944.741 6315090
1857.4199 644.63934 3960.4561 5656904
1921.4469 658.54205 4045.8696 7104863
1934.9738 655.00739 4024.1541 7697255
1919.6819 641.92206 3943.7622 4473142
1935.7898 639.52496 3929.0352 5657416
1924.5978 628.27301 3859.9065 5788230
1920.2479 619.49255 3805.9624 6182988
1971.1479 628.53326 3861.5056 5590851
2025.0991 638.32825 3921.6829 6380109
2038.4337 635.24359 3902.7317 5590849
2049.9148 631.65704 3880.697 5524799
2114.4739 644.32391 3958.5183 4998455
2134.2402 643.21344 3951.6958 4735026
2159.3838 643.72998 3954.8694 4274475
2195.615 647.50531 3978.0635 4998456
2188.9434 638.68243 3923.8586 5853765
2222.6587 641.70502 3942.4285 6248780
2256.3418 644.65564 3960.5564 5196092
2278.4521 644.27313 3958.2061 5722180
2292.4187 641.61902 3941.9001 5788228
2327.8508 644.96576 3962.4614 5919814
2337.7053 641.22986 3939.5093 5722435
2358.2678 640.47589 3934.877 6644050
2396.1538 644.39545 3958.9578 7104088
2402.5508 639.85291 3931.0498 6380364
2424.1875 639.41718 3928.373 6248779
2463.6094 643.63635 3954.2939 4932919
2490.782 644.6059 3960.2505 6248779
2468.5637 632.89441 3888.2993 5986377
2529.5349 642.5307 3947.5012 6446928
2541.3086 639.60803 3929.5452 5460289
2561.7429 638.89844 3925.186 6447185
2600.5188 642.73486 3948.7556 5986378
2636.9956 645.9397 3968.4451 5920328
2659.011 645.57684 3966.2158 4341808
2686.3677 646.50574 3971.9226 6511951
2693.9624 642.70392 3948.5654 5524800
2723.3657 644.12567 3957.3003 7367261
2741.9177 642.97852 3950.2527 5064507
2775.8718 645.43201 3965.3259 4867127
2815.4009 649.1297 3988.0435 4866873
2839.7454 649.29395 3989.0525 4867643
2859.134 648.33167 3983.1406 4736057
2879.1892 647.53516 3978.2471 4999229
2882.5728 643.03247 3950.584 5657158
2923.9595 647.01166 3975.0308 4933435
2955.5522 648.77734 3985.8787 6644053
2958.3667 644.24792 3958.0515 6907226
2993.9453 646.86884 3974.1531 5262401
2995.7214 642.20239 3945.4844 5262144
2971.876 632.1582 3883.7761 5525572
3020.46 637.55664 3916.9424 6644053
3030.1675 634.72937 3899.5725 5131071
3027.3169 629.33423 3866.4265 5920330
3094.062 638.37939 3921.9971 4735800
3129.0723 640.79089 3936.8123 3551784
3163.2712 643.00177 3950.3953 4801850
3137.2554 633.03009 3889.1326 5920330
3188.6697 638.71362 3924.0503 4933180
3204.3145 637.20184 3914.7625 5065281
3203.5649 632.4751 3885.7229 5262403
3250.1206 637.08856 3914.0667 6380887
3263.8777 635.25305 3902.7898 6052947
3313.2891 640.33405 3934.0056 5328714
3348.7749 642.67151 3948.3662 6578524
3467.3271 660.80743 4059.7876 4341562
3463.4314 655.51801 4027.291 5591629
3440.2471 646.67517 3972.9636 3815217
3480.6809 649.82977 3992.3445 4144439
3502.4426 649.47937 3990.1917 5131336
3499.761 644.63135 3960.407 4737348
3535.1135 646.80676 3973.7722 5526864
3643.0352 662.14343 4067.9954 5657937
3571.0303 644.79059 3961.3853 5395023
3591.5007 644.25287 3958.0818 5789781
3577.0251 637.49408 3916.5581 6447712
3579.1912 633.76917 3893.6731 6514019
3665.5583 644.90594 3962.094 6842727
3691.5952 645.35431 3964.8484 6448482
3722.7012 646.67749 3972.9778 7435121
3795.3862 655.1615 4025.1008 7172206
3874.0779 664.56989 4082.9028 5526870
3811.8394 649.836 3992.3828 5395028
0 0 0 0
0 0 0 0
0 0 0 0
0 0 0 0
0 0 0 0
0 0 0 0
-3652.6013 685.00909 4060.6799 2500141
-3546.0823 669.44153 3968.3967 3421500
-3552.0386 675.04126 4001.5918 3224120
-3536.1274 676.53265 4010.4324 3684417
-3540.9878 682.04517 4043.1101 5197656
-3533.238 685.18726 4061.7363 2434350
-3573.5774 697.76208 4136.2788 6382186
-3470.3772 682.29016 4044.5625 1579297
-3553.6504 703.51941 4170.4077 1316124
-3542.136 706.14929 4185.9976 1645086
-3520.4707 706.77844 4189.7271 1907491
-3500.3931 707.73749 4195.4121 2697008
-3433.4441 699.16559 4144.5986 2434090
-3384.1238 694.08594 4114.4868 3157815
-3335.7578 689.12964 4085.1064 2960691
-3294.7747 685.63733 4064.4043 3223610
-3353.0247 702.89594 4166.7119 3421503
-3342.2627 705.83612 4184.1411 4276555
-3319.5725 706.28241 4186.7866 3750468
-3253.5107 697.43811 4134.3584 3816004
-3304.9429 713.83722 4231.5708 3750211
-3321.8484 722.9726 4285.7246 4342349
-3249.9287 712.7677 4225.231 3750726
-3220.0439 711.69495 4218.8716 5066587
-3171.0046 706.33881 4187.1211 5198429
-3134.4097 703.69196 4171.4307 5724771
-3110.8215 703.94641 4172.939 4934998
-3113.512 710.1991 4210.0044 3684416
-3052.3384 701.86761 4160.6162 3816002
-3033.459 703.20502 4168.5439 4013123
-3017.0291 705.13684 4179.9956 2236711
-2955.1221 696.38379 4128.1084 1315608
-2895.3281 687.98676 4078.3315 2960693
-2943.9937 705.43738 4181.7773 3684159
-2945.6587 711.82635 4219.6509 2631985
-2897.2268 706.11511 4185.7949 4605776
-2844.0059 699.12793 4144.3755 4869458
-2834.998 702.98236 4167.2241 9145747
-2858.5859 715.05823 4238.8091 2237741
-2821.0068 711.91193 4220.1582 6317423
-2795.855 711.8736 4219.9307 6646132
-2775.6946 713.11682 4227.3008 4475733
-2757.6709 714.93671 4238.0889 11713986
-2726.9053 713.45636 4229.3135 12636117
-2670.0271 705.05316 4179.5 12242639
-2662.1946 709.565 4206.2456 12176849
-2650.396 713.09503 4227.1714 11979215
-2626.7671 713.47906 4229.4478 11584970
-2616.4094 717.50989 4253.3423 11255750
-2587.2112 716.40222 4246.7759 11058376
-2549.3442 712.84869 4225.7109 11123915
-2522.8643 712.44043 4223.291 11058123
-2489.3638 710.02148 4208.9517 10992329
-2450.2056 705.92358 4184.6597 10926537
-2424.2622 705.5882 4182.6714 10926536
-2395.8894 704.53149 4176.4072 10729157
-2370.479 704.33276 4175.2295 10992329
-2339.4368 702.43903 4164.0034 10927048
-2307.1055 700.11365 4150.2188 10992326
-2224.4487 682.30194 4044.6323 9280413
-2213.1887 686.24023 4067.9783 8554886
-2182.251 684.09662 4055.271 7434858
-2147.8306 680.80127 4035.7366 7566440
-2145.095 687.58813 4075.9685 7763562
-2145.1021 695.41858 4122.3867 6184015
-2136.21 700.51123 4152.5757 7039320
-2119.2424 703.04346 4167.5864 7170649
-2037.6594 683.94708 4054.3845 7105115
-2007.2377 681.77234 4041.4929 7565666
-1983.9851 682.00958 4042.8992 8486767
-1916.4001 666.82684 3952.8972 8684147
-1858.7032 654.75159 3881.3162 8553074
-1857.8994 662.6662 3928.2332 8552561
-1819.505 657.20392 3895.8533 8618097
-1772.7452 648.54089 3844.4998 8552817
-1744.0259 646.3382 3831.4419 8553072
-1742.7909 654.3974 3879.2163 8224107
-1718.0134 653.71393 3875.1648 9408381
-1726.9664 666.02051 3948.1172 8882294
-1718.9027 672.01221 3983.6355 9079159
-1704.7313 675.74963 4005.7908 10329226
-1676.7084 674.02435 3995.5635 8552816
-1691.2837 689.61908 4088.0078 8289901
-1632.1923 675.19305 4002.4915 9408381
-1622.0172 680.87537 4036.1755 6513232
-1599.183 681.33423 4038.8958 8618607
-1557.7007 673.74127 3993.8855 8289642
-1529.4615 671.73041 3981.9653 7368284
-1492.765 665.88397 3947.3079 8618349
-1469.6152 665.99042 3947.939 7104853
-1439.1143 662.71509 3928.5232 6710351
-1417.1337 663.32031 3932.1108 7499867
-1395.1428 663.94073 3935.7888 8749678
-1375.9219 665.92303 3947.5393 7697248
-1326.7972 653.25061 3872.4185 6710096
-1268.9741 635.77417 3768.8193 7696990
-1270.9253 648.15588 3842.2173 7434072
-1248.3518 648.25385 3842.7981 6973009
-1213.1067 641.65302 3803.6689 7170901
-1187.5074 640.00098 3793.8755 7697245
-1182.8969 649.81506 3852.0525 7631453
-1142.1785 639.78955 3792.6223 8486764
-1127.5455 644.26666 3819.1621 7368541
-1104.92 644.26666 3819.1621 8618865
-1075.2971 640.10132 3794.4702 7763300
-1056.4188 642.29065 3807.4485 7303006
-1048.0453 651.10162 3859.6794 8026472
-1027.0453 652.2865 3866.7034 8421487
-987.48218 641.46686 3802.5654 9276795
-971.92126 646.09784 3830.0173 9210744
-970.09473 660.29858 3914.1982 8815985
-936.84064 653.27972 3872.5911 7697506
-904.15363 646.31384 3831.2976 8223850
-913.36029 669.70691 3969.9702 8487022
-870.96265 655.49866 3885.7446 7039577
-843.87885 652.35718 3867.1221 7895142
-814.39154 647.13049 3836.1387 9276538
-789.70697 645.5296 3826.6489 9671297
-773.71753 651.15192 3859.9773 8750192
-751.13159 651.39587 3861.4238 7302236
-719.9082 643.9295 3817.1636 6907477
-727.92474 672.21558 3984.8411 8354923
-702.99799 670.95605 3977.3748 8618607
-670.34393 661.97833 3924.1555 9671294
0 0 0 0
0 0 0 0
-608.13904 670.2865 3973.4058 8420713
0 0 0 0
0 0 0 0
0 0 0 0
0 0 0 0
0 0 0 0
0 0 0 0
0 0 0 0
0 0 0 0
0 0 0 0
0 0 0 0
0 0 0 0
0 0 0 0
0 0 0 0
0 0 0 0
0 0 0 0
0 0 0 0
0 0 0 0
0 0 0 0
0 0 0 0
0 0 0 0
0 0 0 0
0 0 0 0
0 0 0 0
0 0 0 0
0 0 0 0
0 0 0 0
0 0 0 0
0 0 0 0
0 0 0 0
0 0 0 0
0 0 0 0
0 0 0 0
0 0 0 0
0 0 0 0
0 0 0 0
0 0 0 0
0 0 0 0
0 0 0 0
0 0 0 0
58.893345 118.39008 701.80707 12299917
63.126083 118.53105 702.64276 9730390
67.529709 118.95558 705.15936 11308906
71.734436 119.00072 705.42694 11769712
0 0 0 0
0 0 0 0
0 0 0 0
0 0 0 0
0 0 0 0
0 0 0 0
0 0 0 0
0 0 0 0
0 0 0 0
572.26379 599.86334 3555.9429 16
591.85095 598.36798 3547.0786 16
613.25427 598.74847 3549.3337 13
629.54816 594.28046 3522.8479 462881
644.86102 589.20276 3492.7478 395803
685.59241 606.94348 3597.9133 4345184
692.5481 594.61481 3524.8301 20
717.97699 598.40454 3547.2954 21
746.89203 604.8017 3585.217 8819109
763.9317 601.49481 3565.614 15
778.16425 596.21503 3534.3162 10070960
811.63354 605.5647 3589.74 13423056
820.0484 596.22095 3534.3508 13292497
839.75897 595.35046 3529.1909 13226450
863.36487 597.21692 3540.2549 13292758
900.68298 608.255 3605.688 11844808
873.1817 576.02148 3414.6104 17
918.31567 592.07892 3509.7974 5200742
949.96857 598.92578 3550.3853 2894376
982.42816 605.97375 3592.1648 5986637
1024.1807 618.33313 3665.4304 6249551
1070.6289 632.95557 3752.1111 6117709
1081.4584 626.35364 3712.9751 6512464
1118.3011 634.78082 3762.9307 6314829
1148.2128 639.02118 3788.0674 5459262
1150.3965 627.9632 3722.5166 5261626
1193.5994 639.29095 3789.6667 6182983
1205.2061 633.59015 3755.8726 5393212
1235.0352 637.50208 3779.062 4669746
1240.5842 628.96484 3728.4541 5722434
1302.533 648.82019 3846.1553 4011816
1315.5663 644.0459 3817.8538 4537391
1319.0909 634.85681 3763.3811 4472110
1339.4448 633.93799 3757.9346 4735796
1368.7371 637.21045 3777.3335 6841687
1392.0352 637.63202 3779.8325 6775894
1416.9972 638.79034 3786.699 6380621
1448.3829 642.76324 3810.2502 4735795
1477.2946 645.5332 3826.6699 5130295
1484.166 638.73401 3786.365 5262396
1515.5242 642.51855 3808.7998 6775895
1536.0391 641.6626 3803.7253 8420720
1554.4694 639.97302 3793.7097 6973017
1558.2528 632.38739 3748.7429 3749158
1593.9354 637.77887 3780.7031 5393472
1628.0771 642.41284 3808.1731 3946027
1655.9442 644.47809 3820.4155 5393472
1694.9615 650.7688 3857.7063 5196090
1738.5531 658.62488 3904.2766 5196090
1752.1843 655.07379 3883.2258 4801589
1758.8091 649.02917 3847.394 4472625
1769.429 644.59467 3821.1064 4537649
1784.9653 642.04047 3805.9656 4406062
1809.8633 642.87549 3810.9153 6314317
1823.0446 639.57928 3791.3757 5261629
1858.3499 644.03058 3817.7627 4801076
1872.5232 641.13947 3800.6243 3617060
1908.2684 645.61536 3827.157 5656642
1906.1178 637.31549 3777.9561 6446157
1925.7609 636.41046 3772.5913 5196861
1946.358 635.83801 3769.1978 5591363
1977.9966 638.84454 3787.0203 6315342
2028.8696 647.92621 3840.856 3879974
2049.7261 647.32703 3837.3037 3748391
2083.5073 650.77789 3857.76 4406320
2086.762 644.72241 3821.864 7893862
2117.7695 647.27936 3837.0212 6577746
2119.2812 640.86267 3798.9836 5327678
2134.2349 638.60284 3785.5876 6248779
2155.7261 638.32574 3783.9451 5393214
2159.8706 632.97095 3752.2021 5261371
2210.3958 641.17889 3800.8584 5721920
2282.2957 655.35913 3884.9175 5458748
2292.4316 651.69781 3863.2136 5327420
2272.6492 639.68774 3792.0186 5919557
2345.0869 653.61603 3874.5845 6051144
2309.071 637.33942 3778.0981 6840916
2326.0498 635.86224 3769.3416 6446158
2386.9526 646.3064 3831.2537 6840916
2445.7485 655.98865 3888.6492 5656642
2432.1721 646.25995 3830.9783 5723461
2482.3499 653.49475 3873.8657 6051657
2452.8525 639.81421 3792.7686 5985865
2498.0554 645.69037 3827.6018 4011560
2518.6101 645.14716 3824.3816 5919559
2528.709 641.95917 3805.4834 5985609
2609.6348 656.64935 3892.5657 4801335
2600.2717 648.56219 3844.626 6051402
2611.5161 645.71088 3827.7234 6248781
2621.0083 642.47906 3808.5654 5656898
2707.7649 658.08038 3901.0491 4407089
2749.6565 662.60614 3927.8772 4736567
2767.5413 661.3194 3920.2495 5393985
2713.2976 642.96204 3811.4285 5657158
2762.8667 649.30481 3849.0281 5657158
2832.988 660.33423 3914.4097 5328193
2852.2305 659.42157 3908.9995 5591365
2887.2573 662.14362 3925.1355 5064507
2848.9001 648.12714 3842.0469 5985609
2830.1697 638.76257 3786.5344 5130300
2849.728 638.11902 3782.7195 4603957
2916.3132 647.93372 3840.9004 5722181
2902.6125 639.89703 3793.2595 4801594
2934.3909 641.93292 3805.3279 3749419
2970.4905 644.87579 3822.7732 4933693
2957.4543 637.18787 3777.1997 5920590
2985.8147 638.46729 3784.7839 6183762
3016.7214 640.26813 3795.4592 5065281
3033.0024 638.96106 3787.7112 4999488
3060.9023 640.10303 3794.4805 5591625
3100.676 643.6933 3815.7632 5328196
3120.1355 643.04498 3811.9199 3486507
3132.8994 641.03583 3800.01 3551787
3134.02 636.69012 3774.249 3354665
3124.9038 630.34094 3736.6118 4999489
3170.4656 635.03296 3764.4255 5065539
3261.4495 648.69373 3845.4053 5592140
3359.1226 663.48621 3933.0942 6052947
3367.7334 660.6048 3916.0132 5788749
3353.5967 653.33118 3872.8958 5788751
3336.6353 645.6098 3827.1243 4933186
3324.6384 638.94678 3787.6265 2827810
3424.0161 653.63416 3874.6921 4274999
3431.2612 650.65527 3857.0334 4735807
3376.2812 635.99438 3770.1248 4341050
3404.3267 637.06299 3776.4592 4407099
3438.0911 639.18085 3789.0137 4472636
3457.5776 638.63397 3785.7722 4670786
3418.801 627.4021 3719.1902 4802628
3567.1113 650.42749 3855.6829 5394765
3612.8979 654.58453 3880.3257 5855829
3674.6245 661.5589 3921.6692 5790036
3675.6543 657.58667 3898.1221 6184025
3642.304 647.5517 3838.6357 6250076
3613.8142 638.50012 3784.9788 5723732
0 0 0 0
0 0 0 0
0 0 0 0
0 0 0 0
0 0 0 0
0 0 0 0
-3424.4231 664.77008 3807.009 3816512
-3413.1707 666.97852 3819.6562 3421243
-3443.5361 677.40332 3879.3572 2828850
-3464.9988 686.20514 3929.7634 2960436
-3440.9153 686.0451 3928.8469 4408140
-3407.9233 684.0946 3917.6768 3618624
-3410.3972 689.28546 3947.4038 4408139
-3460.5823 704.25769 4033.147 7434618
-3421.2117 701.08606 4014.9834 3684416
-3407.2839 703.12024 4026.6331 3816259
-3338.4443 693.77185 3973.0967 4211018
-3353.7559 701.90259 4019.6594 3882053
-3307.7659 697.22803 3992.8894 3289403
-3286.2456 697.68115 3995.4844 3355451
-3303.449 706.42169 4045.5396 3618366
-3248.3762 699.72131 4007.1677 3289658
-3261.9756 707.82343 4053.5674 2763316
-3222.9768 704.54779 4034.8083 1776676
-3238.176 713.15955 4084.1262 1381658
-3259.8025 723.32709 4142.3535 1447967
-3231.3354 722.4491 4137.3257 4145485
-3233.8467 728.53668 4172.188 4671829
-3177.7554 721.41412 4131.3984 4276814
-3161.5977 723.31702 4142.2959 2763574
-3092.5881 713.0636 4083.5764 2171178
-3072.8792 714.10541 4089.5427 3355453
-3061.0637 717.0127 4106.1924 4605518
-3043.6296 718.64001 4115.5117 2829360
-3017.595 718.24646 4113.2578 1973796
-3026.657 726.26819 4159.1968 3092021
-2974.5488 719.62292 4121.1406 3552829
-2915.1228 711.08258 4072.2319 2105382
-2844.3044 699.59772 4006.46 3882565
-2827.2844 701.26324 4015.9983 6316393
-2869.3494 717.73657 4110.3379 7172216
-2826.9534 713.18408 4084.2666 5263964
-2851.259 725.52576 4154.9448 5264221
-2800.4204 718.7948 4116.3979 6053227
-2752.145 712.60925 4080.9746 6711670
-2777.1326 725.45203 4154.5229 4936797
-2750.0813 724.80927 4150.8418 9740455
-2708.228 720.21851 4124.5513 12176336
-2597.9666 697.18616 3992.6497 12177102
-2650.9946 717.95331 4111.5791 12111569
-2630.6094 719.03925 4117.7979 11782349
-2611.6353 720.53473 4126.3623 11387336
-2600.7771 724.31885 4148.0332 11189961
-2571.1694 722.90356 4139.9282 10992328
-2589.0923 734.95331 4208.9346 10926536
-2517.2444 721.50677 4131.9287 10926537
-2481.957 718.37817 4114.0122 10860746
-2450.5085 716.30981 4102.167 10860746
-2419.8984 714.44745 4091.5017 10794950
-2381.0581 710.09296 4066.5642 10926535
-2468.7161 743.76001 4259.3691 10926537
-2329.511 709.06885 4060.6992 10926793
-2307.8054 709.79187 4064.8401 10926537
-2265.1235 704.01068 4031.7322 10465463
-2176.2722 683.60358 3914.8647 9214103
-2161.7646 686.36102 3930.6562 7239021
-2169.0088 696.15997 3986.7727 7172196
-2131.5154 691.65771 3960.9893 7697770
-2103.3894 690.12872 3952.2329 6052944
-2082.8018 691.06641 3957.603 6184274
-2076.6797 696.87976 3990.8948 6446931
-2071.6128 703.1853 4027.0054 3552295
-2029.7711 697.0094 3991.6375 6841944
-1999.6873 694.77307 3978.8303 8486769
-1967.9731 691.91028 3962.4355 7565665
-1950.3903 694.00665 3974.4409 7565664
-1876.5374 675.88702 3870.6736 7434334
-1841.1084 671.32977 3844.575 7434334
-1790.8813 661.19489 3786.5344 9144695
-1770.8197 662.08118 3791.6104 8487278
-1745.2672 660.91101 3784.9087 8487021
-1715.7301 658.18176 3769.2791 7302745
-1702.3655 661.66644 3789.2349 7829089
-1690.5205 665.84271 3813.1519 8487020
-1706.5122 681.24463 3901.3557 7236698
-1702.6293 689.02655 3945.9209 8750193
-1671.4379 685.81995 3927.5576 8947572
-1630.0592 678.28375 3884.3994 7829092
-1620.0758 683.78278 3915.8911 7763298
-1608.4882 688.75464 3944.364 7960677
-1575.3524 684.51013 3920.0564 6973782
-1539.9106 679.12164 3889.1975 8684399
-1528.8669 684.49268 3919.9565 5921094
-1461.0459 664.21753 3803.8447 6184265
-1445.458 667.42517 3822.2144 7565917
-1423.6558 667.81989 3824.4746 6907987
-1433.8866 683.4967 3914.2527 6447436
-1396.7078 676.71844 3875.4348 7170646
-1358.7637 669.33673 3833.1611 7894625
-1314.1902 658.38275 3770.4299 6841937
-1293.5358 659.24017 3775.3403 6841936
-1269.4406 658.34344 3770.2048 7631454
-1244.7202 657.08447 3762.9951 7960418
-1228.3093 660.24615 3781.1016 8026211
-1194.9563 654.24927 3746.7585 7039316
-1167.9688 651.57666 3731.4529 8157798
-1146.0144 651.6629 3731.9468 8092262
-1131.7422 656.20673 3757.9683 7302748
-1105.9327 654.10925 3745.9563 8289644
-1079.9403 651.81537 3732.8198 8750194
-1035.7437 638.20837 3654.8953 7302493
-1029.4921 647.90076 3710.4016 7763301
-1019.9698 655.91278 3756.2849 8552560
-994.21179 653.60858 3743.0894 7632486
-949.85083 638.69049 3657.656 8882295
-925.61609 636.92474 3647.5442 11382429
-931.05231 655.97961 3756.6677 10461327
0 0 0 0
0 0 0 0
-860.09229 652.79645 3738.4385 9277310
0 0 0 0
-815.36322 652.44885 3736.4478 9803397
0 0 0 0
0 0 0 0
0 0 0 0
0 0 0 0
0 0 0 0
0 0 0 0
0 0 0 0
0 0 0 0
0 0 0 0
0 0 0 0
0 0 0 0
0 0 0 0
0 0 0 0
0 0 0 0
0 0 0 0
0 0 0 0
0 0 0 0
0 0 0 0
0 0 0 0
0 0 0 0
0 0 0 0
0 0 0 0
0 0 0 0
0 0 0 0
0 0 0 0
0 0 0 0
0 0 0 0
0 0 0 0
0 0 0 0
0 0 0 0
0 0 0 0
0 0 0 0
0 0 0 0
0 0 0 0
0 0 0 0
0 0 0 0
0 0 0 0
0 0 0 0
0 0 0 0
0 0 0 0
0 0 0 0
0 0 0 0
0 0 0 0
0 0 0 0
0 0 0 0
0 0 0 0
0 0 0 0
0 0 0 0
50.474518 122.29696 700.37091 13357248
54.666874 122.39369 700.92487 13684151
58.922504 122.60841 702.15454 13222308
63.206905 122.85075 703.54236 11113584
67.527397 123.1289 705.13525 11441005
71.714348 123.14533 705.22937 12230262
75.847694 123.07298 704.815 4141344
79.533203 122.31941 700.49945 1641222
0 0 0 0
0 0 0 0
0 0 0 0
0 0 0 0
0 0 0 0
0 0 0 0
0 0 0 0
576.07391 625.06372 3579.6184 13
594.25323 621.89581 3561.4763 16
612.05341 618.56189 3542.3835 15
631.54041 617.09723 3533.9961 2240063
638.97534 604.32812 3460.8694 527
679.32678 622.51666 3565.032 5990270
694.02557 616.80981 3532.3499 270
719.44598 620.68695 3554.5532 19
748.41156 627.315 3592.5112 9412784
762.12225 621.14355 3557.1685 18
779.8161 618.4632 3541.8186 6779006
814.33795 628.91974 3601.7012 10198441
830.81006 625.25824 3580.7324 6382732
855.81085 628.0379 3596.6511 13160401
865.22473 619.52191 3547.8813 593169
877.03229 613.08307 3511.0073 12635606
887.41699 605.97095 3470.2778 14
919.51862 613.67456 3514.3948 2567990
934.46466 609.84113 3492.4417 5396816
967.66809 617.83069 3538.196 5855050
1004.8393 627.96094 3596.2102 6776152
1051.2336 643.31476 3684.1387 6446928
1069.6741 641.28534 3672.5164 6577487
1087.1725 638.78314 3658.187 6051654
1102.9741 635.40143 3638.8206 5787968
1124.8237 635.56671 3639.7668 4340523
1150.3107 637.74225 3652.2258 5656382
1167.6194 635.38708 3638.7383 5327418
1189.7158 635.67548 3640.3899 5656639
1207.4114 633.6441 3628.7563 4406316
1260.1732 649.7644 3721.0745 4801075
1285.4304 651.39246 3730.3979 5787714
1303.7875 649.52789 3719.72 3353632
1330.163 651.65356 3731.8933 5919559
1342.996 647.18372 3706.2954 4998714
1386.8138 657.54895 3765.655 6249550
1408.6589 657.33264 3764.4163 4473137
1413.5311 649.32642 3718.5659 6249034
1439.7356 651.21472 3729.3801 4406830
1460.564 650.65106 3726.1521 6051655
1465.6218 643.18329 3683.3857 4998454
1492.5651 645.39813 3696.0696 4143143
1503.6847 640.80554 3669.7688 5853760
1507.0587 633.09015 3625.584 4866865
1547.199 640.81934 3669.8477 5919554
1587.8066 648.52521 3713.9778 5656382
1611.9579 649.39093 3718.9355 3945764
1656.6484 658.39606 3770.5061 5064245
1681.2628 659.289 3775.6199 3879204
1679.7577 650.05042 3722.7124 4405293
1724.6759 658.78394 3772.7275 4668978
1739.1019 655.79572 3755.6147 5063990
1756.5636 654.01324 3745.4067 4998453
1737.5215 638.85345 3658.5896 4669235
1746.469 634.23175 3632.1218 6643018
1765.0292 633.17084 3626.0464 5853246
1824.2948 646.56219 3702.7358 4471340
1845.9443 646.46191 3702.1616 5590077
1858.3495 643.16455 3683.2783 5392954
1872.5011 640.5412 3668.2551 5130296
1899.1587 642.20691 3677.7942 4932917
1934.1212 646.61145 3703.0178 4998196
1968.563 650.74493 3726.6897 5590847
1994.8096 652.10773 3734.4941 5722434
2005.234 648.32507 3712.8315 5393213
1988.5734 635.96246 3642.0332 6248778
2070.8979 655.18176 3752.0984 5525057
2095.5471 655.93951 3756.4382 5656642
2114.0349 654.77307 3749.7581 6248522
2089.5952 640.47327 3667.8657 5458749
2141.1865 649.53192 3719.7432 5458494
2162.6318 649.35449 3718.7268 5787712
2208.4302 656.41907 3759.1843 4669487
2225.0649 654.76068 3749.687 5590334
2243.9387 653.78754 3744.114 5195577
2191.5942 632.28644 3620.9817 6643025
2239.8418 639.94238 3664.8254 5590337
2297.5247 650.12109 3723.1172 3617061
2313.1951 648.33124 3712.8667 6840916
2362.4014 655.88586 3756.1306 5590849
2386.7073 656.45062 3759.3652 5590849
2383.9561 649.63196 3720.3159 5985607
2424.1846 654.54297 3748.4404 4603954
2465.6721 659.70166 3777.9832 4867383
2477.9399 657.02002 3762.626 6315343
2483.5925 652.64783 3737.5869 5130557
2521.8755 656.85187 3761.6628 5920071
2495.21 644.21381 3689.2871 6249037
2556.1729 654.22266 3746.606 3879206
2592.5876 657.83057 3767.2678 3221789
2605.1252 655.37012 3753.1772 6446929
2624.7478 654.71844 3749.4453 5591108
2577.9116 637.63953 3651.6375 4604470
2673.9399 655.88782 3756.1421 5657158
2692.521 654.99475 3751.0276 5130814
2737.1792 660.40796 3782.0281 5920073
2757.7078 659.95874 3779.4556 5130557
2799.1692 664.48596 3805.3821 4801592
2745.0688 646.43701 3702.019 6709846
2771.7021 647.53546 3708.3098 6578003
2797.5825 648.44214 3713.502 5591107
2835.2847 652.05334 3734.1826 5261886
2877.5481 656.64954 3760.5042 5393217
2909.4585 658.83069 3772.9954 4603701
2911.8613 654.34772 3747.3223 4933179
2918.0144 650.76904 3726.8276 5130817
2899.7773 641.84546 3675.7239 5788747
2937.7507 645.40393 3696.1028 5328453
2996.3032 653.3974 3741.8799 5262660
3022.1467 654.19312 3746.4368 4999488
3040.1292 653.28796 3741.2529 4538939
3048.1194 650.26416 3723.9365 4802110
3044.571 644.84003 3692.8735 3486249
3061.373 643.77271 3686.7612 4867903
3078.1167 642.70831 3680.6658 3025698
3106.979 644.17151 3689.0449 4078130
3124.4309 643.26508 3683.854 4604220
3178.1396 649.78406 3721.187 4341560
3215.8074 652.95618 3739.353 5196869
3223.2146 649.9826 3722.324 5723213
3189.9211 638.89764 3658.8428 4999492
3224.0076 641.36664 3672.9819 5393996
3251.2842 642.45673 3679.2249 3815733
3287.9185 645.36926 3695.9041 4671042
3304.4316 644.3197 3689.8936 5657936
3295.1279 638.2832 3655.324 6118487
3339.3228 642.62079 3680.1641 6447451
3377.2922 645.71185 3697.8662 5065800
3365.4175 639.29462 3661.1162 4934471
3429.8242 647.3573 3707.2896 4605249
3378.6584 633.64258 3628.7478 5263178
3479.2788 648.3877 3713.1902 3881526
3539.8367 655.52844 3754.084 5263178
3550.0925 653.32306 3741.4541 5000008
3551.123 649.45776 3719.3181 5131595
0 0 0 0
0 0 0 0
0 0 0 0
0 0 0 0
0 0 0 0
0 0 0 0
-3399.7534 682.37225 3779.5835 2170918
-3341.8062 675.18829 3739.7925 1052691
-3356.092 682.6001 3780.8457 4407623
-3384.4775 692.99866 3838.4419 2368296
-3374.4104 695.61096 3852.9114 1513247
-3375.0488 700.48083 3879.885 3552830
-3373.8206 705.02734 3905.0679 3289404
-3355.6384 706.0694 3910.8396 2434352
-3354.7727 710.79492 3937.0137 2368560
