# .PCD v0.7 - Point Cloud Data file format
VERSION 0.7
FIELDS x y z rgb
SIZE 4 4 4 4
TYPE F F F U
COUNT 1 1 1 1
WIDTH 1348
HEIGHT 1
VIEWPOINT 0 0 0 1 0 0 0
POINTS 1348
DATA ascii
5570.5762 776.677 7957.5542 9084604
5572.5781 770.43616 7893.6123 9150141
5698.8193 781.33289 8005.2563 9150142
5678.1309 772.07129 7910.3657 9150142
5682.9941 766.40723 7852.334 9084606
5737.2314 767.43964 7862.9116 9084350
5780.6558 767.02069 7858.6191 9084350
5957.2847 784.14178 8034.0361 9084349
6076.4746 793.49084 8129.8232 9150142
6117.7524 792.59888 8120.6846 9018556
5892.5044 757.45996 7760.6631 9018556
5899.8857 752.53711 7710.2256 9018556
6303.979 797.90228 8175.021 8952764
6284.0459 789.31537 8087.0425 8952764
6292.6382 784.41431 8036.8276 8952761
6177.4399 764.27136 7830.4507 8886968
6235.876 765.75073 7845.6074 9083576
6231.9536 759.60736 7782.6646 8952247
6376.5283 771.52142 7904.7319 8951990
6613.0439 794.30499 8138.1646 8951990
6914.2822 824.47644 8447.29 8951990
7863.7593 930.95642 9538.2461 8951733
7272.3994 854.8056 8758.0312 8951219
7362.5767 859.2746 8803.8193 8358567
7680.4077 890.06299 9119.2666 7436694
7578.1904 872.08301 8935.0498 5528442
7839.7246 895.92194 9179.2949 3094099
7946.2749 901.84283 9239.958 659502
7850.4438 884.87115 9066.0723 1250604
7957.9272 890.89105 9127.751 1579835
8022.9365 892.10693 9140.208 2041157
8029.6133 886.86371 9086.4873 2238278
7913.0542 868.16962 8894.9551 2040898
7911.3184 862.23724 8834.1738 2106691
7995.1934 865.6521 8869.1611 2106691
8097.3833 870.99243 8923.876 2107204
8371.7666 894.6651 9166.418 2041411
8434.3057 895.53955 9175.377 2106947
8242.6807 869.58887 8909.4961 2041156
8349.7158 875.276 8967.7646 1909570
8564.7305 892.13898 9140.5361 1843776
8603.8574 890.58386 9124.6025 1777983
8666.2969 891.44611 9133.4375 1777725
8917.3506 911.57892 9339.7109 1711932
0 0 0 0
0 0 0 0
0 0 0 0
0 0 0 0
0 0 0 0
-3951.6375 451.82996 4364.3809 4605770
-3900.554 448.92642 4336.3345 4144705
-3800.0332 440.25674 4252.5913 2565674
-3790.7051 442.10709 4270.4644 1315607
-3791.7722 445.20282 4300.3672 1184021
-3704.7556 437.92838 4230.1006 2565419
-3710.4902 441.59329 4265.5015 1710110
-3690.1667 442.186 4271.2266 1184023
-3672.5674 443.11554 4280.2056 1447196
-3635.7146 441.71893 4266.7148 5000017
-3615.9031 442.38757 4273.1733 2565675
-3617.5376 445.70801 4305.2466 1907746
-3609.918 447.92728 4326.6836 1578522
-3591.9302 448.8826 4335.9111 1841695
-3605.1602 453.78107 4383.2271 1841694
-3631.3037 460.38788 4447.0444 1710108
-3588.1323 458.23898 4426.2881 1446935
-3586.4778 461.39963 4456.8174 1381142
-3595.5137 465.99265 4501.1831 1973535
-3509.3179 458.21973 4426.1021 1578265
-3480.6687 457.90033 4423.0166 1183763
-3484.1196 461.83105 4460.9849 789004
-3466.605 463.02155 4472.4844 1381140
-3466.5095 466.57492 4506.8076 3157551
-3458.9055 469.16498 4531.8257 4670791
-3376.9529 461.63214 4459.0635 2697000
-3408.957 469.68121 4536.8125 3486771
-3364.9045 467.29602 4513.7729 2236449
-3370.3459 471.80109 4557.2886 1775899
-3368.9746 475.41739 4592.2202 2499623
-3381.8728 481.12274 4647.3301 2828588
-3369.4722 483.29309 4668.2939 3223344
-3342.7568 483.42917 4669.6084 3749689
-3287.8811 479.46091 4631.2778 3683895
-3303.7888 485.83493 4692.8462 4605000
-3234.6323 479.70187 4633.605 4012864
-3200.2756 478.66888 4623.627 2631212
-3135.6355 473.04947 4569.3472 2697004
-3132.6516 476.71481 4604.752 3157555
-3074.9087 472.03824 4559.5796 4276036
-3007.7002 465.8129 4499.4468 3223348
-3059.9956 478.14966 4618.6118 5262931
-3045.4763 480.1745 4638.1704 4933966
-3049.9639 485.26022 4687.2954 2894384
-3070.1165 492.95474 4761.6191 3815485
-2999.3162 486.05264 4694.9492 4078914
-2984.5122 488.18069 4715.5049 4341573
-3044.6289 502.7196 4855.9414 2105126
-2986.0256 497.74628 4807.9023 1183763
-2911.8533 490.05692 4733.6279 3157815
-2883.7017 490.03842 4733.4497 4211016
-2865.5422 491.73428 4749.8306 1973798
-2904.1733 503.30588 4861.6045 2434346
-2861.926 500.9523 4838.8701 1908001
-2823.4658 499.22067 4822.144 2631468
-2830.4175 505.56503 4883.4263 1315865
-2827.3701 510.23602 4928.5449 986642
-2786.6606 508.1369 4908.269 855058
-2796.8401 515.37073 4978.1431 920085
-2753.0344 512.70502 4952.394 855059
-2756.0686 518.79889 5011.2568 1052182
-2731.3113 519.73718 5020.3198 1841954
-2724.7034 524.18768 5063.3091 2763057
-2651.2815 515.7403 4981.7124 2170921
-2625.1108 516.39771 4988.063 3092022
-2603.6885 518.01483 5003.6831 2565677
-2589.1697 521.05853 5033.0835 3947331
-2558.9692 520.98041 5032.3291 2105128
-2551.5388 525.59094 5076.8638 3881795
-2557.5923 533.12219 5149.6104 3947590
-2531.9446 534.1474 5159.5132 2631730
-2513.8816 536.81726 5185.3027 4276301
-2482.7876 536.73621 5184.5195 3026490
-2469.3479 540.51752 5221.0444 3881800
-2455.1338 544.22296 5256.8369 3223867
-2413.4075 541.84674 5233.8843 3487036
-2366.4973 538.2298 5198.9463 1907747
-2280.8875 525.59955 5076.9463 2302504
-2233.2048 521.48828 5037.2349 3618364
-2202.5603 521.29828 5035.3994 2763056
-2262.0337 542.72491 5242.3667 3750209
-2213.552 538.48602 5201.4214 2829104
-2189.4858 540.15076 5217.502 4013129
-2174.8257 544.21704 5256.7793 3092543
-2169.4626 550.76166 5319.9961 4539990
-2144.3826 552.4198 5336.0127 3553351
-2111.3794 552.05603 5332.4985 4013646
-2081.9302 552.62457 5337.9902 4869211
-2061.9814 555.77124 5368.3853 4802903
-2026.0728 554.6474 5357.5298 5790568
-1999.8082 556.16998 5372.2368 4080978
-1988.9285 562.08972 5429.4175 10332594
-1873.3688 538.13416 5198.0229 12308180
-1823.0414 532.42944 5142.9189 12177106
-1807.7528 536.93793 5186.4683 12176850
-1772.1312 535.45862 5172.1792 12111569
-1752.0994 538.7207 5203.6885 11914450
-1725.0345 539.8985 5215.0649 11913680
-1702.2715 542.49005 5240.0977 11650765
-1675.3525 543.82892 5253.0303 11453129
-1645.4762 544.24036 5257.0044 11387336
-1621.7886 546.75403 5281.2847 11189703
-1595.0326 548.31177 5296.3315 11320774
-1558.1361 546.37616 5277.6353 10991036
-1511.9879 541.05066 5226.1943 10662324
-1456.0779 531.93634 5138.1558 8818832
-1382.1843 515.72272 4981.543 7830645
-1349.7955 514.62585 4970.9478 7895920
-1327.0897 517.25409 4996.335 7764335
-1300.2802 518.36627 5007.0781 7895663
-1279.8285 522.12421 5043.377 7830126
-1253.1725 523.47015 5056.3779 7435112
-1208.2648 517.07123 4994.5688 8093043
-1199.1724 526.06287 5081.4219 7303524
-1149.0497 517.0545 4994.4072 8093040
-1129.9889 521.91681 5041.374 8751225
-1109.9059 526.55817 5086.2061 8750969
-1082.1511 527.71729 5097.4028 8487540
-1043.7111 523.5827 5057.4653 8882297
-1025.8262 529.82007 5117.7144 9211518
-988.27765 525.97223 5080.5464 9408127
-944.22742 518.3136 5006.5693 8420718
-931.33307 527.81531 5098.3491 8354925
-876.31439 513.28058 4957.9531 8158830
-876.34827 531.10162 5130.0933 7895402
-825.19574 518.06787 5004.1953 8750454
-796.53265 518.70789 5010.3779 8816247
-758.90173 513.33154 4958.4458 10132108
-734.71649 516.98328 4993.7192 9342591
-699.0376 512.51465 4950.5552 9013624
0 0 0 0
0 0 0 0
0 0 0 0
0 0 0 0
0 0 0 0
0 0 0 0
0 0 0 0
0 0 0 0
-473.38156 557.62823 5386.3228 9144950
-426.70407 538.97498 5206.1445 8026470
-396.84619 540.31549 5219.0928 6776404
-367.89941 543.22772 5247.2231 7697507
-335.6311 541.32037 5228.7998 7499873
-309.58417 550.07953 5313.4072 7236704
-278.08203 550.03143 5312.9429 7434339
-245.06592 546.59436 5279.7427 7039839
-219.35838 560.83746 5417.3218 6447958
-186.48691 558.50739 5394.8145 7895147
-156.92694 567.18219 5478.6074 7171426
-124.41257 566.91852 5476.0605 7105632
-90.843224 559.96582 5408.9023 7960941
-57.761314 550.07739 5313.3862 8026990
-24.699436 516.92291 4993.1357 7171681
0 0 0 0
0 0 0 0
0 0 0 0
13.514601 74.618942 720.77002 5529699
0 0 0 0
21.920925 74.166641 716.40106 1551
26.135698 74.08345 715.59747 1294
30.36932 74.069443 715.46222 521
0 0 0 0
0 0 0 0
0 0 0 0
371.7699 581.88336 5620.6108 8750710
403.98743 580.33148 5605.6216 9210491
436.71021 579.68616 5599.3882 9342334
476.74002 588.14655 5681.1094 8092009
518.78809 597.81671 5774.5171 7499614
559.01349 604.32019 5837.3364 7565407
571.91113 582.24432 5624.0977 6446925
605.56952 582.57135 5627.2573 6907479
641.2478 584.70612 5647.8774 7697252
674.50989 584.53522 5646.2266 6315600
711.94574 587.82654 5678.0186 6447188
743.73816 586.37152 5663.9644 6249809
804.56836 606.94763 5862.7158 7105118
838.64349 606.4726 5858.127 7631462
863.99066 599.97437 5795.3589 7828841
933.89362 623.73096 6024.8315 6776153
968.29785 622.90222 6016.8267 6381396
1004.5325 623.26801 6020.3599 6841947
1028.0134 615.96692 5949.8364 6512725
1025.4958 594.08856 5738.5059 6578519
1109.104 621.90747 6007.2178 6249556
1152.8185 626.32251 6049.8643 6512729
1218.079 641.82416 6199.6001 5460559
1244.9404 636.77759 6150.8535 3948106
1247.3203 619.85199 5987.3633 5397876
1335.6218 645.38025 6233.9497 12046545
1353.1313 636.24799 6145.7383 12047054
1406.0701 643.81689 6218.8486 11913419
1484.1312 662.20862 6396.5005 11978186
1488.6818 647.70123 6256.3691 11847115
1525.5439 647.61554 6255.541 10859978
1485.7094 615.74713 5947.7134 4344419
1471.1193 595.5755 5752.8682 26
1531.7208 606.06897 5854.2285 28
1569.3157 607.19611 5865.1157 30
1608.9283 609.03821 5882.9097 1061
1659.6139 614.90479 5939.5767 30
1701.265 617.24994 5962.2295 24
1758.1353 624.90918 6036.2124 19
1782.0615 620.78687 5996.394 790035
1788.9572 611.00903 5901.9463 7040882
1837.0789 615.41675 5944.5215 7040361
1939.6713 637.56281 6158.4385 6513502
2021.9086 652.32416 6301.0229 7105636
2092.1418 662.74762 6401.707 6184277
0 0 0 0
0 0 0 0
0 0 0 0
0 0 0 0
0 0 0 0
1227.9255 350.82437 3388.7332 328240
1240.8788 348.8222 3369.3936 42
1294.1562 358.03946 3458.426 32
1315.8889 358.37833 3461.6995 25
1341.3563 359.70828 3474.5459 21
0 0 0 0
0 0 0 0
0 0 0 0
2542.9939 642.50964 6206.2212 5855315
2609.1602 649.83173 6276.9478 6908256
2607.6426 640.3277 6185.1455 6710105
2647.8491 641.1908 6193.4824 5920590
2709.5117 647.15509 6251.0933 5920846
2710.7847 638.72913 6169.7041 6446934
2825.668 656.94073 6345.6162 6907486
2872.7388 659.1153 6366.6211 7236966
2877.281 651.60229 6294.0508 6644571
2939.0806 657.08246 6346.9854 6512729
3010.3242 664.50879 6418.7188 7039073
3015.6846 657.38812 6349.9375 6710878
3062.2378 659.31171 6368.5186 5789776
3084.875 656.10205 6337.5151 5921362
3121.3459 655.87646 6335.3359 6579292
3144.6079 652.91357 6306.7163 6776671
3218.6362 660.43707 6379.3887 6645085
3233.8945 655.86676 6335.2427 6514014
3314.2932 664.46106 6418.2573 7040102
3428.7273 679.60638 6564.5513 6382172
3476.2192 681.2923 6580.8359 6645345
3564.9246 690.92847 6673.915 7434861
3674.5212 704.35785 6803.6343 7960948
3651.2009 692.29376 6687.103 6579551
3690.8167 692.29376 6687.103 6579550
3867.5481 717.73962 6932.8936 6382171
3804.1633 698.55817 6747.6138 5790034
3877.6868 704.65479 6806.5024 5921620
3895.813 700.66266 6767.9409 7566702
4005.4404 713.04065 6887.5049 7961204
3918.1504 690.46771 6669.4648 6119001
3912.2246 682.54065 6592.8945 6513761
4054.0581 700.29395 6764.3799 7105899
4222.4424 722.24127 6976.3765 7566707
4200.8481 711.58258 6873.4209 7172206
4304.9858 722.22186 6976.189 6974570
4431.2046 736.32794 7112.4448 7106155
4491.2334 739.27325 7140.894 7632501
4528.1992 738.40271 7132.4858 7764344
4750.4795 767.48767 7413.4272 7435380
4684.749 749.93506 7243.8804 7106158
4679.2407 742.25385 7169.6851 7040625
4710.3926 740.47388 7152.4917 7895934
4848.8999 755.45148 7297.1655 7303800
4770.4648 736.66376 7115.688 7106680
4841.1245 741.02692 7157.8335 6382960
4879.8799 740.47314 7152.4849 5856876
4946.3359 744.09613 7187.48 5857136
4992.978 744.7019 7193.3315 5726068
5006.4053 740.38538 7151.6372 5923964
5030.7456 737.74176 7126.1011 8820397
5308.1904 771.95007 7456.5312 9018551
5221.7466 753.11157 7274.5635 9084345
5420.0366 775.3114 7488.999 9215675
5513.0293 782.21057 7555.6411 9150398
5581.5889 785.56 7587.9941 9084349
5561.4795 776.4762 7500.2505 9084349
5375.7388 744.59479 7192.2969 9084349
5560.0835 764.07233 7380.437 9150142
5667.0586 772.69653 7463.7417 9018813
5819.0654 787.27979 7604.606 9018814
5890.5088 790.823 7638.8315 8953020
5933.665 790.54346 7636.1313 8952764
5993.0352 792.41199 7654.1802 8886968
6036.5361 792.1701 7651.8433 8887225
6087.2817 792.87531 7658.6548 9018040
6151.5132 795.31366 7682.208 8952247
6178.0059 792.87286 7658.6313 9018040
6255.8428 797.00903 7698.584 8886454
6303.6011 797.28101 7701.2109 8951991
6284.9473 789.20947 7623.2461 8951991
6328.0459 788.95233 7620.7617 8886455
6381.2979 789.95569 7630.4536 8820662
6415.4019 788.59106 7617.2725 8623540
6822.4131 832.76385 8043.9521 8558005
6889.1562 835.07782 8066.3032 8558004
7130.4409 858.37134 8291.3037 8425903
7528.1802 900.05151 8693.9062 8162218
8388.4697 996.09082 9621.583 7240600
7978.1689 940.97552 9089.2061 6054785
7992.8359 936.3855 9044.8691 4606821
7963.4014 926.72443 8951.5498 2632518
7861.7437 908.84192 8778.8164 1843262
7799.1372 895.67926 8651.6738 1777725
7813.3271 891.45044 8610.8262 2106691
7783.8379 882.3252 8522.6826 2238020
7852.3716 884.35736 8542.3115 2106691
7897.8955 883.78864 8536.8184 2106691
7901.7324 878.59192 8486.6211 2041411
7926.8398 875.81104 8459.7598 2041411
7996.4419 877.95032 8480.4238 2041411
8079.9175 881.5766 8515.4512 2041410
8083.5947 876.50531 8466.4658 2107204
0 0 0 0
0 0 0 0
0 0 0 0
0 0 0 0
0 0 0 0
0 0 0 0
-3823.9128 465.29022 4251.1309 855058
-3811.6375 466.87143 4265.5776 3815486
-3770.1187 464.86792 4247.2725 1447451
-3778.9666 469.08963 4285.8442 1710366
-3718.2166 464.67065 4245.4702 1973539
-3640.5837 458.06729 4185.1382 1841953
-3617.7454 458.31503 4187.4019 2697262
-3620.2803 461.80273 4219.2676 2302504
-3620.623 465.0574 4249.0039 1644574
-3571.3242 461.93674 4220.4917 723469
-3567.5188 464.69788 4245.7188 920850
-3543.5178 464.84894 4247.0991 2960175
-3544.676 468.32623 4278.8696 2105123
-3566.1392 474.55566 4335.7847 1446936
-3545.7332 475.26343 4342.251 2236452
-3506.7832 473.47772 4325.936 2104865
-3503.5417 476.52258 4353.7554 1578520
-3496.0647 479.03214 4376.6841 1710107
-3488.521 481.57007 4399.8721 789262
-3436.1465 477.91095 4366.4404 1381142
-3411.0103 478.01346 4367.377 2499622
-3430.3533 484.39844 4425.7134 2368036
-3385.6743 481.77164 4401.7134 2039071
-3348.6799 480.20609 4387.4097 2302243
-3330.9758 481.40384 4398.353 1710106
-3307.4097 481.76663 4401.668 1775641
-3293.0645 483.48907 4417.4048 4210499
-3262.6753 482.86456 4411.6992 2894639
-3302.4814 492.70255 4501.584 3355191
-3320.9053 499.48471 4563.5493 4078914
-3335.9785 505.87009 4621.8896 3092017
-3324.6887 508.33041 4644.3682 1315605
-3231.5144 498.20749 4551.8799 394505
-3223.7256 501.189 4579.1206 4868174
-3194.2446 500.8201 4575.75 4275780
-3110.917 491.93002 4494.5259 4604745
-3064.6411 488.79605 4465.8921 1775901
-3118.5513 501.72583 4584.0254 2960176
-3063.5991 497.21472 4542.8096 4605259
-3034.7876 496.90378 4539.9688 4605515
-2953.9639 487.9949 4458.5723 5526361
-3019.4048 503.30621 4598.4644 5066069
-3000.2454 504.66577 4610.8862 5855585
-2969.7537 504.12671 4605.9609 3816002
-2956.4658 506.52509 4627.874 4210761
-2922.2322 505.34622 4617.103 3487038
-2908.0354 507.64282 4638.0859 4408140
-2889.8501 509.28033 4653.0469 5066072
-2858.1938 508.55246 4646.397 4605521
-2820.823 506.78381 4630.2378 3158075
-2831.3767 513.67505 4693.1992 3158070
-2828.2798 518.20178 4734.5581 5395289
-2788.9558 516.11523 4715.4941 3552572
-2772.6113 518.28192 4735.2905 3420985
-2784.0303 525.73584 4803.3931 2565935
-2742.0942 523.164 4779.8955 3815746
-2720.4753 524.45526 4791.6934 4868433
-2720.3147 529.95422 4841.9346 3749698
-2745.1094 540.48376 4938.1377 2434351
-2740.8721 545.46246 4983.6255 2631217
-2675.0432 538.15881 4916.8955 3091512
-2673.8003 543.83057 4968.7158 2433838
-2608.5261 536.46014 4901.376 2894644
-2550.47 530.42493 4846.2354 2828851
-2563.2151 539.14465 4925.9028 3421246
-2512.6814 534.60187 4884.3975 4079176
-2526.1929 543.73828 4967.873 3684674
-2467.2336 537.30768 4909.1196 4342606
-2502.3145 551.44775 5038.3105 3026490
-2509.439 559.69397 5113.6519 2434611
-2455.1624 554.27972 5064.1846 3684678
-2436.9119 556.96545 5088.7227 3948106
-2398.8967 555.14459 5072.0864 1052952
-2345.9153 549.77008 5022.9824 5527392
-2366.9673 561.83032 5133.1709 2434349
-2272.9939 546.54639 4993.5288 1907746
-2236.7798 544.93085 4978.7686 328710
-2194.5769 541.79364 4950.1055 657672
-2156.7222 539.65948 4930.6064 1512985
-2163.647 548.82532 5014.3506 3552571
-2114.0798 543.71735 4967.6812 2500142
-2125.4131 554.349 5064.8179 3421760
-2098.6553 555.20819 5072.6675 6316400
-2120.2383 569.06683 5199.2871 5658726
-2056.1755 560.00806 5116.5215 4672344
-2047.6724 566.03644 5171.6001 5264226
-1994.3739 559.67719 5113.499 5724778
-1991.5513 567.50519 5185.0195 5133409
-1900.1116 549.93085 5024.4512 11252925
-1803.4614 530.2652 4844.7759 12833237
-1832.0283 547.37592 5001.1079 12504786
-1829.64 555.64832 5076.689 12439506
-1802.9041 556.67944 5086.1099 12242386
-1775.1354 557.42133 5092.8882 12242387
-1762.679 563.08032 5144.5913 11913681
-1729.3866 562.16541 5136.2324 11584975
-1699.2551 562.26361 5137.1294 11387338
-1673.7892 563.93726 5152.4209 11124166
-1642.3978 563.63971 5149.7021 11189963
-1621.8068 567.10736 5181.3848 11124424
-1591.5319 567.25732 5182.7549 11256007
-1555.0707 565.16492 5163.6377 10992063
-1509.4922 559.60846 5112.8711 9872036
-1444.4662 546.46716 4992.8052 7436914
-1393.0503 538.03302 4915.7461 8159093
-1345.8544 530.90332 4850.606 7830126
-1336.6847 538.79016 4922.6641 8027249
-1301.1255 536.15448 4898.583 7961713
-1274.0437 536.97144 4906.0474 7632490
-1243.9132 536.51172 4901.8472 8158835
-1223.5791 540.35626 4936.9727 7303525
-1177.2618 532.63342 4866.4131 8290163
-1150.5807 533.62988 4875.5171 7500902
-1116.4976 531.15631 4852.9175 8882555
-1093.1893 533.81354 4877.1948 9079677
-1066.3302 534.83398 4886.5181 8421747
-1045.0928 538.80963 4922.8418 7434852
-1018.5976 540.2251 4935.7744 8618869
-980.11017 535.17603 4889.6436 8092525
-952.89423 536.16144 4898.647 7433825
-930.02679 539.73248 4931.2734 8026218
-890.96899 533.83447 4877.3862 7105117
-871.24365 539.51251 4929.2642 7434081
-843.35681 540.35522 4936.9634 8289388
-812.02765 538.97369 4924.3408 8420974
-772.39111 531.76978 4858.522 8947318
-744.91431 532.70386 4867.0562 9210490
-709.47717 527.79132 4822.1729 8684402
-655.8252 508.34772 4644.5264 8684399
0 0 0 0
0 0 0 0
0 0 0 0
0 0 0 0
0 0 0 0
0 0 0 0
0 0 0 0
0 0 0 0
-444.11838 553.09442 5053.355 7631198
-412.16269 550.39893 5028.728 7565407
-377.12988 542.85419 4959.7949 6907477
-350.50934 547.1665 4999.1943 7236698
-322.2265 549.44031 5019.9692 7828837
-295.65475 555.39087 5074.3364 7105116
-269.8269 564.24402 5155.2236 6644822
-238.83771 563.1864 5145.561 6841946
-209.57649 566.49023 5175.7461 7237218
-179.01733 566.81677 5178.7295 8355698
-147.9944 565.50623 5166.7559 8158321
-118.88411 572.72644 5232.7231 7368804
-88.623352 577.54291 5276.729 6776153
-57.159626 575.49713 5258.0376 7039325
-25.928434 573.69635 5241.585 7434596
0 0 0 0
0 0 0 0
0 0 0 0
13.586808 79.31044 724.62097 9543581
0 0 0 0
21.90353 78.348534 715.83252 1040
26.122583 78.283501 715.23834 1037
30.280363 78.078629 713.36652 266
0 0 0 0
0 0 0 0
323.63336 588.21124 5374.2007 9605760
361.30429 597.86328 5462.3867 9605502
390.18393 592.57703 5414.0884 9342331
423.27292 594.00098 5427.0986 8750194
456.30292 595.14697 5437.5688 7894631
502.60519 612.3111 5594.3892 7500129
530.18567 605.95428 5536.3101 7368543
560.04181 602.78754 5507.377 6381391
584.40796 594.38568 5430.6133 7039064
627.27203 604.69269 5524.7837 7631200
637.63293 584.19812 5337.5347 7828580
676.00854 590.09448 5391.4067 7762789
685.07587 571.02954 5217.2197 6841946
759.81604 605.98767 5536.6152 6315345
770.47278 589.05817 5381.9385 7105374
835.66895 613.51471 5605.3862 6973275
871.44708 615.32977 5621.9697 7170400
907.43909 617.15668 5638.6611 6907228
931.07751 610.75043 5580.1299 7236450
967.33185 612.77521 5598.6294 7565415
971.39777 594.95135 5435.7817 6841948
1037.2499 614.89923 5618.0356 6710362
1066.4445 612.55115 5596.5825 6315604
1118.0989 622.85638 5690.7363 6512725
1152.3497 623.14709 5693.3926 6052947
1236.3772 649.57324 5934.835 6645098
1305.9594 667.15839 6095.502 7567488
1349.6676 670.93494 6130.0068 6317677
1361.9606 659.30591 6023.7583 6448488
1372.3984 647.39569 5914.9399 7171438
1414.8213 650.79102 5945.9614 5987423
1457.9236 654.32629 5978.2617 4737613
1483.5063 650.01752 5938.894 3224113
1492.5758 638.84039 5836.7744 2895401
1498.1315 626.69958 5725.8501 1118477
1562.4132 639.11884 5839.3188 2236960
1584.8994 634.27356 5795.0493 1842977
1634.4557 640.23743 5849.5386 3159094
1689.5936 648.09467 5921.3262 3619386
1735.339 652.10272 5957.9458 5922138
1742.7922 641.84851 5864.2583 5329997
1764.6497 637.19629 5821.7534 6513757
1800.822 637.79236 5827.1992 6053205
1890.3383 656.90332 6001.8066 5987411
0 0 0 0
0 0 0 0
0 0 0 0
0 0 0 0
0 0 0 0
1196.2147 373.53561 3412.8135 31
1217.7681 373.94559 3416.5593 37
1240.3325 374.64755 3422.9729 40
1265.6759 376.15283 3436.7256 41
1291.5951 377.77887 3451.582 33
1311.9886 377.76318 3451.439 31
1335.6266 378.66785 3459.7041 30
1359.5219 379.61697 3468.376 31
1382.2977 380.22995 3473.9766 25
0 0 0 0
0 0 0 0
0 0 0 0
2556.604 663.71979 6064.0854 5920843
2582.427 661.13361 6040.4565 5262912
2564.8989 647.67126 5917.458 5394497
2629.8848 655.12701 5985.5771 6381137
2653.1921 652.13995 5958.2861 5065278
2693.064 653.24939 5968.4224 6183762
2746.4053 657.55493 6007.7603 6446935
2811.0442 664.42065 6070.4888 6644057
2836.5239 661.97418 6048.1362 6710622
2908.6216 670.3324 6124.5015 6513499
2963.9648 674.67096 6164.1411 6447706
2947.2136 662.69318 6054.7061 6316120
2973.8765 660.64795 6036.0195 5855569
3027.2388 664.51215 6071.3252 5592140
3073.5977 666.7663 6091.9199 5723982
3099.1426 664.50525 6071.2622 6710881
3058.3247 648.23016 5922.5645 7105382
3077.0701 644.80585 5891.2778 6908260
3153.2732 653.36365 5969.4663 6645088
3197.9163 655.26483 5986.8364 5395276
3303.1179 669.39691 6115.9546 5724241
3300.9146 661.69214 6045.5601 5394762
3437.1013 681.59644 6227.4155 5460812
3468.4175 680.50238 6217.4199 5987158
3581.0671 695.22113 6351.8979 6316122
3615.9597 694.69525 6347.0933 5723728
3676.9846 699.14905 6387.7852 6250586
3592.196 676.06915 6176.916 6250586
3703.0398 689.90259 6303.3047 7763826
3744.0496 690.57904 6309.4854 7105896
3775.9536 689.57922 6300.3501 6250587
3896.7395 704.67194 6438.2456 6974567
3962.8572 709.68207 6484.0205 6842980
4088.1282 725.08765 6624.7734 7106153
4145.2251 728.22345 6653.4243 7237741
4211.603 732.91541 6696.2925 6842983
4200.5747 724.17499 6616.4351 7698292
4232.0264 722.85205 6604.3481 7500912
4434.978 750.578 6857.6665 7369329
4501.2119 754.8725 6896.9033 7435122
4522.394 751.60236 6867.0254 7632248
4565.9688 752.07886 6871.3794 7764860
4550.9917 742.98779 6788.3188 7830397
4557.9443 737.60498 6739.1382 7961982
4660.8813 747.71368 6831.4966 7698811
4634.439 737.07153 6734.2646 7435896
4663.3164 735.33423 6718.3916 7304054
5081.2046 794.4483 7258.4878 7501432
5064.4731 785.18744 7173.876 7567224
4741.0874 728.93323 6659.9092 6581103
4815.1372 734.20825 6708.104 7041915
4902.8442 741.46234 6774.3813 8293276
4888.106 733.23145 6699.1797 8031137
5075.8369 755.25958 6900.4399 9412793
5095.2554 752.0918 6871.4976 9215674
5225.2134 765.16119 6990.9062 9018811
5354.0972 777.86896 7107.0112 9084606
5238.5728 755.14673 6899.4092 9018557
5466.0508 781.83765 7143.271 8953020
5503.7368 781.18024 7137.2642 8952763
5577.4346 785.60516 7177.6929 8887227
5505.9893 769.67383 7032.1357 8952764
5646.7749 783.42633 7157.7861 8953020
5607.625 772.19592 7055.1792 8886970
5656.8481 773.21106 7064.4541 8887227
5764.6367 782.15753 7146.1934 8886971
5745.8794 773.92877 7071.0112 8887227
5860.0591 783.59521 7159.3286 9083837
5944.6338 789.19238 7210.4673 9018043
5997.2539 790.49774 7222.394 9018043
6039.5142 790.42889 7221.7646 8886457
6065.5503 788.25244 7201.8799 8886455
6220.6313 802.7594 7334.4233 8755382
6278.6392 804.62488 7351.4673 8755126
6400.7539 814.62372 7442.8208 8623795
6619.7305 836.72876 7644.7842 8689331
6668.5195 837.16803 7648.7983 8755124
6878.0859 857.64941 7835.9258 8689327
7022.3477 869.76752 7946.6436 8623280
6324.0396 778.06104 7108.7661 8623279
7964.8232 973.44781 8893.9199 8557230
7943.9141 964.51178 8812.2764 8030372
7724.5669 931.75641 8513.0059 7240085
7795.2134 934.17871 8535.1377 5792126
7723.4839 919.61761 8402.0996 3291991
7755.4922 917.51556 8382.8945 1054516
7598.0977 893.17548 8160.5112 789793
7901.4072 922.95776 8432.6172 1316403
7822.9658 908.05402 8296.4482 1777728
7854.6191 906.03558 8278.0078 2106692
7942.7803 910.52026 8318.9814 2106691
0 0 0 0
0 0 0 0
0 0 0 0
0 0 0 0
0 0 0 0
-3867.4023 492.8074 4271.3477 1381401
-3805.9607 488.17221 4231.1729 1447194
-3834.7231 495.12241 4291.4126 1841695
-3806.7104 494.78586 4288.4956 3289398
-3732.4216 488.3895 4233.0562 1184022
-3659.9465 482.14557 4178.9375 1381401
-3618.7085 479.95963 4159.9912 1644574
-3604.8198 481.396 4172.4409 1644572
-3577.6077 481.06073 4169.5347 1118228
-3552.791 481.04507 4169.3994 657679
-3549.7261 483.995 4194.9673 657679
-3549.0933 487.3205 4223.7905 2828847
-3554.4639 491.52344 4260.2188 3223606
-3501.4514 487.65524 4226.6919 3552827
-3492.5806 489.92337 4246.3506 3157812
-3548.1987 501.33627 4345.2705 5789275
-3479.0085 495.15253 4291.6738 3486777
-3458.8066 495.90134 4298.1641 4078914
-3466.4214 500.67905 4339.5742 4276293
-3454.0986 502.62689 4356.457 6184291
-3452.4495 506.16895 4387.1572 4868944
-3405.9285 503.13611 4360.8706 4079429
-3399.4592 506.01871 4385.855 4473932
-3335.0562 500.25568 4335.9048 3881537
-3292.0959 497.64459 4313.2734 6513258
-3279.2661 499.58292 4330.0737 6776687
-3265.6802 501.43567 4346.1323 6250343
-3152.0635 487.83643 4228.2622 4671055
-3135.1467 489.10513 4239.2588 4144710
-3137.1492 493.36969 4276.2212 2960434
-3179.2063 504.05426 4368.8286 3157813
-3140.7039 502.03683 4351.3428 5723483
-3143.384 506.6236 4391.0977 5460568
-3219.4751 523.21735 4534.9219 7368566
-3115.8079 510.63077 4425.8296 4736844
-3135.9307 518.29004 4492.2153 3223607
-3054.7522 509.19452 4413.3809 6973558
-3007.4473 505.63712 4382.5474 7829381
-2962.9885 502.50037 4355.3604 8684947
-2976.0237 509.14474 4412.9497 5394784
-2978.2739 514.04541 4455.4258 3947335
-2909.9775 506.74863 4392.1816 3223606
-2887.4375 507.36017 4397.4819 2697004
-2962.3186 525.25684 4552.5991 4210501
-2925.9727 523.57922 4538.0586 4605259
-2877.9167 519.75562 4504.918 3420983
-2881.4509 525.26489 4552.6689 3684157
-2852.4143 524.88477 4549.3745 4012865
-2832.4319 526.17944 4560.5957 1776673
-2805.7058 526.23419 4561.0703 3815487
-2795.4631 529.41168 4588.6108 2894385
-2794.094 534.34857 4631.4004 591626
-2724.478 526.20227 4560.7935 1118229
-2701.2842 526.94849 4567.2612 197380
-2701.6257 532.34741 4614.0557 2631468
-2705.9292 538.64532 4668.6421 2499885
-2699.6035 542.93567 4705.8281 1579039
-2681.052 544.83093 4722.2554 3947590
-2694.1775 553.27148 4795.4126 2302767
-2690.3359 558.37036 4839.6064 4671571
-2649.1895 555.75323 4816.9229 4474450
-2561.5698 543.22363 4708.3242 4145998
-2622.6157 562.29236 4873.5996 3685191
-2549.3767 552.67419 4790.2354 3684933
-2524.9956 553.55042 4797.8306 3092540
-2536.9487 562.50287 4875.4248 2303282
-2485.5823 557.46045 4831.7197 2500659
-2466.7051 559.67194 4850.8877 3552836
-2463.3923 565.50861 4901.4766 4342865
-2451.3821 569.46411 4935.7603 4277072
-2425.5134 570.25684 4942.6313 3027005
-2394.1704 569.76624 4938.3789 5329760
-2358.4543 568.20978 4924.8887 5461346
-2332.4333 568.97949 4931.5601 3816518
-2305.9741 569.66046 4937.4619 3487036
-2308.4385 577.59589 5006.2412 2236967
-2267.0613 574.62549 4980.4956 2039332
-2200.0728 564.99945 4897.0635 2105124
-2152.7415 560.23193 4855.7412 3026226
-2129.2117 561.61316 4867.7134 2500136
-2117.3904 566.16309 4907.1489 7500407
-2083.8308 564.94617 4896.6016 3092280
-2052.3472 564.26575 4890.7041 3223867
-2048.4265 571.25232 4951.2593 3026489
-2032.099 574.9317 4983.1499 3224384
-2018.0273 579.36719 5021.5942 3882313
-1958.3317 570.64105 4945.9614 4869461
0 0 0 0
-1908.1591 573.17303 4967.9072 12767445
-1856.4807 566.38568 4909.0786 12570577
-1840.3805 570.40948 4943.9541 12439249
-1826.6053 575.29572 4986.3047 12110541
-1804.7053 577.74139 5007.5029 11716042
-1786.7927 581.56683 5040.6587 11387336
-1754.6782 580.82117 5034.1963 11320776
-1723.0933 580.22815 5029.0562 10992583
-1692.5914 579.98529 5026.9517 11058121
-1674.2441 583.97333 5061.5171 10992328
-1644.814 584.17053 5063.2266 10992328
-1607.5468 581.53998 5040.4268 11189194
-1582.9392 583.47638 5057.2095 10267831
-1548.5602 581.8161 5042.8193 9674663
-1505.1368 576.62555 4997.8311 8488584
-1372.5868 536.39667 4649.1523 7567214
-1351.8668 539.11749 4672.7349 8158836
-1345.906 547.96106 4749.3853 8685180
-1318.5573 548.28864 4752.2241 8027249
-1292.3306 549.10724 4759.3193 8093041
-1281.5874 556.68793 4825.0244 7566697
-1245.0468 553.15314 4794.3872 8026734
-1224.2645 556.61798 4824.418 8092783
-1200.0767 558.66302 4842.1436 8224369
-1154.2405 550.4837 4771.25 8421748
-1123.2531 549.15326 4759.7183 6842460
-1108.0417 555.66565 4816.1641 8355699
-1071.3489 551.46503 4779.7554 8619126
-1046.6925 553.40002 4796.5269 8487540
-1026.7413 558.00031 4836.3989 8750712
-1001.9943 560.18335 4855.3203 8816505
-960.26276 552.71936 4790.627 8948091
-939.27966 557.10706 4828.6572 8224625
-898.14447 549.44238 4762.2241 8289388
-884.83282 558.85358 4843.7949 7499873
-865.00879 564.64471 4893.9888 7170908
-825.19684 557.33765 4830.6558 8092010
-794.25201 555.70966 4816.5449 9079159
-761.84149 552.89648 4792.1626 9671296
-721.31897 543.75055 4712.8911 8750193
-710.99207 557.54688 4832.4692 8355180
-661.54407 540.53577 4685.0273 8289897
0 0 0 0
0 0 0 0
0 0 0 0
0 0 0 0
0 0 0 0
0 0 0 0
0 0 0 0
0 0 0 0
-436.5209 573.0578 4966.9082 9408121
-402.39993 566.44751 4909.6143 7697248
-374.96222 568.948 4931.2871 7631200
-346.11313 569.54865 4936.4927 7236955
-316.53412 568.94806 4931.2876 6578514
-289.22583 572.72186 4963.9961 7236701
-264.16068 582.29449 5046.9663 6644564
-232.89865 578.90741 5017.6089 6381650
-204.99084 584.08643 5062.4976 6645080
-174.22935 581.51611 5040.2197 6842971
-145.71498 586.93384 5087.1768 8223856
-114.58169 581.87738 5043.3506 5855050
-85.720108 588.85944 5103.8667 6776152
-56.040356 594.76788 5155.0776 6512980
-25.533089 595.52777 5161.6636 7303009
0 0 0 0
0 0 0 0
0 0 0 0
13.577452 83.545692 724.12201 778
0 0 0 0
21.886875 82.526489 715.28821 782
26.105354 82.466316 714.76666 1035
30.317959 82.406967 714.25226 265
0 0 0 0
0 0 0 0
306.0372 586.33679 5082.002 9210746
342.91013 598.13873 5184.2939 10658191
372.6174 596.52875 5170.3398 8815987
404.90466 598.97998 5191.5854 7368027
439.54913 604.32593 5237.9209 5920581
468.87729 602.13959 5218.9712 6512461
503.84341 607.01624 5261.2388 7631453
533.47498 605.27216 5246.1221 6512974
560.15948 600.56049 5205.2842 7499614
604.66516 614.45007 5325.6704 6973272
632.60205 610.96014 5295.4219 6973271
658.16016 605.61108 5249.0596 7039065
684.24182 601.20471 5210.8682 6315342
723.20416 608.00775 5269.8325 6446925
752.82385 606.71826 5258.6562 5525822
785.99591 608.2804 5272.1958 5525822
824.35138 613.58136 5318.1411 5393983
866.30737 621.07324 5383.0762 5131069
906.8847 627.07983 5435.1377 5459778
938.92859 626.97626 5434.2397 5328193
936.51282 604.63171 5240.5713 6315600
972.37769 607.64282 5266.6699 5657670
1018.8936 616.91571 5347.041 5854793
1050.4473 616.84326 5346.4131 4012848
1088.189 620.30243 5376.395 4933695
1100.4196 609.43616 5282.2134 6644570
1196.2633 644.19733 5583.501 6974049
1236.8237 648.11829 5617.4854 7171424
1254.0607 639.93201 5546.5322 6908253
1310.3264 651.57123 5647.4141 6842461
1343.54 651.45349 5646.3931 6842204
1395.9254 660.41156 5724.0361 6710876
1394.733 644.1983 5583.5098 7105892
1449.5648 654.01312 5668.5786 6974306
1462.7968 645.03949 5590.8008 7040099
1524.2601 657.26074 5696.7266 7039841
1534.9672 647.54041 5612.4766 5658186
1577.0326 651.18054 5644.0273 5328966
1602.2142 647.84277 5615.0977 6052688
1592.6306 630.86963 5467.9849 6316117
1646.6989 639.28418 5540.917 6184531
1704.5869 648.82373 5623.6001 5855567
1751.3577 653.84717 5667.1401 6908254
1765.6301 646.77692 5605.8594 7368289
0 0 0 0
0 0 0 0
0 0 0 0
0 0 0 0
1174.1837 393.14697 3407.553 18
1193.0385 392.7084 3403.7517 23
1220.0717 394.93173 3423.0222 31
1241.5312 395.30774 3426.2812 33
1265.8992 396.5827 3437.3318 39
1291.8604 398.30859 3452.291 37
1312.8423 398.46939 3453.6846 35
1336.162 399.32391 3461.0908 33
1358.2128 399.77914 3465.0366 31
1381.1243 400.47034 3471.0276 23
1405.7136 401.62067 3480.9976 14
0 0 0 0
0 0 0 0
2444.9875 669.09967 5799.3394 6250063
2500.2539 674.74255 5848.2485 7104604
2481.7207 660.58722 5725.5586 5460292
2492.4841 654.50659 5672.8555 5920330
2581.9236 668.97266 5798.2383 6117453
2599.0425 664.56665 5760.0498 5394499
2660.3562 671.42896 5819.5278 5723208
2677.979 667.22986 5783.1328 5327937
2647.1045 651.20618 5644.2495 4736059
2855.2346 693.64557 6012.0879 4276020
2872.7622 689.30511 5974.4673 5526087
2896.5417 686.55219 5950.6069 6184019
2913.9246 682.36749 5914.3364 5921617
2923.1348 676.39111 5862.5371 6974048
2941.3762 672.62042 5829.855 7171940
2953.2395 667.49561 5785.436 7829614
2917.1143 651.76636 5649.105 5658445
3014.5974 665.90717 5771.6689 6381913
3035.844 663.07965 5747.1611 6908257
3033.2168 655.15808 5678.502 6908257
3139.2634 670.62573 5812.5664 6974049
3186.8789 673.41089 5836.7065 7368808
3277.1902 685.0614 5937.6855 6579290
3348.3845 692.51062 6002.251 5394246
3446.3005 705.27179 6112.8564 5592137
3325.8704 673.54852 5837.8989 4999743
3374.8872 676.44122 5862.9712 5723722
3439.1448 682.29846 5913.7383 5987153
3474.2769 682.31769 5913.9048 6645342
3543.2812 688.9223 5971.1494 6842210
3595.1108 692.09003 5998.6055 5789779
3651.0176 695.97302 6032.2607 7105639
3704.5017 699.32336 6061.2993 6842210
3884.8699 726.33215 6295.395 6776417
3890.2432 720.42065 6244.1572 6052951
4009.3865 735.49066 6374.7749 6316124
3964.0342 720.38562 6243.854 6185050
4031.6721 725.90387 6291.6826 6711395
4179.0981 745.55518 6462.0078 6645604
4204.3354 743.24908 6442.02 6842984
4286.6172 750.97809 6509.0103 7106412
4243.5449 736.80414 6386.1597 7303534
4262.3164 733.52374 6357.7271 7106154
4352.1372 742.42096 6434.8428 7040363
4465.5146 755.14722 6545.146 7369584
4445.0107 745.20905 6459.0083 7106928
4611.4463 766.51361 6643.6626 7172466
4640.1475 764.75714 6628.4385 7040880
4653.2051 760.47351 6591.311 7040880
4672.7388 757.31085 6563.8984 7369845
4758.4062 764.83008 6629.0708 7435638
4721.1689 752.6333 6523.3564 7238517
4768.2012 753.95929 6534.8496 6448744
4872.7251 764.28149 6624.3159 5461853
4836.4829 752.53619 6522.5151 6711921
4893.2734 755.33783 6546.7979 8291216
4924.3726 754.16077 6536.5957 8818333
4968.1675 754.93134 6543.2744 7635088
5080.0674 765.95856 6638.8516 7635608
5066.4355 758.03442 6570.1704 8952501
5214.8066 774.2851 6711.021 8953019
5287.895 779.19653 6753.5903 8953018
5367.3394 784.96368 6803.5767 9018555
5356.6196 777.55701 6739.3799 8952762
5436.6587 783.33667 6789.4746 8887227
5516.3271 788.97858 6838.3745 9018556
5585.063 792.98584 6873.1074 9083579
5575.9751 785.96533 6812.2583 9083579
5634.606 788.52264 6834.4233 9017787
5734.4438 796.76892 6905.8965 9017786
5757.9863 794.37256 6885.1265 9017787
5909.2485 809.50629 7016.2964 9083832
6071.8418 825.96985 7158.9927 8821176
6087.813 822.39813 7128.0347 8821175
6185.6016 829.85199 7192.6406 8821432
6318.1265 841.83228 7296.4775 8689589
6344.5332 839.60645 7277.186 8623796
6372.6533 837.63599 7260.1069 8624051
6414.9609 837.54425 7259.3115 8558514
6498.6377 842.81885 7305.0288 8689073
6573.6265 846.90442 7340.4404 8623281
6658.4072 852.1897 7386.249 8623537
6834.5732 869.02551 7532.1719 8557487
6738.5186 851.25421 7378.1416 8491953
6723.6611 843.90326 7314.4282 8359853
7141.3091 890.58368 7719.0249 8228011
7689.9731 952.90503 8259.1875 8096168
8033.9292 989.23218 8574.0488 7766944
7861.5942 961.93042 8337.4141 6779023
7829.6943 952.04584 8251.7402 5002610
7740.123 935.3147 8106.7256 3553873
0 0 0 0
0 0 0 0
0 0 0 0
0 0 0 0
0 0 0 0
0 0 0 0
-3776.7568 509.30051 4198.7065 1907745
-3774.4116 512.3587 4223.9185 1381401
-3728.24 509.46878 4200.0938 2697261
-3721.1416 511.91531 4220.2632 1447451
-3609.1311 499.86465 4120.9165 1777442
-3604.8965 502.67838 4144.1133 3948354
-3582.738 503.01419 4146.8818 6186084
-3548.583 501.65875 4135.7075 3355447
-3492.8926 497.21893 4099.105 4013632
-3473.356 497.89941 4104.7153 2763307
-3390.8945 489.5058 4035.5176 3881534
-3492.8142 507.79904 4186.3281 6644839
-3490.4004 511.077 4213.3521 5394773
-3439.0818 507.18982 4181.3057 5592154
-3405.6467 505.90277 4170.6953 1973539
-3344.5715 500.46106 4125.8335 4144710
-3334.9673 502.69766 4144.2725 2631728
-3384.219 513.90497 4236.666 6710636
-3330.7222 509.56042 4200.8491 4605261
-3305.2949 509.47711 4200.1626 1184022
-3327.554 516.79865 4260.5215 4802638
-3277.2542 512.87695 4228.1909 4671053
-3239.1367 510.81598 4211.2002 6973810
-3240.9683 515.07196 4246.2866 4671310
-3159.2373 506.01044 4171.583 3750209
-3128.9841 505.11609 4164.21 2828595
-3113.7405 506.64987 4176.8545 3486526
-3113.2317 510.62497 4209.6255 5065557
-3117.4075 515.4389 4249.3115 3881284
-3116.085 519.41455 4282.0874 3618365
-3068.6838 515.71179 4251.5615 6315877
-3105.2964 526.18359 4337.8916 4605260
-3088.0718 527.63147 4349.8281 5197396
-3017.8357 519.96991 4286.6655 3815743
-3014.0933 523.7323 4317.6831 2697520
-3005.1646 526.65027 4341.7388 5395036
-2925.2366 517.0686 4262.7471 4802899
-2931.72 522.72729 4309.3979 4803416
-2958.793 532.18884 4387.3994 4079693
-2928.9758 531.49469 4381.6768 4737622
-2892.3572 529.54291 4365.5864 1842473
-2885.1584 532.99078 4394.0107 2895159
-2865.9045 534.25415 4404.4263 3749954
-2869.6194 539.86194 4450.6567 4144709
-2802.7595 532.17322 4387.271 3355449
-2857.3306 547.61322 4514.5591 2828848
-2805.4824 542.75671 4474.522 3223605
-2805.7881 547.99365 4517.6953 2170917
-2722.6902 536.88525 4426.1167 1776159
-2642.3066 526.10114 4337.2119 1315608
-2633.717 529.54034 4365.5649 1644573
-2625.0281 533.02747 4394.3135 855055
-2634.2993 540.26807 4454.0049 2105380
-2668.4917 552.81781 4557.4663 1118229
-2632.9246 551.02484 4542.6846 1644317
-2538.8835 536.83081 4425.668 2697522
-2574.3789 550.01599 4534.3677 1776422
-2620.3486 565.74072 4664.0029 7303550
-2588.728 564.87006 4656.8257 2829626
-2586.4758 570.45801 4702.8931 2829883
-2526.8633 563.37885 4644.5317 3816521
-2517.4106 567.45032 4678.0972 4277072
-2491.1418 567.77972 4680.813 3487556
-2467.1047 568.63092 4687.8306 3290177
-2419.0032 563.89185 4648.7612 2961212
-2433.334 573.76489 4730.1548 2895676
-2430.9792 579.88763 4780.6313 4013130
-2379.1506 574.21411 4733.8584 3619142
-2381.1094 581.54187 4794.269 4343121
-2381.6042 588.68469 4853.1548 3947593
-2390.2695 598.04626 4930.332 3355456
-2327.5034 589.54626 4860.2578 4473677
-2259.6667 579.53284 4777.7065 1118489
-2258.6973 586.63226 4836.2344 2368810
-2259.5588 594.39581 4900.2378 3684670
-2218.2651 591.12775 4873.2959 3684669
-2177.1521 587.82233 4846.0454 4802896
-2113.5735 578.28192 4767.3936 6184551
-2076.3396 575.7887 4746.8394 5987174
-2096.5249 589.36853 4858.7925 4276555
-2097.5955 597.87811 4928.9458 6579568
-2040.7183 589.87793 4862.9922 5987688
-1989.8347 583.40594 4809.6367 6185325
-1972.2471 586.6499 4836.3804 7305863
-1961.3282 592.00244 4880.5063 12438483
-1892.4019 579.7442 4779.4492 12439765
-1876.0546 583.46606 4810.1323 12308433
-1858.6887 586.9812 4839.1108 12045520
-1847.7247 592.65973 4885.9253 11650507
-1821.614 593.58344 4893.5405 11387080
-1795.5881 594.565 4901.6328 11189449
-1764.0583 593.72656 4894.7202 11057609
-1732.5542 592.86877 4887.6484 10992329
-1701.1366 592.01184 4880.5845 10992329
-1686.8666 597.19623 4923.3242 10926536
-1652.1249 595.18781 4906.7671 10926537
-1617.4598 593.13562 4889.8486 10926536
-1594.7979 595.49048 4909.2622 10992071
-1558.3431 592.68695 4886.1499 10202037
-1508.5703 584.61627 4819.6143 8950418
-1436.6257 567.47607 4678.3096 7830388
-1351.9425 544.53076 4489.147 7763305
-1325.9803 544.79065 4491.2896 8487027
-1335.1199 559.77832 4614.8491 7960941
-1309.2054 560.38831 4619.8774 7895407
-1285.6226 562.04358 4633.5239 7764077
-1264.6902 564.95514 4657.5269 8422005
-1256.3763 573.75916 4730.1079 8027247
-1221.9486 570.76715 4705.4414 8026734
-1186.2205 567.01392 4674.4995 7960941
-1154.4286 565.00769 4657.96 7698025
-1129.5906 566.38995 4669.3555 7763305
-1097.0924 563.9043 4648.8638 7895403
-1079.5027 569.15094 4692.1177 8355954
-1048.1703 567.23779 4676.3452 8684919
-1021.3897 567.75098 4680.5757 9277056
-981.54254 560.82678 4623.4927 9277056
-955.63525 561.69873 4630.6807 8882297
-933.0719 564.64563 4654.9756 9013883
-909.61652 567.21588 4676.1646 8290418
-874.90485 562.70789 4639.0005 8420974
-850.93329 565.03925 4658.2202 8420976
-825.77551 566.71277 4672.0171 9539455
-785.74023 557.93823 4599.6792 9276284
-758.51971 557.95953 4599.855 7763042
-736.42609 561.89435 4632.2935 7828321
-704.70416 558.50293 4604.3345 7828578
-659.28546 543.54614 4481.0298 8157801
-652.42688 560.45892 4620.46 7829090
0 0 0 0
0 0 0 0
0 0 0 0
0 0 0 0
0 0 0 0
0 0 0 0
0 0 0 0
0 0 0 0
-430.06433 593.57153 4893.4424 8881266
-396.13666 586.26385 4833.1973 8683887
-363.93118 580.56476 4786.2134 7433821
-340.47131 589.03284 4856.0254 7631199
-302.3107 571.28375 4709.7007 6775890
-280.68683 584.3526 4817.4409 7828577
-254.08188 588.83618 4854.4038 7500128
-223.19777 583.28162 4808.6113 7434080
-197.34698 591.17963 4873.7236 7697252
-170.81525 599.39532 4941.4541 7368288
-141.31036 598.41882 4933.4038 8881271
-111.70808 596.41302 4916.8677 7302494
-84.182564 607.99127 5012.3193 6842197
-54.210968 604.89514 4986.7949 7828837
-24.849543 609.34509 5023.4805 7763816
0 0 0 0
0 0 0 0
9.1627445 86.654861 714.38831 1549
13.412016 86.765305 715.29883 1811
17.653711 86.785484 715.46515 1299
21.911034 86.859787 716.07776 1041
26.127506 86.774323 715.37317 779
30.386938 86.835472 715.87732 7
0 0 0 0
0 0 0 0
0 0 0 0
328.79492 602.96625 4970.8931 9144692
358.73145 603.78735 4977.6621 7697245
393.88486 612.59729 5050.292 6907985
428.02386 618.69714 5100.5796 6907730
454.31812 613.40088 5056.9165 7828832
485.04559 614.37506 5064.9482 6973268
506.31354 603.95203 4979.02 7170906
540.99097 609.7915 5027.1611 6775636
586.16229 626.23285 5162.7041 7236444
618.74689 628.26306 5179.4419 7039065
646.59351 625.51807 5156.8115 6644307
657.54614 607.41473 5007.5664 6052169
685.85468 606.21484 4997.6748 5327673
716.89722 607.43097 5007.7002 5065014
765.13879 622.54401 5132.2935 5064756
794.70184 621.88525 5126.8628 5788994
835.62671 629.83887 5192.4326 6973270
850.1225 618.01434 5094.9507 6907736
889.69214 624.60382 5149.2744 6710358
890.16815 604.22058 4981.2339 6315344
928.36725 609.92932 5028.2969 6249808
958.30829 610.02631 5029.0962 6841945
1016.0754 627.29639 5171.4722 5591878
1058.2689 634.22229 5228.5698 6973789
1073.2848 624.92975 5151.9614 6447445
1097.3654 621.28326 5121.8994 7236962
1159.6826 638.89844 5267.1206 7170912
1191.4552 639.20374 5269.6372 6841949
1204.1931 629.54224 5189.9873 7302500
1257.8359 641.21411 5286.2109 6447447
1283.0128 638.16022 5261.0347 6644570
1291.1797 626.99115 5168.9561 6381654
1349.6031 640.17871 5277.6748 6711133
1415.2367 656.11163 5409.0269 6579548
1454.8925 659.56219 5437.4736 7303271
1455.17 645.39825 5320.7051 7500649
1513.2207 656.91516 5415.6514 6645594
1527.7251 649.44226 5354.0439 6974045
1549.6749 645.37396 5320.5049 6053199
1631.7192 665.99579 5490.5127 6250321
1660.5066 664.49921 5478.1748 6710875
1683.6252 660.83514 5447.9678 6118481
0 0 0 0
0 0 0 0
0 0 0 0
0 0 0 0
0 0 0 0
1152.5836 405.73044 3344.8682 10
1197.2889 414.3439 3415.8782 20
1216.5148 414.00003 3413.043 28
1222.2045 409.13605 3372.9443 131628
1248.4415 411.19623 3389.9287 39
1286.5824 417.0499 3438.1865 37
1310.6873 418.24213 3448.0154 35
1332.0101 418.52368 3450.3364 32
1353.1327 418.73471 3452.0762 28
1375.1636 419.21634 3456.0469 20
1402.2145 421.1918 3472.3325 11
0 0 0 0
0 0 0 0
2350.4329 676.25159 5575.062 6973788
2368.9463 672.13348 5541.1118 5065535
2387.1919 668.05286 5507.4712 6315602
2454.4976 677.62677 5586.3989 6381394
2489.4224 678.12506 5590.5073 6710360
2496.2131 671.04724 5532.1572 6315089
2533.7109 672.30084 5542.4917 6184016
2572.3887 673.83124 5555.1089 6117710
2603.5068 673.36786 5551.2886 6380883
2682.895 685.24481 5649.2031 5789258
2724.2961 687.24634 5665.7036 5130814
2738.4082 682.39874 5625.7397 4604727
2718.511 669.29474 5517.7095 5394499
2773.2942 674.66992 5562.0225 5789257
2806.8701 674.82019 5563.2617 5986894
2857.4851 679.01593 5597.8516 6579290
2850.6721 669.62561 5520.437 6513497
2883.2244 669.59027 5520.1455 7171173
2906.7214 667.47638 5502.7188 6908257
2953.3257 670.65668 5528.9375 6447706
2952.1121 663.02765 5466.043 6579292
3024.5312 671.92212 5539.3696 6842464
3062.1467 672.97681 5548.0649 6776669
3125.5999 679.62726 5602.8916 5592395
3195.9778 687.62775 5668.8481 5395016
3208.2273 683.08539 5631.4004 5921360
3256.3877 686.2038 5657.1089 6446677
3327.6458 694.07642 5722.0112 5920590
3335.0334 688.60266 5676.8853 5196868
3365.125 687.87909 5670.9199 5394247
3467.5645 701.81256 5785.7886 6184019
3420.5164 685.51422 5651.4238 6711391
3581.906 710.90033 5860.7085 6052693
3639.634 715.42285 5897.9927 5592144
3661.7412 712.92419 5877.3936 6184024
3718.9956 717.2511 5913.0645 6250071
3745.7119 715.66266 5899.9692 6447705
3756.5178 711.09167 5862.2861 6250073
3796.7656 712.12671 5870.8188 6381915
3901.665 725.15906 5978.2583 6250329
3944.9966 726.61688 5990.2769 6842209
4018.7229 733.59717 6047.8228 6447965
4077.0776 737.67285 6081.4229 6448223
4161.4829 746.34918 6152.9512 7303532
4135.937 735.32666 6062.0811 6842724
4263.0986 751.4101 6194.6733 6645604
4302.6021 751.90021 6198.7144 7237741
4390.5894 760.78314 6271.9458 6974569
4434.457 761.93628 6281.4521 7040362
4472.731 762.11707 6282.9429 7500913
4497.4941 760.01184 6265.5869 7435120
4575.8506 766.92334 6322.5659 7435119
4620.2583 768.07898 6332.0933 7303537
4605.9995 759.54169 6261.7109 7632501
4739.4873 775.31 6391.7061 7303026
4839.0688 785.32568 6474.2764 7566454
4811.9922 774.79041 6387.4224 7763833
4832.1567 771.96655 6364.1426 6514538
4979.2002 789.29919 6507.0342 7501436
5017.9468 789.33032 6507.2905 8357264
5047.3354 787.90009 6495.499 7042179
4992.0005 773.36597 6375.6797 8293535
5036.5151 774.40289 6384.228 9083826
5134.0835 783.52094 6459.3975 9215415
5139.5557 778.5531 6418.4424 9149624
5252.1426 789.76508 6510.8745 8952504
5295.415 790.46674 6516.6592 8952248
5336.3809 790.81647 6519.5425 9017784
5437.6724 800.03674 6595.5552 9018041
5519.4463 806.27441 6646.9785 8952249
5569.5981 807.83704 6659.8613 8952248
5651.6743 813.97565 6710.4678 9083578
5617.8701 803.45532 6623.7383 8886969
5749.2344 816.53925 6731.603 8886968
5813.3325 819.95532 6759.7646 8821175
5873.2773 822.74274 6782.7446 8755639
5981.4888 832.20752 6860.7734 8886968
6006.3818 830.03082 6842.8286 8755893
6175.1401 847.63098 6987.9248 8755892
6160.7217 840.02026 6925.1821 9017781
6299.7109 853.28937 7034.5728 8886452
6354.1323 855.00458 7048.7134 8886452
6321.2739 845.02966 6966.48 8820661
6355.4087 844.08191 6958.6665 8952246
6455.9521 851.90948 7023.1973 8886454
6515.4448 854.25452 7042.5303 8886454
6457.7681 841.30511 6935.7739 8885943
6466.5068 837.11725 6901.249 8820406
6478.6304 833.41736 6870.7471 8689334
6697.9204 856.2475 7058.96 8623025
7428.5479 943.75684 7780.3931 8491696
0 0 0 0
0 0 0 0
0 0 0 0
0 0 0 0
0 0 0 0
0 0 0 0
-3751.8274 530.64862 4170.9917 3618363
-3728.9988 530.9165 4173.0972 2894640
-3694.0942 529.45715 4161.6265 2631468
-3670.2371 529.57214 4162.5303 2434089
-3591.0789 521.65546 4100.3042 1381402
-3585.3113 524.36462 4121.5986 3355191
-3481.7056 512.70361 4029.9407 4736845
-3466.2236 513.948 4039.7219 5197396
-3491.4495 521.28741 4097.4111 5526872
-3434.551 516.38239 4058.8567 5131859
-3412.2905 516.65271 4060.9814 5000530
-3384.2483 516.04517 4056.2061 4539979
-3376.75 518.58405 4076.1621 5790046
-3429.9031 530.54102 4170.146 6842477
-3402.7061 530.15277 4167.0942 6381926
-3367.3091 528.47192 4153.8823 7105394
-3359.071 531.06006 4174.2256 5394775
-3318.8762 528.5968 4154.8643 2631469
