# .PCD v0.7 - Point Cloud Data file format
VERSION 0.7
FIELDS x y z rgb
SIZE 4 4 4 4
TYPE F F F U
COUNT 1 1 1 1
WIDTH 1442
HEIGHT 1
VIEWPOINT 0 0 0 1 0 0 0
POINTS 1442
DATA ascii
-16.6549 167.09286 733.07092 7897214
-12.829552 174.11652 763.88519 18
-8.3136139 174.31552 764.75824 784
-3.7871614 174.50667 765.59686 1551
0.74866712 174.56717 765.8623 1549
5.2901287 174.70984 766.48822 1291
9.8519373 175.08232 768.12238 1031
14.401876 175.07512 768.09076 13226948
19.008999 175.59962 770.39185 13356982
23.644247 176.13055 772.72119 13356461
28.291573 176.56461 774.62549 13158310
32.859745 176.45247 774.13348 13289130
0 0 0 0
0 0 0 0
0 0 0 0
0 0 0 0
54.528027 172.45969 756.61633 660796
59.269745 173.21764 759.94165 528690
67.856316 184.31204 808.61505 462634
72.746735 184.56573 809.72809 272
77.83284 185.25381 812.74683 66055
82.718292 185.41197 813.44073 4144953
0 0 0 0
0 0 0 0
0 0 0 0
461.16504 838.33612 3677.9541 7828062
488.6102 848.15424 3721.0283 6775372
499.82751 830.17175 3642.1353 5065012
517.05432 823.24573 3611.7493 7104595
549.60822 840.30383 3686.5869 6511945
579.40881 852.00952 3737.9421 5525308
604.48071 856.15594 3756.1333 5722687
610.34406 833.76776 3657.9116 6643532
628.14301 828.66058 3635.5054 6051652
652.93439 832.81079 3653.7131 6446410
688.02795 849.41333 3726.5522 4341034
703.38812 841.37897 3691.3035 5985602
730.12787 847.03052 3716.0979 6972754
758.42175 854.1015 3747.1201 5788226
796.35919 871.32178 3822.6687 5788996
801.70435 852.91528 3741.9158 7959652
826.98608 856.13879 3756.0581 6512719
850.68323 857.59601 3762.4512 5854788
879.85822 864.36005 3792.1265 7170650
888.90619 851.5072 3735.7383 4539185
900.95764 842.08588 3694.405 7433819
922.01648 841.33063 3691.0918 7894372
965.97742 861.02429 3777.4915 6907476
983.88263 857.12708 3760.3938 5723202
999.91278 851.80518 3737.0454 8223334
1009.2071 841.09998 3690.0798 7302233
1052.4392 858.53369 3766.5649 5394237
1083.2064 865.28638 3796.1902 6907476
1108.2325 867.27148 3804.8992 6907734
1135.7776 871.10925 3821.7366 5920074
1140.7889 857.85229 3763.5754 2433309
1139.662 840.57605 3687.7812 65539
1151.674 833.45837 3656.5542 7
1149.0903 816.23572 3580.9951 11
1156.5699 806.65619 3538.9675 13
1162.5134 796.36542 3493.8198 14
1175.9528 791.4798 3472.3855 16
1185.1102 783.92981 3439.2622 17
1187.803 772.43109 3388.8149 16
1216.0929 777.68372 3411.8594 264477
1206.0245 758.63586 3328.2925 22
1247.0963 771.85236 3386.2759 68130
1286.7643 783.79541 3438.6726 2567490
1287.2572 771.87561 3386.3782 2172473
1303.7034 769.74091 3377.0127 19
1319.3962 767.23273 3366.0085 19
1319.8887 756.09167 3317.1306 11715025
1346.0629 759.77344 3333.2832 24
1377.5222 766.2887 3361.8669 25
1401.4091 768.46588 3371.4187 25
1407.6667 761.05072 3338.887 27
1429.4425 762.11456 3343.5542 32
1444.9247 759.83984 3333.5745 30
1460.7861 757.82312 3324.7268 26
1478.387 756.75037 3320.0205 21
1469.4958 742.3233 3256.7261 17
1485.413 740.63977 3249.3398 2633017
1516.907 746.66675 3275.7815 6974054
1543.3123 750.0683 3290.7048 5196090
1773.0111 850.95557 3733.3181 6182986
1784.6716 845.99878 3711.5715 5919814
1803.8042 844.66156 3705.7048 5656641
1839.0209 850.79767 3732.6252 4538415
1865.4587 852.77466 3741.2991 5590849
1886.2791 852.16754 3738.6353 5130298
1896.2019 846.7085 3714.6851 7170140
1985.8734 876.57611 3845.7207 6709846
2035.3444 888.22278 3896.8171 5722951
2010.1975 867.41022 3805.5081 5920331
1999.9519 853.41803 3744.1213 6644566
2054.437 867.05151 3803.9343 5854794
2070.6016 864.39203 3792.2666 6578516
2129.0063 879.23389 3857.3809 6315342
2127.2039 869.1601 3813.1853 5261884
2136.6689 863.85364 3789.9048 5130298
2187.9199 875.37592 3840.4551 5130041
2180.0029 863.23181 3787.1765 5262141
2256.041 884.24084 3879.3474 5459775
2264.9956 878.79822 3855.4697 5393724
2293.2222 880.867 3864.5459 5919812
2314.3018 880.17676 3861.5176 4209195
2335.9888 879.72882 3859.5522 4472367
2318.2773 864.59595 3793.1614 4932661
2335.6042 862.6958 3784.825 5985605
2367.9346 866.32074 3800.728 6051400
2393.8044 867.53601 3806.0601 5854022
2479.0583 890.04919 3904.8298 5459263
2473.7324 879.92609 3860.4177 5788228
2544.585 896.83752 3934.6116 5722692
2582.3774 901.89557 3956.8027 4932920
2622.3818 907.62842 3981.9536 4209457
2613.5286 896.49957 3933.1292 4406575
2573.9763 875.13013 3839.377 4472882
2705.2173 911.69452 3999.7927 4603956
2742.833 916.34515 4020.1958 6051658
2750.1763 910.88892 3996.2583 4999228
2774.6675 911.1571 3997.4346 6051917
2818.7007 917.78363 4026.5068 5986124
2803.0796 905.03821 3970.5898 6249296
2849.9773 912.52264 4003.4255 6907225
2854.6108 906.46271 3976.8394 5657158
2869.385 903.6958 3964.7004 6117709
2933.2385 916.30542 4020.0217 5854279
2991.3865 926.94403 4066.6956 4801847
2990.7231 919.33447 4033.3105 5459263
3042.886 927.95514 4071.1313 5196091
3067.9548 928.24274 4072.3931 5722437
3075.49 923.26233 4050.5427 6051402
3061.0085 911.80072 4000.2583 6249038
3067.3303 906.66431 3977.7241 5327936
3087.0474 905.53564 3972.7722 5196093
3141.6587 914.58221 4012.4617 5459265
3129.6838 904.25433 3967.1511 5722437
3246.5955 931.04175 4084.6729 6248267
3280.9109 933.92157 4097.3071 4472370
3256.8208 920.25586 4037.3528 6051402
3244.1052 909.97992 3992.2703 5327422
3339.3901 929.92804 4079.7866 4866615
3340.353 923.51208 4051.6384 4603443
3315.8767 910.20459 3993.2559 5393472
3408.0215 928.87122 4075.1501 3880233
3388.7229 917.11456 4023.5715 4669749
3445.0298 925.84088 4061.8552 5129786
3449.9436 920.73016 4039.4338 4867642
3460.1965 917.10492 4023.5293 6051916
3419.5579 900.13324 3949.0706 5920330
3475.6787 908.68909 3986.6069 6841432
3543.0894 920.06122 4036.4988 5460035
3609.9917 931.14972 4085.1462 5328449
3686.3455 944.51208 4143.77 5789257
3635.0605 925.21069 4059.0906 6446674
3614.7778 914.00183 4009.915 5130815
3637.3845 913.7132 4008.6489 4736313
3633.4575 906.80621 3978.3467 4340786
3633.0222 900.85413 3952.2336 4932668
3679.8186 906.61505 3977.5078 5656391
3718.6401 910.35028 3993.8953 5722955
3745.4351 911.11267 3997.24 5920590
3803.5239 919.4303 4033.731 6381399
3924.6199 942.77972 4136.1694 5394248
3883.7024 927.16156 4067.6499 5460042
0 0 0 0
0 0 0 0
0 0 0 0
0 0 0 0
0 0 0 0
0 0 0 0
0 0 0 0
-2849.4304 745.72668 3188.7783 4079946
-2841.5017 748.61481 3201.1282 3356224
-2833.2944 751.46777 3213.3276 3882314
-2827.4304 754.98517 3228.3682 3290177
-2782.2915 747.9917 3198.4636 7566722
-2819.3003 763.13837 3263.2319 2895418
-2829.1382 771.08875 3297.2283 3553605
-2815.0439 772.5816 3303.6118 4079949
-2804.8232 775.16583 3314.6621 3816521
-2787.8638 775.91095 3317.8484 4342608
-2772.3562 777.07361 3322.8198 5132381
-2748.0139 775.75891 3317.1982 6185069
-2732.3452 776.89148 3322.041 5988202
-2717.9348 778.40082 3328.4951 5396066
-2723.4585 785.68292 3359.6338 7698818
-2691.8816 782.29047 3345.1274 6777716
-2649.2109 775.59973 3316.5176 7041144
-2645.8594 780.40637 3337.071 5133143
-2605.5266 774.29553 3310.9407 5264732
-2592.9814 776.41229 3319.9922 6383212
-2557.5205 771.64752 3299.6174 6382960
-2556.1885 777.18579 3323.2996 5000538
-2549.9714 781.31323 3340.949 4211278
-2529.9211 781.23364 3340.6086 4408144
-2521.6418 784.81635 3355.9285 4605266
-2514.1162 788.69232 3372.5024 5328988
-2479.2844 783.99579 3352.4197 2105387
-2448.6548 780.56293 3337.7405 2171946
-2433.8901 782.17255 3344.6233 4146510
-2469.9807 800.28613 3422.0781 6317679
-2445.821 799.01642 3416.6487 6449266
-2418.0459 796.53455 3406.0361 5396061
-2400.4792 797.40204 3409.7456 4145478
-2391.4268 801.13647 3425.7144 2435119
-2348.5359 793.50189 3393.0684 3487804
-2295.4255 782.25281 3344.9666 3421498
-2320.7317 797.76392 3411.293 4211013
-2289.7686 794.03479 3395.3472 3421496
-2292.061 801.8739 3428.8679 3618876
-2283.9878 806.19434 3447.3423 2895151
-2278.282 811.4361 3469.7561 3553081
-2245.5581 807.06281 3451.0557 3947583
-2206.8071 800.42303 3422.6636 3816254
-2192.5798 802.63751 3432.1328 1842208
-2193.8672 810.62604 3466.2922 2631981
-2183.2507 814.32556 3482.1118 3684669
-2149.5461 809.40198 3461.0581 2895154
-2162.8481 822.25409 3516.0146 1974051
-2169.8904 832.95325 3561.7649 3750208
-2139.7944 829.46631 3546.8547 1513247
-2104.5183 823.88232 3522.9771 3092279
-2104.5376 832.14227 3558.2974 4342346
-2091.7104 835.43866 3572.3928 3750465
-2077.1179 838.09003 3583.7302 2632498
-2080.5308 848.13605 3626.6877 2961464
-2047.486 843.37463 3606.3276 3816004
-2020.9513 841.22266 3597.1255 4869462
-2004.5673 843.29498 3605.9873 2566195
-1986.8831 844.85919 3612.6758 3158844
-1954.6594 840.20758 3592.7852 3356226
-1910.6344 830.32501 3550.5266 4212051
-1898.1006 834.06024 3566.4988 10332603
0 0 0 0
-1866.2051 838.71716 3586.4119 10597580
-1853.214 842.47021 3602.4602 10597835
-1848.7017 850.20996 3635.5559 10663114
-1830.4474 851.73785 3642.0894 10531527
-1808.4078 851.51984 3641.1572 10399940
-1780.9376 848.70856 3629.1357 10203075
-1763.1671 850.50757 3636.8284 10334149
-1742.1215 850.75159 3637.8721 10268613
-1716.7692 848.87219 3629.8357 10268357
-1694.0316 848.25452 3627.1943 10334405
-1666.901 845.39301 3614.9585 10465736
-1646.2971 845.81012 3616.7419 10465733
-1621.35 843.97742 3608.9053 10465733
-1598.1385 843.01135 3604.7742 10531526
-1574.6642 841.87854 3599.9302 10399940
-1549.0188 839.53802 3589.9219 10465731
-1522.0851 836.42419 3576.6072 10333628
-1490.8004 830.79785 3552.5486 10464953
-1470.8994 831.44519 3555.3164 9872041
-1435.3834 823.15643 3519.873 6646890
-1411.4935 821.38885 3512.3152 7106152
-1350.3118 797.54254 3410.3467 7368809
-1340.7159 803.90308 3437.5447 6644825
-1327.9397 808.52338 3457.3015 8552820
-1333.467 824.6073 3526.0774 5460544
-1301.0304 817.35291 3495.0569 8091750
-1280.0812 817.19733 3494.3916 7762785
-1257.6677 816.08649 3489.6418 7236953
-1236.5897 815.81946 3488.5 7236954
-1203.0015 807.1499 3451.4282 8092262
-1180.7781 805.9375 3446.2437 7763297
-1169.4509 812.25037 3473.2383 8157799
-1156.8279 817.87323 3497.282 7828577
-1134.3645 816.61737 3491.9116 8420714
-1122.9918 823.44702 3521.1157 8749679
0 0 0 0
-1075.8854 819.34485 3503.5745 7828831
-1035.5875 804.16986 3438.6853 8026211
0 0 0 0
-995.63831 804.81158 3441.4294 8091749
-934.74481 771.38483 3298.4941 5788993
-924.60333 779.30725 3332.3711 6512717
-917.02728 789.78491 3377.1741 6644305
0 0 0 0
0 0 0 0
0 0 0 0
0 0 0 0
0 0 0 0
0 0 0 0
0 0 0 0
0 0 0 0
0 0 0 0
0 0 0 0
0 0 0 0
0 0 0 0
0 0 0 0
0 0 0 0
0 0 0 0
0 0 0 0
0 0 0 0
0 0 0 0
0 0 0 0
0 0 0 0
0 0 0 0
0 0 0 0
0 0 0 0
-97.522491 176.30942 753.91113 8
-92.584389 175.41559 750.08905 11
-87.931381 174.99901 748.30774 11
-83.831917 175.69835 751.29816 11
-78.143501 172.95921 739.58539 10
-73.096947 171.39969 732.91681 10
0 0 0 0
-62.508316 166.33139 711.24438 4
0 0 0 0
-53.91444 165.81859 709.05164 4802632
-49.607815 165.4649 707.53925 12303543
-45.545795 165.93707 709.55829 11382952
-41.260441 165.60887 708.15491 10331035
-37.330799 166.79572 713.22986 10397085
-33.478134 168.67332 721.25873 10068121
-29.395287 169.77098 725.95233 10725541
-25.001213 169.13931 723.25128 11515573
-20.720282 169.17012 723.383 11187894
-16.679298 171.68687 734.14484 11254459
0 0 0 0
-8.11444 174.56139 746.43646 10861766
-3.7339203 176.52522 754.83392 6781061
0.74550706 178.34833 762.62964 1515559
5.288095 179.18179 766.1936 269
9.8213148 179.07449 765.7348 522
14.402397 179.63196 768.11853 13686991
18.937263 179.4837 767.48462 13291195
23.531412 179.84596 769.03363 13422004
28.135149 180.15207 770.34259 13618614
32.276489 177.8252 760.3927 12501419
0 0 0 0
0 0 0 0
0 0 0 0
46.494637 164.38702 702.93018 1187646
58.219299 188.92014 807.83545 726581
62.878998 188.54202 806.21863 791600
66.686783 185.84319 794.67816 17
72.140251 187.78406 802.97748 780
77.516853 189.29707 809.44727 1030
82.684784 190.15393 813.11121 3224624
0 0 0 0
0 0 0 0
0 0 0 0
449.26468 837.92957 3583.0442 8288869
472.01981 840.65161 3594.6836 7696474
493.19678 840.44922 3593.8184 7434075
504.2569 823.73712 3522.3562 7039318
523.70532 821.51141 3512.8391 6841681
549.10901 828.44067 3542.4688 6315081
565.31049 821.48749 3512.7366 6578510
584.53241 819.26123 3503.217 6775891
601.43762 814.05212 3480.9426 7038807
631.30298 826.14844 3532.6672 7696223
662.33252 838.94318 3587.3784 6906964
688.54077 845.02533 3613.386 8222568
704.34924 838.36218 3584.894 7433051
730.1991 843.6911 3607.6809 6774865
781.26837 877.02753 3750.2297 5394237
778.55035 849.81 3633.8457 4736311
812.73358 863.25214 3691.3254 6973273
825.54779 853.88733 3651.2808 7302239
858.60016 865.39911 3700.5059 6841944
857.64429 842.91364 3604.3564 8815733
878.82538 842.74866 3603.6511 7433823
894.66913 837.59479 3581.6128 8289133
938.44696 858.22589 3669.8328 8223596
970.01306 867.00775 3707.3845 7828581
980.60162 857.06598 3664.8726 7170648
998.62482 853.91205 3651.3862 6710097
1038.9424 869.55145 3718.2615 5788996
1064.3245 872.30048 3730.0166 4736311
1084.4084 870.68384 3723.1035 5986376
1090.8717 858.41345 3670.6348 6709847
1113.0243 858.72742 3671.9771 5526085
1154.0382 873.30231 3734.3005 4013109
1131.9746 840.49377 3594.0088 460550
1138.3331 829.6106 3547.4717 394506
1143.29 818.1189 3498.3325 10
1152.9983 810.37604 3465.2231 13
1165.9061 805.11334 3442.72 14
1173.9808 796.75159 3406.9644 14
1183.1301 789.38947 3375.4834 16
1197.5623 785.73816 3359.8701 15
1219.4111 786.9928 3365.2354 271
1213.6058 770.64679 3295.3386 4412257
1256.6307 785.33478 3358.1453 1319220
1263.3934 777.25598 3323.5999 4739943
1284.2463 777.96057 3326.6128 20
1316.0812 785.19592 3357.5515 19
1313.0092 771.69983 3299.8411 10462895
1324.0709 766.78479 3278.8242 17
1365.27 779.21234 3331.9653 1294
1394.8361 784.74084 3355.6057 13753820
1405.2069 779.46655 3333.0525 13358551
1427.8693 781.06195 3339.8743 13227481
1439.4982 776.66077 3321.0547 12964311
1456.1923 775.07446 3314.2712 12767195
1467.9641 770.94513 3296.614 12700376
1450.1704 751.60083 3213.8967 19
1491.0409 762.76868 3261.6511 1382948
1484.0183 749.46368 3204.7581 9934990
1490.4135 743.18542 3177.9119 4274733
1671.6371 823.15356 3519.8608 4143145
1698.6239 826.13702 3532.6187 4932917
1692.0897 812.94318 3476.2007 5854019
1764.8035 837.68256 3581.9878 6248777
1783.8639 836.66937 3577.6555 5920841
1824.9814 845.90381 3617.1426 5394496
1845.8599 845.65161 3616.0645 7499873
1874.7444 849.03113 3630.5151 7499361
1916.5311 858.11066 3669.3401 7038811
1957.0079 866.4068 3704.8149 6051916
2004.7019 877.67859 3753.0137 6117710
2016.39 873.1123 3733.4878 6117709
1980.9664 848.46655 3628.1013 7630949
2003.1732 848.7688 3629.3933 7499363
2073.981 869.4386 3717.7788 4539191
2130.0815 883.57343 3778.2207 5723208
2127.3511 873.26447 3734.1387 5986635
2141.5178 870.03259 3720.3188 7434080
2159.9658 868.58813 3714.1423 4340780
2190.6899 872.05963 3728.9866 4406572
2245.0852 884.79071 3783.4255 5919812
2262.9993 883.03479 3775.9172 6907221
2270.8535 877.42633 3751.9351 5656897
2283.8425 873.89142 3736.8193 6840914
2269.344 860.00745 3677.4507 6577743
2350.9326 882.45514 3773.4385 5788229
2340.5784 870.29309 3721.4329 5261627
2403.0396 885.17999 3785.0903 5590847
2424.2014 884.71948 3783.1213 6314570
2451.6328 886.53461 3790.8828 5919812
2489.9929 892.23279 3815.2485 6775377
2504.6921 889.42633 3803.2476 6182730
2510.8708 883.6712 3778.6384 6840919
2530.2749 882.6311 3774.1912 4407092
2619.8206 905.86243 3873.5298 4801850
2590.8979 888.08282 3797.5029 4999229
2568.144 872.70557 3731.7488 4801850
2728.0125 919.11993 3930.2195 6512980
2759.552 921.87793 3942.0129 6184016
2786.042 922.91699 3946.4561 6776409
2705.5205 888.78455 3800.5037 7434083
2805.605 914.05646 3908.5681 6973789
2821.7441 911.78943 3898.8738 7236960
2853.7488 914.64404 3911.0806 6906969
2914.7185 926.66156 3962.468 5722950
2929.7808 924.00842 3951.123 5854537
2946.6499 921.96271 3942.3755 5986123
2974.1006 923.23395 3947.8113 6380111
2981.6404 918.35272 3926.939 5130814
2976.2024 909.58081 3889.4299 5525572
2958.438 897.20557 3836.5122 7104604
2991.6938 900.3739 3850.0603 6249294
2971.1689 887.43097 3794.7156 7170397
3047.7363 903.46429 3863.2751 5788745
3078.0305 905.64368 3872.5945 6183245
3054.0684 891.94531 3814.019 5393474
3149.5085 913.0636 3904.3223 7367006
3154.1401 907.73987 3881.5576 5459009
3205.7366 915.9115 3916.5 5788230
3239.1599 918.81073 3928.8975 4867127
3275.4717 922.48212 3944.5967 5130300
3342.7866 934.77106 3997.1453 3419682
3314.9719 920.4726 3936.0037 3288096
3334.9224 919.54407 3932.0334 4669749
3271.4666 895.79022 3830.4604 5393987
3325.8103 904.39728 3867.2646 5393986
3366.0398 909.07477 3887.2656 4933435
3426.8076 919.19757 3930.5518 5657157
3470.6628 924.67786 3953.9858 6578260
3554.4929 940.66376 4022.3425 5525572
3553.9229 934.24976 3994.9158 4472370
3575.7712 933.77478 3992.885 5064250
3562.3721 924.16217 3951.7808 4801335
3554.0388 915.98071 3916.7964 4077612
3563.9319 912.57233 3902.2219 4406321
3574.7271 909.43732 3888.8164 4998458
3516.2461 888.83112 3800.7026 4735287
3527.5662 886.01892 3788.6777 4275247
3584.9465 894.73822 3825.9619 4340784
3576.9763 887.14014 3793.4717 5590851
3623.3142 893.02173 3818.6223 5064251
3617.9709 886.17194 3789.332 4801849
0 0 0 0
0 0 0 0
0 0 0 0
0 0 0 0
0 0 0 0
0 0 0 0
0 0 0 0
-2785.9136 747.57355 3117.697 2566190
-2713.4258 732.98163 3056.8425 526604
-2706.0762 735.90778 3069.0457 1710884
-2711.4771 742.36426 3095.9722 2960694
-2755.2231 759.47876 3167.3467 4342346
-2750.0437 763.24896 3183.0701 2236458
-2755.8115 770.13068 3211.7695 3816002
-2748.0295 773.2951 3224.9666 5592413
-2779.8711 787.73193 3285.1743 2763316
-2742.1008 782.50732 3263.3857 5132121
-2706.4595 777.82043 3243.8391 5921637
-2700.5947 781.68524 3259.9573 7370110
-2660.189 775.53595 3234.312 5593184
-2691.689 790.41248 3296.3535 5001050
-2668.4375 789.31116 3291.7603 3750471
-2674.1763 796.83203 3323.1255 2895163
-2639.8936 792.45062 3304.853 1513244
-2599.7014 786.21655 3278.8545 2104876
-2512.0835 765.43793 3192.199 1841694
-2556.2842 784.81421 3273.0061 3750210
-2503.9592 774.62543 3230.5146 1118487
-2483.3696 774.17303 3228.6279 3289659
-2489.2068 782.01581 3261.3357 6447724
-2505.2593 793.21564 3308.0439 6053224
-2484.7598 792.92786 3306.8438 5724516
-2472.1653 795.17816 3316.2283 5856101
-2455.6218 796.18414 3320.4236 5724004
-2440.7915 797.7663 3327.0217 3487810
-2392.8525 788.46472 3288.2302 4079436
-2388.4192 793.46344 3309.0771 3027260
-2381.3293 797.65515 3326.5581 5198943
-2385.6943 805.78577 3360.4663 5133150
-2372.0996 807.9361 3369.4341 4474961
-2344.6335 805.35822 3358.6833 3553601
-2315.9177 802.30334 3345.9431 1250584
-2281.3171 797.13947 3324.4075 5067351
-2253.3953 794.23956 3312.3137 2829621
-2231.2324 793.33649 3308.5476 2039588
-2221.6309 796.92328 3323.5061 4672085
-2233.9099 808.49304 3371.7571 4738133
-2223.3992 811.94934 3386.1711 7238008
-2173.3125 800.8844 3340.0256 2434346
-2183.9451 812.19733 3387.2053 2105638
-2165.106 812.65796 3389.1265 2960690
-2134.9492 808.83972 3373.2026 5066324
-2126.0044 813.06128 3390.8083 4080198
-2112.0181 815.41699 3400.6326 4014665
-2122.8105 827.47705 3450.928 2369583
-2135.0073 840.3241 3504.5059 2894900
-2115.1604 840.68768 3506.022 3355451
-2076.0002 833.30609 3475.2378 2236713
-2091.959 848.12299 3537.0303 1447197
-2071.8413 848.46545 3538.4587 1184536
-2051.7629 848.83118 3539.9841 986643
-2028.8033 848.00031 3536.5188 4539470
-2009.5977 848.73761 3539.5935 1907753
-1991.165 849.82025 3544.1086 3093052
-1992.3878 859.40417 3584.0779 2434867
-1962.5431 855.64954 3568.4192 4870493
-1972.8453 869.50732 3626.2122 10727618
-1896.9308 845.25293 3525.0613 10728649
0 0 0 0
-1860.7345 847.79095 3535.6455 10532042
-1838.6406 847.2619 3533.4395 10465735
-1819.9569 848.31024 3537.8115 10268613
-1798.2487 847.95691 3536.3379 10268356
-1772.3014 845.57269 3526.3948 10268613
-1758.1572 848.83008 3539.9795 10268356
-1738.5127 849.47858 3542.6838 10334149
-1717.652 849.54138 3542.9458 10399942
-1692.399 847.40643 3534.0422 10531529
-1676.3127 849.86542 3544.2971 10531528
-1655.3101 849.86267 3544.2856 10531528
-1629.4719 847.34534 3533.7871 10465992
-1609.0093 847.59406 3534.8247 10399940
-1583.2303 845.0119 3524.0562 10399940
-1558.1652 842.74689 3514.6099 10334402
-1533.0032 840.36749 3504.6868 10136508
-1504.2383 835.92047 3486.1409 10135991
-1451.3157 817.7381 3410.3127 8885147
-1466.629 838.03241 3494.9487 8489355
-1434.632 831.48767 3467.6541 6909033
-1405.6162 826.50586 3446.8777 6250585
-1349.8633 805.42377 3358.9565 7237220
-1343.4742 813.60535 3393.0776 6184272
-1335.7678 821.22577 3424.8579 6578258
-1304.9288 814.64008 3397.3926 4341811
-1267.0591 803.39008 3350.4753 7631201
-1275.7961 821.80377 3427.2683 8420715
-1253.9224 820.77618 3422.9827 8025956
-1220.6378 812.12292 3386.895 6710609
-1209.4072 818.09869 3411.8167 7302746
-1197.8599 824.05975 3436.6768 8881777
-1179.4149 825.39978 3442.2649 8026468
-1166.6854 830.85718 3465.0249 8552043
-1142.4962 828.20282 3453.9551 8749679
-1105.7725 816.19965 3403.8967 8486507
-1090.4886 819.86975 3419.2026 7565405
-1057.6179 810.20624 3378.9016 7763039
-1049.6775 819.63654 3418.2297 7367767
-1002.1557 797.92273 3327.6743 6578252
-993.0788 806.56195 3363.7034 7762266
-987.6026 818.53925 3413.6538 6644043
-946.68188 801.02631 3340.6174 5460284
-920.79156 795.75482 3318.6331 6578764
-902.00262 796.52435 3321.8423 6907474
0 0 0 0
0 0 0 0
0 0 0 0
0 0 0 0
0 0 0 0
0 0 0 0
0 0 0 0
0 0 0 0
0 0 0 0
0 0 0 0
0 0 0 0
0 0 0 0
0 0 0 0
0 0 0 0
0 0 0 0
0 0 0 0
0 0 0 0
0 0 0 0
0 0 0 0
0 0 0 0
0 0 0 0
0 0 0 0
0 0 0 0
-96.431694 178.75375 745.47852 8
-92.140495 178.99693 746.49268 11
-87.757484 179.0773 746.82788 11
-82.916786 178.18265 743.0968 11
-78.625488 178.43449 744.14709 11
-73.731743 177.26787 739.28174 11
-70.072227 179.10863 746.9585 9
-63.948463 174.4742 727.63098 9
-59.645393 174.49637 727.72345 8
-54.808899 172.83986 720.81506 196872
0 0 0 0
0 0 0 0
0 0 0 0
-36.996143 169.4879 706.836 10789532
-32.682957 168.83839 704.12726 11909293
-28.714869 170.04242 709.14856 11120037
-24.652267 171.00352 713.1568 10593952
-20.328608 170.17679 709.70898 10264990
-16.121515 170.14919 709.59381 9871005
0 0 0 0
-7.9037218 174.33557 727.05286 10333105
0 0 0 0
0.69781452 171.16776 713.84174 11452357
0 0 0 0
0 0 0 0
0 0 0 0
18.722931 181.9476 758.79822 3553601
0 0 0 0
0 0 0 0
0 0 0 0
0 0 0 0
0 0 0 0
0 0 0 0
0 0 0 0
0 0 0 0
0 0 0 0
67.145828 191.86272 800.14844 523
72.692162 194.0141 809.12061 329484
77.563896 194.21024 809.93854 262913
82.63324 194.84944 812.60431 4407864
0 0 0 0
0 0 0 0
0 0 0 0
0 0 0 0
458.09872 836.52618 3488.667 6709838
479.36371 837.56989 3493.0198 6578252
495.86899 830.55505 3463.7646 6446410
513.8194 826.42188 3446.5276 6446666
538.60437 833.17719 3474.7002 5722687
550.39423 820.07275 3420.0493 6643532
564.10236 810.65576 3380.7761 6709582
592.01202 821.5932 3426.3901 6973010
612.672 822.07794 3428.4116 6906704
640.97028 832.45172 3471.6746 5393209
669.08154 841.94513 3511.2661 6840656
682.39148 832.80225 3473.1365 7827811
697.7561 826.62878 3447.3904 6709332
718.98962 827.56152 3451.2805 5722951
774.10248 866.3598 3613.0857 7565409
784.87592 854.78162 3564.7998 6512718
806.40668 855.21863 3566.6223 6973528
812.797 839.98639 3503.0977 7828579
838.27191 844.74457 3522.9412 7565919
865.53021 851.02521 3549.134 8157800
888.9408 853.31433 3558.6807 8749680
904.25946 847.90967 3536.1411 6381131
945.10748 866.14642 3612.1956 6775375
954.02924 854.96436 3565.5618 6051908
979.72009 858.96899 3582.2629 6117960
1008.7627 865.68024 3610.2517 6249547
1033.7003 868.66321 3622.6919 7301980
1050.4478 864.78229 3606.5066 6973274
1061.7133 856.63281 3572.5203 6183762
1084.3704 857.81378 3577.4451 6446936
1114.0364 864.38757 3604.8606 6184531
1151.9561 876.99762 3657.45 6250069
1147.9237 857.79327 3577.3594 3684404
1149.6704 843.52521 3517.8557 592139
1143.4744 824.04138 3436.5999 4
1160.4535 821.64813 3426.6191 8
1147.3149 798.37927 3329.5781 460818
1183.1439 809.39594 3375.5225 12
1196.7723 805.11133 3357.6538 14
1204.2302 796.88361 3323.3406 264213
1208.7206 786.9884 3282.0735 1910069
1238.7339 793.76117 3310.3188 19
1279.1487 806.88403 3365.0469 6714752
1291.277 802.0351 3344.8245 12
1316.7288 805.48291 3359.2034 18
1316.9218 793.60669 3309.6743 8289922
1340.5804 796.01227 3319.7068 16
1367.903 800.49255 3338.3914 13
1386.1674 799.61969 3334.7512 13555412
1400.109 796.31281 3320.9604 13358038
1424.3236 798.8595 3331.5808 13160914
1436.0299 794.41681 3313.0532 13095378
1455.2037 794.16937 3312.0212 13095895
1443.0942 777.08289 3240.7634 12635097
0 0 0 0
1494.2976 783.79968 3268.7751 198415
1477.4294 765.0376 3190.5293 11844782
1505.9598 769.96063 3211.0605 2828573
1630.9781 823.47742 3434.248 4801847
1639.1647 817.41418 3408.9617 4143402
1683.2278 829.17157 3457.9949 4998966
1717.8912 836.07153 3486.7708 6709585
1718.6576 826.50629 3446.8799 6775378
1772.9351 842.59723 3513.9856 6117191
1796.4248 843.85242 3519.2205 5459262
1789.0186 830.73224 3464.5037 6906452
1808.1866 830.10944 3461.9065 6709330
1879.9438 853.37286 3558.9246 5854280
1924.2114 863.78003 3602.3271 4998972
1962.7158 871.40009 3634.106 6446674
1965.0485 862.96973 3598.9478 6315088
1984.5088 862.16144 3595.5769 6775640
2030.5221 872.78357 3639.8755 5460033
2076.1174 883.0047 3682.5022 6710099
2082.1025 876.34174 3654.7144 6644306
2092.2949 871.5683 3634.8071 5919812
2114.9719 872.03973 3636.7734 6709327
2146.1616 875.97638 3653.1907 4603695
2206.6125 891.65826 3718.5908 5130042
2207.3691 883.14709 3683.0957 4867126
2221.1399 879.95837 3669.7976 5590592
2207.8889 866.22998 3612.5442 4274733
2264.9487 880.08557 3670.3279 6708816
2272.8369 874.75293 3648.0886 5721924
2308.8416 880.24011 3670.9724 4340528
2368.2463 894.46271 3730.2869 2958618
2336.5605 874.33655 3646.3523 4538162
2361.8525 875.70477 3652.0583 5854022
2398.9087 881.37036 3675.6863 5196091
2396.0198 872.39001 3638.2341 5130555
2474.6667 892.99225 3724.1543 5656644
2502.8704 895.18872 3733.3145 5525058
2478.8213 878.82129 3665.0554 4670006
2482.6704 872.54321 3638.8728 6117709
2526.8923 880.44006 3671.8064 5328193
2606.4094 900.39508 3755.0271 7104861
2643.0952 905.34125 3775.6548 7434338
2669.6484 906.76282 3781.5833 6644310
2682.2358 903.45673 3767.7954 7499619
2646.2197 883.96906 3686.5237 6973276
2717.0632 900.20477 3754.2334 7368290
2779.1233 913.29041 3808.8059 7433569
2808.8213 915.61584 3818.5042 6907226
2827.6116 914.37683 3813.3369 5722951
2834.1143 909.21552 3791.812 5657158
2858.804 909.92413 3794.7671 6314317
2859.2397 902.96204 3765.7324 5986380
2895.7373 907.4082 3784.2747 7038811
2904.7495 903.23926 3766.8887 6380881
2922.0132 901.6803 3760.387 6183502
2938.5261 899.91498 3753.0247 5525572
2955.9365 898.44891 3746.9109 8683636
2984.0278 900.22693 3754.3259 6907225
2981.1025 892.69073 3722.8967 5524802
3000.4939 891.8988 3719.5942 6182988
3062.1179 903.58075 3768.3127 5853768
3112.488 911.79675 3802.5769 6971992
3133.895 911.47083 3801.2178 5130044
3122.0776 901.55548 3759.8667 4406578
3203.6379 918.55414 3830.7583 5196349
3180.9055 905.62103 3776.8213 4932921
3243.4146 916.96765 3824.1416 4669749
3237.4189 908.92377 3790.5952 5985609
3245.8262 905.00653 3774.2588 5920074
3328.2781 921.64685 3843.6562 6183502
3351.6191 921.80377 3844.3105 6315088
3344.0483 913.51422 3809.7395 5854537
3425.9663 929.61804 3876.8992 5460036
3462.0652 933.15747 3891.6599 4802105
3412.5576 913.72839 3810.6328 4275762
3436.6589 914.13428 3812.3254 5525058
3479.4844 919.48303 3834.6321 4406577
3479.0085 913.3938 3809.2373 5261629
3473.9197 906.17981 3779.1519 5788230
3479.9016 901.92755 3761.418 6117195
3484.6204 897.40399 3742.553 5393472
3539.1838 905.69324 3777.1226 4077355
3550.5432 902.89154 3765.4385 4406065
3492.3403 882.54596 3680.5886 4932666
3539.7119 888.9668 3707.3665 5525573
0 0 0 0
0 0 0 0
0 0 0 0
0 0 0 0
0 0 0 0
0 0 0 0
0 0 0 0
-2715.354 746.64172 3038.7341 1512986
-2642.9412 731.58057 2977.4373 526091
-2658.2356 740.75787 3014.7878 855056
-2666.0613 747.96417 3044.1165 2631722
-2681.0818 757.30072 3082.115 1381656
-2667.3162 758.57874 3087.3164 1381145
-2642.7295 756.77563 3079.9778 723468
-2622.0247 756.06671 3077.0928 656651
-2602.4736 755.68298 3075.531 2301992
-2622.7507 766.94019 3121.3464 1249818
-2675.6306 787.95874 3206.8892 920852
-2681.6045 795.36554 3237.0337 2499887
-2616.4836 781.64038 3181.1741 1842213
-2539.21 764.05927 3109.6213 1841956
-2512.1238 761.43311 3098.9333 2894902
-2517.9631 768.82166 3129.0037 3552831
-2503.2771 770.00623 3133.8247 4210762
-2472.8081 766.31732 3118.8113 5263449
-2450.0491 764.98022 3113.3694 4276808
-2474.3687 778.43372 3168.1233 4276553
-2482.8274 787.06482 3203.251 5724512
-2436.0889 778.19647 3167.158 5132634
-2411.6772 776.37799 3159.7571 5330012
-2415.5586 783.71063 3189.5999 5263451
-2405.1985 786.50183 3200.9597 3882056
-2394.8203 789.33142 3212.4758 1842213
-2365.7354 785.99127 3198.8818 3289664
-2353.8289 788.35065 3208.4841 4935513
-2342.2988 790.87543 3218.7598 6119275
-2309.8137 786.30823 3200.1716 5658980
-2330.9082 800.05591 3256.123 6251630
-2315.5706 801.42389 3261.6904 5132892
-2291.5571 799.78687 3255.0281 3488067
-2268.3357 798.40076 3249.3867 5264479
-2263.9839 803.68951 3270.9111 2895928
-2218.1528 794.21777 3232.3625 2566967
-2232.5732 806.34229 3281.7075 3620681
-2192.4551 798.80878 3251.0474 4475733
-2175.4036 799.62048 3254.3511 4278354
-2157.9097 800.28278 3257.0464 4935255
-2180.7476 816.04938 3321.2144 2303533
-2164.4241 817.31512 3326.3657 2697264
-2170.6296 827.18964 3366.5537 4277322
-2140.6382 823.32526 3350.8264 2764339
-2105.2092 817.27765 3326.2134 3224634
-2060.9573 807.6582 3287.0632 2105896
-2057.981 814.18481 3313.626 2303535
-2064.9167 824.79633 3356.8132 2961464
-2074.5906 836.71844 3405.335 3619137
-2062.6155 840.05768 3418.925 3421757
-2057.5159 846.2912 3444.2947 2895926
-2034.5555 845.22955 3439.9736 2500655
-2019.7596 847.57245 3449.5093 5264222
-2006.3568 850.55396 3461.6433 4211793
-1987.0238 851.05701 3463.6909 4408917
-1966.3658 850.99713 3463.4473 3685962
-1958.1353 856.37109 3485.3184 6844801
-1937.5276 856.38885 3485.3906 10925254
-1868.5275 834.78699 3397.4739 10399684
-1876.5433 847.49719 3449.2029 10400198
-1859.8956 849.22607 3456.239 10465736
-1839.1007 849.07861 3455.6389 10465991
-1818.1759 848.86719 3454.7786 10399940
-1798.9531 849.45465 3457.1692 10334150
-1778.6125 849.52167 3457.4421 10268357
-1751.3849 846.26257 3444.1782 10268357
-1737.0093 849.20978 3456.1729 10334149
-1715.687 848.79071 3454.4675 10268357
-1699.3574 850.86133 3462.8945 10334150
-1682.2595 852.59314 3469.9429 10399942
-1652.6064 847.92596 3450.948 10399943
-1632.6018 848.15436 3451.8772 10268356
-1612.9515 848.57495 3453.5891 10202564
-1583.189 843.61786 3433.4146 10202819
-1567.8004 846.29083 3444.293 10465216
-1538.493 841.42181 3424.4771 10069168
-1481.3131 820.97522 3341.262 10397871
-1475.9308 829.07092 3374.2102 9344405
-1435.6846 817.53589 3327.2644 9212553
-1387.6576 801.18756 3260.7285 8356469
-1373.1942 804.0296 3272.2954 7106145
-1354.026 804.15875 3272.821 6842714
-1340.9545 807.96521 3288.3127 7763814
-1328.3087 812.14423 3305.3208 7828837
-1308.1783 811.80359 3303.9346 7039576
-1282.8293 808.16498 3289.1257 7631456
-1279.6615 818.60339 3331.6089 8223335
-1257.9338 817.31012 3326.3455 7170903
-1240.7856 818.99847 3333.2166 8355434
-1223.9534 820.95337 3341.1729 8881778
-1216.5016 829.36768 3375.4182 9540221
-1181.7009 819.10626 3333.6555 6710868
-1160.576 818.1366 3329.709 8158054
-1148.5337 823.64667 3352.1343 7894883
-1134.0304 827.55481 3368.04 7696990
-1122.6454 833.91937 3393.9429 7894370
-1084.4946 820.2713 3338.397 8289128
-1070.0433 824.37457 3355.0969 7959907
-1047.4766 822.26263 3346.5015 8091748
-1015.5489 812.57928 3307.0913 7894369
-1002.4006 817.83636 3328.4873 7367769
-968.05328 805.6618 3278.9382 7039061
-963.69043 818.45416 3331.0015 7104854
-940.63904 815.57739 3319.2935 6578510
0 0 0 0
-876.26923 792.91809 3227.073 5065271
-852.32147 788.4502 3208.8892 7828577
0 0 0 0
0 0 0 0
0 0 0 0
0 0 0 0
0 0 0 0
0 0 0 0
0 0 0 0
0 0 0 0
0 0 0 0
0 0 0 0
0 0 0 0
0 0 0 0
0 0 0 0
0 0 0 0
0 0 0 0
0 0 0 0
0 0 0 0
0 0 0 0
0 0 0 0
0 0 0 0
0 0 0 0
0 0 0 0
-96.36042 183.03476 744.92755 8
-92.404968 183.94582 748.63544 11
-87.944214 183.89212 748.41693 11
0 0 0 0
-78.248306 181.96587 740.57727 11
-73.710342 181.5948 739.06714 11
0 0 0 0
0 0 0 0
-60.163792 180.36165 734.04834 9
-54.666428 176.64975 718.94141 9
-50.040962 175.36609 713.71704 9
-45.646225 174.72867 711.12286 9
-40.878109 172.38708 701.5929 9
0 0 0 0
0 0 0 0
0 0 0 0
0 0 0 0
0 0 0 0
0 0 0 0
0 0 0 0
0 0 0 0
0 0 0 0
0 0 0 0
0 0 0 0
0 0 0 0
0 0 0 0
0 0 0 0
0 0 0 0
0 0 0 0
0 0 0 0
0 0 0 0
0 0 0 0
0 0 0 0
0 0 0 0
0 0 0 0
0 0 0 0
67.874275 198.73587 808.82904 520
72.781593 199.05211 810.11609 526861
77.15921 197.97017 805.71271 395012
82.553917 199.47182 811.82428 4473661
0 0 0 0
0 0 0 0
0 0 0 0
428.79282 840.26636 3419.7742 4933170
451.78287 845.37567 3440.5686 5985857
475.22421 850.85193 3462.8562 6314309
463.83365 796.09186 3239.9897 4801325
504.41275 831.33661 3383.4312 6512197
523.63263 830.02985 3378.113 6840903
545.80371 833.3252 3391.5247 5262387
555.94141 818.6665 3331.8657 7499096
583.47534 829.75195 3376.9822 7038547
601.80341 827.44495 3367.5928 6314567
625.25153 832.09979 3386.5374 5722429
657.52661 847.84711 3450.627 6051142
670.79053 838.87018 3414.0918 6774865
692.53333 840.71155 3421.5862 6183243
708.82526 836.01941 3402.4897 8947062
731.15466 838.51062 3412.6289 8815475
753.57928 840.97412 3422.6548 6775891
778.58087 846.10889 3443.5527 7235412
797.1687 844.18945 3435.7407 8090980
830.7475 857.84546 3491.3191 7301208
865.71265 872.23492 3549.8821 7301208
864.06274 849.92572 3459.0867 7104343
890.58356 855.7182 3482.6611 7368283
904.27985 849.20477 3456.1523 5855042
937.76727 861.15405 3504.7844 5262906
969.68726 871.17755 3545.5789 6578254
995.43933 875.35211 3562.5686 5262650
1012.4726 871.8454 3548.2971 5328444
1025.691 865.26331 3521.5088 6973018
1031.8054 853.07037 3471.8848 6315090
1060.7008 859.82037 3499.3564 6052176
1067.6644 848.87433 3454.8076 5921103
1103.4067 860.79089 3503.3064 6974045
1128.0956 863.80359 3515.5676 6381650
1148.0431 863.14227 3512.8762 6645333
1127.2334 832.40741 3387.7893 3289902
1140.3896 827.39124 3367.374 2434852
1153.7831 822.71667 3348.3491 921105
1181.6348 828.33539 3371.217 7
1197.3837 825.42432 3359.3691 268
1205.3741 817.34753 3326.4976 527
1219.541 813.65131 3311.4543 4675686
1239.9469 814.1687 3313.5603 785
1270.3057 821.10339 3341.7837 3424603
1295.6769 824.65088 3356.2214 592669
1314.3204 823.8739 3353.0593 20
1307.6044 807.46039 3286.2581 6120554
1349.5371 821.12866 3341.8865 7
1368.861 820.8443 3340.7292 14
1401.3901 828.37384 3371.3733 13556699
1396.9202 814.12854 3313.3967 1053213
1414.2935 812.83191 3308.1196 10265012
1457.5363 826.23547 3362.6704 10921406
1432.0181 800.82452 3259.251 263961
1446.3379 798.07178 3248.0479 12702943
1469.5991 800.26031 3256.9548 14
1491.6981 801.76746 3263.0889 12
1520.1971 806.63202 3282.8867 14805990
1546.1531 810.0412 3296.762 2564896
1606.3584 831.08508 3382.4077 4143917
1626.1388 830.95343 3381.8718 6644562
1675.2 845.60516 3441.5027 6183499
1682.8976 839.27625 3415.7446 4538674
1695.8519 835.68811 3401.1416 6906965
1738.0056 846.40436 3444.7551 6511949
1726.7953 831.18524 3382.8154 5656640
1762.0647 838.4314 3412.3064 5327676
1773.952 834.51373 3396.3618 6051657
1816.7727 845.07263 3439.3352 6446158
1874.0442 862.04456 3508.4087 4735541
1893.8148 861.58325 3506.5312 4341297
1944 874.81885 3560.3982 4472880
1942.751 864.87268 3519.9189 4341294
1985.1781 874.37518 3558.5928 4866870
2026.7303 883.29657 3594.9019 6248523
2045.7845 882.32935 3590.9651 6643537
2075.8691 886.09021 3606.2715 6183756
2081.2126 879.32141 3578.7234 5064504
2077.0603 868.71741 3535.5664 5393212
2139.3564 885.83948 3605.2507 3814180
2165.1106 887.6416 3612.5854 4406316
2149.2654 872.52081 3551.0454 5459005
2167.7336 871.48804 3546.8423 4998197
2205.8586 878.3017 3574.5732 5327161
2211.4895 872.17072 3549.6208 5524542
2254.4788 880.75 3584.5374 3880230
2321.0332 898.28931 3655.9202 3090716
2317.551 888.64929 3616.6865 6117193
2332.113 886.04144 3606.0728 5525055
2345.7739 883.1416 3594.271 4472112
2370.9878 884.60443 3600.2246 5129786
2395.5339 885.79431 3605.0669 4537650
2419.6196 886.79419 3609.1365 4274990
2458.7395 893.23834 3635.3635 5459265
2493.6897 898.06921 3655.0242 4406834
2502.4045 893.44971 3636.2234 6249294
2544.6416 900.77557 3666.0388 5525574
2579.6479 905.43951 3685.0205 5393986
2593.6758 902.72369 3673.9675 6644053
2588.8633 893.55029 3636.6331 7104603
2644.656 905.27362 3684.3455 6709846
2641.5945 896.82397 3649.9565 7236189
2688.8755 905.46417 3685.1208 6249295
2732.2366 912.65564 3714.3894 6249295
2737.9082 907.24341 3692.3623 6183502
2749.8774 903.9873 3679.1101 5064764
2792.0969 910.64844 3706.2202 5787973
2786.0212 901.57709 3669.3008 5722179
2825.127 907.15393 3691.9978 6710101
2848.0234 907.48029 3693.3262 6907481
2819.3408 891.492 3628.2561 5985866
2885.6987 905.57074 3685.5547 6248779
2898.7083 902.82239 3674.3689 6446672
2955.6001 913.68036 3718.5598 5196092
2946.1851 904.03168 3679.2908 5130300
2957.8198 900.93634 3666.6931 5985609
3004.8167 908.57867 3697.7964 5920072
3029.5615 909.43073 3701.2642 5985610
3068.3323 914.45062 3721.6943 7235933
3047.6145 901.79608 3670.1921 6578006
3050.3564 896.21344 3647.4714 6775640
3123.7927 911.33356 3709.0085 6512211
3137.0415 908.80621 3698.7224 6117195
3164.4983 910.40137 3705.2146 4932921
3150.5386 900.14148 3663.4583 4603955
3240.2981 919.45288 3742.053 2366998
3218.0664 906.93951 3691.1252 4867128
3248.4407 909.32098 3700.8174 5590595
3320.5132 923.26447 3757.5659 5524801
3373.1467 931.65344 3791.7078 5459265
3368.0356 924.08795 3760.917 3551782
3380.3542 921.37268 3749.8665 6314830
3394.3457 919.14575 3740.8032 6182988
3306.8989 889.6579 3620.7913 4538678
3314.2432 885.88733 3605.4456 5590594
3438.165 913.12634 3716.3049 6182730
3428.3752 904.73291 3682.1448 6512723
3430.7061 899.62396 3661.3521 3946794
3456.7256 900.75195 3665.9429 5131325
3448.8821 893.09692 3634.7876 6776150
3417.2371 879.41168 3579.0906 6051916
0 0 0 0
0 0 0 0
0 0 0 0
0 0 0 0
0 0 0 0
0 0 0 0
0 0 0 0
0 0 0 0
-2683.1018 760.60431 3022.6807 1908512
-2664.6987 760.46277 3022.1182 2171428
-2639.8105 758.45599 3014.1433 5197906
-2658.5293 769.03613 3056.1892 3882305
-2649.2893 771.61829 3066.4509 2434859
-2627.1414 770.45062 3061.8105 2895154
-2618.1677 773.1571 3072.5664 2895154
-2588.189 769.65527 3058.6497 460812
-2586.7729 774.65759 3078.5293 723732
-2580.8325 778.36652 3093.2686 1513248
-2593.7854 787.86731 3131.0251 2829107
-2574.0571 787.50635 3129.5911 3092279
-2535.2693 781.26697 3104.7954 2894899
-2531.4023 785.77625 3122.7153 1710366
-2524.6772 789.45807 3137.3469 3486778
-2485.4915 782.96887 3111.5588 3157815
-2453.1602 778.55823 3094.0305 4210505
-2455.6931 785.22925 3120.5415 3157817
-2461.3545 793.0094 3151.4604 3816516
-2430.1672 788.94568 3135.3108 4211275
-2402.7668 786.05817 3123.8359 2500658
-2368.1572 780.74927 3102.7378 4277327
-2355.3137 782.58929 3110.05 4606036
-2363.0181 791.33942 3144.8237 5922666
-2344.3713 791.33398 3144.8022 7830406
-2303.2627 783.68579 3114.408 6711672
-2308.5461 791.82654 3146.7595 1645605
-2306.0266 797.40161 3168.915 3948877
-2296.5955 800.65845 3181.8582 6842998
-2285.0049 803.21033 3191.9993 2237485
-2281.1458 808.54504 3213.2 2829367
-2244.6367 802.29962 3188.3801 2763572
-2220.7231 800.4884 3181.1821 2960694
-2195.6196 798.21338 3172.1414 3618368
-2184.6274 801.07367 3183.5083 2040362
-2198.9285 813.33923 3232.2522 2698039
-2190.4277 817.31226 3248.041 4606037
-2183.0073 821.76239 3265.7261 3158846
-2141.3027 813.27081 3231.9805 2566452
-2150.6567 824.19324 3275.3865 2369072
-2136.8923 826.37421 3284.054 1843242
-2143.1458 836.40765 3323.9272 3488067
-2111.532 831.71173 3305.2654 2764087
-2077.7771 826.0766 3282.8711 5659234
-2041.2184 819.20972 3255.5815 3553858
-2030.2782 822.59143 3269.0208 3093051
-2040.5804 834.72772 3317.2512 3685443
-2032.6649 839.5755 3336.5164 6580335
-2021.5447 843.1817 3350.8477 5001302
-1988.9279 837.80438 3329.4778 6646383
-1988.7007 846.09967 3362.4436 5856611
-1984.5188 852.8631 3389.322 3883339
-1950.8683 846.97107 3365.907 3225412
-1926.7637 845.14459 3358.6482 7766930
-1917.5663 849.8869 3377.4944 10398912
-1930.8927 864.81726 3436.8286 10465219
-1887.2507 854.27881 3394.9482 10465476
-1871.3984 856.22803 3402.6943 10333634
-1850.5913 855.92786 3401.5017 10136768
-1832.3336 856.81323 3405.0203 10136771
-1806.9672 854.35736 3395.2603 10202819
-1785.4373 853.68054 3392.5706 10268354
-1766.5214 854.25232 3394.8428 10202561
-1747.9948 855.02777 3397.9246 10268356
-1724.8329 853.52753 3391.9624 10465735
-1705.6051 853.96155 3393.6873 10465734
-1683.6949 853.04694 3390.0527 10465734
-1660.9226 851.66815 3384.5732 10597320
-1648.3206 855.53442 3399.938 10465735
-1624.2678 853.47955 3391.772 10531528
-1601.8884 852.26337 3386.9387 10334150
-1575.7583 848.99548 3373.9521 10203075
-1548.5587 845.06012 3358.3127 10137021
-1520.4108 840.49811 3340.1831 10070710
-1490.0378 834.56952 3316.6223 8884624
-1434.9563 814.45819 3236.699 8685696
-1411.8096 812.1734 3227.6189 7566440
-1405.5424 819.66949 3257.4087 6710870
-1390.157 821.98267 3266.6016 7368288
-1367.1018 819.76221 3257.7773 7368031
-1359.3364 826.77771 3285.6572 6513235
-1305.0387 805.28375 3200.2395 7236957
-1314.6588 823.17871 3271.3547 6907736
-1290.2579 819.9881 3258.6748 7368287
-1265.1698 816.2569 3243.8472 8092265
-1241.8499 813.56915 3233.166 7697506
-1229.9086 818.36847 3252.2385 7960678
-1225.5985 828.47906 3292.4187 8026470
-1202.2621 825.84723 3281.9595 7894883
-1182.7523 825.80066 3281.7744 9013364
-1164.3262 826.52173 3284.6401 6973780
-1142.9146 825.11206 3279.0381 7631711
-1115.6661 819.36694 3256.2065 6710352
-1111.5709 830.72302 3301.3362 6841938
-1098.575 835.71484 3321.1741 7236695
-1076.3138 833.71191 3313.2141 8684141
-1066.0992 841.13916 3342.7305 7763041
-1017.7787 818.21338 3251.6223 8223591
-957.20142 784.35944 3117.085 8815985
0 0 0 0
-944.61072 805.10651 3199.5349 3552296
-939.84045 817.44373 3248.5637 7763046
-917.08466 814.32654 3236.1758 6776406
0 0 0 0
0 0 0 0
0 0 0 0
0 0 0 0
0 0 0 0
0 0 0 0
0 0 0 0
0 0 0 0
0 0 0 0
0 0 0 0
0 0 0 0
0 0 0 0
0 0 0 0
0 0 0 0
0 0 0 0
0 0 0 0
0 0 0 0
0 0 0 0
0 0 0 0
0 0 0 0
0 0 0 0
0 0 0 0
0 0 0 0
0 0 0 0
0 0 0 0
-96.54303 187.8031 746.33923 8
-92.440338 188.45299 748.92194 11
-87.933739 188.3035 748.32782 11
-82.944023 187.04861 743.34088 11
-78.744812 187.53569 745.27649 11
-73.710342 185.97321 739.06714 11
-70.30658 188.58754 749.4566 11
0 0 0 0
-59.834854 183.70044 730.03503 11
-54.808308 181.37845 720.80731 11
-50.161621 180.02736 715.43799 11
0 0 0 0
-41.144051 177.692 706.15723 11
0 0 0 0
0 0 0 0
0 0 0 0
0 0 0 0
0 0 0 0
0 0 0 0
0 0 0 0
0 0 0 0
0 0 0 0
0 0 0 0
0 0 0 0
0 0 0 0
0 0 0 0
0 0 0 0
0 0 0 0
0 0 0 0
0 0 0 0
0 0 0 0
0 0 0 0
44.107216 184.30484 732.43695 4937055
0 0 0 0
0 0 0 0
0 0 0 0
67.556923 202.57593 805.04724 263689
72.749062 203.76031 809.75403 395527
77.386215 203.33986 808.08307 395011
82.470444 204.07469 811.00336 6381912
0 0 0 0
0 0 0 0
0 0 0 0
0 0 0 0
439.86243 842.91504 3349.7878 8617834
462.11972 847.3385 3367.3667 6775627
465.61572 818.4187 3252.4382 7169871
493.31906 832.65613 3309.0186 5656372
513.66736 833.86542 3313.824 4998442
526.2016 822.76758 3269.7207 5063978
549.1701 828.19348 3291.2839 6576963
578.13873 841.98584 3346.0952 5656118
597.31476 841.07489 3342.4751 5130031
626.66705 854.09161 3394.2043 6709320
641.69604 847.38458 3367.55 6249032
659.35229 844.44672 3355.8748 6380877
685.7854 852.59259 3388.2471 9341563
709.16083 856.58185 3404.1003 7696480
725.8252 852.46851 3387.7537 7498588
752.88623 860.45862 3419.5068 7170132
768.38739 855.16455 3398.4683 6577739
784.81018 851.1405 3382.4766 7169873
810.67853 857.30554 3406.9766 7103826
833.23328 859.75214 3416.6992 6643019
863.94434 870.29895 3458.6128 7169619
882.6416 868.53516 3451.6035 7169617
896.42261 862.12323 3426.1223 6116927
928.57959 873.27679 3470.447 5525301
948.38806 872.58557 3467.7002 5657145
967.53326 871.32629 3462.6958 2959385
993.83331 876.42902 3482.9741 4604975
1009.2109 871.88788 3464.9277 6315341
1041.5139 881.85876 3504.5522 7038811
1046.6545 868.89069 3453.0166 7039326
1059.4518 862.65417 3428.2324 6512726
1079.3171 862.29926 3426.8218 6644568
1086.3678 851.90845 3385.5281 6118480
1113.3226 857.21979 3406.6357 4737084
1131.2706 855.53058 3399.9226 5329222
1142.0012 848.53778 3372.1328 4013879
1168.3234 853.17108 3390.5459 4408131
1179.6116 846.85474 3365.4446 4
1195.4309 843.94733 3353.8904 268
1209.5259 839.93756 3337.9551 265
1215.1317 830.25635 3299.4814 4412772
1237.6138 832.2301 3307.3257 67608
1274.1599 843.45239 3351.9231 526
1287.9586 839.50311 3336.2288 396310
1310.9764 841.59149 3344.5283 271
1303.9257 824.60242 3277.0127 4016728
1364.1268 850.01801 3378.0154 1315869
1370.5468 841.67084 3344.8435 13
1422.9689 861.40955 3423.2859 13031388
1392.7213 831.25171 3303.4373 12636117
1409.8352 829.80591 3297.6917 7763594
1438.2672 834.97028 3318.2151 1053477
1435.6261 822.1994 3267.4629 11585487
1449.7855 819.26215 3255.7903 12702682
1468.3921 818.88208 3254.2798 14
1496.3673 823.66888 3273.3027 14
1523.5483 827.90161 3290.1238 13163996
1555.8032 834.74976 3317.3386 4472381
1588.3757 841.59521 3344.543 5065276
1610.5908 842.85187 3349.5369 6775892
1660.2135 858.24615 3410.7146 6249292
1659.146 847.38123 3367.5369 6906965
1672.2412 843.92175 3353.7888 6380107
1722.4603 859.05884 3413.9441 5524796
1711.1666 843.52161 3352.1985 6774863
1745.0933 850.37659 3379.4404 4537900
1761.801 848.78064 3373.0981 5590588
1784.964 850.29547 3379.1182 6445899
1837.8285 865.76855 3440.6089 5524796
1891.0713 881.07849 3501.4514 4998453
1921.8077 885.68378 3519.7532 5261625
1924.4292 877.37238 3486.7231 4537902
1953.7192 881.26691 3502.2002 4603184
1991.8239 889.01385 3532.9868 4866613
2008.9235 887.32184 3526.2627 4471598
2029.8351 887.33105 3526.2996 4932663
2026.3118 876.76746 3484.3191 6973017
2041.2671 874.33173 3474.6396 6578003
2050.3232 869.44305 3455.2117 7565925
2061.6777 865.61609 3440.0032 6249037
2124.0178 883.06128 3509.3311 5525315
2163.7947 890.87848 3540.3972 8025191
2128.7239 868.02521 3449.5769 6182987
2152.5684 869.40179 3455.0476 7038295
2235.3313 894.32489 3554.0935 5459520
2292.0288 908.45184 3610.2346 5590849
2258.2024 886.76984 3524.0691 5854021
2260.7856 879.65179 3495.7817 6182988
2320.448 894.67035 3555.4661 5393472
2342.8472 895.18066 3557.4944 3551524
2383.8169 902.71436 3587.4336 3682854
2393.0208 898.19196 3569.4612 3683109
2378.7192 885.00348 3517.0498 4472369
2448.9304 903.21417 3589.4199 6182986
2504.7083 915.8338 3639.5708 5919814
2426.5212 879.67255 3495.864 5591108
2549.1265 916.29926 3641.4207 5196348
2569.3933 915.8338 3639.5708 6249038
2595.1794 917.32709 3645.5054 6381138
2606.6077 913.76245 3631.3391 6709847
2633.7595 915.72308 3639.1309 4998973
2636.4458 909.21454 3613.2654 4867642
2658.8137 909.54358 3614.5732 6906968
2725.8323 925.0199 3676.0769 5525572
2701.7605 909.58392 3614.7336 4341298
2729.8479 911.81274 3623.5911 6117193
2758.1414 914.07513 3632.582 7564638
2802.5427 921.59949 3662.4839 6117193
2785.5596 908.97729 3612.3228 5919814
2799.7822 906.65295 3603.0857 5064505
2815.4753 904.83649 3595.8669 6446158
2849.1008 908.76697 3611.4868 5985351
2948.512 933.46588 3709.6418 6314312
2909.1724 914.19751 3633.0681 6972243
2903.0688 905.57971 3598.8206 4274474
2945.0173 911.96753 3624.2061 5590337
2989.7068 919.10547 3652.5728 5590595
3005.5708 917.34302 3645.5686 5656644
3010.4521 912.27753 3625.438 5656389
3040.656 914.90308 3635.8721 6380367
3056.6802 913.25513 3629.323 6182988
3095.4729 918.38538 3649.7109 5524802
3097.4314 912.59204 3626.688 6183245
3126.4253 914.789 3635.4189 4406577
3193.418 927.99829 3687.9133 6249038
3162.5901 912.79486 3627.4939 5854023
3199.0078 917.07428 3644.5005 4669749
3209.5676 913.93317 3632.0176 5985608
3321.8506 939.60699 3734.0466 5064507
3301.0593 927.54907 3686.1279 5327679
3309.9297 923.92944 3671.7434 4867128
3314.6021 919.19293 3652.9204 6117966
3235.7854 891.51526 3542.9275 4802105
3323.4543 909.76813 3615.4658 5656899
3401.3567 925.13116 3676.519 6512464
3426.7095 926.0965 3680.3555 6118219
