# .PCD v0.7 - Point Cloud Data file format
VERSION 0.7
FIELDS x y z rgb
SIZE 4 4 4 4
TYPE F F F U
COUNT 1 1 1 1
WIDTH 1379
HEIGHT 1
VIEWPOINT 0 0 0 1 0 0 0
POINTS 1379
DATA ascii
0 0 0 0
0 0 0 0
0 0 0 0
0 0 0 0
0 0 0 0
0 0 0 0
0 0 0 0
0 0 0 0
0 0 0 0
0 0 0 0
0 0 0 0
-1163.5951 717.63428 1384.7994 4737085
-1161.2125 721.25 1391.7765 3881776
-1152.9854 721.26123 1391.7982 2894623
-1152.0779 725.88458 1400.7198 3421225
-1147.4456 728.21106 1405.2092 3157537
-1118.9363 715.30762 1380.3097 4012843
-1114.2565 717.55994 1384.656 5394498
-1090.0203 707.1582 1364.5841 2368280
-1096.3723 716.59381 1382.7916 2433295
-1109.6083 730.70465 1410.021 4670254
-1100.6683 730.31543 1409.2699 4406824
-1097.4459 733.74292 1415.8838 4406823
-1080.239 727.80121 1404.4182 1446402
-1060.5557 720.08588 1389.5302 5920061
-1082.0649 740.43719 1428.8016 3683354
-1069.8893 737.87781 1423.8628 3946526
-1068.0138 742.43781 1432.6621 6182980
-1051.9543 737.13196 1422.4236 1249028
-1048.2137 740.4422 1428.8113 3025944
-1040.8527 741.22803 1430.3276 3289116
-1033.2255 741.83575 1431.5004 3289115
-1015.4561 735.11127 1418.5243 4539181
-1004.0193 732.89716 1414.2518 5262904
-994.35583 731.95123 1412.4265 2565135
-993.95789 737.86749 1423.8429 6314821
-985.23944 737.65546 1423.4337 3485722
-966.46271 729.84393 1408.3601 1644292
-958.52527 730.15326 1408.9569 2170634
-947.76514 728.29883 1405.3785 2235915
-937.7865 727.01746 1402.9059 4472619
-930.88397 728.11926 1405.032 1709832
-926.19623 730.98889 1410.5695 1183749
-916.55298 729.96411 1408.592 4539438
-905.95471 728.15295 1405.097 5196602
-895.98462 726.81775 1402.5205 6117702
-887.8252 726.94012 1402.7566 7303004
-882.24438 729.19604 1407.1099 6776403
-871.89655 727.51733 1403.8705 5986375
-865.69495 729.29938 1407.3092 4867893
-861.15662 732.53076 1413.5448 4736305
-851.21747 731.18652 1410.9508 3882022
-839.55774 728.32288 1405.4249 6053453
-832.93158 729.81232 1408.2991 1381898
-828.20514 733.01331 1414.476 5592129
-818.30402 731.65302 1411.851 4604979
-813.71783 735.06573 1418.4364 3223071
-811.03534 740.28741 1428.5126 4868409
-802.52856 740.24677 1428.4342 4604981
-799.46631 745.28094 1438.1484 2170645
-797.55865 751.51154 1450.1714 2301976
-782.53796 745.38715 1438.3534 2696734
-771.59198 743.052 1433.8473 3025695
-764.25781 744.1817 1436.0273 6973018
-754.76093 743.2074 1434.1471 2763036
-744.72174 741.67072 1431.1819 5263428
-735.54742 740.96991 1429.8296 3487020
-727.70361 741.6087 1431.0623 2500127
-724.28778 746.82837 1441.1345 4407347
-713.58197 744.56604 1436.7689 7236700
-706.08313 745.63562 1438.8329 5788999
-699.75012 747.9776 1443.3522 2039313
-696.16534 753.35156 1453.722 2828314
-696.9505 763.64819 1473.5912 4539183
-684.86871 759.92889 1466.4142 6184264
-678.43726 762.46423 1471.3065 4868661
-667.25647 759.65851 1465.8925 5789505
-655.56671 756.19177 1459.2028 2763032
-639.07916 747.02405 1441.5121 6118210
-635.57294 752.98755 1453.0198 6118208
-619.73792 744.30792 1436.2709 5459763
-610.15057 742.99457 1433.7365 5196592
-598.26129 738.80145 1425.6451 3617560
-591.01178 740.29993 1428.5367 3748378
-577.74921 734.20062 1416.7671 3485463
-568.59161 733.21503 1414.8651 2761742
-561.45526 734.84534 1418.0111 4275241
-556.53735 739.47284 1426.9407 3617310
-550.24115 742.38342 1432.5573 2169871
-538.46301 737.87317 1423.8539 1907465
-516.03058 718.38708 1386.2521 5131321
-508.13412 718.83417 1387.1149 5328958
-506.23819 727.92419 1404.6555 3749931
-495.78998 724.815 1398.6559 3289117
-499.85489 743.1781 1434.0907 6315590
-498.93661 754.63922 1456.2069 5262901
-482.0419 741.91412 1431.6516 3091735
-468.12823 733.40363 1415.2291 3880738
-457.84595 730.37561 1409.386 6446922
-458.00961 744.20844 1436.0789 3749923
-456.72592 756.16864 1459.1582 1184008
-450.99747 761.08954 1468.6538 2631185
-444.74957 765.31012 1476.7982 5131832
-436.05109 765.39862 1476.969 5789760
-428.70755 767.91766 1481.83 8092771
-420.2298 768.46802 1482.892 7039829
-409.65756 765.12988 1476.4504 2434582
-402.03293 767.27167 1480.5834 9802880
-391.59195 764.01398 1474.2971 6381898
-380.22476 758.75946 1464.1576 1841938
-370.3208 756.24774 1459.3108 6973526
-362.46472 757.89795 1462.4951 7040090
-354.53522 759.47162 1465.5319 5986887
-343.91257 755.21045 1457.3092 8685174
-337.96942 761.27026 1469.0026 10001036
-327.56256 757.33026 1461.3997 6513237
-316.46991 751.54761 1450.2411 9803143
-310.13605 757.05884 1460.8759 4145202
-303.19534 761.36255 1469.1807 9276800
-295.15472 763.07697 1472.4889 7237219
-288.96014 769.81384 1485.4889 5000255
-277.8736 763.53192 1473.3668 7895147
-267.23355 758.10931 1462.903 6579287
-262.74597 770.362 1486.5466 5526343
-253.31831 768.47797 1482.9111 5461063
-242.74973 762.87311 1472.0956 2960675
-235.1053 766.38257 1478.8677 7566183
-227.07336 768.85162 1483.6322 5789516
-216.88829 763.93555 1474.1458 6447957
-207.24129 760.58179 1467.6741 6842715
-198.49245 760.375 1467.275 8027245
-189.21597 758.03534 1462.7603 4408374
-179.48039 753.54352 1454.0925 6513751
-170.8645 753.5368 1454.0796 8619127
-162.62312 755.2688 1457.4218 6513494
-154.30315 756.80945 1460.3947 8487539
-150.09938 779.92108 1504.9926 6710874
0 0 0 0
0 0 0 0
0 0 0 0
0 0 0 0
0 0 0 0
0 0 0 0
0 0 0 0
0 0 0 0
0 0 0 0
0 0 0 0
0 0 0 0
-42.871342 775.63257 1496.7172 7697511
0 0 0 0
-25.6544 791.57996 1527.4904 0
-16.651184 793.77191 1531.7201 6
-7.6834402 804.93048 1553.2524 11
1.5257981 808.86359 1560.8422 270
10.747616 806.98914 1557.2251 528
19.942316 805.75061 1554.8351 529
29.133482 805.19702 1553.767 274
37.364941 784.75317 1514.3169 17
46.296551 784.08337 1513.0244 14
54.549473 774.00098 1493.5687 11
63.522301 775.52216 1496.504 10
71.786011 769.07343 1484.0602 12
80.965118 772.7691 1491.1915 13
89.844498 773.1582 1491.9425 14
98.633209 772.7674 1491.1882 13
107.55081 773.36755 1492.3464 12
116.10559 771.46576 1488.6765 12
125.06184 772.31177 1490.3091 12
134.22638 774.24756 1494.0446 12
143.3784 775.87622 1497.1874 10
152.11356 775.19067 1495.8645 9
162.55188 782.78247 1510.514 3
170.39891 777.75433 1500.8115 4210753
176.34074 764.96033 1476.1232 7566445
184.44485 762.31201 1471.0128 6250326
196.65442 776.10498 1497.6288 7040093
208.32684 786.67883 1518.0328 7499874
218.23325 789.98456 1524.4119 9407872
228.77071 795.22131 1534.517 5986890
238.33783 796.8136 1537.5897 8026731
247.91089 798.30792 1540.4731 4341032
253.32973 786.79382 1518.2546 1644806
261.55603 784.48975 1513.8086 2696984
271.8176 788.24054 1521.0464 2105365
280.65366 787.74945 1520.0988 6381903
289.93652 788.50397 1521.5548 4277045
296.65182 782.44098 1509.8551 3289895
308.73495 790.47644 1525.3611 5263941
309.77124 770.5752 1486.9581 4803134
0 0 0 0
0 0 0 0
330.28009 757.01019 1460.782 3224619
337.45187 753.69958 1454.3937 1842712
345.354 752.14447 1451.3928 3487279
352.61856 749.31012 1445.9235 4342333
362.02731 751.05853 1449.2974 1710874
387.2695 784.81287 1514.4321 131847
409.71912 811.50757 1565.9442 10
419.22726 811.9552 1566.808 11
427.69406 810.41028 1563.8268 13
427.7005 793.23981 1530.6934 13
437.3497 794.2951 1532.7296 14
445.79297 793.16168 1530.5427 14
454.84436 793.13403 1530.4893 14
463.07199 791.69916 1527.7203 14
471.66983 790.93982 1526.2552 14
480.50946 790.60718 1525.6132 14
487.97125 788.0614 1520.7008 14
497.02524 788.13275 1520.8385 14
500.13477 778.94336 1503.1058 13
507.39642 776.42908 1498.2542 11
523.70953 787.61383 1519.8372 11
525.89453 777.53223 1500.3828 11
534.71796 777.4375 1500.2001 11
542.64984 776.07074 1497.5627 11
551.86475 776.55341 1498.494 11
565.49591 783.13672 1511.1976 65545
566.95306 772.91815 1491.4792 65545
573.80286 770.25208 1486.3346 7
586.25354 775.07147 1495.6344 5
591.50848 770.37567 1486.5731 131074
600.2135 770.24506 1486.321 1643796
607.4848 768.30505 1482.5774 2565149
611.26544 762.06842 1470.5427 2630683
612.10205 752.38824 1451.8633 4736314
620.36658 751.98016 1451.0758 5986126
631.60065 755.13361 1457.1609 7104864
645.86169 761.77222 1469.9712 7170656
650.02234 756.47968 1459.7583 3946541
657.52783 755.16748 1457.2263 7236191
671.28937 760.98138 1468.4452 1578509
668.39911 748.01129 1443.4171 4472884
684.85388 756.74463 1460.2695 6314573
693.86395 757.13641 1461.0256 7038296
703.57593 758.27509 1463.2229 3353887
712.51398 758.56207 1463.7767 5919816
717.5921 754.78229 1456.4829 3618092
724.04303 752.51904 1452.1156 7500130
734.78912 754.72058 1456.3639 5326904
732.7951 743.93726 1435.5555 7629658
742.12604 744.76654 1437.1559 4537642
748.83392 742.97449 1433.6978 3616540
763.11316 748.65051 1444.6506 5787196
778.07318 754.86115 1456.6351 7761760
792.29962 760.23163 1466.9984 4537902
810.79083 769.53326 1484.9475 6379853
817.47748 767.55176 1481.1238 4998968
814.44208 756.58081 1459.9535 5919813
830.56183 763.44775 1473.2045 5459264
835.63739 760.12573 1466.7941 4800823
864.14893 777.97089 1501.2294 5788744
865.29279 771.065 1487.9033 7565668
850.91071 750.60284 1448.418 10065803
903.164 788.74261 1522.0151 6644310
924.29858 799.22052 1542.2343 3749422
934.75531 800.35083 1544.4154 6973792
927.93091 786.8064 1518.2789 7500135
931.65558 782.3808 1509.7391 6447449
942.52283 783.98053 1512.8259 5723982
957.2984 788.77039 1522.0688 8619130
966.70117 789.08521 1522.6764 6052947
975.86511 789.20105 1522.8999 7104864
982.00171 786.88898 1518.4382 6117968
999.78693 793.86829 1531.9061 4472884
1005.5873 791.2912 1526.9332 6051658
1011.423 788.78766 1522.1023 5787718
1016.8916 786.04456 1516.8088 3551012
1031.5181 790.36639 1525.1487 4011564
1046.0702 794.55688 1533.2349 4998459
1054.9213 794.38202 1532.8975 5261633
1049.9373 783.88092 1512.6338 4933695
1071.0804 792.89899 1530.0356 3881007
1087.467 798.27405 1540.4077 4736059
1100.5062 801.12292 1545.9052 3618091
1098.0857 792.76355 1529.7744 2235924
1102.2842 789.28058 1523.0533 6446421
1099.7837 781.09625 1507.2604 4341560
1121.0427 789.78265 1524.0222 6645339
1124.3469 785.78198 1516.3022 4407350
1131.984 784.84888 1514.5016 2762526
1141.8563 785.46808 1515.6964 5460292
1142.2937 779.638 1504.4463 4473399
1163.8 788.16681 1520.9042 6710361
1169.4008 785.87555 1516.4828 4407095
1181.938 788.24524 1521.0554 4933438
1189.8304 787.50482 1519.6267 1380877
1191.6294 782.77283 1510.4956 3881007
1185.7554 773.10858 1491.8467 4538938
1192.2039 771.56213 1488.8625 3815216
1211.0568 778.00726 1501.2994 4144181
1209.9403 771.62317 1488.9803 5131075
1220.2711 772.57904 1490.8248 7236195
1222.3024 768.30432 1482.576 7105124
1235.6823 771.1731 1488.1118 4604734
1255.5897 778.0462 1501.3746 4999750
1258.6428 774.45197 1494.439 7170662
1277.0869 780.31195 1505.7468 6315351
1293.5154 784.86761 1514.5377 5328455
1300.0083 783.37347 1511.6545 6315350
1304.751 780.85229 1506.7894 6841694
1311.5807 779.6059 1504.3844 4604733
1319.6624 779.11554 1503.4381 2696735
1324.2152 776.56219 1498.5111 5196869
1339.7467 780.43842 1505.9908 3420458
1354.0997 783.5813 1512.0555 6052178
1375.4636 790.71313 1525.8177 4867904
1379.8831 788.07465 1520.7263 5920593
1390.0183 788.71375 1521.9595 6052180
1389.6578 783.42743 1511.7587 3815218
1405.1849 787.10815 1518.8613 5131076
1411.0829 785.38275 1515.5317 4143924
1421.4977 786.17712 1517.0647 3683119
1417.1807 778.86517 1502.955 7697002
1433.6975 783.02301 1510.9784 1249548
1440.6371 781.93103 1508.8712 6052694
0 0 0 0
0 0 0 0
0 0 0 0
0 0 0 0
0 0 0 0
0 0 0 0
0 0 0 0
0 0 0 0
0 0 0 0
0 0 0 0
0 0 0 0
0 0 0 0
0 0 0 0
0 0 0 0
0 0 0 0
0 0 0 0
-1158.2456 722.50116 1378.4329 4079154
-1154.9454 725.55811 1384.2651 3158053
-1162.2942 735.39642 1403.0353 3289639
-1128.5402 719.18292 1372.1022 3881261
-1127.225 723.55646 1380.4463 3288865
-1104.7524 714.31378 1362.8126 2433555
-1098.3978 715.43353 1364.9489 7631708
-1088.7222 714.39062 1362.9591 3880482
-1099.2731 726.70343 1386.4502 1511936
-1093.558 728.36755 1389.6252 2564623
-1094.588 734.58362 1401.4846 4209447
-1081.619 731.42822 1395.4645 2367499
-1073.2462 731.35608 1395.3269 3682846
-1057.1243 725.9613 1385.0344 5065005
-1054.0009 729.47852 1391.7448 2893585
-1058.4346 738.32269 1408.6182 1972488
-1052.2518 739.84296 1411.5187 4143653
-1047.6528 742.51007 1416.6072 3946275
-1038.0836 741.66919 1415.0029 2893844
-1032.1455 743.42999 1418.3623 4276008
-1018.3845 739.53888 1410.9386 6578763
-1005.4202 736.16669 1404.5049 6645068
-996.99823 736.0918 1404.3621 2697492
-990.48993 737.44049 1406.9352 4539178
-984.38977 739.11853 1410.1366 3486491
-977.5199 740.24237 1412.2808 4999216
-959.26941 732.69312 1397.8778 2170121
-950.29358 732.15802 1396.8568 2762776
-943.19458 733.07233 1398.6012 5263164
-933.22473 731.75171 1396.0817 4868661
-928.03662 734.19031 1400.7343 4539441
-924.72229 738.16882 1408.3247 3091998
0 0 0 0
-891.91736 725.06567 1383.3257 6118731
-882.48132 724.04761 1381.3833 6250059
-879.55481 728.40125 1389.6895 6118221
-878.63873 734.51788 1401.3591 6907740
-872.13837 736.03827 1404.2599 1709833
-855.50806 728.95654 1390.7489 4933943
-846.44586 728.24841 1389.3979 4145454
-837.25153 727.41156 1387.8013 6185038
-831.55975 729.63129 1392.0363 3619115
-833.36963 738.54364 1409.0398 6316366
-822.60657 736.38129 1404.9143 5855816
-813.3905 735.57367 1403.3735 2434324
-812.19562 742.07806 1415.783 1710344
-810.61176 748.35919 1427.7665 2894617
-799.13788 745.5459 1422.399 5460801
-794.09662 748.73785 1428.4889 4473649
-788.49664 751.46613 1433.6941 2368022
-779.85254 751.32104 1433.4174 1249800
-760.80048 741.03528 1413.7935 2499608
-752.78314 741.38812 1414.4667 6249810
-747.62744 744.59894 1420.5925 526084
-738.44849 743.83032 1419.1261 3355687
-734.84271 748.72253 1428.4597 3750186
-724.4447 746.72748 1424.6534 3880995
-716.98242 747.74719 1426.5989 7630682
-710.255 749.56665 1430.0702 7434331
-701.75116 749.53271 1430.0054 3881515
-684.81915 740.38593 1412.5546 3157539
-683.63239 748.24622 1427.5509 4605241
-681.96515 755.77087 1441.907 1775885
-673.22791 755.552 1441.4894 9473919
-665.66364 756.66083 1443.6049 7434849
-661.88586 762.15863 1454.0939 5197363
-647.05658 754.90778 1440.2603 3552028
-634.70959 750.39795 1431.6561 1906952
-628.30597 752.88776 1436.4064 5393973
-614.10852 745.97852 1423.2245 4143905
-601.46533 740.79126 1413.3279 4735528
-591.12335 738.33173 1408.6355 6314304
-581.10992 736.21808 1404.6029 2761485
-574.84991 738.86743 1409.6575 3813915
-567.85132 740.63141 1413.0229 5524790
-566.66376 750.14087 1431.1656 985860
-559.12201 751.39978 1433.5675 3880736
-549.32373 749.61829 1430.1687 6643530
-534.99933 741.50775 1414.6949 3683873
-516.67346 727.50476 1387.9791 4276006
-504.18942 721.40759 1376.3466 5657665
-499.00058 725.71967 1384.5734 3749923
-490.41412 725.15198 1383.4902 2631183
-485.66861 730.34094 1393.3901 2104074
-477.73294 730.82898 1394.3213 4735534
-476.08292 741.1192 1413.9536 3485725
-465.52692 737.66571 1407.3649 3682334
-451.08017 727.80872 1388.559 3748642
-459.31534 754.86206 1440.1731 3156502
-451.93243 756.78613 1443.8439 6644302
-445.18069 759.86176 1449.7118 2104590
-439.18262 764.37006 1458.313 3091480
-431.16321 765.47076 1460.413 5065005
-421.78616 764.1568 1457.9062 5657663
-414.31821 766.31903 1462.0314 8815984
-409.02432 772.68048 1474.1682 3091745
-399.53494 771.22113 1471.3839 5921090
-388.64261 766.92804 1463.1932 4144934
-379.15466 765.27368 1460.037 6842712
-369.15369 762.48236 1454.7115 5198141
-358.80887 758.83051 1447.7443 6842452
-351.4166 761.39685 1452.6406 7697250
-342.76102 761.28619 1452.4294 8026214
-334.51288 762.09814 1453.9785 5789253
-325.45068 761.04932 1451.9775 5394490
-314.15146 754.57043 1439.6167 10592913
-306.51859 756.78198 1443.8361 8026478
-301.09372 764.72852 1458.9969 5855567
-295.14691 771.77985 1472.45 5197637
-288.26273 776.73505 1481.9037 6184532
-275.53085 765.74963 1460.9451 7565927
-263.19952 755.20099 1440.8197 5395015
-257.35458 763.18054 1456.0436 6578774
-248.22893 761.64716 1453.1182 4539191
-240.68405 765.02826 1459.5688 5526086
-231.99258 764.88104 1459.288 4210228
-223.10754 764.05951 1457.7206 7697769
-214.37262 763.70667 1457.0474 8355955
-204.55804 759.31653 1448.6715 4737339
-196.47815 761.26288 1452.385 6381653
-188.34763 763.1825 1456.0474 6250323
-179.09297 760.51276 1450.9537 6118737
-169.11678 754.35529 1439.2062 4934463
-161.71706 759.64667 1449.3015 6316373
-153.21188 760.04767 1450.0665 5329220
-146.00343 767.31104 1463.9241 4013365
-139.12076 777.31201 1483.0045 4868672
0 0 0 0
0 0 0 0
-111.17051 766.3291 1462.0505 6974052
-124.09144 927.67346 1769.8735 1578769
0 0 0 0
0 0 0 0
-88.822517 889.48407 1697.0134 3749930
0 0 0 0
0 0 0 0
0 0 0 0
0 0 0 0
0 0 0 0
-25.509117 796.09503 1518.84 986894
-16.631174 801.88135 1529.8794 263
-7.5204625 796.86322 1520.3055 267
1.4785861 792.79608 1512.5459 782
10.051142 763.32159 1456.3127 1040
18.696548 764.05231 1457.7068 1042
27.2941 762.98358 1455.6677 785
36.779842 781.29529 1490.6041 528
45.526039 779.84821 1487.8433 15
54.293064 779.16949 1486.5483 14
64.254532 793.4295 1513.7544 11
71.683029 776.74945 1481.9313 12
81.856369 790.20709 1507.6064 11
89.72554 780.96149 1489.9672 11
98.351387 779.36823 1486.9275 11
107.13401 779.17719 1486.563 12
115.95647 779.28284 1486.7645 12
124.77274 779.3349 1486.864 12
133.66412 779.81842 1487.7864 11
142.69269 780.9928 1490.027 11
151.28148 779.76367 1487.682 7
160.13217 779.9455 1488.0288 3
169.0882 780.59467 1489.2673 5395537
174.71486 766.57153 1462.5132 7369576
185.21895 774.26251 1477.1865 7895405
195.91324 782.01868 1491.9843 7303011
205.87094 786.29193 1500.137 4012590
217.31215 795.64313 1517.9778 6578772
227.68382 800.49078 1527.2264 6775895
236.64532 800.19958 1526.6708 5920842
243.26115 792.2901 1511.5806 5525826
249.84616 784.8454 1497.3771 3420450
260.95157 791.62421 1510.3102 2959899
270.72473 794.04614 1514.931 2368533
280.6189 796.65619 1519.9105 3619364
285.15625 784.36914 1496.4685 4211508
295.09912 787.24347 1501.9524 3158826
301.74088 781.40082 1490.8054 2632226
0 0 0 0
305.50287 747.39117 1425.9197 4605760
316.54846 753.57635 1437.7201 7106152
328.36124 761.21582 1452.2952 4079418
337.51202 762.4516 1454.653 460549
345.58856 761.25958 1452.3787 2828838
354.2482 761.37872 1452.606 3158061
360.62152 756.6947 1443.6696 1184275
370.69174 759.80542 1449.6042 262921
395.55569 792.41107 1511.8115 9
408.39774 800.02307 1526.3341 11
416.98947 799.15942 1524.6864 12
423.32571 794.1015 1515.0365 14
440.21643 808.64124 1542.7764 14
442.06326 795.51721 1517.7375 14
451.66092 796.58649 1519.7775 14
460.07907 795.57422 1517.8463 14
469.78326 796.78204 1520.1506 14
480.41336 799.48523 1525.308 14
487.42889 796.18451 1519.0107 14
495.79788 795.17419 1517.083 14
504.54916 794.80194 1516.3729 14
511.74911 792.04181 1511.1069 11
519.14673 789.67725 1506.5956 12
522.98877 782.0755 1492.0927 12
536.242 788.5661 1504.4757 12
540.20551 781.40692 1490.817 11
549.49622 782.05981 1492.0626 11
556.20361 779.07373 1486.3655 11
561.1767 773.78918 1476.2833 11
572.86133 777.77924 1483.8959 11
577.64435 772.4198 1473.6709 7
584.46002 769.89771 1468.859 5
596.29047 773.95844 1476.6063 2
600.0014 767.51538 1464.3138 525832
608.90955 767.80951 1464.875 2236700
606.96936 754.60815 1439.6887 2104857
615.46942 754.57269 1439.621 4934724
622.59857 752.88031 1436.3922 6118483
639.01459 762.31238 1454.3873 8354930
644.27374 758.36102 1446.8486 2695704
649.49707 754.4718 1439.4285 3023897
654.61743 750.56519 1431.9752 8486000
664.5932 752.25452 1435.1982 4669752
673.95032 753.20972 1437.0206 5459265
685.98407 757.09515 1444.4335 6776152
698.31366 761.20728 1452.2789 7236704
707.00629 761.30316 1452.4618 4670007
710.06885 755.40717 1441.213 2762008
718.95923 755.77753 1441.9197 7367262
726.04669 754.26617 1439.0363 1643789
732.18683 751.8172 1434.3639 7103828
735.10016 746.14905 1423.5499 5130039
746.69086 749.31744 1429.5947 5656381
758.74261 752.87231 1436.3768 3748127
767.35144 752.96979 1436.5629 6708812
775.69543 752.80817 1436.2545 5854019
802.3457 770.22351 1469.4806 6182217
780.11859 740.8479 1413.436 7104088
812.53455 763.43762 1456.5341 4999226
827.19305 769.0434 1467.2291 6315089
835.66791 768.84357 1466.8478 4407349
841.974 766.67279 1462.7063 5131073
833.72192 751.42523 1433.6161 7895400
847.64545 756.27026 1442.8597 8816245
888.86377 785.12799 1497.9163 5921096
889.15784 777.62433 1483.6003 6118221
911.42822 789.29913 1505.8741 5920589
918.30664 787.54718 1502.5317 6512727
924.13965 784.94098 1497.5596 6183763
926.83557 779.74518 1487.6467 5131074
944.59222 787.19849 1501.8666 6512727
953.90051 787.53766 1502.5137 6973277
974.59399 797.18335 1520.9163 9210238
979.88275 794.16718 1515.1619 5393986
987.99841 793.47607 1513.8433 5657158
1000.5104 796.29645 1519.2241 5130814
999.10529 788.08881 1503.5651 5525318
1002.3051 783.6264 1495.0514 3617320
1022.3133 792.26825 1511.5389 2762267
1044.1588 802.17163 1530.4332 5065022
1045.4081 796.21759 1519.0737 5920843
1049.5664 792.56195 1512.0994 3947310
1066.0571 798.20209 1522.8599 2366999
1077.2024 799.77869 1525.8678 4538679
1094.5435 805.89093 1537.5292 3947056
1090.4094 796.22101 1519.0803 3289381
1080.0679 782.21393 1492.3566 5723724
1084.4078 778.98047 1486.1877 5986125
1109.5403 790.61511 1508.385 4341558
1116.1682 788.98364 1505.2723 4670523
1122.5996 787.24017 1501.946 4275767
1133.4 788.56384 1504.4714 5131329
1148.078 792.5437 1512.0645 6842462
1151.172 788.52704 1504.4012 7566441
1157.925 787.05927 1501.601 6316116
1156.8398 780.32684 1488.7563 5131074
1170.3065 783.43762 1494.6913 5722957
1170.4294 777.63605 1483.6227 4209974
1173.9556 774.16528 1477.001 3025700
1180.0532 772.42902 1473.6885 5262662
1188.4742 772.22803 1473.3049 3617837
1191.9802 768.8595 1466.8783 4867901
1190.3164 762.22925 1454.2286 7499366
1221.0793 776.30994 1481.0927 6775388
1235.5043 779.87671 1487.8976 5920336
1239.2333 776.68921 1481.8163 6644574
1252.5765 779.52997 1487.2361 6841695
1269.5559 784.57812 1496.8673 6446936
1272.9448 781.21576 1490.4524 7170915
1297.651 790.89209 1508.9133 5987154
1299.9277 786.85925 1501.2194 5526604
1300.5382 781.87958 1491.7188 4604732
1311.449 783.11774 1494.0809 5525577
1321.5389 783.85236 1495.4825 4341560
1325.0206 780.68378 1489.4374 6841950
1333.0701 780.23059 1488.5728 4341561
1345.6349 782.40875 1492.7284 5131077
1374.6094 794.03748 1514.9144 5065285
1368.1294 785.16809 1497.9928 6315352
1373.6549 783.25854 1494.3496 5262664
1391.7236 788.47974 1504.3109 5459786
1397.376 786.64478 1500.8102 3946801
1408.9094 788.12286 1503.6301 3881009
1401.7162 779.17273 1486.5546 5657422
1421.2802 785.11505 1497.8916 3354667
1439.3976 790.18958 1507.5731 5789008
0 0 0 0
0 0 0 0
0 0 0 0
0 0 0 0
0 0 0 0
0 0 0 0
0 0 0 0
0 0 0 0
0 0 0 0
0 0 0 0
0 0 0 0
0 0 0 0
0 0 0 0
0 0 0 0
0 0 0 0
0 0 0 0
-1153.108 727.42633 1372.3187 4868407
-1147.5145 729.03772 1375.3586 4539440
-1147.0302 733.94135 1384.6096 3618337
-1111.1624 716.112 1350.9738 4013096
-1101.6486 715.13165 1349.1243 2565141
-1101.1326 720.02039 1358.3472 1381125
-1082.4163 712.99268 1345.089 3682596
-1075.9851 714.01288 1347.0137 2235919
-1093.0048 730.72638 1378.5443 2301197
-1088.1603 732.96429 1382.7662 3024919
-1083.3136 735.2345 1387.0492 4669999
-1081.9381 739.91339 1395.8761 394240
-1065.6804 734.40845 1385.4907 4275493
-1047.7252 727.63904 1372.72 4669994
-1045.8616 732.02655 1380.9972 3880226
-1061.1168 748.55981 1412.1879 1117699
-1047.0062 744.47522 1404.4821 3683358
-1036.5336 742.93262 1401.5719 3091225
-1032.3485 745.9082 1407.1854 5196858
-1021.5946 744.14728 1403.8634 6118469
-1002.4906 736.22522 1388.9181 7039314
-1005.2496 744.36096 1404.2666 5131570
-994.27319 742.37689 1400.5236 5197361
-988.74219 744.45959 1404.4526 4999472
-972.8183 738.68591 1393.5604 4209698
-969.09131 742.15424 1400.1035 5196592
-958.90643 740.69409 1397.3489 4736812
-949.67487 739.95123 1395.9474 6447174
-940.65735 739.36359 1394.8389 4144420
-930.73602 738.04883 1392.3585 6249800
-922.97504 738.43903 1393.0946 4473134
-910.39008 734.94196 1386.4972 3354914
-884.63684 720.65387 1359.5421 6052170
-882.48212 725.50391 1368.6919 6446930
-880.97742 730.9834 1379.0292 4933691
-876.23053 733.84998 1384.4371 5657926
-875.17383 739.89044 1395.8328 7829094
-875.3562 747.10376 1409.4409 6842456
-851.97772 734.1535 1385.0098 6512721
-835.83777 727.24957 1371.9852 6644562
-826.62097 726.29285 1370.1804 2828570
-826.30627 733.21643 1383.2419 5921095
-824.06879 738.55536 1393.3141 4342061
-820.19904 742.52472 1400.8024 4999734
-809.99463 740.78186 1397.5144 1973260
-805.81152 744.56659 1404.6544 1710089
-801.85474 748.64172 1412.3423 2565654
-791.27075 746.54999 1408.3962 5723457
-783.07812 746.69403 1408.668 5197370
-784.39838 756.00977 1426.2424 4473395
-769.89777 750.11401 1415.1199 1249800
-760.87012 749.47949 1413.9229 3815720
-749.57666 746.57416 1408.4418 6315855
-740.36261 745.69769 1406.7883 7040090
-731.43719 745.0954 1405.6521 2171413
-729.52283 751.70343 1418.1184 4079665
-721.73633 752.3443 1419.3274 4408368
-709.88196 748.70984 1412.4708 6513743
-701.7804 748.99396 1413.0068 1315855
-692.94769 748.49518 1412.0659 2039576
-675.38989 738.44464 1393.1051 5198147
-679.01172 751.58875 1417.9021 4210222
-672.19836 753.36694 1421.2567 7039063
-669.08691 759.39185 1432.6229 10000257
-653.93298 751.72809 1418.1649 5592125
-648.97839 755.74207 1425.7374 6053438
-634.29706 748.38568 1411.8593 6118980
-623.76495 745.79358 1406.9692 2104838
-617.47601 748.27338 1411.6475 4275748
-608.47113 747.48468 1410.1595 4209185
-599.07263 746.18384 1407.7054 2366731
-582.35919 735.60638 1387.7507 4998441
-574.46698 736.02808 1388.5463 2564100
-574.93475 747.3288 1409.8655 3287570
-572.42914 755.04071 1424.4143 2826768
-563.01208 753.73077 1421.943 2235142
-555.1344 754.47314 1423.3435 1248770
-540.97504 746.56934 1408.4327 4998702
-531.33105 744.74707 1404.995 3946014
-521.58649 742.72351 1401.1775 4274981
-506.78348 733.315 1383.4279 5064497
-499.73834 735.0072 1386.6204 3814944
-491.20651 734.53302 1385.7257 3025170
-483.32181 735.02667 1386.657 2169864
-474.68542 734.37457 1385.4269 4867901
-472.05835 743.15997 1402.0009 920835
-463.18057 742.24329 1400.2715 5788997
-457.33054 746.23364 1407.7994 2170641
-456.96451 759.48676 1432.802 2105106
-450.12332 762.27606 1438.0641 3815203
-438.75043 757.35046 1428.7719 2235662
-433.34702 762.7381 1438.9358 4341031
-429.41345 770.98102 1454.4863 3025686
-420.69836 770.80078 1454.1462 5327928
-412.27032 771.14984 1454.8048 6907474
-405.89404 775.43365 1462.8864 3947561
-396.0224 773.08099 1458.448 3091738
-385.08209 768.49072 1449.7883 5394751
-375.39014 766.23907 1445.5405 6052938
-369.25977 771.32196 1455.1295 7105882
-360.16763 770.31329 1453.2267 7631973
-348.99536 764.69739 1442.632 7500388
-342.4408 769.17145 1451.0725 9671301
-331.55591 763.89905 1441.1259 7171413
-321.5712 760.47662 1434.6694 7631202
-313.1611 760.69342 1435.0784 8026730
-307.79193 768.51495 1449.834 7369060
-299.3616 768.92285 1450.6035 8619126
-288.92969 764.06183 1441.433 8092781
-279.57486 761.83978 1437.241 2500126
-270.96402 761.56909 1436.7303 6710874
-263.2991 764.0257 1441.3649 6118482
-255.87648 767.3736 1447.6808 5131328
-246.92915 766.2226 1445.5094 3486501
-240.31499 772.48877 1457.3308 7105116
-231.93367 773.32977 1458.9174 5197376
-222.60956 770.9707 1454.4669 7697767
0 0 0 0
0 0 0 0
-193.64325 758.75909 1431.4292 7631976
-185.33798 759.47559 1432.7809 6316116
-177.5106 762.31305 1438.1339 6579545
-168.76112 761.27716 1436.1797 6052429
-162.01682 769.65674 1451.988 6512977
-150.98225 757.45251 1428.9642 6447185
-145.77675 774.77881 1461.651 5657672
-134.52371 760.12219 1434.0007 6249808
-133.83398 807.20062 1522.8162 4145207
-129.11523 835.02795 1575.3134 8487542
-116.15572 809.74335 1527.613 3619118
-102.37656 773.98932 1460.1616 4802105
0 0 0 0
0 0 0 0
0 0 0 0
0 0 0 0
0 0 0 0
0 0 0 0
0 0 0 0
0 0 0 0
0 0 0 0
-16.114964 785.77411 1482.394 132103
-7.3670568 789.4314 1489.2937 267
1.471807 798.08075 1505.6111 782
10.382381 797.3891 1504.3062 1040
19.24902 795.52057 1500.7811 1298
28.267044 799.11243 1507.5574 1297
37.124596 797.53223 1504.5762 784
45.942696 795.88043 1501.4601 271
54.030975 784.17236 1479.3723 13
62.709167 783.09906 1477.3475 12
71.308479 781.42432 1474.188 12
80.190506 782.87512 1476.925 12
87.810883 772.93506 1458.1727 12
96.64267 774.4837 1461.0942 11
106.36353 782.31683 1475.8718 12
115.26289 783.37689 1477.8717 12
124.05782 783.62756 1478.3446 12
132.92949 784.29797 1479.6093 12
141.8374 785.08606 1481.0961 9
149.75099 780.59918 1472.6313 5
159.51863 785.73883 1482.3275 2566439
168.17943 785.17456 1481.2631 7237992
175.6553 779.40881 1470.3856 4737856
184.02109 777.94965 1467.6331 9276803
193.76454 782.18384 1475.6208 4538936
203.7072 786.82166 1484.3704 5394497
212.62462 787.2796 1485.2343 4408121
224.84883 799.4585 1508.2103 5461322
234.07118 800.44128 1510.0642 3750192
243.14952 800.87726 1510.8868 4737078
249.04401 791.16785 1492.5696 5921351
253.53574 777.82062 1467.3895 5131579
265.67636 788.04657 1486.6812 5263934
275.81326 791.86346 1493.882 4473904
282.29138 785.2652 1481.434 4539956
0 0 0 0
279.92688 733.10382 1383.0295 6053713
291.00949 740.45532 1396.8983 1447696
303.7157 751.41711 1417.5782 6776666
312.25812 751.76465 1418.2339 4211002
321.54062 753.8291 1422.1285 5131846
334.22775 763.56622 1440.498 855558
342.66794 763.35754 1440.1044 986121
351.35556 763.69684 1440.7445 723209
360.16788 764.28473 1441.8535 131074
390.45288 809.35529 1526.8809 65542
399.45465 809.26654 1526.7134 9
407.63385 807.55212 1523.4791 11
417.81491 809.79181 1527.7045 12
417.5072 792.03888 1494.2128 12
436.56415 810.99622 1529.9766 14
444.92157 809.71045 1527.5509 14
453.75342 809.32214 1526.8184 14
462.50513 808.8089 1525.8501 14
470.31857 806.70593 1521.8828 14
478.19504 804.78821 1518.2649 14
486.40216 803.48743 1515.8109 15
493.01938 799.65509 1508.5812 14
501.10321 798.29572 1506.0165 14
508.19479 795.43079 1500.6117 11
516.24329 794.13623 1498.1696 11
525.74359 795.08118 1499.9521 11
533.10559 792.81458 1495.6763 12
533.23138 780.03674 1471.5704 11
539.04767 775.86035 1463.6914 11
554.33655 785.23456 1481.3761 11
562.55554 784.45782 1479.9108 11
570.13165 782.82214 1476.8251 11
574.4798 776.87079 1465.5977 10
577.84906 769.7926 1452.2444 9
584.97052 767.84729 1448.5745 8
595.70074 770.62683 1453.8181 65542
600.08173 765.23041 1443.6376 5
602.7254 757.80139 1429.6224 1
605.32074 750.51831 1415.8826 789511
612.87982 749.50458 1413.9702 3618605
634.12195 765.02594 1443.2518 7960173
641.26849 763.35504 1440.0996 5131327
646.95636 760.01453 1433.7976 3749162
653.48267 757.73273 1429.4929 3156769
657.36261 752.4801 1419.5836 5262403
670.62775 757.96765 1429.936 6907996
671.8479 749.87439 1414.6678 5789516
677.73651 747.12701 1409.4849 7763564
692.54126 754.15588 1422.7451 7829357
706.677 760.29602 1434.3287 1907732
711.96326 756.88239 1427.8887 6710356
712.94141 749.02289 1413.0614 6117191
724.72424 752.56543 1419.7446 5722688
739.36401 758.95941 1431.807 3880487
745.59174 756.67126 1427.4904 6709070
753.80768 756.42957 1427.0344 5655613
757.16858 751.37537 1417.4995 3813663
778.57336 764.14154 1441.5834 5459003
781.35193 758.54785 1431.0308 8222059
791.66956 760.31494 1434.3644 7432793
803.26428 763.25793 1439.9164 4406062
810.56042 762.09741 1437.7271 4735284
820.51947 763.43884 1440.2577 3814955
827.82983 762.31335 1438.1345 7894123
830.59454 757.06781 1428.2385 7960173
844.42145 761.90918 1437.3719 4736576
854.96423 763.72028 1440.7887 6841691
863.17487 763.43286 1440.2465 8946555
871.33813 763.10968 1439.6367 5789004
0 0 0 0
913.46637 784.64478 1480.2637 4867135
918.61841 781.56708 1474.4574 3551789
930.78674 784.46075 1479.9164 5526349
942.19116 786.66248 1484.0699 7697774
957.05438 791.68463 1493.5446 5789522
971.7746 796.49768 1502.6245 8091761
973.87506 790.97363 1492.2031 4209716
978.35876 787.4671 1485.588 4078126
990.23999 789.92432 1490.2235 4933435
999.65479 790.38788 1491.0981 4867643
1021.1447 800.30707 1509.811 2564890
1027.1189 797.99939 1505.4576 6052173
1039.7524 800.86078 1510.8557 5263170
1034.7411 790.19849 1490.7408 5657672
1049.41 794.61859 1499.0796 5328710
1073.1099 805.74542 1520.0707 6381397
1075.236 800.62317 1510.4075 3881778
1084.2283 800.65594 1510.4692 5723984
1069.6346 783.41339 1477.9406 6842462
1074.7719 780.78479 1472.9816 6447189
1077.3657 776.36572 1464.6448 3552297
1097.9817 784.90045 1480.7458 6381395
1107.7578 785.61237 1482.089 4604983
1119.0632 787.3891 1485.4408 5789257
1126.1016 786.15918 1483.1205 6907998
1137.5211 787.98328 1486.5618 3026209
1134.6991 779.98975 1471.4816 6118739
1146.889 782.35852 1475.9504 5329221
1159.9729 785.29663 1481.4934 3881009
1166.6249 783.86908 1478.8002 3749681
1169.4846 779.93365 1471.3759 2367514
1178.4374 780.0899 1471.6705 4802111
1181.9666 776.67993 1465.2375 3157284
1178.014 768.43927 1449.6912 7039325
1181.6465 765.22992 1443.6366 5525572
1204.4187 774.37238 1460.8843 6512469
1226.7159 783.08124 1477.3138 7828330
1236.1715 783.52722 1478.1553 4538425
1237.8279 779.05835 1469.7245 4867904
1247.7969 779.84698 1471.2124 6578778
1263.389 784.11475 1479.2637 6315093
1272.6575 784.42596 1479.8508 5394247
1282.4141 785.0318 1480.9938 4670782
1296.9658 788.5448 1487.6211 4078389
1300.0933 785.11133 1481.1438 6578781
1312.8792 787.51746 1485.683 6644060
1312.0625 781.78656 1474.8715 6513499
1327.1455 785.54248 1481.9572 2368030
1332.155 783.32562 1477.775 5985871
1319.1078 770.58954 1453.7478 5130563
1343.1027 779.5174 1470.5905 2828324
1348.2574 777.466 1466.7206 4538942
1371.4429 785.77179 1482.3896 5526094
1367.3101 778.41925 1468.5188 7171175
1388.63 785.55853 1481.9874 2433823
1396.2925 784.93054 1480.8026 4670527
1410.5756 788.00891 1486.6101 4538684
1429.0596 793.38129 1496.7454 3025702
0 0 0 0
0 0 0 0
0 0 0 0
0 0 0 0
0 0 0 0
0 0 0 0
0 0 0 0
0 0 0 0
0 0 0 0
0 0 0 0
0 0 0 0
0 0 0 0
0 0 0 0
0 0 0 0
0 0 0 0
0 0 0 0
-1133.5135 723.05713 1348.9993 3881001
-1129.9531 725.90393 1354.3104 3815208
-1118.0704 723.4068 1349.6516 3355169
-1108.559 722.41901 1347.8086 2499347
-1103.8788 724.58807 1351.8555 1315074
-1095.0276 724.03101 1350.8162 2235663
-1086.4125 723.62299 1350.0549 1775626
-1078.6162 723.75836 1350.3075 1380100
-1081.0288 730.79724 1363.4398 3748902
-1079.4475 735.22174 1371.6946 2630675
-1073.1119 736.45056 1373.9872 2893845
-1062.9799 735.07288 1371.4169 6052421
-1056.6655 736.33435 1373.7704 5262904
-1042.6553 732.21094 1366.0774 3880741
-1040.4583 736.38379 1373.8625 2959897
-1058.5156 755.07037 1408.726 1710091
-1046.735 752.60059 1404.1182 4407089
-1030.4558 746.83099 1393.3538 3749157
-1019.0341 744.51697 1389.0366 5394234
-1019.2185 750.71393 1400.5981 4604973
0 0 0 0
-998.3783 747.53528 1394.6678 1315332
-985.43225 743.99915 1388.0704 4802608
-980.02356 746.14191 1392.0682 6447431
-973.96564 747.82269 1395.2041 5460789
-965.83234 747.92505 1395.395 4539174
-962.05438 751.43103 1401.936 5393970
-948.30267 747.14001 1393.9304 4933423
-940.60742 747.58734 1394.7649 7959899
-928.46759 744.47864 1388.9651 4933430
-906.85852 733.65375 1368.7692 5854273
-896.85724 732.10895 1365.8871 5788994
-884.81641 728.85602 1359.8181 8157543
-876.5401 728.67273 1359.4762 4341549
-878.76196 737.29419 1375.5612 7499614
-874.23517 740.36188 1381.2844 5788739
-856.31665 732.03931 1365.7571 3486504
-846.70551 730.72742 1363.3096 5854787
-844.91229 736.20233 1373.524 5197112
-834.24121 733.97284 1369.3645 3026203
-818.73407 727.40302 1357.1073 5197370
-815.18427 731.43176 1364.6237 5394749
-820.28125 743.37726 1386.9103 2303250
-820.55438 751.14874 1401.4094 5000504
-812.46393 751.3446 1401.7748 1973259
-807.96307 754.89838 1408.405 3684647
-799.28644 754.58405 1407.8186 2763548
-786.27313 750.12585 1399.501 6973528
-775.95612 748.17236 1395.8563 3091483
-766.53308 747.04797 1393.7587 5065527
-753.16547 742.01294 1384.3649 4407340
-756.01996 753.0249 1404.9098 5066040
-746.40698 751.72577 1402.486 5921862
-737.71472 751.33508 1401.7571 4079915
-729.96259 751.90387 1402.8182 4342832
-721.67242 751.92517 1402.8579 5856074
-708.17328 746.45642 1392.655 5658436
-705.01697 751.88922 1402.7909 7566434
-697.0708 752.28229 1403.5243 5855816
-685.28314 748.48914 1396.4474 8290159
-677.10944 748.59882 1396.652 5329731
-667.48981 747.09271 1393.8422 5197116
-660.97656 749.0694 1397.53 5723459
-655.58228 752.38037 1403.7073 6051395
-649.88177 755.42047 1409.3792 5064754
-642.79803 756.91089 1412.1598 5394232
-634.6059 757.11829 1412.5468 4407593
-622.33661 752.40192 1403.7474 4801836
-614.42963 752.90332 1404.6829 4209700
-600.7796 746.28448 1392.3342 4603944
-592.0401 745.66608 1391.1804 2958865
-580.36865 741.28534 1383.0073 5525045
-569.64233 738.0036 1376.8846 2827277
-572.75311 752.81366 1404.5156 920064
-565.72205 754.53369 1407.7246 4406313
-557.44312 754.61591 1407.8781 1972229
-550.09528 755.98016 1410.4233 3287830
-536.23138 748.29358 1396.0826 4669223
-525.38525 744.64343 1389.2726 4340002
-519.09869 747.44232 1394.4944 4537638
-505.97244 740.32391 1381.2137 5129775
-501.13525 745.29944 1390.4963 3156500
-492.94778 745.37524 1390.6378 1577472
-484.479 745.02106 1389.9771 2761486
-474.39139 742.12219 1384.5686 6184004
-467.5415 744.27533 1388.5858 7236958
-462.76514 749.86572 1399.0156 5197634
-456.32654 752.91724 1404.7089 5591877
-451.29385 758.44495 1415.0219 2236177
-446.82675 765.15039 1427.5321 1841165
-437.15295 763.02655 1423.5697 5130807
-432.38202 769.54517 1435.7314 2696981
-427.73743 776.55487 1448.8093 6578509
-420.25296 778.59015 1452.6066 4473388
-411.72687 778.74054 1452.8871 6973011
-399.66116 772.05957 1440.4225 7434076
-395.33337 780.36108 1455.9106 4933940
-383.41092 773.70728 1443.4966 5855043
-374.03625 772.00848 1440.3271 3552545
-366.06381 773.19208 1442.5354 7697504
-356.66745 771.35284 1439.1039 8026468
-350.01758 775.50867 1446.8574 5328443
-338.92438 769.78131 1436.172 3947304
-329.06265 766.62799 1430.2888 7631458
-319.81851 764.78473 1426.85 6118475
-314.45615 772.37604 1441.0129 8158572
-304.81015 769.57574 1435.7885 5526853
-297.72827 773.27441 1442.689 8421492
-286.95999 767.33423 1431.6064 9474695
-279.2352 769.41833 1435.4948 7500905
-270.31744 768.24304 1433.302 3223848
-261.7493 768.01727 1432.8809 7566184
-254.66232 772.26813 1440.8115 6052685
-246.48618 773.39624 1442.9163 3749670
-239.15729 777.35931 1450.3102 4868407
-230.73114 777.9184 1451.3531 6118220
-220.29918 771.49628 1439.3716 5986378
-210.19279 765.7431 1428.6379 9276286
-201.36752 764.37012 1426.0764 8092269
-192.68666 763.4491 1424.358 4078638
-182.93121 757.99103 1414.175 6710611
-175.28766 761.17993 1420.1244 6776153
0 0 0 0
-156.78355 753.1203 1405.0876 6315344
-146.14905 741.3996 1383.2206 7367262
0 0 0 0
-144.60631 826.22565 1541.4795 6380626
-136.25764 831.00354 1550.3936 2499356
-135.52277 886.26306 1653.4906 5789258
0 0 0 0
0 0 0 0
0 0 0 0
0 0 0 0
-78.523232 804.12079 1500.2388 5724491
0 0 0 0
0 0 0 0
0 0 0 0
0 0 0 0
0 0 0 0
-24.307644 775.7475 1447.303 2895400
-15.846966 781.34229 1457.7412 4541770
-7.211103 781.35602 1457.7667 66568
1.4478391 793.85864 1481.0928 1035
10.203159 792.38251 1478.3386 1295
19.152164 800.36389 1493.2296 1554
28.204477 806.25507 1504.2206 1554
37.037693 804.55786 1501.0542 1296
45.837818 802.93835 1498.0326 781
53.812767 789.73419 1473.3978 267
62.499996 789.20996 1472.4198 11
71.193207 788.88043 1471.8051 11
79.93589 789.11127 1472.2356 11
88.612404 788.70758 1471.4825 11
97.386932 789.17059 1472.3463 11
106.089 789.01855 1472.0626 10
114.81876 789.0799 1472.1771 10
123.5918 789.409 1472.7911 8
132.39912 789.89929 1473.7058 9
140.79323 788.01611 1470.1925 4
149.2948 786.91876 1468.1451 131586
158.172 787.81323 1469.8138 4737861
165.89227 783.15271 1461.1188 5527370
175.12917 785.75903 1465.9813 5658699
182.52777 780.26074 1455.7234 5592396
191.94051 783.48022 1461.7299 5723983
200.82074 784.3418 1463.3374 6052690
210.42917 787.85858 1469.8986 6052687
217.79488 783.03265 1460.8948 4933949
230.83856 798.20935 1489.2097 4605238
240.96225 802.54327 1497.2955 5197376
248.14874 797.13428 1487.204 5065789
252.60355 783.62201 1461.9944 4736567
251.80539 755.25024 1409.0615 2763039
0 0 0 0
278.18811 782.49969 1459.9005 5593160
0 0 0 0
280.47348 742.74475 1385.7301 1776147
291.89423 751.00708 1401.1451 3684396
302.99878 758.02167 1414.2321 5592135
312.61133 761.02649 1419.8381 2303262
319.00763 756.24927 1410.9254 5592908
326.5127 754.27747 1407.2466 2368288
338.37024 762.20807 1422.0427 1578772
346.6554 761.90186 1421.4713 65537
359.17422 770.69446 1437.8756 4
372.28589 780.3222 1455.8381 7
385.99103 790.72998 1475.2556 9
396.94293 795.16132 1483.5231 11
405.23221 794.1825 1481.697 12
415.10651 796.28571 1485.6208 12
424.10712 796.6604 1486.3199 14
433.49643 797.73505 1488.325 14
452.70865 816.48309 1523.3029 14
461.30884 815.73297 1521.9034 14
461.64291 800.6748 1493.8097 14
477.40363 812.43591 1515.7522 14
484.98285 810.09668 1511.3878 14
488.259 800.78491 1494.0149 14
496.60516 799.9718 1492.498 14
504.8851 799.0824 1490.8386 14
512.79669 797.65057 1488.1674 14
520.68976 796.23889 1485.5336 14
529.23352 795.8526 1484.8129 14
535.4035 791.96759 1477.5647 12
537.31793 782.01416 1458.9946 12
545.9071 781.9364 1458.8496 12
560.97699 790.99915 1475.7579 12
568.38214 789.14209 1472.2932 12
575.5343 786.99524 1468.2878 11
577.6236 778.09235 1451.6777 11
582.6413 773.33746 1442.8066 11
590.10583 771.92078 1440.1636 9
598.98334 772.36652 1440.9951 65544
601.75732 765.0401 1427.3263 65543
609.89606 764.64252 1426.5846 3
610.87207 755.39856 1409.3383 4473664
621.15381 757.75604 1413.7366 3025958
635.47589 764.91406 1427.0912 6380881
643.77118 764.72504 1426.7385 3617579
650.57971 762.79779 1423.1428 5130815
655.77161 759.04846 1416.1478 5525573
662.49567 757.14502 1412.5966 8946809
681.4826 769.12903 1434.955 6446677
643.93628 717.7998 1339.1907 6446674
684.23682 753.44025 1405.6846 4801852
686.32007 746.64703 1393.0106 11775651
702.40082 755.06213 1408.7106 5920582
717.06342 761.77313 1421.2312 3748647
719.10199 755.07281 1408.7305 6577742
733.70197 761.56464 1420.8423 5854274
739.16876 758.53674 1415.1931 6182729
747.67889 758.66479 1415.432 4603697
754.94373 757.54047 1413.3344 3880233
760.74158 754.98486 1408.5664 5328192
773.2865 759.10815 1416.2592 5196608
782.60516 760.0097 1417.9413 6841689
790.62408 759.64337 1417.2578 6709328
797.93774 758.6142 1415.3376 5328192
809.99707 762.07135 1421.7876 6315087
816.7204 760.48877 1418.835 5920073
825.31805 760.66577 1419.1653 4274736
835.50665 762.29095 1422.1973 5327424
840.40399 759.10413 1416.2517 4668981
852.92102 762.79492 1423.1376 7301986
866.67773 767.51129 1431.9368 6710105
875.44067 767.75665 1432.3947 4933694
906.67767 787.5177 1469.2626 4407352
912.88477 785.36938 1465.2545 3947317
916.8327 781.33618 1457.7299 5460299
928.02979 783.49854 1461.764 6908003
945.2265 790.63928 1475.0864 5525836
950.95911 788.14777 1470.4381 6380888
954.82196 784.16602 1463.0094 5262920
973.82745 792.5802 1478.7075 6973536
985.12921 794.63025 1482.5323 5262662
995.66174 796.02905 1485.1421 5262919
1007.663 798.56726 1489.8777 5262660
1000.5428 786.03955 1466.5049 5591626
1004.0626 782.01434 1458.995 3946542
995.35712 768.61755 1434.0007 5788748
1035.5801 792.91028 1479.3235 6249298
1049.287 796.66327 1486.3254 4736316
1061.0187 798.86652 1490.436 5197893
1070.2506 799.16699 1490.9966 5065794
1077.8817 798.27692 1489.3359 3881265
1067.6018 784.24408 1463.155 7105634
1071.1707 780.52838 1456.2227 4079155
1080.0813 780.73352 1456.6053 4802363
1101.7496 790.08405 1474.0505 4933692
1113.5598 792.27362 1478.1356 4538677
1109.3314 783.10706 1461.0337 6052428
1108.9277 776.76141 1449.1946 5920589
1122.5751 780.27985 1455.759 7631206
1143.7563 788.94153 1471.9189 4144182
1153.6847 789.76868 1473.4622 3354407
1159.3438 787.68292 1469.5707 4275509
1166.1216 786.38251 1467.1447 3749422
1170.6807 783.61627 1461.9836 4341559
1179.6635 783.83002 1462.3826 3815214
1173.083 773.77496 1443.6229 5921100
1180.4021 772.96741 1442.1162 4406577
1204.5792 783.13135 1461.079 3814188
1205.5989 778.20227 1451.8828 4076846
1213.3964 777.68713 1450.9218 5460038
1225.267 779.77136 1454.8103 5525321
1228.2167 776.1889 1448.1265 5788494
1241.0198 778.83978 1453.0723 6578268
1248.3984 778.07336 1451.6423 5393993
1253.5697 775.95111 1447.6829 2828066
1271.6056 781.76672 1458.533 5131078
1284.6205 784.43781 1463.5164 5525579
1278.7064 775.59167 1447.0123 6447709
1289.2407 776.7738 1449.2178 8092533
1305.7083 781.49133 1458.0192 3749939
1313.5607 781.02441 1457.1481 6777184
1313.4008 775.83081 1447.4584 7697512
1318.0458 773.52429 1443.1552 5131075
1335.5776 778.76178 1452.9268 4341047
1349.8033 782.01666 1458.9994 4933185
1351.4941 778.01428 1451.5321 4209463
1383.0361 791.13831 1476.0175 6906975
1401.9415 796.91412 1486.7935 3815218
1423.7406 804.25269 1500.4847 5196871
1431.2601 803.48376 1499.0502 4999492
0 0 0 0
0 0 0 0
0 0 0 0
0 0 0 0
0 0 0 0
0 0 0 0
0 0 0 0
0 0 0 0
0 0 0 0
0 0 0 0
0 0 0 0
0 0 0 0
0 0 0 0
0 0 0 0
0 0 0 0
0 0 0 0
-1121.1462 723.07269 1334.2808 3683626
-1109.9803 720.95441 1330.3719 4342061
-1102.7424 721.37537 1331.1487 1710087
-1101.1173 725.50055 1338.7609 3420705
-1096.5504 727.73328 1342.8809 2170382
-1090.3768 728.9245 1345.0791 2696727
-1083.4128 729.60101 1346.3274 3223071
-1071.725 727.08276 1341.6805 1314818
-1065.5532 728.29706 1343.9213 2433043
-1059.9163 729.89801 1346.8755 2762777
-1062.5294 737.24762 1360.4376 1841164
-1055.9089 738.25372 1362.2942 393728
-1045.3771 736.51959 1359.0942 3683617
-1038.0258 737.01691 1360.0118 6051648
-1035.0359 740.64276 1366.7026 4604460
-1037.807 748.48071 1381.166 2039304
-1033.8834 751.57666 1386.8789 4868150
-1023.927 750.30133 1384.5256 5526077
-1016.3754 750.78198 1385.4126 3420701
-1009.4778 751.75751 1387.2126 5131578
0 0 0 0
-976.75653 739.42938 1364.4636 1250054
-984.65387 751.62817 1386.974 4473897
-973.60742 749.44995 1382.9546 3881502
-965.53186 749.54108 1383.1227 4605224
-960.87683 752.31183 1388.2355 7105360
-951.16266 751.13519 1386.0643 4737067
-944.83264 752.63385 1388.8297 5262900
-934.54309 750.97705 1385.7725 5789244
-920.73859 746.44128 1377.4027 6315335
-906.30951 741.31354 1367.9404 5526078
-886.37274 731.54755 1349.9194 7170394
-879.66467 732.62122 1351.9006 5591361
-870.6861 731.8064 1350.397 2894106
-869.85266 737.88568 1361.6151 6973271
-863.57159 739.41443 1364.436 3552035
-855.10596 739.08392 1363.8262 7763037
-846.89172 738.96643 1363.6094 6249029
-839.0965 739.21582 1364.0696 4539182
-826.90033 735.55536 1357.3149 6381131
-828.28693 744.02386 1372.9418 4078634
-825.79004 749.13745 1382.3778 3355169
-820.96759 752.2226 1388.0708 6316364
-809.96216 749.64752 1383.3191 5855812
-803.8913 751.63367 1386.9841 2434071
-798.81488 754.60028 1392.4584 2434070
-792.82172 756.75366 1396.432 3881259
-780.89941 753.23346 1389.9362 2696475
-774.98444 755.49438 1394.1083 3091483
-757.7384 746.63904 1377.7676 4210475
-744.46106 741.54395 1368.3656 6250058
-749.52509 754.80731 1392.8405 4605488
-744.78802 758.38586 1399.444 4342828
-733.34229 755.13702 1393.4489 6053449
-720.92291 750.80017 1385.446 4013611
-716.06305 754.3269 1391.954 9474946
-708.49731 755.05206 1393.2921 6843227
-700.17072 754.97406 1393.1481 8356466
-698.53442 762.19409 1406.4712 7698281
-682.89642 754.12634 1391.5839 3026979
-676.92999 756.6723 1396.2819 5329731
-667.61151 755.48792 1394.0963 5262910
-656.79608 752.55865 1388.691 7105112
-649.28772 753.39246 1390.2296 4603944
-646.61761 759.93378 1402.3003 6446659
-640.31958 762.32617 1406.715 5262384
-630.85583 760.96307 1404.1996 3814682
-620.84906 758.89978 1400.3922 3419670
-612.24316 758.51611 1399.6842 3419411
-601.90894 755.95129 1394.9514 3090445
-592.77399 754.84216 1392.9048 2563850
-581.59686 751.06464 1385.9341 4866601
-572.98138 750.5343 1384.9554 1839618
-569.92413 757.37482 1397.5782 0
-560.44781 755.76105 1394.6003 4077348
-559.00085 765.08844 1411.8121 3814429
-553.99603 769.7558 1420.4248 4603688
-537.52283 758.38647 1399.4449 2497799
-525.33972 752.80847 1389.152 4274721
-518.2063 754.40442 1392.097 4341025
-506.87125 749.83624 1383.6674 3946015
-499.51865 751.1062 1386.0107 1840901
-487.94913 745.9718 1376.5364 2235401
-482.90073 750.8017 1385.4489 4144169
-473.06219 748.22235 1380.6892 4604720
-466.14609 750.2558 1384.4415 5460030
-459.46164 752.74158 1389.0286 3749666
-456.58386 761.66833 1405.501 5591617
