# .PCD v0.7 - Point Cloud Data file format
VERSION 0.7
FIELDS x y z rgb
SIZE 4 4 4 4
TYPE F F F U
COUNT 1 1 1 1
WIDTH 1366
HEIGHT 1
VIEWPOINT 0 0 0 1 0 0 0
POINTS 1366
DATA ascii
1478.3992 485.07233 5291.0293 8683888
1552.6876 498.86969 5441.5273 9670783
1587.0695 499.54486 5448.8916 7960163
1588.6111 490.06238 5345.4595 9144693
1628.2417 492.47083 5371.7305 9802366
1655.4758 491.10938 5356.8799 9539195
1724.1818 501.87073 5474.2617 9539195
1681.5068 480.41272 5240.2041 8223336
1762.1816 494.33536 5392.0679 9078645
1793.1742 494.07324 5389.209 9407610
1863.4008 504.44135 5502.3013 8223337
1896.0531 504.45612 5502.4619 8552303
1942.4852 508.07462 5541.9316 8288105
1937.6213 498.37888 5436.1733 7169878
1963.2925 496.72568 5418.1411 6314825
2008.0657 499.88098 5452.5581 6117189
2036.2091 498.86212 5441.4443 7696478
2079.0618 501.42252 5469.3726 6972757
2130.0891 505.84561 5517.6187 6249034
2100.2451 491.22028 5358.0894 6249292
2135.9163 492.12543 5367.9629 6249550
2148.4229 487.74512 5320.1836 8091499
2222.3716 497.23868 5423.7368 6644053
2294.8718 506.14218 5520.8535 7236190
2283.6394 496.58743 5416.6328 6579029
2341.3445 502.08047 5476.5498 6512467
2398.8599 507.38327 5534.3906 6183502
2458.7292 513.03424 5596.0298 6578260
2495.9702 513.87604 5605.2119 6249552
2540.0601 516.08728 5629.332 6907738
2519.8994 505.35608 5512.2788 6447188
2579.1479 510.62085 5569.7056 5788746
2685.6489 524.98956 5726.4351 5525576
2690.3989 519.3576 5665.0034 2434597
2738.2708 522.08624 5694.7666 66052
2761.2 520.05066 5672.563 9
2786.7471 518.55115 5656.2065 4213070
2790.105 513.00739 5595.7373 12308948
2684.7876 487.84674 5321.292 12242896
2829.615 508.19583 5543.2539 12374223
2846.2642 505.32141 5511.9009 12439759
2838.6646 498.25595 5434.8325 12308174
2874.2649 498.84659 5441.2754 12308689
2898.0603 497.39804 5425.4746 11256013
2861.0459 485.65891 5297.4277 7765669
2695.5396 452.59979 4936.8281 34
2912.2019 483.73035 5276.3916 39
2920.3667 479.93512 5234.9941 551
2924.3496 475.53964 5187.0493 67378
2958.1655 476.03635 5192.4673 816
2999.0476 477.64819 5210.0493 39
3043.2471 479.75021 5232.9775 34
3083.1182 481.13443 5248.0757 27
3057.7664 472.41418 5152.958 19
3148.9873 481.69846 5254.2285 790810
2974.7466 450.59094 4914.9165 7435381
2847.5266 427.1398 4659.1182 7171687
0 0 0 0
0 0 0 0
0 0 0 0
0 0 0 0
0 0 0 0
1991.1442 282.26297 3078.8435 262963
1993.4855 280.02969 3054.4834 39
2013.4202 280.28571 3057.2761 35
2032.7335 280.45145 3059.084 65565
2062.8091 282.086 3076.9131 26
0 0 0 0
0 0 0 0
0 0 0 0
0 0 0 0
3884.0442 508.66278 5548.3472 6973793
3960.0347 514.26257 5609.4282 6513241
3970.3054 511.30563 5577.1748 5328709
4059.2397 518.4444 5655.0425 6775899
4095.2837 518.76642 5658.5547 6710106
4027.0461 505.98065 5519.0918 6315348
4140.8662 516.09149 5629.3774 6183762
4157.8325 514.06586 5607.2822 7105377
4191.3794 514.10608 5607.7212 7302757
4193.0928 510.27179 5565.8979 6513497
4208.1348 508.10663 5542.2812 5855567
4245.377 508.63483 5548.0425 6052947
4312.5088 512.70837 5592.4756 6052946
4342.8882 512.38373 5588.9346 6052948
4329.2676 506.91208 5529.251 6250327
4372.2891 508.10501 5542.2632 6974050
4454.3345 513.78125 5604.1782 6513499
4576.0332 523.91351 5714.6978 6710878
4588.96 521.53497 5688.7534 6447707
4616.96 520.89172 5681.7368 5658189
4639.7236 519.67133 5668.4253 6316121
4637.6025 515.70123 5625.1206 4605247
4577.6089 505.39828 5512.7393 6118487
4610.1826 505.38895 5512.6372 6315865
4650.6367 506.23758 5521.894 7105637
4676.186 505.46323 5513.4473 7500651
4722.0288 506.87799 5528.8794 6118998
4760.5151 507.48904 5535.5444 5987670
4730.2393 500.81158 5462.709 6513757
4851.9922 510.21149 5565.2402 6776930
4892.1313 510.96027 5573.4077 6447965
4895.2373 507.85703 5539.5586 6776930
4873.8647 502.27252 5478.644 7632240
4902.8921 501.92145 5474.8149 7500654
5011.7524 509.69394 5559.5952 6382173
5099.3125 515.21295 5619.7944 7237482
5132.8823 515.24072 5620.0977 6974310
5130.3442 511.66699 5581.1167 6776933
5179.8193 513.29327 5598.8555 6710885
5164.8125 508.54968 5547.1138 6250589
5291.3125 517.7113 5647.0464 6513760
5287.0244 514.04175 5607.0195 6710884
5292.2036 511.3327 5577.4702 6645092
5349.9766 513.7074 5603.3726 6118747
0 0 0 0
0 0 0 0
0 0 0 0
0 0 0 0
0 0 0 0
-4013.3137 432.62292 4432.4995 7235949
-4128.8501 448.0087 4590.1362 3683127
-3974.7407 434.14609 4448.1055 1906717
-4016.9795 441.68796 4525.3765 1576984
-3972.6362 439.74707 4505.4907 2827307
-3985.7236 444.18015 4550.9106 1183250
-4019.3457 450.97766 4620.5552 2366756
-4024.2661 454.62592 4657.9341 2695722
-3992.2524 454.12323 4652.7837 1841182
-4010.7549 459.39978 4706.8452 2170147
-4087.4836 471.46628 4830.4741 1184020
-4004.998 465.20898 4766.3647 1380888
-3959.083 463.14102 4745.1768 1710364
-3957.5598 466.27359 4777.272 1841694
-3888.4341 461.42911 4727.6372 2236197
-3860.6973 461.46146 4727.9688 2959920
-3883.156 467.53793 4790.2261 2170147
-3768.2463 457.04276 4682.6963 1578009
-3751.3079 458.3627 4696.2202 1643547
-3734.3367 459.69843 4709.9053 1248534
-3746.8877 464.71576 4761.311 1578010
-3699.4531 462.31293 4736.6924 1775903
-3648.4272 459.42114 4707.0645 1446682
-3688.6248 468.06039 4795.5791 3420214
-3605.4146 461.05273 4723.7808 2630954
-3603.6055 464.42621 4758.3442 3618103
-3543.6375 460.29837 4716.0518 4473411
-3608.561 472.45654 4840.6201 5328720
-3563.2998 470.26782 4818.1953 5526099
-3503.0095 466.04422 4774.9219 2565414
-3490.9958 468.22696 4797.2856 2894123
-3494.3687 472.52618 4841.334 723210
-3456.5569 471.28128 4828.5791 1249297
-3315.47 455.81714 4670.1392 1972510
-3331.8523 461.9241 4732.7085 2104095
-3316.7883 463.73801 4751.2935 2235681
-3300.2354 465.37302 4768.0449 3354162
-3329.4358 473.54373 4851.7593 3486005
-3283.1702 471.02982 4826.0024 4144448
-3267.3438 472.87708 4844.9287 2104867
-3244.1648 473.68353 4853.1919 2565418
-3283.9819 483.78485 4956.686 2236452
-3259.8167 484.55768 4964.6045 2960175
-3157.8433 473.67346 4853.0884 3025968
-3117.4097 471.90494 4834.9688 5394519
-3137.3484 479.32739 4911.0166 4210499
-3114.8826 480.34955 4921.4893 5657946
-3111.3015 484.33072 4962.2788 3552823
-3045.3018 478.57858 4903.3447 4210241
-2987.3591 473.99405 4856.373 4539205
-2996.5925 480.08264 4918.7544 7170925
-2930.9463 474.17651 4858.2427 5526356
-2890.5044 472.2713 4838.7227 3618360
-2908.6643 479.99863 4917.894 2960172
-2908.5679 484.83914 4967.4883 4868169
-2883.7791 485.62045 4975.4932 2236450
-2884.5159 490.76074 5028.1587 2302244
-2875.7578 494.37604 5065.1997 2433831
-2843.1841 493.93018 5060.6318 2762797
-2848.6753 500.15811 5124.4409 2762797
-2822.5596 500.91104 5132.1553 2499626
-2778.8323 498.52087 5107.666 1051924
-2773.7185 503.0816 5154.3936 3486522
-2790.8052 511.81525 5243.8755 3684157
-2749.3577 509.88986 5224.1489 1710367
-2683.7263 503.38455 5157.4976 2105125
-2692.3889 510.8251 5233.731 1381146
-2646.3765 507.94473 5204.2197 2367783
-2609.0537 506.68402 5191.3027 855057
-2575.5186 506.13757 5185.7041 1578780
-2564.7002 510.0961 5226.2617 723726
-2522.2542 507.784 5202.5728 986644
-2491.9348 507.88632 5203.6211 1052435
-2452.3354 506.07611 5185.0742 3486777
-2443.2488 510.59656 5231.3892 3026227
-2393.4526 506.61627 5190.6089 4671052
-2390.6582 512.61072 5252.0254 4539465
-2348.0337 510.11005 5226.4048 4078915
-2324.2888 511.69897 5242.6846 4802380
-2264.2427 505.23093 5176.415 5263187
-2264.3315 512.18774 5247.6919 3618105
-2223.6445 509.98633 5225.1372 4276293
-2198.0325 511.22903 5237.8691 6579048
-2171.1426 512.20575 5247.8765 5658203
-2094.887 501.3956 5137.1196 5065810
-2061.0371 500.56583 5128.6182 4407625
-2054.5479 506.45581 5188.9648 3815488
-2053.8569 513.97571 5266.0112 6249828
-2016.3684 512.37695 5249.6309 5592155
-2010.8619 518.98242 5317.3081 4342086
-1962.2418 514.49384 5271.3193 3092276
-1958.3145 521.76788 5345.8467 6579306
-1910.3114 517.3446 5300.5273 7303802
-1865.8558 513.75024 5263.7007 4869460
-1844.4856 516.49817 5291.855 3947331
-1830.6495 521.4873 5342.9722 2631728
-1808.2974 524.18341 5370.5952 4342345
-1774.3019 523.54047 5364.0083 3289402
-1709.0057 513.46985 5260.8281 2829108
-1673.2377 512.06158 5246.3994 3223866
-1635.9608 510.12958 5226.6045 3421246
-1601.3772 508.97897 5214.8159 4473930
-1577.4695 511.24304 5238.0132 460296
-1557.0441 514.74921 5273.936 855311
-1497.3492 505.15094 5175.5957 1907745
-1491.9885 513.86493 5264.876 4342342
-1412.6038 496.91159 5091.1782 3026485
-1424.8773 512.16461 5247.4546 4079178
-1399.4153 514.23157 5268.6323 4013901
-1380.3617 518.80145 5315.4536 4277330
-1364.8781 524.95776 5378.5293 3751241
-1324.697 521.68225 5344.9692 2763833
-1313.3076 529.86249 5428.7812 3290431
-1284.0835 531.07733 5441.2275 2566195
-1243.6261 527.58911 5405.4888 4145226
-1207.6896 525.88513 5388.0308 4145228
-1194.4855 534.25604 5473.7964 3750470
-1159.4 533.03436 5461.2793 4145485
-1119.8721 529.64136 5426.5156 4935768
-1089.3737 530.44458 5434.7451 5461857
-1054.4954 529.09906 5420.959 2764079
-1028.3922 532.21033 5452.8359 2566187
-982.68353 525.0481 5379.4541 1316121
-923.17725 509.78656 5223.0903 3224118
-895.28821 511.53134 5240.9668 2960945
-853.0564 504.91217 5173.1494 592653
-831.82062 510.69009 5232.3477 7500664
-820.58344 523.29144 5361.4565 1381659
-773.99426 513.45563 5260.6826 1842726
0 0 0 0
0 0 0 0
0 0 0 0
0 0 0 0
0 0 0 0
0 0 0 0
0 0 0 0
0 0 0 0
0 0 0 0
0 0 0 0
-505.47989 601.94135 6167.2754 11190476
-457.71378 587.52667 6019.5879 10993098
-415.31479 578.14752 5923.4922 10993098
-381.92694 580.73895 5950.043 10992585
-336.68472 563.99939 5778.5356 10795975
-292.98618 546.34906 5597.6968 10991811
-254.57777 535.31714 5484.6675 10135462
-217.77423 524.92554 5378.1992 7896954
-178.93311 505.21902 5176.293 8224888
-148.75995 506.89676 5193.4824 7895407
-116.22901 499.32043 5115.8584 7895406
-85.112755 494.62045 5067.7041 8027507
-54.383018 488.26825 5002.6216 7831928
0 0 0 0
0 0 0 0
5.2913136 74.827904 766.65991 1382942
0 0 0 0
14.432256 75.125694 769.711 517
18.908247 74.793625 766.30865 1031
23.237749 74.122864 759.43634 592650
0 0 0 0
0 0 0 0
0 0 0 0
0 0 0 0
308.20673 499.53229 5118.0288 7039581
344.57529 508.45703 5209.4688 7039580
371.59357 503.2514 5156.1333 8421234
404.94586 506.76312 5192.1133 8421233
435.93298 507.0282 5194.8291 8815990
466.33951 506.62747 5190.7236 8881780
492.40656 501.85367 5141.8125 8421229
512.78363 492.17471 5042.646 8881522
546.44012 495.60553 5077.7969 9868160
579.3963 498.07635 5103.1118 8947570
615.59631 502.95227 5153.0688 7828577
654.46729 509.44662 5219.6074 7828831
692.3504 514.62067 5272.6191 8223075
716.64569 509.68427 5222.0425 8420454
738.20502 503.29108 5156.54 7301974
787.16406 515.34418 5280.0317 6841423
817.96881 515.04486 5276.9653 7762269
836.65424 507.41742 5198.8169 7630940
851.54773 498.11346 5103.4922 6841424
898.80298 507.72855 5202.0049 7565404
924.67334 505.0264 5174.3193 7697249
956.90399 505.85995 5182.8599 7302492
979.93555 501.92984 5142.5933 6973529
1022.6724 508.02563 5205.0483 7039324
1055.1361 508.81061 5213.0908 7434340
1081.0739 506.49344 5189.3501 8092528
1113.9291 507.45575 5199.21 8026735
1153.4426 511.31784 5238.7793 7500392
1185.4181 511.72354 5242.936 6645082
1203.4152 506.22836 5186.6343 6381394
1232.5101 505.55893 5179.7759 8157805
1250.8783 500.62909 5129.2661 6644052
1286.8949 502.8287 5151.8027 6381392
1328.4131 507.02634 5194.8101 6775893
1359.8381 507.26874 5197.2935 8749683
1372.8217 500.77332 5130.7441 8683889
1408.5802 502.68726 5150.3535 8618095
1442.913 504.02191 5164.0278 8223079
1434.1989 490.57675 5026.2734 8815472
1503.7516 503.90561 5162.8364 10262918
1514.1499 497.2756 5094.9077 10197126
1541.8729 496.4834 5086.791 10723727
1597.7454 504.61188 5170.0728 9802369
1631.1746 505.47974 5178.9644 9868161
1634.7949 497.24869 5094.6318 9144693
1666.9208 497.82935 5100.5811 8947058
1709.9836 501.59747 5139.188 8815472
1762.2565 507.88812 5203.6396 8157542
1790.405 507.1293 5195.8652 7893859
1857.4497 517.22717 5299.3242 8222567
1868.8479 511.75156 5243.2231 7038293
1898.7206 511.43124 5239.9409 6643535
1875.0642 496.93478 5091.4155 7499617
1907.708 497.58188 5098.0454 7828580
1945.6498 499.56912 5118.4062 7960167
1937.6569 489.88214 5019.1567 6710100
2010.9999 500.74069 5130.4097 6512721
2005.576 491.95486 5040.3936 6249295
2113.8042 510.89597 5234.457 6775639
2142.7207 510.39722 5229.3472 7565155
2160.6582 507.33487 5197.9712 7170910
2103.842 487.05258 4990.166 6710360
2186.6455 499.20734 5114.6992 7631461
2257.6191 508.36597 5208.5352 7434083
2279.4043 506.3508 5187.8887 7433828
2337.5945 512.36877 5249.5469 7104863
2376.2561 514.00458 5266.3066 6644569
2413.9612 515.39368 5280.5386 7104607
2430.3042 512.24463 5248.2754 6841435
2477.7349 515.64496 5283.1133 5657420
2554.3015 524.94824 5378.4316 6316380
2647.7119 537.44135 5506.4316 6710626
2671.5667 535.68359 5488.4219 11582664
2713.2568 537.50128 5507.0454 11452879
2780.8325 544.34283 5577.1411 11387084
2780.79 537.94293 5511.5703 9741232
2792.8672 534.00897 5471.2646 3818831
2731.4941 516.28235 5289.644 4409422
2807.1882 524.57123 5374.5688 2633012
2805.6685 518.40735 5311.4155 3422803
2830.0369 517.11035 5298.1274 1710629
2844.4407 514.0412 5266.6816 526369
2818.4478 503.81735 5161.9321 281
2851.998 504.34253 5167.313 65811
2884.564 504.68433 5170.8149 132891
2902.8545 502.54758 5148.9224 20
2912.3708 498.95209 5112.084 14
2951.2808 500.41449 5127.0674 18
2984.2957 500.8577 5131.6084 66581
3011.9182 500.39606 5126.8789 263700
3065.4844 504.211 5165.9648 1448482
3081.8721 501.89572 5142.2437 3224630
0 0 0 0
0 0 0 0
0 0 0 0
0 0 0 0
0 0 0 0
1935.8217 297.60593 3049.1636 131116
1955.2045 297.80679 3051.2214 41
1969.3787 297.21793 3045.1882 40
1989.8224 297.57736 3048.8708 35
2008.5795 297.6803 3049.9258 34
2025.5385 297.51736 3048.2561 28
2048.366 298.21164 3055.3696 26
2074.3203 299.34503 3066.9817 25
2088.4854 298.77216 3061.1123 23
2085.2446 295.74054 3030.0515 19
0 0 0 0
0 0 0 0
0 0 0 0
3845.4624 527.22955 5401.8047 5329479
3925.2197 533.72302 5468.335 6315859
3853.7639 519.71765 5324.8408 6382167
3824.4268 511.5737 5241.4009 8223600
3894.1042 516.69891 5293.9121 6183760
3928.1304 517.04956 5297.5044 6183761
4019.4268 524.87323 5377.6626 5328453
4075.5796 528.02075 5409.9111 6973277
4063.9519 522.40613 5352.3862 6512982
4096.2788 522.48499 5353.1943 6184016
4100.2329 518.9715 5317.1958 6512981
4141.1011 520.14813 5329.2515 6052430
4176.8369 520.66724 5334.5698 5789258
4278.2661 529.30603 5423.0801 6512980
4284.897 526.17517 5391.002 6710875
4263.1318 519.62933 5323.936 7105378
4323.6011 523.12958 5359.7983 7368293
4286.9907 514.9184 5275.6694 6249812
4448.3271 530.42969 5434.5928 6447192
4490.3691 531.59534 5446.5356 6710107
4364.3486 512.99011 5255.9131 6775900
4398.3369 513.32294 5259.3228 7170402
4379.8096 507.56506 5200.3296 5328456
4434.124 510.27014 5228.0449 5658190
4493.5522 513.52209 5261.3633 5460811
4570.7939 518.75092 5314.936 5921362
4386.9043 494.47458 5066.209 6447705
4600.2075 514.9939 5276.4429 6908001
4656.522 517.77997 5304.9878 6512989
4652.8315 513.90118 5265.2471 6118487
4644.9478 509.61392 5221.3218 6579038
4657.0874 507.56577 5200.3369 6710624
4765.4907 515.96716 5286.4146 5921108
4974.9966 535.13385 5482.79 6381917
4852.2437 518.54443 5312.8203 6381915
4976.832 528.43115 5414.1162 6842723
4908.3408 517.82166 5305.415 7171945
4900.9727 513.75446 5263.7441 7106152
4972.9814 518.00696 5307.314 6579551
4945.2041 511.87726 5244.5107 6711393
4985.5762 512.83417 5254.3149 6184793
5000.5352 511.18124 5237.3799 6316379
0 0 0 0
0 0 0 0
0 0 0 0
0 0 0 0
0 0 0 0
0 0 0 0
-3956.3645 455.34982 4398.3804 854798
-4048.7561 469.07281 4530.9355 920591
-3972.2451 463.27997 4474.9805 1446936
-3886.2065 456.29065 4407.4683 262917
-3930.1799 464.57513 4487.4907 460041
-3916.3486 466.09296 4502.1519 1051922
-3849.3088 461.25577 4455.4277 460041
-3889.54 469.29453 4533.0771 723214
-3828.2495 465.11081 4492.665 131332
-3854.1858 471.54028 4554.7695 262919
-3815.5447 470.10391 4540.8955 723214
-3857.2061 478.61139 4623.0718 657678
-3869.4836 483.56839 4670.9531 591885
-3821.9919 481.0737 4646.856 789007
-3754.1765 475.96603 4597.5195 854800
-3659.4756 467.35022 4514.2964 1775389
-3669.8682 472.12778 4560.4443 1051410
-3639.9939 471.75748 4556.8677 1051410
-3618.895 472.5275 4564.3052 591371
-3639.1123 478.74435 4624.3564 788237
-3640.4714 482.55594 4661.1738 2235683
-3547.928 473.88358 4577.4043 2827820
-3542.4871 476.80112 4605.5859 1578009
-3588.3501 486.72287 4701.4233 5789275
-3502.7917 478.83438 4625.2256 4802378
-3450.3406 475.38297 4591.8872 5065294
-3409.8928 473.54367 4574.1211 4144449
-3366.4619 471.25735 4552.0366 5262931
-3385.5742 477.75992 4614.8472 3157812
-3360.0972 478.02484 4617.4062 4605000
-3338.0867 478.79138 4624.8105 3420725
-3330.8726 481.71042 4653.0063 2170915
-3326.3672 485.07318 4685.4888 2631210
-3245.9385 477.32779 4610.6729 3026224
-3238.5771 480.28687 4639.2559 3288625
-3195.4543 477.94772 4616.6616 4143935
-3238.6375 488.58856 4719.4448 2696745
-3218.6492 489.80151 4731.1611 2828331
-3268.9592 501.82751 4847.3242 2828332
-3243.2632 502.29535 4851.8433 3223346
-3224.2175 503.8107 4866.4805 4012608
-3110.0667 490.35834 4736.5396 5196882
-3082.3706 490.41629 4737.0996 4802894
-3043.7578 488.72247 4720.7383 4473930
-3023.4763 489.9679 4732.7681 4013635
-3015 493.16757 4763.6753 5329238
-2993.2336 494.2334 4773.9702 7303029
-3028.3633 504.80359 4876.0713 5000015
-2979.8884 501.50699 4844.2285 5592408
-2964.6799 503.79941 4866.3716 2433831
-2925.8044 502.0755 4849.7197 1776156
-2881.9436 499.45337 4824.3916 2828590
-2856.4434 499.99258 4829.6001 2960175
-2832.3337 500.7886 4837.2891 1907487
-2840.2517 507.32162 4900.394 2236708
-2824.7302 509.75964 4923.9434 2565419
-2795.8167 509.80643 4924.3955 2368040
-2793.2556 514.71027 4971.7632 3025971
-2780.908 517.89594 5002.5352 3157813
-2748.7881 517.42847 4998.019 2828848
-2723.8542 518.31818 5006.6133 2960434
-2670.0876 513.68048 4961.8164 3092020
-2661.1985 517.66937 5000.3467 3026226
-2675.6543 526.34039 5084.1025 2697261
-2651.645 527.55603 5095.8447 2631469
-2654.9026 534.28693 5160.8613 1512986
-2608.0027 530.9632 5128.7559 2302503
-2542.1472 523.65643 5058.1772 1907746
-2541.6018 529.789 5117.4141 3947584
-2491.3086 525.57465 5076.7065 6184547
-2493.5608 532.47797 5143.3877 3421241
-2440.2441 527.53906 5095.6812 4013122
-2439.5796 534.00153 5158.104 4407880
-2370.6526 525.49628 5075.9492 5592154
-2306.7498 517.90051 5002.5791 3420984
-2292.9475 521.50183 5037.3652 4210500
-2272.9426 523.76874 5059.2622 3486778
-2269.5435 529.97394 5119.2007 4210502
-2224.3472 526.45483 5085.208 1579035
-2218.2153 532.21167 5140.8154 3947843
-2155.521 524.36896 5065.0601 7171445
-2103.5022 518.93848 5012.605 3552574
-2067.8298 517.44293 4998.1592 1710624
-2050.1387 520.46881 5027.3872 4013125
-2051.9753 528.61456 5106.0698 3815745
-2050.3911 536.10962 5178.4668 3815746
-1998.0519 530.35999 5122.9292 5197911
-1966.1515 529.94196 5118.8911 3816258
-1950.8752 534.06171 5158.6855 3816516
-1875.0757 521.48041 5037.1587 3290172
-1893.2855 535.06006 5168.3291 4606290
-1848.5133 530.99432 5129.0566 3553603
-1800.0078 525.70233 5077.9395 3356480
-1754.288 521.0578 5033.0767 2763831
-1778.5459 537.39685 5190.9009 3092025
-1734.079 533.17993 5150.1685 3816004
-1707.7106 534.4765 5162.6919 4671313
-1685.6501 537.19305 5188.9321 2631984
-1651.9751 536.24048 5179.731 3289912
-1607.9972 531.84412 5137.2651 2039332
-1548.7758 522.13916 5043.5215 1249815
-1508.6758 518.62555 5009.5825 1446938
-1485.8885 521.04181 5032.9219 2434088
-1479.2823 529.34729 5113.1475 1118227
-1445.1652 527.94971 5099.6475 1184536
-1393.338 519.8844 5021.7422 2237483
-1391.8271 530.65088 5125.7393 4408911
-1351.1118 526.61713 5086.7754 3488581
-1337.9205 533.37189 5152.0225 2369844
-1323.1456 539.79608 5214.0757 3422019
-1298.8298 542.54193 5240.5991 4014156
-1271.8656 544.28894 5257.4736 3487555
-1253.5282 549.90808 5311.751 2631990
-1214.5012 546.50665 5278.896 3750727
-1183.597 546.67731 5280.5435 3684933
-1156.9091 548.85724 5301.6006 3618884
-1126.4856 549.33728 5306.2378 3684417
-1095.6455 549.63599 5309.1226 2105640
-1059.0492 546.97919 5283.46 5329240
-1026.5208 546.32562 5277.147 3421497
-995.35895 546.38123 5277.6836 3026737
-973.32373 551.61267 5328.2163 4671562
-925.09448 541.85229 5233.9375 4014150
-877.78809 531.97424 5138.522 3883078
-840.37531 527.59778 5096.248 5725276
-823.91559 536.53986 5182.623 8816788
-780.21271 527.74664 5097.686 1908520
-765.85962 538.89722 5205.3931 5922145
0 0 0 0
0 0 0 0
0 0 0 0
0 0 0 0
0 0 0 0
0 0 0 0
0 0 0 0
0 0 0 0
0 0 0 0
-538.8302 634.72467 6131.0234 10992073
-562.33472 710.29175 6860.9521 10795720
-469.58859 639.35596 6175.7588 10861513
-418.81924 618.41412 5973.4746 10861000
-381.28067 614.94598 5939.9746 10532031
-324.66187 576.87012 5572.1865 9740971
-271.34265 536.70135 5184.1826 8686468
0 0 0 0
-201.30878 514.6897 4971.5645 6908253
-173.99931 521.10834 5033.5649 8355955
-141.29486 510.68301 4932.8628 8421751
-114.26617 520.68378 5029.4634 8158833
-83.287422 513.39117 4959.022 7237732
-53.086742 505.56009 4883.3784 8028796
0 0 0 0
0.7479046 79.206451 765.08228 778
5.2804251 79.206451 765.08228 1039
9.8446102 79.462036 767.55109 1803
0 0 0 0
18.862331 79.140762 764.44781 1032
0 0 0 0
0 0 0 0
0 0 0 0
0 0 0 0
0 0 0 0
298.44708 513.0744 4955.9619 7763818
334.94714 524.24939 5063.9053 6974301
357.32825 513.30524 4958.1914 8685175
392.85941 521.47888 5037.144 9671813
413.18298 509.73721 4923.7271 9934729
450.15497 518.72852 5010.5771 8553073
477.77362 516.49603 4989.0127 8158057
507.02582 516.18671 4986.0249 8421227
534.62189 514.31818 4967.9761 9605502
570.79242 520.46313 5027.332 8092004
609.89062 528.53571 5105.3076 8947313
623.85229 515.09113 4975.4424 7170901
646.47412 509.68747 4923.2466 6973264
677.91296 511.40176 4939.8052 5788733
706.29114 510.76077 4933.6138 7894368
746.62695 518.47443 5008.1226 9078643
777.70929 519.41821 5017.2388 8289128
806.54156 518.84503 5011.7026 8091749
823.83679 511.15436 4937.4155 8091749
854.29047 511.87537 4944.3799 7302233
891.17664 516.27496 4986.8774 7039063
927.9585 520.3338 5026.083 6776148
948.08374 515.09076 4975.439 6513232
979.37543 516.04767 4984.6816 5986634
1024.424 523.98511 5061.3521 6710615
1054.1942 523.8786 5060.3232 6908252
1096.824 529.9917 5119.3721 8224112
1130.3224 531.48236 5133.7705 6250322
1153.2971 528.07623 5100.8696 6710358
1183.1001 527.89069 5099.0776 7039323
1211.2141 526.97961 5090.2769 6184013
1228.5374 521.53192 5037.6562 8158057
1273.5366 527.81281 5098.3257 8486507
1308.7036 529.82227 5117.7354 7960165
1323.9714 523.867 5060.2114 8157544
1359.2067 525.90118 5079.8599 7828577
1378.7727 521.91583 5041.3647 8881265
1401.3561 519.21753 5015.3003 9407609
1429.5962 518.68353 5010.1426 10197125
1477.0229 524.99103 5071.0688 9868160
1487.6702 518.23474 5005.8076 9539194
1525.0037 520.85712 5031.1377 9539450
1540.4082 516.03271 4984.5376 10000001
1555.8906 511.41553 4939.9385 10131587
1573.9561 507.80212 4905.0352 9934208
1635.0446 517.94855 5003.0435 8157797
1678.0717 522.11414 5043.2798 7367512
1724.4885 527.17017 5092.1177 7170133
1721.5205 517.21509 4995.958 7038547
1744.5647 515.27954 4977.2622 7301976
1775.0763 515.57733 4980.1382 5196597
1779.4004 508.38345 4910.6504 6907474
1840.0088 517.24304 4996.228 7367514
1861.4702 514.99176 4974.4824 7104858
1882.6431 512.73206 4952.6553 7302237
1896.2776 508.52017 4911.9712 6710100
1959.123 517.43298 4998.063 7236443
1961.0416 510.22824 4928.4697 7038808
2003.8728 513.72345 4962.2314 6577743
2014.4727 508.97406 4916.3555 6577742
2073.1011 516.32202 4987.3315 6512463
2110.9417 518.35876 5007.0054 5788998
2121.2742 513.67792 4961.7915 6512722
2127.8972 508.23895 4909.2549 7236702
2157.3796 508.33295 4910.1626 6051914
2214.7627 514.91107 4973.7031 6512209
2196.6897 504.00391 4868.3472 6644051
2241.2041 507.55341 4902.6328 6117706
2313.8274 517.29626 4996.7422 5394238
2345.645 517.7854 5001.4668 5985095
2357.9016 513.99817 4964.8853 5262402
2235.1543 481.23743 4648.438 6644825
2566.4092 545.83295 5272.3877 5789776
2591.3374 544.50781 5259.5879 5395282
2649.2971 550.07239 5313.3384 6316130
2642.1802 542.15314 5236.8433 7434354
2649.8774 537.42218 5191.1455 6513506
2665.2407 534.33667 5161.3418 6052954
2676.8499 530.57715 5125.0269 7368301
2724.3416 533.93433 5157.4551 7105383
2751.4946 533.27521 5151.0884 7171174
2836.2532 543.67279 5251.522 5592397
2798.9326 530.69763 5126.1904 4408121
2817.2751 528.44183 5104.4009 5066308
2842.9678 527.59802 5096.2505 3750449
2862.9111 525.71619 5078.0732 5395532
2893.8606 525.87347 5079.5928 4934984
2873.676 516.83112 4992.2495 5066315
2906.9524 517.48999 4998.6138 6119258
0 0 0 0
0 0 0 0
0 0 0 0
0 0 0 0
0 0 0 0
0 0 0 0
0 0 0 0
1914.9645 315.21005 3044.7222 65572
1932.0953 315.06219 3043.2939 39
1950.6426 315.1459 3044.1025 40
1967.0347 314.88306 3041.5637 37
1984.4077 314.78061 3040.5742 35
2003.2732 314.91461 3041.8687 35
2020.1761 314.74048 3040.1863 32
2039.441 314.93411 3042.0569 32
2058.0981 315.03134 3042.9961 32
2075.821 314.9852 3042.55 32
2093.6528 314.95618 3042.2698 29
2112.8345 315.12897 3043.939 22
0 0 0 0
0 0 0 0
0 0 0 0
3743.9407 539.97357 5215.79 6117967
3741.9226 535.26483 5170.3071 6381141
3729.0554 529.09332 5110.6938 8092016
3764.5181 529.82312 5117.7437 5526087
3855.0769 538.2337 5198.9839 5920844
3906.0271 541.02466 5225.9434 5197121
3927.8184 539.76471 5213.7729 6381395
3960.7178 540.03906 5216.4229 5657672
3970.0251 537.11725 5188.2002 5394500
3933.0601 528.02814 5100.4053 4999742
3982.2842 530.56061 5124.8672 5920843
4068.1577 537.90057 5195.7666 6052430
4092.5725 537.06519 5187.6973 5657671
4120.9453 536.75781 5184.728 5526088
4164.2817 538.38947 5200.4888 5920846
4178.0156 536.19812 5179.3218 6118225
4212.6787 536.70514 5184.2192 6644570
4290.9712 542.72308 5242.3486 6710363
4273.834 536.67126 5183.8921 6644314
4324.5825 539.16956 5208.0239 6512471
4277.3208 529.49945 5114.6172 6183763
4311.7622 530.00848 5119.5342 6841693
4365.2939 532.8407 5146.8911 6447705
4321.6377 523.85278 5060.0737 6316119
4239.7402 510.38519 4929.9858 5329223
4421.7476 528.65369 5106.4478 5658189
4279.4829 508.16818 4908.5713 5723983
4356.4292 513.81378 4963.104 6118485
4369.897 511.94696 4945.0718 6513243
4370.3403 508.58932 4912.6392 7171430
4492.0845 519.29889 5016.0864 6974051
4605.3818 528.89758 5108.8037 6579036
4529.8076 516.82202 4992.1611 5855315
4464.4463 506.06061 4888.2134 6579037
4483.3892 504.93259 4877.3174 5131335
4539.8916 508.02197 4907.1587 5197128
4650.6562 517.10547 4994.8994 5000005
4610.3452 509.38229 4920.2983 5657936
4610.105 506.15549 4889.1299 5526350
4625.9629 504.72546 4875.3169 5460558
4730.9883 512.98169 4955.0664 5197129
0 0 0 0
0 0 0 0
0 0 0 0
0 0 0 0
0 0 0 0
0 0 0 0
-3871.2319 471.048 4303.7368 3025967
-3889.4031 476.39661 4352.6045 1841694
-3869.7983 477.15875 4359.5679 2565416
-3793.6804 470.91611 4302.5317 1578521
-3856.3918 481.93863 4403.2393 1381142
-3885.5786 488.89316 4466.7793 1249556
-3811.6245 482.87665 4411.8096 657420
-3799.3347 484.64294 4427.9473 328455
-3770.2073 484.27103 4424.5493 328710
-3810.5168 492.87537 4503.1626 460299
-3784.0903 492.90802 4503.4614 657678
-3800.2017 498.52145 4554.7485 394761
-3739.2197 494.0296 4513.7085 657933
-3714.2151 494.2605 4515.8184 986644
-3687.0703 494.20798 4515.3384 1578780
-3597.1729 485.68192 4437.4399 986898
-3535.5771 480.87973 4393.5645 1578780
-3584.8926 491.20337 4487.8867 2368041
-3594.0134 496.13266 4532.9233 3157556
-3587.4382 498.95309 4558.6924 2763054
-3621.8938 507.56641 4637.3877 2170917
-3556.2405 502.1749 4588.1284 3815742
-3465.7117 493.16074 4505.77 4342086
-3486.019 499.9007 4567.3501 2894641
-3427.1375 495.30142 4525.3286 5658203
-3369.6533 490.83322 4484.5049 4276807
-3341.7732 490.64044 4482.7437 4737356
-3267.4917 483.57742 4418.2119 5460823
-3267.9258 487.54715 4454.4814 6053215
-3225.894 485.19446 4432.9863 4671562
-3250.8345 492.9588 4503.9253 3881787
-3304.9841 505.31763 4616.8418 3815994
-3286.3076 506.65506 4629.061 3553079
-3212.3748 499.42432 4562.9976 2894381
-3200.614 501.81873 4584.874 3289909
-3210.3015 507.64569 4638.1123 5197651
-3206.7986 511.46951 4673.0483 2894896
-3281.0312 527.86633 4822.8584 4408135
-3162.7708 513.31 4689.8643 5855839
-3112.252 509.58749 4655.8535 5197909
-3085.9041 509.79141 4657.7168 5724253
-3034.5535 505.8313 4621.5352 5592667
-3013.5886 506.91022 4631.3926 6316647
-2968.5808 503.92764 4604.1421 1973537
-2988.7881 512.06281 4678.4692 2105126
-2946.9106 509.61389 4656.0947 1250074
-2937.7078 512.82257 4685.4106 3486523
-2904.5981 511.87933 4676.793 3223607
-2885.9939 513.4989 4691.5898 2763311
-2859.7827 513.78326 4694.188 5000529
-2807.5359 509.34979 4653.6816 4474186
-2791.8835 511.53323 4673.6309 1250328
-2795.793 517.38049 4727.0542 2368809
-2808.4849 524.98773 4796.5581 2631468
-2737.4414 516.93799 4723.0112 2368295
-2739.5632 522.68115 4775.4839 2302503
-2703.5615 521.1947 4761.9028 3749949
-2719.8894 529.87134 4841.1772 2236711
-2719.0596 535.3548 4891.2769 1249816
-2689.9712 535.33264 4891.0747 2565676
-2639.7549 531.05951 4852.0332 4144708
-2634.0479 535.74518 4894.8438 3815487
-2614.3674 537.66144 4912.3516 4013378
-2610.8816 542.98889 4961.0259 4474186
-2563.2461 539.15112 4925.9624 3750463
-2525.6523 537.36157 4909.6118 5066323
-2527.5757 544.03601 4970.5928 3815743
-2487.2961 541.67688 4949.0386 2894642
-2459.5552 542.02466 4952.2163 3486777
-2442.5732 544.78058 4977.3955 2763311
-2438.1348 550.43555 5029.0625 5131863
-2401.8032 548.94122 5015.4092 4342599
-2343.7842 542.39056 4955.5596 6579561
-2270.0105 531.98163 4860.458 4539465
-2277.0986 540.49884 4938.2754 3947328
-2241.9263 539.07611 4925.2769 3881789
-2252.7202 548.81433 5014.25 3947328
-2243.823 553.95142 5061.1851 4276293
-2171.6797 543.40216 4964.8018 4407879
-2102.1333 533.22198 4871.79 2763054
-2091.2083 537.83496 4913.937 2170917
-2058.2053 536.81995 4904.6636 3618363
-2049.2727 542.1438 4953.3047 2828848
-2020.0032 542.16394 4953.4888 1117971
-2001.3981 545.08905 4980.2144 2368293
-1974.9517 545.93433 4987.937 3092018
-1944.4034 545.65411 4985.3765 1184020
-1930.2125 550.02637 5025.3237 2894642
-1888.6102 546.60217 4994.0386 2302763
-1844.0426 542.19714 4953.792 3223866
-1824.4869 545.12274 4980.5215 4935255
-1787.6217 542.8877 4960.1011 2895673
-1766.8429 545.54492 4984.3789 3158590
-1774.0166 557.07001 5089.6782 3685192
-1724.4856 550.87964 5033.1196 3487296
-1666.426 541.69897 4949.2407 3552832
-1672.6176 553.44952 5056.5996 3684416
-1685.0599 567.73462 5187.1157 2631726
-1609.1724 552.2373 5045.5239 3092533
-1584.936 554.21454 5063.5894 2829617
-1545.9012 550.99359 5034.1606 5131603
-1493.693 542.85822 4959.832 2763054
-1473.6697 546.32819 4991.5352 3289398
-1462.9437 553.45758 5056.6729 2894640
-1430.8363 552.62695 5049.084 3553084
-1382.7351 545.45178 4983.5283 2303017
-1355.0253 546.18286 4990.2075 3947845
-1333.808 549.62189 5021.6284 1842468
-1316.1581 554.72137 5068.2202 2171693
-1299.105 560.31647 5119.3394 4343374
-1261.6826 557.18347 5090.7148 2237741
-1212.0498 548.37274 5010.2153 2435120
-1195.1346 554.29364 5064.312 2895414
-1168.0278 555.67108 5076.897 3027257
-1154.973 563.98303 5152.8389 2369328
-1114.906 559.19788 5109.1191 4277325
-1086.7527 560.2879 5119.0786 4211534
-1077.325 571.37183 5220.3467 6514545
-1046.083 571.19958 5218.7734 6580080
-1025.0808 576.77844 5269.7446 4868948
-984.59937 571.40314 5220.6333 4342858
-953.02924 571.01855 5217.1191 4277066
-909.23468 563.03821 5144.207 5724767
-873.79633 559.85846 5115.1548 5790815
-845.98553 561.51282 5130.2695 4540747
-805.93109 554.86102 5069.4961 7567231
-762.37537 545.19055 4981.1416 5726314
-736.86694 548.16705 5008.3359 8820382
-673.21783 521.82928 4767.7007 12111316
0 0 0 0
0 0 0 0
0 0 0 0
0 0 0 0
0 0 0 0
0 0 0 0
0 0 0 0
0 0 0 0
-579.60272 721.82336 6594.9497 10794951
-590.03064 787.92249 7198.8647 10729415
-445.40244 641.12811 5857.6763 10729157
-393.83963 614.80774 5617.1997 10531259
0 0 0 0
0 0 0 0
-259.5444 542.74188 4958.769 8158320
-229.00731 540.00604 4933.7729 8289906
-199.12903 538.25049 4917.7334 8092527
-168.46831 533.41571 4873.5605 8355955
-139.79205 534.16394 4880.397 8289906
-108.93108 524.77753 4794.6377 8224625
-81.422073 530.6134 4847.957 7764330
-51.943398 522.97882 4778.2036 6975590
0 0 0 0
0 0 0 0
5.2658925 83.508507 762.97668 1298
9.7723494 83.39254 761.91711 1554
14.296965 83.455849 762.49554 1295
18.812801 83.449821 762.44049 1289
0 0 0 0
0 0 0 0
0 0 0 0
0 0 0 0
260.10944 524.33765 4790.6187 8355954
289.48071 526.13806 4807.0679 8750198
321.4978 531.99402 4860.5713 9671299
347.33987 527.50922 4819.5957 8420975
379.0061 531.87903 4859.5205 6973527
406.23859 529.84906 4840.9736 6710612
427.98346 521.40131 4763.791 8223595
452.48605 517.15063 4724.9546 8223595
485.47687 522.53131 4774.1152 8815732
515.29828 524.09607 4788.4111 8749940
560.4364 540.26294 4936.1201 8421742
591.05896 541.52716 4947.6704 8289899
628.4826 548.60864 5012.3706 8092520
645.02399 537.6452 4912.2031 6710611
675.87775 539.04315 4924.9751 7302747
691.19476 528.44684 4828.1621 8552814
729.46143 535.54144 4892.9819 8750450
759.78003 536.48157 4901.5718 8552301
773.53485 526.08734 4806.6045 7762785
808.09277 530.07727 4843.0586 7368027
821.48969 520.38867 4754.5386 6644305
876.06061 536.5603 4902.2905 7039319
888.92712 526.97101 4814.6782 7499872
940.91919 540.45117 4937.8403 7631458
942.93457 525.27808 4799.2104 7960425
971.61096 525.4104 4800.4199 7697511
1003.1784 527.05414 4815.438 6842203
1044.3461 533.51135 4874.4341 8157806
1083.3632 538.552 4920.4883 6710358
1105.4039 535.11047 4889.0449 6250064
1140.4286 537.96954 4915.1665 7960937
1176.7704 541.29205 4945.5229 8224366
1183.0916 530.97974 4851.3042 9540483
1230.6484 539.22449 4926.6323 9276795
1274.6581 545.56903 4984.5991 8619121
1303.3229 545.20709 4981.2925 8947317
1316.9823 538.72321 4922.0522 8683887
1348.808 539.79022 4931.8013 8486506
1378.9971 540.17096 4935.2798 9407609
1390.6119 533.41119 4873.519 9341815
1428.1041 536.65057 4903.1157 8946543
1471.0458 541.7677 4949.8687 8485735
1475.8344 532.90814 4868.9233 8091490
1500.6528 531.4823 4855.8955 9407606
1524.5919 529.80438 4840.5654 9341814
1564.8781 533.76428 4876.7451 8420712
1571.7518 526.39056 4809.375 6972751
1602.349 527.08313 4815.7026 6973003
1605.8604 518.99762 4741.8291 5920317
1620.2163 514.63464 4701.9668 7104338
1669.3159 521.26843 4762.5762 7236183
1740.067 534.33038 4881.917 7960166
1761.4835 532.06335 4861.2046 6710098
1776.0134 527.82275 4822.46 6841686
1810.8599 529.65869 4839.2344 7302236
1839.2395 529.5755 4838.4741 7301722
1882.7269 533.77802 4876.8706 6117190
1889.5048 527.60327 4820.4546 6709582
1909.2368 525.1756 4798.2744 5328185
1924.7096 521.66479 4766.1982 6182978
1976.6166 527.98767 4823.9673 5459256
1974.7462 519.97028 4750.7158 5130292
1975.1429 512.76678 4684.9009 4867892
1996.7847 511.20184 4670.603 5459774
2020.4062 510.1796 4661.2632 5394239
2060.2222 513.21912 4689.0342 6183498
2078.666 510.92462 4668.0703 6315599
2103 510.11911 4660.7104 6446926
2112.5667 505.79883 4621.2383 6314568
2183.8997 516.18829 4716.1616 5525052
2245.9824 524.15643 4788.9629 4538158
2282.1194 525.94617 4805.3149 5460291
2263.2415 515.16919 4706.8506 6710360
2302.3718 517.69788 4729.9541 6842719
2371.553 526.84155 4813.4951 7171428
2359.0034 517.82715 4731.1353 6776671
2425.176 526.10193 4806.7378 6842467
2484.1816 532.64795 4866.5454 6776673
2539.6006 538.28351 4918.0352 6710367
2544.9001 533.28864 4872.3994 6118487
2562.6042 530.97601 4851.27 6776417
2591.5059 531.00909 4851.5723 6908003
2602.342 527.38043 4818.4189 6776162
2604.7415 522.13934 4770.5332 6579037
2673.0627 530.08331 4843.1138 6447706
2713.553 532.39819 4864.2637 6710105
2696.8093 523.5531 4783.4507 6512981
2689.6621 516.73566 4721.1631 5262913
2760.2397 524.83734 4795.1841 5789769
2724.1389 512.69653 4684.2593 6447957
0 0 0 0
0 0 0 0
0 0 0 0
0 0 0 0
0 0 0 0
1887.5638 334.78625 3058.7793 17
1894.1172 332.75406 3040.2124 25
1910.2375 332.42508 3037.2065 34
1928.1337 332.40839 3037.054 35
1945.2399 332.25705 3035.6711 41
1961.2043 331.91525 3032.5486 43
1980.0614 332.06479 3033.9146 41
1999.5023 332.30862 3036.1426 37
2018.2976 332.4418 3037.3594 35
2034.953 332.22327 3035.3628 33
2054.6331 332.49802 3037.873 33
2072.5964 332.49265 3037.8237 30
2094.2217 333.06967 3043.0959 29
2113.656 333.29147 3045.1223 21
2139.8567 334.56741 3056.78 11
0 0 0 0
0 0 0 0
3577.2312 545.45337 4983.5425 6776412
3607.8044 545.61206 4984.9927 5986636
3588.2273 538.24554 4917.688 6052430
3619.7585 538.60236 4920.9478 7105118
3704.8533 546.85974 4996.3916 7960427
3741.7788 547.93243 5006.1924 7894633
3729.2478 541.8031 4950.1914 6315088
3781.5627 545.11694 4980.4688 5459779
3840.3647 549.30737 5018.7549 7235934
3847.4646 546.09497 4989.4048 4867642
3894.8374 548.60425 5012.3306 5065021
3885.0403 543.0838 4961.8931 5525572
3939.5291 546.56525 4993.7012 5920074
3980.1377 548.08337 5007.5718 5722952
4036.238 551.69659 5040.584 5525315
4027.927 546.51721 4993.2627 5459523
4021.9194 541.72375 4949.4668 5591110
4065.4443 543.62292 4966.8188 5130559
4067.7979 540.02911 4933.9834 3879979
4077.3157 537.43079 4910.2441 3749163
4115.4243 538.61121 4921.0293 4867902
4129.0337 536.59119 4902.5732 5986383
4166.3496 537.65869 4912.3262 6118995
4199.6279 538.19385 4917.2163 6645083
4184.8735 532.60864 4866.1865 5658188
4159.8433 525.80096 4803.9878 7171427
4171.3389 523.67126 4784.5298 7237222
4168.7842 519.8183 4749.3271 8092531
4119.7578 510.26123 4662.0093 6974050
4154.5845 511.14798 4670.1108 6381913
4240.0723 518.21484 4734.6772 6184533
4225.3569 513.02252 4687.2378 6842464
4239.2588 511.34991 4671.9561 6776417
4268.376 511.52246 4673.5322 6644575
4328.9146 515.43396 4709.27 6447452
4355.229 515.24658 4707.5576 6118486
4394.7876 516.61841 4720.0913 6974050
4409.6509 515.0882 4706.1108 6052948
4439.4888 515.31549 4708.1875 6052177
4533.3789 522.92841 4777.7427 5196869
4523.7466 518.57947 4738.0088 5327942
0 0 0 0
0 0 0 0
0 0 0 0
0 0 0 0
0 0 0 0
0 0 0 0
-3821.7695 490.19995 4248.748 2894894
-3862.9407 498.76575 4322.9907 3487031
-3849.2004 500.30859 4336.3633 2829102
-3721.4341 486.95178 4220.5947 3552824
-3860.7983 508.60492 4408.2705 2434343
-3861.3469 512.14148 4438.9233 2171171
-3819.0203 510.00085 4420.3696 2894893
-3767.2798 506.56491 4390.5889 5000016
-3747.8374 507.45419 4398.2969 3158324
-3732.3418 508.89413 4410.7773 1842464
-3741.1108 513.68616 4452.3115 3026481
-3682.7598 509.26459 4413.9883 3947839
-3712.5198 517.05127 4481.478 3026226
-3628.2683 508.95703 4411.3228 4539465
-3606.7219 509.60519 4416.9404 2960433
-3566.6799 507.63043 4399.8242 3947327
-3524.8542 505.37085 4380.2397 3355190
-3501.9756 505.81436 4384.084 2894640
-3618.875 526.60449 4564.2798 4802381
-3530.5911 517.62537 4486.4546 3947329
-3529.0471 521.32367 4518.5088 5394775
-3554.073 529.03339 4585.332 3420728
-3533.0459 529.95404 4593.3115 2894894
-3425.2998 517.78021 4487.7964 2302503
-3358.2595 511.61719 4434.3794 2894895
-3313.1938 508.73126 4409.3657 3355446
-3269.2466 505.97253 4385.4546 2829101
-3249.5745 506.95663 4393.9844 1250068
-3178.574 499.88446 4332.687 920845
-3165.8757 501.94077 4350.5098 394500
-3176.5967 507.77426 4401.0713 592137
-3268.7615 526.83087 4566.2417 3223344
-3217.6155 522.91504 4532.3022 3157551
-3152.584 516.65784 4478.0684 197122
-3135.5566 518.22815 4491.6792 2104864
-3180.7249 530.19281 4595.3809 1249299
-3178.0635 534.32245 4631.1743 2236452
-3187.9734 540.65613 4686.0708 1249813
-3125.6709 534.7467 4634.8516 2499626
-3061.2717 528.37073 4579.5884 2763313
-2992.2937 521.08331 4516.4258 3552574
-2940.2844 516.64606 4477.9663 3618624
-2907.6643 515.56592 4468.6045 1842466
-2866.8213 512.99457 4446.3174 2565678
-2848.1763 514.38446 4458.3643 1842209
-2854.8828 520.42169 4510.6914 2960432
-2901.2241 533.86646 4627.2222 2368296
-2906.8198 539.99847 4680.3701 1973538
-2925.5386 548.7099 4755.8755 1447192
-2845.1909 538.82922 4670.2363 2039585
-2769.489 529.64307 4590.6162 3750202
-2751.739 531.46741 4606.4287 2302757
-2752.0269 536.84705 4653.0557 3026480
-2687.239 529.51251 4589.4849 1710620
-2705.3713 538.5343 4667.6797 2236709
-2692.248 541.4563 4693.0063 2565675
-2652.459 539.02045 4671.8936 1841951
-2684.5559 551.29559 4778.2866 3420984
-2678.7212 555.95978 4818.7129 1512988
-2598.2808 545.07349 4724.3574 2631468
-2598.5881 551.07397 4776.3662 1381400
-2590.4043 555.38611 4813.7412 3223605
-2563.3975 555.71368 4816.5801 4474185
-2528.6157 554.34412 4804.7095 3026483
-2480.96 550.08887 4767.8276 4079428
-2425.2412 543.92731 4714.4229 4408393
-2402.1477 545.02448 4723.9326 5000530
-2456.9336 564.02594 4888.6255 8882573
-2450.48 569.25458 4933.9438 8027007
-2421.3154 569.2699 4934.0767 5921632
-2382.3296 566.9483 4913.9551 5855582
-2343.8999 564.70331 4894.4966 5921118
-2252.8887 549.5752 4763.3755 3026225
-2218.354 548.01508 4749.8535 2236966
-2200.9216 550.69397 4773.0728 4342342
-2204.2327 558.7005 4842.4678 3486776
-2175.9756 558.8111 4843.4268 3815742
-2166.23 563.74213 4886.166 2894640
-2089.04 551.01727 4775.8745 1841953
-2061.6707 551.26434 4778.0161 2434090
-2032.8676 551.12958 4776.8477 2499883
-2036.499 559.90851 4852.938 2828848
-2025.1212 564.75305 4894.9277 2236711
-2003.501 566.84064 4913.0215 3026487
-1988.286 570.82861 4947.5869 5921898
-1956.5305 570.11621 4941.4121 3355973
-1926.1255 569.78168 4938.5127 4343126
-1888.1279 567.15607 4915.7559 3685192
-1859.6505 567.35284 4917.4609 4079693
-1842.9429 571.20374 4950.8379 2961211
-1802.6772 567.7594 4920.9849 2369073
-1776.4812 568.70605 4929.1899 3619143
-1771.6354 576.63336 4997.8989 3750728
-1724.4801 570.8252 4947.5576 9145755
-1705.23 574.21289 4976.9199 5659237
-1663.0175 569.85144 4939.1177 4211535
-1661.7931 579.63037 5023.875 2895927
-1611.3365 572.28076 4960.1733 3750979
-1591.5748 575.76215 4990.3477 6382700
-1555.5352 573.37512 4969.6587 5198425
-1519.1539 570.7677 4947.0591 5592413
-1487.7529 569.96576 4940.1079 1776417
-1467.855 573.62683 4971.8398 2960689
-1440.0189 574.27216 4977.4331 3881536
-1394.9536 567.92987 4922.4624 3026739
-1365.9224 567.98419 4922.9331 3289912
-1330.4364 565.29822 4899.6528 3487292
-1314.2382 570.87054 4947.9502 3092279
-1284.9337 570.87421 4947.9824 3355453
-1258.4753 572.17212 4959.2314 1973797
-1228.8658 572.06512 4958.3042 2105642
-1182.4404 563.93292 4887.8193 3685188
-1159.9261 567.08252 4915.1182 3685189
-1146.8137 575.10919 4984.6885 3816775
-1109.3263 571.01343 4949.189 4079947
-1086.74 574.57367 4980.0469 5658978
-1065.0089 578.79749 5016.6558 5461599
-1036.7446 579.61115 5023.7085 5527392
-1007.6436 579.99139 5027.0039 4672083
-988.79675 586.47681 5083.2153 5395806
-941.59521 576.0235 4992.6128 5790562
-909.87561 574.67047 4980.8857 5527390
-894.89087 584.15057 5063.0532 6185060
-856.18176 578.26483 5012.0396 4804437
-836.42828 585.21881 5072.312 5660270
-789.03186 572.62958 4963.1963 8162715
-767.12549 578.28082 5012.1777 11848914
-726.13812 569.42419 4935.4141 11716814
0 0 0 0
0 0 0 0
0 0 0 0
0 0 0 0
0 0 0 0
0 0 0 0
0 0 0 0
0 0 0 0
0 0 0 0
-571.86401 750.73413 6506.8955 10466755
-589.11646 829.28326 7187.7109 10860486
-477.41425 724.40338 6278.6772 8819349
0 0 0 0
0 0 0 0
0 0 0 0
-256.89029 566.26831 4908.061 6644824
-224.45039 557.9079 4835.5981 6907994
-196.92647 561.1084 4863.3384 7368289
-165.61314 552.75824 4790.9644 7763818
-134.37885 541.27234 4691.4116 7895148
-106.4826 540.74799 4686.8667 8816765
-77.798454 534.44116 4632.2031 7633006
-49.871311 529.29456 4587.5952 8028282
0 0 0 0
0 0 0 0
5.2609391 87.945747 762.25897 1298
9.7784681 87.961342 762.39417 1810
14.292887 87.94796 762.27814 1808
18.820398 88.002213 762.74835 1291
23.232861 87.601646 759.27655 855819
0 0 0 0
0 0 0 0
0 0 0 0
256.09311 544.1839 4716.647 8948089
284.54639 545.16254 4725.1294 9342591
308.48642 538.09338 4663.8584 8092010
339.80145 543.99316 4714.9941 7828839
366.77902 542.58032 4702.748 8289390
393.2406 540.65741 4686.082 8355182
424.72473 545.43817 4727.5186 8947320
443.70367 534.56158 4633.2471 8420974
489.13272 554.96216 4810.0664 7236700
505.32663 541.77289 4695.75 8355692
537.32184 546.01703 4732.5352 7368540
574.64923 554.98993 4810.3071 6315595
590.53796 543.38806 4709.749 7763298
618.02826 543.02655 4706.6162 7829091
655.14325 550.78802 4773.8872 8552815
667.62897 538.05774 4663.5493 7697505
700.78265 542.33411 4700.6143 8026469
725.85321 540.26715 4682.6992 7433819
756.21228 542.14386 4698.9653 7696734
779.2334 538.81329 4670.0981 6446924
810.56317 541.2594 4691.2993 7631456
823.97675 531.97614 4610.8379 7499873
876.26239 547.58002 4746.0825 7302493
886.55511 536.78796 4652.5435 6907480
921.67474 541.22546 4691.0054 7828838
938.52539 534.98938 4636.9546 8026729
967.60181 535.87885 4644.6641 8487026
1000.4891 538.77136 4669.7344 7762791
1046.4592 548.36371 4752.8755 7697254
1088.5027 555.44983 4814.293 7368288
1112.3726 553.13702 4794.2471 8552561
1151.4191 558.29822 4838.981 8815476
1178.6902 557.6377 4833.2563 8552305
1189.4049 549.36151 4761.5234 8289644
1227.7684 553.9433 4801.2354 8487022
1275.9004 562.62512 4876.4839 8947571
1310.1274 564.9267 4896.4331 8486764
1316.7712 555.49237 4814.6616 8881520
1348.8612 556.96509 4827.4268 8026467
1379.5885 557.82581 4834.8867 8684141
1400.2031 554.64557 4807.3228 8091491
1407.9034 546.57867 4737.4033 8025697
1403.6136 534.26318 4630.6602 7828319
1452.731 542.35864 4700.8271 8683628
1487.6135 544.93524 4723.1592 8815470
1513.4186 544.15283 4716.3779 7894625
1512.2518 533.87683 4627.312 7565403
1552.4237 538.3009 4665.6567 6973266
1578.4766 537.76007 4660.9692 6578765
1610.3108 539.17352 4673.2202 7499098
1629.4078 536.34656 4648.7183 7762783
1669.2183 540.31848 4683.144 7236439
1708.5641 544.01251 4715.1616 6710095
1719.1423 538.57538 4668.0361 7631199
1770.1738 545.78302 4730.5073 6381131
1776.1302 539.08496 4672.4526 6512203
1814.5405 542.29163 4700.2461 6709582
1851.0867 544.85266 4722.4434 6117188
1858.494 538.88824 4670.748 4669485
1858.8691 531.08978 4603.1558 4537899
1867.9224 525.96039 4558.6973 5722173
1894.1219 525.73633 4556.7554 6314823
1912.0081 523.24359 4535.1494 6973011
1929.0304 520.58673 4512.1216 7235928
1966.7242 523.50482 4537.4141 6973272
1943.485 510.34378 4423.3418 6841686
1958.9241 507.55432 4399.165 6446672
2009.2621 513.76172 4452.9668 6775893
2023.3086 510.64886 4425.9863 7039065
2136.5488 532.3302 4613.9067 6973017
2161.9954 531.86597 4609.8828 6775639
2175.0535 528.40356 4579.873 7368289
2191.4067 525.81726 4557.4565 6512980
2249.8535 533.27106 4622.061 7302241
2281.936 534.3717 4631.6016 6644568
2308.1484 534.08807 4629.1426 6381142
2345.2476 536.30042 4648.3184 6775899
2378.1826 537.52039 4658.8921 7301987
2439.6377 545.08447 4724.4526 7236450
2459.3125 543.24799 4708.5352 6907486
2497.0173 545.39075 4727.1074 6578520
2503.0059 540.63538 4685.8911 6118995
2577.4756 550.61377 4772.377 6052945
2576.2209 544.37439 4718.2983 5789517
2594.1096 542.27069 4700.0649 7631978
2611.2324 540.05328 4680.8457 6973789
2719.4473 556.52411 4823.6045 6842715
2698.1829 546.43054 4736.1196 6842713
2647.0342 530.55487 4598.519 6841943
2662.709 528.25995 4578.6279 7105371
0 0 0 0
0 0 0 0
0 0 0 0
0 0 0 0
1895.7009 357.86404 3101.7427 65547
1891.4224 353.62857 3065.0322 15
1898.0259 351.48883 3046.4863 23
1914.7412 351.24435 3044.3674 30
1928.3096 350.43253 3037.3308 34
1946.2393 350.42096 3037.2307 131376
1966.4347 350.81384 3040.636 196915
1977.5935 349.60211 3030.1333 44
1999.9102 350.36685 3036.7617 39
2018.6857 350.5032 3037.9434 34
2035.2451 350.25571 3035.7983 32
2053.9839 350.38431 3036.9131 30
2072.0532 350.39749 3037.0273 28
2091.0676 350.56894 3038.5132 27
2112.3862 351.12039 3043.293 20
2136.7759 352.16867 3052.3789 9
2097.0442 342.72006 2970.4839 6778727
0 0 0 0
3496.8716 562.06061 4871.5913 6118480
3437.1169 547.93384 4749.1494 4999742
3522.8774 557.04572 4828.1255 6578774
3418.8176 536.23779 4647.7749 5789258
3476.908 540.99213 4688.9829 7697254
3522.1614 543.68951 4712.3623 7499875
3643.3672 557.97662 4836.1938 7171166
3589.2454 545.39905 4727.1792 6644566
3714.5562 560.0705 4854.3423 6512980
3722.4895 556.95471 4827.3364 6249809
3735.782 554.68213 4807.6392 6249809
3812.3613 561.76959 4869.0693 5526085
