# .PCD v0.7 - Point Cloud Data file format
VERSION 0.7
FIELDS x y z rgb
SIZE 4 4 4 4
TYPE F F F U
COUNT 1 1 1 1
WIDTH 1486
HEIGHT 1
VIEWPOINT 0 0 0 1 0 0 0
POINTS 1486
DATA ascii
-1432.6913 823.73846 2001.374 7965070
-1428.2098 828.01428 2011.7627 6583160
-1420.4575 830.44977 2017.6801 7307398
-1403.389 827.43384 2010.3523 8425365
-1397.7943 831.18903 2019.4761 8490902
-1389.2633 833.24799 2024.4785 5201252
-1392.0712 842.2027 2046.2352 8227217
-1377.7701 840.87299 2043.0045 7766922
-1359.1945 836.88788 2033.322 8951967
-1353.8641 841.05969 2043.4581 9083296
-1341.135 840.66907 2042.509 9017503
-1328.3346 840.22614 2041.433 8885918
-1314.2401 838.9491 2038.3301 8096403
-1310.0354 844.02008 2050.6506 8425111
-1299.8741 845.31238 2053.7905 7306632
-1297.343 851.63788 2069.1592 8425370
-1281.8621 849.50214 2063.97 8556698
-1270.7251 850.23169 2065.7427 8951711
-1264.0264 853.97406 2074.8352 9017505
-1250.6489 853.23346 2073.0356 9148834
-1243.1107 856.50122 2080.9751 9214884
-1232.3243 857.57416 2083.582 9280420
-1221.4562 858.61127 2086.1018 9280164
-1202.0172 853.58337 2073.8857 9345957
-1208.9117 867.34479 2107.3208 9346214
-1190.4353 863.00067 2096.7664 9477798
-1183.3135 866.8833 2106.1997 9280421
-1165.2529 862.74982 2096.1567 10662332
-1148.3069 859.36115 2087.9236 10070194
-1133.6082 857.59888 2083.6421 9675953
-1121.335 857.65302 2083.7737 9478317
-1098.783 849.75909 2064.5942 9412524
-1081.8912 846.11426 2055.7388 9412782
-1066.7888 843.80164 2050.1199 9609905
-1054.1228 843.38507 2049.1079 9478319
-1039.3723 841.27161 2043.973 9544112
-1031.4904 844.73328 2052.3835 9017767
-984.98474 816.26959 1983.2274 8820128
-956.32361 802.08514 1948.7646 9543335
-959.73138 814.77954 1979.6073 9016214
0 0 0 0
-918.93152 799.68573 1942.9349 8027772
-910.44952 802.35455 1949.4192 7500653
-895.25739 799.10248 1941.5179 6250583
-882.40601 797.88239 1938.5535 2960417
-870.34088 797.35034 1937.2607 5064501
-856.71674 795.35669 1932.4171 4669487
-847.25812 797.22876 1936.9655 5787969
-838.95819 800.25745 1944.324 2629391
-828.63654 801.41498 1947.1365 3813921
-813.03601 797.4278 1937.449 3485214
-807.03894 802.88037 1950.6968 5656638
-796.76428 804.17401 1953.8398 6446152
-787.14148 806.1734 1958.6975 4077350
-778.99561 809.76788 1967.4308 7169106
-763.43585 805.64783 1957.4205 4143394
-753.71613 807.65857 1962.3059 6183489
-742.56848 808.17822 1963.5686 7367504
-728.49884 805.48364 1957.0217 6183228
-710.01361 797.74084 1938.2096 6051386
-697.34442 796.3855 1934.9166 3682842
-687.08966 797.78827 1938.3248 2103301
-676.31342 798.62292 1940.3527 3024404
-666.07202 800.12897 1944.0117 4734510
-655.39368 801.15387 1946.5018 4208676
-643.8371 801.12268 1946.426 7104085
-632.53595 801.41394 1947.1339 2498833
-618.17041 797.76141 1938.2596 5196077
-607.10321 798.30774 1939.5868 5327152
-598.46698 802.13336 1948.8818 3682072
-588.13104 803.78668 1952.8987 4603946
-569.80945 794.37347 1930.0281 4998703
-549.88049 782.28796 1900.6649 4472359
-535.42993 777.65399 1889.4061 5854013
-520.16217 771.60986 1874.7212 4274981
-505.68405 766.4989 1862.3035 8025439
-499.65915 774.25891 1881.1572 4670511
-482.82385 765.23926 1859.2429 7368024
-479.09833 777.06158 1887.9668 8157539
-474.07349 787.29126 1912.821 4209958
-463.59134 788.73712 1916.334 7433813
-454.42862 792.55676 1925.6143 5788731
-444.25153 794.75848 1930.9636 6511940
-429.35913 788.41797 1915.5585 3551254
-418.7417 789.79639 1918.9075 4932906
-409.86102 794.61871 1930.6239 4932907
-394.93201 787.65515 1913.7051 6709575
-386.89532 794.43225 1930.1709 7433815
-375.29938 794.09125 1929.3424 6381127
-367.85446 802.78772 1950.4717 5657914
-356.11633 802.37524 1949.4695 7433819
-343.24539 799.29706 1941.9907 5723457
-326.61569 786.94916 1911.9899 6512974
-315.01001 786.25378 1910.3003 4868412
-305.62604 791.25842 1922.4598 7236952
-287.57315 773.3382 1878.9203 7696990
-282.69931 790.84283 1921.4501 3157015
-268.94742 783.93823 1904.6744 5920062
-262.97095 800.08545 1943.906 7235924
-250.53148 797.14758 1936.7682 5986627
-236.69437 789.26715 1917.6217 6183748
-224.83165 787.50775 1913.3472 2695946
-212.79057 784.90369 1907.0203 6182716
-201.5954 785.30286 1907.99 4406306
-190.51312 786.21515 1910.2067 2826761
-179.86363 789.14166 1917.3169 5985083
-165.63585 775.70483 1884.6703 5919545
0 0 0 0
0 0 0 0
0 0 0 0
0 0 0 0
0 0 0 0
0 0 0 0
0 0 0 0
0 0 0 0
0 0 0 0
0 0 0 0
0 0 0 0
0 0 0 0
0 0 0 0
0 0 0 0
0 0 0 0
0 0 0 0
0 0 0 0
0 0 0 0
0 0 0 0
0 0 0 0
0 0 0 0
0 0 0 0
0 0 0 0
0 0 0 0
0 0 0 0
0 0 0 0
0 0 0 0
0 0 0 0
0 0 0 0
0 0 0 0
0 0 0 0
0 0 0 0
0 0 0 0
0 0 0 0
0 0 0 0
0 0 0 0
0 0 0 0
0 0 0 0
0 0 0 0
0 0 0 0
0 0 0 0
0 0 0 0
117.18362 289.05902 702.30444 18
121.29757 288.94785 702.03436 18
0 0 0 0
130.36308 290.6142 706.08295 14
135.63231 292.96042 711.78339 14
139.91841 293.10565 712.13629 14
146.48085 297.87137 723.71515 14
155.68483 307.5849 747.31537 12
160.60536 308.5325 749.61768 9
163.8539 306.30353 744.20215 4
171.19292 311.63763 757.16199 394755
0 0 0 0
0 0 0 0
0 0 0 0
509.48428 839.47552 2039.6093 6709330
522.39075 840.80078 2042.8291 6182474
536.18732 843.46613 2049.3049 6182988
542.54004 834.56299 2027.6736 4012334
549.12048 826.38831 2007.8121 6578263
569.85852 839.41479 2039.4615 1249035
574.1059 828.11334 2012.0034 196864
584.93909 826.57825 2008.2736 854789
597.64581 827.69904 2010.9967 8025955
602.24896 817.7724 1986.8788 6314827
615.23938 819.39685 1990.8254 7959651
628.08075 820.76544 1994.1508 6643536
637.06226 817.13263 1985.3242 8090981
645.74872 813.25983 1975.9148 6906707
661.02887 817.68121 1986.6573 7235412
668.07379 811.93945 1972.7068 5327415
686.15576 819.57819 1991.2661 5063214
705.74896 828.73328 2013.5094 5392176
726.17084 838.54089 2037.3384 4274466
736.63373 836.71588 2032.9042 6511427
735.5611 822.0575 1997.2899 5788220
750.74255 825.74115 2006.2397 5919551
761.06146 824.04498 2002.1188 7761758
770.84265 821.82758 1996.7313 7301466
783.14429 822.32379 1997.937 6315084
790.86743 818.06927 1987.6001 7894117
789.60468 804.78094 1955.3143 6644051
811.31305 814.95093 1980.0237 7038294
825.86914 817.74921 1986.8224 6380106
841.84442 821.85419 1996.7959 6840913
861.08417 828.98828 2014.1292 6051140
873.12524 829.09167 2014.3804 6380363
879.76428 824.1319 2002.3298 7367258
882.27124 815.48474 1981.3207 7301210
896.45569 817.71649 1986.7429 6906709
895.8139 806.54175 1959.5924 7301469
0 0 0 0
917.69366 805.36719 1956.7386 8419950
939.1463 813.91278 1977.5013 6774866
962.14874 823.57434 2000.9753 8222570
976.54883 825.72705 2006.2056 7959655
964.59344 805.81085 1957.8168 4472369
991.0976 818.11493 1987.7108 3419684
1007.4968 821.8866 1996.8748 6248779
1025.9987 827.2663 2009.9452 7367004
1041.985 830.5174 2017.8442 7235674
1048.312 826.08307 2007.0707 7367000
1057.1757 823.72479 2001.3408 6774605
1057.853 815.11096 1980.4125 5261366
1060.8344 808.44196 1964.2092 6380104
1081.4879 815.23914 1980.7239 7432792
1075.7694 802.2243 1949.1027 6445897
1087.3849 802.2749 1949.2256 6643275
1088.4122 794.59454 1930.5653 5919552
1117.2917 807.19598 1961.182 5919810
1151.5596 823.39069 2000.5291 5262397
1167.8104 826.50427 2008.0939 3947053
1179.2153 826.15991 2007.2572 7236444
1192.9835 827.46167 2010.4199 7104601
1208.6152 830.01733 2016.6294 3156766
1185.34 806.06531 1958.4349 9341049
1191.1477 802.16302 1948.9539 5656640
1234.9248 823.66028 2001.1841 6643535
1241.9467 820.46704 1993.4257 8156771
1252.6421 819.73798 1991.6543 6972754
1242.4741 805.49689 1957.0537 8551531
1255.9504 806.70575 1959.991 7301464
1260.7494 802.37018 1949.4572 5525310
1278.3063 806.159 1958.6625 7038802
1298.1576 811.3136 1971.1863 7170132
1313.4182 813.53278 1976.5781 6840911
1342.2605 824.05096 2002.1333 6709838
1349.3289 821.1344 1995.0472 8354406
1338.1246 807.24518 1961.3015 6314824
1363.8522 815.68304 1981.8022 3814689
1362.0707 807.66486 1962.3212 7301463
1380.7778 811.82867 1972.4376 6446154
1384.0217 806.90723 1960.4805 7893601
1394.9333 806.50092 1959.4933 6709583
1410.978 809.04462 1965.6736 6511948
1415.8025 805.16577 1956.2494 5656640
1426.8424 804.85583 1955.4965 5788226
1426.418 798.13629 1939.1703 7564380
1449.9811 804.83875 1955.4547 7827552
1457.5449 802.62463 1950.0753 5919810
1471.2703 803.81158 1952.9594 5393207
1477.7778 801.06757 1946.2922 6906192
1488.2399 800.49292 1944.8961 7103571
1507.3231 804.52869 1954.7015 4735541
1516.6335 803.32654 1951.7808 3880231
1534.2867 806.52814 1959.5593 5130555
1538.111 802.46661 1949.6915 5657414
1548.8049 802.02313 1948.614 8815475
1557.8905 800.7594 1945.5437 4802361
1590.3026 811.41626 1971.4358 9144700
1604.5504 812.71722 1974.5966 7894377
1626.9794 818.11322 1987.7069 6052172
1641.0031 819.2356 1990.4337 6578261
1661.1288 823.36646 2000.4701 5920588
1665.8915 819.87775 1991.9939 6908252
1685.4847 823.68573 2001.246 5460293
1672.3105 811.53918 1971.7345 4933950
1698.7251 818.63947 1988.9854 4473399
1693.9076 810.69446 1969.682 8552307
1694.3879 805.37634 1956.761 6184015
1669.9681 788.37537 1915.4551 5722951
1703.7283 798.88477 1940.9889 6249552
1739.7914 810.32574 1968.7863 3486248
1750.3521 809.81555 1967.5466 6906968
1745.271 802.12311 1948.8569 6578260
1798.175 821.00647 1994.7365 4998458
1783.2281 808.86646 1965.2406 5262398
1792.634 807.85852 1962.7916 7433313
1802.4921 807.06604 1960.8662 5788743
1805.6169 803.28815 1951.6874 6775639
1817.3867 803.37988 1951.9103 4077870
1821.1122 799.93695 1943.5453 5855051
1810.2897 790.18707 1919.8569 5920588
1827.4818 792.711 1925.9889 4012591
1835.8766 791.41119 1922.8309 7828328
0 0 0 0
0 0 0 0
0 0 0 0
0 0 0 0
0 0 0 0
0 0 0 0
0 0 0 0
0 0 0 0
0 0 0 0
0 0 0 0
0 0 0 0
-1634.2141 784.35986 1878.6582 196609
0 0 0 0
-1584.8214 771.15698 1847.0353 65540
-1595.0667 781.53827 1871.8999 65540
-1583.6772 781.39038 1871.5458 4
-1574.3495 782.26465 1873.6398 2
-1564.1422 782.71136 1874.7097 2
-1556.1637 784.28766 1878.4852 1
-1543.2203 783.36646 1876.2788 0
-1537.5054 786.12769 1882.8925 0
-1525.5741 785.72772 1881.9344 1710618
-1523.7998 790.59161 1893.5841 394757
-1516.4199 792.59778 1898.3892 131584
-1517.9591 799.33051 1914.515 1118480
-1524.9373 809.05017 1937.795 2763561
-1485.5272 794.11957 1902.0341 3289901
-1486.0426 800.4668 1917.2367 3421744
-1432.623 777.63562 1862.5526 4606018
-1490.2352 815.18646 1952.4924 1645077
-1504.8553 829.62335 1987.0709 2763557
-1504.2098 835.80566 2001.8784 4080445
-1485.3893 831.90717 1992.5409 8751750
-1452.7859 820.16498 1964.4167 10266277
-1412.3821 803.79413 1925.2059 9082520
-1431.9614 821.57117 1967.7847 8622485
-1420.127 821.46893 1967.5398 8227987
-1417.3774 826.66345 1979.9816 8951711
-1422.6666 836.67249 2003.9546 9412261
-1405.3519 833.44458 1996.2233 9017760
-1385.4103 828.59082 1984.5978 8754075
-1384.7361 835.27612 2000.61 7635852
-1379.2195 839.13062 2009.8423 7176071
-1363.7395 836.93768 2004.5898 8820638
-1356.8885 840.04852 2012.0408 8951967
-1342.6729 838.6145 2008.6061 9017246
-1334.4985 840.96198 2014.2285 9017503
-1323.1167 841.31232 2015.0676 8885917
-1310.3739 840.79572 2013.8304 8754588
-1299.8523 841.70795 2016.0154 8556696
-1291.7692 844.23077 2022.0577 8556696
-1276.5453 842.09033 2016.9313 8951970
-1271.766 846.86444 2028.3658 8689311
-1266.7053 851.54053 2039.5658 8557726
-1254.6112 851.53284 2039.5474 9083042
-1243.4971 852.19672 2041.1373 9083042
-1234.3853 854.25928 2046.0775 8819870
-1222.7622 854.60748 2046.9116 9215142
-1211.3322 855.09912 2048.0891 9281192
-1199.9993 855.6698 2049.4561 9412779
-1188.2983 855.98712 2050.2161 9543855
-1177.0598 856.64758 2051.7979 9478317
-1166.7419 857.99872 2055.0342 9543853
-1155.5127 858.70123 2056.7168 9740716
-1144.3011 859.43195 2058.4668 9411752
-1143.6439 868.19061 2079.4453 7898255
-1121.4034 860.5769 2061.2092 7569543
-1106.3424 858.36566 2055.9131 9872298
-1091.2856 856.10864 2050.5071 10201780
-1073.873 851.93176 2040.5029 9675694
-1056.6614 847.82123 2030.6573 9083558
-1042.1948 845.84363 2025.9209 9280680
-1009.4722 828.83093 1985.1729 8885406
0 0 0 0
-947.69189 796.66882 1908.1399 8423818
-950.09845 808.3338 1936.0793 6843500
-934.48322 804.76385 1927.5286 5329231
-914.86884 797.61884 1910.4154 6908003
-903.34363 797.43567 1909.9767 5526089
-896.45142 801.38959 1919.4469 6380624
-881.86627 798.47955 1912.4769 6314572
-872.83313 800.58624 1917.5227 2104593
-858.07947 797.43231 1909.9686 3879974
-854.11292 804.35266 1926.5439 5261883
-850.16791 811.48114 1943.6177 8354152
-831.38776 804.45087 1926.7792 6380102
-821.08453 805.5412 1929.3906 3946019
-803.15533 799.0752 1913.9036 3287572
-802.66711 810.0249 1940.1298 3617054
-795.83917 814.80188 1951.5712 7236179
-787.74048 818.39948 1960.1881 4341547
-772.90906 815.00543 1952.0587 5854013
-757.85553 811.27039 1943.1128 5722684
-749.77258 814.99713 1952.0388 5590839
-736.08411 812.65204 1946.422 5525048
-727.84344 816.34247 1955.2612 7235661
-704.31952 802.73352 1922.6656 6643525
-693.10638 802.93878 1923.1573 1906693
-681.41528 802.58789 1922.317 4932908
-667.26617 799.28076 1914.3959 3945757
-657.27631 800.92761 1918.3403 4867369
-647.49768 802.89429 1923.0509 4209184
-640.06775 807.896 1935.0306 3552021
-631.07861 811.07617 1942.6477 6315586
-616.80334 807.45447 1933.9731 3880480
-602.70294 803.92889 1925.5288 7038284
-588.40619 800.00031 1916.1194 5130288
-582.72418 807.86035 1934.9452 4143391
0 0 0 0
-530.9917 766.28894 1835.3756 6051388
-526.10449 775.10815 1856.4989 6249024
-505.91171 761.27271 1823.361 4472869
-495.80008 762.33417 1825.9033 5328434
-493.98651 776.48663 1859.8005 2827280
-482.60727 775.9057 1858.4091 6841162
-468.66821 771.086 1846.8652 4867631
-460.04987 774.99908 1856.2377 4077603
-448.68561 774.36487 1854.7186 5854270
-449.707 795.61121 1905.6068 5196850
-437.64981 794.21759 1902.2688 6117181
-425.8233 793.17993 1899.7836 3946267
-416.38007 796.64587 1908.0851 4669733
-406.8237 800.08276 1916.3168 4604198
-395.1091 799.35059 1914.5631 4406822
-384.2522 800.36169 1916.9847 7368022
-374.48831 803.78021 1925.1729 5657920
-362.46719 802.41663 1921.9069 6381643
-355.1026 811.60736 1943.9199 6381642
-337.26666 796.67914 1908.1647 6579021
-325.31821 795.10504 1904.3944 9803135
-312.04227 790.05676 1892.3031 4342835
-304.2897 799.13806 1914.054 9342329
-290.66681 792.90851 1899.1334 7697503
-277.05533 786.20978 1883.089 3947045
-267.17151 789.97095 1892.0975 6511948
-258.96295 799.23181 1914.2786 5854271
-245.55957 792.57397 1898.3322 5656634
-234.96907 794.79181 1903.644 5788216
-224.42871 797.41119 1909.9181 4603939
-212.88957 796.57172 1907.9075 6314301
-200.351 791.6889 1896.2123 5524786
-189.34132 792.62628 1898.4575 3880219
-178.54121 794.61469 1903.22 6577993
-167.23822 794.48224 1902.9028 5656891
-154.79057 788.49982 1888.574 4406309
0 0 0 0
0 0 0 0
0 0 0 0
0 0 0 0
0 0 0 0
0 0 0 0
0 0 0 0
0 0 0 0
0 0 0 0
0 0 0 0
0 0 0 0
0 0 0 0
0 0 0 0
0 0 0 0
0 0 0 0
0 0 0 0
0 0 0 0
0 0 0 0
0 0 0 0
0 0 0 0
0 0 0 0
0 0 0 0
0 0 0 0
0 0 0 0
0 0 0 0
0 0 0 0
0 0 0 0
0 0 0 0
0 0 0 0
0 0 0 0
0 0 0 0
0 0 0 0
0 0 0 0
0 0 0 0
0 0 0 0
0 0 0 0
0 0 0 0
0 0 0 0
0 0 0 0
0 0 0 0
0 0 0 0
0 0 0 0
0 0 0 0
0 0 0 0
130.36308 294.79718 706.08295 14
135.26717 296.37714 709.86713 14
140.49286 298.5452 715.06 14
146.63802 302.483 724.49164 14
152.2601 305.14859 730.8761 12
157.04611 306.03745 733.00507 10
162.16763 307.51471 736.54333 6
166.30734 307.10156 735.55377 4672068
0 0 0 0
0 0 0 0
0 0 0 0
505.61411 845.09003 2024.1158 5590849
511.90289 835.77954 2001.8159 6182726
523.0097 834.57892 1998.9402 4538412
534.39996 833.87372 1997.2512 5459518
544.75629 831.62073 1991.855 6117451
560.20972 837.07947 2004.9293 394243
563.62878 824.70294 1975.2856 262144
578.66193 829.47778 1986.7223 723207
580.86041 816.03131 1954.5161 6512724
593.82562 817.9408 1959.0895 6315342
608.12225 821.57568 1967.7955 7959906
610.21722 808.89941 1937.4341 5919812
624.31287 812.30554 1945.5923 5064760
637.99707 815.06262 1952.1958 8617067
646.48944 811.20679 1942.9604 7103828
674.75391 831.86169 1992.432 5590588
680.72205 824.79114 1975.4971 5327416
696.27435 829.37592 1986.4783 7301459
707.9881 829.31195 1986.3252 3550744
713.6496 822.27667 1969.4745 7300946
726.14429 823.21429 1971.7202 3090715
742.49847 828.42834 1984.2087 5721916
750.1355 823.90558 1973.376 6577224
759.91168 821.83502 1968.4167 5458744
769.28174 819.39447 1962.5712 6314051
779.48755 817.90356 1959.0002 7169614
788.33124 815.04803 1952.1608 4932900
798.24573 813.36627 1948.1327 5524788
816.32117 819.92938 1963.8524 6709322
833.32251 825.24432 1976.5825 6972496
850.49939 830.58344 1989.3706 5525308
855.4209 823.97186 1973.5348 8157545
873.61896 830.1546 1988.3434 8684147
870.24799 815.94952 1954.3201 6052167
881.32092 815.48236 1953.2012 6249545
889.59174 812.46802 1945.9813 6973529
899.00104 810.55743 1941.4053 7236700
906.36377 806.87311 1932.5807 8551535
908.87646 799.01697 1913.764 6972502
936.68451 813.31812 1948.0176 8485743
948.20667 813.30243 1947.9799 8419949
954.58667 808.92957 1937.5062 6577999
977.44269 818.45667 1960.3251 5788229
999.69086 827.25708 1981.4033 6380364
1020.0555 834.31268 1998.3025 6972500
1030.5491 833.2254 1995.6982 9144440
1036.0621 828.18146 1983.6173 8419686
1037.4589 819.99725 1964.0149 6511689
1042.2305 814.63239 1951.1654 4735535
1057.2739 817.32599 1957.6168 6051395
1064.7111 814.14478 1949.9974 8814444
1071.0031 810.16559 1940.4668 4932657
1087.1483 813.64545 1948.8014 6182982
1099.0908 813.9397 1949.5063 4802358
1115.4807 817.48724 1958.0031 8487023
1137.6783 825.17407 1976.4142 3486501
1145.3684 822.289 1969.504 7631204
1149.0028 816.57971 1955.8295 9276284
1162.0042 817.57507 1958.2134 7960426
1185.7462 826.03302 1978.4714 6315599
1185.1079 817.50732 1958.0513 5460033
1179.2976 805.61389 1929.5647 7433822
1195.8633 809.08777 1937.8853 6314315
1215.7115 814.69531 1951.316 8551531
1229.2417 816.00317 1954.4486 6446156
1212.9486 797.67383 1910.5471 9867392
1233.5717 803.73627 1925.0675 7104086
1239.3693 800.11646 1916.3976 6117191
1246.5498 797.4472 1910.0043 6906707
1256.3967 796.5163 1907.7747 7564637
1296.3263 814.50342 1950.8564 8025442
1310.7058 816.26099 1955.066 5657151
1315.8044 812.25861 1945.4797 6840655
1320.6273 808.15692 1935.6556 7893343
1330.4614 807.1662 1933.2826 6051138
1374.4742 826.75085 1980.1909 5854272
1366.8796 815.22473 1952.584 7038291
1376.4854 814.06451 1949.8052 6183237
1381.489 810.22449 1940.6078 5854273
1400.7584 814.74548 1951.4363 7630684
1417.7157 817.8587 1958.8928 3814435
1422.7408 814.09375 1949.8752 6314824
1432.807 813.25067 1947.856 8551530
1448.3567 815.50861 1953.264 6446157
1439.8163 804.27417 1926.3558 7893344
1470.3016 814.84454 1951.6736 4472104
1471.6598 809.23364 1938.2345 5327154
1473.7834 804.12726 1926.0039 6971979
1484.093 803.53143 1924.5768 5590584
1495.7545 803.67102 1924.9111 4801586
1498.6843 799.15247 1914.0886 3485471
1512.9827 800.71844 1917.8392 5262140
1526.0377 801.60791 1919.9697 8091498
1538.7383 802.29938 1921.6259 6644053
1570.1108 812.64471 1946.4047 7302498
1589.7991 816.836 1956.4432 6776153
1609.4213 820.9328 1966.2557 6184272
1622.4648 821.63934 1967.948 8947578
1630.808 819.97235 1963.9553 6052429
1649.4844 823.48761 1972.375 5723211
1656.1769 821.01288 1966.4475 6381141
1671.1654 822.65649 1970.3842 5065281
1681.3351 821.92157 1968.624 7499622
1677.1696 814.2373 1950.2191 5920590
1691.2834 815.4718 1953.1758 6183504
1697.9388 813.11774 1947.5376 8157293
1708.141 812.48254 1946.0162 5393987
1717.514 811.46411 1943.5768 2761754
1717.0226 805.82965 1930.0814 5395013
1735.4797 809.10382 1937.9235 7565668
1754.7286 812.70166 1946.5409 5591878
1768.9834 813.95465 1949.5419 6644310
1780.0619 813.7392 1949.0261 6183501
1784.6035 810.55762 1941.4058 7630948
1772.3528 799.83875 1915.7323 7170910
1772.5492 794.83759 1903.7539 5723722
1800.1486 802.10999 1921.1722 7302242
1815.6652 803.94092 1925.5576 3618089
1832.1577 806.17841 1930.9167 7631461
1826.5852 798.73944 1913.0995 6973531
0 0 0 0
0 0 0 0
0 0 0 0
0 0 0 0
0 0 0 0
0 0 0 0
0 0 0 0
0 0 0 0
0 0 0 0
0 0 0 0
0 0 0 0
-1644.09 800.29675 1890.0112 4
-1624.1859 796.02924 1879.9329 4
-1602.1208 790.63647 1867.1971 4
-1597.5106 793.84222 1874.7681 4
-1584.9908 793.13501 1873.0979 4
-1574.1017 793.23962 1873.345 4
-1565.7554 794.63629 1876.6433 4
-1556.7909 795.73682 1879.2423 2
-1547.5522 796.71216 1881.5457 2
-1535.8408 796.41931 1880.854 0
-1522.9768 795.52008 1878.7306 1118481
-1515.9656 797.68744 1883.8489 0
-1532.3645 812.29639 1918.35 1315860
-1527.3993 815.71405 1926.4213 855052
-1531.2181 823.90973 1945.7765 2763050
-1500.1249 813.30182 1920.7245 4210493
-1472.9553 804.67535 1900.3518 4013115
-1477.0226 813.11206 1920.2765 3289905
-1475.8212 818.75684 1933.6073 7764598
-1478.9647 826.91925 1952.8839 8752266
-1475.5807 831.53192 1963.7773 6318696
-1457.0648 827.62292 1954.5457 6516336
-1450.4587 830.47028 1961.2701 9082519
-1440.8855 831.651 1964.0587 8885401
-1434.366 834.62793 1971.089 8819866
-1426.2332 836.70715 1975.9995 9412261
-1404.9811 831.06085 1962.6648 9280675
-1401.5601 835.95544 1974.2241 9083296
-1385.7744 833.49548 1968.4146 9149346
-1374.3688 833.65057 1968.7808 8754331
-1363.9261 834.39746 1970.5447 8425880
-1363.6622 841.43793 1987.1719 8754074
-1349.1864 839.75525 1983.1979 9017503
-1339.9396 841.32629 1986.9081 8951710
-1327.3396 840.80121 1985.668 8951710
-1317.7106 842.16534 1988.8896 8820381
-1305.8398 842.10846 1988.7555 9017760
-1293.1931 841.54578 1987.4264 8885405
-1281.7147 841.73981 1987.8846 8951455
-1280.4198 848.68726 2004.2921 8227732
-1266.6576 847.42401 2001.3087 9280421
-1253.3707 846.45782 1999.027 9214372
-1241.0267 846.11603 1998.2197 9083300
-1232.0139 848.06067 2002.8123 9083813
-1222.272 849.53638 2006.2974 9083815
-1212.761 851.20319 2010.2338 9280938
-1201.707 851.80933 2011.6652 9280938
-1189.9291 851.9093 2011.9012 9346731
-1178.7692 852.45813 2013.1975 9412524
-1169.0662 854.08264 2017.0341 9543596
-1154.4908 852.14441 2012.4567 9674925
-1128.5396 841.6814 1987.7467 9675182
-1117.1846 841.9986 1988.4958 9675182
-1112.2244 847.1936 2000.7645 9609387
-1082.2777 833.26288 1967.8654 9214884
-1026.4203 798.86255 1886.6241 9017505
-1099.6707 865.29565 2043.515 8886173
-1086.1614 864.17926 2040.8787 8754585
-1061.7264 854.24731 2017.423 9937574
-1045.9845 851.1629 2010.1387 8620688
-1011.8135 832.83838 1966.8628 8028547
-972.29199 809.63141 1912.0564 8290431
-952.18201 802.23206 1894.5817 5790550
-933.5246 795.89441 1879.6146 5396302
-917.61859 791.77795 1869.8928 6053458
-913.73157 798.05835 1884.7249 4406838
-909.2572 803.97473 1898.6971 3814958
-893.74805 800.16003 1889.6884 3682601
-885.88586 803.18158 1896.8242 2761241
-874.87115 803.38599 1897.3069 4866359
-871.93695 811.11249 1915.5541 4209197
-859.802 810.37091 1913.8027 1512714
-848.99939 810.88208 1915.01 7630430
-848.20813 821.09851 1939.1373 4998708
-828.73138 813.25879 1920.6229 7169361
-811.32965 807.26544 1906.4686 4538154
-801.14746 808.38763 1909.1189 3813918
-796.48096 815.18713 1925.1769 1380355
-785.31488 815.43549 1925.7634 6248772
-781.99658 823.96002 1945.8951 4932913
-768.17236 821.50421 1940.0956 5985856
-749.01147 813.18011 1920.437 6578243
-743.89331 820.08002 1936.7322 6841418
-723.3219 809.89337 1912.675 5130801
-721.16583 820.33002 1937.3226 8354403
-707.27405 817.53888 1930.731 6249283
-688.30695 808.69318 1909.8405 4274983
-684.51251 817.67584 1931.0544 5327667
-671.13556 815.32281 1925.4973 7695958
-653.3595 807.45178 1906.9087 5196340
-648.01843 814.94183 1924.5975 1051910
-641.29254 820.92743 1938.7334 3419926
-628.96533 819.83032 1936.1425 6512454
-611.55286 811.94086 1917.5103 6052417
-602.56476 815.14917 1925.0874 8881002
-586.16156 808.25671 1908.8098 3617823
-572.02545 804.28064 1899.4197 3419674
0 0 0 0
-524.24426 767.28656 1812.0531 6775114
-518.67163 775.00031 1830.2701 6643785
-506.1564 772.44818 1824.2429 4604461
-498.40378 777.21149 1835.4922 2302224
-487.64523 777.39539 1835.9264 4604720
-478.3129 779.91309 1841.8724 5196590
-467.17767 779.54004 1840.9915 4275233
-453.81091 775.33661 1831.0643 4736042
-442.95435 775.32098 1831.0275 6446658
-434.63336 779.85413 1841.7332 4077598
-426.26266 784.5293 1852.774 2367246
-420.63879 794.64056 1876.6533 7301457
-407.47604 790.67242 1867.282 4274977
-403.3996 804.60583 1900.1877 2761998
-392.6189 805.58344 1902.4965 5788729
-383.23212 809.56335 1911.8956 5723194
-371.99207 809.75159 1912.3401 9012334
-359.95648 808.16553 1908.5944 8815210
-347.58899 805.70715 1902.7886 6578761
-334.14233 800.49866 1890.488 5461053
-323.63998 802.22723 1894.5703 8816756
-312.28909 801.90106 1893.8 7829349
-302.75278 806.38367 1904.3862 7368541
-291.315 805.95276 1903.3687 8553071
-276.49466 795.75208 1879.2783 5789507
-264.02344 791.73987 1869.803 5065273
-253.49609 793.46075 1873.8671 6051908
-244.82504 801.41565 1892.6537 7630683
-234.51834 804.52307 1899.9923 3091223
-222.09772 800.32629 1890.0811 6380094
-210.19449 797.64734 1883.7543 3945756
-201.70407 808.34509 1909.0186 8024920
-188.98921 802.37823 1894.9269 4143135
-174.55324 787.88916 1860.709 5986108
-166.29152 801.19421 1892.1307 5722679
-154.47879 798.07739 1884.7699 4801580
-137.32454 764.72906 1806.0132 5590840
0 0 0 0
0 0 0 0
0 0 0 0
0 0 0 0
0 0 0 0
0 0 0 0
0 0 0 0
0 0 0 0
0 0 0 0
0 0 0 0
0 0 0 0
0 0 0 0
0 0 0 0
0 0 0 0
0 0 0 0
0 0 0 0
0 0 0 0
0 0 0 0
0 0 0 0
0 0 0 0
0 0 0 0
0 0 0 0
0 0 0 0
0 0 0 0
0 0 0 0
0 0 0 0
0 0 0 0
0 0 0 0
0 0 0 0
0 0 0 0
0 0 0 0
0 0 0 0
0 0 0 0
0 0 0 0
0 0 0 0
0 0 0 0
0 0 0 0
0 0 0 0
0 0 0 0
115.54374 304.0126 717.96771 14
117.79154 298.92297 705.94781 14
122.65167 300.58438 709.87152 14
0 0 0 0
130.36308 298.98016 706.08295 14
135.24953 300.54337 709.7746 14
140.48141 302.75674 715.00183 13
146.8138 307.14282 725.36017 14
153.45865 311.91458 736.62933 14
158.12706 312.5163 738.05035 790039
161.19315 310.00406 732.11731 5396321
178.50291 334.29892 789.49304 5395533
0 0 0 0
0 0 0 0
0 0 0 0
499.04401 845.94403 1997.8137 5854537
509.57263 843.78021 1992.7034 6183499
515.06494 833.56354 1968.5753 6709845
523.96436 829.19116 1958.2494 5854280
538.95618 834.44098 1970.6475 6446678
549.19135 832.25964 1965.496 262657
559.25531 829.91486 1959.9584 196608
573.95758 834.40845 1970.5707 855050
0 0 0 0
591.72534 826.61285 1952.1604 8355180
599.35376 821.21899 1939.4221 5327931
612.22089 823.07098 1943.7957 7301721
617.03162 814.22351 1922.9012 4998710
633.43915 820.72229 1938.249 8617580
639.89581 814.32635 1923.144 6445895
648.86835 811.2998 1915.9965 5920061
664.896 817.04681 1929.5688 5129777
682.23553 824.18457 1946.4255 3945503
694.7533 825.35663 1949.1936 4734762
708.07849 827.43408 1954.0999 6642501
719.15704 826.86145 1952.7476 5655350
731.81219 828.09113 1955.6514 4735019
735.10492 818.85333 1933.8351 4932401
747.48608 819.86749 1936.2302 5524536
755.74603 816.39917 1928.0393 5590329
758.37701 807.04382 1905.9453 5590840
762.55518 799.58533 1888.3311 6248515
775.16394 801.05469 1891.8011 6906702
825.77899 841.19812 1986.6053 6841166
828.237 831.84644 1964.5201 5854272
849.05511 840.93848 1985.9923 6380616
848.39105 828.79608 1957.3163 6381386
853.68903 822.72681 1942.983 7104855
867.28461 824.70941 1947.6652 8025958
862.19464 809.10498 1910.8131 6973270
876.98615 812.32043 1918.4069 8815476
893.28522 816.83203 1929.0616 7302237
881.94159 796.27228 1880.507 8485741
900.07837 802.51013 1895.2384 7696226
912.47321 803.53778 1897.6654 8090983
918.9845 799.42242 1887.9463 8946548
939.08643 807.0863 1906.0457 6906450
932.54553 791.94214 1870.2808 7038549
963.22742 808.39325 1909.1322 6512203
998.41876 828.20306 1955.9158 6117444
1023.2632 839.07391 1981.5887 8551532
1014.8865 822.76587 1943.0752 8222310
1032.4255 827.59784 1954.4865 6709070
1039.8331 824.2912 1946.6774 5722431
1051.6575 824.5199 1947.2177 5852990
1063.5071 824.76337 1947.7925 5063731
1073.4222 823.51746 1944.85 6314567
1082.8346 821.91632 1941.0688 5327418
1092.3588 820.43286 1937.5654 3880488
1100.4015 817.87915 1931.5344 3354398
1110.0242 816.54016 1928.3723 7368287
1132.261 824.41309 1946.9652 4802615
1135.6115 818.5144 1933.0348 7697251
1140.5439 813.86255 1922.0486 6841687
1162.5903 821.3938 1939.8348 2762784
1155.8759 808.65643 1909.7538 8683635
1168.9406 809.86951 1912.6185 7302239
1182.0046 811.0589 1915.4275 8354927
1213.4481 824.7171 1947.6832 6906710
1217.3005 819.54248 1935.4626 6709330
1211.7086 808.16534 1908.594 10459783
1217.0323 804.21167 1899.257 7170649
1252.2662 819.91394 1936.34 6381135
1241.749 805.64777 1902.6483 6314572
1224.288 787.17352 1859.0189 7893602
1273.9751 811.81781 1917.2197 7630430
1274.7479 805.13226 1901.4309 7367259
1301.4669 814.80774 1924.2809 5853763
1303.3505 808.90161 1910.3328 7169620
1305.5566 803.29572 1897.0936 5393209
1346.7428 821.56464 1940.2384 5722174
1346.3937 814.40082 1923.3199 5722174
1354.7256 812.56409 1918.9822 4998450
1370.7578 815.33813 1925.5334 6577483
1381.9047 815.18445 1925.1707 6182725
1404.0222 821.45203 1939.9723 5985602
1407.3905 816.73718 1928.8374 6775119
1430.504 823.46448 1944.7251 7630684
1451.1887 828.69745 1957.0834 4867378
1459.2599 826.7016 1952.3699 8749165
1460.7802 821.05511 1939.0348 6577996
1453.6036 810.64661 1914.4539 6577742
1454.5604 804.90002 1900.8824 7893857
1485.0277 815.44635 1925.7889 6116934
1483.8413 808.58282 1909.5798 5986374
1458.3329 788.66986 1862.5526 6512206
1478.9292 793.80219 1874.6735 5986377
1488.0972 792.76965 1872.2351 6249549
1527.9192 807.96246 1908.1147 7302239
1532.615 804.49353 1899.9226 8355184
1564.2573 815.11688 1925.0111 6841945
1592.8538 824.0108 1946.0151 7105118
1588.4033 815.80389 1926.6335 5262914
1602.9407 817.39667 1930.395 9013114
1636.3403 828.5174 1956.6581 4670779
1658.9722 834.06793 1969.7666 7894380
1655.4709 826.49396 1951.8796 6249299
1666.4395 826.1991 1951.1832 5460549
1666.1193 820.34991 1937.3696 6973788
1680.9746 822.00177 1941.2706 7763561
1686.7799 819.23578 1934.7384 7236704
1688.1562 814.37054 1923.2483 3157541
1710.6598 819.69391 1935.8203 7170656
1717.0951 817.2984 1930.163 4999487
1726.0463 816.12408 1927.3896 6052432
1747.2322 820.71216 1938.225 6644567
1731.6958 808.1037 1908.4484 7171167
1745.484 809.25452 1911.1661 7104861
1764.8761 812.97174 1919.9449 6644053
1764.4867 807.58777 1907.2299 6183502
1752.533 797.01294 1882.256 6117709
1764.1716 797.2334 1882.7766 6117710
1795.361 806.23053 1904.0247 6578005
1820.234 812.29669 1918.3506 5920331
1831.9861 812.46838 1918.7561 9275517
0 0 0 0
0 0 0 0
0 0 0 0
0 0 0 0
0 0 0 0
0 0 0 0
0 0 0 0
0 0 0 0
0 0 0 0
0 0 0 0
0 0 0 0
-1643.7773 811.33923 1889.6517 4
-1621.0619 805.61389 1876.317 4
-1599.179 800.22595 1863.7683 4
-1588.3917 800.354 1864.0665 4
-1580.098 801.74902 1867.3157 4
-1571.9199 803.22296 1870.7484 4
-1562.8741 804.27118 1873.1899 4
-1555.0112 805.94757 1877.0941 2
-1550.4763 809.38519 1885.1007 197381
-1545.8367 812.81781 1893.0953 263429
-1536.8179 813.98108 1895.8047 3684410
-1546.2839 825.02423 1921.5247 5066574
-1530.5333 822.67682 1916.0576 1842717
-1531.8193 829.52014 1931.996 1184273
-1517.1616 827.76758 1927.9142 2171166
-1481.2654 814.31274 1896.5773 6053722
-1473.5885 816.28424 1901.1688 2632486
-1474.6382 823.15729 1917.1765 2698539
-1481.8774 833.6189 1941.5421 5397337
-1476.4629 837.07019 1949.5804 9345434
-1459.7045 834.09387 1942.6484 9279901
-1438.6687 828.60669 1929.8687 9543588
-1429.0408 829.65466 1932.3093 9412004
-1423.8394 833.31018 1940.8232 9412004
-1416.7528 835.91296 1946.8851 9280676
-1407.5104 837.276 1950.0598 9280675
-1395.5149 837.01044 1949.4412 9017504
-1382.467 836.10394 1947.3298 9017248
-1376.4827 839.48999 1955.2162 8951455
-1370.0903 842.68256 1962.652 8425368
-1361.9921 844.87158 1967.7504 8820896
-1352.4498 846.19507 1970.8328 8952482
-1345.496 849.17505 1977.7733 9083811
-1329.6525 846.54779 1971.6542 8820896
-1315.4281 844.91382 1967.8485 8820639
-1303.3218 844.62323 1967.1718 8819869
-1296.355 847.68829 1974.3104 9214627
-1280.6562 845.04718 1968.1592 9148834
-1268.8655 844.9599 1967.9561 9214371
-1267.5823 851.93317 1984.1971 9082785
-1262.3145 856.33386 1994.4464 8228761
-1251.0706 856.72534 1995.3582 9215399
-1214.5001 839.6153 1955.5082 9215399
-1202.246 839.14825 1954.4203 9149352
-1195.4844 842.54297 1962.3268 9083559
-1181.4915 840.85791 1958.4023 9280938
-1176.9403 845.92572 1970.2054 9346732
-1166.0551 846.49695 1971.5358 9346987
-1147.7111 841.61011 1960.1541 9280681
-1134.358 840.32068 1957.151 9346474
-1111.0836 831.57904 1936.7911 9543850
-1095.7635 828.67029 1930.0167 9609387
-1083.5472 828.07245 1928.6241 9675178
-1067.3285 824.37036 1920.0018 9083298
-1051.9785 821.26678 1912.7734 9017245
-1029.5657 812.52173 1892.4058 8030091
-1005.361 802.1543 1868.2595 6713201
-1062.7349 857.37042 1996.8607 7896961
-978.56293 798.35083 1859.401 6317669
-959.82019 791.97479 1844.551 5724753
-959.20459 800.58154 1864.5964 4868673
-953.09912 804.7533 1874.3127 6183756
-941.42731 804.26813 1873.1827 4802618
-922.7807 797.7417 1857.9822 7566182
-915.04846 800.60699 1864.6556 6579288
-910.22052 806.11438 1877.4828 2237467
-899.45074 806.43079 1878.2196 4604731
-890.33472 808.25635 1882.4716 2301205
-886.22595 814.73151 1897.5525 3090461
-867.20062 807.4837 1880.672 6183499
-859.73724 810.95319 1888.7524 4802100
-856.99133 819.02258 1907.5466 4473137
-845.54242 818.87915 1907.2124 6117192
-841.24817 825.75458 1923.2258 5986116
-831.13477 827.02856 1926.1929 6249288
-811.32147 818.55157 1906.4495 6249031
-801.63818 820.19977 1910.2883 4801841
-790.09387 819.96381 1909.7388 3552031
-783.91882 825.37421 1922.34 7630939
-782.00183 835.49347 1945.9082 6775631
-757.59845 821.53149 1913.3901 5459514
-745.66498 820.87317 1911.8567 5130545
-732.43909 818.74963 1906.9109 7038540
-720.68036 818.22546 1905.6899 4669220
-707.00385 815.47241 1899.2782 4077343
-694.29443 813.76392 1895.299 6774087
-684.84662 815.88501 1900.239 1445120
-676.30865 819.17896 1907.9108 3090197
-665.18866 819.40424 1908.4355 4538154
-654.03796 819.59882 1908.8888 8157283
-644.62054 822.01062 1914.5059 2763036
-630.66913 818.62354 1906.6172 5130800
-619.85651 819.26135 1908.1028 4801574
-612.54675 824.63867 1920.6267 5525298
-600.25989 823.39221 1917.7238 6314560
-583.78979 816.2489 1901.0864 5855037
0 0 0 0
-528.64453 768.80896 1790.5964 7302224
-521.85547 774.47644 1803.7963 5591095
-510.59406 773.6048 1801.7662 6775115
-506.94186 784.47089 1827.0739 5130546
-502.03644 793.82941 1848.8702 2762260
-486.28363 786.0708 1830.8002 6051903
-474.31934 784.22192 1826.494 5985848
-466.2673 788.90619 1837.4039 5854263
-452.65033 784.17365 1826.3816 6249024
-441.7215 783.98035 1825.9314 6577990
-430.56653 783.36578 1824.5 4933169
-420.9166 785.52844 1829.537 7565143
-412.90506 790.94379 1842.1497 4144164
-404.97729 796.81805 1855.8311 4603687
-394.86356 798.59912 1859.9792 5920057
-391.49896 814.52417 1897.0696 5262382
-380.26575 814.53583 1897.0968 8880996
-366.26474 808.43909 1882.897 7170127
-354.93744 808.04614 1881.9818 6906956
-344.08087 808.73407 1883.5842 6710094
-332.3158 807.26135 1880.1541 7828832
-323.35822 812.74286 1892.9208 7631711
-306.57684 798.24707 1859.1593 6052422
-294.41821 795.15594 1851.9598 7959906
-284.42578 797.90228 1858.3563 6118471
-274.35941 800.65411 1864.7654 6512972
-262.28983 797.54553 1857.5255 6315850
-251.32207 797.66187 1857.7965 6118214
-242.47195 804.81781 1874.463 5657406
-231.80525 806.34155 1878.0118 8025952
-221.12502 807.96942 1881.8032 7368021
-211.69617 814.58545 1897.2123 2894625
-199.8958 812.30627 1891.9041 3617309
-187.79581 808.46655 1882.9612 7433548
-175.87144 804.94574 1874.7609 6577987
-164.56375 803.96277 1872.4716 6709061
-155.28976 813.49152 1894.6644 5064235
0 0 0 0
0 0 0 0
0 0 0 0
0 0 0 0
0 0 0 0
0 0 0 0
0 0 0 0
0 0 0 0
0 0 0 0
0 0 0 0
0 0 0 0
0 0 0 0
0 0 0 0
0 0 0 0
0 0 0 0
0 0 0 0
0 0 0 0
0 0 0 0
0 0 0 0
0 0 0 0
0 0 0 0
0 0 0 0
0 0 0 0
0 0 0 0
0 0 0 0
0 0 0 0
0 0 0 0
0 0 0 0
0 0 0 0
0 0 0 0
0 0 0 0
0 0 0 0
0 0 0 0
0 0 0 0
0 0 0 0
0 0 0 0
0 0 0 0
0 0 0 0
0 0 0 0
0 0 0 0
0 0 0 0
119.8028 308.28061 718.00171 14
122.02329 303.22827 706.23456 14
126.01987 302.77826 705.18646 14
130.36308 303.16315 706.08295 14
135.30803 304.88004 710.0816 14
140.55779 307.15945 715.3905 15
146.35701 310.47104 723.10333 65804
153.19618 315.73761 735.36945 4277074
0 0 0 0
0 0 0 0
0 0 0 0
0 0 0 0
0 0 0 0
470.81854 828.92346 1930.6062 6513494
486.21829 835.73419 1946.4689 7960426
503.30328 845.05902 1968.1868 7105114
512.32977 840.73743 1958.1215 6183756
521.00262 836.03967 1947.1803 6578260
537.15491 843.2876 1964.0612 5065025
544.60461 836.85547 1949.0803 131072
553.66559 833.11505 1940.3688 788999
566.89178 835.66675 1946.3118 5723470
569.40009 822.6322 1915.9537 2564890
580.36816 822.09045 1914.6919 7960682
599.07263 832.31805 1938.5125 8223596
603.72717 823.00775 1916.8282 5328701
609.10632 815.0108 1898.203 8354665
625.16223 821.33081 1912.9227 8486253
634.3598 818.57581 1906.5061 6051909
640.35608 811.85846 1890.861 6841424
655.60748 816.90436 1902.613 6248771
666.60852 816.57294 1901.8413 7367507
688.83948 829.78033 1932.6021 5722427
698.39624 827.53796 1927.3794 6972236
716.4942 835.3255 1945.5171 3419669
718.86133 824.81714 1921.0424 5524020
724.47882 818.30743 1905.8811 3616284
734.33716 816.71417 1902.1703 5787958
730.00818 799.62885 1862.3776 7169613
745.56714 804.51245 1873.7517 6643529
767.18958 815.69971 1899.8074 7235924
769.34265 806.16223 1877.5942 6907218
755.72485 780.60657 1818.0737 5985859
791.45355 806.02405 1877.2723 6051908
807.46149 810.9317 1888.7024 7564891
842.71112 834.7652 1944.212 6117445
838.40826 819.30505 1908.2043 6775631
834.99866 805.11725 1875.1604 7302234
841.9726 801.18274 1865.9966 4407346
861.04034 808.7088 1883.5253 8881013
863.27332 800.43304 1864.2506 8157291
875.32904 801.35919 1866.4075 7433309
892.78906 807.14777 1879.8896 6906709
901.604 805.07446 1875.0608 7235930
918.09198 809.8197 1886.1127 9209463
936.99664 816.55695 1901.804 6577742
933.13025 803.52576 1871.4536 7433051
954.59863 812.36029 1892.0298 6840914
989.66687 832.42902 1938.7709 7038294
987.25214 820.87115 1911.8521 7893345
998.07355 820.45618 1910.8855 7695965
1013.2809 823.61536 1918.2435 5327161
1019.9542 819.84497 1909.4619 8617323
1040.4214 827.12317 1926.4132 6380359
1051.8085 827.10309 1926.3666 6182466
1047.4486 814.83374 1897.7905 6643274
1068.4207 822.32184 1915.2307 6446150
1075.7654 819.27429 1908.1329 4998964
1096.6744 826.51312 1924.9924 3090713
1096.0985 817.57721 1904.1803 5131063
1103.1217 814.43384 1896.8591 5130807
1127.3101 823.89911 1918.9043 4538930
1129.8591 817.51807 1904.0425 8485484
1145.4281 820.59076 1911.199 8156517
1135.7502 805.6933 1876.502 8156775
1157.8405 813.40228 1894.4567 4538160
1175.407 817.81586 1904.7361 5196093
1182.7001 815.06543 1898.3302 7104090
1192.7219 814.22961 1896.3835 4143404
1198.1549 810.30597 1887.2451 9209720
1206.4612 808.38019 1882.7599 7433822
1213.7736 805.82971 1876.8198 6315342
1228.3831 808.12622 1882.1685 8289131
1206.7496 786.7525 1832.3879 8288875
1232.2075 796.18787 1854.3633 8090981
1243.0643 796.10529 1854.171 7827809
1271.493 807.17932 1879.9631 6314570
1298.1354 816.93701 1902.6891 6445899
1307.2742 815.60608 1899.5894 5985348
1326.8582 820.75897 1911.5907 6182724
1334.4756 818.48517 1906.2949 5458745
1342.8403 816.70404 1902.1466 5195830
1347.4685 812.69897 1892.8185 6182725
1371.2207 820.19904 1910.2866 5985346
1377.5594 817.24561 1903.408 5853760
1391.8237 819.00391 1907.5032 4998451
1406.7911 821.14435 1912.4882 6841168
1402.0682 811.849 1890.8391 6840914
1463.6925 840.81415 1958.3003 9406841
1421.7957 810.32391 1887.287 6774864
1435.8094 811.92596 1891.0182 6841941
1439.4663 807.69189 1881.1569 7170651
1460.306 813.09015 1893.7297 7434078
1489.6475 823.10376 1917.0519 6447184
1458.5706 799.83435 1862.8562 6183756
1459.0251 794.07544 1849.4434 7828580
1478.0674 798.44324 1859.6162 6973270
1488.4917 798.12567 1858.8765 5986377
1519.7053 808.87787 1883.9191 7236190
1528.4108 807.58051 1880.8975 7170140
1571.7661 824.47772 1920.252 6775640
1565.8978 815.49713 1899.3357 6446932
1559.1753 806.20306 1877.6892 6447188
1592.9554 817.8349 1904.7804 6315602
1610.1818 820.86414 1911.8357 6052686
1617.4021 818.78564 1906.9948 9604995
1639.1091 824.0188 1919.183 5921101
1664.2599 830.89911 1935.2076 5723979
1653.0354 819.6488 1909.0051 9079674
1680.6617 827.68451 1927.7207 6578772
1685.7889 824.60626 1920.5513 5657671
1693.2458 822.70129 1916.1144 6841690
1702.3357 821.60974 1913.5721 5723466
1704.5934 817.2569 1903.4343 8092012
1716.4457 817.53131 1904.0732 6578774
1728.4301 817.86444 1904.8492 6578774
1729.4274 813.02814 1893.5852 7630948
1754.098 819.31171 1908.22 7170397
1778.8384 825.54712 1922.7426 4604469
1780.2279 820.93512 1912.001 4538677
1780.6859 815.95471 1900.4012 5591365
1778.9752 810.04919 1886.647 7433827
1812.9915 820.38409 1910.7175 4671033
1819.3486 818.15247 1905.5201 7104864
0 0 0 0
0 0 0 0
0 0 0 0
0 0 0 0
0 0 0 0
0 0 0 0
0 0 0 0
0 0 0 0
0 0 0 0
0 0 0 0
0 0 0 0
-1645.223 823.25745 1891.3137 591885
-1626.0563 819.24591 1882.0978 4
-1600.3618 811.86743 1865.1469 4
-1589.5754 812.00195 1865.4558 4
-1581.1934 813.375 1868.6102 4
-1572.037 814.36633 1870.8878 4
-1563.7471 815.82379 1874.2361 3
-1556.1021 817.64099 1878.4108 2
-1564.0043 827.71234 1901.5482 131589
-1553.8324 828.29517 1902.8871 1381654
-1545.498 829.87323 1906.5126 3553595
-1533.3839 829.42993 1905.4941 3685693
-1520.9452 828.80322 1904.0543 5726559
-1504.6816 826.06714 1897.7688 7832193
-1472.7136 814.60352 1871.4326 8819601
-1481.6815 825.78052 1897.1101 8227976
-1457.7723 818.66504 1880.7633 6385262
-1471.9353 832.98547 1913.6625 7044478
-1486.3965 847.6983 1947.463 8952478
-1459.3458 838.78168 1926.9784 9346981
-1449.3182 839.58588 1928.8259 9544104
-1437.0159 839.07452 1927.6514 9543847
-1427.3326 840.09674 1929.9996 9478054
-1417.2775 840.91473 1931.8788 9412261
-1406.9681 841.59393 1933.4392 9214627
-1396.4818 842.17755 1934.78 9083555
-1389.407 844.84528 1940.9088 8820639
-1369.7942 839.87006 1929.4788 7636366
-1357.8214 839.53485 1928.7089 7044484
-1352.0815 843.08051 1936.8544 8886434
-1347.7877 847.59619 1947.2285 8886432
-1339.8091 849.85254 1952.4122 8754846
-1329.426 850.60974 1954.1517 8886432
-1316.1094 849.48682 1951.5719 8952225
-1305.5099 850.11334 1953.0112 9083811
-1290.4418 847.81506 1947.7314 9018274
-1276.8787 846.47314 1944.6484 9149604
-1264.7552 846.06982 1943.7219 9215397
-1252.9561 845.87805 1943.2812 9281192
-1239.2786 844.40295 1939.8923 9281193
-1222.5325 840.78961 1931.5913 9018022
-1210.0802 840.08899 1929.9818 8952229
-1192.5164 835.7926 1920.1116 9149352
-1178.8201 834.15015 1916.3381 9215146
-1165.652 832.85321 1913.3585 9346733
-1146.304 827.0719 1900.0768 9215147
-1144.0491 833.63092 1915.1454 9149354
-1120.561 824.69458 1894.6155 9346733
-1114.9105 828.83813 1904.1345 9280939
-1102.2657 827.81354 1901.7808 9477546
-1087.772 825.36499 1896.1554 9214629
-1072.3641 822.16431 1888.8025 9543592
-1060.7864 821.86365 1888.1117 7635594
-1050.3812 822.47479 1889.5157 9609898
-1026.2546 812.23907 1866.0007 9016214
-1017.0428 813.71338 1869.3878 6646889
-991.24762 801.80627 1842.0327 5329998
-974.1167 796.72034 1830.3486 6118998
-957.01514 791.54431 1818.4574 6052176
-950.85266 795.40094 1827.3176 5920844
-944.43384 799.12964 1835.8835 4473141
-948.40845 811.84198 1865.0884 4802361
-932.20239 807.37567 1854.8276 4934718
-922.10242 808.15424 1856.6165 5461065
-910.93677 808.00653 1856.277 2500381
-910.1073 817.13538 1877.2491 3092521
-898.24719 816.46381 1875.7063 2367773
-888.48761 817.70856 1878.5659 722949
-877.56635 817.90228 1879.011 6841433
-861.39508 813.14484 1868.0817 5328194
-857.96582 820.44861 1884.8608 2236441
-841.42352 815.23999 1872.8948 4999479
-843.0376 827.71857 1901.5625 2762778
-827.40106 823.36847 1891.569 6907730
-823.66693 830.90613 1908.8856 7500121
-809.74139 828.22949 1902.7365 5395003
-794.69617 824.31598 1893.7456 5723713
-784.7608 825.66644 1896.8481 4999991
-779.151 831.6734 1910.6483 6973781
-774.98505 839.42133 1928.4479 4802611
-746.90576 821.11194 1886.3848 6973523
-731.33923 816.21112 1875.1259 3551769
-730.60474 827.96783 1902.1353 5854266
-717.60992 825.98108 1897.5709 7761495
-704.38867 823.6662 1892.2528 3550747
-692.47223 822.8269 1890.3247 3485212
-678.29712 819.23212 1882.0662 1576965
-673.88177 827.50165 1901.0643 394241
-663.58423 828.7066 1903.8324 5722432
-649.63312 825.31152 1896.0328 7565918
-638.39423 825.30328 1896.0138 8618348
-623.51758 820.50775 1884.9968 3354909
-595.11993 797.4201 1831.9562 5131056
-593.99933 810.70288 1862.4716 4472869
-593.36932 825.17084 1895.7096 5920318
-573.39075 812.77081 1867.2222 4999214
0 0 0 0
-531.97559 784.32812 1801.8794 6906959
-515.21362 775.16943 1780.8386 6380359
-507.89627 780.13495 1792.2462 7104081
-507.90933 796.81262 1830.5605 4867375
-497.21259 797.04968 1831.1052 4605229
-483.13403 791.75525 1818.9421 2828051
-474.08435 794.64868 1825.5892 3617819
-463.39035 794.85651 1826.0668 4472866
-452.07956 793.99109 1824.0786 5986629
-438.12457 788.3255 1811.0627 4999471
-429.90839 792.96063 1821.7113 4011557
-418.67422 792.12451 1819.7904 3354143
-409.98047 796.17761 1829.1018 4077852
-402.54276 802.9563 1844.6748 4603943
-394.42776 808.72455 1857.9265 4143651
-384.22321 810.41656 1861.8137 3945757
-373.88483 811.91809 1865.2632 5392944
-363.15601 812.63733 1866.9156 6774598
-345.05182 796.37939 1829.5654 6116668
-333.50433 794.69073 1825.6858 4867374
-330.44629 813.79572 1869.5768 9013104
-318.35428 811.20624 1863.6279 6973524
-303.92325 802.25647 1843.0673 4999729
-291.70703 798.70398 1834.9059 7302488
-282.51578 803.47955 1845.877 6973268
-268.7886 795.21991 1826.9017 5262650
-261.08301 804.82983 1848.979 5196858
-248.00998 798.01074 1833.3132 5065271
-240.46358 809.16431 1858.9369 6381386
-229.90869 810.77893 1862.6464 7170387
-218.91037 810.91394 1862.9563 4669995
-209.54391 817.42902 1877.9238 6973007
-198.82175 819.08966 1881.7389 4341288
-187.657 819.01587 1881.5693 7038797
-176.55838 819.23956 1882.0834 7170130
-164.27834 813.64209 1869.224 6907215
-153.54541 815.45209 1873.382 7301973
0 0 0 0
0 0 0 0
0 0 0 0
0 0 0 0
0 0 0 0
0 0 0 0
0 0 0 0
0 0 0 0
0 0 0 0
0 0 0 0
0 0 0 0
0 0 0 0
0 0 0 0
0 0 0 0
0 0 0 0
0 0 0 0
0 0 0 0
0 0 0 0
0 0 0 0
0 0 0 0
0 0 0 0
0 0 0 0
0 0 0 0
0 0 0 0
0 0 0 0
0 0 0 0
0 0 0 0
0 0 0 0
0 0 0 0
0 0 0 0
0 0 0 0
0 0 0 0
0 0 0 0
0 0 0 0
0 0 0 0
0 0 0 0
0 0 0 0
0 0 0 0
0 0 0 0
108.95779 305.9693 702.9198 14
0 0 0 0
119.3672 311.39783 715.39099 14
0 0 0 0
125.78429 306.38211 703.86816 13
130.36304 307.34607 706.0827 13
134.74121 307.79196 707.10706 11
138.89987 307.72455 706.95227 1646376
146.71524 315.52524 724.87317 4540750
0 0 0 0
0 0 0 0
0 0 0 0
0 0 0 0
0 0 0 0
0 0 0 0
0 0 0 0
464.44757 809.32874 1859.3146 7105115
486.71277 828.4787 1903.3088 5854024
498.7428 829.7337 1906.1921 3880749
519.81335 845.6405 1942.7357 4407093
531.09943 845.28534 1941.9198 2170136
538.60645 839.05817 1927.6136 196608
545.9931 832.90594 1913.4799 328450
549.64081 821.41626 1887.084 8618360
559.62549 819.66632 1883.0636 8552563
575.87219 826.97711 1899.8591 5526081
587.36505 827.31189 1900.6283 8881267
589.16516 814.2384 1870.594 8617838
606.04626 822.10522 1888.6667 8617322
617.08032 821.89893 1888.1929 7894113
631.90387 826.65753 1899.1251 6314309
633.64734 814.43756 1871.0513 6314565
642.74133 811.9231 1865.2747 6709322
656.00671 814.67389 1871.5942 6380358
663.08368 809.77582 1860.3417 5721913
673.95819 809.59973 1859.9373 5524282
670.20477 792.14008 1819.826 4340262
697.35986 811.18671 1863.583 2958610
705.83282 808.24689 1856.8292 7629910
708.6947 799.07068 1835.7482 7367252
719.48712 798.97845 1835.5364 7235411
739.48547 808.95996 1858.4674 5919809
739.15454 796.7356 1830.3837 7762014
757.23212 804.42035 1848.0382 5788481
759.33203 795.15466 1826.7517 7104084
786.56555 812.09875 1865.6783 5459515
792.74524 807.13721 1854.28 6643790
806.24786 809.66541 1860.088 6445899
819.04889 811.43024 1864.1426 6315340
830.8385 812.15961 1865.818 7039320
840.89825 811.20087 1863.6156 7762786
851.42505 810.71173 1862.4918 7038807
849.7312 798.74768 1835.0062 7959139
871.87042 809.20605 1859.0328 7103829
880.46191 806.98633 1853.9333 7893858
892.8877 808.29236 1856.9336 5063992
910.14508 813.88702 1869.7867 7695967
933.09814 824.37939 1893.8912 8879985
931.71936 813.38092 1868.6239 5459262
