# .PCD v0.7 - Point Cloud Data file format
VERSION 0.7
FIELDS x y z rgb
SIZE 4 4 4 4
TYPE F F F U
COUNT 1 1 1 1
WIDTH 1407
HEIGHT 1
VIEWPOINT 0 0 0 1 0 0 0
POINTS 1407
DATA ascii
-1401.9308 761.33771 2235.9683 1052428
-1411.2677 773.71887 2272.3306 65536
-1394.2085 771.7276 2266.4824 0
-1399.3463 782.10364 2296.9558 65536
-1390.558 784.82373 2304.9443 0
-1373.6746 782.98358 2299.54 789257
-1367.7498 787.41547 2312.5559 526084
-1350.4805 785.33978 2306.46 1249806
-1356.1947 796.724 2339.894 2960424
-1317.4476 781.9538 2296.5156 2302494
-1299.4181 779.30029 2288.7227 1644564
-1316.1036 797.63007 2342.5552 197634
-1311.262 803.16486 2358.8103 657668
-1291.4125 799.52734 2348.1272 394498
-1284.5867 803.96149 2361.1499 1052428
-1273.3551 805.70563 2366.2722 131329
-1265.0957 809.3902 2377.0933 65792
-1243.7131 804.66699 2363.2219 789514
-1238.4259 810.36841 2379.9663 1842203
-1238.3496 819.65021 2407.2261 526342
-1242.5057 831.9823 2443.4441 592137
-1218.1035 825.25702 2423.6926 921101
-1185.7874 812.94568 2387.5354 3289905
-1171.4277 812.79626 2387.0967 2565668
-1171.1342 822.52228 2415.6609 0
-1165.3818 828.60767 2433.533 526342
-1111.9667 800.53174 2351.0769 1776151
-1096.3304 799.28662 2347.4202 2434850
-1094.6808 808.33746 2374.0015 2763558
-1108.4248 829.13885 2435.093 723721
-1108.1475 839.862 2466.5859 2105630
-1076.9264 827.10638 2429.124 3618612
-1062.8445 827.34668 2429.8298 1052429
-1053.785 831.55707 2442.1951 131587
-1065.1337 852.21301 2502.8594 1644825
-1044.1635 847.22888 2488.2214 328965
-1036.2493 852.84717 2504.7219 3
-1017.4269 849.52081 2494.9526 659476
-1005.6069 852.02924 2502.3198 4278860
-969.45862 833.69165 2448.4641 6647663
-968.38257 845.41553 2482.896 6187882
-957.47546 848.78613 2492.7949 9279900
-949.06207 854.50751 2509.5981 5661031
-936.96313 857.03986 2517.0354 8489613
-931.69556 866.00385 2543.3616 4936793
-919.70398 868.90979 2551.896 6845043
-906.20929 870.46906 2556.4756 8160904
-883.50006 863.07977 2534.7739 9345436
-868.98608 863.57928 2536.241 9740195
-858.20056 867.86676 2548.8328 8490128
-845.47131 870.30707 2555.9998 8819092
-828.638 868.53461 2550.7942 9542815
-814.68365 869.77008 2554.4226 10003366
-797.32788 867.35199 2547.321 9871782
-783.13208 868.34448 2550.2358 9740197
-766.64716 866.7879 2545.6643 9477026
-759.026 875.39154 2570.9324 9740198
-742.88013 874.31451 2567.7693 9805736
-728.19556 874.9483 2569.6306 9740713
-712.76099 874.68878 2568.8684 9674920
-696.90228 873.88605 2566.5107 9477541
-681.82147 874.04468 2566.9768 9280163
-663.02155 869.33417 2553.1426 6977407
-648.39569 870.00446 2555.1111 9411748
-635.70935 873.37146 2564.9995 9412518
-618.45667 870.4762 2556.4963 9346469
-604.49701 872.18683 2561.5203 9280675
-589.71851 872.77356 2563.2437 9215139
-574.23212 872.3161 2561.9001 8951710
-561.44769 876.04987 2572.8657 9016734
-553.21936 887.29932 2605.9043 9214369
-533.92572 880.93774 2587.2209 9214370
-519.51434 882.49347 2591.79 9477541
-502.91086 880.30707 2585.3687 9477541
-489.57556 883.88354 2595.8726 9609127
-474.01331 883.54108 2594.8667 9608869
-459.35635 884.91974 2598.9155 9740454
-441.60196 880.22003 2585.113 8818586
0 0 0 0
0 0 0 0
0 0 0 0
0 0 0 0
0 0 0 0
0 0 0 0
0 0 0 0
0 0 0 0
0 0 0 0
0 0 0 0
0 0 0 0
0 0 0 0
0 0 0 0
0 0 0 0
0 0 0 0
0 0 0 0
0 0 0 0
0 0 0 0
0 0 0 0
0 0 0 0
0 0 0 0
-29.965439 251.97806 740.0329 11
-25.706007 253.20628 743.64008 13
-21.305828 253.26942 743.8255 14
-17.096472 256.2254 752.5069 14
-12.6666 256.79608 754.18292 14
-8.2036009 256.95114 754.63831 15
-3.7295017 256.71359 753.94067 18
0.73739702 256.84729 754.33331 22
5.1924863 256.16885 752.34082 1055551
9.7425594 258.6387 759.59448 9084877
14.253557 258.83823 760.18048 8559306
18.782955 259.19589 761.2309 8427722
23.339319 259.71512 762.7558 8230090
27.921167 260.30347 764.48376 8164043
32.53653 260.99643 766.51892 7900873
37.079758 261.0119 766.56433 7966154
41.850563 262.45117 770.79126 7768772
46.34811 262.06216 769.64886 7504570
50.994987 262.5116 770.96881 30
55.701912 263.17084 772.90491 27
60.368397 263.55338 774.02838 25
65.181938 264.47858 776.74561 26
69.896751 264.90759 778.00555 8426694
74.935165 266.43408 782.48871 8163782
79.779419 267.13263 784.54022 7966149
84.784325 268.26254 787.8587 8098502
89.560219 268.58774 788.81378 8690639
94.426849 269.13934 790.43372 8755919
99.326042 269.7272 792.16022 8624844
104.24795 270.32095 793.90399 8426696
109.6603 272.08026 799.07092 6516900
113.66067 270.33563 793.94714 30
117.79047 269.02533 790.09894 23
122.22514 268.4848 788.51147 17
127.35602 269.45712 791.36713 14
133.57773 272.58643 800.5575 13
138.51566 272.97119 801.6875 12
143.28366 273.00668 801.79175 8
148.13182 273.18771 802.32343 2
0 0 0 0
0 0 0 0
0 0 0 0
530.46106 867.00745 2546.3091 5919542
545.93048 867.61859 2548.104 5787960
565.15991 874.01154 2566.8794 6051390
581.1355 875.16937 2570.2798 8485476
593.86627 871.50629 2559.5217 6906700
592.07819 847.24933 2488.2817 6709322
594.34485 829.8324 2437.1299 6182978
626.78668 854.37329 2509.2039 8551271
658.32623 876.57562 2574.4099 6051141
676.05939 879.80536 2583.8953 8025188
692.32037 881.01862 2587.4585 7959395
699.74182 871.17419 2558.5464 10656907
713.1712 869.06836 2552.3618 7301975
739.25604 882.15173 2590.7864 7959648
749.03448 875.64038 2571.6631 8420200
761.07574 871.98102 2560.916 7235926
774.99573 870.57526 2556.7874 7038290
787.5 867.66357 2548.2361 7038290
799.43091 864.24152 2538.1858 7828062
820.33472 870.4671 2556.4697 7630427
818.86005 853.15137 2505.6152 7301719
862.20844 882.32074 2591.2827 7433304
874.81244 879.55859 2583.1704 7762269
879.18677 868.75909 2551.4536 8091235
901.21478 875.47437 2571.1755 7827809
915.06488 874.15399 2567.2979 6906705
928.31238 872.31067 2561.884 7762012
930.71063 860.49579 2527.1851 9736312
936.09503 851.77222 2501.5647 8091229
949.57941 850.57599 2498.0515 6183745
964.92242 851.05573 2499.4607 7038285
998.00592 866.93158 2546.0862 7762264
1021.9374 874.50299 2568.3228 7695702
1011.1255 852.55743 2503.8708 5393203
1057.2664 878.5733 2580.2769 7761754
0 0 0 0
1051.3669 849.11768 2493.7688 8551526
1042.525 830.3092 2438.5303 8091231
1124.7727 883.57092 2594.9543 6906957
1129.4026 875.24536 2570.5029 7170645
1156.1526 884.05554 2596.3774 8223334
1178.6204 889.40289 2612.082 7565660
1190.1503 886.46466 2603.4529 7828320
1210.7172 890.24683 2614.5605 8485993
1219.8005 885.59595 2600.9016 8420199
1236.318 886.39117 2603.2371 7630427
1251.7455 886.39496 2603.248 5656896
1254.0735 877.23535 2576.3474 7499100
1258.6815 869.87183 2554.7214 6709584
1287.9336 879.51239 2583.0349 7762016
1301.8623 878.58527 2580.312 8617069
1324.0999 883.22198 2593.9294 6183756
1332.4867 878.61938 2580.4121 8420718
1348.7708 879.26929 2582.321 8157545
1369.7853 882.95398 2593.1426 6052169
1413.5326 901.04785 2646.2822 7959908
1421.0677 895.91473 2631.2068 7959908
1434.1346 894.34259 2626.5896 8157544
1433.8722 884.58112 2597.9211 7170649
1450.1754 885.13818 2599.5571 8749681
1445.9801 873.30322 2564.7993 9276281
1475.0416 881.59125 2589.1401 6907477
1489.6465 881.15717 2587.8655 6972499
1521.0876 890.5896 2615.5674 8288360
1517.1926 879.35114 2582.5613 8683118
1561.4208 895.95038 2631.3115 7893346
1542.6199 876.41272 2573.9314 8156774
1530.4459 860.9856 2528.6235 8881010
1560.7544 869.52533 2553.7039 7959908
1585.632 874.90448 2569.5017 8682861
1595.881 872.18634 2561.519 8814704
1562.5735 845.93915 2484.4338 8814704
1600.7017 858.49432 2521.3071 9077875
1643.5149 873.30707 2564.8103 8552045
1678.1697 883.55273 2594.9009 7762786
1696.173 884.92517 2598.9316 7762785
1719.0505 888.79297 2610.2908 8289130
1721.1564 881.948 2590.188 7828578
1729.6381 878.46222 2579.9507 8354153
1752.5596 882.30725 2591.2429 5657410
1764.713 880.71143 2586.5562 7039063
1808.9482 895.01617 2628.5679 7170392
1810.103 887.94379 2607.7969 8947061
1835.7677 892.91254 2622.3896 6446927
1835.7719 885.42133 2600.3889 7762787
1854.6333 887.07446 2605.2439 8486508
1854.9716 879.91364 2584.2134 8749681
1862.8707 876.42743 2573.9746 8815474
1883.5046 878.94031 2581.3547 8157543
1882.8994 871.58142 2559.7424 8552305
1932.3804 887.33942 2606.022 7434336
1945.6462 886.34949 2603.1147 7434337
1981.71 895.67932 2630.5154 7433825
1986.2197 890.71313 2615.9304 4604983
1980.856 881.43054 2588.6682 8289132
2013.7751 889.19458 2611.4705 9144182
2039.7198 893.78394 2624.949 7236439
2062.9844 897.13855 2634.801 9341816
2066.571 891.94946 2619.5613 8618352
2086.7444 893.94342 2625.4172 9144440
2073.1396 881.54474 2589.0037 9144698
2124.9482 896.93903 2634.2151 8025961
2085.031 873.67371 2565.8872 8947065
2156.4353 897.05359 2634.5515 8157292
2188.8311 903.98712 2654.9146 8288879
2180.5022 894.12238 2625.9429 7236191
2193.6096 893.12524 2623.0144 7828328
2214.7173 895.37634 2629.6257 5788744
2216.3894 889.79352 2613.2295 6578261
2207.3823 880.03058 2584.5566 7302239
2229.8191 882.85168 2592.842 8749428
2246.3445 883.30975 2594.1873 8289132
2260.3376 882.77258 2592.6096 7828580
2279.5798 884.27887 2597.0334 6841685
2298.5996 885.67914 2601.146 7763044
2305.4753 882.41278 2591.553 7368287
2331.7878 886.57983 2603.791 6841943
2343.6829 885.24628 2599.8748 8749940
2282.3049 856.43457 2515.2578 7829093
2343.4148 873.66193 2565.8528 8223850
2344.4167 868.40253 2550.4062 8355435
2348.8516 864.47394 2538.8684 8749937
2354.3767 860.99408 2528.6484 8223849
2402.208 872.9317 2563.708 8815986
2438.9268 880.7066 2586.542 8947572
2488.2468 892.90631 2622.3713 9671297
2517.0627 897.6424 2636.2808 9539455
0 0 0 0
0 0 0 0
0 0 0 0
0 0 0 0
0 0 0 0
0 0 0 0
0 0 0 0
0 0 0 0
0 0 0 0
0 0 0 0
0 0 0 0
0 0 0 0
-1743.3896 699.04321 2017.9067 1709582
-1751.3921 707.10059 2041.1656 2039061
0 0 0 0
-1730.9777 708.64404 2045.6212 328962
-1721.1731 709.59814 2048.3752 1447185
-1712.4656 711.02124 2052.4834 2565666
-1715.6332 717.43054 2070.9849 1644823
-1704.854 718.05804 2072.7964 3750198
-1695.8152 719.43292 2076.7651 6381919
-1678.5277 717.30298 2070.6167 3289390
-1681.2159 723.74091 2089.2009 1249808
-1683.6655 730.17084 2107.762 263170
-1672.0961 730.57166 2108.9189 6578781
-1659.2642 730.42279 2108.4893 131585
-1660.8522 736.66766 2126.5161 4341820
-1671.1798 746.91394 2156.0938 2499358
-1651.2147 743.67487 2146.7437 723205
-1631.2163 740.3703 2137.2043 328450
-1627.0973 744.27783 2148.4841 1577742
-1611.2439 742.83691 2144.3247 131072
-1586.8851 737.42078 2128.6899 2170385
-1563.9161 732.56879 2114.6841 9080183
-1547.126 730.55621 2108.8743 2500381
-1529.4344 728.0816 2101.731 2105627
-1534.2975 736.3916 2125.7192 65536
-1549.0619 749.63068 2163.936 65536
-1491.5994 727.84656 2101.0525 65536
-1472.2985 724.47406 2091.3171 65536
-1439.8578 714.52368 2062.5938 0
-1413.6232 707.50903 2042.3448 131072
-1407.5244 710.53821 2051.0891 65536
-1384.3502 704.92523 2034.8861 65792
-1360.5638 698.89905 2017.4905 2039325
-1411.2047 731.33698 2111.1282 65793
-1391.2894 727.46326 2099.946 0
-1377.8694 726.94653 2098.4543 0
-1351.8955 719.73682 2077.6423 1184272
-1425.7057 766.00677 2211.2085 526343
-1448.5144 785.4787 2267.4175 131585
-1439.1241 787.69135 2273.8044 526342
-1398.7144 772.80701 2230.8384 1907995
-1419.6548 791.85895 2285.835 0
-1407.9972 792.91998 2288.8979 0
-1398.9536 795.4881 2296.3113 0
-1392.7806 799.755 2308.6284 0
-1378.7585 799.55487 2308.0505 65536
-1362.4098 797.98779 2303.5271 1249808
-1368.8618 809.87915 2337.8533 1512978
-1334.1064 797.38409 2301.7844 987146
-1316.2339 794.82593 2294.3999 1052426
-1303.231 795.18573 2295.4385 1118219
-1302.7457 803.27148 2318.7793 1841942
-1286.4912 801.70258 2314.2505 657668
-1287.3881 810.90326 2340.8098 328705
-1283.1221 817.01697 2358.458 921101
-1280.3811 824.24695 2379.3286 2171168
-1277.0365 831.24506 2399.5298 1578773
-1245.8567 820.07825 2367.2949 1184273
-1238.262 824.35876 2379.6514 657930
-1241.2751 835.88129 2412.9131 1381651
-1227.2657 836.07556 2413.4739 2500132
-1198.7987 826.30902 2385.2812 4934473
-1175.5447 819.9458 2366.9124 2105116
-1181.3379 833.93378 2407.2913 789513
-1180.0432 843.19922 2434.0374 1250064
-1159.9396 839.08752 2422.1685 1776409
-1114.6084 816.39502 2356.6626 921100
-1101.9681 817.37494 2359.4912 1974046
-1096.2141 823.55347 2377.3267 790029
-1106.575 842.15698 2431.0291 658443
-1084.6257 836.33746 2414.23 2238506
-1081.6798 845.2113 2439.8457 4608083
-1066.022 844.25806 2437.094 5529702
-1056.4022 848.12628 2448.2603 6253681
-1048.6635 853.6333 2464.1572 5134432
-1039.0253 857.72791 2475.9771 7437444
-1015.8676 850.61938 2455.457 6713721
-1008.4014 856.63434 2472.8203 7306629
-997.62311 859.97144 2482.4534 7240834
-982.81628 859.88379 2482.2002 7635336
-969.04456 860.71289 2484.5935 7701129
-949.07428 855.97693 2470.9224 7569799
-941.52374 862.46948 2489.6646 8227472
-931.95074 867.2868 2503.5703 7767179
-917.11005 867.2782 2503.5457 8688538
-903.47614 868.42944 2506.8689 8556435
-901.95398 881.45563 2544.4712 9082009
-878.37787 873.00543 2520.0784 9411487
-863.18604 872.74023 2519.3127 9674402
-848.70068 873.1925 2520.6184 9608609
-831.11267 870.41174 2512.5911 9674402
-819.81738 874.23993 2523.6418 9674403
-803.58453 872.84717 2519.6213 9608610
-789.11737 873.3559 2521.0898 9674404
-775.53131 874.87823 2525.4844 9345439
-759.99878 874.22144 2523.5884 9542819
-745.74225 875.03546 2525.9382 9411232
-730.40967 874.59442 2524.665 9477541
-717.51324 877.11292 2531.9351 9411748
-702.10754 876.60608 2530.4722 9411748
-687.62323 877.25256 2532.3384 9543334
-673.12885 877.91486 2534.2502 9609127
-654.08032 872.53229 2518.7122 9609127
-640.17688 873.92188 2522.7236 9477798
-626.81512 876.13513 2529.1125 9346468
-608.85223 871.86798 2516.7947 9477800
-594.74866 873.05182 2520.2122 9346724
-580.21216 873.64484 2521.9238 9609384
-564.56671 872.55524 2518.7786 9543591
-551.51355 875.52167 2527.3418 8951455
-536.62085 875.65204 2527.718 9478055
-523.71887 879.13147 2537.762 9412006
-509.33035 880.24756 2540.9836 9477799
-494.03616 879.8186 2539.7456 9543334
-478.10541 878.19348 2535.0544 9806507
-462.75177 877.55737 2533.2183 9872299
-446.43442 874.98987 2525.8066 9675177
-432.4953 877.06726 2531.8032 9740457
0 0 0 0
0 0 0 0
0 0 0 0
0 0 0 0
0 0 0 0
0 0 0 0
0 0 0 0
0 0 0 0
0 0 0 0
0 0 0 0
0 0 0 0
0 0 0 0
0 0 0 0
0 0 0 0
0 0 0 0
0 0 0 0
0 0 0 0
0 0 0 0
0 0 0 0
0 0 0 0
0 0 0 0
-30.345961 259.61765 749.43036 7
-25.732815 257.8804 744.41553 11
-21.332567 257.99942 744.75903 14
-16.920626 258.00214 744.76691 14
-12.649921 260.92001 753.18982 14
-8.2058849 261.49457 754.84839 15
-3.741854 262.0451 756.43768 17
0.7387498 261.79553 755.71722 21
5.2133822 261.67471 755.36841 1320523
9.7589998 263.58276 760.87628 8887757
14.262444 263.50589 760.65442 8493260
18.805071 264.01605 762.12714 8164296
23.375336 264.6416 763.93286 7900872
27.910437 264.73065 764.18988 8032458
32.566521 265.78223 767.22546 7966153
37.149506 266.05273 768.00629 7965642
41.854149 267.04041 770.85736 7636160
46.465134 267.29492 771.59216 7766711
50.936039 266.77026 770.07758 29
55.784973 268.14896 774.05737 25
60.385151 268.21332 774.24316 22
65.226089 269.26245 777.27173 24
70.304802 271.09009 782.54749 9019344
75.115807 271.72321 784.37506 8229574
79.80912 271.88159 784.83234 7966149
84.979073 273.55692 789.6684 8164296
89.620338 273.44431 789.34332 8690642
94.456398 273.90775 790.68109 8492749
99.293839 274.33115 791.90338 8229579
104.21312 274.93231 793.63873 7965893
109.5326 276.49179 798.14044 6188445
113.84508 275.48541 795.23535 30
117.94521 274.06561 791.13684 22
122.62575 274.05145 791.09595 17
128.46611 276.53491 798.26495 13
133.46715 277.09952 799.89478 11
138.65509 278.00012 802.49451 10
143.37283 277.92953 802.29077 6
148.38399 278.414 803.68927 1
154.75572 281.34189 812.14099 5066049
0 0 0 0
0 0 0 0
519.32001 863.5661 2492.8301 6511936
543.01483 877.99976 2534.4951 5722422
563.37988 886.41772 2558.7949 6511940
562.58997 861.98151 2488.2556 5327925
573.36682 856.06281 2471.1704 4999735
592.75232 862.97205 2491.115 6314304
591.0954 839.65466 2423.8054 6775113
617.27734 856.0506 2471.1353 6906703
641.79144 869.42749 2509.75 5195832
668.60065 885.23743 2555.3879 5854019
683.31677 884.69037 2553.8086 6248777
696.11353 881.73572 2545.2798 7959396
706.44604 875.85132 2528.2932 6577741
722.4519 877.09894 2531.8948 7433049
737.98187 877.72986 2533.7161 9077617
746.04547 869.63232 2510.3413 8419942
757.63239 865.87817 2499.5042 8156514
761.06989 853.13263 2462.7119 8354150
769.98346 846.88959 2444.6904 6446409
804.97247 869.02753 2508.5952 6972753
825.35394 874.8786 2525.4856 7762012
846.21759 881.0235 2543.2239 7301718
858.93188 878.61725 2536.2778 7038547
852.59619 857.14221 2474.2864 7433305
873.56537 863.37964 2492.2915 7564381
887.56036 862.63129 2490.1316 7301719
895.92444 856.52417 2472.5022 7498585
923.4209 868.61041 2507.3911 9406837
933.18152 863.89484 2493.7788 8354404
939.32336 856.02838 2471.071 5590841
958.99451 860.54376 2484.1055 7235408
992.94678 877.54395 2533.1794 9011818
1007.3677 877.03357 2531.7061 5787705
1019.8388 874.8656 2525.4478 7301458
1029.4607 870.35138 2512.4167 6709322
1039.0637 865.9502 2499.7119 8814441
1034.0769 849.68439 2452.7581 8156768
1051.5178 852.04242 2459.5649 7564633
1065.6892 851.72302 2458.6431 7696219
1083.9363 854.62585 2467.0222 7038545
1139.0878 886.16132 2558.0549 8552808
1147.7498 881.1767 2543.666 9737085
1155.119 875.34174 2526.8223 7828832
1177.2631 880.70898 2542.3159 8749677
1188.6353 877.98413 2534.45 8749163
1203.4536 877.84094 2534.0366 8420457
1249.0016 899.84027 2597.5415 7433048
1265.5865 900.69189 2599.9998 5853760
1243.3707 874.24133 2523.6458 7564378
1253.8906 871.1629 2514.7595 5130037
1271.9751 873.35071 2521.075 8946290
1303.1058 884.34167 2552.802 7367258
1320.3042 885.73364 2556.8203 9143667
1343.9994 891.40308 2573.186 8748909
1369.6337 898.21692 2592.8555 6314567
1404.2076 910.67749 2628.825 8419688
1409.793 904.27075 2610.3308 6972500
1425.5995 904.48792 2610.9578 7696479
1424.2977 893.9624 2580.574 9472891
1434.8784 891.03925 2572.136 7236186
1432.8928 880.45618 2541.5859 8551531
1454.5125 884.44672 2553.1055 7696480
1470.4712 884.9483 2554.5535 7104598
1444.8002 860.64166 2484.3882 8091750
1480.9258 873.26508 2520.8279 9077875
1512.8306 883.17255 2549.4272 7893856
1532.8179 885.99554 2557.5764 7367512
1516.3292 867.88593 2505.2998 8749166
1545.8993 876.23395 2529.3979 8419689
1564.0653 878.01984 2534.5532 8551532
1560.5145 867.69641 2504.7529 8683118
1537.3451 846.76178 2444.3215 8485739
1590.8344 868.04706 2505.7649 9143668
1611.0608 870.95642 2514.1633 8288616
1661.9631 890.24438 2569.8413 9012851
1668.161 885.45319 2556.0107 9275767
1677.9749 882.65027 2547.9197 8814958
1706.6815 889.7467 2568.4045 7038546
1710.3771 883.79395 2551.2209 9604475
1732.3334 887.29858 2561.3376 7893602
1751.8779 889.51764 2567.7437 5065016
1758.0464 884.96533 2554.6025 6973783
1776.4766 886.61053 2559.3516 7631456
1795.7429 888.64142 2565.2141 8289130
1804.274 885.37042 2555.772 7894371
1813.8983 882.68604 2548.0227 9276022
1823.2202 879.89978 2539.98 8289128
1852.838 886.87396 2560.1121 7565405
1842.9536 874.98053 2525.7795 7828579
1854.4817 873.36267 2521.1094 7959908
1901.4148 888.31146 2564.2615 10658192
1925.2665 892.32538 2575.8484 10263434
1927.9105 886.52417 2559.1023 9736838
1958.8657 893.73035 2579.9041 7236702
1970.53 892.09167 2575.1738 8618100
1986.3092 892.32666 2575.8523 8552562
2014.0605 897.89557 2591.9277 7565666
2024.5718 895.75244 2585.7412 9210234
2059.113 904.19348 2610.1077 8486511
2044.6637 891.15643 2572.4741 9473406
2059.4087 890.94226 2571.856 9012340
2053.4363 881.83429 2545.5642 7959395
2074.157 884.23889 2552.5054 8814960
2094.9167 886.62506 2559.3936 7828323
2110.0203 886.60028 2559.322 8815476
2120.3386 884.57965 2553.489 8420464
2158.0679 893.94202 2580.5151 7499362
2176.1289 895.08276 2583.8081 6644053
2186.0947 892.90112 2577.5105 6512724
2195.9778 890.71619 2571.2034 7236703
2212.9126 891.40192 2573.1829 8157546
2231.4597 892.72333 2576.9973 8157544
2241.3586 890.59052 2570.8406 7828581
2238.5769 883.48187 2550.3203 7236444
2265.8826 888.26331 2564.1226 7763045
2290.5007 891.93457 2574.7205 8026216
2306.5061 892.22552 2575.5601 8092010
2309.5566 887.53424 2562.0181 7631203
2306.1975 880.45721 2541.5889 7368542
2317.325 878.96674 2537.2864 7302492
2318.5435 873.76117 2522.2598 7566176
2323.9939 870.20691 2511.9998 7302235
2381.3352 886.00452 2557.6023 7301978
2354.3521 870.42676 2512.6345 9078902
2402.5784 882.6759 2547.9937 7236698
2428.5452 886.64514 2559.4517 8223337
2491.1389 903.85449 2609.1292 8486252
0 0 0 0
0 0 0 0
0 0 0 0
0 0 0 0
0 0 0 0
0 0 0 0
0 0 0 0
0 0 0 0
0 0 0 0
0 0 0 0
0 0 0 0
-1742.3849 705.74866 2003.009 1711123
-1740.8683 709.96948 2014.9884 3684400
-1746.6321 717.23816 2035.6179 1315597
-1742.6521 720.57904 2045.0997 460546
-1702.7648 709.0152 2012.28 1841428
-1697.5583 711.83093 2020.2714 197120
-1697.8074 716.99042 2034.9147 196608
-1690.8999 719.17993 2041.1288 131072
-1687.1152 722.73865 2051.229 722949
-1691.4773 729.86444 2071.4529 65536
-1675.2877 728.16156 2066.6199 328705
-1662.0297 727.71716 2065.3586 262913
-1662.0282 733.11359 2080.6743 855049
-1671.4641 742.78461 2108.1221 3486767
-1663.863 744.97308 2114.3333 3158056
-1650.4293 744.56342 2113.1707 1842197
-1645.812 748.15546 2123.3652 0
-1656.6378 758.87689 2153.7942 525571
-1638.4207 756.35742 2146.6436 196865
-1617.6945 752.63123 2136.0681 1051914
-1592.2465 746.6322 2119.042 328706
-1567.2103 740.73248 2102.2979 3684144
-1544.9879 736.07874 2089.0898 5658448
-1532.7592 736.14948 2089.2908 3422515
-1532.6724 742.10046 2106.1804 395781
-1559.8766 761.47156 2161.1582 256
-1541.7875 758.86987 2153.7742 65793
-1530.8634 759.7807 2156.3594 0
-1494.5919 748.021 2122.9836 0
-1466.6472 740.2644 2100.9695 0
-1441.2146 733.65393 2082.208 0
-1417.9915 728.06366 2066.342 0
-1383.9644 716.78046 2034.3188 0
-1358.4482 709.74573 2014.3534 1710618
-1426.7169 752.0202 2134.334 394758
-1445.6969 768.83838 2182.0662 921102
-1457.9774 782.36499 2220.4565 1447446
-1442.4382 781.07367 2216.7915 1118478
-1473.723 805.34662 2285.6814 3092270
-1457.2861 803.74933 2281.1482 197377
-1449.1875 806.7641 2289.7043 394756
-1435.1698 806.50952 2288.9819 1184273
-1427.7648 810.00171 2298.8931 394756
-1408.2917 806.64868 2289.3767 0
-1396.0111 807.39014 2291.4812 0
-1387.97 810.62231 2300.6545 0
-1379.2123 813.49585 2308.8101 131329
-1381.0001 822.70935 2334.9592 789257
-1366.2393 822.15088 2333.3743 1776151
-1335.5543 811.90057 2304.2825 460546
-1316.322 808.4726 2294.5535 1447697
-1309.4185 812.62433 2306.3367 526597
-1298.0729 814.07782 2310.4619 1250064
-1287.8099 816.2486 2316.6228 855307
-1285.2706 823.41425 2336.9597 394756
-1278.7991 828.18927 2350.512 1184274
-1280.7095 838.55774 2379.939 7829365
-1278.6125 846.50391 2402.4912 7697777
-1267.5319 848.6142 2408.4807 4276543
-1253.261 848.61255 2408.4761 1644824
-1236.2604 846.74121 2403.1648 921100
-1225.3055 849.0152 2409.6189 3553338
-1206.9362 846.14502 2401.4727 2500653
-1179.0851 836.47955 2374.0408 1514015
-1168.2617 838.80658 2380.6453 3620419
-1164.7832 846.52844 2402.561 5792618
-1151.1647 846.98077 2403.8447 7963273
-1119.4834 833.98816 2366.97 7766152
-1124.7399 848.53259 2408.249 6451062
-1115.6252 852.46967 2419.4231 7438471
-1109.9604 859.1795 2438.4666 8228503
-1083.8408 850.02429 2412.4827 8294807
-1073.2885 852.99646 2420.9182 8426136
-1055.7804 850.44617 2413.6802 8359573
-1041.687 850.61432 2414.1572 7174785
-1028.7771 851.76685 2417.4282 5463911
-1013.5447 851.00195 2415.2573 7240321
-1003.738 854.83594 2426.1389 8950940
-989.91925 855.31482 2427.4978 8885404
-979.69635 858.96051 2437.845 8753818
-965.9577 859.58673 2439.6221 8753817
-955.11896 862.85168 2448.8887 8688023
-944.81561 866.70856 2459.835 9280160
-929.31512 865.84412 2457.3813 8227216
-919.25323 870.09979 2469.4597 9214110
-911.47211 876.68701 2488.155 9082268
-890.81366 870.90125 2471.7344 9279645
-877.96552 872.68549 2476.7981 9411232
-865.42365 874.83984 2482.9126 9411745
-848.758 872.82812 2477.2029 9542818
-834.00525 872.74719 2476.9734 9674404
-820.8067 874.31909 2481.4346 9608611
-806.76819 875.03711 2483.4724 9411233
-792.79327 875.85211 2485.7856 9411488
-776.86194 874.49579 2481.936 9345185
-763.79675 876.37561 2487.2712 9410978
-745.84247 872.60938 2476.582 9279393
-730.03687 871.25635 2472.7419 9476772
-717.96014 874.38916 2481.6333 9280420
-703.19415 874.30914 2481.4065 9345956
-689.66583 875.79761 2485.6309 9477542
-676.05988 877.25024 2489.7537 9477543
-661.0625 876.92194 2488.8218 9609385
-644.67822 874.6969 2482.5068 9675178
-629.729 874.36041 2481.552 9675178
-614.0379 872.95325 2477.5581 9609385
-598.04205 871.03333 2472.1091 9477801
-582.70941 870.00714 2469.1968 9740973
-567.13971 868.56519 2465.104 9675437
-552.98773 869.27533 2467.1196 9740973
-539.18921 870.59485 2470.8647 9609387
-528.35223 876.90344 2488.7693 9412263
-509.81693 870.43036 2470.3979 9609385
-495.24786 870.54663 2470.7278 9675178
-478.35965 866.46918 2459.1555 9938093
-463.80679 866.4986 2459.239 10003886
-445.08957 858.49756 2436.531 10003886
-431.93802 861.0553 2443.79 9872300
-422.82022 872.11035 2475.1658 9477799
-403.06229 861.22485 2444.2715 9806507
0 0 0 0
0 0 0 0
0 0 0 0
0 0 0 0
0 0 0 0
0 0 0 0
0 0 0 0
0 0 0 0
0 0 0 0
0 0 0 0
0 0 0 0
0 0 0 0
0 0 0 0
0 0 0 0
0 0 0 0
0 0 0 0
0 0 0 0
0 0 0 0
0 0 0 0
0 0 0 0
-30.057066 261.54361 742.29572 8
-25.732843 262.29077 744.41632 11
-21.320827 262.26712 744.34918 14
-16.909639 262.24393 744.28333 14
-12.674776 265.90347 754.66968 14
-8.2057123 265.96088 754.83252 16
-3.7368023 266.16663 755.4165 15
0.73805332 266.02151 755.0047 20
5.1944642 265.1839 752.62738 1781078
9.7761545 268.56161 762.21381 8690381
14.308662 268.88071 763.11945 8296139
18.807762 268.56952 762.23627 7901125
23.352854 268.90842 763.19812 7966665
27.945625 269.59735 765.15338 7966665
32.538944 270.09854 766.57581 7834825
37.195385 270.93674 768.95471 7505862
41.847935 271.56677 770.74286 7373502
46.482349 271.96677 771.87805 8030138
51.116226 272.29221 772.8017 33
55.191643 269.83383 765.82452 25
60.410568 272.91492 774.56903 22
65.223564 273.85657 777.24158 19
70.479279 276.41034 784.4895 8953295
75.119629 276.38406 784.41492 8295624
79.778702 276.42572 784.53314 8097989
84.88205 277.91742 788.76685 8361932
89.579552 277.99396 788.98401 8361933
94.468559 278.62775 790.78284 8229578
99.311668 279.07269 792.04565 7966408
104.52814 280.47931 796.03784 7045305
109.41082 280.90747 797.25299 6056084
114.26622 281.23309 798.17712 31
117.84208 278.50873 790.44507 22
122.45683 278.35413 790.00623 17
127.34461 278.80865 791.2962 14
133.5204 281.95074 800.21393 11
138.58611 282.61362 802.09528 11
143.33957 282.61691 802.10461 6
148.30571 283.02585 803.26526 0
154.98151 286.57065 813.32587 6117454
0 0 0 0
0 0 0 0
516.90948 874.25732 2481.2593 6446399
528.61389 869.3316 2467.2795 6446400
528.44904 845.67664 2400.1436 6840906
545.54156 850.15479 2412.853 6446147
554.56403 842.14911 2390.1318 7235923
570.03442 844.08997 2395.6401 5524793
597.0423 862.60577 2448.1907 2498062
609.98303 860.40131 2441.9341 3813920
626.026 862.57336 2448.0986 4603952
647.50458 871.96704 2474.759 4340523
672.28381 885.29102 2512.5742 4669745
684.82867 882.27606 2504.0176 6380364
695.40234 876.90332 2488.769 6972500
711.61969 878.7226 2493.9324 6249033
724.66083 876.62573 2487.981 7367511
738.20056 875.20343 2483.9443 8617576
751.62579 873.70361 2479.6877 9012332
751.38733 856.6828 2431.3806 6511941
765.76074 856.64868 2431.2834 8156765
789.6189 867.03021 2460.7478 7104077
808.11676 871.25635 2472.7419 6577477
820.64453 869.00995 2466.3665 5525046
828.14539 861.61206 2445.3704 5985597
849.18451 868.31201 2464.3855 2301453
856.22729 860.71558 2442.8259 7301465
876.41595 866.3667 2458.8647 3354403
891.46692 866.83752 2460.2009 7236181
896.00952 857.23932 2432.96 7103824
921.68805 867.8465 2463.0645 7630421
928.2027 860.35974 2441.8159 7564628
955.51935 872.0885 2475.1038 7301456
968.49896 870.57513 2470.8088 6774856
980.64789 868.37152 2464.5544 6643270
1001.0966 873.474 2479.0361 6511938
1017.0559 874.5686 2482.1428 5919803
1008.252 854.64148 2425.5869 9275505
1020.5992 852.95123 2420.7898 8288869
1024.5437 844.38263 2396.4709 8354407
1046.0664 850.33752 2413.3716 7631453
1069.071 857.32013 2433.1892 9276022
1103.2542 872.96204 2477.583 7959647
1141.8167 891.61298 2530.5168 8420455
1165.6765 898.44843 2549.9167 8946799
1180.0311 897.87646 2548.2935 8815471
1181.088 887.32867 2518.3574 8354405
1214.9592 901.38916 2558.2632 8617578
1202.0261 880.80664 2499.8472 6051652
1199.0421 867.92664 2463.292 8091236
1216.4583 869.94562 2469.022 8682862
1241.7784 877.50183 2490.4678 5261886
1263.0112 882.02631 2503.3086 7235674
1279.5823 883.22791 2506.719 5656898
1291.3938 881.15442 2500.8342 7235672
1309.9515 883.67889 2507.9988 6774863
1351.9774 901.80042 2559.4304 3748644
1380.6748 910.72845 2584.769 7039065
1385.4637 903.86273 2565.2834 7104089
1404.8846 906.58826 2573.0188 4867127
1404.6359 896.69849 2544.9502 9538428
1432.1215 904.53583 2567.1938 8024932
1430.8071 894.20953 2537.8865 7498843
1428.9856 883.7843 2508.2981 7762016
1422.7083 870.84619 2471.5779 6643535
0 0 0 0
1455.1586 872.745 2476.967 6775119
1481.6263 879.7478 2496.8418 8288615
1518.9769 893.01007 2534.4822 8683117
1519.8278 884.76447 2511.0801 8748911
1525.2257 879.30023 2495.5718 7827809
1541.7252 880.2796 2498.3513 8025445
1553.5347 878.58783 2493.5498 8354154
1529.1335 856.64227 2431.2654 8551532
1567.8904 870.15814 2469.6252 9867645
1579.0116 868.22852 2464.1487 7170389
1597.5 870.3479 2470.1638 6775375
1614.9668 871.87744 2474.5049 9538683
1652.3274 884.02295 2508.9753 8092008
1673.6263 887.43512 2518.6597 8026471
1689.6863 888.03363 2520.3584 10328199
1717.9436 894.97589 2540.0615 6512460
1749.804 903.65845 2564.7036 6775634
1763.0719 902.67249 2561.9053 6710097
1774.1615 900.59747 2556.0161 7302235
1788.3419 900.11322 2554.6418 7894371
1785.4961 891.1394 2529.1729 8486507
1797.5968 889.71259 2525.1235 9275768
1805.5039 886.25092 2515.2986 8618096
1835.0626 893.38684 2535.5513 8552302
1840.3635 888.69299 2522.2297 9341818
1858.5601 890.25183 2526.6538 8420718
1889.913 898.03723 2548.75 9012598
1905.7771 898.39783 2549.7732 9473150
1886.674 882.39844 2504.3647 9341566
1888.4501 876.33777 2487.1638 8552307
1932.2599 889.72577 2525.1606 9538945
1948.5045 890.31293 2526.8271 8683636
1972.0062 894.1817 2537.8074 7762534
2015.6615 907.06122 2574.3611 7828580
2008.1176 896.88037 2545.4666 9210234
2033.1727 901.30243 2558.0168 8091753
2027.4004 892.09424 2531.8828 9210234
2025.2667 884.61072 2510.6436 9012855
2028.0513 879.3689 2495.7666 8683634
2049.7683 882.35266 2504.2349 8881013
2091.0586 893.65863 2536.3228 7564895
2071.5996 879.02606 2494.7935 6841688
2109.748 888.87164 2522.7366 8551793
2141.5312 895.91583 2542.729 7762535
2159.0671 896.94275 2545.6436 8157292
2171.2407 895.74347 2542.2397 6775639
2192.2014 898.16064 2549.1001 7368031
2205.3799 897.37811 2546.8792 7894888
2187.3721 884.00269 2508.918 8092010
2224.4553 892.92206 2534.2322 7170908
2229.3123 888.8725 2522.739 7565666
2273.3538 900.39642 2555.4456 7236701
2285.8359 899.35114 2552.4788 7434079
2260.6917 883.61285 2507.8115 7170908
2284.8806 887.23657 2518.0962 7762788
2281.2642 880.0863 2497.8027 6841686
2290.532 877.96674 2491.7871 8486509
2314.6018 881.51172 2501.8481 6775891
2335.5466 883.82886 2508.4246 8157544
2336.2815 878.51721 2493.3494 6841684
2341.0481 874.77881 2482.7393 7302235
2376.7166 882.56207 2504.8293 6644305
2383.0955 879.43988 2495.968 8420717
0 0 0 0
0 0 0 0
0 0 0 0
0 0 0 0
0 0 0 0
0 0 0 0
0 0 0 0
0 0 0 0
0 0 0 0
0 0 0 0
0 0 0 0
-1749.1346 720.39478 2010.7683 986888
-1729.2877 717.10449 2001.5844 1644817
-1734.298 724.14758 2021.2432 3618351
-1741.6835 732.28741 2043.963 723462
-1698.6152 719.1795 2007.3761 1907736
-1702.9521 726.09918 2026.6904 65536
-1702.67 731.13373 2040.7429 65536
-1691.2006 731.40204 2041.4917 394242
-1685.5688 734.21698 2049.3489 197121
-1678.5334 736.45703 2055.6013 0
-1669.0586 737.65161 2058.9355 393729
-1654.3092 736.51556 2055.7646 262914
-1661.485 745.19635 2079.9944 65536
-1666.4993 753.03009 2101.8601 2631458
-1659.3788 755.4574 2108.635 657928
-1646.8254 755.42926 2108.5566 1578769
-1646.1123 760.87354 2123.7527 2368286
-1658.3307 772.42499 2155.9951 197377
-1627.3793 763.89178 2132.1772 723462
-1596.0931 755.06677 2107.5449 65536
-1574.0457 750.50763 2094.8193 2828321
-1552.8918 746.3056 2083.0906 5196613
-1540.8203 746.43604 2083.4546 3683631
-1520.9121 742.74146 2073.1423 1053195
-1569.5247 772.72144 2156.8225 256
-1577.3086 782.92743 2185.3096 1118222
-1553.5817 777.5321 2170.25 328964
-1527.6754 770.94666 2151.8689 1644823
-1538.567 782.97693 2185.4478 0
-1523.7545 782.01959 2182.7756 65792
-1455.8174 753.54791 2103.3054 131585
-1433.5846 748.44592 2089.0647 1579029
-1372.4746 722.78149 2017.4299 65793
-1356.131 720.44818 2010.9172 1973533
-1374.0969 736.46222 2055.6157 0
-1471.7279 795.84167 2221.356 131585
-1483.509 809.45038 2259.3403 131586
-1448.5736 797.58459 2226.2207 986893
-1458.1804 810.25104 2261.5754 3355441
-1428.4946 801.11676 2236.0796 855308
-1432.5719 810.92334 2263.4519 0
-1431.423 817.92902 2283.0061 460292
-1419.6498 818.93958 2285.8269 394758
-1404.941 818.25989 2283.9297 1184274
-1392.4033 818.84375 2285.5593 0
-1383.3182 821.48938 2292.9438 0
-1373.6165 823.81775 2299.4426 131586
-1361.4655 824.70905 2301.9304 0
-1348.7726 825.2868 2303.5432 855307
-1328.9037 821.44073 2292.8079 1908249
-1311.7065 819.18365 2286.5081 131584
-1304.7389 823.33472 2298.0945 2763558
-1293.7327 824.99792 2302.7368 65792
-1287.6938 829.89795 2316.4138 1052685
-1288.4766 839.34735 2342.7891 0
-1276.9034 840.86597 2347.0278 3092533
-1267.0837 843.58539 2354.6182 1316374
-1246.8918 839.383 2342.8884 5199194
-1245.0153 847.55426 2365.696 6252913
-1241.0299 854.45978 2384.9707 7240321
-1229.3711 856.18011 2389.7727 8161937
-1213.1586 854.7323 2385.7314 8623258
-1214.3197 865.63538 2416.1641 9018273
-1196.9639 863.44092 2410.0391 8886430
-1158.4489 845.74597 2360.6489 8820379
-1144.9436 846.10046 2361.6384 8820122
-1121.9584 839.37158 2342.8567 6714490
-1109.452 840.41174 2345.76 8819865
-1105.4143 847.97485 2366.8701 8754331
-1091.5741 848.11603 2367.2642 9083038
-1075.7329 846.68585 2363.2725 8886174
-1063.7598 848.30255 2367.7849 8886174
-1053.5846 851.41553 2376.4739 8622745
-1041.5453 853.086 2381.1365 7701900
-1035.9362 860.14136 2400.8293 8754845
-1012.7878 852.6275 2379.8567 8688283
-1002.86 856.18842 2389.7959 8819869
-993.46472 860.3125 2401.3071 7701643
-983.34521 863.92017 2411.377 9017503
-967.95135 862.93225 2408.6191 9082783
-953.91003 863.13837 2409.1946 8753818
-940.87671 864.27673 2412.3721 8951197
-933.53088 870.75537 2430.4551 8030096
-921.96014 873.43433 2437.9326 9214369
-911.02466 876.80994 2447.3547 9280162
-894.66748 874.99237 2442.2815 9148319
-879.82306 874.61877 2441.2388 9213853
-867.89307 877.17822 2448.3828 9411489
-851.61273 875.35321 2443.2888 9477025
-835.55261 873.69525 2438.6611 9542818
-820.76636 873.33459 2437.6543 9542819
-809.41919 876.68567 2447.0081 9542818
-792.71069 874.2464 2440.1995 9345439
-779.4389 875.57703 2443.9133 9411232
-762.92615 873.24835 2437.4136 9411491
-747.38751 871.96631 2433.8352 9542564
-733.95642 873.14105 2437.1143 9476515
-720.05634 873.79382 2438.9363 9345955
-705.79688 874.02838 2439.5908 9345956
-696.24292 880.22156 2456.8772 9345956
-677.26141 874.50598 2440.9238 9412006
-662.98041 874.74292 2441.5852 9477543
-647.63007 873.5481 2438.2502 9740714
-632.05103 871.98315 2433.8823 9675434
-617.04938 871.16052 2431.5859 9609385
-601.00549 868.79169 2424.9741 9675177
-584.56451 865.71887 2416.3972 9675180
-570.04828 865.41382 2415.5459 9806766
-554.46344 863.42902 2410.0059 9806766
-538.74231 861.12128 2403.5645 9806766
-525.02026 861.97046 2405.9348 9477801
-506.70041 855.10773 2386.7795 9477800
-498.17023 864.84631 2413.9619 8754077
-481.54175 860.6861 2402.3499 9478056
-466.85986 859.85767 2400.0374 9740714
-451.80579 858.27008 2395.6062 9411750
-428.24704 839.89966 2344.3308 9148832
-414.16269 839.5025 2343.2219 10003114
-396.90631 832.42499 2323.4673 8226956
0 0 0 0
0 0 0 0
0 0 0 0
0 0 0 0
0 0 0 0
0 0 0 0
0 0 0 0
0 0 0 0
0 0 0 0
0 0 0 0
0 0 0 0
0 0 0 0
0 0 0 0
0 0 0 0
0 0 0 0
0 0 0 0
0 0 0 0
0 0 0 0
0 0 0 0
0 0 0 0
0 0 0 0
-30.071636 266.07004 742.65558 8
-25.686844 266.22415 743.08569 11
-21.38068 267.42542 746.43872 14
-17.110973 269.82812 753.14514 14
-12.677675 270.43616 754.84229 14
-8.20086 270.27274 754.38611 15
-3.7353759 270.53857 755.12811 17
0.73771882 270.37177 754.66254 21
5.2936606 274.79187 767 3360112
9.7418661 272.11935 759.54041 8295880
14.25098 272.29947 760.04315 7769541
18.809887 273.11603 762.32233 7703493
23.358829 273.49976 763.39337 8032459
27.945288 274.12698 765.1441 7835338
32.573208 274.92914 767.38306 7702982
37.242477 275.841 769.92828 7374277
41.794498 275.78024 769.75873 7110843
46.511574 276.71341 772.36334 7174316
50.977833 276.12088 770.70947 31
55.127888 274.0538 764.93988 22
60.445251 277.66296 775.01373 21
65.213753 278.41925 777.12469 24
70.543274 281.31305 785.20184 8755915
75.215897 281.3913 785.42023 8295112
79.778069 281.07126 784.52698 8229577
84.69355 281.96268 787.01514 8229836
89.565933 282.62512 788.86414 7834822
94.538696 283.52286 791.36993 7900361
99.432999 284.1116 793.01324 7505093
104.33678 284.67313 794.58051 7373503
109.11568 284.86008 795.10236 5530518
114.44563 286.41061 799.4303 29
117.6932 282.83374 789.44641 22
123.41888 285.25784 796.21265 17
128.61563 286.32602 799.19409 17
133.62598 286.91809 800.84668 526358
139.37215 288.9953 806.64459 1119260
143.61148 287.91388 803.62616 5
148.1725 287.52609 802.54376 65792
155.17432 291.7515 814.33765 4671292
0 0 0 0
0 0 0 0
497.26987 855.18158 2386.9856 7301455
511.92279 856.03754 2389.3748 7235662
520.41077 846.81586 2363.635 8419681
538.05334 852.58337 2379.7334 7367762
546.51874 843.88593 2355.457 8025182
560.77881 844.34637 2356.7422 4932914
589.88116 866.58917 2418.8264 7630680
603.3385 865.33795 2415.334 4932912
615.96051 862.97443 2408.7371 1775370
628.9967 861.28522 2404.022 5920317
648.31146 868.07751 2422.9807 7630429
666.78381 873.47211 2438.0381 7433564
686.93158 880.78619 2458.4531 7893604
697.36053 875.59369 2443.96 7367257
709.69116 872.95166 2436.5854 8551786
727.07526 876.50696 2446.509 8157027
738.07758 872.38025 2434.9907 7564889
749.91492 869.37994 2426.616 8222562
764.75946 869.91309 2428.1042 6840909
777.60626 868.19611 2423.3118 6841165
800.10034 877.11731 2448.2126 5854013
806.565 868.46118 2424.0518 8485730
818.69299 866.0993 2417.4592 6446149
835.99689 869.20013 2426.1143 3748636
836.50287 855.02618 2386.5518 5787966
862.87714 867.32513 2420.8806 4736048
881.42017 871.47888 2432.4746 6973267
906.96356 882.3092 2462.7041 8289126
910.64459 871.86505 2433.5525 7367252
926.44427 873.16827 2437.1902 8880490
932.84912 865.71283 2416.3804 4801065
956.05164 873.83588 2439.0535 6643016
962.69482 866.80713 2419.4348 6445639
979.59924 869.08813 2425.8018 7696475
998.43579 872.99268 2436.7 6906961
1010.9086 871.30096 2431.978 8683371
1008.5041 857.01428 2392.1011 7564889
1021.7037 856.20001 2389.8281 7762524
1039.9302 859.56281 2399.2146 7893342
1059.1039 863.60748 2410.5042 7695963
1077.8485 867.19934 2420.5295 8617321
1104.3079 876.8222 2447.3892 8683371
1124.5103 881.29218 2459.8655 9012336
1152.6698 891.80402 2489.2063 8222820
1173.9095 896.76422 2503.051 9209461
1185.4821 894.30786 2496.1951 9341047
1199.5887 893.80023 2494.7781 8946291
1181.51 869.61578 2427.2744 8222311
1210.4294 880.18866 2456.7854 6380107
1211.5878 870.56299 2429.9182 7827809
1232.0559 874.87518 2441.9546 6051399
1265.4982 888.19324 2479.1279 7959396
1289.7648 894.83966 2497.6794 7169879
1309.9272 898.5202 2507.9524 9341306
1329.3828 901.63855 2516.6565 7696995
1353.8665 908.06042 2534.5811 6907222
1369.4744 908.45337 2535.678 7433567
1385.1775 908.90033 2536.9255 5196860
1398.4871 907.784 2533.8096 3617063
1396.3856 896.79407 2503.1345 7235673
1414.2589 898.72864 2508.5342 7103830
1377.8257 866.47113 2418.4971 7827809
1396.4265 869.13074 2425.9204 7564636
1408.1545 867.50201 2421.3745 8090981
1412.1843 861.21155 2403.8164 7433051
1437.8755 868.12482 2423.1128 8157028
1484.3635 887.3335 2476.728 8420201
1492.1002 883.22778 2465.2683 7696223
1490.6708 873.82855 2439.033 8485739
1515.8959 880.08453 2456.4949 7170133
1523.6161 876.15546 2445.5281 7696476
1525.0945 868.74493 2424.8435 8946283
1540.7797 869.48969 2426.9224 8288610
1552.519 868.01459 2422.8052 8025181
1585.3234 878.23608 2451.3354 7761757
1601.0876 878.91803 2453.2388 8485481
1636.8572 890.47064 2485.4846 9669755
1666.0533 898.27313 2507.2627 8682861
1677.1803 896.28168 2501.7041 8814703
1700.0347 900.53729 2513.5825 7301720
1727.5525 907.16779 2532.0896 8288871
1727.9882 899.58527 2510.9253 7894113
1748.3784 902.43182 2518.8706 8815215
1756.269 898.83313 2508.8259 7762783
1790.9656 908.8985 2536.9204 8552300
1779.7183 895.67444 2500.0093 8618092
1794.1584 895.48938 2499.4929 9999489
1823.6035 902.73547 2519.718 8025956
1827.9136 897.52222 2505.167 8749678
1842.9708 897.62744 2505.4607 8683887
1887.6168 912.02722 2545.6533 9144439
1878.1088 900.24091 2512.7551 10394252
1874.1489 891.27844 2487.7393 7959913
1865.5094 880.24774 2456.9502 6315086
1908.7509 893.67853 2494.4382 7959913
1925.3743 894.53601 2496.8318 7499619
1956.9528 902.2757 2518.4348 7828327
1965.0531 899.15527 2509.7251 7696741
1974.2661 896.5871 2502.5569 8486258
1987.8187 896.01318 2500.9551 9539201
1982.9388 887.20081 2476.3579 6249549
1991.9144 884.67157 2469.2981 7368030
1997.2526 880.57544 2457.865 8618097
2036.828 891.52429 2488.4255 9933956
2048.585 890.22717 2484.8049 9407613
2049.7556 884.38098 2468.4871 9144439
2079.6194 890.90967 2486.71 7302236
2097.2976 892.16309 2490.2085 7368030
2118.2146 894.76709 2497.4768 6052169
2124.7349 891.29565 2487.7874 6907479
2155.415 897.93689 2506.3245 7894375
2198.1663 909.48193 2538.5488 6644307
2173.8943 893.3277 2493.459 6381393
2149.9856 877.53979 2449.3918 8355183
2206.0581 894.38995 2496.4241 5855047
2216.2974 892.55743 2491.3093 1841428
2225.1357 890.18884 2484.698 5657673
2227.8787 885.42883 2471.4119 7894629
2231.6638 881.1424 2459.4475 7302494
2242.7349 879.76984 2455.6162 7697251
2257.4915 879.8512 2455.8435 8223337
2273.811 880.53693 2457.7576 6841940
2274.676 875.26703 2443.0481 8683888
2305.8857 881.66632 2460.9099 7368028
2300.1809 873.95947 2439.3984 6381132
2330.386 879.90771 2456.0012 8420716
2321.2402 871.01624 2431.1833 7894114
0 0 0 0
0 0 0 0
0 0 0 0
0 0 0 0
0 0 0 0
0 0 0 0
0 0 0 0
0 0 0 0
0 0 0 0
0 0 0 0
0 0 0 0
-1743.0908 729.77673 2003.8206 65792
-1686.2135 710.80481 1951.7274 0
-1725.724 732.48279 2011.2507 921096
-1712.9391 732.11102 2010.23 1776148
-1703.446 733.15082 2013.0851 0
-1712.9961 742.45917 2038.6439 65536
-1706.8063 745.02905 2045.7003 591365
-1695.9124 745.56769 2047.1794 131329
-1684.0549 745.68756 2047.5084 65536
-1680.6572 749.58209 2058.2021 0
-1672.3448 751.32562 2062.9895 262913
-1659.1387 750.88007 2061.7661 65536
-1655.9177 754.98041 2073.0249 328964
-1634.2174 750.65387 2061.145 1052427
-1654.0364 765.47693 2101.8462 65536
-1646.5746 767.80383 2108.2354 1184012
-1642.2615 771.64563 2118.7842 197376
-1629.1913 771.40039 2118.1108 65536
-1601.462 764.15662 2098.2207 65792
-1551.7382 746.22229 2048.9768 1315341
-1564.5063 758.29431 2082.124 986379
-1544.947 754.76495 2072.4331 2894629
-1516.6427 746.8725 2050.7622 5395021
-1502.9561 746.10931 2048.6665 723977
-1579.8 790.64148 2170.9429 256
-1597.0298 805.82465 2212.6328 1381652
-1573.3716 800.45721 2197.895 657930
-1578.187 809.60724 2223.019 3881785
-1566.1388 810.18738 2224.6121 1184529
-1520.2882 793.14246 2177.8101 131328
-1491.6765 784.8764 2155.1133 197378
-1459.916 774.79651 2127.4358 256
-1425.5062 763.12274 2095.3821 460807
-1360.5865 734.76746 2017.5242 3947837
-1474.2827 803.22369 2205.4912 1710618
-1476.2382 811.48077 2228.1636 65793
-1469.2402 814.9209 2237.6094 0
-1461.2917 817.89166 2245.7664 0
0 0 0 0
-1407.8411 802.58948 2203.7498 2960427
-1411.7811 812.36908 2230.6025 526087
-1417.6704 823.46576 2261.0718 0
-1429.2744 838.12518 2301.3237 1250067
-1407.4116 833.25317 2287.946 592137
-1395.2081 834.06073 2290.1633 394757
-1382.8615 834.79761 2292.1868 2
-1373.0778 837.11176 2298.541 1
-1365.0565 840.55743 2308.0022 0
-1342.0941 834.7796 2292.1372 263429
-1324.0715 831.98749 2284.4707 1316373
-1307.197 829.86664 2278.6472 2567725
-1299.5377 833.61267 2288.9333 6187113
-1285.3688 833.21808 2287.8496 3621700
-1284.4811 841.51617 2310.6345 5792614
-1278.934 846.90747 2325.438 6845301
-1263.7653 845.97546 2322.8789 7240831
-1252.3705 847.57703 2327.2766 7766918
-1235.0604 845.16638 2320.6575 7240317
-1219.0597 843.6076 2316.3772 8753298
-1217.7529 852.29742 2340.2378 9082522
-1205.4026 853.36914 2343.1804 9280159
-1191.8297 853.59009 2343.7874 9016988
-1178.3695 853.89807 2344.6328 9544102
-1161.0697 851.39777 2337.7676 9346466
-1149.0376 852.74652 2341.4709 9149089
-1131.6636 850.1153 2334.2461 9083551
-1120.9823 852.50885 2340.8184 9149087
-1099.6423 846.75482 2325.019 7438725
-1090.7975 850.59863 2335.5732 9016988
-1079.83 852.8645 2341.7949 9083294
-1063.9031 851.22144 2337.2834 8030608
-1054.6252 854.92511 2347.4529 8359573
-1044.2111 857.79425 2355.3311 8030609
-1034.9711 861.71881 2366.1069 9083297
-1018.7069 859.82233 2360.8997 8952225
-1008.1664 862.77136 2368.9971 9148835
-993.34558 862.08899 2367.1233 9214627
-977.20947 860.22913 2362.0166 9083297
-966.44336 863.11108 2369.9299 9083296
-953.05951 863.70575 2371.5627 9083296
-943.24744 867.60352 2382.2651 8490646
-935.87402 873.89679 2399.5454 8359060
-925.5213 877.55933 2409.6021 8951454
-908.93646 875.3349 2403.4941 8885404
-894.38147 875.0257 2402.645 8753818
-880.12805 875.0061 2402.5913 9213599
-864.31158 873.40656 2398.1992 9411233
-850.091 873.39301 2398.1621 9345697
-835.08624 872.55988 2395.8743 9345954
-820.09332 871.71027 2393.5415 9214369
-805.38318 871.13672 2391.9668 9411748
-793.2948 873.4292 2398.2615 9543334
-778.46832 872.73566 2396.3569 9411748
-765.61981 874.27502 2400.5837 9345955
-746.07916 868.08624 2383.5906 9345956
-731.66193 867.73474 2382.6255 9411749
-719.00378 869.49677 2387.4636 9543335
-704.25537 868.75104 2385.416 9346213
-693.76172 873.33081 2397.9912 9412009
-675.93304 868.67542 2385.2085 9346215
-662.83124 870.02563 2388.916 9280423
-649.72125 871.42395 2392.7554 9280422
-633.59766 868.75244 2385.4199 9609644
-621.28479 871.30328 2392.4241 9543594
-605.21527 868.58191 2384.9517 9543595
-589.52185 866.28296 2378.6392 9609387
-573.31018 863.09137 2369.8757 9675180
-557.57782 860.47906 2362.7029 9740973
-543.56152 860.44879 2362.6199 9675180
-526.80255 855.96063 2350.2961 9477801
-504.82654 842.52179 2313.396 9214115
-483.1001 828.76111 2275.6118 8819612
-471.1351 831.43695 2282.959 6713976
-457.19916 830.68982 2280.9077 8753045
-441.79779 827.15363 2271.198 7568515
-431.04953 832.38062 2285.5503 8818069
-408.41052 814.24036 2235.7407 8818066
0 0 0 0
0 0 0 0
0 0 0 0
0 0 0 0
0 0 0 0
0 0 0 0
0 0 0 0
0 0 0 0
0 0 0 0
0 0 0 0
0 0 0 0
0 0 0 0
0 0 0 0
0 0 0 0
0 0 0 0
0 0 0 0
0 0 0 0
0 0 0 0
0 0 0 0
0 0 0 0
0 0 0 0
0 0 0 0
0 0 0 0
-30.056559 270.33408 742.2832 7
-25.669565 270.44431 742.58582 11
-21.531441 273.76437 751.70209 14
-17.117369 274.39246 753.42664 14
-12.647753 274.25919 753.06073 13
-8.1860142 274.24454 753.02051 15
-3.7241638 274.18665 752.86151 16
0.73917669 275.38568 756.15387 274
5.2699394 278.08405 763.56299 4675464
9.7234631 276.0965 758.10565 8295114
14.245714 276.69986 759.76227 7835334
18.807167 277.59204 762.2121 7769285
23.411648 278.65094 765.11957 8097995
27.978842 278.99448 766.06287 7702982
32.588814 279.60916 767.75067 7636935
37.284496 280.7186 770.797 7571398
41.998909 281.71155 773.52344 7702210
46.582783 281.7197 773.54578 3686520
51.128555 281.5166 772.9881 29
55.188305 278.89081 765.7782 23
60.48156 282.42386 775.47925 21
65.251938 283.18884 777.57977 25
70.262344 284.82596 782.07495 5001356
75.232422 286.10712 785.59271 4804498
79.937965 286.29163 786.09937 4344703
84.86721 287.21283 788.62885 3620982
89.834557 288.16019 791.23004 2435940
94.923065 289.38293 794.58746 1711190
