# .PCD v0.7 - Point Cloud Data file format
VERSION 0.7
FIELDS x y z rgb
SIZE 4 4 4 4
TYPE F F F U
COUNT 1 1 1 1
WIDTH 1349
HEIGHT 1
VIEWPOINT 0 0 0 1 0 0 0
POINTS 1349
DATA ascii
2713.5474 896.75208 5315.876 7960961
2800.0579 914.7254 5422.4204 8223622
2869.6975 926.84216 5494.2476 6973546
2937.5625 938.12036 5561.104 6513257
2954.4734 933.05658 5531.0859 7433846
2997.5464 936.27545 5550.1675 7564402
3049.7168 942.23523 5585.4966 4730677
3084.489 942.74951 5588.5449 4862258
3054.655 923.71619 5475.7168 6506309
3144.8638 941.00189 5578.1851 8413277
3193.5808 945.64191 5605.6914 9137255
3218.6921 943.26874 5591.623 9071206
3238.2991 939.34723 5568.377 8807775
3293.3911 945.69434 5606.0015 9004641
3333.47 947.64673 5617.5752 8939103
3375.2517 950.03967 5631.7607 9004897
3458.3674 963.90643 5713.9614 8741982
3458.553 954.61426 5658.8784 8807776
3533.7168 965.99713 5726.355 8807518
3570.2578 966.70563 5730.5552 8675676
3612.0471 968.80841 5743.0205 8741213
3644.2605 968.32758 5740.1699 8478297
3687.4917 970.75623 5754.5664 8280921
3702.1311 965.68231 5724.4888 8017750
3802.4343 982.84265 5826.2139 7622991
3930.3865 1006.7766 5968.0923 7820114
3982.6296 1011.0635 5993.5054 7754320
4038.0227 1016.0674 6023.1675 7754577
4096.9751 1021.8715 6057.5737 7688784
4140.1152 1023.6649 6068.2051 8083542
4158.7183 1019.4129 6042.9995 7820114
4124.5024 1002.3965 5942.1274 7556942
4169.0337 1004.6445 5955.4536 7886163
4235.3501 1012.0605 5999.415 8280920
4285.4771 1015.5167 6019.9033 8412505
4220.5273 991.87146 5879.7363 9662572
4333.1973 1010.0143 5987.2856 10583672
4432.8916 1024.8627 6075.3057 10058094
4499.1665 1031.8076 6116.4751 10058095
4545.9233 1034.2013 6130.6641 10189680
4524.7715 1021.2302 6053.7725 9794665
4600.8955 1030.2455 6107.2139 8478549
4681.0112 1040.0067 6165.0781 8281171
4724.4082 1041.5221 6174.061 8346707
4905.4224 1073.1194 6361.3677 8412756
4873.9502 1058.1056 6272.3667 8544085
4856.939 1046.4346 6203.1821 8346705
4920.1621 1052.0957 6236.7402 7886666
4917.9478 1043.7838 6187.4683 7952461
4862.1616 1024.3091 6072.0239 6374201
4918.7109 1028.6123 6097.5327 4794917
4938.4707 1025.2152 6077.3955 4663589
4910.1689 1011.9622 5998.8325 4400161
5042.1099 1031.6875 6115.7627 8479829
5119.437 1040.0364 6165.2539 7887178
5237.0254 1056.3882 6262.1865 3679516
5393.1885 1080.2363 6403.5566 3019788
5458.1826 1085.6182 6435.459 5386534
5447.6904 1076.0154 6378.5347 8215377
5550.5176 1088.7733 6454.1626 8149584
5545.8511 1080.4152 6404.6167 8413013
5666.9263 1096.5007 6499.9702 10057838
5616.4521 1079.3998 6398.5972 10517878
5783.9238 1104.1333 6545.2158 11176065
5777.9355 1095.6451 6494.8979 9531499
5932.7222 1117.5543 6624.7744 8083542
6083.2607 1138.3809 6748.2319 8083800
6095.0195 1133.1345 6717.1323 8149338
6216.0308 1148.1359 6806.0591 8018266
6274.4258 1151.4528 6825.7212 7952730
6335.4536 1155.2072 6847.9775 8084828
6436.8496 1166.2278 6913.3071 9071723
6397.5024 1151.7706 6827.6055 9006701
6384.8809 1142.2762 6771.3237 8414821
6392.4829 1136.4958 6737.0581 8415080
6318.7959 1116.4248 6618.0786 8480363
0 0 0 0
0 0 0 0
0 0 0 0
0 0 0 0
0 0 0 0
0 0 0 0
0 0 0 0
0 0 0 0
0 0 0 0
0 0 0 0
-2473.8333 493.22955 2824.6299 9211005
-2448.8091 491.5654 2815.0994 7960682
-2415.9219 488.28912 2796.3369 7105373
-2431.6804 494.86746 2834.0098 11119004
-2415.5925 495.01123 2834.833 7895660
-2406.9651 496.69647 2844.4841 9277569
-2400.7366 498.90408 2857.1267 8422004
-2397.0605 501.67719 2873.0076 11251612
-2399.5417 505.78784 2896.5486 8621175
-2374.7366 504.1647 2887.2532 5065525
-2405.9004 514.48663 2946.3647 5719604
-2366.802 509.82446 2919.6655 3153168
-2337.2278 507.16034 2904.4087 2692365
-2336.0684 510.6683 2924.498 1049088
-2327.4141 512.578 2935.4343 1246464
-2278.2659 505.53104 2895.0779 984320
-2253.7017 503.87363 2885.5864 1445123
-2244.1052 505.56296 2895.2607 3616033
-2207.4099 501.12628 2869.8528 1840388
-2196.9797 502.62967 2878.4624 3024662
-2193.3098 505.71536 2896.1335 6446150
-2193.3901 509.72125 2919.0745 8025435
-2140.3186 501.34067 2871.0803 6182457
-2106.6279 497.40182 2848.5237 6775105
-2068.8423 492.42484 2820.0212 6709053
-2025.0762 485.93164 2782.8362 4735253
-2043.4963 494.3764 2831.1975 5656106
-2048.8821 499.78152 2862.1516 6182449
-2027.7112 498.74481 2856.2146 6314294
-2029.0132 503.26468 2882.0991 7367241
-2011.6858 503.20139 2881.7363 7959894
-1992.5098 502.67059 2878.6968 5065775
-1975.6959 502.73169 2879.0466 6776652
-1972.9027 506.39258 2900.012 5920834
-1940.5669 502.46844 2877.5391 5921092
-1929.7596 504.09842 2886.8738 5131579
-1899.6337 500.66599 2867.2168 4605235
-1920.1962 510.65149 2924.4019 4407858
-1911.941 513.08545 2938.3408 4012843
-1907.4825 516.59235 2958.4238 3486500
-1844.531 504.17599 2887.3179 2368022
-1867.927 515.35004 2951.3096 2697243
-1857.8444 517.41144 2963.1145 1446666
-1844.0043 518.45563 2969.0945 656896
-1811.3053 514.16663 2944.5322 459776
-1795.3151 514.58331 2946.9185 393984
-1730.2817 500.81317 2868.0596 5525829
-1742.0132 509.20905 2916.1411 5065530
-1745.767 515.41785 2951.6975 3288600
-1730.9666 516.21887 2956.2852 5327918
-1676.2722 505.01733 2892.136 7565136
-1686.5433 513.35895 2939.9067 5130539
-1655.1031 509.04581 2915.2063 5985848
-1646.4103 511.71176 2930.4736 6709319
-1639.5309 515.00415 2949.3286 9143659
-1612.6864 512.0285 2932.2878 6117436
-1602.598 514.36609 2945.6746 7499344
-1618.6293 525.23077 3007.8945 5525041
-1576.964 517.40686 2963.0884 7038800
-1555.8636 516.23016 2956.3499 5131832
-1608.9706 539.92877 3092.0671 4408626
-1581.9596 536.97809 3075.1689 5987146
-1591.1902 546.40369 3129.1477 6645334
-1572.079 546.20447 3128.0068 2500376
-1518.4875 533.87781 3057.4143 7895401
-1520.2477 540.94916 3097.9106 9014141
-1502.9253 541.32025 3100.0359 7698281
-1498.8781 546.54114 3129.9346 3816494
-1474.111 544.24298 3116.7737 7171940
-1477.3109 552.34296 3163.1606 5263689
-1470.6312 556.90973 3189.314 4474175
-1464.0043 561.61566 3216.2637 2434850
-1492.1421 579.95789 3321.3062 2829351
-1479.7469 582.82568 3337.7292 6250842
-1465.6646 585.09753 3350.7397 2961194
-1422.983 575.85822 3297.8281 5790292
-1423.7445 584.18707 3345.5256 7632494
-1408.5779 586.12329 3356.614 8158580
-1337.9003 564.68542 3233.8435 7039833
-1302.8585 557.88403 3194.8933 7039573
-1252.9098 544.40479 3117.7004 8223581
-1211.6887 534.37128 3060.2405 6709567
0 0 0 0
0 0 0 0
0 0 0 0
0 0 0 0
0 0 0 0
0 0 0 0
0 0 0 0
0 0 0 0
0 0 0 0
0 0 0 0
0 0 0 0
0 0 0 0
0 0 0 0
0 0 0 0
-359.86374 204.63078 1171.8807 6
-346.07782 200.66283 1149.157 12
-341.06192 201.7227 1155.2267 14
-336.56503 203.13922 1163.3389 16
-329.52802 203.0498 1162.8268 18
-323.44669 203.55801 1165.7372 22
-316.84744 203.75531 1166.8671 131360
-310.06799 203.84297 1167.3691 24
-303.35895 203.98198 1168.1652 24
-296.52338 204.04042 1168.4998 24
-289.80328 204.183 1169.3163 22
-282.62305 204.00041 1168.2706 25
-274.67044 203.23718 1163.8998 197689
-266.78696 202.48706 1159.6041 9808847
-261.772 203.93205 1167.8792 9283533
-255.40237 204.37148 1170.3958 8626123
-248.84009 204.67696 1172.1451 8691658
-242.18233 204.91922 1173.5325 8955087
-234.96074 204.68459 1172.1888 9612242
-226.60397 203.41666 1164.9277 2766173
-222.80154 206.28581 1181.3588 28
-215.64542 206.13528 1180.4967 23
-208.87207 206.35281 1181.7424 20
-202.24348 206.73337 1183.9219 19
-195.4153 206.92998 1185.0477 19
-188.45918 207.00069 1185.4526 18
-181.6067 207.1951 1186.566 15
-174.78212 207.43829 1187.9587 12
-170.54626 210.90317 1207.8015 4
-159.23192 205.53471 1177.0574 4736317
0 0 0 0
0 0 0 0
0 0 0 0
-379.84387 594.42303 3404.145 8486504
-359.57629 594.25671 3403.1926 8683626
-338.02448 591.82208 3389.25 9275763
-319.44116 594.60559 3405.1904 8683627
-302.31314 600.6557 3439.8386 9342070
-280.56128 597.72955 3423.0811 8947824
-256.20093 588.35718 3369.4072 10000773
-241.42729 601.27661 3443.3943 7434852
-222.54111 605.39325 3466.9695 6776927
-208.14262 623.79657 3572.3616 4145466
-183.02141 610.59283 3496.7463 7632241
-166.82172 627.58136 3594.0361 2698025
-137.38794 592.47028 3392.9619 3158324
-112.74902 569.54553 3261.6765 3487288
-99.354988 605.68927 3468.6648 7105899
-78.352142 602.20233 3448.6956 6316377
-58.744297 610.75897 3497.698 6316112
-38.778679 622.89502 3567.1987 5591610
-17.797394 628.24683 3597.8474 7038796
3.5089362 626.79413 3589.5283 6380866
25.04714 633.70184 3629.0872 8092002
46.323013 630.65686 3611.6492 8421481
67.811485 631.51587 3616.5686 9539707
88.855347 628.81598 3601.1069 7500898
110.69135 631.68213 3617.5208 7303014
133.40569 637.81769 3652.658 7895411
157.40442 647.52441 3708.2463 8684931
181.15083 653.94263 3745.0022 10461857
203.09213 653.15485 3740.4907 5197907
273.75766 793.80615 4545.9736 8816272
299.85916 791.6153 4533.4268 7040122
325.50336 788.6767 4516.5981 7171710
361.75635 809.9364 4638.3486 8816277
385.91406 803.02606 4598.7744 5592417
416.07965 808.70428 4631.292 7369078
438.64828 799.82764 4580.4575 6579563
478.06079 820.909 4701.1865 4013634
508.17542 824.58221 4722.2222 5855838
547.98901 842.78876 4826.4873 8685457
580.57611 848.62671 4859.9199 5724780
592.86237 825.64117 4728.2866 5527899
636.96399 847.03802 4850.8218 4869464
669.87634 852.35028 4881.2441 2697266
699.82629 853.60944 4888.4556 4539469
738.60895 865.11414 4954.3403 2697779
754.17731 849.58832 4865.4268 4539727
790.73279 857.97729 4913.4692 3816511
823.03119 861.31567 4932.5874 2105636
844.72736 853.70996 4889.0312 5066322
868.8587 848.9881 4861.9897 2368551
914.41461 864.83215 4952.7256 4737357
948.54602 869.22192 4977.8647 4869458
975.20197 866.70319 4963.4404 8027527
995.30048 858.67456 4917.4624 5461345
1033.0269 865.87823 4958.7163 4276813
1069.1552 871.38104 4990.2295 5000792
1098.5665 871.26056 4989.54 5198170
1154.8811 891.92401 5107.8755 2171691
1157.0437 870.77802 4986.7764 4868950
1190.2452 873.46301 5002.1528 4013640
1222.6298 875.43256 5013.4321 4408141
1253.5135 876.25964 5018.1685 4605778
1286.6638 878.59589 5031.5479 4473936
1309.8905 874.20361 5006.394 4934743
1329.2036 867.45178 4967.7275 5658208
1378.6721 880.24591 5040.9971 4605522
1405.5496 878.37946 5030.3086 3092282
1457.1709 891.73285 5106.7808 3947589
1483.2781 889.24701 5092.5444 5394780
1504.2981 883.87103 5061.7578 2631731
1541.2255 887.86926 5084.6548 3881796
1578.9241 892.14996 5109.1694 2894644
1584.0015 878.18427 5029.1904 3684160
1656.8745 901.62659 5163.4399 2960178
1675.8705 895.43219 5127.9658 3421244
1721.2191 903.28809 5172.9551 5988719
1748.4404 901.5224 5162.8433 5461859
1772.5503 898.2406 5144.0493 4342351
1833.3921 913.36926 5230.688 5263193
1844.4181 903.58984 5174.6831 3091765
1858.2686 895.49121 5128.3042 4276037
1911.215 906.19037 5189.5762 2368553
1944.6654 907.45325 5196.8081 6184294
1956.2794 898.64587 5146.3701 5000277
2009.3778 908.87274 5204.9375 4013127
2063.0435 919.04315 5263.1816 5197401
2091.3416 917.77844 5255.9385 3421503
2132.3752 922.05768 5280.4448 4276814
2161.0339 920.93939 5274.041 4671315
2186.8494 918.65875 5260.98 5000279
2247.2507 930.76697 5330.3213 2499887
2260.9819 923.47754 5288.5762 4407627
2309.0659 930.22675 5327.2275 6513258
2294.8838 912.04779 5223.1201 2170919
2311.7224 906.51685 5191.4458 8552843
2312.6345 894.96777 5125.3066 5855327
2379.3521 908.85413 5204.8311 4013123
2469.499 931.22021 5332.9175 3289143
2504.1594 932.36224 5339.457 1446938
2515.1299 924.76526 5295.9507 1841440
2534.4089 920.37286 5270.7964 262917
2545.2625 913.06482 5228.9443 1249557
2592.8467 918.9505 5262.6509 1446679
2662.5073 932.42767 5339.832 2762796
2690.9246 931.31427 5333.4556 2236453
2711.073 927.39807 5311.0288 1249302
2737.2424 925.60779 5300.7759 4802126
2807.5244 938.60571 5375.2124 3749440
2844.9253 940.44269 5385.7324 4209991
2921.1753 954.93872 5468.7485 4604750
2953.314 954.85486 5468.2681 3354426
2955.0374 945.04572 5412.0933 4407112
3033.3306 959.672 5495.855 4604490
2969.8547 929.61169 5323.7056 5327960
2987.144 925.19824 5298.4307 6643564
2987.5251 915.69403 5244.002 4867147
3058.0535 927.66486 5312.5562 4272954
3187.4326 957.06238 5480.9102 3811370
3214.2134 955.37128 5471.2256 2957087
3207.5701 943.87848 5405.4082 4665905
3205.6255 933.98175 5348.7319 8480355
3346.4514 965.46881 5529.0522 9071721
3365.3167 961.50037 5506.3257 9400684
3409.3101 964.71838 5524.7549 8873826
3516.7014 985.64423 5644.5928 8873313
3535.2671 981.51459 5620.9434 8872799
3586.3667 986.41034 5648.98 8675677
3619.9836 986.45154 5649.2158 8346199
3652.2302 986.12201 5647.3286 8740956
3722.6855 996.0213 5704.02 9003871
3783.6711 1003.2316 5745.3125 8872540
3791.2827 996.28748 5705.5449 8740955
3855.8687 1004.3058 5751.4644 9201503
3832.4739 989.46881 5666.4956 10978168
3859.2634 987.73358 5656.5581 11503998
3975.9026 1008.8262 5777.3516 10714741
3995.5151 1005.1498 5756.2974 9069663
3991.3403 995.60211 5701.6196 8149077
4142.5454 1024.6473 5867.9561 8412505
4177.1484 1024.608 5867.7314 8346712
4158.0918 1011.5161 5792.7559 8609371
4232.6216 1021.2182 5848.3179 9267555
4312.335 1032.0033 5910.082 9596005
4375.7798 1038.7527 5948.7349 9530470
4389.6509 1033.7202 5919.9146 7885901
4487.8145 1048.4601 6004.3271 4336164
4450.8813 1031.6547 5908.0854 6372664
4552.186 1046.9031 5995.4102 7491146
4611.5645 1052.3479 6026.5918 7557196
4659.9653 1055.2233 6043.0586 7886414
4695.0811 1055.0695 6042.1772 7952206
4770.3726 1063.8777 6092.6211 7886414
4771.2632 1056.0857 6047.9976 7491912
4806.5186 1055.9596 6047.2749 7821135
4832.5562 1053.8252 6035.0518 7690063
4855.9424 1051.1482 6019.7212 6966342
4811.2554 1033.882 5920.8413 5321774
4850.7095 1034.816 5926.1899 5124395
4925.6367 1043.2498 5974.4883 7163978
4962.1895 1043.4933 5975.8833 7361356
4928.9565 1029.1624 5893.8125 8085592
4807.9463 996.83392 5708.6738 8282711
4930.3149 1015.0646 5813.0776 8676958
4825.8604 986.66748 5650.4526 8479321
5166.8804 1049.1133 6008.0679 9005665
5170.2505 1042.6154 5970.855 9137252
5313.3345 1064.1884 6094.3999 9268066
5454.4038 1085.0696 6213.9824 9267812
5594.1685 1105.4128 6330.4844 9004640
5652.6055 1109.5217 6354.0156 9464934
5648.29 1101.3406 6307.1636 9004642
5875.2998 1138.0758 6517.5386 7952466
5909.7217 1137.2695 6512.9214 8347224
5961.8477 1139.8586 6527.7485 8544348
6064.2832 1151.9712 6597.1147 8610144
6127.791 1156.5813 6623.5161 8215898
6120.6943 1147.8912 6573.75 8018263
6210.604 1157.389 6628.1421 8216411
6194.646 1147.1622 6569.5747 8282205
6208.2549 1142.5043 6542.8994 8282207
6254.7383 1143.9164 6550.9868 8216671
0 0 0 0
0 0 0 0
0 0 0 0
0 0 0 0
0 0 0 0
0 0 0 0
0 0 0 0
0 0 0 0
0 0 0 0
0 0 0 0
-2428.8396 500.6882 2773.2561 7895401
-2429.5288 504.24112 2792.9353 7369060
-2407.8926 503.17734 2787.0432 5855564
-2391.7041 503.2453 2787.4194 6579288
-2387.605 505.87552 2801.988 8553334
-2391.4358 510.23453 2826.1321 8948086
-2398.6418 515.38025 2854.6335 9738373
-2377.9736 514.56738 2850.1311 11448989
-2339.9231 509.95456 2824.5813 8751223
-2313.8208 507.89804 2813.1904 8549215
-2266.1511 501.04318 2775.2222 1642754
-2295.2061 511.17578 2831.3457 4339238
-2303.8843 516.88599 2862.9739 2431762
-2297.3369 519.23962 2876.0103 393216
-2298.2891 523.33612 2898.7002 919296
-2251.9507 516.6449 2861.6382 655616
-2220.9773 513.40393 2843.687 2234638
-2211.0522 515.01611 2852.6167 1050112
-2188.2061 513.62036 2844.8857 1445896
-2160.0701 510.9516 2830.1038 4866604
-2159.4697 514.80542 2851.4497 6971460
-2156.3196 518.10742 2869.739 6248245
-2113.353 511.819 2834.9082 5261093
-2076.3831 506.89374 2807.6277 5063201
-2027.199 498.88309 2763.2576 6511421
-2034.0951 504.65536 2795.2297 7432774
-2042.5901 510.92239 2829.9421 4998949
-2032.2096 512.53265 2838.8611 5525035
-2013.5378 512.06122 2836.25 6775358
-1996.2739 511.94293 2835.5947 5590832
-1984.2853 513.18695 2842.4851 5262642
-1980.1812 516.50885 2860.8848 7828833
-1958.7219 515.32208 2854.3115 8552557
-1940.9033 515.08087 2852.9753 6645075
-1944.1711 520.48047 2882.8833 6974298
-1906.5337 514.92798 2852.1284 4342575
-1893.0249 515.85114 2857.2417 3420963
-1888.0289 519.13159 2875.4121 3881510
-1883.6255 522.63629 2894.8242 5131579
-1878.5409 526.01465 2913.5364 3683878
-1874.8423 529.84741 2934.7654 2433814
-1856.7266 529.63928 2933.6128 1775883
-1847.3055 531.93085 2946.3057 2565147
-1812.2634 526.81818 2917.9873 591618
-1803.4263 529.29822 2931.7236 2038544
-1758.6534 521.17682 2886.7402 4341808
-1739.501 520.56311 2883.3408 3551518
-1739.1517 525.62012 2911.3511 3156759
-1745.0212 532.67664 2950.4365 3419673
-1649.3009 508.55145 2816.8098 5919805
-1645.6255 512.60468 2839.26 6644038
-1678.1946 528.14813 2925.3535 7762260
-1650.3438 524.80267 2906.8235 5590831
-1649.059 529.92365 2935.188 7630670
-1615.1816 524.5686 2905.5269 7960150
-1616.3361 530.59814 2938.9238 9407597
-1602.2938 531.716 2945.1155 4408105
-1583.6851 531.32642 2942.9575 6249029
-1558.4067 528.66559 2928.2197 7235925
-1549.0281 531.39929 2943.3613 7565405
-1571.4017 545.21204 3019.8687 6907989
-1571.2637 551.44232 3054.3772 6052684
-1557.962 553.1441 3063.8035 5197886
-1529.3607 549.38989 3043.0093 7171676
-1527.1038 555.12268 3074.7625 3947824
-1533.2075 564.06982 3124.3198 1645073
-1517.1321 564.97614 3129.3398 4802877
-1496.8683 564.32581 3125.7378 7698284
-1473.3107 562.40192 3115.0815 6645599
-1468.3284 567.60986 3143.9275 6053204
-1470.4774 575.74377 3188.9805 1710608
-1440.3925 571.30438 3164.3911 2039574
-1430.0471 574.68048 3183.0911 3881781
-1432.0146 583.16101 3230.0637 1052167
-1416.9398 584.83716 3239.3477 1183755
-1392.7607 582.74982 3227.7864 4012596
-1363.3876 578.401 3203.6985 3551784
-1334.5836 574.17419 3180.2869 8551791
-1318.6903 575.46051 3187.4114 6117691
-1290.9125 571.52246 3165.5991 6643774
-1236.1095 555.32721 3075.8953 7169859
0 0 0 0
0 0 0 0
0 0 0 0
0 0 0 0
0 0 0 0
0 0 0 0
0 0 0 0
0 0 0 0
0 0 0 0
0 0 0 0
0 0 0 0
0 0 0 0
0 0 0 0
0 0 0 0
0 0 0 0
-362.41202 213.07146 1180.1791 6
-351.24933 210.57097 1166.3291 12
-344.00296 210.36502 1165.1884 13
-336.92059 210.25299 1164.5679 17
-329.74341 210.07587 1163.5868 18
-323.42834 210.45216 1165.671 15
-316.2049 210.24091 1164.5009 10071761
-308.81207 209.90508 1162.6407 9942735
-303.25058 210.82713 1167.7479 9481161
-295.98294 210.57838 1166.3701 2042443
-289.78333 211.09573 1169.2357 28
-282.3121 210.68945 1166.9854 22
-275.80457 211.00002 1168.7056 1251404
-267.31216 209.76898 1161.887 9480143
-261.39169 210.54449 1166.1825 9085646
-255.13898 211.08727 1169.1887 8494282
-247.84978 210.77884 1167.4803 5399717
-241.42786 211.21144 1169.8766 6255286
-234.12068 210.87225 1167.9979 7702212
-226.66943 210.37874 1165.2643 2304850
-222.95393 213.43034 1182.1667 19
-216.22546 213.70209 1183.672 14
-209.02412 213.50902 1182.6027 16
-202.4422 213.95723 1185.0852 20
-195.61566 214.16983 1186.2627 18
-188.64659 214.2364 1186.6315 15
-181.79813 214.45039 1187.8168 13
-175.01907 214.76678 1189.5692 9
-167.94092 214.72731 1189.3506 3
-158.89984 212.0647 1174.6027 8224110
0 0 0 0
0 0 0 0
-393.27753 604.24475 3346.8442 8750186
-379.83716 614.5791 3404.085 6776139
-358.77625 613.0509 3395.6204 8420965
-332.19949 601.35626 3330.8452 6973519
-316.31235 608.75714 3371.8379 10131587
-301.83176 620.04529 3434.3616 7303005
-276.29211 608.6048 3370.9939 9869702
-258.93427 614.80829 3405.3545 10396049
-236.89847 610.01434 3378.8013 6580056
-219.04424 616.09692 3412.4919 7171941
-203.871 631.72382 3499.0476 6448735
-179.47882 619.08862 3429.0627 5329742
-159.85086 621.75922 3443.8547 7106155
-135.70737 605.07782 3351.4585 5395537
-118.52309 619.02545 3428.7129 6448222
-98.057259 618.05878 3423.3586 4276538
-78.113686 620.73828 3438.1997 6447444
-58.922527 633.39612 3508.3103 5460028
-38.472984 638.95105 3539.0784 7235919
-17.348782 633.18799 3507.1577 7104328
3.4304163 633.55768 3509.2051 7301962
24.331451 636.47986 3525.3909 6775878
45.63998 642.43854 3558.3953 7039564
67.687637 651.74878 3609.9639 6974034
88.603836 648.30951 3590.9138 6250832
109.39803 645.48206 3575.2529 9080191
131.01805 647.65424 3587.2844 7237734
154.55969 657.39331 3641.2283 7435373
181.20735 676.33978 3746.1704 8093049
204.57707 680.25208 3767.8401 8158587
258.18469 774.04913 4287.3716 5000272
291.2536 794.98328 4403.3237 5066324
324.74329 813.52991 4506.0513 3816002
357.60153 827.7973 4585.0767 3158329
387.28302 833.21558 4615.0879 7566204
416.38351 836.75171 4634.6743 7566203
440.492 830.43927 4599.71 6842735
473.92426 841.41583 4660.5083 7369078
500.7475 840.09613 4653.1982 6776941
526.88239 837.81946 4640.5884 6645357
563.44159 851.52271 4716.4893 6250343
586.60876 844.64819 4678.4121 7829630
617.63385 849.19806 4703.6128 5723740
640.51917 842.64648 4667.3247 6776683
670.97485 846.18445 4686.9214 3420729
700.04791 847.76685 4695.686 3289655
725.05872 844.49695 4677.5742 1315863
756.57056 848.76086 4701.1914 855056
773.98578 837.46918 4638.6484 657675
807.70587 843.98914 4674.7617 328964
834.16687 842.74323 4667.8604 1381655
864.00269 844.87726 4679.6807 1776672
894.99579 847.97516 4696.8394 5790046
955.52301 878.02478 4863.2812 3487038
972.15472 867.16077 4803.1064 6645103
1011.0145 876.17816 4853.0527 4803412
1052.4844 886.8963 4912.4194 4737877
1096.9454 899.49036 4982.1768 4277582
1115.0706 890.39508 4931.7988 7304321
1129.3318 878.75763 4867.3403 5462373
1173.979 890.75488 4933.792 6185582
1201.6395 889.59387 4927.3608 4211278
1230.9741 889.69781 4927.9365 5658209
1256.0133 886.76422 4911.688 5000277
1282.4803 884.94891 4901.6328 4144969
1325.0946 894.10919 4952.3711 2763315
1346.3651 888.7829 4922.8691 2171179
1360.8668 879.3089 4870.394 4473936
1410.0956 892.20099 4941.8013 5526625
1431.594 887.37976 4915.0972 3092282
1471.1254 893.70575 4950.1362 1118491
1478.4121 880.57886 4877.4277 1578784
1524.1213 890.40173 4931.8359 2368301
1549.3431 888.11151 4919.1504 3947077
1570.8179 883.79742 4895.2554 3815492
1639.1567 905.52936 5015.626 4342092
1668.7656 905.4726 5015.3115 3091767
1711.7683 912.55798 5054.5566 2762805
1751.198 917.52771 5082.0835 5263196
1753.6042 903.25928 5003.0522 5394526
1788.8157 906.08173 5018.6855 4605008
1805.4023 899.53229 4982.4087 3486526
1848.5737 906.22601 5019.4849 1973539
1882.5535 908.27319 5030.8237 6053479
1959.441 930.63568 5154.687 4539727
1983.4883 927.60052 5137.8755 4671057
2003.0574 922.59436 5110.147 5131351
2024.678 918.66809 5088.3999 4210249
2091.1848 934.9248 5178.4443 4013124
2076.0837 914.75378 5066.7188 4933971
2149.2295 933.48633 5170.4766 3026228
2152.7939 921.89551 5106.2764 3880768
2208.0039 932.43579 5164.6577 2499625
2246.2039 935.60278 5182.1992 1512982
2196.8494 902.70734 4999.9951 460295
2203.1638 893.25781 4947.6553 1710108
2261.6824 904.94434 5012.3857 6118755
2363.781 933.53931 5170.77 2433836
2428.2903 946.74707 5243.9263 3158074
2423.6418 932.99854 5167.7744 3552576
2478.7612 942.3139 5219.3716 4802898
2504.9177 940.52509 5209.4634 6644844
2523.866 936.10626 5184.9878 1513243
2558.8376 937.66522 5193.623 789004
2597.4609 940.50958 5209.3774 1578268
2640.6821 944.93225 5233.874 1249560
2673.9646 945.7373 5238.333 3486780
2700.6523 944.21802 5229.918 4144967
2752.229 951.3363 5269.3457 3486523
2796.0916 955.65839 5293.2852 5131349
2805.1599 948.12445 5251.5557 3946819
2869.8066 959.33484 5313.6484 2170406
2893.7656 956.84827 5299.8755 2959408
2923.261 956.22595 5296.4287 525576
2890.7476 935.54865 5181.8994 197125
3085.7717 988.17133 5473.3706 4999762
3018.2559 956.49945 5297.9438 6316135
3131.6282 982.21393 5440.373 4013383
3159.2358 980.77887 5432.4248 5921892
3173.0625 975.13776 5401.1787 8553358
3156.5691 960.38416 5319.4609 7895169
3268.8188 984.70538 5454.1729 5590614
3330.9004 993.58551 5503.3589 3681847
3298.5803 974.40704 5397.1313 2825510
3320.3936 971.43433 5380.6665 2757145
3366.5068 975.56 5403.5181 5453115
3454.2102 991.54657 5492.0654 7490898
3447.6768 980.4361 5430.5259 8411995
3509.4553 988.77771 5476.7295 8609628
3518.197 982.16046 5440.0771 9398630
3649.4375 1009.5505 5591.7871 9530470
3705.1643 1015.7461 5626.104 9398883
3722.01 1011.2672 5601.2959 9727334
3757.0251 1011.7604 5604.0278 9990759
3812.5 1017.7065 5636.9629 10254185
3792.4326 1003.5594 5558.6035 11899262
3812.8376 1000.2735 5540.4028 12556933
3889.5901 1011.6998 5603.6919 12293762
3874.5037 999.24719 5534.7188 10122602
4009.6145 1025.4149 5679.6587 8609109
4076.1475 1033.755 5725.8535 8477271
4114.0479 1034.7559 5731.397 8148563
4156.0796 1036.7708 5742.5576 8609111
4207.7798 1041.1455 5766.7886 8543575
4234.9102 1039.4192 5757.2271 8609368
4291.4272 1044.8756 5787.4492 8544342
4391.4092 1060.7443 5875.3442 8478549
4414.2119 1057.8676 5859.4106 7952205
4419.3853 1050.8438 5820.5059 7886413
4452.2573 1050.4639 5818.4023 7952206
4542.1382 1063.4373 5890.2598 7820620
4540.1382 1054.8649 5842.7788 7688521
4652.436 1072.7776 5941.9951 7754571
4640.665 1062.0278 5882.4531 7886414
4607.4141 1046.559 5796.7734 8018001
4742.0449 1069.1709 5922.0181 7820621
4807.6436 1076.0006 5959.8472 7624270
4809.4614 1068.5599 5918.6338 7689293
4809.5688 1060.8496 5875.9277 7952461
4870.4966 1066.569 5907.6064 13346459
4683.3613 1018.272 5640.0947 12755092
4676.3008 1009.5345 5591.6987 10123116
4730.063 1013.958 5616.2002 7756623
4786.1675 1018.8184 5643.1211 8808800
4824.8379 1019.9259 5649.2559 8676958
4812.7705 1010.3666 5596.3076 5650482
4874.4873 1016.322 5629.2935 8281431
5090.0991 1054.0651 5838.3486 8149846
5226.2051 1074.9458 5954.0044 8741214
5287.4673 1080.2555 5983.4146 8939105
5426.2412 1101.2252 6099.563 9004899
5549.3081 1118.7507 6196.6353 9268071
5621.5596 1125.8689 6236.0615 9399402
5635.5811 1121.308 6210.7998 9662573
5716.6401 1130.0582 6259.2661 9728110
5816.395 1142.3676 6327.4463 9728367
5782.1372 1128.3671 6249.8994 9859952
5823.3701 1129.1829 6254.418 10254709
5896.8472 1136.2012 6293.291 10123636
5894.9326 1128.696 6251.7217 9663085
5931.0093 1128.5134 6250.71 9926002
5915.1992 1118.5216 6195.3662 9859954
0 0 0 0
0 0 0 0
0 0 0 0
0 0 0 0
0 0 0 0
0 0 0 0
0 0 0 0
0 0 0 0
0 0 0 0
0 0 0 0
-2339.8147 498.16351 2671.6069 9342848
-2397.9895 514.02643 2756.6782 8817018
-2375.9077 512.78522 2750.022 8290418
-2395.053 520.48639 2791.3225 6448214
-2365.2249 517.57776 2775.7239 6579542
-2370.7097 522.41003 2801.6389 5462088
-2367.9502 525.48083 2818.1074 9803910
-2340.4316 523.06195 2805.135 10790290
-2327.0771 523.79657 2809.0747 7102799
-2273.5876 515.44287 2764.2744 2892559
-2252.26 514.31219 2758.2107 6249551
-2297.3835 528.45013 2834.0315 6710618
-2306.9827 534.56488 2866.8242 3619115
-2291.3738 534.8858 2868.5454 4539707
-2263.4155 532.30719 2854.7166 3224104
-2219.7993 525.97961 2820.7822 1578768
-2201.7036 525.64905 2819.0095 920068
-2175.2666 523.3067 2806.4478 7564875
-2148.7627 520.91205 2793.6052 5985841
-2111.1853 515.77496 2766.0557 6577207
-2127.0923 523.7262 2808.6975 6314036
-2102.1018 521.65381 2797.5833 5721902
-2102.1409 525.80914 2819.8679 4669476
-2068.7766 521.60889 2797.3425 4076821
-2019.736 513.35632 2753.0847 7301191
-2037.6626 522.12915 2800.1323 6643266
-2036.6146 526.14386 2821.6631 4866855
-2036.3763 530.43604 2844.6816 3814422
-2012.8877 528.69312 2835.3342 5590582
-1986.903 526.25958 2822.2837 6380611
-1975.8142 527.76373 2830.3503 7236180
-1989.8352 536.05817 2874.8325 5591867
-1967.2568 534.55084 2866.749 5395002
-1965.4753 538.71747 2889.0942 4934198
-1943.6185 537.40656 2882.064 6645331
-1917.5802 534.90601 2868.6536 5329472
-1890.7523 532.13849 2853.8118 5395780
-1908.2659 541.91321 2906.2324 2236691
-1905.8757 546.16217 2929.0193 3684392
-1885.7086 545.34802 2924.6533 2960158
-1888.8224 551.31409 2956.6489 3354916
-1858.484 547.5365 2936.3896 1709836
-1839.6061 547.0957 2934.0259 2104851
-1774.6703 532.8183 2857.4575 1117701
-1762.7729 534.34332 2865.636 3157798
-1734.8896 531.00507 2847.7332 4802359
-1738.3877 537.3006 2881.4956 2696213
-1719.2968 536.66998 2878.1135 7301717
-1756.803 553.87024 2970.3569 5722424
-1621.217 516.29529 2768.8462 6511941
-1648.4406 530.33075 2844.1169 6314817
-1654.0647 537.6355 2883.2915 7170123
-1661.2915 545.61896 2926.1064 7104328
-1631.4958 541.48328 2903.927 2431747
-1606.5111 538.87329 2889.9297 8683615
-1604.9329 544.14276 2918.1897 7762516
-1600.8456 548.66718 2942.4536 7828569
-1576.7682 546.36438 2930.104 10657670
-1557.1097 545.55859 2925.7827 8026466
-1545.0707 547.43427 2935.8418 6250057
-1550.9382 555.76941 2980.5425 6974037
-1546.7393 560.64771 3006.7041 4803384
-1541.3281 565.19513 3031.0918 6119505
-1521.5585 564.52264 3027.4849 5001024
-1516.615 569.40033 3053.6438 2500637
-1494.7395 567.96216 3045.9309 5263427
-1513.2543 582.02356 3121.3411 1841935
-1495.8949 582.46442 3123.7053 1250059
-1483.3516 584.815 3136.3113 4342326
-1455.0569 580.93652 3115.5112 6381910
-1439.9336 582.28455 3122.7407 2960678
-1455.2106 596.12109 3196.9448 1710863
-1425.1956 591.52423 3172.2922 1973783
-1403.2023 590.17834 3165.0745 3288614
-1392.9475 593.80005 3184.4973 2697241
-1374.7736 594.099 3186.1003 3025440
-1346.9753 590.18927 3165.1331 6775630
-1318.8433 586.02087 3142.7781 6249279
-1294.4863 583.43451 3128.9077 5920046
-1252.0625 572.51184 3070.3306 5721896
-1232.505 571.87701 3066.9258 6840630
0 0 0 0
0 0 0 0
-1135.761 551.37262 2956.9629 6314296
0 0 0 0
0 0 0 0
0 0 0 0
0 0 0 0
0 0 0 0
0 0 0 0
0 0 0 0
0 0 0 0
0 0 0 0
0 0 0 0
0 0 0 0
0 0 0 0
-360.92743 219.16165 1175.3446 264
-351.2749 217.4964 1166.4139 14
-344.02075 217.2791 1165.2487 16
-336.73154 217.03032 1163.9144 19
-330.40662 217.40561 1165.9271 19
-322.85495 216.97252 1163.6045 531
-313.21457 215.08618 1153.4882 10468045
-309.87131 217.53644 1166.6287 10139342
-303.59631 217.99338 1169.0792 9350345
-298.53024 219.35999 1176.4082 2700904
-289.34232 217.69077 1167.4563 26
-282.05945 217.40819 1165.9409 22
-275.26929 217.50075 1166.4373 2172759
-268.38138 217.51884 1166.5343 9216716
-260.85071 217.00317 1163.7689 8822985
-253.75328 216.82971 1162.8386 7704005
-248.39714 218.17601 1170.0587 25
-244.51802 220.93419 1184.8505 30
-236.08058 219.61496 1177.7756 21
-228.8714 219.39278 1176.5841 9152470
-223.28999 220.76604 1183.9487 9153742
-217.1897 221.69868 1188.9504 8099781
-209.99568 221.54001 1188.0995 1912657
-202.31558 220.83977 1184.3441 23
-195.9006 221.51973 1187.9907 19
-188.91315 221.57893 1188.3082 17
-181.96931 221.69586 1188.9353 13
-175.08984 221.90376 1190.0503 10
-165.97032 219.17104 1175.3949 2
0 0 0 0
0 0 0 0
0 0 0 0
-393.81918 624.9317 3351.4536 7434579
-373.10901 623.50226 3343.7876 9539702
-354.04407 624.81604 3350.833 6315846
-335.36795 627.01276 3362.614 8420451
-316.72214 629.54718 3376.2061 5526077
-296.94135 630.01532 3378.7166 8289384
-275.3013 626.32117 3358.905 10066311
-254.43672 623.95306 3346.2053 10329744
-237.83492 632.52161 3392.1575 9474693
-214.75824 623.86267 3345.7205 8487290
-199.2778 637.75317 3420.2141 5066825
-175.06474 623.6778 3344.7288 5198159
-154.13304 619.19141 3320.6689 5263951
-139.46758 642.24835 3444.3213 7369325
-120.07215 647.69385 3473.5249 4605759
-100.18597 652.19714 3497.6758 5000252
-78.363243 643.15509 3449.1838 4934711
-58.630981 650.94318 3490.9509 7828827
-37.764748 647.76917 3473.9287 5393451
-17.28997 651.74835 3495.2688 6116915
3.4479108 657.68408 3527.1016 9077862
23.790974 642.76288 3447.0808 5722931
44.613525 648.59662 3478.3662 7039051
66.436607 660.69391 3543.2432 6710347
88.108116 665.83673 3570.8235 8421226
106.73276 650.42078 3488.1492 6908509
129.93503 663.37683 3557.6311 7961456
152.11902 668.24316 3583.729 5987411
174.34351 672.07355 3604.2712 7040352
203.11501 697.55249 3740.9124 7566952
222.2657 688.22815 3690.9067 7106147
290.00757 817.55695 4384.4854 1381651
316.27887 818.32428 4388.6011 4803151
348.62793 833.50598 4470.019 4671311
375.12289 833.53625 4470.1812 4342349
403.59995 837.67615 4492.3833 3684419
431.50558 840.19135 4505.8721 1973801
465.95386 854.41058 4582.1284 3355453
493.14041 854.48163 4582.5093 6381929
522.10651 857.46777 4598.5239 2105122
550.81195 859.75104 4610.7686 4737103
577.46881 858.77185 4605.5176 2829106
607.67767 862.92511 4627.791 5263447
637.09973 865.6507 4642.4082 4013381
664.40424 865.39258 4641.0239 3684670
695.05182 869.3363 4662.1738 5592667
724.02234 870.96124 4670.8882 4737358
745.85089 864.19135 4634.5815 2500395
767.9707 858.22766 4602.5991 4671564
790.74072 853.37463 4576.5728 3421495
825.45215 861.30347 4619.0942 4342084
846.18872 854.60944 4583.1948 3618618
881.08276 862.18561 4623.8252 460296
930.65204 883.23224 4736.6968 1973537
952.52429 877.53064 4706.1191 2434090
990.95233 886.97174 4756.751 3618880
1029.7043 896.17261 4806.0947 6447982
1073.5677 909.20728 4875.9985 7238268
1090.2356 899.13049 4821.957 6645876
1106.6062 889.32928 4769.3945 6514547
1150.7909 901.81256 4836.3413 8290699
1178.23 900.88544 4831.3691 5395548
1181.2704 881.78931 4728.9585 5131862
1232.4417 898.67413 4819.5098 1908005
1249.6714 890.6051 4776.2368 4737621
1292.6619 900.84601 4831.1577 6514034
1304.782 889.59576 4770.8237 5658725
1351.7321 902.06628 4837.7017 3027004
1393.9673 910.93762 4885.2783 4737106
1427.6313 913.961 4901.4922 2631727
1445.0885 906.69513 4862.5259 3026741
1458.8763 897.45593 4812.9771 2828851
1480.6968 893.41772 4791.3203 1512989
1537.7606 910.39648 4882.376 1184278
1546.6077 898.72968 4819.8076 1447195
1611.9984 919.7475 4932.5249 4605008
1637.6748 917.76086 4921.8706 4803156
1670.3195 919.6806 4932.1655 5197143
1682.0336 910.20782 4881.3643 3486526
1712.0005 910.76562 4884.356 3947334
1767.151 924.47968 4957.9028 1908009
1772.9869 912.36835 4892.9507 2894650
1819.519 921.25171 4940.5918 4737109
1863.0457 928.35626 4978.6924 4539988
1911.0978 937.45917 5027.5107 10330285
1925.1608 929.86578 4986.7881 6316913
1960.7919 932.76202 5002.3203 4737881
1999.8898 937.19659 5026.1025 4277328
2046.2405 944.85004 5067.1475 4737106
2079.4707 946.3114 5074.9844 4210504
2119.0972 950.6004 5097.9863 2829361
2158.5386 954.68701 5119.9023 2631211
2194.114 956.97424 5132.1685 3947328
2153.4736 926.41132 4968.2622 1249814
2165.5449 919.04297 4928.7466 2763052
2166.958 907.40784 4866.3481 591114
2203.6882 910.67279 4883.8579 591886
2307.1902 941.08899 5046.9771 1315098
2392.0645 963.22607 5165.6963 2433837
2415.3223 960.30579 5150.0352 3157818
2429.9419 954.06671 5116.5757 3816263
2493.4949 966.95746 5185.7075 4473937
2497.5798 956.75372 5130.9858 6579311
2541.749 961.96606 5158.939 2960695
2574.637 962.83551 5163.6021 1644574
2602.7751 961.92938 5158.7422 1841953
2645.2253 966.27216 5182.0322 1512989
2672.5574 965.05609 5175.5107 2763314
2705.1104 965.73163 5179.1333 3354940
2747.7024 969.93573 5201.6797 2433836
2791.5549 974.48663 5226.0854 2565422
2812.7085 971.10065 5207.9272 3486523
2879.2966 983.30457 5273.3755 2762798
2880.3516 973.10657 5218.6846 1446682
2869.6147 959.18359 5144.0171 1709598
2914.8184 964.05524 5170.1431 1709856
2955.97 967.49927 5188.6133 3551802
3023.9644 979.56775 5253.3354 4078406
3137.0632 1005.8525 5394.2983 4538702
3123.9177 991.53693 5317.5249 4735825
3142.0493 987.33533 5294.9922 4538446
3200.9741 995.90881 5340.9712 4472653
3179.0823 979.4162 5252.5229 4143945
3263.9468 995.81427 5340.4644 4604496
3245.2793 980.61365 5258.9443 6775919
3345.635 1001.325 5370.0171 6315622
3411.7864 1011.5052 5424.6133 5131351
3436.052 1009.1935 5412.2158 6117220
3434.9116 999.53149 5360.3989 3813953
3467.7478 999.84283 5362.0688 3154736
3521.9097 1006.2416 5396.3848 4864065
3658.0042 1035.7235 5554.4937 2956317
3604.5818 1011.4984 5424.5767 4139560
3640.3767 1012.516 5430.0337 6570563
3733.908 1029.4336 5520.7612 8609886
3746.6799 1023.9855 5491.5435 9333091
3821.3811 1035.4109 5552.8174 9267297
3895.3186 1046.4363 5611.9453 8609109
3916.0334 1043.0983 5594.0439 8609108
3892.1152 1028.0272 5513.2197 7951180
3930.5549 1029.5408 5521.3364 9267042
4030.9573 1047.1254 5615.6411 9398629
4102.0195 1056.8628 5667.8618 9004125
4169.2827 1065.4712 5714.0278 9135455
4202.1445 1065.2205 5712.6831 9003869
4232.9741 1064.4625 5708.6187 8609108
4276.8672 1066.9758 5722.0972 8543573
4387.2266 1085.9008 5823.5898 8741208
4384.5371 1076.7677 5774.6099 10122859
4382.7656 1067.9996 5727.5874 10649458
4416.2881 1067.9006 5727.0571 10188395
4350.2588 1043.9141 5598.4194 8674902
4417.6978 1052.0763 5642.1924 8280402
4574.3022 1081.191 5798.332 8214353
4624.8887 1085 5818.7593 7885388
4653.8667 1083.7207 5811.8984 8411729
4665.7261 1078.5031 5783.917 10122348
4686.5273 1075.4136 5767.3481 12359052
4703.8755 1071.5822 5746.8008 13017238
4638.8623 1049.1779 5626.6484 13410968
4593.3184 1031.4653 5531.6577 13345176
4685.7559 1044.769 5603.0039 9067605
4707.3726 1042.2061 5589.2593 8546657
4738.3921 1041.746 5586.7915 8216922
4703.8311 1026.9742 5507.5723 9269355
4775.0698 1035.3461 5552.4692 7624014
4784.5688 1030.3081 5525.4512 9203301
4925.2197 1053.389 5649.2319 9465447
5110.333 1085.6035 5821.9961 9333347
5051.4302 1065.8966 5716.3096 8083281
5171.6177 1083.9904 5813.3442 8017747
5343.4639 1112.6007 5966.7793 8215126
5388.0381 1114.509 5977.0137 7951954
5464.0947 1122.8619 6021.8096 7886160
5504.1401 1123.7544 6026.5952 7622990
5592.375 1134.4104 6083.7432 7425867
5617.1035 1132.1304 6071.5151 8544347
5655.6421 1132.6449 6074.2749 9399913
5643.5908 1123.0854 6023.0083 10057330
5661.6245 1119.5956 6004.2925 10847360
5706.6636 1121.4563 6014.271 11241606
5725.8145 1118.2379 5997.0112 10715262
0 0 0 0
0 0 0 0
0 0 0 0
0 0 0 0
0 0 0 0
0 0 0 0
0 0 0 0
0 0 0 0
0 0 0 0
0 0 0 0
-2372.2922 521.12518 2708.6902 5000510
-2388.8418 528.33441 2746.1624 6711130
-2359.5544 525.43542 2731.094 4276786
-2333.4458 523.20911 2719.522 3355427
-2368.3396 534.72504 2779.3792 6776664
-2349.7192 534.23511 2776.8328 7958621
-2328.2129 533.07745 2770.8157 8419174
-2322.5513 535.55713 2783.7043 4600611
-2273.7542 528.05444 2744.707 5061164
-2277.1704 532.65704 2768.6301 8420974
-2300.5049 542.01929 2817.2932 6841944
-2294.7603 544.61707 2830.7957 7566435
-2298.7996 549.59216 2856.655 4276793
-2270.8684 546.94098 2842.8748 2500638
-2220.4082 538.78339 2800.4736 3684389
-2204.6301 538.98206 2801.5063 6907473
-2183.1121 537.76978 2795.2051 7302229
-2137.4858 530.55499 2757.7043 6643781
-2105.3135 526.59418 2737.1169 6841158
-2093.3145 527.65698 2742.6411 5130026
-2042.9794 518.99756 2697.6313 5985590
-2039.9626 522.31708 2714.8855 4340251
-2055.1721 530.39313 2756.8628 5853488
-2036.8831 529.88403 2754.2168 5985073
-2024.0765 530.8045 2759.0012 6511673
-2022.8173 534.79291 2779.7319 6182965
-2006.4629 534.82306 2779.8889 8024917
-2044.7048 549.52692 2856.3162 4209175
-2017.153 546.64612 2841.3423 6380343
-1962.0397 536.18481 2786.9668 8683361
-1940.7689 534.87292 2780.1479 3946268
-1961.2227 545.13623 2833.4944 8420449
-1962.4532 550.18738 2859.749 6249284
-1961.1594 554.61261 2882.7502 1907725
-1967.0206 561.1568 2916.7654 7171157
-1941.7909 558.86865 2904.8721 6118728
-1915.4415 556.21448 2891.0764 2828828
-1905.078 558.19635 2901.3777 6118987
-1885.5602 557.50757 2897.7976 3881259
-1888.4777 563.50061 2928.948 1973774
-1872.1356 563.80469 2930.5286 2104850
-1818.3218 552.72394 2872.9336 2236177
-1786.7067 548.24542 2849.6553 1381125
-1770.0992 548.33051 2850.0974 4012584
-1722.889 538.84595 2800.7988 7236439
-1703.1292 537.84576 2795.5999 5460541
-1729.0754 551.40155 2866.0598 5262388
-1737.5619 559.60309 2908.6895 6446147
-1739.9849 565.99652 2941.9211 6117437
-1703.2101 559.63977 2908.8804 4735527
-1662.5453 551.86182 2868.4521 6907207
-1640.1294 550.04333 2859.0002 6249020
-1634.0427 553.72021 2878.1118 7170123
-1621.5399 555.27753 2886.2065 6183739
-1592.6857 551.20905 2865.0593 8947305
-1589.9797 556.20001 2891.0012 6249796
-1585.3041 560.60303 2913.8872 7763294
-1569.3508 561.07123 2916.3206 8487017
-1548.9109 559.92773 2910.3772 3289883
-1529.853 559.26379 2906.9263 7632218
-1547.3275 572.09186 2973.6035 8290153
-1548.2196 579.01373 3009.5818 5658439
-1525.6271 577.21167 3000.2151 5526853
-1493.7236 571.80286 2972.1013 5197634
-1511.7887 585.62128 3043.9263 6447956
-1499.8623 588.01526 3056.3699 3224356
-1485.7529 589.60156 3064.615 2434585
-1493.0874 599.84204 3117.8428 1447434
-1495.4932 608.33423 3161.9829 2960675
-1469.0531 605.15906 3145.4792 2829348
-1425.5822 594.79651 3091.6172 2566178
-1400.2604 591.83527 3076.2251 6118998
-1402.3967 600.55438 3121.5452 921097
-1384.1908 600.67883 3122.1919 2960418
-1381.8145 607.76904 3159.0454 1184010
-1351.0645 602.40289 3131.1533 5065272
-1315.328 594.63312 3090.7678 9012587
-1280.2189 586.93158 3050.7368 5196847
-1273.3972 592.16382 3077.9329 6117685
-1252.048 590.69427 3070.2947 4603415
-1233.9337 590.73016 3070.481 9209439
-1213.8566 589.81329 3065.7153 4077336
0 0 0 0
0 0 0 0
0 0 0 0
0 0 0 0
0 0 0 0
0 0 0 0
0 0 0 0
0 0 0 0
0 0 0 0
0 0 0 0
0 0 0 0
0 0 0 0
0 0 0 0
0 0 0 0
-357.18539 223.78024 1163.1588 9
-351.01538 224.24071 1165.5522 12
-343.8201 224.05153 1164.569 16
-336.63565 223.86183 1163.583 16
-330.31039 224.2475 1165.5875 21
-323.11996 224.04973 1164.5596 264221
-311.44702 220.66736 1146.9788 10665169
-310.19211 224.68018 1167.8364 9941707
-303.21078 224.63364 1167.5946 9283271
-298.13309 226.02817 1174.843 1515583
-288.99048 224.33392 1166.0367 23
-281.80264 224.11125 1164.8794 21
-274.63516 223.89403 1163.7502 4081007
-268.04703 224.15007 1165.0811 9413582
-261.03662 224.05717 1164.5983 9151179
-253.89568 223.84418 1163.4912 8032195
-249.5562 226.1581 1175.5184 34
-242.82434 226.37454 1176.6434 33
-235.54453 226.07785 1175.1013 23
-228.67664 226.1705 1175.5829 9875160
-222.04333 226.50829 1177.3385 9678542
-216.19788 227.69772 1183.521 8690115
-209.18864 227.70012 1183.5334 1185331
-202.45291 228.01074 1185.1479 25
-195.91382 228.57306 1188.0708 19
-189.0864 228.82837 1189.3979 18
-182.00874 228.78894 1189.1929 15
-175.10574 228.97467 1190.1583 11
-167.92241 228.79405 1189.2195 3
0 0 0 0
0 0 0 0
0 0 0 0
0 0 0 0
-371.2861 640.16858 3327.4507 8224099
-351.34348 639.74969 3325.2734 6184516
-332.70734 641.80121 3335.937 6381126
-315.27597 646.58276 3360.79 5526333
-293.75214 643.05011 3342.4282 8026469
-275.69733 647.14966 3363.7368 9605760
-253.97968 642.62036 3340.1946 7961452
-234.86497 644.46802 3349.7983 11185820
-216.87769 650.03589 3378.739 7895411
-196.13968 647.6532 3366.3542 5987927
-178.56012 656.34082 3411.5105 3684662
-154.9581 642.28357 3338.4441 5593168
-137.65909 654.06061 3399.6582 6776927
-118.25443 658.15515 3420.9409 6381910
-98.157707 659.29498 3426.8655 6315856
-78.865295 667.84027 3471.282 3684133
-57.776012 661.83063 3440.0452 6709823
-37.460995 662.97375 3445.9868 4537882
-17.014647 661.74701 3439.6106 4998175
3.349297 659.17133 3426.2227 4340254
23.736404 661.66309 3439.1743 6906949
44.117737 661.76636 3439.7112 6446399
65.286003 669.87885 3481.8779 7104846
86.283127 672.76135 3496.8608 7039572
108.29086 680.8819 3539.0696 7894370
128.62543 677.5545 3521.7742 5461576
151.23979 685.48895 3563.0156 6646363
173.10524 688.5011 3578.6724 6053456
193.54085 685.78955 3564.5781 5658700
216.26511 690.92322 3591.2617 6382426
260.51129 757.73712 3938.5452 6514016
314.28015 838.98773 4360.8677 2697770
337.52075 832.58856 4327.606 2763568
369.67606 847.53101 4405.2734 4145223
394.95316 845.77338 4396.1377 4277068
419.14008 842.04303 4376.7485 2566450
447.98227 847.55499 4405.3979 3026487
476.5491 851.96771 4428.3345 1052439
513.05646 869.37512 4518.8145 1513243
538.47595 867.19952 4507.5059 4144970
561.62964 861.75275 4479.1948 4211016
594.97479 871.72955 4531.0518 3223867
618.70111 867.36023 4508.3413 4276812
650.7442 874.52948 4545.6055 5658206
682.28925 880.48621 4576.5669 5658463
707.52338 878.1546 4564.4482 3618623
731.78094 874.82727 4547.1533 3026740
754.99994 870.53876 4524.8628 1908002
784.52271 873.56348 4540.5845 1381401
810.41492 872.47913 4534.9482 855056
841.72778 877.11279 4559.0332 2565932
866.50897 874.86389 4547.3438 2631469
893.46674 874.88177 4547.4365 1447195
932.98499 886.83789 4609.5815 1907746
958.61646 885.28937 4601.5327 1578782
995.18475 893.64752 4644.9766 2302506
1037.0129 906.15186 4709.9717 3947590
1067.9496 908.73328 4723.3892 3947846
1090.4669 904.20172 4699.835 4869205
1130.4379 914.00787 4750.8052 8817043
1159.239 914.52557 4753.4961 6974583
1159.5432 893.07074 4641.9785 6842226
1200.4164 903.13184 4694.2739 3816005
1232.2451 906.08691 4709.6338 4737104
1250.6608 899.26672 4674.1841 5855328
1278.8687 899.63043 4676.0742 7632250
1307.8058 900.48071 4680.4941 4342344
1372.8312 925.62823 4811.2051 6776690
1399.8516 924.64905 4806.1157 5592415
1400.5256 906.65332 4712.5776 4606035
1445.5426 917.50604 4768.9878 5658725
1459.6038 908.67126 4723.0664 2829108
1498.0968 915.09271 4756.4438 3158330
1546.8112 927.40533 4820.4419 3749697
1565.0558 921.33429 4788.8862 3420989
1600.4282 925.38281 4809.9297 4670799
1633.488 927.97607 4823.4087 3815748
1657.5126 925.43542 4810.2031 5000024
1681.46 922.93835 4797.2236 4671315
1717.1442 926.85938 4817.6045 4605521
1748.5297 928.36987 4825.4556 2236972
1776.2424 927.91315 4823.0815 7368829
1808.4856 929.79999 4832.8892 7105652
1861.8032 942.29437 4897.832 3553089
1901.5734 947.65375 4925.689 4737108
1893.7249 929.479 4831.2207 5592418
1950.2157 942.95428 4901.2622 1250330
1997.7224 951.75397 4947.001 4539725
2027.7186 952.07751 4948.6826 6250345
2073.0896 959.50787 4987.3037 7105908
2099.3416 958.00476 4979.4912 5394775
2090.5955 940.79376 4890.0322 5263445
2150.1001 954.34705 4960.479 4210501
2149.4309 941.18616 4892.0718 3355192
2146.9319 927.5849 4821.3755 2894642
2211.7437 943.04053 4901.7104 2763057
2229.6689 938.36346 4877.3999 1052695
2270.9231 943.49829 4904.0898 1645343
2337.6094 958.93628 4984.333 6382699
2370.8491 960.43982 4992.1479 3750209
2418.0222 967.48114 5028.7471 3158075
2474.6333 978.08154 5083.8452 4934488
2481.709 969.08374 5037.0771 3881545
2514.342 970.16113 5042.6768 5328992
2557.386 975.18298 5068.7798 4210510
2590.8247 976.46838 5075.4604 4605268
2575.1831 959.43823 4986.9419 2697011
2617.8123 964.25818 5011.9946 3683905
2682.5149 977.0094 5078.2729 2104872
2705.1643 974.33136 5064.353 4276295
2759.7532 983.08972 5109.877 4078917
2842.6519 1001.6331 5206.2612 2763057
2863.8984 998.28796 5188.874 3749951
2853.9534 984.25677 5115.9429 2368043
2874.0547 980.77368 5097.8389 2697006
2902.6614 980.23535 5095.0405 2236200
2940.8679 982.91669 5108.9775 2959925
2986.6216 988.04016 5135.6079 3552319
3108.5166 1017.9954 5291.3086 2565426
3082.0171 999.2406 5193.8257 4999768
3128.6086 1004.3198 5220.2261 5065818
3080.8921 979.32184 5090.292 5789541
3165.0771 996.32941 5178.6938 3486529
3218.1079 1003.2977 5214.9136 3683909
3271.2373 1010.1641 5250.603 3683908
3272.4619 1001.0236 5203.0928 4144459
3347.4492 1014.4066 5272.6548 4407117
3399.5688 1020.6765 5305.2446 5130840
3411.7415 1014.948 5275.4688 5131097
3456.1055 1018.8129 5295.5576 2499631
3468.0471 1013.1365 5266.0532 5723236
3431.3345 993.47461 5163.855 4604239
3428.4233 983.86011 5113.8813 5261141
3532.5984 1004.8757 5223.1152 3616310
3653.0701 1030.1217 5354.3384 3154729
3704.196 1035.5468 5382.5366 722183
3703.1672 1026.4232 5335.1147 3415072
3792.3967 1042.2598 5417.4292 6440262
3822.2964 1041.6617 5414.3208 7557713
3896.9119 1053.1583 5474.0776 9070180
3917.1077 1049.8793 5457.0337 7820368
3948.9685 1049.7549 5456.3877 8149331
4038.1404 1064.7438 5534.2964 9004126
4090.2583 1069.8 5560.5771 9201248
4111.1782 1066.6808 5544.3643 9925225
4152.0859 1068.7557 5555.1494 9859946
4242.9028 1083.5439 5632.0151 10123117
4198.8369 1063.9241 5530.0352 13018256
4172.5703 1049.083 5452.895 13149831
4142.5581 1033.5356 5372.083 12688772
4169.7827 1032.3966 5366.1626 12491137
4160.6572 1022.3428 5313.9053 12162177
4188.8267 1021.5353 5309.708 11635836
4410.4185 1067.5582 5548.9253 9924710
4521.2607 1086.2914 5646.2959 11175036
4604.0649 1098.0624 5707.4785 11569794
4591.2197 1087.0157 5650.0605 12227465
4535.2212 1065.986 5540.7524 13147798
4508.4307 1052.0743 5468.4434 13345178
4532.0835 1050.0486 5457.9136 13016982
4598.6011 1057.9125 5498.7886 11635074
4555.7861 1040.6908 5409.2739 9003869
4522.2256 1025.8087 5331.9209 10123379
4576.9058 1031.0107 5358.9595 4926503
4729.2993 1058.0006 5499.2466 6899779
4863.5605 1080.5925 5616.6748 8412247
4871.6206 1075.0286 5587.7539 9925742
4928.0796 1080.1477 5614.3623 9464420
4942.9014 1076.1333 5593.4961 10583158
4983.8892 1077.8312 5602.3213 8280147
5163.9658 1109.3873 5766.3428 7885392
5273.2661 1125.4235 5849.6958 7819856
5326.8149 1129.4296 5870.5181 7688527
5330.396 1122.8578 5836.3594 7820113
