# .PCD v0.7 - Point Cloud Data file format
VERSION 0.7
FIELDS x y z rgb
SIZE 4 4 4 4
TYPE F F F U
COUNT 1 1 1 1
WIDTH 1307
HEIGHT 1
VIEWPOINT 0 0 0 1 0 0 0
POINTS 1307
DATA ascii
937.00098 898.32367 2427.135 8354151
948.88239 895.96552 2420.7637 8222821
959.59088 892.58649 2411.634 4406572
981.06342 899.17212 2429.4275 8223854
1005.3505 908.10974 2453.5754 7236701
1033.2415 920.0014 2485.7051 8618097
1028.0037 902.47552 2438.3528 7367517
1074.1703 929.93738 2512.5505 8223340
1089.1644 930.0307 2512.8025 5920071
1100.8696 927.35089 2505.5623 7564898
1110.0854 922.67322 2492.9241 8486000
1124.854 922.67322 2492.9241 7104348
1132.2018 916.66516 2476.6909 9341566
1153.6429 922.07507 2491.3079 9012858
1170.4348 923.67926 2495.6421 6973019
1187.5037 925.45941 2500.4517 5525573
1188.8358 915.08258 2472.415 6314316
1210.5366 920.44598 2486.9062 6116934
1231.1525 924.8653 2498.8464 8156259
1269.7831 942.55182 2546.6328 8222308
1264.7896 927.82129 2506.8333 6379847
1265.6129 917.65033 2479.3528 6249031
1288.3877 923.44635 2495.0127 7630687
1300.5271 921.5744 2489.9551 8748397
1307.866 916.38098 2475.9231 7103571
1327.5878 919.88275 2485.3845 5064246
1341.1644 919.0965 2483.26 7301211
1366.6852 926.42383 2503.0574 8025192
1374.9116 921.9964 2491.0952 6446675
1382.9788 917.55731 2479.1016 9407360
1400.7119 919.55731 2484.5051 5854794
1431.5018 929.99817 2512.7148 9276029
1436.8396 923.85895 2496.1274 8223337
1455.4226 926.27441 2502.6538 8288618
1473.2814 928.18488 2507.8157 9011569
1486.1174 926.9245 2504.4102 6972242
1531.7391 945.93604 2555.7764 4735792
1556.4033 951.75946 2571.5105 5525310
1534.7295 929.40863 2511.1218 6841681
1572.6115 943.20654 2548.4019 6380874
1588.632 943.75519 2549.884 6117958
1615.9862 950.96271 2569.3579 8025701
1620.2722 944.58759 2552.1333 7631456
1620.8026 936.16113 2529.3662 7170651
1634.0404 935.1615 2526.6653 9210231
1677.9966 951.60052 2571.0811 8946289
1693.7562 951.89728 2571.8828 7762014
1705.5477 949.97845 2566.6985 7828063
1708.0288 942.95355 2547.7183 9867904
1717.2667 939.74927 2539.0608 7038802
1739.1057 943.43652 2549.0232 8091491
1759.7562 946.42114 2557.0872 5854534
1767.9561 942.71582 2547.0759 6381390
1749.9657 925.22614 2499.8215 9867905
1793.8816 940.4859 2541.051 8617836
1796.4531 933.99628 2523.5171 9209459
1821.5885 939.24805 2537.7065 9012336
1816.6216 929.01965 2510.071 8222823
1841.4802 934.08618 2523.76 8486509
1850.5474 931.12555 2515.7607 9078902
1890.8749 943.81561 2550.0474 10855570
1925.7666 953.61261 2576.5173 8553072
1935.0923 950.69519 2568.635 7960423
1965.4176 958.05988 2588.5332 10789778
1976.2197 955.86731 2582.6094 10130820
1979.9764 950.3269 2567.6399 10526091
1980.5073 943.33453 2548.7476 9868417
1999.9332 945.3797 2554.2734 8355180
2026.4901 950.73962 2568.7551 8552302
2035.8398 948.0072 2561.3723 8091753
2072.7388 958.04858 2588.5027 8025960
2076.7791 952.86646 2574.5015 8420716
2084.2043 949.30151 2564.8696 8157544
2103.323 951.07587 2569.6636 6512718
2112.7236 948.46198 2562.6011 8618095
2116.8628 943.5401 2549.3032 9144439
2151.6235 952.24005 2572.8091 8881266
2159.585 949.04071 2564.1648 7302235
2187.1479 954.43976 2578.7524 7367514
2236.322 969.12933 2618.4414 7170134
2253.2964 969.75861 2620.1416 9012854
2256.5532 964.51599 2605.9766 6644306
2280.8723 968.28607 2616.1628 9736576
2307.7715 973.09314 2629.1509 8486257
2326.8669 974.56726 2633.1338 8881528
2309.6467 960.91309 2596.2422 8881528
2326.4324 961.49365 2597.8108 9736835
2331.0195 957.05829 2585.8271 8157803
2354.311 960.31024 2594.6133 9539459
2376.8096 963.19855 2602.4172 10197132
2400.4055 966.4917 2611.3147 9736837
2385.501 954.33997 2578.4827 12039592
2455.8164 976.21912 2637.5967 10131851
2454.5098 969.5307 2619.5259 10065289
2451.0498 962.08136 2599.3987 8815222
2425.0852 945.94659 2555.8049 9275774
2463.7917 955.0816 2580.4866 9209981
0 0 0 0
0 0 0 0
0 0 0 0
0 0 0 0
0 0 0 0
0 0 0 0
0 0 0 0
0 0 0 0
0 0 0 0
0 0 0 0
0 0 0 0
0 0 0 0
-1622.9519 706.39496 1878.5046 4275746
-1625.798 712.51953 1894.7916 2696712
-1620.7087 715.22729 1901.9923 2564361
-1606.4727 713.90826 1898.4846 3945500
-1597.2498 714.81415 1900.8936 4669477
-1586.0184 714.82764 1900.9296 4866855
-1569.2307 712.31921 1894.2588 4472096
-1562.4219 714.33691 1899.6245 5458992
-1552.1713 714.79883 1900.8529 4142875
-1541.3064 714.98267 1901.3417 5129515
-1531.0956 715.47479 1902.6504 4800551
-1523.7484 717.32233 1907.5635 3747611
-1527.48 724.4519 1926.5231 5786936
-1505.8904 719.58905 1913.5914 2300940
-1478.568 711.89233 1893.1237 3024402
-1454.8774 705.8399 1877.0286 3551001
-1447.7775 707.80524 1882.2549 3682329
-1442.8478 710.8703 1890.4059 3550999
-1438.3864 714.21594 1899.3027 3419157
-1436.1991 718.75232 1911.3663 3089679
-1428.245 720.45184 1915.8859 4142365
-1436.1493 730.24225 1941.9213 3813656
-1430.7642 733.37878 1950.2623 4537635
-1415.7028 731.56622 1945.4421 4537891
-1401.1322 729.97961 1941.223 2235140
-1380.1182 724.98206 1927.933 2564364
-1377.1709 729.4707 1939.8696 3485466
-1367.7797 730.59296 1942.854 2893074
-1363.2084 734.33063 1952.7935 1643269
-1351.0033 733.98499 1951.8743 3287831
-1322.9879 724.96967 1927.8999 4406567
-1308.9563 723.52679 1924.063 6379844
-1292.4779 720.69421 1916.5304 3485721
-1296.8741 729.55444 1940.0923 2761487
-1289.8452 732.0885 1946.8309 4340519
-1271.8763 728.40289 1937.03 3157014
-1258.0802 727.06177 1933.4635 4801582
-1239.7183 723.03308 1922.75 4735533
-1233.7798 726.24249 1931.2848 3945758
-1252.9951 744.45685 1979.722 4274978
-1262.4043 757.13422 2013.4347 4340771
-1261.2026 763.62885 2030.7057 5130285
-1260.812 770.74426 2049.6277 5196078
-1249.8339 771.46295 2051.5388 5130540
-1232.1858 768.03827 2042.4316 3222801
-1225.8549 771.66974 2052.0889 6512450
-1210.1261 769.39886 2046.0498 4209951
-1195.0526 767.50281 2041.0077 2695690
-1170.5332 759.43951 2019.5652 6774853
-1163.3173 762.55212 2027.8424 1314048
-1137.631 753.49609 2003.7599 6313784
-1124.4489 752.61835 2001.4257 5458221
-1112.5671 752.6015 2001.381 3222036
-1105.2178 755.68335 2009.5764 2827018
-1102.1637 761.80109 2025.8453 4406306
-1076.5232 752.27026 2000.5001 4209185
-1075.0118 759.57635 2019.929 5328436
-1050.9387 750.92572 1996.9246 6709836
-1043.6177 754.18445 2005.5905 5657920
-1027.5742 751.14215 1997.5 7763294
-1013.5786 749.54327 1993.2483 5986627
-997.78168 746.55908 1985.3125 6841418
-992.36798 751.36523 1998.0934 6183488
-1007.7335 772.21027 2053.5261 3289365
-1002.0316 777.22375 2066.8584 6841427
-966.93182 759.27686 2019.1326 4274722
-966.49225 768.43799 2043.4945 2630153
-954.42645 768.47034 2043.5807 4011552
-945.94556 771.42725 2051.4438 3748637
-935.85901 773.13458 2055.9841 6249540
-913.74902 764.82306 2033.8816 8092003
-895.66071 759.70068 2020.2596 4276014
-897.97174 771.97656 2052.9048 6578512
-887.36816 773.33472 2056.5164 5788738
-875.08521 773.24658 2056.282 3288610
-865.60785 775.6701 2062.7268 2630680
-866.16486 787.28351 2093.6101 2235923
-855.41504 788.80804 2097.6643 2959648
-845.8963 791.52942 2104.9011 1972240
-859.02435 815.84058 2169.5515 1117706
-841.4483 811.28668 2157.4414 3617578
-829.74799 812.34479 2160.2554 6315602
-813.30511 808.7204 2150.6169 2631454
-798.26123 806.3938 2144.4299 6907480
-779.16101 799.82794 2126.9695 5855303
-763.31799 796.44495 2117.9729 6841938
-747.30475 792.76819 2108.1956 5921092
-730.14972 787.73462 2094.8098 5262905
-725.03851 795.7453 2116.1125 6249800
-720.88434 805.10681 2141.0073 8486249
-699.96637 795.74597 2116.1143 6841423
-687.13904 795.409 2115.2183 7498837
-674.51337 795.29749 2114.9216 4867113
-666.09906 800.24103 2128.0681 5393199
-643.06311 787.4704 2094.1072 4669478
-633.30475 790.77637 2102.8987 5985079
-617.3576 786.33228 2091.0806 6446139
-599.18378 778.81201 2071.082 7104327
0 0 0 0
0 0 0 0
0 0 0 0
0 0 0 0
-402.65689 583.06622 1550.5386 512
-392.69128 581.91058 1547.4653 512
-382.85938 580.90253 1544.7847 5856331
-397.82132 618.38544 1644.4624 5790019
0 0 0 0
-485.01599 792.75055 2108.1484 5197104
-469.54486 787.74768 2094.8447 6051897
-459.49017 791.80701 2105.6394 5590828
-445.25546 788.68872 2097.3472 6117431
-436.80164 795.92517 2116.5908 6511934
-426.12729 799.42352 2125.894 4932904
-416.08044 804.34821 2138.99 5195819
-401.89252 801.32538 2130.9514 5064233
-389.98322 802.797 2134.865 5722168
-378.22495 804.68878 2139.8958 4801321
-369.23486 812.8053 2161.48 7959642
-359.26917 819.2804 2178.699 5525301
-346.55878 819.74567 2179.9363 4538402
-331.85712 815.35449 2168.259 4735013
-318.08704 812.99084 2161.9731 3222033
-305.0076 812.26801 2160.051 7103562
-291.11975 809.2348 2151.9849 5919804
-279.37424 812.15155 2159.7412 7235665
-266.51099 811.94287 2159.1865 6248768
-252.8517 809.16583 2151.8015 5985851
-240.8063 811.5329 2158.0962 6446661
-233.97789 832.73267 2214.4724 6973528
-219.64247 828.14636 2202.2761 9078137
-206.18565 826.50281 2197.9053 5657413
-196.88133 842.40497 2240.1938 5131323
-185.46808 850.9303 2262.865 8026211
-173.83464 859.69513 2286.1731 6249285
-159.20773 853.88593 2270.7251 7828056
-145.45883 852.14838 2266.1042 5854007
-130.51747 842.36121 2240.0774 4275235
-117.91943 847.19409 2252.9294 7631192
-104.57155 847.18591 2252.9077 3091999
-91.841644 852.91418 2268.1409 5196084
-78.268646 851.43451 2264.2061 3157274
-64.472664 846.41547 2250.8589 5262395
-50.743793 839.88971 2233.5049 4407076
-38.002258 850.86633 2262.6951 4735786
-24.599689 850.94067 2262.8926 6775628
-11.170117 849.1402 2258.1047 7829094
2.1838746 840.08832 2234.0332 5395012
15.465722 842.64526 2240.8328 7697764
28.759943 843.20288 2242.3157 6578769
42.000492 842.33185 2239.9993 10526089
55.451702 845.08942 2247.3325 5262135
68.641563 843.56744 2243.2852 7564637
82.64875 850.95441 2262.9292 5788482
96.764977 857.24536 2279.6587 8815474
110.51002 859.10992 2284.6169 5262909
125.35606 868.19269 2308.7708 6972753
140.47887 877.21674 2332.7683 5788477
154.7379 879.71362 2339.4082 5985853
169.2162 882.94409 2347.9988 5854007
180.5354 870.45221 2314.7793 8222810
194.89346 873.34155 2322.4629 7893339
208.66876 873.41064 2322.6467 9275247
219.96051 863.71893 2296.8738 5261877
233.27664 862.64258 2294.0115 5853758
245.3678 857.4043 2280.0813 7893597
259.88354 860.74286 2288.9595 8420970
273.40744 860.6283 2288.6548 6050882
286.85461 860.29437 2287.7668 7631459
300.41724 860.32123 2287.8381 3289117
318.33542 872.28046 2319.6414 3946019
333.39853 875.75049 2328.8691 4276017
343.84076 867.28925 2306.3682 5131325
361.59622 877.21631 2332.7671 6446927
372.20737 869.71869 2312.8289 7170647
381.32327 859.38361 2285.345 8157796
396.19958 862.29437 2293.0854 9144437
410.70175 864.22491 2298.2192 9144438
422.61612 860.7608 2289.0073 7104855
444.32544 876.84167 2331.7708 7433560
454.43005 869.74231 2312.8916 4670251
464.17709 862.39423 2293.3511 5854523
479.14624 864.89026 2299.9888 8025181
500.46198 878.38763 2335.8818 3814691
519.32544 886.97028 2358.7056 6840904
531.77643 884.43799 2351.9717 5722426
555.61816 900.49628 2394.675 2235401
566.50476 895.28101 2380.8062 2498315
573.26996 883.96423 2350.7117 7762527
585.70203 881.71509 2344.7305 6446922
603.8421 887.96375 2361.3477 7630683
613.44324 881.65723 2344.5767 6117444
631.40668 887.38226 2359.8013 8814957
641.18066 881.59918 2344.4224 6972754
657.5072 884.87982 2353.1465 7170133
679.72461 895.7876 2382.1533 7630684
693.28131 895.07013 2380.2454 9143923
705.02771 892.09064 2372.322 6973012
724.96613 899.39069 2391.7349 8157288
732.09979 890.82971 2368.969 9802111
744.12347 888.4292 2362.5852 7960424
777.63043 911.29315 2423.3872 5853763
775.27118 892.05914 2372.2383 8354152
794.45032 897.85168 2387.6423 6775115
818.24072 908.56183 2416.1238 6116934
828.32281 903.94397 2403.8435 7236182
831.11353 891.65955 2371.1758 8420199
858.26617 905.48584 2407.9438 7762269
876.69672 909.80859 2419.4392 6314567
888.44324 907.1673 2412.4153 6906961
898.03534 902.44458 2399.8562 6775374
897.73755 888.08557 2361.6714 8025698
918.17664 894.36639 2378.374 7235926
943.12573 904.784 2406.0774 7170390
958.81512 906.14038 2409.6843 7697249
960.23682 894.17096 2377.8542 7565407
984.68933 903.68378 2403.1516 6907478
997.03027 901.96863 2398.5906 9012854
1016.9072 907.0235 2412.0327 6775637
1039.2877 914.14026 2430.9583 6841684
1054.9893 915.26807 2433.9575 8486252
1072.8329 918.19879 2441.751 5262399
1090.2317 920.67584 2448.3384 7170398
1099.5737 916.3736 2436.8972 5196608
1114.8643 917.07587 2438.7649 10065289
1146.1396 930.74103 2475.1045 10460047
1148.407 920.802 2448.6738 7762534
1150.0236 910.5957 2421.5322 7959398
1168.6324 913.92963 2430.3982 6511950
1197.5596 925.15375 2460.2463 6643535
1208.2599 922.19623 2452.3816 7564635
1215.4788 916.68365 2437.7219 8156772
1246.802 929.26587 2471.1816 8354406
1249.3115 920.32977 2447.418 8419942
1264.3342 920.71112 2448.4321 6972500
1271.8695 915.69324 2435.0881 4603700
1292.4482 920.07324 2446.7358 5985615
1313.9692 925.01941 2459.8892 4735549
1316.3615 916.53845 2437.3357 6381145
1333.3882 918.32043 2442.0745 6644315
1371.5765 934.48199 2485.0527 8881018
1382.858 932.16266 2478.885 7697000
1391.5322 928.15314 2468.2227 7104605
1417.2645 935.48651 2487.7241 7301984
1432.1803 935.60278 2488.0332 7039067
1426.7059 922.53198 2453.2744 6117449
1461.7075 935.63342 2488.1147 7762016
1475.3929 934.96509 2486.3374 7367515
1506.1288 945.00806 2513.0444 2433559
1524.374 947.09393 2518.5916 6249546
1526.001 938.91461 2496.8403 6644560
1538.1528 937.30579 2492.562 7631457
1550.2161 935.67426 2488.2231 9210747
1572.1478 939.97357 2499.6565 9342076
1613.6586 955.78967 2541.7158 6710100
1608.5778 943.97168 2510.2886 8092007
1634.0764 950.15082 2526.7207 7235670
1645.6238 948.17957 2521.4785 7498842
1665.5597 951.03351 2529.0679 8156774
1683.113 952.48822 2532.9363 7433050
1705.0189 956.35858 2543.2288 8617068
1717.4742 954.90668 2539.3677 8749425
1724.4443 950.45667 2527.5339 8092007
1742.5093 952.14581 2532.0259 7696993
1758.1605 952.49847 2532.9636 6907477
1748.2336 939.10522 2497.3472 7170649
1764.3228 939.79462 2499.1807 6973013
1770.0284 934.98779 2486.3977 7236185
1766.6633 925.50824 2461.189 8617579
1787.9803 929.0083 2470.4966 9209461
1800.7141 928.02808 2467.8899 8617325
1826.7156 933.84631 2483.3623 8090980
1850.0557 938.22192 2494.9983 8551532
1852.9697 932.2514 2479.1211 8157028
1911.9126 954.3421 2537.8665 10328196
1922.6821 952.22968 2532.2488 8880750
1946.8171 956.71808 2544.1848 7893347
1961.7258 956.63831 2543.9727 6051913
1967.9635 952.36353 2532.6047 3683368
1980.5416 951.19861 2529.5068 7104603
1988.8357 948.00903 2521.0249 8025962
2011.4572 951.64557 2530.6956 7894118
2044.9613 960.33881 2553.8135 7499616
2051.8599 956.50195 2543.6101 9012855
2050.8245 949.0495 2523.7917 9079161
2085.2896 958.01428 2547.6318 7960424
2087.366 952.07733 2531.8438 8881269
2063.334 934.40161 2484.8391 8223339
2086.2939 938.10651 2494.6914 8486768
2139.1255 955.09656 2539.8726 7170908
2131.2227 944.92133 2512.8137 7631459
2187.9377 963.33826 2561.7898 8026217
2216.521 969.20044 2577.3789 7894375
2228.2598 967.66736 2573.302 8289389
2228.9258 961.37927 2556.5803 9934213
2247.6375 962.90686 2560.6426 7763301
2273.7371 967.55786 2573.011 8157803
2281.0278 964.19641 2564.0718 6381394
2298.0627 964.97113 2566.1318 10394766
2313.9097 965.23999 2566.8469 9078908
2323.5413 962.92957 2560.7029 9671044
2342.3916 964.44489 2564.7324 8947319
2357.1211 964.25482 2564.2271 9144697
2379.9888 967.37494 2572.5244 9934471
2393.7209 966.76587 2570.9048 10196875
2438.0779 978.45502 2601.9895 10197130
2445.5479 975.28656 2593.5637 9736578
2416.0474 957.50592 2546.28 7828581
2415.3999 951.30981 2529.8027 8815219
0 0 0 0
0 0 0 0
0 0 0 0
0 0 0 0
0 0 0 0
0 0 0 0
0 0 0 0
0 0 0 0
0 0 0 0
0 0 0 0
0 0 0 0
0 0 0 0
-1573.3656 695.60107 1821.1105 4407074
-1587.1571 706.54321 1849.7574 4143902
-1589.8776 712.67487 1865.8103 3090962
-1580.4216 713.396 1867.6982 3879962
-1582.7765 719.49622 1883.6688 4340512
-1566.1318 716.98492 1877.0942 4471584
-1548.2369 713.86133 1868.9166 4339742
-1535.8992 713.2735 1867.3776 3945240
-1526.0435 713.83813 1868.8557 3418897
-1507.1521 710.1535 1859.2092 4339232
-1503.7023 713.74408 1868.6095 1708034
-1494.7042 714.73492 1871.2035 2497800
-1487.6381 716.6712 1876.2728 4142369
-1479.4966 718.11469 1880.052 4142109
-1453.5298 710.86237 1861.0652 4142622
-1428.2773 703.85138 1842.7101 3155725
-1439.3455 714.7688 1871.2924 3549970
-1427.1482 714.21265 1869.8363 3945498
-1421.9618 717.18384 1877.615 3353104
-1413.5933 718.58423 1881.2812 3089673
-1422.9507 729.08936 1908.7841 4274718
-1400.6394 723.40637 1893.9059 5196079
-1398.295 728.0274 1906.0039 4143648
-1391.6287 730.45526 1912.36 5525300
-1390.4127 735.80713 1926.3715 4603942
-1375.0862 733.71857 1920.9036 3617048
-1382.6355 743.90314 1947.5671 4867371
-1365.6349 740.93921 1939.8075 2696459
-1357.3882 742.71484 1944.4561 3617305
-1342.3958 740.79828 1939.4385 5722170
-1320.4105 734.9563 1924.144 5195310
-1311.4597 736.33087 1927.7427 5260589
-1281.5781 725.87463 1900.3679 3155985
-1275.8412 729.02954 1908.6274 2432520
-1270.7554 732.61627 1918.0177 3748127
-1270.5518 739.10779 1935.0128 4340520
-1260.231 739.77856 1936.7688 2366475
-1246.3481 738.3515 1933.0327 4274726
-1243.3217 743.38892 1946.2209 4669483
-1243.0326 750.17279 1963.9813 3287829
-1252.3879 762.96021 1997.4594 3287571
-1225.7677 753.86609 1973.6505 2893068
-1218.9177 756.87292 1981.5226 2630154
-1213.0959 760.58289 1991.2354 3485718
-1205.1478 763.01947 1997.6144 3222547
-1221.4044 780.98114 2044.6387 5459510
-1210.0793 781.48987 2045.9707 3222290
-1175.4338 766.79584 2007.5011 4998443
-1163.4144 766.71259 2007.2831 4670245
-1142.7496 760.87109 1991.9899 6512191
-1125.0431 756.89801 1981.5881 5459503
-1127.9028 766.82343 2007.5734 4669731
-1108.436 761.61969 1993.9497 6314813
-1100.84 764.54803 2001.6163 1577478
-1081.2645 759.12982 1987.4313 5657142
-1071.6184 760.64026 1991.3855 4604710
-1061.1709 761.60907 1993.922 8157027
-1055.1448 765.80872 2004.9167 5986372
-1036.2318 760.64447 1991.3966 9670525
-1024.3224 760.56128 1991.1788 4933426
-1015.8083 763.02667 1997.6333 5854271
-996.79913 757.57379 1983.3574 5327926
-975.73737 750.41229 1964.6084 6182979
-1004.1093 781.55487 2046.1409 5985855
-987.93488 778.36194 2037.7817 4209956
-958.54089 764.54596 2001.6108 5261618
-955.28333 771.4917 2019.795 5591352
-943.09729 771.31146 2019.3232 1446664
-936.31305 775.60126 2030.5541 5986628
-924.26819 775.58838 2030.5203 3749922
-897.94006 763.4314 1998.6929 8355173
-888.78687 765.74683 2004.7548 6118214
-879.02594 767.59442 2009.5918 4604975
-872.02216 771.93323 2020.951 7697250
-859.26312 771.22742 2019.103 1709837
-863.38495 785.86682 2057.4297 2301975
-856.02466 790.32465 2069.1003 197376
-842.57068 789.2041 2066.167 1381130
-840.89874 799.24921 2092.4653 2433561
-834.90277 805.42352 2108.6299 3157795
-830.48395 813.33002 2129.3293 4605496
-821.45758 816.89832 2138.6714 2631960
-806.31885 814.40485 2132.1433 7368538
-781.1405 801.53033 2098.4373 5789505
-757.57031 789.91608 2068.0308 7763297
-756.17999 801.42719 2098.1672 6184265
-728.67865 785.18707 2055.6499 6907729
-721.7439 790.93311 2070.6934 6381384
-715.3407 797.47046 2087.8083 4802351
-705.07324 799.85406 2094.0488 6710091
-691.08386 798.02521 2089.2607 4078118
-672.99597 791.31055 2071.6816 5459257
-664.91724 796.33405 2084.8333 3090707
-648.87244 791.82642 2073.0322 5525303
-634.6803 789.4494 2066.8091 7301454
-622.33881 789.32605 2066.4861 6314557
-602.66595 779.71271 2041.3179 6314813
-587.93951 776.23615 2032.2162 5591348
0 0 0 0
0 0 0 0
0 0 0 0
0 0 0 0
0 0 0 0
-392.85339 591.32214 1548.1042 256
-377.42825 581.68396 1522.871 4079148
-437.17264 690.26013 1807.1277 5262131
-468.06598 757.59076 1983.4019 6248764
-474.73126 788.16461 2063.4453 4999208
-464.40219 791.39435 2071.9009 5591088
-453.88348 794.46741 2079.9465 6182968
-444.02179 798.89423 2091.5359 5327920
-434.38754 803.99615 2104.8931 7104078
-414.11789 789.13312 2065.981 5525047
-407.93323 801.02216 2097.1069 5195564
-396.22256 802.46625 2100.8877 5195308
-386.7272 808.63623 2117.041 3155468
-377.71524 816.26453 2137.012 2826509
-365.85251 818.04755 2141.6799 4011293
-356.85059 826.58514 2164.032 5195569
-345.30496 829.64764 2172.0496 3748379
-331.73114 827.88544 2167.436 5590581
-315.59396 819.32648 2145.0283 4340514
-301.84467 816.50873 2137.6514 5590581
-289.97214 818.74323 2143.5015 2564367
-275.75369 814.25537 2131.752 3947047
-263.51578 815.46558 2134.9204 5130807
-253.62143 824.41571 2158.3521 5327418
-239.89923 821.21289 2149.967 7367254
-223.08241 806.46362 2111.3528 5130294
-214.82358 822.73755 2153.9587 4735022
-203.6826 829.33197 2171.2231 4998705
-195.27521 848.69592 2221.9187 3749147
-184.46303 859.65216 2250.6025 4538150
-171.61578 862.09265 2256.9919 6774856
-157.70502 859.15173 2249.2925 5788475
-143.85126 856.0072 2241.0598 6512198
-130.63957 856.43243 2242.1731 7433815
-117.09712 854.54004 2237.2188 7368280
-103.42159 851.06946 2228.1326 7302486
-90.998405 858.39685 2247.3162 2630418
-77.713264 858.71143 2248.1396 4604197
-63.799816 850.77747 2227.3684 6184006
-50.539318 849.68372 2224.5049 6447436
-37.709911 857.62225 2245.2883 6249802
-24.607153 864.60876 2263.5791 6775893
-11.261421 869.56781 2276.5623 7565409
2.1704564 848.08032 2220.3069 8420975
15.383799 851.3866 2228.9629 9013626
28.461941 847.61218 2219.0815 4539957
41.549751 846.41992 2215.96 8815472
54.66375 846.20544 2215.3987 5657146
67.886864 847.43622 2218.6208 3682846
81.741905 854.87659 2238.0999 7565149
96.109444 864.85181 2264.2153 5723204
109.64082 865.78076 2266.6475 7169621
123.69285 870.1698 2278.1382 7565150
139.13461 882.51025 2310.4458 6315339
151.45955 874.64111 2289.8442 5788994
167.93816 890.08044 2330.2651 7038547
179.46782 878.93701 2301.0911 6380868
190.91241 868.97974 2275.0225 8552042
205.12518 872.10468 2283.2039 8025438
220.18991 878.24115 2299.2693 8156766
229.49658 862.03424 2256.8389 6577475
244.39214 867.44897 2271.0149 6576961
255.73454 860.34509 2252.4167 5458480
270.06403 863.49658 2260.6675 4801325
286.35788 872.33447 2283.8052 3485723
304.55716 885.91742 2319.366 5986371
315.8718 879.16553 2301.6895 4078373
329.17941 878.29022 2299.3977 5722176
344.93478 883.75574 2313.7065 6117963
355.42206 875.8219 2292.9355 3683628
368.3858 874.3501 2289.0823 9012856
382.82162 876.35266 2294.325 8552303
396.64737 876.86914 2295.6772 8288614
411.06503 878.61664 2300.2522 6972755
419.44559 867.76215 2271.8347 5393206
430.57858 863.09985 2259.6289 5985597
447.82028 870.5946 2279.2502 2695697
455.22662 859.08954 2249.1296 5590586
476.60641 873.85919 2287.7971 5919803
489.7464 873.12207 2285.8674 6906697
507.47678 880.38824 2304.8904 4998447
531.13739 897.29211 2349.1453 3222808
554.948 913.57953 2391.7866 3946275
565.30945 907.4668 2375.783 5591096
569.06494 891.3042 2333.4688 9342067
584.83777 894.28418 2341.2705 6776142
599.9505 896.14014 2346.1294 9999487
610.12183 890.69824 2331.8823 6841168
626.60382 894.50604 2341.8513 7104337
632.04535 882.72949 2311.02 5262134
649.66705 888.10278 2325.0874 4538669
669.04456 895.60333 2344.7241 7959907
686.63928 900.46094 2357.4414 7104342
699.03741 898.44568 2352.1655 3288353
717.00549 903.52826 2365.4719 8090981
730.24701 902.57404 2362.9736 9802109
738.79816 895.96747 2345.6775 9012594
758.69269 903.10748 2364.3701 8354667
769.65509 899.54889 2355.0537 7565152
784.75116 900.86237 2358.4924 6907478
810.21216 913.82025 2392.4167 8683372
815.02838 903.44818 2365.2622 8025442
829.25317 903.67969 2365.8684 8354664
842.60297 902.96582 2363.9995 7104855
855.70099 902.00989 2361.4968 8486509
872.04706 904.45349 2367.894 7696220
895.55096 914.12598 2393.217 7893856
888.85101 893.14716 2338.2937 6906958
907.66254 898.05365 2351.1392 6577482
914.22064 890.87128 2332.3354 8419430
929.17859 891.96631 2335.2021 6709327
944.76794 893.6264 2339.5483 4669748
960.05157 894.95343 2343.0227 7631458
958.56091 880.82867 2306.0435 9473406
987.03192 894.24603 2341.1707 7630948
1005.0699 897.97021 2350.9207 7302240
1017.9138 897.01544 2348.4209 8420463
1026.0372 891.9826 2335.2449 6775893
1072.962 920.36688 2409.5559 6775893
1090.5122 923.13953 2416.8149 8420207
1110.0547 927.505 2428.2439 7105372
1114.8738 919.61414 2407.5852 7105115
1129.5844 919.97864 2408.5396 9078649
1147.7565 923.11804 2416.7585 4209966
1160.9022 922.18726 2414.3218 4208941
1185.1991 930.02954 2434.8533 8025444
1189.0503 921.83221 2413.3923 9867645
1204.9055 923.02557 2416.5166 8288871
1225.8861 928.07117 2429.7261 5261882
1239.6536 927.60211 2428.498 9143930
1255.234 928.48492 2430.8093 8420464
1263.4331 923.94965 2418.9358 4341558
1274.4677 921.56641 2412.6965 7368037
1294.2068 925.46057 2422.8916 7828333
1301.2583 920.29626 2409.3711 4604732
1326.9988 928.31799 2430.3723 6446934
1347.5314 932.56348 2441.4871 7763050
1350.5323 924.71472 2420.9387 8223854
1379.2307 934.4411 2446.4028 7303523
1389.7162 931.75415 2439.3684 8091756
1416.8835 940.19202 2461.459 7170396
1415.1935 929.50433 2433.4783 5591619
1456.9633 947.28894 2480.0391 6973273
1466.7482 944.13007 2471.769 5657415
1491.1058 950.32123 2487.9778 8289131
1511.8743 954.12616 2497.9392 6578771
1517.75 948.5498 2483.3401 5657926
1521.226 941.59515 2465.1323 6381907
1515.9656 929.4165 2433.2483 8224109
1567.3124 951.84564 2491.9685 10066313
1576.8774 948.71826 2483.781 8289132
1595.1829 950.85876 2489.385 8947061
1610.2693 951.05878 2489.9087 8091237
1627.3457 952.41992 2493.4722 8683629
1656.7169 960.88745 2515.6404 8354406
1689.2887 971.0437 2542.23 9143922
1698.2904 967.59155 2533.1921 7301465
1709.1106 965.22699 2527.0015 7367001
1712.4344 958.7066 2509.9309 8485993
1742.8153 967.31598 2532.4707 7433563
1746.0118 960.81897 2515.4612 8815472
1751.994 955.95197 2502.719 9933696
1756.5173 950.37726 2488.1243 6973269
1766.7809 947.97522 2481.8357 7828321
1756.7098 934.79236 2447.3225 8486251
1768.2155 933.21271 2443.187 10130818
1781.925 932.81256 2442.1394 8288360
1806.5178 938.07019 2455.9041 8156774
1836.4142 945.97583 2476.6013 8354154
1861.7939 951.44794 2490.9275 6906709
1889.24 957.88159 2507.771 7695968
1884.5675 948.05719 2482.0503 8551277
1893.9835 945.41748 2475.1394 8156778
1927.0013 954.50922 2498.9419 7696741
1952.1406 959.58929 2512.2419 8091499
1959.8462 956.08783 2503.075 8486001
1970.0344 953.84106 2497.1926 7236190
1983.3187 953.1156 2495.2935 8288878
1997.9919 953.06342 2495.1567 8157546
2057.594 974.28601 2550.7185 8683889
2035.2605 956.68506 2504.6384 8881525
2047.1653 955.31622 2501.0547 8552304
2057.428 953.20636 2495.531 8881269
2060.3811 947.7641 2481.283 9736321
2080.6155 950.29199 2487.9011 7960679
2087.2021 946.59479 2478.2217 8223337
2108.6946 949.66217 2486.2522 9473405
2153.3662 963.05341 2521.311 8420718
2152.7676 956.15326 2503.2461 8157803
2206.3147 973.23199 2547.959 8618354
2213.5562 969.79132 2538.9512 8289132
2234.3323 972.28687 2545.4846 7170908
2233.3015 965.32312 2527.2532 7697255
2271.1179 975.13171 2552.9324 8815734
2279.8899 972.42242 2545.8394 8881528
2278.739 965.54407 2527.8318 7894632
2315.9006 974.88342 2552.2825 8749942
2328.6604 973.89612 2549.6978 8814965
2328.519 967.56104 2533.1121 8880758
2362.2429 975.28864 2553.3433 9999495
2370.9375 972.6499 2546.4351 9472896
2375.8235 968.49207 2535.5496 9538944
2404.8875 974.1806 2550.4424 9736067
2386.3469 960.63464 2514.9788 5328447
2416.8516 966.87769 2531.3232 9276284
0 0 0 0
0 0 0 0
0 0 0 0
0 0 0 0
0 0 0 0
0 0 0 0
0 0 0 0
0 0 0 0
0 0 0 0
0 0 0 0
0 0 0 0
0 0 0 0
-1530.2245 687.02081 1771.1763 4801832
-1551.3989 701.33649 1808.0829 6445890
-1552.74 706.82294 1822.2273 5064493
-1557.5549 713.97864 1840.675 3155984
-1557.9462 719.19312 1854.1182 3352849
-1541.3572 716.5874 1847.4006 3155471
-1540.5334 721.32623 1859.6176 3155215
-1529.4546 721.29694 1859.542 3352337
-1518.7722 721.45563 1859.951 2563078
-1485.2235 710.67511 1832.1583 2694664
-1474.9397 710.95001 1832.8671 3878682
-1468.932 713.30542 1838.9395 3023626
-1450.1743 709.4585 1829.0219 3089676
-1455.3582 717.35449 1849.3782 3418641
-1436.4331 713.39679 1839.175 3944985
-1434.4026 717.83331 1850.6125 3484433
-1418.4624 715.32355 1844.1423 2036992
-1414.5569 718.89105 1853.3395 3878935
-1396.4623 715.24683 1843.9445 3879961
-1392.713 718.9505 1853.4928 3484433
-1392.1902 724.39197 1867.5211 4471842
-1376.0328 721.72028 1860.6334 4077342
-1370.6279 724.69067 1868.2913 3221777
-1381.8884 736.59253 1898.975 3353620
-1368.8127 735.61145 1896.4456 3222549
-1377.0597 746.16779 1923.6604 3485978
-1356.3186 741.06195 1910.4972 7499095
-1355.9489 747.09424 1926.049 2104336
-1352.111 751.302 1936.8966 1840642
-1335.3331 748.33002 1929.2347 3155730
-1318.9443 745.52661 1922.0074 2628872
-1294.8079 738.25696 1903.2659 5326385
-1280.9338 736.76221 1899.4124 2826251
-1260.4655 731.41455 1885.6257 2497287
-1256.3618 735.55219 1896.2928 1970690
-1252.8358 740.10565 1908.032 1773826
-1232.1937 734.53882 1893.6802 2300679
-1205.5931 725.28497 1869.8234 4471847
-1215.2767 737.8905 1902.3212 4208675
-1201.0879 736.10156 1897.7091 3155730
-1184.2894 732.66431 1888.8477 2564364
-1178.6857 736.15314 1897.8422 4274978
-1184.6227 746.98657 1925.7712 4735528
-1169.7561 744.78491 1920.0952 5656886
-1153.2557 741.48956 1911.5997 4999212
-1156.4177 750.89624 1935.8506 2366982
-1152.9375 756.13507 1949.3567 6051643
-1128.0996 747.3313 1926.6599 4143645
-1130.9452 756.87433 1951.2625 7763286
-1120.3022 757.4942 1952.8605 7039051
-1117.2731 763.3288 1967.9025 5656883
-1112.7712 768.26984 1980.6406 3814424
-1094.8408 763.94586 1969.4933 2762514
-1083.906 764.46289 1970.8262 7301200
-1080.7144 770.51166 1986.4202 6578247
-1056.5441 761.5719 1963.373 5328181
-1045.4946 761.99609 1964.4667 5658946
-1039.6094 766.23602 1975.3975 6710607
-1029.5677 767.4743 1978.5897 5526076
-1017.5388 767.24249 1977.9922 4605227
-998.43048 761.60522 1963.459 7170383
-986.30969 761.22797 1962.4863 4735787
-973.72943 760.48291 1960.5654 3946274
-967.57294 764.7973 1971.6882 6446408
-971.20581 777.04956 2003.2751 5788478
-952.62317 771.61066 1989.2534 4342058
-940.19867 771.08594 1987.9008 6117956
-927.17908 770.05377 1985.2397 6512974
-920.4798 774.31171 1996.2169 5394999
-912.70959 777.76794 2005.1273 6052161
-887.9325 766.63165 1976.4174 8091234
-872.1568 763.07343 1967.244 5393465
-870.75464 772.16479 1990.6821 3879970
-860.48071 773.53064 1994.2034 3024918
-853.90869 778.30872 2006.5214 2235407
-849.15759 784.9046 2023.5261 525568
-840.32764 787.86536 2031.1589 2235665
-835.85779 795.05939 2049.7056 1775890
-831.72229 802.78827 2069.6311 5920581
-817.38837 800.75751 2064.3955 4078887
-823.8103 819.30743 2112.2183 2828565
-804.40979 812.35211 2094.2871 3749665
-771.99786 791.83331 2041.3884 7368536
-763.57806 795.66156 2051.2578 6447434
-749.84338 793.98584 2046.9377 6118472
-740.79816 797.30206 2055.4873 8487790
-727.8407 796.44824 2053.2861 6382415
-717.58582 798.57294 2058.7637 5460030
-705.04144 798.17926 2057.7488 2960416
-696.56476 802.45776 2068.7788 7039575
-680.10986 797.53375 2056.0847 5723457
-671.2226 801.46625 2066.2229 6709582
-652.94324 794.12201 2047.2889 6972494
-637.17096 789.60663 2035.6479 4933161
-623.30341 787.323 2029.7606 6380093
-598.62164 771.02081 1987.7328 4142362
-602.99634 792.23993 2042.4369 4471072
-592.94147 794.98175 2049.5054 5326123
0 0 0 0
0 0 0 0
0 0 0 0
0 0 0 0
-402.24255 600.81885 1548.9431 512
-393.21033 601.03906 1549.5109 0
-380.86575 596.08569 1536.7407 5526596
-398.53125 639.00818 1647.3971 4736047
-473.50809 778.28577 2006.4624 4932908
-469.54797 791.65002 2040.9159 6972493
-461.40475 798.48157 2058.5281 4340772
-449.94235 799.78406 2061.886 6183491
-440.84189 805.47491 2076.5574 8222819
-425.24689 799.28552 2060.6006 8485734
-412.45569 798.15582 2057.6882 2103819
-401.11349 799.8468 2062.0479 4668713
-390.58984 803.32751 2071.0212 4932398
-383.44574 814.21021 2099.0774 1182464
-372.29105 817.02075 2106.3232 4208421
-360.52695 818.64264 2110.5044 3419165
-343.94766 809.05438 2085.7854 985860
-336.63788 821.36835 2117.5315 4406321
-323.85895 820.7749 2116.0015 3353636
-314.63489 829.50562 2138.5098 1183240
-299.59103 822.98187 2121.6912 1971983
-287.8027 825.22137 2127.4648 2367255
-270.83591 812.13776 2093.7344 5722954
-259.4642 815.38098 2102.0957 8617845
-246.43568 813.48218 2097.2004 4801847
-234.9559 816.7655 2105.665 5788484
-224.41541 823.8653 2123.9688 6380361
-213.39546 829.94391 2139.6396 3946537
-201.29347 832.3161 2145.7554 3091228
-191.09279 843.39978 2174.3296 3550747
-178.22281 843.45294 2174.4666 3682843
-168.17661 857.91931 2211.7617 4801328
-155.00197 857.52289 2210.7397 5327670
-142.03264 858.29395 2212.7275 7170385
-128.79836 857.45789 2210.5723 4999215
-116.19503 861.10852 2219.9836 5525819
-102.64497 857.77948 2211.4011 8486510
-90.147964 863.56372 2226.3135 3354142
-77.112175 865.28497 2230.751 4340777
-63.639896 861.80737 2221.7854 5261878
-50.281261 858.45642 2213.1465 4998964
-37.229153 859.82056 2216.6633 5985859
-23.973431 855.40662 2205.2839 7894369
-10.97437 860.5459 2218.5332 8683887
2.1576006 856.13269 2207.1558 10131333
15.210564 854.85541 2203.8628 5986120
28.040756 848.02087 2186.2432 8157288
41.255817 853.4671 2200.2837 5722947
54.056301 849.78082 2190.7803 3880742
66.756683 846.25293 2181.6853 8355182
80.812653 858.26642 2212.6567 5854017
93.72332 856.46069 2208.0012 4670515
107.83536 864.73096 2229.3225 7236180
122.02229 871.73157 2247.3706 5327675
136.01976 876.1344 2258.7212 7301975
149.90375 879.08307 2266.323 6182978
159.93828 860.82819 2219.261 8091747
174.35576 867.14471 2235.5454 10591365
187.5657 866.98792 2235.1411 7959902
201.99747 872.12701 2248.3899 7893595
213.95454 866.60663 2234.1582 7760982
226.72708 864.84009 2229.604 2760720
240.56458 867.10669 2235.4473 3089420
254.46387 869.34778 2241.2251 4537905
269.77377 875.94684 2258.2378 7433056
283.70248 877.6496 2262.6274 8090733
297.16812 877.83075 2263.0945 5591368
315.37112 891.38623 2298.0413 6775898
326.30338 884.11975 2279.3079 6841437
341.30698 888.02374 2289.3726 8553339
351.78952 880.3158 2269.501 4079155
363.55109 876.25812 2259.0403 7894376
378.57016 880.0614 2268.8452 8288617
394.80576 886.3349 2285.0186 4603948
403.09494 874.94415 2255.6528 4801579
414.85458 871.57568 2246.9688 4406053
424.73389 864.58899 2228.9565 8090978
445.8761 880.25909 2269.355 5788225
457.94852 877.63025 2262.5776 6380104
461.01828 858.38855 2212.9714 6840654
484.60471 877.35535 2261.8689 4801071
501.22662 883.03186 2276.5032 5130547
516.58917 886.25037 2284.8008 3946273
536.55176 896.99457 2312.5 6512712
556.34198 906.92303 2338.0959 7104598
557.90723 887.38116 2287.7161 7038291
578.42932 898.20312 2315.6157 8025696
596.26923 904.45514 2331.7336 7038287
610.03931 904.39044 2331.5669 8485991
620.75629 899.90253 2319.9968 7630687
635.30347 901.04138 2322.9329 1512716
647.34119 898.64838 2316.7634 4275757
662.11664 900.07629 2320.4448 5130804
673.21704 896.55188 2311.3586 6315081
691.78882 902.91956 2327.7749 6447182
711.26654 910.19781 2346.5386 6709582
720.16864 903.92297 2330.3616 7499097
735.5788 905.89899 2335.4561 6906707
748.89301 905.26849 2333.8306 8222568
765.47638 908.54108 2342.2673 4274990
773.33838 901.53003 2324.1926 5656899
782.03571 895.72101 2309.2166 6380621
791.63232 891.12408 2297.3655 7564379
815.72455 902.72418 2327.271 8419946
822.3714 894.95343 2307.2378 8946288
826.40771 884.64252 2280.6555 8814956
842.66876 887.53888 2288.1226 7236185
850.67383 881.78546 2273.29 8025955
868.25275 885.98102 2284.1062 6906706
894.37976 898.63635 2316.7324 6709327
894.47247 885.14624 2281.9543 6248775
909.02496 886.15399 2284.5522 7235672
920.02148 883.71643 2278.2683 7038294
930.7099 881.05768 2271.4138 8223337
944.09796 880.99402 2271.2495 8815475
961.06683 884.22656 2279.5833 7499614
975.37164 884.95239 2281.4546 7762787
995.88916 891.2182 2297.6082 8683890
1023.435 903.51978 2329.3223 8289133
1038.1824 904.34546 2331.4509 7433823
1053.3352 905.49817 2334.4226 7236444
1074.6484 911.84802 2350.793 6709846
1060.4857 888.31891 2290.1335 6841432
1114.4082 921.69556 2376.1804 7170653
1130.016 922.94586 2379.4036 9210236
1131.5345 912.79962 2353.2461 8354926
1155.5289 920.81073 2373.8992 7828839
1165.7952 917.82111 2366.1919 6907481
1164.5876 905.97675 2335.6565 9407359
1203.5352 925.28186 2385.426 4801593
1214.62 922.96649 2379.4568 12038821
1218.8323 915.54187 2360.3159 10262154
1237.8538 919.28369 2369.9624 7630435
1254.0704 920.8819 2374.0828 7959913
1286.7405 934.39264 2408.9141 8223086
1291.6147 927.64386 2391.5154 6841176
1322.0369 939.19098 2421.2847 7038555
1325.8647 931.80035 2402.231 6841433
1337.9285 930.29309 2398.3452 9407360
1352.2662 930.38214 2398.575 7762791
1369.3875 932.36456 2403.6855 9012857
1387.632 935.06305 2410.6423 7763048
1400.6173 934.19867 2408.4141 7301983
1421.5625 938.60736 2419.78 7038810
1435.3293 938.23584 2418.822 6710101
1455.1953 941.81897 2428.0596 7696995
1475.1674 945.39996 2437.2915 7565409
1492.293 947.10504 2441.6873 7960423
1507.0471 947.28662 2442.1555 8026218
1509.1653 939.59772 2422.3333 8091753
1522.4119 938.91699 2420.5781 8486768
1530.1007 934.85333 2410.1018 8552305
1539.3954 931.83679 2402.325 7894374
1558.3394 934.66296 2409.6111 8618095
1602.0298 952.14569 2454.6824 8025958
1598.879 941.72473 2427.8167 9407611
1621.5323 946.55243 2440.2627 8091751
1650.8698 955.16217 2462.459 8025958
1682.4762 964.9223 2487.6213 8289130
1694.3568 963.29834 2483.4346 9276281
1682.1129 948.10468 2444.2644 9143412
1728.5659 965.97192 2490.3271 7366745
1754.6184 972.23285 2506.468 4075561
1753.9861 963.72656 2484.5386 1969931
1749.6808 953.36072 2457.8149 5719611
1737.3356 938.82141 2420.3315 8749168
1762.0509 944.38287 2434.6694 8486763
1757.144 934.10663 2408.1768 8618094
1785.1248 941.33844 2426.8208 8354153
1810.6952 947.19379 2441.9163 6643535
1850.0618 960.11621 2475.2307 7564637
1877.9497 966.92511 2492.7844 7301980
1836.4814 938.19592 2418.7192 8420461
1860.3796 943.04657 2431.2244 6315085
1879.2216 945.27936 2436.9807 8223339
1915.3514 956.10803 2464.8975 6315342
1914.0686 948.23834 2444.6089 8486512
1927.7524 947.84564 2443.5967 7696997
1949.7194 951.5011 2453.0205 7499619
1950.9829 945.07361 2436.4502 7762532
1960.4822 942.70074 2430.3328 8025962
1980.5396 945.40228 2437.2976 9012855
1985.9336 941.11591 2426.2471 9012855
2016.0577 948.52631 2445.3513 8947062
2044.026 954.82385 2461.5869 9473404
2040.8455 946.58472 2440.3459 8420715
2074.063 955.22504 2462.6211 8684145
2079.5913 951.08112 2451.938 5657667
2124.5906 964.9212 2487.6184 7960166
2135.0811 963.00586 2482.6804 7696993
2150.6282 963.38165 2483.6494 8223339
2175.2817 967.80408 2495.0505 8025960
2183.0193 964.69128 2487.0256 8157546
2193.3657 962.76556 2482.061 7039066
2220.0518 967.98987 2495.5295 6512464
2232.1052 966.80713 2492.4805 7763047
2245.1958 966.08624 2490.6218 7565411
2261.7021 966.8349 2492.552 8223599
2288.5452 971.96393 2505.7749 8486772
2291.0415 966.7533 2492.3416 9013114
2317.1709 971.51794 2504.625 8552050
2323.6875 968.05115 2495.6875 9933702
2356.7808 975.63007 2515.2266 9736577
2395.0786 985.25494 2540.0398 10657680
2374.739 970.7887 2502.7451 9604992
2391.582 971.60773 2504.8567 7631202
0 0 0 0
0 0 0 0
0 0 0 0
0 0 0 0
0 0 0 0
0 0 0 0
0 0 0 0
0 0 0 0
0 0 0 0
0 0 0 0
0 0 0 0
0 0 0 0
-1522.5681 694.02362 1762.3142 2892810
-1531.3163 702.83069 1784.6776 2958604
-1524.0439 704.35602 1788.5509 3814168
-1524.0378 709.28442 1801.0654 2892042
-1522.3209 713.48047 1811.7205 2826250
-1528.9323 721.66718 1832.5087 2498054
-1519.694 722.43628 1834.4617 788224
-1517.308 726.49744 1844.774 3814172
-1497.6399 722.28265 1834.0715 2498312
-1474.0558 716.10388 1818.382 5261874
-1463.7897 716.35168 1819.0112 1971969
-1455.887 717.76837 1822.6085 2498308
-1445.2659 717.85602 1822.8311 2629382
-1447.067 724.16156 1838.8425 2103041
-1428.1843 720.13318 1828.6135 2300424
-1415.8763 719.38391 1826.7108 2629387
-1404.7993 719.25317 1826.3789 2235144
-1399.1538 721.92303 1833.1583 2234630
-1389.0852 722.33459 1834.2035 3023630
-1388.4507 727.69708 1847.8203 2102532
-1366.5421 721.90637 1833.1161 3813148
-1369.1838 729.09601 1851.3724 2826252
-1367.7451 734.2113 1864.3616 4077345
-1354.478 733.00879 1861.308 4143138
-1347.0785 734.98785 1866.3335 5131063
-1338.5104 736.35681 1869.8097 2564370
-1348.0358 747.78552 1898.8302 6381904
-1328.4445 743.11896 1886.9806 4473902
-1335.4492 753.37708 1913.0286 2565397
-1323.7396 753.1629 1912.4849 2498829
-1306.1957 749.5968 1903.4296 2761746
-1289.7339 746.59515 1895.8075 1511686
-1271.65 742.59344 1885.6461 3024656
-1254.4082 739.01685 1876.5642 2695438
-1253.1661 744.88672 1891.4694 2761232
-1242.5394 745.23383 1892.3508 2564363
-1218.5172 737.47998 1872.6616 3419416
-1200.3114 733.13623 1861.6317 2827279
-1190.2537 733.7348 1863.1516 3485208
-1180.6276 734.6131 1865.382 4274981
-1163.3119 730.67822 1855.3901 6446663
-1150.615 729.59705 1852.6447 3551771
-1148.6683 735.37726 1867.3223 6117700
-1116.2848 721.59479 1832.3248 5459772
-1135.5905 741.2829 1882.3182 2762517
-1131.4827 745.92639 1894.1093 3880481
-1136.0956 756.46936 1920.8809 3419671
-1136.5538 764.43152 1941.0989 5591092
-1130.0388 767.81824 1949.6987 6051386
-1113.5212 764.40845 1941.0403 5393459
-1110.0529 769.979 1955.1854 5788217
-1090.9683 764.72058 1941.8329 3419671
-1079.5292 764.76648 1941.9495 6183234
-1070.837 766.78033 1947.0632 6840909
-1058.4329 766.151 1945.4652 5525307
-1044.7144 764.54608 1941.3898 5788993
-1034.9182 765.80786 1944.5938 6644815
-1027.7816 769.08807 1952.9231 4670510
-1017.5095 770.06995 1955.4164 5327924
-1017.0848 778.6131 1977.1099 5854014
-994.48322 770.1803 1955.6965 5262134
-970.64673 760.58093 1931.3213 6577737
-962.60315 763.27539 1938.1632 4801325
-959.95422 770.36395 1956.1631 4735533
-951.72223 773.0907 1963.0869 5394746
-932.99268 767.2522 1948.2614 6052678
-929.87988 774.27075 1966.0834 5986374
-922.13757 777.56366 1974.4451 7828833
-910.03076 777.21368 1973.5564 4407588
-901.73193 780.14923 1981.0104 4604713
-888.18146 778.55865 1976.9716 8683116
-870.48358 773.24152 1963.4698 1578246
-870.49774 783.72681 1990.0948 3090713
-858.98706 783.98157 1990.7418 2498578
-843.90637 780.93976 1983.0178 3222816
-846.13818 794.05896 2016.3309 1051908
-840.62494 800.18146 2031.8777 1710349
-830.71045 802.23151 2037.0834 4933689
-805.51526 789.36761 2004.4185 5855298
-792.24152 787.97607 2000.8848 5657919
-780.01605 787.60059 1999.9315 5658172
-770.69666 790.19318 2006.5149 4999988
-759.29028 790.69379 2007.786 6776658
-750.07654 793.52991 2014.9875 4473648
-739.40741 794.89313 2018.4493 7171161
-724.94879 792.1604 2011.5101 7301979
-715.75287 795.18304 2019.1854 4341548
-701.49414 792.58826 2012.5966 4604721
-690.92883 794.14893 2016.5593 7433310
-675.4342 789.99902 2006.0216 3815214
-667.04529 794.16028 2016.5883 4406834
-666.95367 808.53192 2053.0818 5854278
-655.117 808.93475 2054.1047 6446156
-637.99945 802.70868 2038.2949 4406570
-630.68781 808.81775 2053.8076 6577734
-617.047 806.89081 2048.9146 3617558
-600.841 801.46478 2035.1365 3946265
-583.81256 794.69708 2017.9513 5919798
0 0 0 0
0 0 0 0
0 0 0 0
0 0 0 0
-400.72882 607.69958 1543.114 256
-392.52054 609.14819 1546.7925 256
-379.47934 602.98669 1531.1467 4210221
-394.67062 642.48291 1631.4384 4998964
-474.02826 791.04065 2008.6666 6183492
-465.53519 796.87201 2023.4741 6973005
-451.9201 794.01245 2016.2129 6249025
-441.43878 796.65289 2022.9178 7235665
-434.58902 806.17767 2047.1036 7762009
-421.29276 803.9472 2041.4401 5327668
-409.25357 804.05487 2041.7134 6446152
-398.10629 805.97467 2046.5883 2761747
-390.50262 815.41467 2070.5588 2893077
-378.71225 816.44092 2073.165 4275243
-367.77823 819.44415 2080.791 5460290
-357.63486 824.47833 2093.5742 3026207
-344.16312 821.92566 2087.092 4341294
-332.14383 822.78052 2089.2629 6182982
-322.2999 829.29895 2105.8149 3683105
-311.06738 832.62567 2114.2622 5526078
-297.50357 829.72943 2106.908 6184006
-283.4996 825.29816 2095.6558 2696471
-270.14801 822.4472 2088.4165 7565404
-259.49139 827.92096 2102.3159 7039061
-244.61057 819.78973 2081.6685 6710352
-232.20308 819.52429 2080.9944 5657665
-220.82005 823.04749 2089.9407 6184008
-210.81123 832.41547 2113.7285 6052425
-195.6266 821.23865 2085.3477 7171422
-184.81593 828.15454 2102.9089 5394499
-175.95174 845.42273 2146.7576 4341557
-163.48396 846.71808 2150.0469 5065534
-149.41223 839.22321 2131.0154 8552561
-138.30937 848.55951 2154.7227 5394493
-125.51592 848.36774 2154.2356 7500124
-114.24368 859.57812 2182.7019 4802612
-102.26731 867.67596 2203.2646 6907988
-89.324936 868.74841 2205.9878 8486765
-76.645233 873.18085 2217.2429 8289642
-63.011562 866.33087 2199.8491 6579021
-49.410713 856.4776 2174.8289 5197365
-36.881016 864.78949 2195.9351 9144692
-23.886955 865.3385 2197.3291 7565405
-10.750514 855.86731 2173.2793 7631200
2.1095021 849.83136 2157.9524 6775891
14.924644 851.59717 2162.436 9210232
28.098625 862.74963 2190.7551 7960164
40.77911 856.48975 2174.8596 8289384
53.568161 854.96851 2170.9968 5394242
66.406105 854.66565 2170.2278 7828835
80.169167 864.43628 2195.0381 4275762
93.054955 863.34033 2192.2554 9012855
106.30534 865.48138 2197.6919 4143926
120.16285 871.55865 2213.1238 657413
132.20818 864.58936 2195.4268 5394246
146.65085 873.14191 2217.144 2828317
159.89578 873.74329 2218.6711 8684144
172.51872 871.11273 2211.9915 10263689
186.01726 872.96271 2216.689 5197112
198.95374 872.10486 2214.5107 8617834
212.84569 875.28241 2222.5793 8026210
222.4778 861.59253 2187.8171 5722936
232.7524 851.76117 2162.8525 3483920
249.7404 866.24164 2199.6226 8025437
264.80695 872.95166 2216.6611 7894369
279.20007 876.91278 2226.7192 6907218
290.97592 872.66675 2215.9375 4867893
307.38898 882.09442 2239.877 4867636
321.53781 884.51324 2246.019 7236444
333.09286 879.88831 2234.2749 6973277
345.25549 877.1604 2227.3481 6578517
362.31125 886.60718 2251.3362 7762535
373.8287 882.31171 2240.4287 7500128
390.54285 890.15552 2260.3462 4867632
401.51553 884.8266 2246.8147 5196337
411.52161 877.77795 2228.9163 5721914
423.08002 874.37573 2220.2771 5327155
442.05182 886.03802 2249.8909 9011564
450.11606 875.79456 2223.8799 6051392
467.38757 883.539 2243.5452 5459512
479.01068 880.47278 2235.759 5328183
492.33838 880.62042 2236.134 10526351
514.24713 895.70673 2274.4421 6250321
526.68396 893.94574 2269.9707 7828325
540.04254 893.79803 2269.5955 8617581
557.22803 899.8374 2284.9312 6512203
571.47626 900.95947 2287.7805 6248773
586.54736 903.29694 2293.7158 6051909
609.57422 917.50317 2329.7893 7959648
619.37927 911.62006 2314.8503 7301980
639.38538 920.68079 2337.8582 5854790
640.7486 903.08167 2293.1692 6315601
651.37976 899.00458 2282.8164 6052428
667.55542 902.5899 2291.9207 11710367
692.24298 917.31171 2329.3032 6315340
704.94238 915.88269 2325.6746 8551529
715.02039 911.16791 2313.7024 7038543
724.68817 906.11761 2300.8784 7170133
740.07953 908.27814 2306.3645 7235415
752.55414 906.84558 2302.7268 6577743
763.91577 904.14673 2295.8738 9670270
769.01282 894.25751 2270.7622 7828322
786.45203 898.81378 2282.332 7433566
805.79584 905.35602 2298.9443 8880499
813.96436 899.33325 2283.6511 8420459
826.83344 898.61627 2281.8303 8551532
840.4856 898.75977 2282.1946 8814704
839.31085 883.29462 2242.9246 7696478
860.77997 891.77063 2264.4475 8025441
878.32965 895.9884 2275.1575 5788479
890.46814 894.64203 2271.7388 4538413
901.7749 892.51263 2266.3315 8288360
918.75641 895.97968 2275.1355 7959652
924.03992 888.10345 2255.1355 6117448
944.48181 894.81299 2272.1729 6973015
961.15497 897.8136 2279.7922 7301723
970.82056 894.276 2270.8093 8091754
971.75006 882.89783 2241.917 8486512
993.89032 890.83795 2262.0791 6577488
1014.1553 896.90833 2277.4934 7169879
1021.3176 891.38354 2263.4644 4472368
1031.2855 888.41888 2255.9365 7104090
1037.2318 882.10999 2239.9165 6511954
1094.2274 918.82666 2333.1501 7170656
1096.908 909.58783 2309.6902 8486515
1107.0833 906.71497 2302.395 7038556
1086.5779 879.08972 2232.2473 7235933
1147.6199 917.31128 2329.302 6906453
1157.761 914.42194 2321.9651 8419949
1183.8721 924.06573 2346.4534 3682852
1198.6704 924.75812 2348.2117 8420973
1209.4415 922.36322 2342.1304 7565663
1218.9487 919.06976 2333.7673 6512208
1239.8304 924.3302 2347.125 9078393
1260.3633 929.21674 2359.5332 8157548
1263.8871 921.59344 2340.1758 5986379
