# .PCD v0.7 - Point Cloud Data file format
VERSION 0.7
FIELDS x y z rgb
SIZE 4 4 4 4
TYPE F F F U
COUNT 1 1 1 1
WIDTH 1327
HEIGHT 1
VIEWPOINT 0 0 0 1 0 0 0
POINTS 1327
DATA ascii
-181.91663 856.58832 5262.6021 8028047
-150.65938 856.13141 5259.7949 6580340
-119.16298 853.72284 5244.9976 6382959
-89.567268 868.03558 5332.9307 3685703
-57.614838 862.66113 5299.9116 7369855
-26.146774 860.35175 5285.7236 7238270
5.1907196 864.29321 5309.9385 6843770
36.798817 867.8501 5331.791 6251632
68.754784 872.53589 5360.5786 7501184
101.22697 878.74176 5398.7061 4803414
135.05292 890.89813 5473.3906 1908259
163.06503 867.42065 5329.1528 1776679
197.52516 880.29596 5408.2544 3092539
231.42194 887.41718 5452.0044 3158588
269.66351 907.41412 5574.8594 3487811
304.83203 913.83478 5614.3062 5790566
345.55771 934.01276 5738.2729 5329758
373.33557 918.71393 5644.2817 4342864
411.69409 929.82715 5712.5576 3619142
442.17712 922.81598 5669.4834 4277071
470.91174 913.4035 5611.6562 6513776
515.64954 934.22595 5739.583 4211535
556.14624 945.26379 5807.3955 5395812
592.70776 948.71667 5828.6094 4277334
629.80273 952.59631 5852.4443 3290439
675.14539 967.89502 5946.4346 6448756
697.95142 950.96985 5842.4521 6382959
730.18994 947.88867 5823.5225 5658469
764.21729 947.30292 5819.9238 5131866
792.32312 939.74463 5773.4878 4013385
823.73199 936.5672 5753.9668 4210764
856.90399 935.56732 5747.8237 3223870
891.42584 936.06128 5750.8584 1447455
943.11609 953.88336 5860.3516 4276555
994.95074 970.58081 5962.9351 5132380
1029.6841 970.02271 5959.5063 3224640
1077.4197 981.34436 6029.063 4869467
1097.9633 967.96692 5946.8765 5528166
1117.2522 954.34961 5863.2158 3619397
1180.0035 977.55951 6005.8101 4737621
1223.2922 983.75879 6043.8965 3158591
1261.8629 985.91943 6057.1709 4539989
1307.1187 993.03925 6100.9126 4539475
1327.5786 981.44501 6029.6812 4605267
1406.1677 1012.3058 6219.2803 5263195
1455.7518 1021.243 6274.1875 4276556
1462.4966 1000.4305 6146.3228 2763316
1495.1257 997.90564 6130.8101 4144713
1532.8645 998.8299 6136.4888 3421249
1548.6699 985.75055 6056.1328 3355969
1597.948 994.08685 6107.3486 4671831
1623.5524 987.65259 6067.8184 5461346
1661.6494 988.93201 6075.6792 5066590
1710.1792 996.23474 6120.5444 4868952
1765.5334 1007.1271 6187.4639 5000025
1774.0386 991.39539 6090.8135 4341581
1831.239 1002.9611 6161.8696 4999513
1886.8068 1013.1981 6224.7622 5459548
1937.0603 1020.2435 6268.0469 3683136
1991.3065 1029.0873 6322.3799 4473164
2006.9109 1018.0035 6254.2847 3420734
1997.9916 995.1073 6113.6182 4670291
2048.0476 1001.8765 6155.2056 5327706
2087.7661 1003.4402 6164.813 4537929
2122.6165 1002.6508 6159.9629 4536385
2217.4326 1029.735 6326.3599 5259334
2193.3889 1001.64 6153.7524 1443849
2263.7549 1016.8721 6247.334 3679782
2381.5894 1052.594 6466.7974 6637128
2440.438 1061.5273 6521.6816 9597042
2472.7554 1058.8218 6505.0596 10979205
2538.9502 1070.4828 6576.7007 10452342
2609.1714 1083.4634 6656.4487 10648942
2651.3516 1084.5865 6663.3496 11240820
2665.0356 1074.1909 6599.4824 10648682
2671.5227 1061.2371 6519.8979 11174773
2754.2664 1078.5129 6626.0352 10385262
2908.6833 1122.9746 6899.1934 10451313
2941.6406 1119.9609 6880.6792 10714228
2928.4373 1099.6956 6756.1743 11437695
2991.0356 1108.0581 6807.5513 11635072
3007.7327 1099.4197 6754.4795 11569792
2969.4255 1071.1664 6580.9004 9596774
3137.3098 1117.0613 6862.8638 7623499
3207.4932 1127.4398 6926.626 9597544
3238.1355 1123.8328 6904.4658 10584183
3323.0762 1138.9258 6997.1924 10386291
3361.2087 1137.8018 6990.2871 11110014
3465.0559 1158.6794 7118.5527 10781049
3525.1738 1164.6083 7154.9775 10386036
3590.2595 1172.0179 7200.5 10583415
3666.3826 1182.8142 7266.8291 10649207
3731.2998 1189.787 7309.667 10452341
3817.7617 1203.3906 7393.2432 10518132
3817.5017 1189.6603 7308.8887 10649462
3869.1565 1192.2349 7324.7065 10584184
3951.1565 1203.9991 7396.9819 11439492
3962.3455 1194.1644 7336.561 10649979
4135.0693 1232.6981 7573.2993 8873311
4229.9722 1247.4542 7663.9561 8609885
4217.6953 1230.6246 7560.5605 8609885
4315.9648 1246.0646 7655.4189 8741471
4453.9336 1272.5259 7817.9888 8938850
4536.6016 1282.8051 7881.1406 8872800
4595.0366 1286.0927 7901.3384 8741470
4652.6255 1289.0792 7919.687 8281433
4686.5811 1285.5236 7897.8423 8018006
4720.8081 1282.1121 7876.8828 7557713
4698.6064 1263.5919 7763.1011 8083804
4900.7539 1305.1801 8018.6055 7491923
4886.0503 1288.772 7917.7988 7163473
4970.4438 1298.5656 7977.9678 8545123
5084.1768 1315.7677 8083.6519 7492433
5071.7275 1300.298 7988.6108 7624020
5322.1001 1351.874 8305.4775 7689302
5599.6943 1409.3564 8658.6309 9070959
5664.6294 1412.7582 8679.5303 9860219
5885.8398 1454.723 8937.3486 9137781
5937.2334 1454.3424 8935.0107 8940659
6015.7915 1460.564 8973.2334 8941429
6104.5469 1469.1306 9025.8643 8481649
6117.9927 1459.5817 8967.1982 7955818
6231.3418 1473.8262 9054.7119 8745848
6466.9453 1516.4958 9316.8613 8746617
6681.4023 1553.5267 9544.3662 10260114
6694.2202 1543.4452 9482.4287 10984867
6633.3843 1516.6909 9318.0596 11116710
6789.5439 1539.5839 9458.7061 10986408
6848.1772 1540.1681 9462.2959 11052714
6914.4956 1542.4572 9476.3594 11447986
6990.9062 1546.9427 9503.917 11053742
7065.0806 1550.8656 9528.0176 11251381
7038.189 1532.717 9416.5186 11514811
7167.2451 1548.5476 9513.7773 11974596
6988.1431 1498.0708 9203.6631 12106439
7162.731 1523.6097 9360.5664 11908291
7177.4067 1515.0022 9307.6846 11317437
7052.3906 1477.2648 9075.8379 11383486
7097.6113 1475.4879 9064.9219 12042696
7265.8687 1499.1235 9210.1309 12372945
7466.6548 1529.0679 9394.0996 12110798
7716.4141 1568.5243 9636.5068 12307921
7743.1201 1562.3936 9598.8418 12307667
7983.5303 1599.1588 9824.7158 12176081
7995.8579 1590.036 9768.668 11978190
8083.0459 1595.824 9804.2275 12043724
8284.4961 1623.9266 9976.8818 11780298
8508.3438 1655.9908 10173.873 11845320
8776.0107 1696.0725 10420.122 11911367
8516.7676 1634.4735 10041.678 11911107
8857.752 1688.1211 10371.271 10528683
9154.3164 1732.6226 10644.674 10856621
9227.2373 1734.4757 10656.06 11120305
9298.1523 1735.9293 10664.99 11777206
9547.1123 1770.3795 10876.641 12566465
9205.1064 1695.5156 10416.701 12368829
9350.1748 1710.7673 10510.402 11381936
8759.6514 1592.119 9781.4648 9736854
8756.1543 1581.0244 9713.3037 7828602
8776.6943 1574.3866 9672.5234 6908012
9039.709 1611.0486 9897.7617 7828600
9318.7402 1650.0739 10137.521 6973546
9493.1621 1670.1949 10261.139 8092027
9293.5713 1624.6759 9981.4844 7631475
9223.3574 1602.207 9843.4424 7697012
9060.3193 1563.9968 9608.6914 7960950
9163.5156 1571.9343 9657.458 8224377
9115.2129 1553.9464 9546.9453 8553599
0 0 0 0
0 0 0 0
0 0 0 0
0 0 0 0
0 0 0 0
0 0 0 0
0 0 0 0
0 0 0 0
-2533.4993 481.4747 2854.144 5789241
-2507.6904 479.77188 2844.05 6447428
-2475.2292 476.76474 2826.2239 7039564
-2450.5674 475.22906 2817.1206 8158559
-2407.667 470.11118 2786.7822 7237455
-2373.3015 466.60062 2765.9719 6711109
-2414.1882 477.93903 2833.1851 6118197
-2396.4092 477.74072 2832.0095 6907981
-2394.1521 480.65588 2849.2905 7960416
-2334.7903 472.06656 2798.3735 8421481
-2357.6309 480.09357 2845.9568 7434075
-2351.969 482.39032 2859.5718 8421740
-2343.5352 484.14777 2869.99 4672053
-2324.2996 483.68298 2867.2349 9014136
-2343.4824 491.26517 2912.1814 7961706
-2349.8242 496.24789 2941.7185 8027502
-2352.0801 500.43576 2966.5439 3684908
-2326.3093 498.67883 2956.1289 6250836
-2328.9749 503.03711 2981.9646 6645594
-2309.3411 502.6088 2979.4255 5000768
-2312.8 507.23849 3006.8701 3948081
-2295.3628 507.32166 3007.363 2763809
-2272.9204 506.29123 3001.2546 1711120
-2333.5271 523.88953 3105.5759 3553325
-2361.0471 534.28027 3167.1716 4079925
-2327.7349 530.96155 3147.4983 2697762
-2287.907 526.091 3118.6262 3224362
-2262.7627 524.5451 3109.4622 7369580
-2211.5027 516.87006 3063.9651 2632229
-2203.3921 519.23627 3077.9917 1776920
-2186.6853 519.59937 3080.144 1711124
-2162.0964 518.07977 3071.1362 6184776
-2151.5369 519.92462 3082.0725 7105360
-2119.8999 516.66418 3062.7446 8486751
-2099.9717 516.22571 3060.1453 6380861
-2100.959 520.96582 3088.2444 6841661
-2083.9158 521.27911 3090.1016 5196324
-2040.2668 514.88361 3052.1897 8485726
-2025.5583 515.74255 3057.2812 4736543
-1998.3628 513.40887 3043.4475 6841410
-1995.0977 517.23676 3066.1387 6380604
-2021.4813 528.89209 3135.231 6578245
-2011.4696 531.15302 3148.6335 5854782
-2003.933 534.11603 3166.1978 7829088
-1995.214 536.81683 3182.208 7434588
-1965.6681 533.91217 3164.9895 7960676
-1937.66 531.37335 3149.9395 3618340
-1929.3744 534.24628 3166.97 4737331
-1907.7145 533.43597 3162.1665 6710869
-1911.9498 539.92212 3200.616 7632231
0 0 0 0
0 0 0 0
0 0 0 0
0 0 0 0
0 0 0 0
0 0 0 0
0 0 0 0
0 0 0 0
0 0 0 0
-783.60175 245.6451 1456.1649 13
-774.23254 245.40976 1454.7698 17
-765.74176 245.45064 1455.0122 19
-758.66479 245.95082 1457.9772 21
-750.74268 246.18536 1459.3676 26
-742.39526 246.28429 1459.954 25
-734.92578 246.68025 1462.3011 24
-726.40778 246.72951 1462.5931 25
-725.85736 249.51884 1479.1282 24
-717.94257 249.8139 1480.8772 24
-711.48358 250.62904 1485.7094 24
-703.67975 250.98495 1487.8191 24
-695.46423 251.20119 1489.101 23
-687.94983 251.67949 1491.9363 23
-680.24756 252.10059 1494.4325 23
-672.11987 252.37306 1496.0477 22
-663.38739 252.42271 1496.342 22
-655.91943 252.96136 1499.535 22
-648.42908 253.50606 1502.764 22
-638.81427 253.22379 1501.0907 21
-630.435 253.43024 1502.3145 21
-623.05646 254.05061 1505.9921 20
-615.47119 254.6035 1509.2697 15
-607.81158 255.14153 1512.4589 6
-593.33173 252.78981 1498.5182 2301978
0 0 0 0
0 0 0 0
0 0 0 0
-1341.486 607.92566 3603.7356 2960154
-1311.0858 603.75775 3579.0286 8092003
-1295.6489 606.45673 3595.0278 7763293
-1283.3152 610.72266 3620.3159 5460538
-1262.9889 611.26532 3623.5327 7501147
-1255.6605 618.22632 3664.7971 6974549
-1250.375 626.45575 3713.5806 7830375
-1221.8152 623.11041 3693.7495 6909277
-1182.392 614.00177 3639.7542 7040867
-1173.9038 620.9173 3680.749 6580834
-1158.6462 624.44635 3701.6689 8093562
-1141.9089 627.29865 3718.5771 5724499
-1152.3743 645.50073 3826.4775 5066824
-1119.4352 639.63245 3791.6909 6118997
-1100.603 641.74945 3804.2402 5790284
-1061.8356 632.08789 3746.9675 6447953
-1046.7081 636.38666 3772.4502 6184007
-1019.4973 633.36615 3754.5449 6841933
-1005.4114 638.54663 3785.2544 5328175
-976.32306 634.21796 3759.5942 5657394
-958.15198 636.94458 3775.7573 5066303
-928.5899 632.04816 3746.7319 3355673
-911.93658 635.91357 3769.6458 5921851
-885.14661 632.72705 3750.7563 4934959
-864.29767 633.7326 3756.7173 5066810
-856.83057 644.86261 3822.6951 7764070
-834.07202 644.77606 3822.1819 8488053
-822.29224 653.40857 3873.3545 7501163
-792.07861 647.4682 3838.1409 5461326
-792.3783 666.85657 3953.0732 6250590
-796.74121 690.94952 4095.8945 5132367
-864.01361 772.82611 4581.2524 5921888
-832.47015 768.76001 4557.1489 2566447
-816.57324 779.35461 4619.9531 2237740
-792.64001 782.74823 4640.0698 2961467
-775.02026 792.8443 4699.9185 4014413
-743.16565 788.58789 4674.687 4803415
-728.38074 802.81604 4759.0308 1908521
-704.58429 807.85767 4788.917 3355968
-683.03845 816.01117 4837.25 3158845
-652.52954 813.70172 4823.5601 3553861
-621.89349 811.01508 4807.6338 3488069
-595.55267 813.94073 4824.9766 6777976
-556.42249 798.80103 4735.2295 5593957
-539.28961 815.30963 4833.0913 5264479
-514.92377 822.12146 4873.4712 4343118
-487.40466 824.40894 4887.0312 5000531
-459.89194 826.99689 4902.3726 6119011
-433.26486 831.63373 4929.8594 2565932
-411.92313 847.81909 5025.8047 3026745
-379.64694 842.26788 4992.8979 2763318
-348.44955 838.37421 4969.8164 3355712
-321.12143 843.93048 5002.7534 4737877
-290.61935 841.427 4987.9136 2566196
-261.83755 843.90143 5002.5811 6185067
-232.31412 844.31201 5005.0156 4343377
-202.56926 843.92047 5002.6943 4211536
-173.71933 847.76178 5025.4653 3356485
-144.67993 852.07635 5051.042 2960695
-115.36831 856.61969 5077.9741 5724775
-85.733665 861.12366 5104.6738 6975098
-56.302746 873.69824 5179.2144 5790824
-25.568686 871.95142 5168.8594 4869979
5.0029469 863.34692 5117.853 6054511
36.141735 883.37634 5236.5859 5001308
67.989784 894.23151 5300.9341 5001821
99.257561 893.00659 5293.6729 5066587
130.90245 894.94794 5305.1812 5461857
161.59363 890.87976 5281.0654 5725029
193.38939 893.23328 5295.0166 6975096
224.37206 891.69836 5285.918 4277326
254.6348 888.02875 5264.1646 3684674
296.23798 920.39398 5456.0234 4803926
321.35175 900.19958 5336.3125 5198941
358.31015 913.83124 5417.1196 5462115
393.37177 920.78174 5458.3218 6909563
427.96399 925.66107 5487.2461 3882829
456.99255 918.66718 5445.7871 3290436
502.51648 943.56885 5593.4019 6514295
540.54846 952.1922 5644.5205 5856363
580.76636 963.43701 5711.1792 4277588
614.10986 962.66772 5706.6187 4408918
646.89514 961.14917 5697.6167 6119790
686.90948 969.9895 5750.0215 4935260
720.41699 969.24017 5745.5796 4277072
744.92017 956.99078 5672.9663 5592417
776.14929 954.06665 5655.6323 5724002
810.51282 955.078 5661.6274 3684417
847.87109 959.39764 5687.2339 2763315
884.71423 962.82654 5707.5601 2368303
907.87793 951.66382 5641.3882 4540504
948.05225 958.49158 5681.8628 3882318
985.92804 962.60706 5706.2593 5592939
1049.8712 991.0567 5874.9062 4606300
1078.9104 985.78918 5843.6812 4935262
1114.9275 987.02655 5851.0161 4013904
1148.5386 986.12372 5845.6641 4079695
1169.6371 974.84497 5778.8042 3093058
1227.2726 993.79358 5891.1304 3355714
1248.2449 982.82721 5826.1226 4803931
1280.3716 980.99707 5815.2734 5001824
1319.9515 984.82373 5837.958 5593961
1379.8898 1003.2567 5947.2271 4080466
1413.7701 1002.298 5941.5439 4474709
1452.7432 1004.9086 5957.019 4408401
1488.8706 1005.4736 5960.3687 2434865
1504.1495 992.25909 5882.0342 3552575
1546.38 997.01996 5910.2559 4802900
1595.3466 1005.8168 5962.4028 2829111
1627.3031 1003.7405 5950.0947 3421248
1656.3931 1000.0216 5928.0498 3486529
1726.5691 1020.7473 6050.9102 5065819
1744.4121 1010.3199 5989.0972 5724519
1810.241 1027.5464 6091.2144 5263456
1851.2808 1030.3033 6107.5576 5263454
1867.2665 1019.2787 6042.2041 4539215
1924.4813 1030.751 6110.2109 4605007
1938.9319 1019.3179 6042.4365 4604492
1969.7395 1016.7427 6027.1704 3881023
2017.7037 1022.9573 6064.0103 2103840
2084.8826 1038.5256 6156.2988 3683127
2098.2051 1027.1931 6089.1196 920332
2134.4146 1027.2587 6089.5083 2367012
2165.3054 1024.8047 6074.9619 4341573
2184.1526 1016.8242 6027.6538 4341063
2242.4395 1027.166 6088.9595 2301733
2292.0791 1033.2822 6125.2158 6313826
2302.8228 1021.9465 6058.0186 6247007
2346.6584 1025.4189 6078.603 393480
2381.9526 1025.1105 6076.7739 919308
2390.8718 1013.6293 6008.7148 1708050
2497.2556 1043.1996 6184.0054 4992561
2553.6709 1051.3429 6232.2783 6110783
2652.8616 1076.6138 6382.0815 7622992
2752.438 1101.3287 6528.5903 8741216
2798.2993 1104.1636 6545.395 8280919
2843.905 1106.8215 6561.1509 8346196
2891.9111 1110.3293 6581.9448 7688263
2917.5693 1105.2777 6551.9995 8543315
2991.2578 1118.3153 6629.2852 8477780
3058.2725 1128.5522 6689.9692 8478040
3166.2905 1153.4646 6837.6479 8280921
3230.5554 1162.01 6888.3037 8281180
3302.5576 1173.0903 6953.9878 8807783
3361.6333 1179.3628 6991.1699 7887194
3427.2764 1187.7585 7040.939 8150368
3482.9033 1192.5228 7069.1821 7822430
3565.8772 1206.4261 7151.5996 6506570
3620.2039 1210.4247 7175.3022 6836306
3668.3328 1212.2821 7186.313 8679283
3675.5391 1200.7285 7117.8242 9929352
3740.9431 1208.2332 7162.3115 10522520
3830.2371 1223.199 7251.0273 10720671
3839.968 1212.7058 7188.8252 10654878
3890.5527 1215.2036 7203.6313 10391708
3910.3523 1208.1357 7161.7339 9996947
3945.6995 1205.9717 7148.9053 10326686
3927.3589 1187.6185 7040.1094 11182510
4055.9722 1213.6224 7194.2588 11446454
4162.2085 1232.4596 7305.9233 11513531
4229.1953 1239.4065 7347.104 12303043
4350.1206 1261.858 7480.1953 13093067
4620.9111 1326.8904 7865.7021 13487823
4643.0171 1319.9277 7824.4282 14145236
4666.8926 1313.6008 7786.9224 14144726
4682.3564 1305.0532 7736.2534 13815249
4717.3853 1302.0717 7718.5781 13682894
4798.4443 1311.7302 7775.834 13682638
4788.8984 1296.6725 7686.5723 13748942
4827.0571 1294.6934 7674.8408 14143700
4870.6836 1294.2042 7671.9414 14013397
4857.918 1278.8785 7581.0918 13882324
4964.917 1295.0736 7677.0947 13685202
5293.9307 1368.3605 8111.5332 13488849
5097.3892 1305.7067 7740.1265 13291216
5172.7437 1313.1958 7784.5215 13028559
5238.6748 1318.1814 7814.0762 12766671
5307.3989 1323.7765 7847.2432 12241101
5344.9121 1321.5571 7834.0869 12044235
5411.9863 1326.6223 7864.1128 11978445
5481.8833 1332.287 7897.6924 11913165
5550.249 1337.4867 7928.5166 11979212
5688.9844 1359.4146 8058.5029 11913674
5849.9971 1386.2565 8217.6191 11979723
5834.2915 1371.1243 8127.9175 12307918
6006.4409 1400.0266 8299.248 12176588
5968.4805 1379.8833 8179.8398 12438476
6100.7178 1399.0963 8293.7334 12438731
6157.9604 1400.9412 8304.6689 12569546
6246.2378 1409.7611 8356.9531 12832203
6401.1079 1433.354 8496.8096 13029068
6485.9497 1441.0201 8542.2539 12634052
6547.1313 1443.3514 8556.0742 12567745
6653.2188 1455.4707 8627.916 12369597
6766.0913 1468.8782 8707.3945 12040374
6836.5483 1472.9442 8731.498 12303290
6802.8799 1454.684 8623.252 11513520
6925.5825 1469.8838 8713.3555 11578801
6999.5679 1474.5955 8741.2861 11250092
6993.3809 1462.472 8669.4199 9934747
7015.4629 1456.394 8633.3896 9606038
7361.605 1517.1913 8993.791 9277587
7522.6143 1539.2341 9124.459 9342866
7579.3062 1539.7698 9127.6338 9540501
7568.5967 1526.7019 9050.1689 8750985
7642.0347 1530.6722 9073.7051 9606033
7744.0034 1540.2618 9130.5518 10592925
7431.9375 1467.9393 8701.8291 10855839
7399.1377 1451.3932 8603.7451 9934480
7404.2407 1442.4576 8550.7754 9605516
7487.0586 1448.6805 8587.6641 9474185
7689.8784 1477.8818 8760.7676 9539978
7698.5571 1469.6311 8711.8574 9539979
8048.2812 1526.1609 9046.9619 9540236
8267.1787 1557.2987 9231.5449 9737103
8404.3662 1572.7369 9323.0615 9605517
8505.3838 1581.2491 9373.5205 9737358
8669.6387 1601.3309 9492.5645 9868175
8705.2637 1597.5485 9470.1426 10197139
9068.4551 1653.543 9802.0732 9341828
8774.0283 1589.6776 9423.4844 9144450
8759.5059 1577.0126 9348.4062 9012865
8743.7891 1564.2927 9273.0039 9012609
8803.2188 1565.0916 9277.7402 8749693
8701.7559 1537.4539 9113.9053 8223349
0 0 0 0
0 0 0 0
0 0 0 0
0 0 0 0
0 0 0 0
0 0 0 0
0 0 0 0
0 0 0 0
-2523.4929 496.41489 2842.8716 4867625
-2480.6804 491.27164 2813.4172 5196591
-2474.0127 493.26538 2824.835 5920569
-2428.9509 487.5791 2792.2708 7237200
-2391.2905 483.31082 2767.8271 5855289
-2373.4436 483.01581 2766.1377 8289631
-2353.1401 482.21329 2761.5417 5526581
-2399.3254 495.12 2835.4558 7828830
-2400.2522 498.80338 2856.55 6973778
-2363.3479 494.62152 2832.6013 4342315
-2373.3508 500.26718 2864.9329 6447439
-2327.5142 494.13925 2829.8394 5592641
-2327.6306 497.74915 2850.5125 7961194
-2328.6758 501.61188 2872.6335 7369313
-2324.2329 504.34055 2888.2603 5921870
-2327.7024 508.83942 2914.0244 6514263
-2309.1384 508.55298 2912.384 6974814
-2306.844 511.87234 2931.3936 3093030
-2331.4158 521.24872 2985.0898 8422262
-2313.6777 521.23657 2985.0205 3750701
-2322.1594 527.1767 3019.0386 3224357
-2304.5193 527.23279 3019.3599 3026468
-2319.5317 534.8186 3062.802 1710608
-2320.7107 539.3092 3088.519 1644816
-2304.2695 539.74402 3091.0088 2500125
-2297.4392 542.4549 3106.5337 2368540
-2284.0288 543.64343 3113.3401 526340
-2239.5149 537.38782 3077.5154 855304
-2238.0232 541.43774 3100.7085 460549
-2183.5769 532.63739 3050.311 8092780
-2168.041 533.26093 3053.8818 8421748
-2161.9519 536.23804 3070.9309 5131834
-2145.0627 536.56415 3072.7986 8554091
-2116.3823 533.92114 3057.6624 6579269
-2094.6965 533.01239 3052.4583 7631700
-2078.5352 533.50568 3055.2834 4933922
-2066.2158 535.0025 3063.8555 6644027
-2042.7206 533.60651 3055.8606 8880990
-2020.7323 532.58264 3049.9971 5788464
-2003.3243 532.75842 3051.0037 5656624
-2008.0835 538.88611 3086.0959 2696208
-1984.2354 537.37885 3077.4641 7171152
-1960.7686 535.94788 3069.2693 6973777
-1976.7552 545.37512 3123.2571 5460541
-1971.2417 548.99261 3143.9741 8487277
-1955.6906 549.85699 3148.9243 7631968
-1945.1412 552.1579 3162.1011 8554097
-1930.5038 553.33179 3168.8237 3553571
0 0 0 0
-1910.8121 558.55078 3198.7117 8093294
0 0 0 0
0 0 0 0
0 0 0 0
0 0 0 0
0 0 0 0
0 0 0 0
0 0 0 0
0 0 0 0
0 0 0 0
-785.34155 254.83633 1459.3981 13
-777.53375 255.11128 1460.9727 263443
-772.15137 256.19714 1467.1913 18
-755.42181 253.49994 1451.7449 20
-746.50934 253.39404 1451.1384 22
-739.82397 254.05045 1454.8975 22
-732.44104 254.47995 1457.3572 21
-728.46417 256.11722 1466.7335 21
-721.43115 256.70657 1470.1086 21
-719.42615 259.12128 1483.9373 21
-712.42297 259.77325 1487.6709 21
-704.69775 260.17496 1489.9714 21
-696.02905 260.23413 1490.3103 20
-688.30676 260.6532 1492.7102 20
-681.48279 261.42783 1497.1462 19
-672.84369 261.51733 1497.6589 19
-672.203 264.75958 1516.2266 19
-664.72058 265.35837 1519.6559 19
-658.32733 266.41443 1525.7036 19
-649.4024 266.46106 1525.9707 19
-634.91809 264.19571 1512.9974 18
-622.52655 262.74881 1504.7113 18
-614.53015 263.14178 1506.9619 15
-605.93994 263.28839 1507.8015 7
-604.28467 266.49777 1526.1809 4209981
0 0 0 0
0 0 0 0
0 0 0 0
-1323.6495 620.90814 3555.8203 6710350
-1305.7827 622.43286 3564.552 6250060
-1282.7407 621.50037 3559.2117 8223844
-1266.5063 623.89001 3572.897 5198134
-1260.6364 631.55341 3616.7834 4737582
-1238.0847 630.97998 3613.4998 6119507
-1223.8671 634.70862 3634.8528 1909013
-1199.3477 633.13245 3625.8264 8553594
-1169.9219 628.86145 3601.3674 6316891
-1144.4515 626.59753 3588.4023 7764082
-1128.5293 629.57452 3605.4507 6316893
-1130.394 642.78058 3681.0793 3685171
-1133.2745 657.09515 3763.0564 5724236
-1161.5546 687.00702 3934.3555 5790540
-1097.5819 662.46313 3793.7976 2631961
-1068.8141 658.58588 3771.5933 5460541
-1041.8865 655.70105 3755.0723 5262132
-1015.9733 653.34271 3741.5667 6250052
-996.41949 655.05994 3751.4009 5790010
-985.67175 662.77686 3795.594 8882027
-964.88208 663.94403 3802.2783 5723961
-932.87274 657.26215 3764.0127 5263663
-913.2392 659.18604 3775.0303 3618842
-863.55548 638.97144 3659.2651 4869428
-865.09302 656.59192 3760.1741 5461311
-854.46735 665.66815 3812.1521 5527111
-855.90936 684.89362 3922.2527 7895918
-824.47339 678.14923 3883.6287 4935497
-796.61182 674.04205 3860.1077 5856856
-794.6015 692.21222 3964.1646 5658969
-791.849 710.82294 4070.7446 5988449
-770.53491 713.41705 4085.6008 3883075
-799.40021 764.14606 4376.1157 4540235
-778.00671 768.62292 4401.7539 4211272
-771.64697 788.77795 4517.1777 3552828
-748.61835 792.72998 4539.8105 1514016
-737.86536 810.45996 4641.3467 2369073
-706.53375 806.08435 4616.2886 2171695
-693.20996 822.72876 4711.6079 2698039
-661.16797 817.62225 4682.3638 4079690
-638.79559 824.54993 4722.0371 4014154
-605.22711 816.99847 4678.7915 5067098
-574.58942 812.86835 4655.1392 4408913
-548.23334 814.68433 4665.5386 5922409
-530.74713 830.57367 4756.5337 4277584
-498.07672 823.15051 4714.0229 5132893
-470.96704 824.58148 4722.2178 4342864
-452.95691 843.1308 4828.4463 3816776
-416.14288 826.82019 4735.0386 2961211
-384.36093 818.8725 4689.5234 4671828
-361.00421 829.03448 4747.7192 4606037
-340.40427 847.77954 4855.0688 4277071
-311.77084 848.13086 4857.0806 5330014
-288.14651 863.56555 4945.4722 3816775
-254.75233 849.90021 4867.2134 3422016
-228.3981 859.2309 4920.6484 4474961
-199.23744 859.18939 4920.4106 4738135
-169.49884 856.21423 4903.3726 6449270
-140.49467 856.4856 4904.9263 5725548
-111.36223 855.9126 4901.645 5133669
-82.32093 855.88306 4901.4761 5725549
-54.482521 875.14307 5011.7744 3620430
-24.688276 871.49451 4990.8794 5002339
4.8663659 869.2691 4978.1353 6581112
35.228592 891.29633 5104.2808 4738134
64.769516 881.7937 5049.8608 2698551
93.903221 874.50348 5008.1113 3619138
126.58775 895.84253 5130.3159 2764084
156.90671 895.41919 5127.8916 2040107
182.55965 872.82477 4998.4976 1447197
215.4622 886.36041 5076.0137 1842213
247.84177 894.69238 5123.7295 4605520
279.8186 899.91119 5153.6162 4277324
317.72449 921.29529 5276.0791 4211790
350.6712 925.7569 5301.6299 7633283
381.28812 923.84003 5290.6523 6448755
414.05103 927.01904 5308.8579 5001052
448.74796 933.77356 5347.5396 5198431
487.67984 947.86841 5428.2583 4474452
527.33618 961.54041 5506.5552 4737625
561.02563 963.37335 5517.0518 5922155
584.25189 948.02643 5429.1631 5790312
625.3338 961.74249 5507.7124 4671572
654.88043 957.23712 5481.9111 1974055
679.27203 945.97839 5417.4346 657678
695.2439 924.53894 5294.6548 592143
729.85016 928.66089 5318.2603 1644832
785.42383 958.0166 5486.375 6053221
830.53986 972.79047 5570.9819 6053740
854.12946 962.18536 5510.2485 4606037
904.01971 980.89832 5617.4136 5000794
943.66943 987.56555 5655.5957 3882057
977.84277 988.24103 5659.4639 5461344
1001.4466 978.5437 5603.9297 4671831
1033.2717 977.24445 5596.4888 3750728
1076.4479 986.42773 5649.0796 5395294
1118.1281 993.7276 5690.8848 3356482
1154.9332 996.39429 5706.1567 4935260
1206.8087 1011.5413 5792.9004 4080464
1228.4481 1001.2076 5733.7217 5330531
1288.8916 1022.2051 5853.9702 3817292
1304.4589 1007.4441 5769.4365 5659238
1339.7559 1008.2852 5774.2529 5725031
1362.593 999.94061 5726.4653 4474449
1406.7649 1007.2778 5768.4839 2434604
1421.1667 993.4563 5689.3311 3420985
1465.9716 1001.0358 5732.7378 2433837
1488.3813 993.32611 5688.5854 1447450
1512.3794 986.99414 5652.3237 4408143
1582.9565 1010.6761 5787.9458 3947850
1631.3855 1019.5126 5838.5503 4145485
1639.5232 1003.3255 5745.8501 6382189
1704.0208 1021.5854 5850.4209 3750983
1767.0093 1038.2307 5945.7456 5527141
1829.955 1054.2007 6037.2021 5987692
1837.6183 1038.3218 5946.2666 4605523
1876.5248 1040.3616 5957.9487 5197660
1870.5248 1017.8895 5829.2549 5592158
1968.7296 1051.9093 6024.0801 4079173
2004.623 1052.0171 6024.6973 3289401
2056.6658 1060.4481 6072.98 3026227
2061.0435 1044.4347 5981.2744 3288629
2085.4119 1038.9218 5949.7026 3355449
2113.124 1035.2302 5928.562 2104872
2172.905 1047.1132 5996.6138 3618112
2251.9133 1067.7305 6114.6846 3947080
2271.5193 1059.9755 6070.2734 4605783
2296.1055 1054.7499 6040.3477 5395814
2359.5974 1067.2826 6112.1196 5132644
2369.3635 1055.5024 6044.6572 4473936
2408.939 1057.155 6054.1211 3289663
2432.3047 1051.7498 6023.166 3223098
2478.2954 1056.1426 6048.3232 3354687
2548.7166 1070.6731 6131.5366 2696237
2639.4172 1093.1946 6260.5127 1248796
2749.2256 1122.8962 6430.6084 3551291
2726.0046 1098.1941 6289.144 4605007
2837.5454 1127.7159 6458.2095 5724260
2913.3206 1142.4271 6542.458 8158092
3001.4001 1161.5137 6651.7632 9869223
3056.7729 1167.6124 6686.6895 10593974
3107.387 1171.7606 6710.4448 11186626
3165.5837 1178.6272 6749.769 11976656
3264.3589 1200.2426 6873.5552 11780048
3342.2114 1213.7269 6950.7783 11648975
3277.1987 1175.6329 6732.6216 11320780
3310.0876 1173.1534 6718.4214 11189708
3305.6201 1157.6501 6629.6367 11452624
3334.5352 1154.0643 6609.1021 11453136
3369.5583 1152.6515 6601.0107 11584975
3232.3452 1093.0286 6259.562 11519182
3419.7617 1143.2876 6547.3862 11519181
3457.1697 1142.8314 6544.7729 11453390
3461.1477 1131.457 6479.6343 11321547
3500.9333 1131.9092 6482.2236 11387339
3517.7808 1125.0157 6442.7466 11322059
3606.4382 1140.9893 6534.2241 11387341
3659.5427 1145.495 6560.0269 11321549
3720.5151 1152.3428 6599.2432 11452878
3782.5569 1159.3761 6639.5215 11386828
3818.4719 1158.3389 6633.5815 11123144
3937.3503 1182.2336 6770.4219 11189193
3985.0112 1184.478 6783.2754 11386571
4095.9216 1205.2899 6902.4609 11714507
4122.7744 1201.1996 6879.0361 11780299
4232.0703 1220.9745 6992.2837 11911625
4387.8979 1253.6606 7179.4712 11845063
4432.2959 1254.1885 7182.4937 11910339
4492.2783 1259.0741 7210.4727 11909824
4499.4434 1249.2039 7153.9473 12436167
4596.9961 1264.3784 7240.8491 12633546
4588.2271 1250.2994 7160.2217 12699594
4670.2847 1261.0022 7221.5142 13027531
4688.2485 1254.3619 7183.4873 13224910
4896.6699 1298.3407 7435.3442 13487568
4958.5605 1303.0292 7462.1948 13422288
5080.6323 1323.3098 7578.3379 13554133
5156.5889 1331.3291 7624.2632 11120307
5272.5601 1349.4504 7728.04 10067620
5310.562 1347.4762 7716.7339 10134184
5371.6167 1351.335 7738.8325 9738913
5358.2046 1336.5535 7654.1816 9146516
5330.0098 1318.3635 7550.0117 10199205
5440.0889 1334.3933 7641.8115 10133153
5488.439 1335.1423 7646.1006 9540502
5193.2314 1252.9877 7175.6167 8356226
5293.5381 1266.8192 7254.8271 7632503
5449.71 1293.6897 7408.709 7961211
5431.8545 1279.149 7325.4375 8093051
5648.8408 1319.7034 7557.6851 8947590
5572.1655 1291.5532 7396.4741 9079434
5728.4058 1317.4077 7544.5381 9145482
5655.2305 1290.5099 7390.4995 8684930
5774.5942 1307.6249 7488.5132 8816514
5718.0049 1284.939 7358.5952 9013380
5972.8491 1332.0514 7628.3989 9342088
6138.4453 1358.7019 7781.022 9605260
6240.043 1370.8953 7850.8501 9144964
6387.7495 1392.9629 7977.2275 9671564
6388.5308 1382.902 7919.6108 10132116
6503.3037 1397.4833 8003.1152 10329495
6626.4824 1413.6467 8095.6802 10526618
6547.0283 1386.6604 7941.1343 10855837
6686.0913 1406.0107 8051.9497 10592665
6868.8721 1434.2152 8213.4717 10329491
6904.4189 1431.4967 8197.9033 10132113
6811.8389 1402.4371 8031.4849 10526870
6959.5283 1422.905 8148.7002 10526869
7002.751 1421.8792 8142.8252 9934733
7371.9292 1486.5984 8513.46 10591892
7137.4902 1429.5417 8186.708 9144446
7043.8472 1401.2648 8024.771 9012860
7366.3164 1455.5908 8335.8857 9605256
7613.897 1494.494 8558.6768 9671562
7678.3462 1497.1742 8574.0254 9408391
7618.915 1475.823 8451.751 10461078
7886.7378 1517.7273 8691.7295 10198163
8006.4229 1530.7654 8766.3955 9408134
7968.9028 1513.7727 8669.082 9803149
8075.8325 1524.2616 8729.1494 9934734
8026.0522 1505.2272 8620.1436 9539980
8057.4614 1501.5636 8599.1631 9605772
8108.4048 1501.5636 8599.1631 9539978
8095.293 1489.7756 8531.6553 9606027
8213.0469 1502.0676 8602.0488 8881793
0 0 0 0
0 0 0 0
0 0 0 0
0 0 0 0
0 0 0 0
0 0 0 0
0 0 0 0
0 0 0 0
-2473.8386 503.15741 2786.9326 4406812
-2455.5825 502.79996 2784.9529 4011797
-2437.876 502.55099 2783.5737 5458728
-2392.8428 496.62704 2750.7617 5524780
-2400.9937 501.73578 2779.0583 4341278
-2384.9382 501.82169 2779.5342 8421988
-2350.2517 497.96124 2758.1519 5723965
-2382.115 508.24585 2815.1169 4934194
-2382.8398 511.98502 2835.8276 5460541
-2360.448 510.77499 2829.1255 1841935
-2346.3643 511.35834 2832.3567 4144170
-2331.2222 511.71771 2834.3474 6973783
-2321.2334 513.22174 2842.678 5197372
-2319.5894 516.60626 2861.4246 4934460
-2311.0522 518.49414 2871.8813 6316370
-2294.8706 518.68219 2872.9229 2171157
-2303.9792 524.63177 2905.877 6382165
-2267.1714 520.1369 2880.98 4473912
-2294.0989 530.30676 2937.3101 4210740
-2301.7607 536.14471 2969.6458 6052944
-2312.8713 542.88208 3006.9631 2302744
-2292.1953 542.20502 3003.2131 2039573
-2303.0493 549.03406 3041.0383 1250057
-2317.2297 556.7699 3083.8862 986888
-2283.9336 553.13074 3063.7295 1447438
-2276.03 555.63226 3077.585 1315852
-2269.8557 558.59961 3094.0208 1118473
-2265.8831 562.16156 3113.75 1447437
-2242.6963 560.97583 3107.1826 2960416
-2212.7056 558.05457 3091.002 4013358
-2178.4294 553.99469 3068.5146 5592125
-2148.7539 551.04633 3052.1838 9803390
-2125.3706 549.67523 3044.5896 8159327
-2103.9675 548.79712 3039.7261 8948075
-2080.4849 547.35681 3031.7483 4276510
-2075.8547 550.89459 3051.3435 6447160
-2046.9453 547.99457 3035.2805 6512696
-2025.682 547.10815 3030.3711 6644028
-2004.8735 546.32996 3026.0605 4604709
-2015.1003 554.07117 3068.9382 5064744
-2004.7142 556.23401 3080.918 4538656
-1981.2706 554.78027 3072.866 7170897
-1953.0447 551.94806 3057.1787 4473638
-1949.4285 556.08289 3080.0811 5985852
-1954.6663 562.8454 3117.5376 2433807
-1933.0541 561.9317 3112.4768 6842708
-1900.9308 557.91541 3090.231 7829863
-1876.636 556.14099 3080.4028 4014127
-1902.7739 569.42419 3153.9771 4606264
0 0 0 0
0 0 0 0
0 0 0 0
0 0 0 0
0 0 0 0
0 0 0 0
0 0 0 0
0 0 0 0
0 0 0 0
0 0 0 0
-784.64185 263.24738 1458.0978 12
-776.82373 263.52554 1459.6385 16
-764.82532 262.37592 1453.2709 18
-756.91644 262.61902 1454.6173 19
-748.7207 262.76703 1455.4371 21
-741.77637 263.36276 1458.7369 21
-734.27734 263.77332 1461.011 21
-726.26715 264.00784 1462.3099 21
-718.93341 264.49689 1465.0188 21
-709.19348 264.10187 1462.8307 21
-702.32092 264.77805 1466.5759 21
-705.06012 269.14023 1490.7377 21
-697.48279 269.62506 1493.423 21
-689.75238 270.06238 1495.8453 21
-681.97693 270.49323 1498.2318 19
-674.33496 270.98907 1500.9783 20
-672.11163 273.70483 1516.0205 20
-662.56995 273.47351 1514.7393 19
-655.71783 274.36121 1519.656 19
-646.9494 274.4606 1520.2067 19
-639.33679 275.06012 1523.5272 18
-627.52045 273.84232 1516.782 18
-618.72491 273.92651 1517.2484 15
-605.8974 272.20184 1507.6957 7
0 0 0 0
0 0 0 0
0 0 0 0
-1324.0342 632.10052 3501.1343 9014133
-1327.4363 643.81024 3565.9929 10066306
-1303.5966 642.47266 3558.5842 6119237
-1278.9052 640.66449 3548.5691 5460543
-1274.2356 648.99341 3594.7019 6184775
-1258.6976 651.97583 3611.2212 6448462
-1237.993 652.33893 3613.2324 5593159
-1219.6263 653.96838 3622.2578 921607
-1189.6028 649.29382 3596.366 8224888
-1161.3558 645.43616 3574.9988 1250321
-1141.125 645.97296 3577.9719 9409166
-1124.8737 648.82544 3593.7715 5396049
-1147.7759 674.80737 3737.6826 8093048
-1182.1882 708.71173 3925.4751 5527374
-1112.0907 680.06677 3766.814 5198149
-1095.0752 683.37415 3785.1333 4210992
-1052.6598 670.63794 3714.5884 5855303
-1032.5027 671.841 3721.2522 5723453
-1005.8952 668.80786 3704.4519 3420953
-988.63324 671.99164 3722.0867 4999990
-972.90662 676.38818 3746.4385 6973519
-950.08521 675.94226 3743.9688 6316617
-933.72388 680.18103 3767.4468 4605230
-902.53345 673.56049 3730.7761 10592394
-864.40735 661.30145 3662.875 6580050
-840.98383 659.94873 3655.3823 4869438
-836.46259 673.74982 3731.825 6711392
-847.75659 701.38477 3884.8921 4013882
-807.81964 686.9939 3805.1824 7633525
-783.97931 685.85876 3798.895 5856603
-790.09192 711.63507 3941.667 5593177
-802.01672 744.37585 4123.0146 2829874
-748.71057 716.729 3969.8818 6053475
-774.64191 765.60175 4240.5825 2237737
-746.78729 762.81067 4225.123 4408906
-760.85828 804.13635 4454.0215 1579297
-745.84772 816.59143 4523.0088 1580066
-718.08453 815.49231 4516.9209 1974568
-693.69055 818.28247 4532.375 2171948
-676.58582 830.24182 4598.6167 1974315
-654.89532 837.34155 4637.9414 5395809
-623.96893 832.737 4612.4375 3619143
-589.44421 822.68848 4556.7798 4474711
-568.99512 832.26361 4609.8154 1909037
-538.09833 826.75226 4579.2881 5922411
-509.98071 825.15222 4570.4263 4870237
-488.06473 833.96973 4619.2651 5528167
-460.44971 833.51807 4616.7637 3685964
-436.13052 839.35254 4649.0801 4475480
-406.42395 834.90631 4624.4526 5791084
-374.70682 825.38867 4571.7354 6053742
-350.80798 832.95142 4613.6245 3027261
-327.88193 844.29712 4676.4673 3553861
-297.52682 836.84174 4635.1729 4343635
-278.9776 864.45245 4788.1055 3355973
-250.18565 862.98248 4779.9639 4079953
-220.7856 858.77216 4756.6431 2500919
-194.3139 866.38641 4798.8179 3092800
-167.49026 874.77246 4845.2671 4277073
-138.63524 873.82336 4840.0103 5725032
-110.79023 880.40558 4876.4683 4541271
-79.316574 852.62476 4722.5933 3883086
-53.01572 880.47375 4876.8457 6580856
-24.344114 888.50067 4921.3057 6843515
4.8021693 886.90442 4912.4644 5330274
34.324184 897.87701 4973.2407 3487555
64.480179 907.63727 5027.3018 5066330
93.235153 897.73993 4972.4814 5395035
122.92648 899.44641 4981.9331 5066325
151.98097 896.73456 4966.9126 2960946
181.23975 895.91229 4962.3584 3882049
209.53294 891.21265 4936.3271 4145221
240.93437 899.26544 4980.9307 1052949
272.80832 907.13208 5024.5029 1645343
303.80548 910.8222 5044.9424 4869717
338.2374 923.22668 5113.6494 1908266
369.09662 924.64154 5121.4863 2895414
408.13916 944.78479 5233.0571 5658981
436.03009 938.09186 5195.9863 6646133
469.71408 943.92316 5228.2852 2631990
497.82852 938.53302 5198.4297 3027004
530.52209 941.90088 5217.084 4868952
578.05505 969.79364 5371.5786 4013643
603.69513 959.96283 5317.127 4013642
635.77557 960.84027 5321.9868 2763571
656.56433 945.37598 5236.332 3092532
691.8858 951.28857 5269.0811 1710110
713.95435 939.25543 5202.4312 2829103
750.64099 946.6535 5243.4082 4802640
794.46497 962.10699 5329.0034 2894646
825.84961 961.89099 5327.8066 2566454
871.1286 977.27814 5413.0342 4737623
911.5166 986.28058 5462.8979 5132380
937.37683 979.48517 5425.2588 4539986
970.62793 980.60718 5431.4736 5000279
1018.8117 996.25934 5518.1694 2632501
1036.9745 982.49451 5441.9272 4211278
1081.2329 993.539 5503.1016 8027528
1113.6238 993.35095 5502.0601 6975097
1149.344 996.05902 5517.0596 5857131
1199.467 1010.7541 5598.4541 6251631
1226.1355 1005.4257 5568.9404 6777976
1267.0033 1011.7148 5603.7754 6120045
1311.3053 1020.3551 5651.6333 4343377
1346.8486 1021.9195 5660.2979 5264221
1377.5817 1019.8467 5648.8169 7041403
1400.5563 1012.2648 5606.8213 5527910
1438.1636 1015.3651 5623.9937 5922152
1463.1608 1009.6236 5592.1924 7435131
1508.0536 1017.561 5636.1567 2566709
1550.7061 1023.6755 5670.0244 2171694
1577.7782 1019.4637 5646.6958 2303281
1622.7505 1026.7527 5687.0688 5263711
1662.4254 1030.4615 5707.6118 5922154
1706.4852 1036.6864 5742.0903 5263968
1761.795 1049.3687 5812.3359 6185068
1796.4557 1049.5013 5813.0703 5132637
1846.3752 1058.3757 5862.2246 6053484
1889.0698 1062.8573 5887.0479 4474455
1951.7576 1078.2214 5972.1479 5526895
1975.55 1071.9338 5937.3218 3421258
1991.7191 1061.8021 5881.2031 1513757
2047.8459 1072.9543 5942.9746 2435117
2041.0026 1051.2944 5823.0024 6975860
2038.376 1032.4905 5718.8496 7371391
2128.6704 1060.5989 5874.5386 9542564
2166.4434 1062.0552 5882.605 10662333
2248.886 1085.0172 6009.7891 11452875
2240.728 1064.2329 5894.667 11518412
2278.3191 1065.4813 5901.582 11387082
2332.9905 1074.5592 5951.8633 11649998
2352.9663 1067.624 5913.4507 11650253
2382.272 1065.0638 5899.2695 11585229
2406.0815 1060.1558 5872.084 11717069
2435.9773 1058.0311 5860.3159 11782604
2514.4329 1076.761 5964.0586 11914445
2581.4089 1090.1239 6038.0747 11848139
2603.5923 1084.4645 6006.7271 11716042
2657.272 1091.8997 6047.9102 11584457
2701.8308 1095.439 6067.5142 11716043
2813.9058 1125.8999 6236.2339 11650250
2823.2825 1115.0123 6175.9287 11716299
2850.6157 1111.4042 6155.9438 11716300
2901.0901 1116.7957 6185.8062 11518408
2891.1946 1099.1027 6087.8066 11584201
2870.656 1077.8494 5970.0874 11715274
2910.5515 1079.5286 5979.3882 11912654
2948.6902 1080.5236 5984.8994 11715022
2986.2388 1081.2814 5989.0967 11781072
3045.8545 1089.9177 6036.9326 11715022
3095.6174 1094.8689 6064.3564 11649486
3255.3342 1138.1492 6304.0811 11189448
3193.2036 1103.7635 6113.6235 11452108
3246.2493 1109.5151 6145.48 11321035
3285.9014 1110.6117 6151.5542 11320779
3410.2439 1139.9951 6314.3057 11256012
3371.6367 1114.8604 6175.0869 11387598
3415.7666 1117.3291 6188.7612 11453391
3479.9333 1126.2301 6238.063 11387084
3565.1758 1141.6932 6323.7109 11452618
3593.8794 1138.9172 6308.3354 10858940
3591.4011 1126.4185 6239.106 11384509
3723.9067 1156.0798 6403.3975 9608097
3740.8718 1149.6355 6367.7021 9212570
3908.1243 1189.0444 6585.9844 10462640
3900.1458 1174.8875 6507.5703 9870244
3905.5273 1164.9928 6452.7651 8423048
3999.7954 1181.5474 6544.4585 9211533
3923.5498 1147.8975 6358.0757 8356478
4036.509 1169.7159 6478.9258 8816772
4113.9023 1180.9142 6540.9517 9079947
4146.2749 1179.1006 6530.9062 9342862
4265.7915 1201.873 6657.0405 8224382
4271.3936 1192.4274 6604.7217 8882053
4380.5884 1211.8101 6712.0801 10066585
4467.2056 1224.6545 6783.2251 9803414
4590.1943 1247.1522 6907.8364 8881798
4520.5107 1217.3658 6742.8535 8487296
4767.5928 1272.6586 7049.1138 7894901
4689.0928 1240.835 6872.8467 7368556
4739.0503 1243.2594 6886.2749 7894129
4720.8086 1227.9034 6801.2202 8092279
4785.3267 1234.1515 6835.8271 8289657
4808.291 1229.6677 6810.9917 7895154
4759.8809 1207.1572 6686.3086 8487290
4917.3428 1236.7987 6850.4897 8882305
4974.3423 1240.8937 6873.1714 8816253
5020.9111 1242.3414 6881.1904 9013632
4984.7837 1223.4688 6776.6562 7894894
4953.9966 1206.1978 6680.9946 8223859
5339.3105 1289.7098 7143.5591 8026736
5181.7959 1241.8193 6878.2988 8224114
5307.9033 1262.1161 6990.7202 8619386
5359.0239 1264.4061 7003.4043 8948608
5462.8296 1278.996 7084.2158 9343109
5485.1631 1274.4338 7058.9468 9408389
5569.5127 1284.2408 7113.2666 8947836
5703.7319 1305.3132 7229.9844 8750713
5885.6416 1336.9042 7404.9629 9079165
5863.5181 1322.0253 7322.5503 8881787
6015.2866 1346.2837 7456.915 8684666
6139.1758 1363.994 7555.0107 7895407
6277.188 1384.5634 7668.9419 8750460
6304.0298 1380.4922 7646.3921 8684667
6426.8193 1397.3405 7739.7129 8750460
6279.8511 1355.7139 7509.1475 8816252
6347.8408 1360.7523 7537.0547 9145217
6255.5444 1331.6006 7375.5869 8947836
6505.2705 1375.1537 7616.8228 8882045
6584.5537 1382.325 7656.5435 8815226
6651.7588 1386.8799 7681.7725 8617846
6656.1147 1378.3579 7634.5703 8618359
6728.1602 1383.8737 7665.1211 8815482
6890.9009 1407.8448 7797.8955 9473412
6975.7266 1415.6844 7841.3184 9604998
7165.3726 1444.5522 8001.2134 9407619
7391.2588 1480.2986 8199.209 9078654
7293.3491 1451.153 8037.7744 9736838
7408.8633 1464.5746 8112.1152 9276287
7631.4985 1498.8625 8302.0322 9145215
7563.0518 1475.9073 8174.8857 9211008
7594.6069 1472.6353 8156.7622 8816249
7647.167 1473.4517 8161.2842 8618872
7683.7007 1471.1895 8148.7539 9211010
7639.7407 1453.6396 8051.5474 9276803
7629.4443 1442.6731 7990.8047 9079423
0 0 0 0
0 0 0 0
0 0 0 0
0 0 0 0
0 0 0 0
0 0 0 0
0 0 0 0
0 0 0 0
-2458.0349 516.34802 2769.1289 3091723
-2462.5845 520.77942 2792.894 4406812
-2432.7578 517.95184 2777.7297 6446400
-2378.0505 509.75235 2733.7568 5261867
-2416.7583 521.60193 2797.3052 6775877
-2409.47 523.61945 2808.1248 4408098
-2386.5339 522.24078 2800.7312 7171153
-2374.1602 523.17029 2805.7163 5196852
-2316.8845 514.14868 2757.334 5000246
-2329.8228 520.69098 2792.4197 1578506
-2328.6912 524.15985 2811.0229 3420446
-2321.3933 526.28082 2822.3975 1710348
-2298.7156 524.92047 2815.1021 6578767
-2274.6165 523.21326 2805.9465 1644817
-2299.6157 532.85779 2857.6694 6841943
-2278.5457 531.89117 2852.4856 987140
-2263.8582 532.41125 2855.2747 1250313
-2233.6519 529.26202 2838.3853 4671547
-2229.2388 532.22296 2854.2646 4079667
-2300.604 553.45929 2968.1533 2961187
-2309.0134 559.76068 3001.9473 3882290
-2291.4956 559.82574 3002.2961 592390
-2296.0923 565.33685 3031.8518 1842453
-2349.2744 582.9917 3126.5332 789765
-2280.812 570.50018 3059.5422 1118730
-2258.7998 569.52014 3054.2864 987401
-2265.0134 575.69849 3087.4202 1052681
-2240.8242 574.18707 3079.3145 1380873
-2232.9314 576.86084 3093.6538 2104850
-2177.5308 567.2041 3041.8652 2039317
-2160.9358 567.57849 3043.8733 8881776
-2163.4128 573.01074 3073.0061 8618602
-2128.0552 568.42914 3048.4353 8487270
-2080.095 560.37396 3005.2361 9210989
-2050.4993 557.1698 2988.0525 8421470
-2060.8652 564.86292 3029.3098 5131047
-2018.9628 558.23907 2993.7871 5591597
-2030.7407 566.47192 3037.939 6315577
-2020.7704 568.73108 3050.0547 6380603
-2001.2307 568.31354 3047.8152 4143902
-2009.7297 575.92328 3088.6257 5393967
-1983.0068 573.48676 3075.5588 5394749
-1931.6926 563.82721 3023.7556 6052669
-1922.3611 566.35553 3037.3147 4210465
-1961.1809 583.25183 3127.928 5854780
-1930.5393 579.61566 3108.4275 3355170
-1917.3832 581.20972 3116.9766 6909018
-1900.714 581.75958 3119.9253 7171935
-1889.365 583.96466 3131.7507 4606010
0 0 0 0
0 0 0 0
0 0 0 0
0 0 0 0
0 0 0 0
0 0 0 0
0 0 0 0
0 0 0 0
0 0 0 0
0 0 0 0
-785.97839 272.3486 1460.5815 131848
-777.72119 272.48721 1461.3248 395019
-771.65894 273.40662 1466.2556 197643
-763.17639 273.47968 1466.6475 11
-748.81836 271.42474 1455.627 10
-741.38751 271.86206 1457.9723 11
-733.85406 272.27164 1460.1687 11
-725.71899 272.46512 1461.2063 10
-715.67908 271.93942 1458.3872 10
-707.78912 272.22784 1459.934 8
-700.284 272.67325 1462.3225 8
-693.23621 273.31012 1465.7379 10
-686.276 273.99808 1469.4275 14
-690.60809 279.27014 1497.701 18
-682.69775 279.66437 1499.8153 20
-677.74402 281.29614 1508.5664 20
-672.69135 282.9299 1517.3281 19
-665.90308 283.86804 1522.3593 18
-656.23511 283.58749 1520.8547 18
-647.17981 283.5676 1520.748 17
-640.02557 284.39188 1525.1686 16
-625.08698 281.73129 1510.9001 14
-616.35541 281.8316 1511.438 13
-608.28967 282.2438 1513.6486 5
0 0 0 0
0 0 0 0
0 0 0 0
-1335.8368 658.66156 3532.3438 8289899
-1326.2325 664.33301 3562.7593 7434589
-1312.0394 667.85211 3581.6318 3947559
-1282.1039 663.34198 3557.4443 3223327
-1257.7179 661.60034 3548.1042 6842963
-1236.5077 661.49847 3547.5579 2698013
-1238.9374 674.25842 3615.9883 5592906
-1216.9662 673.95428 3614.3572 2829346
-1190.8416 671.29779 3600.1108 6119254
-1183.549 679.354 3643.3157 197378
-1146.1693 670.11884 3593.7883 5263950
-1141.4861 680.01215 3646.8452 4474435
-1157.9757 703.1438 3770.8979 4408641
-1126.2644 697.34119 3739.7791 3026985
-1096.0868 692.27435 3712.6062 4210998
-1078.2108 694.92877 3726.8416 2960928
-1049.5876 690.6225 3703.7476 3552548
-1026.2341 689.67383 3698.6599 3487008
-1002.1691 688.19513 3690.7297 1512195
-987.14917 693.00031 3716.4995 6051903
-967.2851 694.54645 3724.7913 3618333
-941.34106 691.69727 3709.5112 8816236
-932.24872 701.3905 3761.4951 4276516
-893.83466 688.95752 3694.8184 6513740
-858.48834 678.32428 3637.7932 6382162
-853.72333 691.9292 3710.7551 2566429
-834.4082 694.14893 3722.6594 3355694
-795.36035 679.62769 3644.7834 5922137
-797.83112 700.76337 3758.1318 5198418
-778.45667 703.37427 3772.134 3290423
-788.28088 733.30157 3932.6318 2171690
-770.0249 738.13464 3958.5508 2106154
-766.729 758.06226 4065.4209 1579291
-758.52112 774.26843 4152.3335 2961205
-742.172 782.97229 4199.0112 2500396
-738.17712 805.76514 4321.2471 3223608
-725.22546 820.06757 4397.9502 2106153
-705.67505 827.69635 4438.8623 2435635
-678.04211 826.06848 4430.1323 5659495
-648.67572 822.11267 4408.9175 3027517
-633.54993 836.63025 4486.7739 2303537
-602.55096 830.54022 4454.1138 6053735
-573.53876 826.75616 4433.8203 3356476
-553.95483 836.85223 4487.9644 2106152
-529.56311 840.33685 4506.6523 3619393
-503.12314 840.7688 4508.9688 2106156
-474.78073 837.89166 4493.5391 2698295
-454.48892 849.72443 4556.9971 3948108
-428.31717 851.3642 4565.791 5330017
-399.3446 847.28253 4543.9014 6975094
-373.67111 850.11627 4559.0986 6382702
-341.90482 838.45038 4496.5352 4738394
-322.07571 856.55988 4593.6553 3883343
-296.60413 861.62122 4620.7983 4145744
-271.45111 868.73102 4658.9277 3817035
-243.8688 868.79602 4659.2764 4211792
-215.48428 865.65491 4642.4307 4935515
-188.78328 869.34723 4662.2324 3619655
-166.44875 897.85876 4815.1372 4014156
-133.11687 866.57294 4647.354 2895676
-104.85004 860.54175 4615.0093 2698040
-78.215645 868.37958 4657.043 2697783
-51.312397 880.1485 4720.1587 2631991
-23.565548 888.30725 4763.9136 3158592
4.6188331 881.03583 4724.9175 4211537
33.428616 903.14392 4843.4814 4146000
63.952568 929.74982 4986.166 5724776
92.591599 920.79803 4938.1587 8356753
122.27949 924.07129 4955.7124 7040634
150.26668 915.71295 4910.8877 2171692
177.99052 908.7218 4873.3945 2895671
209.10295 918.56769 4926.1973 3290430
238.8896 920.89117 4938.6582 2961207
268.98422 923.76532 4954.0718 4211276
301.90125 934.81329 5013.3213 2368815
329.19128 928.01923 4976.8853 2895419
362.68417 938.39111 5032.5088 5987947
403.05963 963.64233 5167.9287 4014156
429.6192 954.62891 5119.5903 7238268
460.4938 955.76007 5125.6567 7896199
492.87735 959.68921 5146.7285 5329759
521.78595 956.78882 5131.1738 3750727
562.3064 974.32788 5225.2344 4539730
594.31256 976.05341 5234.4883 4473937
622.42761 971.5343 5210.2529 4802644
654.51294 973.34656 5219.9717 5527136
679.8515 965.41467 5177.4336 9211030
714.97003 971.45593 5209.8325 5987686
749.51807 976.25409 5235.5645 3289917
774.12439 968.23627 5192.5659 3290687
812.94769 977.93378 5244.5723 5592675
843.5451 977.38617 5241.6357 3355969
883.67163 987.52649 5296.0176 1776935
907.88214 979.79462 5254.5522 2763577
944.75061 985.7832 5286.6685 4014157
982.26288 992.03778 5320.2109 5527139
1014.8062 993.04095 5325.5908 2895162
1046.197 992.88977 5324.7803 3882057
1067.2849 983.25586 5273.1143 3290431
1131.5291 1012.7977 5431.5444 4869462
1165.8943 1014.7015 5441.7549 7436164
1208.4658 1023.4528 5488.6875 6383221
1239.4039 1022.1514 5481.7075 6449014
1274.2518 1024.0585 5491.9351 6909308
1304.3551 1022.1526 5481.7139 4145999
