# .PCD v0.7 - Point Cloud Data file format
VERSION 0.7
FIELDS x y z rgb
SIZE 4 4 4 4
TYPE F F F U
COUNT 1 1 1 1
WIDTH 1341
HEIGHT 1
VIEWPOINT 0 0 0 1 0 0 0
POINTS 1341
DATA ascii
2115.6233 956.05524 2257.8564 8092529
2136.0461 959.2196 2265.3296 7171429
2129.1072 950.13409 2243.8728 7763566
2122.2383 941.19244 2222.7559 6776671
0 0 0 0
0 0 0 0
0 0 0 0
0 0 0 0
0 0 0 0
0 0 0 0
0 0 0 0
0 0 0 0
0 0 0 0
0 0 0 0
0 0 0 0
0 0 0 0
0 0 0 0
0 0 0 0
0 0 0 0
-1507.101 764.71008 1781.0499 3025424
-1494.6479 763.7384 1778.7867 3617816
-1465.6484 754.23785 1756.6595 4209699
-1456.7889 755.03986 1758.5275 4078370
-1450.9419 757.4259 1764.0847 6184002
-1449.7673 762.30347 1775.4448 3355162
-1443.2734 764.43488 1780.4091 3287829
-1434.9354 765.61389 1783.1549 3222555
-1426.4995 766.75763 1785.8187 4472619
-1426.0276 772.23114 1798.5669 4407597
-1411.9318 770.35388 1794.1947 7828577
-1403.6699 771.6554 1797.226 7500381
-1347.7567 746.58057 1738.8253 6909015
-1360.3154 759.34119 1768.5454 7434847
-1356.7478 763.22809 1777.5984 7829348
-1353.2692 767.22638 1786.9105 4473648
-1355.3268 774.45111 1803.7374 5131578
-1352.0002 778.68976 1813.6093 6184264
-1341.1702 778.63983 1813.4932 5263163
-1343.1342 786.07709 1830.8147 4341547
-1314.3407 775.48779 1806.1517 3881253
-1290.6477 767.75879 1788.1505 6184008
-1300.1714 779.82471 1816.2527 3749924
-1290.6025 780.54504 1817.9303 4802612
-1275.1708 777.70178 1811.3082 3025949
-1266.9012 779.21539 1814.8337 6579028
-1256.0276 779.13971 1814.6573 6447440
-1250.6768 782.51807 1822.5258 5460545
-1248.8474 788.17786 1835.7076 4999479
-1241.1847 790.22308 1840.4712 4276269
-1224.0457 786.21783 1831.1427 3684133
-1213.2469 786.24988 1831.2173 3815981
-1204.3229 787.5083 1834.1482 1250056
-1192.964 787.18304 1833.3906 526340
-1192.3147 793.9834 1849.229 1381643
-1192.5812 801.52551 1866.7949 2236951
-1184.1216 803.28906 1870.9025 4276788
-1171.9294 802.52991 1869.1344 4868407
-1177.9365 814.33801 1896.6361 5328444
-1161.1577 810.46924 1887.6255 3420446
-1135.8763 800.5329 1864.4833 5394749
-1130.2124 804.36304 1873.4038 5724228
-1118.4843 803.91046 1872.3497 6711127
-1107.4752 803.97083 1872.4904 6645590
-1097.5953 804.86047 1874.5624 7500900
-1096.0822 811.96631 1891.1121 5395526
-1087.724 814.09576 1896.0718 4407602
-1078.1919 815.38184 1899.067 3157791
-1068.6331 816.67468 1902.0781 5460290
-1051.2435 811.94678 1891.0668 6315855
-1039.3457 811.40442 1889.8036 3749928
-1021.8839 806.45929 1878.286 5526343
-1024.1296 817.12933 1903.1372 1381387
-1008.1486 813.33246 1894.2941 1578771
-993.52789 810.55988 1887.8365 3355177
-991.91467 818.45697 1906.2292 1710609
-987.49078 824.19 1919.5819 6907993
-976.78326 824.75116 1920.8888 4342062
-967.33673 826.40271 1924.7354 6249802
-959.54266 829.52222 1932.0009 6907474
-938.35809 821.00128 1912.1552 5920322
-915.94592 811.18494 1889.2924 5459774
-912.5415 818.16766 1905.5554 4473134
-899.87384 816.91608 1902.6405 5657408
-887.71393 816.09949 1900.7385 4737077
0 0 0 0
0 0 0 0
0 0 0 0
-676.26532 654.93994 1525.3895 0
-667.69672 655.39954 1526.4598 512
-661.80847 658.5387 1533.7712 2303009
-642.45801 648.18323 1509.6528 3421737
0 0 0 0
-797.20673 827.34558 1926.9314 3223836
-782.46594 823.84454 1918.7773 3355421
-776.94403 830.08972 1933.3226 5592132
-764.29108 828.789 1930.293 2039573
-755.80151 832.0321 1937.8464 5526594
-749.44977 837.76489 1951.1985 4474161
-744.46429 845.22852 1968.5817 9408120
-735.45898 848.29321 1975.7194 6776401
-718.25165 841.84363 1960.698 3223582
-699.78369 833.68018 1941.6848 6973781
-676.26624 819.12756 1907.7911 6776659
-663.20679 816.96295 1902.7495 4408110
-657.89465 824.43182 1920.145 4538929
-644.27686 821.57233 1913.4852 5986118
-630.60791 818.54407 1906.432 4078378
-619.90747 819.32874 1908.2596 4472881
-611.85828 823.71173 1918.4679 5262914
-610.05719 836.83148 1949.0244 6447186
-593.45508 829.7627 1932.5609 7631461
-588.20038 838.59375 1953.1289 4209966
-525.71753 764.55219 1780.6821 7368288
-560.89856 832.41962 1938.749 5329476
-540.90326 819.52643 1908.7202 8355954
-530.48657 820.90521 1911.9314 1381902
-525.37805 830.73761 1934.8315 8224367
-509.19223 823.10229 1917.0483 7303267
0 0 0 0
-475.57767 804.65894 1874.093 6908509
-468.60397 811.81183 1890.7524 7829611
-455.08282 807.6944 1881.1626 5790028
-450.71811 820.02917 1909.8911 6842971
-436.97519 815.4975 1899.3365 7895401
-433.17572 829.7735 1932.5861 6776918
-422.99634 832.27167 1938.4044 5789514
-408.7551 826.69427 1925.4144 4999993
-393.95819 819.64069 1908.9861 5986375
-386.61679 828.13989 1928.7814 6052172
-374.38574 826.36414 1924.6455 6446673
-364.67807 830.22156 1933.6296 3947051
-350.59189 824.03784 1919.2273 7697255
-337.42041 819.66144 1909.0345 3288866
-333.66898 838.65839 1953.2793 4538928
-322.4465 839.56757 1955.397 1973517
-314.9783 850.68402 1981.2876 5591615
-304.92181 855.40002 1992.2716 5986633
-292.54617 853.72784 1988.3771 9144442
-280.69809 853.51965 1987.8921 3222815
-265.53067 842.75812 1962.8279 2498834
-253.69666 842.07507 1961.2371 3485728
-245.34038 853.42383 1987.6689 3354658
-233.14671 851.89557 1984.1096 4012592
-221.65805 852.91779 1986.4904 1512719
-211.82413 860.77899 2004.7993 789256
0 0 0 0
0 0 0 0
-174.5831 852.9115 1986.4757 3
-163.6369 857.21832 1996.5065 4
-149.66402 845.10541 1968.2949 4
-137.21918 840.3031 1957.11 6
-129.12494 863.71545 2011.6385 8
-115.37515 850.21228 1980.1891 11
-102.56022 841.32129 1959.4816 11
-91.37516 845.23743 1968.6023 12
-79.615013 844.20142 1966.1895 13
-68.081955 845.63098 1969.5189 13
-56.316124 844.1626 1966.099 12
-44.612667 843.10736 1963.6412 12
-33.067173 845.34583 1968.8549 12
-21.489847 848.76678 1976.8224 11
-9.7634659 847.44409 1973.7417 789527
1.945315 854.42236 1989.9945 10
13.738486 854.67072 1990.573 9
25.517092 854.20215 1989.4817 9
37.438202 857.29285 1996.6799 593168
49.02853 853.14349 1987.0159 5856348
60.592171 850.22632 1980.2218 5132368
73.183502 860.33698 2003.7699 5527375
85.184418 861.65326 2006.8357 9343363
97.539978 865.79504 2016.4822 8948088
109.11691 862.87579 2009.683 5064759
121.25281 864.51624 2013.5037 4998708
133.70007 867.88397 2021.3473 4735533
143.63884 855.7533 1993.0942 6118989
156.70372 862.67511 2009.2156 6973782
169.44051 866.94092 2019.1509 7500134
183.19284 875.4975 2039.0797 4342587
194.86226 873.65686 2034.7927 6513755
207.17783 874.75885 2037.3593 4407864
220.87416 881.24847 2052.4739 7960685
238.16606 900.65808 2097.6799 8422006
248.9012 894.57697 2083.5166 8553080
262.53986 899.01282 2093.8481 8816251
277.22141 906.45856 2111.1895 7170656
288.20346 901.68707 2100.0764 7433826
300.03278 899.85144 2095.8013 4538933
311.99072 898.53223 2092.7288 10459790
323.45627 895.95001 2086.7146 8749172
334.91177 893.53107 2081.0808 6182987
343.83176 884.7594 2060.6511 7367515
361.12827 897.40497 2090.1033 7104085
373.54102 897.47827 2090.2739 8880755
384.29004 893.6778 2081.4224 6446928
398.30545 897.47351 2090.2629 8815478
405.51236 886.16187 2063.9175 4933691
420.99417 893.06616 2079.998 6446928
433.04044 892.49707 2078.6726 4078383
448.08441 897.96692 2091.4121 6183495
463.36868 903.61102 2104.5576 6710097
477.12711 906.06171 2110.2654 4801586
492.97894 912.26123 2124.7043 8617327
505.42258 912.00214 2124.1008 7038294
518.59967 913.047 2126.5344 4275246
530.80981 912.38007 2124.9812 6117696
538.82953 904.7085 2107.1135 7367771
551.99945 905.83569 2109.7388 7499100
562.44415 902.53986 2102.0627 6447183
577.02448 905.87946 2109.8408 6644305
591.36688 908.71179 2116.4375 8157545
601.45636 905.02704 2107.8555 6381136
615.18951 906.8634 2112.1326 8551536
629.32452 909.20721 2117.5913 3485992
645.17584 913.89038 2128.4988 4670262
650.45795 903.70978 2104.7876 6182988
671.4353 915.30823 2131.801 8420207
673.43896 901.09064 2098.6875 7499105
690.29419 906.90045 2112.2188 6314571
708.33032 914.0271 2128.8171 7432795
723.383 917.12195 2136.0251 6380361
729.62384 909.13068 2117.4131 5459004
752.46136 921.73981 2146.7805 7630429
760.32642 915.89392 2133.165 3945515
766.14551 907.81494 2114.3486 6379595
783.00073 912.86224 2126.1042 7498333
794.51233 911.61853 2123.2075 5985094
804.44061 908.62524 2116.2358 7169365
820.52545 912.57098 2125.4258 8551531
830.25006 909.43066 2118.1118 7038296
855.75385 923.41064 2150.6719 5327681
872.18726 927.33643 2159.8152 1709842
886.17389 928.5849 2162.7229 7960170
897.79596 927.35522 2159.8591 5328708
909.33282 926.07349 2156.8738 5789258
920.44574 924.40143 2152.9795 8881529
936.77362 927.94092 2161.2231 6973019
959.72382 937.85632 2184.3167 6972762
964.42944 929.91626 2165.8237 5459524
968.34949 921.43713 2146.0754 7170398
986.29462 926.35052 2157.519 6380880
977.57953 906.41858 2111.0964 6644564
1006.2794 921.24341 2145.6243 6841687
1010.6269 913.68201 2128.0134 9144698
1021.0383 911.72174 2123.4478 8157804
1045.8202 922.48486 2148.5156 9276286
1050.5122 915.48145 2132.2043 6315602
1059.916 912.70197 2125.7307 8158061
1070.1222 910.67041 2120.9993 8750197
1072.667 902.24207 2101.3691 9144442
1107.0024 920.44 2143.7532 8288877
1098.7419 903.20959 2103.6226 8881015
1127.2736 916.271 2134.0432 8947064
1143.4733 919.13031 2140.7026 9078907
1144.9146 910.19403 2119.8896 7565156
1153.5604 907.11713 2112.7234 9801594
1166.9144 907.7688 2114.2412 7696992
1202.3677 925.41559 2155.3416 9406840
1209.2109 920.90289 2144.8313 8551532
1201.4719 905.49408 2108.9434 7696224
1212.7235 904.5675 2106.7852 7104088
1241.6167 916.68457 2135.0066 8485741
1266.9324 925.94257 2156.5688 7235673
1279.5781 925.84833 2156.3494 8419693
1293.9586 926.99878 2159.0288 7039065
1299.9086 922.14606 2147.7266 8947062
1299.2758 912.76294 2125.8728 9078905
1310.7351 911.97345 2124.0339 9144698
1343.9922 926.22083 2157.217 6973272
1355.9811 925.68091 2155.9595 9407612
1360.202 919.89764 2142.49 7565408
1363.6191 913.68268 2128.0149 8354925
1392.4103 924.42755 2153.0403 7302237
1409.963 927.5838 2160.3914 8025707
1412.3517 920.79681 2144.5842 7170910
1392.6647 899.86682 2095.8372 9210493
1433.7209 918.20905 2138.5571 9736836
1437.2283 912.3927 2125.0105 9605251
1472.3395 926.56628 2158.0215 9342079
1487.5613 928.08685 2161.563 8947320
1507.0015 932.1908 2171.1213 7236700
1524.7391 935.18115 2178.0859 9341821
1498.3807 911.30243 2122.4712 8552561
1539.5768 928.56525 2162.6772 9144698
1555.8892 930.65894 2167.5535 8947319
1593.7659 945.51141 2202.1458 8486509
1583.7197 931.9231 2170.4978 7565408
1590.1746 928.1853 2161.7922 7960167
1598.7047 925.70874 2156.0244 8551534
1628.532 935.50574 2178.842 7302237
1632.0592 930.15936 2166.3899 8420463
1651.2902 933.77655 2174.8147 8487026
1694.2159 950.63318 2214.0747 6315857
1716.2178 955.58038 2225.5969 8092010
1718.0734 949.32043 2211.0171 7105116
1718.8246 942.5495 2195.2473 8749940
1736.1174 944.88306 2200.6824 8684149
1752.3778 946.62415 2204.7373 8092012
1760.8123 944.14319 2198.959 9013372
1780.2233 947.54114 2206.873 9933961
1800.3019 951.24219 2215.4929 10065803
1821.1272 955.28131 2224.9004 9605252
1888.4086 983.45618 2290.521 7828840
1906.6863 985.89056 2296.1909 7960427
1910.0093 980.61267 2283.8984 7038812
1933.1196 985.49652 2295.2732 8815223
1945.4918 984.87604 2293.8281 7565925
1969.3816 990.05444 2305.8889 7302753
1971.1345 984.10944 2292.0425 6447187
1980.6564 982.09796 2287.3577 6447185
1982.7969 976.47864 2274.27 7960424
2024.6038 990.33807 2306.5493 7697509
2068.0371 1004.8019 2340.2363 6381137
2022.1548 975.96619 2273.0764 6775382
2025.7451 971.23114 2262.0483 4671548
2009.3392 957.03442 2228.9834 7434339
2022.5577 957.04077 2228.9983 7762791
2047.2037 962.41937 2241.5251 6315861
2060.7739 962.55511 2241.8416 5263430
2059.7659 955.92371 2226.3965 5658444
2039.3823 940.44177 2190.3381 10856348
2077.9495 952.16821 2217.6497 7698030
2089.843 951.60162 2216.3301 8552826
2097.2219 948.99915 2210.2688 6513498
2113.9316 950.62506 2214.0557 7303015
0 0 0 0
0 0 0 0
0 0 0 0
0 0 0 0
0 0 0 0
0 0 0 0
0 0 0 0
0 0 0 0
0 0 0 0
0 0 0 0
0 0 0 0
0 0 0 0
0 0 0 0
0 0 0 0
0 0 0 0
-1476.9912 759.77283 1745.4672 4078109
-1455.4325 753.96143 1732.1163 2828042
-1441.0985 751.83673 1727.2351 5525554
-1441.1216 757.22546 1739.615 5722935
-1444.6094 764.52545 1756.3855 3617564
-1433.328 764.05841 1755.3126 3552028
-1424.7043 765.0116 1757.5024 1052162
-1413.6733 764.6767 1756.733 6644554
-1414.8212 770.97333 1771.1987 5526073
-1369.894 752.06915 1727.769 5460794
-1399.6682 774.19977 1778.611 7368795
-1392.246 775.93573 1782.599 8290410
-1368.9244 768.76923 1766.135 8159082
-1362.5547 771.08563 1771.4567 3619110
-1356.5332 773.63666 1777.3173 5395519
-1346.1527 773.72217 1777.5138 5263422
-1337.1918 774.63135 1779.6024 5855046
-1334.8074 779.39502 1790.5461 5723717
-1307.3411 769.47229 1767.7502 6776662
-1312.0897 778.5036 1788.4983 7566435
-1295.6616 775.01471 1780.483 5263681
-1267.225 764.22656 1755.699 6250318
-1273.4775 774.35303 1778.963 5987402
-1266.9265 776.79816 1784.5804 7303262
-1263.8918 781.45868 1795.2872 7500131
-1251.5487 780.39398 1792.8413 5460800
-1252.0026 787.35883 1808.842 4210477
-1243.2769 788.62134 1811.7424 6118473
-1228.6476 786.12842 1806.0154 7566177
-1204.2075 777.2594 1785.64 3026717
-1189.4139 774.51471 1779.3345 2106133
-1182.6438 776.99225 1785.0264 2105364
-1183.9504 784.86877 1803.1215 2697758
-1180.7081 789.8457 1814.5552 2434587
-1189.095 802.76495 1844.2354 1579023
-1175.7574 801.12164 1840.4601 3553067
-1152.3922 792.55103 1820.7704 4671803
-1168.931 811.52155 1864.3522 6447954
-1159.8518 812.89917 1867.5172 4605749
-1147.3989 811.91614 1865.2588 5066298
-1138.6157 813.53583 1868.9799 4736562
-1105.4022 797.56061 1832.2792 5921093
-1103.7129 804.23926 1847.6223 3619114
-1099.9285 809.50977 1859.7306 4737339
-1089.5144 809.95837 1860.761 7304036
-1080.7024 811.61938 1864.5769 4277559
-1081.5936 820.67694 1885.3855 2631960
-1064.4772 816.11749 1874.9109 3553063
-1052.3231 815.30658 1873.0477 4539959
-1037.6945 812.54065 1866.6935 4079671
-1024.8114 811.0968 1863.3765 4671295
-1015.6982 812.6377 1866.9164 4474174
-1004.1034 812.20514 1865.9226 4407869
-1002.3164 819.78461 1883.3354 9144963
-986.6969 816.09393 1874.8567 8092530
-979.60217 819.45026 1882.5674 6645083
-984.69519 833.19659 1914.1475 1907991
-974.28308 833.99072 1915.9719 5393986
-959.63281 831.13293 1909.4066 7828328
-948.41736 831.21735 1909.6005 6840918
-933.85553 828.33557 1902.98 7828065
-907.91321 815.16541 1872.7235 6578767
-899.27606 817.39899 1877.8549 6184262
-898.19934 826.64661 1899.1 6447185
-886.95276 826.65045 1899.1086 7698280
0 0 0 0
0 0 0 0
0 0 0 0
0 0 0 0
-667.26312 664.01105 1525.4685 256
-658.21826 664.00336 1525.4508 1118992
-651.89459 666.77881 1531.8269 4013875
0 0 0 0
-786.44861 827.44232 1900.9279 5329217
-775.08246 827.33069 1900.6714 4671544
-767.81653 831.65674 1910.61 3289635
-756.48834 831.64648 1910.5864 1249545
-755.0976 842.72662 1936.0415 3157792
-737.07825 835.30408 1918.9891 3947050
-736.2027 847.38159 1946.7356 2697249
-713.24713 834.02472 1916.0499 6052682
-698.23273 829.67188 1906.0499 7763297
-685.37457 827.78009 1901.7039 6250058
-673.89032 827.51221 1901.0885 6381644
-663.99365 829.21796 1905.0071 6842194
-647.90381 823.11456 1890.9856 4407085
-632.80133 818.07288 1879.4031 3946535
-619.46747 815.17804 1872.7526 4867893
-607.44934 813.94067 1869.9098 5591617
-594.10846 810.85193 1862.814 4933945
-593.1524 824.8692 1895.0166 6645078
-582.19995 825.25769 1895.9091 5855048
-585.49884 846.25989 1944.1584 5986889
-562.72754 829.66772 1906.0405 3223583
-551.27997 829.43341 1905.5022 9277056
-528.13837 811.22705 1863.6758 6316369
-521.12421 817.54425 1878.1885 8224364
-508.85095 815.70642 1873.9664 7697760
-497.31592 814.99646 1872.3354 6118472
-485.54089 813.85181 1869.7057 8026472
-475.96933 816.43335 1875.6364 10000261
-465.77277 818.04059 1879.3287 7303008
-451.94162 813.18677 1868.178 7499618
-445.24274 821.24469 1886.6897 7894376
-433.61194 820.38641 1884.718 7171167
-428.00693 831.18475 1909.5258 7237475
-415.79178 829.38416 1905.389 7171423
-402.25534 824.77405 1894.7979 6184009
-392.48212 827.83655 1901.8336 3486745
-380.45184 826.17877 1898.0253 4802343
-369.80188 827.50891 1901.0808 5854777
-358.96677 828.49518 1903.3467 4736043
-347.34073 827.66071 1901.4296 7630684
-337.95764 832.29407 1912.0741 3222557
-330.34747 841.76648 1933.8354 2235666
-320.95239 847.20789 1946.3363 3946023
-309.33759 846.97711 1945.8063 3156511
-298.71063 849.5379 1951.6893 5130038
-288.39362 853.22205 1960.1531 2762004
-275.8775 850.43622 1953.7531 3419677
-265.46725 854.18225 1962.359 4933687
-251.94804 847.80975 1947.7191 3551782
-242.41286 854.87531 1963.9512 2433819
-230.85545 855.16235 1964.6106 1907478
-219.72119 857.13055 1969.1323 1249808
0 0 0 0
-194.43875 848.61432 1949.5675 328966
-180.77818 838.8197 1927.0658 3
-168.02484 832.19794 1911.8533 4
-155.89407 827.92523 1902.0375 5
-145.02028 830.18256 1907.2233 131336
-134.59457 835.60315 1919.6761 8
-122.46906 830.49738 1907.9465 10
-111.23708 831.02869 1909.1671 11
-100.4118 835.06262 1918.4346 12
-89.37262 838.12036 1925.4591 12
-77.770012 836.01599 1920.6248 12
-66.634308 839.06982 1927.6405 12
-55.116711 837.58331 1924.2255 12
-43.693913 837.13788 1923.202 10
-32.343723 838.25995 1925.7798 263695
-21.178034 847.99255 1948.139 10
-9.6599102 850.02466 1952.8075 66056
1.9215555 855.6319 1965.6893 5
13.635569 859.97253 1975.6614 5
25.372553 861.08295 1978.2123 197640
37.043869 859.96729 1975.6492 2829359
49.087387 865.95325 1989.4011 10593698
60.752094 864.2326 1985.4482 6514528
72.821877 867.89795 1993.8688 8948353
84.515076 866.67828 1991.0668 5920587
96.513535 868.50446 1995.2621 5459264
108.50696 869.8916 1998.4491 5985860
120.26478 869.30292 1997.0966 3880743
131.52628 865.55353 1988.4828 7302231
142.74443 862.15869 1980.6836 6447180
155.79562 869.51001 1997.5721 8224364
169.20799 877.69672 2016.3801 5986892
181.70236 880.35602 2022.4895 7894634
191.96288 872.53284 2004.5167 7039068
204.51768 875.44189 2011.1998 7039068
219.49876 887.84454 2039.6931 6907737
232.78366 892.45007 2050.2737 8486770
245.07303 892.97137 2051.4714 7105117
260.0813 902.88214 2074.24 5591365
270.01187 895.06671 2056.2852 6315346
284.83023 903.42902 2075.4963 5460296
298.38742 907.26471 2084.3081 9078911
308.45758 900.61432 2069.0298 7894634
320.15021 899.02826 2065.3862 6052173
332.27939 898.73981 2064.7236 8158576
344.20413 897.9386 2062.8828 9473922
362.18112 912.43964 2096.1968 7104603
371.98859 906.08014 2081.5869 7104859
381.3681 899.11981 2065.5964 7630174
390.32547 891.62787 2048.385 9539193
402.77731 892.32965 2049.9971 3289124
416.61649 895.97388 2058.3691 4998453
428.40482 895.12585 2056.4209 7630430
439.80661 893.53918 2052.7759 6117701
454.74615 899.03223 2065.3953 5723199
469.78198 904.42267 2077.7791 3288609
487.60422 914.76532 2101.5398 3617315
498.08353 911.16028 2093.2576 4209966
513.60034 916.7218 2106.0344 6380625
523.13586 911.59668 2094.2603 7762532
535.20117 911.01532 2092.9246 8485738
540.5 899.20325 2065.7881 6709328
560.08337 911.15247 2093.2397 7301464
566.70776 901.9588 2072.1187 7696222
581.51831 905.90759 2081.1904 6248778
600.17145 915.55426 2103.3523 5393469
608.21271 908.94958 2088.179 4143148
628.18555 920.08411 2113.7588 4735028
640.0058 919.07574 2111.4424 3813923
650.37732 916.06549 2104.5269 8288875
661.96948 914.85559 2101.7471 6841687
675.44305 916.24243 2104.9331 6248264
687.11426 915.17828 2102.4885 5327419
702.86456 919.4884 2112.3904 5853761
711.36755 914.33258 2100.5457 6906449
731.93195 924.59039 2124.1113 7498330
737.60724 916.01099 2104.4016 5459260
745.23676 910.10333 2090.8296 5854275
760.72412 913.82831 2099.387 6380363
774.75177 915.70801 2103.7056 6577744
784.62366 912.69427 2096.7817 6644053
798.57867 914.44977 2100.8149 2499101
807.87164 910.89508 2092.6484 6775899
819.8457 910.42499 2091.5686 4275767
835.62769 914.13458 2100.0908 7171168
832.98529 897.87579 2062.7385 6776154
832.47864 884.35602 2031.6788 7434342
878.32336 919.75952 2113.0132 6249809
895.8277 924.90778 2124.8406 7566182
902.70178 919.09003 2111.4751 2499867
930.22552 934.16858 2146.116 9934475
946.2179 937.41644 2153.5774 10263183
963.36639 941.70795 2163.4365 7631719
954.5777 920.86554 2115.5542 8552563
965.90161 919.71429 2112.9092 4473398
981.01764 922.15698 2118.521 6578771
998.83398 927.04431 2129.749 6644565
1007.0459 923.00665 2120.4731 9868680
1016.5444 920.2334 2114.1018 5394756
1028.7354 919.93512 2113.4167 9736322
1036.9707 916.14935 2104.7195 7301980
1048.8124 915.60187 2103.4617 7565409
1055.5775 910.6875 2092.1716 7368287
1055.7872 900.29724 2068.3015 8683634
1088.4407 917.49359 2107.8076 9276027
1076.584 897.20581 2061.1995 9407357
1111.355 915.79608 2103.9077 9473149
1125.9677 917.54706 2107.9304 9736834
1136.2267 915.75067 2103.8035 9143927
1157.1949 922.53076 2119.3799 9472634
1156.7252 912.2583 2095.7803 7893856
1164.7769 908.85297 2087.957 9274995
1179.4197 910.60809 2091.9893 7104084
1178.0394 900.08429 2067.8123 6840656
1190.5378 900.27197 2068.2434 7630430
1213.3252 908.15704 2086.3582 6249036
1244.4742 922.07849 2118.3408 7763045
1267.1152 929.48102 2135.3469 8288878
1280.8909 930.2984 2137.2246 7828581
1281.5099 921.63763 2117.3279 8025702
1287.7831 917.17194 2107.0686 9801600
1306.7084 921.71631 2117.5085 7104347
1319.101 921.61011 2117.2646 8486000
1338.9954 926.69781 2128.9529 8683635
1346.9023 923.47162 2121.5413 8091498
1358.6285 922.89948 2120.2268 7565411
1365.0409 918.76123 2110.7197 7630691
1371.8162 914.94019 2101.9414 6578260
1392.5825 920.4353 2114.5657 8617587
1396.337 914.68866 2101.3638 9538945
1406.66 913.30835 2098.1926 7959912
1422.2018 915.31091 2102.7932 8223342
1449.8634 925.01117 2125.0781 9210493
1469.1232 929.23022 2134.7708 8355184
1481.4235 929.01288 2134.2715 8749942
1501.6111 933.70361 2145.0476 9605251
1493.0603 920.59595 2114.9348 8881528
1525.6031 932.83319 2143.0481 8289391
1537.9752 932.63678 2142.5969 6907739
1552.1157 933.50726 2144.5967 8881525
1569.2083 936.12476 2150.6099 9013367
1579.6096 934.74036 2147.4294 9539197
1584.0951 929.90546 2136.322 8223338
1594.562 928.63043 2133.3928 6841685
1615.8927 933.65271 2144.9307 8684146
1605.9672 920.6778 2115.1228 7433824
1650.8004 939.0531 2157.3374 8420462
1687.3859 952.49036 2188.2075 7565155
1707.156 956.30334 2196.9673 6249295
1696.4363 943.10809 2166.6533 7038811
1702.8618 939.57129 2158.5278 9407615
1719.0498 941.43341 2162.8059 8157035
1731.3282 941.14294 2162.1384 8420464
1759.3773 949.36652 2181.031 8617843
1763.2266 944.50708 2169.8672 8881272
1781.0605 947.15491 2175.9502 9342080
1781.2638 940.4563 2160.561 8092013
1841.0782 965.10162 2217.1802 8420978
1895.0483 986.35602 2266.0088 8617843
1906.2615 985.21307 2263.3833 8487027
1932.3008 991.69537 2278.2754 7039325
1938.4033 987.92676 2269.6174 5723464
1941.7222 982.80103 2257.8418 7499617
1962.6316 986.58795 2266.5417 7565409
1985.1473 991.12549 2276.9661 7565409
2001.1451 992.36945 2279.824 7499872
2006.8203 988.51202 2270.9622 7236701
1983.3696 970.4549 2229.4785 6578516
1968.3054 956.71301 2197.9084 5986635
1990.1129 960.95581 2207.6555 8289391
2010.1198 964.2793 2215.2908 7303266
2004.96 955.56519 2195.2715 8882042
2010.6494 952.10101 2187.313 6579288
2005.5702 943.61444 2167.8164 6645084
2013.0621 941.11298 2162.0696 7171427
2037.887 946.69513 2174.8938 7171427
2055.2305 948.75342 2179.6226 7763566
2089.6082 958.60046 2202.2446 7698029
2118.1465 965.66321 2218.4702 8289910
0 0 0 0
0 0 0 0
0 0 0 0
0 0 0 0
0 0 0 0
0 0 0 0
0 0 0 0
0 0 0 0
0 0 0 0
0 0 0 0
0 0 0 0
0 0 0 0
0 0 0 0
0 0 0 0
0 0 0 0
-1473.626 768.3587 1741.4901 3947034
-1453.6548 763.28943 1730.0006 6249790
-1439.4631 761.20441 1725.275 5065004
-1425.0356 758.96411 1720.1973 4275747
-1430.8409 767.54486 1739.6456 4144424
-1415.4834 764.81537 1733.4592 5921090
-1414.8151 770.04095 1745.3031 5460549
-1408.6969 772.35547 1750.549 6052421
-1391.6184 768.65051 1742.1515 3749926
-1381.5524 768.79236 1742.473 5855305
-1372.0912 769.27533 1743.5677 5460800
-1357.0291 766.60175 1737.5081 8026983
-1347.2373 766.88733 1738.1553 7763298
-1345.694 771.90863 1749.5361 1973518
-1348.2372 779.37018 1766.4479 5526081
-1326.5526 772.8338 1751.6329 6841945
-1314.8633 772.06323 1749.8865 5855047
-1318.2522 780.20447 1768.3387 5262911
-1312.616 783.0918 1774.8829 5460545
-1300.2599 781.98456 1772.3732 5065017
-1281.925 777.23425 1761.6066 6052167
-1255.9865 767.75781 1740.1283 5723201
-1244.1737 766.83099 1738.0276 5592128
-1242.2273 772.02039 1749.7894 6118471
-1245.3119 780.45007 1768.8954 7499612
-1240.1661 783.82104 1776.5358 4078119
-1235.1165 787.31104 1784.4458 5657921
-1209.1342 777.40271 1761.9885 4341546
-1200.6299 778.65717 1764.8317 5262914
-1186.6196 776.33136 1759.5602 1776398
-1172.4701 773.87231 1753.9868 1249541
-1174.9446 782.43994 1773.4054 2170643
-1170.4814 786.50055 1782.6088 3025952
-1158.9119 785.81628 1781.058 3486503
-1143.9612 782.80597 1774.235 6973022
-1147.3529 792.40765 1795.9972 2236956
-1148.8641 800.8783 1815.196 1512975
-1141.9347 803.56927 1821.2952 4210221
-1138.26 808.62384 1832.7515 2894363
-1120.7933 803.88361 1822.0076 5592387
-1122.7615 813.12616 1842.9559 5262655
-1099.7585 804.28815 1822.9244 7303264
-1088.5833 804.01056 1822.2953 6316369
-1085.4709 809.74225 1835.2861 4210995
-1074.2794 809.50189 1834.7415 4474167
-1062.6866 808.95135 1833.4937 4605498
-1060.5955 815.6969 1848.7825 1710864
-1046.4543 813.21912 1843.1665 2302997
-1047.5061 822.62012 1864.474 7303263
-1025.2229 813.70099 1844.2588 3881774
-1020.894 818.99316 1856.2535 5592907
-1010.4832 819.46851 1857.3308 4605499
-1001.2784 820.94299 1860.6729 5394759
-991.99475 822.38501 1863.9412 5262915
-982.19385 823.42578 1866.3002 5591368
-982.62885 833.16931 1888.3839 6578776
-974.82764 836.07349 1894.9661 8816250
-966.55914 838.63977 1900.7826 5328452
-955.40887 838.73657 1901.0022 6052172
-945.78235 840.18939 1904.295 7302496
-931.52551 837.51447 1898.2321 6052677
-913.36908 831.22504 1883.9771 4604716
-896.74188 826.18896 1872.5629 6052419
-894.57825 834.51929 1891.4436 6052167
0 0 0 0
0 0 0 0
0 0 0 0
0 0 0 0
-674.56396 671.32031 1521.552 256
-666.8974 672.67944 1524.6324 512
-659.87494 674.7345 1529.2903 5330509
-656.03833 680.14966 1541.5638 4474673
-737.69 775.5993 1757.901 5000245
-773.63776 825.04175 1869.9626 6579019
-764.36005 826.98956 1874.3776 5131321
-754.61176 828.47821 1877.7516 1446918
-748.89661 834.50574 1891.4128 2433557
-741.07111 838.32892 1900.0782 2302483
-733.8634 842.97974 1910.6191 4934971
-720.06378 840.08557 1904.0596 1907985
-704.63251 835.16541 1892.908 8881521
-687.87531 828.48907 1877.776 5788992
-674.84729 826.15863 1872.494 6644045
-661.94067 823.90131 1867.3779 5394233
-649.33618 821.94971 1862.9547 3420700
-639.83069 823.92133 1867.4232 4012839
-629.42615 824.78418 1869.379 8684143
-613.12744 817.81604 1853.5856 5065271
-599.74939 814.56067 1846.2072 4144166
-589.26886 815.1925 1847.6393 7499613
-581.28857 819.37268 1857.1138 3815207
-579.33325 832.37061 1886.5737 1052168
-573.69196 840.47998 1904.9535 4670775
-559.2923 835.82574 1894.4048 6907736
-543.55963 828.9483 1878.8169 7565666
-532.36517 828.84875 1878.5913 6052427
-519.07233 825.4082 1870.7932 7697508
-504.45123 819.65936 1857.7634 8026472
-491.47256 816.38226 1850.3358 8157547
-483.17148 820.90283 1860.5817 5657668
-474.26532 824.5824 1868.9215 5394238
-462.55853 823.45215 1866.3599 5789248
-450.69046 821.97241 1863.006 5065269
-437.57019 818.07733 1854.1777 7696993
-428.09198 820.96613 1860.7253 3420450
-419.37204 825.50018 1871.0018 6315594
-409.72653 828.40906 1877.5947 4144168
-400.88113 833.14331 1888.3248 5394491
-389.3941 832.50153 1886.8702 2631705
-378.96985 834.16107 1890.6317 7697507
-369.17096 837.34021 1897.8373 6710095
-356.94775 835.04767 1892.6411 4406573
-345.85294 835.33185 1893.2852 6249292
-337.58292 842.68622 1909.954 8947063
-327.01508 844.61603 1914.3279 4604727
-319.09695 853.77405 1935.0846 1052167
-308.20874 855.37164 1938.7056 6841685
-294.28448 848.34088 1922.7703 2367763
-286.70792 859.77936 1948.6957 3552031
-271.49576 848.3194 1922.7217 7368027
-263.19165 858.38593 1945.5376 7630947
-252.78958 862.21881 1954.2247 2236179
-240.67569 860.30066 1949.8773 2302232
-230.94365 867.13226 1965.3611 1710356
-216.44792 855.85327 1939.7972 0
-200.16653 835.85297 1894.4664 65795
-189.81102 839.69171 1903.1669 3
-176.74077 831.24725 1884.0276 4
-165.68448 831.77509 1885.2238 4
-153.98515 828.91748 1878.7471 4
-142.89391 829.14313 1879.2584 3
-130.07114 818.51074 1855.16 262919
-120.23788 826.46436 1873.187 65798
-109.03545 825.6673 1871.3805 8
-98.495483 830.27417 1881.822 11
-87.572777 832.41888 1886.683 12
-76.322952 831.62695 1884.8881 11
-65.376854 834.44006 1891.264 12
-54.285385 836.17761 1895.2023 65805
-43.329308 841.45074 1907.1538 1842212
-32.149097 844.55591 1914.1917 10
-21.087975 855.8786 1939.8546 9
-9.6269245 858.65143 1946.1393 8
1.8884739 852.34595 1931.8478 1382426
13.561374 866.93378 1964.9113 1316373
25.261599 868.9856 1969.5616 4606268
37.06179 872.09314 1976.605 5856337
48.538544 867.92499 1967.1578 9277828
60.523064 872.69238 1977.9633 6382173
72.336258 873.84357 1980.5724 4209453
83.868599 871.75415 1975.8367 2432784
95.087738 867.3197 1965.786 6709327
107.14689 870.67889 1973.3997 5328191
119.42352 874.9707 1983.127 7631713
130.74309 872.1095 1976.6421 6776660
140.93506 862.81561 1955.5774 6644564
151.82658 858.89087 1946.682 5526339
164.83606 866.65588 1964.2815 5131326
178.57678 876.9881 1987.6995 6118479
190.93036 879.65106 1993.735 7303013
202.08987 876.82288 1987.325 6512728
217.83806 893.11938 2024.2611 7236706
229.50653 891.86145 2021.41 7565414
240.74586 889.14331 2015.2494 6841690
252.66806 889.0849 2015.1171 6973531
267.24246 897.9433 2035.1945 3947314
280.7355 902.5603 2045.6589 5394247
295.04742 909.31885 2060.9773 11052698
304.19382 900.25311 2040.4298 7236447
317.68866 904.25769 2049.5061 7170910
331.55621 908.98914 2060.23 7236190
342.43948 905.49335 2052.3069 9078393
352.89038 901.1333 2042.4248 7762788
365.94626 903.49384 2047.7749 4670774
370.64722 885.73706 2007.5292 11118490
385.39008 892.33557 2022.4846 9276033
398.66113 895.23102 2029.0472 7236192
413.17044 900.65625 2041.3434 7170397
424.97821 900.05133 2039.9724 5722692
435.86209 897.57739 2034.3651 5788229
450.09207 901.94177 2044.2571 6314572
464.45761 906.34198 2054.2302 6183756
481.90192 916.37189 2076.9631 8420463
494.36584 916.66772 2077.6335 8288876
504.90866 913.47345 2070.3938 8223338
519.76996 918.05847 2080.7856 8157288
526.42108 908.2655 2058.5898 7498843
536.17828 904.15375 2049.2705 7104086
550.41077 907.60352 2057.0894 7367259
563.41132 908.91656 2060.0654 4471855
582.85358 920.34546 2085.9692 8616813
594.49658 919.24036 2083.4644 4603696
607.60364 920.39777 2086.0879 3748645
628.95746 933.7525 2116.3562 5919814
637.94672 928.58722 2104.6492 8025190
647.01019 923.72607 2093.6313 7762016
657.62482 921.22058 2087.9526 6709327
676.21405 929.77252 2107.3357 6643280
681.01501 919.39966 2083.8254 3420969
696.83588 924.00861 2094.2717 5262393
709.08289 923.80023 2093.7996 7235415
726.0296 929.61664 2106.9824 8485740
736.95544 927.65747 2102.542 7498846
744.07269 921.04901 2087.5637 4801333
755.20538 919.5459 2084.157 4998968
761.58447 912.39612 2067.9519 2367250
774.17712 912.79895 2068.865 4538421
795.17096 922.94031 2091.8503 4077612
793.44208 906.80133 2055.2712 7039068
805.24231 906.37836 2054.3127 5065022
825.83252 915.71484 2075.4739 8815222
813.83087 889.16833 2015.306 8025962
821.07867 884.11688 2003.8568 7829098
855.86749 908.44226 2058.9905 7960687
872.80267 913.39978 2070.2268 7697513
878.97858 907.11621 2055.9851 8749942
0 0 0 0
925.8407 929.71222 2107.199 5986637
938.48566 929.87231 2107.5618 10131596
959.6366 938.34521 2126.7659 7762535
960.6579 927.17078 2101.4387 6841945
968.19202 922.48749 2090.824 7368288
980.64404 922.54901 2090.9636 8486768
996.13733 925.43457 2097.5037 8684656
1010.0141 926.76569 2100.5208 8947572
1017.899 922.63324 2091.1545 9144697
1031.5885 923.79828 2093.7952 4473146
1041.0403 921.18597 2087.8743 8157542
1036.6884 906.56378 2054.7329 6512718
1044.9623 903.19403 2047.0953 8749938
1060.7551 906.32568 2054.1934 8223338
1065.9769 900.45685 2040.8916 9539199
1085.1718 906.39062 2054.3403 9078648
1092.6683 902.53015 2045.5906 10065543
1105.5568 903.15906 2047.016 9275257
1100.0724 888.92792 2014.7612 9670015
1136.1124 908.19659 2058.4336 8617324
1149.9482 909.49451 2061.3755 8551786
1161.9899 909.36115 2061.0732 7564892
1169.7847 905.94159 2053.3228 6249547
1184.828 908.14825 2058.3242 7960426
1196.8555 908.02191 2058.0378 7039324
1207.424 906.80255 2055.2739 7367776
1237.6935 920.25549 2085.7654 7301984
1261.1649 928.43799 2104.311 7630948
1271.7843 927.09161 2101.2593 8683636
1282.1406 925.58142 2097.8364 7170397
1290.071 922.36554 2090.5479 8156521
1306.6682 925.34869 2097.3091 6578003
1326.3781 930.45905 2108.8918 6315088
1334.1643 927.18781 2101.4773 10131337
1353.5371 931.95459 2112.2812 8289132
1361.3857 928.77197 2105.0679 7762532
1373.2837 928.38458 2104.1899 7104603
1381.0193 925.21564 2097.0076 8157292
1373.3684 911.8869 2066.7979 8881014
1388.3538 913.69092 2070.8867 7960427
1398.8508 912.53552 2068.2678 8815480
1408.8075 911.05048 2064.9021 8355184
1439.4449 922.84985 2091.6455 4802362
1472.1105 935.737 2120.8542 10394766
1471.2964 927.30505 2101.7432 8552562
1482.6333 926.6087 2100.1648 8025962
1503.722 931.96777 2112.3113 8026474
1534.3317 943.09052 2137.521 6973529
1546.2419 942.63153 2136.4807 9342078
1552.8242 938.95831 2128.1553 9210233
1581.6954 948.71326 2150.2651 7631201
1584.5076 942.80688 2136.8782 10328456
1580.8467 933.17303 2115.043 6906966
1608.1398 941.81915 2134.6394 7498589
1606.2533 933.37445 2115.4995 7169879
1640.9531 946.15576 2144.4685 6643535
1657.7013 948.46948 2149.7124 7104341
1676.5947 951.96606 2157.6375 5854018
1658.7391 934.70154 2118.5073 6381388
1697.4125 949.31128 2151.6204 7170905
1722.8507 956.35638 2167.5881 5920583
1723.8295 949.82007 2152.7737 9144187
1724.3781 943.14471 2137.6438 8157548
1704.4828 925.46631 2097.5757 8420978
1773.4277 955.93146 2166.6252 9407872
1780.9381 953.08167 2160.166 9539459
1786.2959 949.12878 2151.2068 9210494
1854.6215 978.45209 2217.6682 8420722
1877.396 983.50031 2229.1101 8552564
1861.2782 968.24609 2194.5364 9013115
1853.4399 957.48059 2170.1362 6644565
1911.5242 980.68427 2222.7275 6184015
1936.5861 986.74451 2236.4631 7039324
1945.1799 984.38861 2231.1233 8420977
1919.5957 964.88483 2186.918 8684148
1942.9487 970.07593 2198.6836 8092011
1938.0081 961.16547 2178.488 7895403
1941.2648 956.41162 2167.7134 7302753
1961.0272 959.79883 2175.3904 7039581
1962.5081 954.25232 2162.8193 7894634
1987.1968 959.98932 2175.8223 8289908
1941.9862 932.1026 2112.6167 8947837
1959.9308 934.69165 2118.4849 9276805
1969.0103 933.04694 2114.7571 6645083
2017.1294 949.80554 2152.7407 7368807
2042.0812 955.51337 2165.6775 8684668
2069.1406 962.12988 2180.6738 8158324
2071.2131 957.1178 2169.314 7829359
0 0 0 0
0 0 0 0
0 0 0 0
0 0 0 0
0 0 0 0
0 0 0 0
0 0 0 0
0 0 0 0
0 0 0 0
0 0 0 0
0 0 0 0
0 0 0 0
0 0 0 0
0 0 0 0
0 0 0 0
0 0 0 0
-1458.8571 776.30658 1736.1918 6644550
-1434.6213 768.83063 1719.4719 4473640
-1418.5483 765.65338 1712.3661 3947041
-1406.114 764.40851 1709.582 2828561
-1398.9633 766.03882 1713.2281 4868659
-1396.1937 770.1095 1722.332 7895909
-1392.7808 773.88251 1730.7704 5066553
-1368.6454 766.112 1713.3918 6250316
-1373.1555 774.37976 1731.8824 4868405
-1360.1945 772.84509 1728.4502 6776404
-1344.8268 769.90936 1721.8845 6447438
-1331.6688 768.20349 1718.0693 6315853
-1332.5203 774.61523 1732.4091 3881511
-1329.6078 778.92145 1742.0398 6776404
-1322.5619 780.85468 1746.3634 4407855
-1307.516 778.0578 1740.1083 6249547
-1301.7333 780.77258 1746.1798 5262652
-1307.8649 790.73413 1768.4586 3420451
-1281.7235 781.18689 1747.1064 4012845
-1266.9453 778.46613 1741.0215 4538931
-1243.3508 770.2392 1722.6222 8223853
-1224.5756 764.88623 1710.6504 4013616
-1237.1603 779.19513 1742.652 6118477
-1227.5182 779.62817 1743.6205 6381902
-1226.426 785.54492 1756.853 2828055
-1220.1727 788.22888 1762.8556 4341546
-1197.9503 780.55402 1745.691 5986379
-1181.606 776.60895 1736.8679 5723977
-1170.7686 776.24567 1736.0555 1710857
-1157.8435 774.47961 1732.1057 1841679
-1152.775 777.98419 1739.9437 3947566
-1143.0815 778.40259 1740.8795 3948075
-1134.6019 779.6626 1743.6975 6579800
-1112.7234 771.65405 1725.7864 5198400
-1120.0219 783.91815 1753.2148 2960670
-1136.0426 802.57391 1794.938 3816234
-1138.5668 811.95734 1815.9237 2631965
-1115.3116 802.96008 1795.8016 9014140
-1104.181 802.60254 1795.002 4737597
-1103.0248 809.55859 1810.5591 6053710
-1091.1605 808.71509 1808.6726 5000510
-1070.9154 801.58179 1792.7191 6118480
-1063.5432 804.03748 1798.2113 5921360
-1067.2473 815.00128 1822.7316 1118477
-1037.9763 800.75055 1790.86 3092011
-1038.7683 809.63708 1810.7345 3420974
-1035.9591 815.8728 1824.6807 2171160
-1032.3096 821.57141 1837.4254 3816238
-1016.1873 817.35913 1828.0048 2763293
-1009.4237 820.66461 1835.3976 6578772
-1014.9038 834.10486 1865.4563 5920586
-1006.1907 836.04773 1869.8014 3354917
-986.94965 829.18878 1854.4615 2762523
-974.17487 827.66919 1851.0631 4472629
-971.71198 834.97589 1867.4043 6184274
-962.79065 836.83734 1871.5673 6381908
-945.42456 831.31665 1859.2205 8749943
-932.97156 830.03674 1856.358 6117962
-924.9798 832.74274 1862.4099 7500125
-894.68829 815.19574 1823.1664 6381901
-893.66943 824.21741 1843.3433 3355426
-887.77057 828.90607 1853.8292 7171421
-882.49579 834.30212 1865.8973 5131067
0 0 0 0
0 0 0 0
0 0 0 0
0 0 0 0
-679.3772 685.18872 1532.4087 769
-666.81976 681.63232 1524.455 256
-661.38324 685.35736 1532.7859 2171935
-680.60883 715.0979 1599.2999 1579279
-755.60846 805.10565 1800.6003 6842197
-759.29053 820.61383 1835.2839 5196601
-760.17786 833.50818 1864.1218 3749411
-752.11517 836.82483 1871.5393 2697238
-739.03217 834.57123 1866.4991 4671027
-730.66492 837.65552 1873.3971 3947559
-720.01538 838.17798 1874.5657 5723969
-698.28894 825.62024 1846.4806 4408363
-692.25604 831.51318 1859.6602 6776147
-679.12903 828.93774 1853.9001 4802099
-667.00189 827.51825 1850.7255 3815466
-649.42987 819.18311 1832.0841 3223068
-636.05975 815.9549 1824.8643 4276267
-628.49146 820.18652 1834.3282 7829090
-616.26978 818.38751 1830.3048 5592129
-603.88678 816.30609 1825.6497 7039575
-595.99005 820.32343 1834.6345 6315339
-591.12506 828.74066 1853.4594 2104591
-579.58124 827.93573 1851.6592 5131066
-577.07111 840.2533 1879.2072 3553060
-559.74951 831.06482 1858.6572 3355682
-546.80194 828.13214 1852.0984 9671552
-538.53149 832.30768 1861.4369 5658178
-527.40503 832.15173 1861.0881 7500124
-515.51355 830.75629 1857.9672 7565404
-502.87646 828.07208 1851.964 5657922
-490.97586 826.50787 1848.4657 8092007
-480.90118 828.01624 1851.8392 6249802
-466.21643 821.47211 1837.2034 5460283
-457.58725 825.5401 1846.3014 4078375
-448.65881 829.25421 1854.6079 6117957
-436.74567 827.49963 1850.6838 6512719
-424.26917 824.55981 1844.109 1841419
-414.78369 827.4314 1850.5311 6973013
-410.18292 840.46759 1879.6863 8683890
-398.40067 839.10571 1876.6405 1447183
-386.27057 836.91211 1871.7346 5262659
-375.94528 838.61475 1875.5426 6184011
-366.28802 841.95667 1883.0166 6249804
-353.35855 837.75067 1873.6101 4604207
-348.15417 852.18079 1905.8827 5656645
-337.74658 854.41522 1910.88 788224
-325.79544 852.76453 1907.1881 854531
-314.68011 853.26147 1908.2996 3091231
-307.74771 865.5603 1935.8057 1052422
-295.63968 863.69098 1931.6249 2959900
-284.64175 865.04468 1934.6525 7039573
-273.84457 867.14771 1939.3558 3026720
-258.43457 854.18848 1910.3728 4013615
-248.01494 857.29193 1917.3136 4013617
-234.72391 850.29169 1901.6578 3092519
-223.92288 852.06042 1905.6135 1052942
-210.46408 843.36682 1886.1705 0
-198.41866 839.67944 1877.9238 2
-186.96474 838.20599 1874.6283 4
-174.98038 834.01813 1865.2622 4
-163.16568 830.12866 1856.5637 65797
-151.08096 824.2041 1843.3135 3
-138.44995 814.14392 1820.8141 1316120
-128.55421 819.82721 1833.5247 4211013
-117.98656 821.87909 1838.1136 2039587
-107.13769 822.19012 1838.8092 1381661
-96.939468 828.12982 1852.0933 8
-86.045654 828.88513 1853.7825 265
-75.078987 829.05695 1854.1667 526867
-64.439857 833.52435 1864.158 9
-53.685883 838.04688 1874.2725 9
-43.186718 849.94293 1900.8777 3027258
-32.418629 863.07166 1930.2397 8
-20.984112 863.09875 1930.3005 8
-9.6009235 867.83057 1940.8829 65796
1.9014891 869.74377 1945.162 5987420
13.46058 872.04443 1950.3073 8290428
25.178963 877.77295 1963.1189 5264201
36.713634 875.50055 1958.0367 9408649
48.209946 873.62427 1953.8405 4276279
59.6078 871.03577 1948.0514 7434601
71.694603 877.72144 1963.0038 3553072
84.415443 889.21979 1988.7196 2893597
93.947334 868.42389 1942.21 5723205
106.35235 875.82666 1958.7661 5525309
117.55413 872.83887 1952.084 6446409
129.63237 876.31116 1959.8497 6643530
140.52657 871.86646 1949.9092 5459516
151.6615 869.47711 1944.5654 6512462
164.96596 878.98492 1965.8296 9342333
176.24071 877.13715 1961.697 9276540
187.50343 875.46185 1957.9503 5920335
199.92268 879.06708 1966.0131 7104862
214.44281 891.00439 1992.7107 4341556
225.60657 888.47803 1987.0605 6710108
235.77306 882.46948 1973.6226 5592397
248.2646 885.32007 1979.9978 5921105
260.48892 887.00348 1983.7627 7236706
276.5798 901.13934 2015.3773 6578773
292.28995 912.91614 2041.7159 6578772
303.93842 911.57513 2038.7167 7105116
314.71298 907.81573 2030.309 4868156
325.11789 903.30609 2020.2233 7697514
335.76053 899.75378 2012.2786 8157550
341.01523 882.50189 1973.6951 7499618
360.10596 901.01251 2015.0936 6512980
372.18634 901.3576 2015.8655 7104606
385.52264 904.62836 2023.1803 9407362
396.06488 901.34314 2015.8331 6644570
409.94992 905.63507 2025.4319 6578521
420.09775 901.66156 2016.5454 7499880
434.29044 906.34943 2027.0294 6645084
449.49072 912.83105 2041.5256 8420463
463.0676 915.76276 2048.0823 6117448
477.68164 920.54346 2058.7742 5854020
489.13461 919.14594 2055.6487 6643535
497.43216 912.03094 2039.7362 7696479
503.66257 901.55341 2016.3033 5919298
512.51227 896.14105 2004.1987 4932915
530.39697 906.414 2027.1741 6643277
548.6839 916.90442 2050.6355 5853764
563.86279 921.85883 2061.7161 6116934
574.74078 919.72095 2056.9346 5524798
588.06268 921.50128 2060.9163 5459263
598.8808 919.3656 2056.1399 3485473
0 0 0 0
632.8009 933.46484 2087.6726 3617060
640.88861 927.27209 2073.8228 6906455
651.50671 924.90466 2068.5278 7498848
671.60547 935.83514 2092.9736 4998713
679.77332 930.04584 2080.0261 5985864
685.80511 921.59229 2061.1199 4735279
699.77356 923.91333 2066.3108 6643535
714.49579 927.13251 2073.5105 8157545
720.30707 918.87555 2055.0439 8420716
734.18134 921.00781 2059.8127 4670269
746.19562 920.77521 2059.2925 6314833
753.43286 914.75012 2045.8176 8354671
764.22778 913.16699 2042.2769 5526084
771.84705 907.89777 2030.4923 5920587
773.21661 895.5517 2002.8806 7434081
798.45166 910.80249 2036.9888 6776411
803.02332 902.37909 2018.1499 7631464
813.02917 900.21985 2013.3209 7960173
822.78571 897.85095 2008.0228 7960427
833.7746 896.87518 2005.8407 8618100
865.66107 918.09009 2053.2874 9473664
854.61304 893.81329 1998.9927 9736837
872.35175 899.89563 2012.5958 6249811
914.28021 930.43109 2080.8877 5592393
920.26068 924.05774 2066.6338 9672069
934.38306 925.9198 2070.7983 8158060
937.96997 917.42902 2051.8088 8223598
949.2533 916.58691 2049.9255 8684148
960.37494 915.61206 2047.7451 6117964
979.39648 922.09924 2062.2537 9868158
991.52338 922.0152 2062.0657 6907220
1001.8964 920.32214 2058.2793 8157802
1012.8307 919.17914 2055.7229 9605504
1018.1298 913.00989 2041.9257 8684147
1036.0514 918.17206 2053.4705 5657670
1033.6827 905.44122 2024.9984 8420464
1057.7925 915.92999 2048.4563 8552050
1055.6063 903.66956 2021.0361 8354670
1064.3622 900.94641 2014.9458 7631460
1073.145 898.30609 2009.0408 8157290
1080.5172 894.55585 2000.6534 10525580
1099.3264 900.25293 2013.3948 8025187
1113.2129 901.83966 2016.9437 9209462
1145.3584 918.02783 2053.1479 8025187
1152.2382 913.83734 2043.7761 8222309
1143.1427 897.19592 2006.558 4013104
1162.594 903.07147 2019.6985 8881528
1188.1218 913.49933 2043.02 7698024
1201.9332 914.79938 2045.9276 7499876
1222.5913 921.23248 2060.3152 10131596
1242.2767 926.81268 2072.7952 8486773
1266.1882 935.40582 2092.0134 7959659
1283.5764 939.05981 2100.1855 7236449
1292.4851 936.49976 2094.46 7959913
1285.5323 922.60474 2063.3843 6840919
1312.9615 933.41449 2087.5601 7828327
1329.3151 936.22211 2093.8391 7959913
1339.2521 934.50043 2089.9885 7104604
1358.2487 939.07391 2100.217 8420464
1365.0369 935.20032 2091.554 7565156
1372.3218 931.73358 2083.8008 6644054
1369.5188 921.54077 2061.0046 8157291
1383.1743 922.50488 2063.1609 7631202
1404.5878 928.58099 2076.75 7236190
1417.9127 929.25073 2078.2478 8683892
1436.061 933.04279 2086.7285 4736829
1457.8401 939.10883 2100.2952 9802628
1472.0272 940.22302 2102.7871 9144700
1470.2933 931.23474 2082.6851 9210492
1487.6914 934.41284 2089.7927 7828839
1522.7031 948.51019 2121.321 7960426
1533.8898 947.65729 2119.4136 9013114
1550.559 950.17786 2125.0508 9605251
1555.282 945.39618 2114.3567 9276287
1568.1206 945.58484 2114.7786 8091243
1581.1079 945.85925 2115.3923 7828838
1589.163 943.20209 2109.4497 7433566
1623.4235 956.01849 2138.1133 7038551
1647.7993 962.86053 2153.4153 4801588
1638.7821 950.23468 2125.178 4866867
1660.0956 955.25433 2136.4043 5195832
1631.2056 931.52856 2083.342 6973783
1661.4955 941.70093 2106.0923 5921610
1685.4983 948.18481 2120.5935 6645334
1698.7767 948.58441 2121.4871 7434082
1694.3826 939.18231 2100.4595 8684149
1710.2513 941.06696 2104.6746 8882300
1738.3877 949.62579 2123.8162 9868423
1750.0044 949.10236 2122.6455 8947322
1749.7352 942.18597 2107.1772 8947322
1753.4612 937.50378 2096.7056 10526354
1752.6284 930.46722 2080.9685 8683639
1831.7443 965.677 2159.7144 7762793
1847.5492 967.25305 2163.239 7105119
1864.8035 969.56079 2168.4004 8947320
1880.7625 971.16821 2171.9954 7763044
1845.9197 946.69958 2117.2717 7499616
1852.0248 943.41998 2109.937 9013112
1904.2942 963.54291 2154.9414 8223595
1930.2698 970.18195 2169.7896 6710359
1948.0225 972.62762 2175.2593 9342336
1951.2805 967.85175 2164.5781 8421492
1953.8887 962.81805 2153.3203 7105118
1949.5276 954.43744 2134.5774 8289649
1939.6945 943.50336 2110.1235 8749943
1955.8696 945.27924 2114.0952 8224116
1959.9629 941.23041 2105.04 7631979
1983.0192 946.28168 2116.3372 8553082
2021.1584 958.42181 2143.4883 7763566
2047.8914 965.03534 2158.2793 8684668
2044.9084 957.65063 2141.7634 8750205
0 0 0 0
0 0 0 0
0 0 0 0
0 0 0 0
0 0 0 0
0 0 0 0
0 0 0 0
0 0 0 0
0 0 0 0
0 0 0 0
0 0 0 0
0 0 0 0
0 0 0 0
0 0 0 0
0 0 0 0
0 0 0 0
-1439.1201 775.95032 1712.7028 5065523
-1444.3123 784.27942 1731.0869 5262649
-1417.5396 775.24615 1711.1484 3552287
-1408.561 775.88446 1712.5573 3223066
-1394.8605 773.91199 1708.2036 5986885
-1382.2632 772.52734 1705.1473 6512975
-1370.6376 771.66937 1703.2537 4671026
-1363.1254 773.13177 1706.4814 7039573
-1349.9664 771.38922 1702.6354 5657921
-1348.1884 776.17267 1713.1935 5065531
-1334.3828 774.05188 1708.5123 2368273
-1317.3141 769.99115 1699.5494 4605234
-1322.1732 778.78381 1718.9569 5065783
-1318.4456 782.61591 1727.4152 6315847
-1308.8824 783.01703 1728.3005 1841417
-1302.1935 785.15735 1733.0248 4012841
-1294.6396 786.80621 1736.6642 3815721
-1286.6812 788.23346 1739.8146 3683879
-1275.0453 787.4129 1738.0033 4078895
-1263.0266 786.34058 1735.6365 4012846
-1239.6552 778.12463 1717.5018 5986635
-1225.3848 775.53265 1711.7808 6841943
-1228.5126 784.00037 1730.4711 5262909
-1215.9297 782.50012 1727.1597 4012843
-1223.3213 793.93799 1752.4055 1775370
-1215.1013 795.35284 1755.5286 6644561
-1197.0159 790.27899 1744.3293 4737074
-1177.317 784.0423 1730.5636 3815724
-1160.3101 779.50439 1720.5474 4407604
-1148.561 778.44971 1718.2195 3025952
-1142.8285 781.49042 1724.9309 6118992
-1126.0745 776.98126 1714.9781 6843229
-1114.0697 775.69672 1712.1429 3223590
-1104.63 776.19098 1713.2339 4607552
-1103.9843 782.93103 1728.1107 2237206
-1112.0466 796.0307 1757.0247 4277303
-1118.468 808.19202 1783.8677 2829088
-1107.261 807.72595 1782.8389 6645851
-1093.0034 805.00415 1776.8312 7303524
-1087.9147 809.04797 1785.7568 6645593
-1079.1838 810.43597 1788.8206 4737083
