# .PCD v0.7 - Point Cloud Data file format
VERSION 0.7
FIELDS x y z rgb
SIZE 4 4 4 4
TYPE F F F U
COUNT 1 1 1 1
WIDTH 1332
HEIGHT 1
VIEWPOINT 0 0 0 1 0 0 0
POINTS 1332
DATA ascii
1551.9756 1240.4514 3351.5127 7301733
1586.5967 1252.1044 3382.9971 7828328
1596.5958 1244.278 3361.8516 7433569
1614.5958 1242.8029 3357.866 6117194
1642.5264 1248.9144 3374.3784 6446159
1642.1404 1233.6072 3333.0205 4604470
1673.4601 1242.1986 3356.2334 5788486
1663.9462 1220.6337 3297.968 5196346
1689.9292 1225.3066 3310.594 4670002
1703.3093 1220.8396 3298.5244 5723716
1701.0801 1205.4127 3256.8433 6907736
1723.7954 1207.8098 3263.3198 4736311
1727.4719 1196.9617 3234.01 6973272
1785.3801 1223.5164 3305.7568 7762787
1789.948 1213.3374 3278.2546 7565409
1816.7352 1218.2771 3291.6008 7762787
1864.3118 1236.9047 3341.9299 7630947
1865.6854 1224.8092 3309.2495 7433827
1910.6852 1241.3073 3353.8252 6973532
1921.28 1235.3445 3337.7144 7236449
1930.0564 1228.3456 3318.8044 7565415
1947.3921 1226.8804 3314.8455 7302243
1963.9296 1224.9465 3309.6208 6973278
1992.897 1230.7271 3325.239 6973279
2014.3508 1231.7999 3328.1377 7960173
1990.0546 1205.1465 3256.124 8157806
2056.9001 1233.6689 3333.1875 7631208
2093.3933 1243.6174 3360.0669 8355185
2108.532 1240.8121 3352.4873 7894120
2112.2454 1231.3986 3327.0532 6775640
2158.4939 1246.7268 3368.4678 6512724
2196.8357 1257.2491 3396.8977 5919816
2197.8044 1246.3862 3367.5476 5985866
2189.4719 1230.4913 3324.6021 5459779
2233.3484 1243.9598 3360.9919 5393729
2309.8247 1275.1877 3445.365 6973019
2343.7927 1282.6066 3465.4094 6052430
2380.4639 1291.3629 3489.0679 6249809
2387.623 1284.0966 3469.4351 6907739
2332.3728 1243.676 3360.2251 7631462
2383.2969 1260.0753 3404.5334 6117454
2411.0964 1264.0758 3415.342 6446417
2411.7732 1253.9081 3387.8706 6841432
2446.0298 1261.2228 3407.6338 6117708
2442.9661 1249.332 3375.5066 5328191
2445.7004 1240.5754 3351.8479 6644054
2454.979 1235.2527 3337.4666 6907225
2486.1899 1240.9624 3352.8933 6117709
2513.9556 1244.8756 3363.4661 6907225
2568.0142 1261.6447 3408.7734 6512467
2596.1538 1265.5177 3419.2378 6117710
2608.5291 1261.7057 3408.9385 6973019
2626.7114 1260.7396 3406.3281 6841947
2648.5017 1261.5066 3408.4006 7368036
2665.8389 1260.157 3404.7542 6841691
2649.2451 1242.9088 3358.1523 6249555
2672.2561 1244.3601 3362.0732 8552310
2715.6445 1255.2086 3391.3843 5394247
2769.8123 1270.8435 3433.6274 7236450
2784.3442 1268.1974 3426.4783 6578520
2809.0005 1270.1676 3431.8013 7171168
2748.1211 1233.7101 3333.2983 6052430
2762.1467 1231.1598 3326.408 6973531
2884.3335 1276.5143 3448.9492 8223856
2865.7178 1259.3544 3402.5857 7039838
2901.9702 1266.3779 3421.562 6710616
2912.0972 1261.9823 3409.6858 7236703
2966.1433 1276.5488 3449.0425 7170910
2995.8916 1280.5305 3459.8003 8421490
2919.7615 1239.5101 3348.9695 8158575
2938.0334 1238.8489 3347.1829 7895402
2957.3438 1238.6315 3346.5955 7698023
2971.5291 1236.2847 3340.2546 7828840
2972.219 1228.3915 3318.9285 7960169
3029.6106 1243.8823 3360.7822 6512981
3038.0491 1239.2031 3348.1399 6644567
3096.6694 1254.9208 3390.6067 6578774
3105.312 1250.313 3378.157 8025965
3128.4666 1251.5697 3381.5525 7763048
3156.6929 1254.8267 3390.3523 7170658
3126.0571 1234.7919 3336.2214 7960426
3098.6421 1216.2729 3286.1863 6841945
3172.8037 1237.6072 3343.8279 7499875
3165.594 1227.1332 3315.5288 7697511
0 0 0 0
0 0 0 0
0 0 0 0
0 0 0 0
0 0 0 0
0 0 0 0
0 0 0 0
0 0 0 0
-2631.4358 1114.7646 2964.4756 7960163
-2599.1445 1108.483 2947.771 2302225
-2631.4646 1129.8584 3004.6138 4078889
-2577.6772 1114.3014 2963.2437 1644299
-2565.7964 1116.771 2969.8108 2366475
-2601.929 1140.3171 3032.4268 7169877
-2595.3027 1145.3208 3045.7329 7566688
-2577.1206 1145.2593 3045.5693 10197125
-2560.1692 1145.7476 3046.8679 4540210
-2548.9624 1148.832 3055.0703 2960658
-2525.9487 1146.6011 3049.1377 7829861
-2526.2417 1154.9938 3071.4563 6053966
0 0 0 0
0 0 0 0
0 0 0 0
0 0 0 0
0 0 0 0
0 0 0 0
0 0 0 0
0 0 0 0
0 0 0 0
0 0 0 0
0 0 0 0
0 0 0 0
0 0 0 0
0 0 0 0
0 0 0 0
-1138.6631 588.40564 1564.7375 329223
0 0 0 0
-1161.2181 609.99292 1622.1442 3
-1140.1313 603.91376 1605.978 3421496
-1121.8932 599.25391 1593.5862 1
-1123.1256 605.0033 1608.8755 4
-1116.0397 606.33185 1612.4083 4
0 0 0 0
0 0 0 0
0 0 0 0
-2240.385 1260.325 3351.5618 1184534
-2258.0928 1281.6451 3408.2581 394762
-2252.3853 1289.9399 3430.3162 526605
-2271.1526 1312.5302 3490.3901 4
-2277.8149 1328.4757 3532.7937 1250074
-2260.4341 1330.5642 3538.3477 6
-2241.1899 1331.5848 3541.0618 263180
-2236.8989 1341.593 3567.6765 723731
-2225.6565 1347.5831 3583.6057 1118490
-2230.5801 1363.571 3626.1223 131854
-2215.053 1367.2467 3635.897 263181
-2218.603 1382.8856 3677.4854 987419
-2208.5151 1390.2496 3697.0684 2896437
0 0 0 0
-2159.9497 1387.1921 3688.9375 8557730
-2089.7769 1355.8429 3605.5708 10268861
-2080.387 1363.6895 3626.4373 10334399
-2032.1315 1345.9575 3579.283 10268351
-1985.9639 1329.2491 3534.8508 10531778
-1963.7821 1328.41 3532.6194 10662594
-1938.8047 1325.6415 3525.2566 10596801
-1923.3539 1329.397 3535.2439 10268092
-1897.8888 1326.2374 3526.8416 10268349
-1883.0349 1330.505 3538.1904 10202300
-1851.9919 1323.3013 3519.0334 10399422
-1830.5792 1322.8928 3517.9475 10596541
-1794.2894 1311.6001 3487.9167 9477289
-1766.7616 1306.5236 3474.417 8160652
-1739.4669 1301.502 3461.063 6975604
-1718.5642 1301.2002 3460.2605 6843500
-1741.2642 1334.3032 3548.2908 7105901
-1721.8877 1335.5786 3551.6824 6250590
-1701.5403 1336.1233 3553.1309 4868421
-1642.0028 1305.5223 3471.7542 6447704
-1613.0967 1298.8083 3453.8997 5855307
-1584.7992 1292.4181 3436.9065 6973274
-1577.7418 1303.4086 3466.1331 5591879
-1557.1034 1303.3214 3465.9011 2433561
-1522.9683 1291.7837 3435.2195 2894367
-1515.0853 1302.5026 3463.7236 5066049
-1537.8235 1340.2015 3563.9761 5987663
-1481.0763 1308.715 3480.2444 7105888
-1465.0663 1312.8441 3491.2249 7961196
-1431.9442 1301.5375 3461.1575 8158831
-1406.2758 1296.7759 3448.4949 6777179
-1388.0503 1298.8384 3453.9797 7435109
-1369.7699 1300.9105 3459.49 8356211
-1352.1594 1303.6914 3466.8855 7632744
-1361.7607 1333.1992 3545.3547 7961707
-1294.903 1287.6034 3424.1025 7698281
-1283.8773 1296.9573 3448.9773 7040092
-1253.5897 1286.8408 3422.0747 8355953
-1236.08 1289.724 3429.7419 8223852
-1234.9153 1310.0431 3483.7764 8618610
-1215.9781 1311.879 3488.6584 7631459
-1179.2417 1294.2429 3441.7593 9473663
-1157.9209 1293.2031 3438.9941 6512977
-1139.0426 1294.903 3443.5142 6249803
-1092.9019 1265.1064 3364.2769 6841939
-1093.2249 1288.9871 3427.7822 7302491
-1060.7183 1274.3304 3388.8064 7565407
-1034.7396 1267.1025 3369.585 8487022
-1017.6954 1270.746 3379.2742 8026470
-1009.0457 1285.2279 3417.7856 7960678
-981.61011 1275.8853 3392.9409 8356207
-974.01166 1292.475 3437.0576 8355952
-949.88666 1287.3748 3423.4949 8948092
-924.56384 1280.3934 3404.9294 8027245
-916.40192 1297.3961 3450.1443 7829355
-895.16791 1296.2456 3447.0847 5921614
-868.39532 1286.8339 3422.0564 8093040
-836.55603 1269.2847 3375.3882 7566696
-828.6994 1288.1553 3425.5706 6315861
-817.33533 1302.3845 3463.4099 4275764
-800.08185 1307.7203 3477.5994 4605242
-784.76355 1316.585 3501.1729 7895405
-784.07294 1351.1376 3593.0581 8290677
-738.52362 1308.1597 3478.7678 9474951
-716.70746 1305.9601 3472.9185 9737867
-698.62207 1310.6294 3485.3354 10001037
-677.1861 1309.106 3481.2842 10198159
-645.95099 1287.9485 3425.0205 8290419
-610.44238 1256.6216 3341.7134 8816505
-600.93811 1278.5199 3399.9473 9803400
-584.40259 1286.4591 3421.0598 8553330
-564.24231 1286.7028 3421.7078 9144951
-542.86975 1284.0972 3414.7786 7829092
-519.29974 1275.8907 3392.9556 6579025
-496.41531 1268.7756 3374.0344 6907477
-481.5361 1282.3824 3410.2188 7763297
-455.85626 1267.158 3369.7324 5460544
-438.51849 1274.7897 3390.0276 6841945
-414.32581 1262.2703 3356.7346 7499875
-400.88281 1282.889 3411.5659 6315601
-386.34494 1302.0076 3462.4075 8618099
-364.64703 1297.7871 3451.1841 5328449
-343.47687 1295.0552 3443.9192 6644563
-323.57104 1297.0463 3449.2141 6710614
-301.74374 1291.0845 3433.3599 7368030
-279.57922 1282.7135 3411.0994 6710611
-258.42392 1278.0293 3398.6423 6381135
-235.85185 1264.9548 3363.8738 6117961
-214.34453 1255.7046 3339.2749 7631200
-194.59962 1255.9481 3339.9224 7104854
-174.8615 1256.2953 3340.8457 7631200
-154.29878 1250.0507 3324.2395 8092008
-133.79764 1242.5508 3304.2952 8157546
-114.9777 1250.7688 3326.1492 8618354
-96.190224 1262.8126 3358.177 8289390
-75.840195 1255.2745 3338.1311 7434080
-56.299911 1260.5487 3352.1567 8420974
-36.917797 1277.0427 3396.0188 8420974
-16.866735 1282.191 3409.7097 8749940
3.291734 1266.2573 3367.3376 7828838
23.546661 1282.9329 3411.6824 7302493
42.898304 1257.7207 3344.6362 7696994
62.306431 1249.5731 3322.9695 8157545
82.363747 1255.2317 3338.0171 7302238
102.86208 1264.1188 3361.6506 7960170
121.97823 1255.8922 3339.7737 8289391
141.4124 1252.7791 3331.4949 7368289
161.4119 1254.8234 3336.9312 7960426
181.74991 1258.7661 3347.416 8026218
202.13918 1262.2531 3356.689 6644567
220.59416 1254.1187 3335.0574 8223598
243.12161 1268.5713 3373.4907 8486768
260.09113 1254.0305 3334.8228 7499616
279.23788 1251.2992 3327.5596 8420720
298.43326 1249.1317 3321.7957 8486511
319.33566 1253.9353 3334.5698 7762787
339.1123 1254.0165 3334.7854 7960163
354.60974 1239.1354 3295.2124 8618095
374.21964 1239.4279 3295.9902 7433818
392.11459 1234.293 3282.3352 7696991
416.02707 1247.6903 3317.9626 6973268
440.64914 1261.911 3355.7793 8091748
464.05463 1271.5702 3381.4658 8091748
481.30829 1264.2708 3362.0544 7894370
498.0535 1256.2689 3340.7754 7828577
517.34247 1255.0497 3337.5332 7696733
531.23688 1241.3152 3301.0093 6578252
551.18726 1242.2041 3303.373 7104339
572.42621 1245.8367 3313.0332 6446920
592.09882 1245.9323 3313.2874 8814959
608.64844 1239.661 3296.6104 5525563
631.02094 1245.2708 3311.5283 6577994
635.31238 1215.9364 3233.52 8552297
665.7619 1236.9186 3289.3174 6907474
691.63367 1248.4441 3319.9668 7499615
715.42438 1255.6797 3339.2085 9605251
740.15515 1264.1313 3361.6841 9013627
760.98859 1265.6583 3365.7446 9211006
781.19446 1266.0902 3366.8931 7960678
814.06226 1286.5109 3421.1973 8223850
843.96863 1301.3729 3460.7197 7565407
859.94672 1294.5625 3442.6089 6644302
858.86218 1262.9767 3358.6133 7828577
867.45453 1246.7291 3315.4065 6841681
874.63348 1229.2146 3268.8303 8552045
914.03192 1256.7594 3342.0796 6512719
936.25177 1260.0171 3350.7429 6249550
956.19513 1260.1394 3351.0681 7236446
992.49896 1281.3792 3407.5505 6907739
1016.9833 1286.8165 3422.0103 7631462
1010.3372 1253.421 3333.2021 7236194
1026.2074 1248.7041 3320.6587 7828841
1044.9597 1247.6057 3317.7375 6447187
1072.4408 1256.777 3342.1265 6315088
1093.6851 1258.4393 3346.5471 6841435
1129.7701 1276.8149 3395.4131 3487024
1142.0157 1268.0768 3372.1758 1250322
1151.8368 1256.9929 3342.7007 262
1157.2457 1241.5504 3301.6348 791070
1177.5872 1242.3752 3303.8281 1516340
1182.2194 1226.8705 3262.5967 1055277
1214.6378 1240.2365 3298.1406 271
1227.6028 1233.6302 3280.5728 4014932
1229.6731 1216.4523 3234.8918 11
1243.9746 1211.7157 3222.2959 10530753
1271.63 1219.9332 3244.1487 7
1302.3187 1230.7729 3272.9744 5070437
1290.1234 1201.3608 3194.7593 13292501
1313.4502 1205.3992 3205.4983 11382468
1328.8308 1202.1337 3196.8147 1645866
1339.7363 1194.9686 3177.7607 11322824
1345.4445 1183.4305 3147.0776 13424605
1361.3678 1181.0703 3140.801 12
1376.4427 1178.0475 3132.7625 65801
1377.074 1162.9077 3092.5015 12106678
1432.9397 1194.1974 3175.7097 460294
1474.53 1212.9333 3225.5337 7105629
1542.3262 1252.4706 3330.6746 6842202
1560.5116 1251.2308 3327.3777 7170910
1582.0554 1252.6812 3331.2346 7565156
1591.4332 1244.5813 3309.6948 6183501
1590.0034 1228.3295 3266.4766 6315341
1617.8068 1234.7803 3283.6311 4933689
1634.5803 1232.7596 3278.2576 5723206
1627.4607 1212.9781 3225.6531 7367774
1672.1101 1231.7927 3275.6863 6315853
1686.1227 1227.8652 3265.2419 7170650
1672.7197 1204.2887 3202.5452 8354925
1695.4147 1206.9386 3209.5923 8683889
1713.9915 1206.6305 3208.7727 6973272
1732.8369 1206.5164 3208.4692 5657155
1764.6826 1215.358 3231.9817 6973017
1772.3323 1207.5247 3211.1506 7959400
1799.3531 1212.9155 3225.4866 7630948
1808.9127 1206.5464 3208.5491 7565155
1834.6514 1210.989 3220.3633 7236190
1874.6996 1224.6881 3256.793 6249809
1899.5343 1228.2708 3266.3203 6183762
1939.1083 1241.2158 3300.7451 7894380
1915.0168 1213.5573 3227.1931 5921360
1960.8208 1230.3007 3271.7185 7960943
1971.6569 1224.991 3257.5984 9210495
1967.6069 1210.625 3219.3953 6710361
2028.3074 1235.9918 3286.8528 7433830
2041.6971 1232.3208 3277.0906 7105118
2077.4753 1242.1046 3303.1084 9144445
2090.7964 1238.4042 3293.2683 7828584
2113.0054 1239.9879 3297.4797 6709847
2151.2791 1250.8839 3326.4551 6248526
2143.3972 1234.9879 3284.1831 5788746
2205.8547 1259.5415 3349.4783 4736057
2205.281 1247.9874 3318.7527 6907225
2235.3198 1253.8085 3334.2324 6446675
2310.2036 1284.4611 3415.7463 7039069
2269.9397 1251.1157 3327.0715 6644567
2275.2065 1243.2234 3306.0837 7170911
2268.1843 1228.8082 3267.7498 6578774
2318.5278 1245.4523 3312.011 6512980
2346.874 1250.1 3324.3704 7170909
2383.5352 1259.0623 3348.2039 7565155
2360.7478 1236.7334 3288.825 6249295
2402.1116 1248.1018 3319.0569 5525572
2409.9155 1241.9902 3302.8044 5854537
2450.1907 1252.5768 3330.957 6380624
2413.7583 1224.0934 3255.2117 6117708
2457.1633 1236.2286 3287.4827 6709846
2518.6772 1257.2122 3343.2839 7038813
2525.6067 1250.8347 3326.3245 7038812
2542.5872 1249.4954 3322.7627 6315090
2575.262 1255.83 3339.6082 6183505
2588.5938 1252.7074 3331.3042 6380884
2611.7556 1254.353 3335.6804 7828330
2637.2458 1257.0837 3342.9421 7631208
2653.9185 1255.6019 3339.002 6775899
2671.8989 1254.7565 3336.7534 5855307
2675.5762 1247.2557 3316.8069 6907995
2742.5076 1269.1361 3374.9929 6775897
2718.2646 1248.8129 3320.9475 7039326
2741.5576 1250.4635 3325.3374 5526088
2734.5269 1238.3583 3293.1458 6841691
2786.7288 1253.0585 3332.238 7960173
2767.7983 1235.7921 3286.3218 6315605
2782.7478 1233.7883 3280.9932 7039328
2802.7939 1234.0564 3281.7061 6907742
2778.6003 1214.9764 3230.967 6381142
2855.394 1240.0132 3297.5469 7433829
2850.4014 1229.4338 3269.4133 8552309
2878.1057 1233.0049 3278.9097 7105119
2948.4131 1254.6571 3336.4893 7631718
2919.7944 1234.2048 3282.1006 7960427
2965.9285 1245.4121 3311.9043 7301984
2993.1252 1248.5725 3320.3086 7434083
2978.7925 1234.481 3282.835 6644567
2979.5403 1226.7812 3262.3594 7039324
3012.2383 1232.2511 3276.9053 6249556
3042.0671 1236.4847 3288.1636 7104864
3030.8992 1224.1068 3255.2473 7697001
3045.9758 1222.418 3250.7563 6183762
3058.0708 1219.5613 3243.1594 5722955
3102.3066 1229.478 3269.5308 5854797
3139.0542 1236.3224 3287.7322 6446676
0 0 0 0
0 0 0 0
0 0 0 0
0 0 0 0
0 0 0 0
0 0 0 0
0 0 0 0
0 0 0 0
-2614.1101 1124.8716 2944.957 5395776
-2552.709 1105.8306 2895.1072 6907988
-2599.4167 1133.6813 2968.0215 3617825
-2575.0911 1130.7207 2960.2705 4473134
-2551.3865 1127.994 2953.1321 788993
-2553.9399 1136.9189 2976.4976 4012327
-2570.6733 1152.3241 3016.8291 8421483
-2553.7927 1152.7717 3018.001 6974807
-2548.6501 1158.5616 3033.1592 8027497
-2545.1929 1165.2053 3050.5525 1711373
-2524.0361 1163.7832 3046.8291 3487784
-2533.9124 1176.7521 3080.7825 6777433
-2513.8701 1175.9142 3078.5889 5198402
-2480.8069 1168.9288 3060.301 2632736
-2486.6472 1180.3065 3090.0881 4672063
-2498.1604 1194.5656 3127.4189 1447953
0 0 0 0
0 0 0 0
0 0 0 0
0 0 0 0
0 0 0 0
0 0 0 0
0 0 0 0
0 0 0 0
0 0 0 0
0 0 0 0
0 0 0 0
0 0 0 0
0 0 0 0
-1159.8904 618.89441 1620.2894 257
-1156.7738 622.38214 1629.4204 1842466
-1153.4779 625.83124 1638.4503 65794
-1137.656 622.48517 1629.6902 5
-1118.4465 617.21234 1615.8857 4
-1104.8749 614.98657 1610.0586 2237222
0 0 0 0
0 0 0 0
-2238.7761 1279.2611 3349.155 1119512
-2269.2673 1308.2787 3425.124 1580065
-2282.5991 1327.8379 3476.3311 66824
-2274.6592 1335.2664 3495.7788 1185051
-2286.0195 1354.265 3545.5183 2040362
-2261.3313 1352.0625 3539.752 132363
-2246.8096 1355.9543 3549.9409 66060
-2236.8989 1362.7288 3567.6765 262
-2226.7744 1369.5007 3585.406 2699320
-2221.7175 1379.5499 3611.7151 7109507
-2196.7332 1377.3005 3605.8262 8623774
-2213.7959 1401.6283 3669.5171 10268345
0 0 0 0
-2130.1543 1375.6902 3601.6099 9873588
-2085.8994 1360.7395 3562.4685 10531519
-2064.7275 1360.6951 3562.3523 10663106
-2013.7189 1340.7842 3510.2246 10663363
-1982.4027 1333.7059 3491.6936 10465727
-1958.7639 1331.6982 3486.4373 9939128
-1936.2914 1330.4489 3483.1665 8425631
-1918.8011 1332.6331 3488.8848 10135736
-1885.0331 1323.4365 3464.8079 10070454
-1877.6061 1332.7344 3489.1501 9806766
-1851.178 1328.6022 3478.3318 9147806
-1827.2391 1326.1835 3471.9995 8423565
-1799.6401 1321.0231 3458.4895 7633784
-1792.6362 1331.0358 3484.7029 6119512
-1742.6104 1308.9657 3426.9226 7895153
-1723.5455 1309.9058 3429.3838 4276016
-1702.2385 1309.1438 3427.3892 3946280
-1693.0837 1317.8225 3450.1101 5196344
-1676.6377 1320.9686 3458.3469 5131320
-1629.9535 1300.0742 3403.6445 5987143
-1604.354 1295.6844 3392.1519 6447952
-1589.2511 1299.7679 3402.8425 4868923
-1557.8691 1290.4716 3378.5042 6447954
-1562.5333 1311.1808 3432.7219 4868923
-1546.2141 1314.5959 3441.6631 5461318
-1515.0638 1305.3247 3417.3904 7303266
-1510.8704 1319.3417 3454.0874 7237730
-1538.0243 1361.493 3564.4414 8093039
-1474.3123 1323.2616 3464.3501 7303523
-1446.9421 1317.0298 3448.0349 7435109
-1414.5057 1305.9421 3419.0071 8355954
-1385.6458 1297.8823 3397.9058 7369058
-1370.4957 1302.6154 3410.2974 7500644
-1319.9537 1273.348 3333.6743 7961195
-1318.739 1291.4999 3381.1965 7237473
-1305.3414 1298.0966 3398.4668 7434852
-1285.2404 1298.129 3398.552 7303266
-1249.7224 1282.3433 3357.2241 6842715
-1232.2202 1284.832 3363.7397 6973275
-1212.927 1285.5044 3365.5 6710357
-1214.7841 1308.9895 3426.9851 6512722
-1202.8203 1318.1274 3450.9084 7170907
-1178.9777 1314.3385 3440.9888 7763042
-1145.6517 1299.6581 3402.5549 6907733
-1133.7522 1309.194 3427.5205 7170649
-1093.052 1285.2137 3364.7393 5854789
-1083.2882 1297.3934 3396.626 7039320
-1046.3438 1276.8652 3342.8826 7565920
-1031.9465 1283.5905 3360.4893 8092264
-1011.2986 1282.6525 3358.0337 8881780
-990.60364 1281.6158 3355.3196 8421229
-968.15179 1278.2172 3346.4219 8092777
-946.9707 1276.3894 3341.6367 6974298
-930.05402 1280.3539 3352.0159 8948089
-914.35474 1286.204 3367.3318 7434852
-895.67969 1288.0359 3372.1274 7237473
-870.28534 1280.0679 3351.2673 8026989
-854.10211 1285.5928 3365.7314 9079677
-829.40863 1278.2659 3346.5493 7237473
-822.14771 1298.1046 3398.488 7369060
-803.96924 1301.2689 3406.7722 7829612
-786.38031 1305.5747 3418.0449 7763818
-771.26819 1314.329 3440.9641 7434852
-756.50409 1324.1677 3466.7224 7369059
-728.47772 1310.6938 3431.4473 7763818
-713.12762 1319.9086 3455.5718 8487285
-693.03363 1320.6282 3457.4556 9013629
-668.41803 1312.5129 3436.2095 7105632
-630.28448 1276.51 3341.9524 7237473
-606.09003 1267.318 3317.8875 8290417
-600.64117 1298.0203 3398.2671 7632231
-575.02777 1285.7642 3366.1802 7105373
-560.14417 1297.4811 3396.8555 7170908
-532.98834 1280.5853 3352.6221 7302749
-511.10712 1275.5453 3339.427 7105628
-487.23999 1264.9437 3311.6716 6644564
-471.27243 1274.8215 3337.5317 4803388
-446.9985 1262.1111 3304.2554 5921612
-430.10669 1270.0345 3324.9993 6382164
-420.23755 1300.4506 3404.6296 7697768
-397.0733 1290.7168 3379.1465 7763305
-378.74203 1296.4937 3394.2705 8289649
-356.60004 1289.1421 3375.0237 8092526
-335.99176 1286.7911 3368.8687 6118479
-312.52347 1272.498 3331.449 6184272
-293.87244 1277.2145 3343.7969 6776152
-275.44214 1283.6416 3360.6233 6841945
-253.53561 1273.6078 3334.3542 8420975
-232.84662 1268.5111 3321.0112 7828836
-213.03473 1267.6931 3318.8696 8157799
-193.38014 1267.7401 3318.9924 6907731
-174.51582 1273.5647 3334.2415 7763040
-154.20227 1268.9502 3322.1606 8815987
-132.67339 1251.521 3276.5303 7236444
-113.88074 1258.3525 3294.4158 7500128
-94.583893 1261.2866 3302.0972 6907738
-75.299408 1265.9585 3314.3284 7763048
-55.264458 1256.8588 3290.5046 8749942
-35.970551 1263.8785 3308.8831 8947322
-16.627626 1283.9276 3361.3721 9539458
3.2724888 1278.6864 3347.6504 7565667
23.287674 1288.8112 3374.1575 8354927
42.032444 1251.7493 3277.1279 4276274
61.626175 1255.4015 3286.6895 5854791
81.402145 1260.1211 3299.0457 7170651
102.12469 1274.8293 3337.5525 7236444
120.32295 1258.3665 3294.4519 6907736
140.20903 1261.6869 3303.145 8420977
160.62901 1268.41 3320.7466 7499874
179.65125 1263.833 3308.7634 7434082
194.28339 1232.3107 3226.2371 7565668
218.22063 1260.1698 3299.1733 7368288
238.20895 1262.519 3305.3237 8684146
254.32983 1245.5709 3260.9529 7762788
276.08728 1256.672 3290.0156 7894630
288.35114 1225.9459 3209.5737 9473404
310.85422 1239.8615 3246.0051 8881265
329.2829 1236.8512 3238.1243 9867907
347.95798 1235.047 3233.4009 7960166
362.34192 1218.9949 3191.3757 7631200
383.73422 1226.9431 3212.1846 8749680
411.98749 1255.041 3285.7458 8947058
436.78116 1270.54 3326.3228 7170646
461.98126 1285.8319 3366.3577 7434074
476.13498 1270.3851 3325.9175 7433818
490.16901 1255.8596 3287.8889 8881264
514.04004 1266.6843 3316.2283 7499611
530.1828 1258.3693 3294.4592 7302234
544.27838 1245.9584 3261.967 5393981
564.17767 1247.2288 3265.293 5460028
579.16284 1237.9114 3240.8997 8618351
600.48853 1242.3094 3252.4141 6381390
609.2334 1221.2157 3197.1897 7170648
635.81702 1236.0737 3236.0886 7829087
668.04907 1260.7214 3300.6174 7697245
686.43591 1258.5822 3295.0166 7433819
703.02881 1253.363 3281.3528 6907476
728.41913 1263.6866 3308.3806 7828579
750.91736 1268.5835 3321.2007 8223852
770.85669 1269.0179 3322.3379 9013109
792.21014 1271.7006 3329.3611 8815730
806.72607 1263.5435 3308.0056 7499614
827.48853 1265.3251 3312.6697 8223080
844.64227 1261.6339 3303.0061 7894116
858.71185 1253.6072 3281.9919 7433821
881.82617 1258.8478 3295.7119 6512721
906.83807 1266.5115 3315.7759 6315598
924.4856 1263.7832 3308.6331 7565668
944.48108 1264.311 3310.0151 7894633
968.86261 1270.5693 3326.3997 9473666
993.62714 1277.0706 3343.4199 8289392
1001.9662 1262.619 3305.5854 8421235
1018.1565 1258.4257 3294.6069 7960941
1033.9614 1253.9227 3282.8181 6842460
1043.0289 1241.5662 3250.468 6776410
1083.9202 1266.8522 3316.668 7763564
1132.8458 1300.4608 3404.6567 6447964
1119.2897 1262.4219 3305.0693 3356210
1147.1776 1271.6312 3329.1797 197893
1154.1049 1257.6873 3292.6736 1714985
1173.4933 1257.5607 3292.3425 725773
1167.6168 1230.8059 3222.2976 264460
1181.1799 1225.0742 3207.2915 518
1200.4513 1225.3505 3208.0149 2699325
1221.3163 1227.2194 3212.9077 263953
1264.5116 1251.1249 3275.4934 4018527
1279.6296 1246.9478 3264.5571 1580842
1306.8652 1254.5271 3284.4004 9
1289.2755 1219.4852 3192.6594 13488849
1308.7283 1219.9874 3193.9741 13225940
1320.4547 1213.3757 3176.6643 12
1329.2676 1204.3098 3152.9297 13555668
1346.3638 1202.8959 3149.228 13226194
1368.4657 1205.932 3157.1765 2369329
1377.1759 1197.244 3134.4312 22
1383.9916 1187.1622 3108.0366 11386579
1421.7744 1203.5593 3150.9648 2697510
1490.7395 1245.5859 3260.9919 5789520
1513.9264 1248.7765 3269.345 7960172
1550.1198 1262.4795 3305.22 7236193
1553.1318 1249.1534 3270.332 6644055
1586.959 1260.6344 3300.3896 8814966
1603.9089 1258.5924 3295.0435 7104604
1612.4292 1250.0643 3272.7166 7433569
1597.9851 1224.1466 3204.8633 7104860
1613.6459 1221.6292 3198.2722 7499360
1668.8418 1248.7529 3269.2834 7170651
1680.5891 1243.1161 3254.5259 7104858
1699.5569 1242.8873 3253.927 8289132
1671.2637 1208.4894 3163.8718 8223338
1689.0161 1207.7808 3162.0166 7564637
1712.119 1210.8715 3170.1084 6840914
1733.4897 1212.6836 3174.8525 6972501
1748.1448 1209.8092 3167.3271 6511951
1777.5347 1217.0848 3186.375 7696741
1795.5195 1216.4805 3184.793 7829097
1807.6212 1211.9443 3172.917 7302241
1857.3816 1232.4905 3226.7075 5065282
1901.6885 1249.0361 3270.0247 7894124
1907.9377 1240.5038 3247.6868 6117969
1903.9663 1225.5627 3208.5706 5986383
1943.3976 1238.5789 3242.6472 7104866
1929.7421 1217.8376 3188.3459 7104866
1960.15 1225.037 3207.1941 8091759
1982.2872 1226.9788 3212.2776 8420723
2001.662 1227.1901 3212.8308 6644313
2045.5057 1242.2574 3252.2781 7697001
2061.6316 1240.3676 3247.3301 7762791
2096.1824 1249.4952 3271.2268 8223085
2107.4114 1244.6814 3258.624 7630691
2138.325 1251.4756 3276.4114 7236190
2160.1831 1252.8954 3280.1284 6775639
2195.8276 1262.2145 3304.5264 4801849
2221.3955 1265.6279 3313.4626 6117452
2238.8779 1264.4153 3310.2881 6314833
2260.8665 1265.7463 3313.7727 5854538
2231.196 1238.3823 3242.1326 3222821
2224.5378 1224.1487 3204.8687 7433569
2275.2625 1241.4662 3250.2065 7367777
2302.7847 1245.9393 3261.9172 6775896
2304.0471 1236.2482 3236.5454 8223597
2342.0793 1246.2832 3262.8174 6907482
2368.5413 1250.0472 3272.6719 6775895
2381.4502 1246.6555 3263.7922 5788744
2412.4089 1252.6913 3279.594 5459779
2382.0046 1227.0209 3212.3882 6446160
2424.6494 1239.0886 3243.9817 6643539
2453.158 1243.799 3256.3137 6578260
2517.7544 1266.5905 3315.9827 7170396
2515.4888 1255.6536 3287.3494 6446673
2542.2556 1259.2654 3296.8054 7565155
2543.9617 1250.5034 3273.8662 7038810
2569.3608 1253.4324 3281.5344 7038810
2595.2896 1256.574 3289.759 5459780
2632.7217 1265.1965 3312.3335 5920332
2653.1746 1265.5924 3313.3699 6381141
2665.948 1262.3461 3304.8708 6644312
2682.9126 1261.1174 3301.6541 5788746
2694.4253 1257.3622 3291.8228 4143921
2700.6062 1251.1907 3275.6655 4998972
2709.082 1246.1631 3262.5029 4999484
2716.0469 1240.5165 3247.72 5920587
2740.5388 1242.8982 3253.9556 5526085
2768.2271 1246.6862 3263.8726 6380885
2735.8071 1223.5393 3203.2732 7697001
2764.8672 1228.0178 3214.998 6710106
2814.2637 1241.4055 3250.0476 8223345
2783.7241 1219.5903 3192.9343 8025965
2893.6887 1259.2109 3296.6628 6578520
2892.0874 1250.0771 3272.75 7828587
2867.6416 1231.2562 3223.4766 6512727
2933.0015 1250.9885 3275.1362 7828587
2937.9155 1244.8494 3259.064 7170657
2933.0579 1234.6771 3232.4324 7368036
2898.0808 1212.04 3173.1677 6578520
2919.99 1213.3326 3176.5518 6775898
2966.7112 1224.8527 3206.7117 7039071
2985.7085 1224.8527 3206.7117 7565417
3034.176 1236.8661 3238.1631 5854798
3060.3081 1239.6808 3245.5322 6775899
3106.3599 1250.4791 3273.8025 6052176
3113.041 1245.3929 3260.4868 7433829
0 0 0 0
0 0 0 0
0 0 0 0
0 0 0 0
0 0 0 0
0 0 0 0
0 0 0 0
0 0 0 0
0 0 0 0
-2565.5693 1128.6393 2909.6924 4934714
-2553.2239 1130.806 2915.2783 2236174
-2555.958 1139.7263 2938.2754 1709834
-2567.0679 1152.5294 2971.2825 2893848
-2547.8882 1151.8165 2969.4446 1052163
-2524.957 1149.386 2963.1785 7960424
-2541.9734 1165.2332 3004.0332 5329474
-2541.4773 1173.2196 3024.6228 8159085
-2526.9126 1174.7789 3028.6426 1776659
-2505.981 1173.3792 3025.0342 3026982
-2521.8 1189.2911 3066.0559 5066815
-2515.9602 1195.1454 3081.1487 5000768
-2496 1194.3287 3079.0432 921864
-2479.8171 1195.3207 3081.6006 3948340
-2469.1006 1198.9818 3091.0393 2632229
-2448.0171 1197.626 3087.5439 3948087
-2469.4907 1217.2264 3138.0747 131842
0 0 0 0
0 0 0 0
-2397.4617 1209.0281 3116.939 197635
0 0 0 0
0 0 0 0
0 0 0 0
0 0 0 0
0 0 0 0
0 0 0 0
0 0 0 0
0 0 0 0
0 0 0 0
-1176.687 642.91534 1657.47 1184535
-1154.0206 635.83679 1639.2212 4
-1139.7258 633.28986 1632.6552 5
-1118.6654 626.9079 1616.2019 4
-1092.6969 617.64142 1592.3125 3158839
0 0 0 0
0 0 0 0
-2249.0889 1305.0864 3364.5825 2632496
-2287.3682 1339.1672 3452.4448 1776931
-2278.7898 1346.1823 3470.5298 4869460
-2282.2612 1360.5081 3507.4622 1776933
-2258.5056 1358.7172 3502.8455 2962747
-2222.6511 1349.5471 3479.2043 5200993
-2203.6272 1350.5203 3481.7131 9742254
-2195.5217 1358.2664 3501.6831 10202807
-2179.2686 1361.0717 3508.9153 10137271
-2126.2695 1340.76 3456.551 10268089
-2105.1584 1340.3564 3455.5105 9676209
-2106.8745 1354.6219 3492.2878 10333883
-2052.2683 1332.5986 3435.5103 10399932
-2046.5769 1342.214 3460.2993 10465726
-2022.1106 1339.5861 3453.5244 10663104
-1993.1263 1333.881 3438.8164 10531775
-1966.2677 1329.4952 3427.5098 10465468
-1946.2694 1329.705 3428.0505 9873588
-1907.8428 1317.196 3395.8018 9214885
-1854.1097 1293.7402 3335.3313 8620945
-1842.866 1299.7461 3350.8147 6515309
-1813.2085 1292.7544 3332.7898 10067616
-1837.8397 1324.7407 3415.2524 8883082
-1773.4271 1292.5409 3332.2393 6974312
-1758.1766 1295.8506 3340.772 7369579
-1721.5759 1283.3203 3308.4683 7829872
-1688.8688 1273.4374 3282.9897 4935233
-1690.3223 1289.382 3324.0957 6974302
-1687.0963 1302.0908 3356.8599 3750702
-1689.4497 1319.4606 3401.6396 2829597
-1651.5005 1305.3932 3365.3733 6908762
-1635.8032 1308.7856 3374.1191 7040092
-1616.9398 1309.6973 3376.4695 6908504
-1603.4314 1315.0237 3390.2014 7237466
-1548.0342 1285.6951 3314.5906 5461056
-1535.3464 1291.5403 3329.6599 6907990
-1529.4618 1303.335 3360.0671 7368542
-1506.0377 1300.2974 3352.2358 7961449
-1505.375 1317.093 3395.5361 7698023
-1492.363 1323.3926 3411.7769 7632231
-1458.4012 1311.0323 3379.9114 5461319
-1434.7107 1307.6898 3371.2942 7040351
-1416.2189 1309.0583 3374.8223 8026990
-1394.4913 1307.4323 3370.6301 7566695
-1359.7567 1293.3868 3334.4202 7566693
-1333.7423 1287.3439 3318.8413 9606018
-1305.7617 1279.1942 3297.8308 8224367
-1285.9651 1278.9362 3297.1658 7105885
-1276.7605 1289.3667 3324.0562 7040090
-1261.6875 1294.1049 3336.2712 6382160
-1238.6249 1290.6685 3327.4121 5856328
-1203.1586 1273.9869 3284.4065 6579277
-1185.1158 1275.5098 3288.3323 3224085
-1174.3583 1285.0553 3312.9412 4013097
-1176.149 1308.8899 3374.3882 5591878
-1160.7705 1314.1113 3387.8491 9341819
-1115.8392 1285.4711 3314.0129 6973012
-1116.6417 1309.4347 3375.7925 5262648
-1088.1036 1299.2388 3349.5068 6644040
-1058.8984 1287.8524 3320.1523 6381124
-1043.7755 1293.4866 3334.6775 7631195
-1030.1368 1301.2129 3354.5962 8618606
-995.14514 1281.7405 3304.3955 10592396
-963.37524 1265.7198 3263.0933 8552814
-960.18085 1287.3551 3318.8701 7106140
-939.37946 1285.7953 3314.8489 7434847
-919.98792 1286.1396 3315.7368 8026986
-902.07471 1288.611 3322.1079 8948087
-883.90918 1290.824 3327.813 8750710
-861.06012 1286.1422 3315.7432 8619124
-836.70288 1278.9366 3297.167 8224366
-820.73035 1284.5094 3311.5337 5132094
-804.21027 1289.4771 3324.3406 8290160
-784.34949 1289.2031 3323.6345 6711128
-765.03156 1289.8303 3325.2515 8026988
-748.14685 1294.7015 3337.8096 9013884
-736.20203 1308.6179 3373.687 8290161
-710.37189 1297.9409 3346.1609 6053199
-684.43365 1286.4476 3316.5305 7829610
-660.78857 1278.7125 3296.5891 6053199
-647.29315 1290.7454 3327.6104 8092783
-621.05481 1277.3257 3293.0137 7500645
-595.99884 1265.5464 3262.646 8224110
-575.12585 1262.1572 3253.9087 5921097
-559.37598 1270.1659 3274.5554 6841943
-538.58929 1266.9022 3266.1416 6907736
-518.79834 1265.8247 3263.3638 6973529
-488.63129 1238.3672 3192.5767 8223596
-473.05576 1247.1675 3215.2644 7236959
-463.83539 1274.1641 3284.863 8750711
-439.9859 1261.5787 3252.4172 8816504
-422.95084 1268.2748 3269.6799 7105887
-411.76187 1293.985 3335.9624 6447957
-389.5643 1285.9485 3315.2439 8092782
-371.92133 1292.8916 3333.1436 6842459
-352.49417 1294.0632 3336.1641 6447443
-331.94229 1290.9998 3328.2661 5526086
-310.19409 1282.6027 3306.6182 5789257
-291.09406 1284.7615 3312.1836 7170908
-263.5759 1247.3928 3215.8455 8026472
-244.81552 1248.8776 3219.6729 7500128
-227.97527 1261.2356 3251.5327 7499870
-211.40411 1277.5012 3293.4663 7696993
-185.67859 1236.1305 3186.8103 8420973
-166.52744 1234.1165 3181.6182 8092009
-150.44717 1257.251 3241.26 8815733
-129.83498 1243.7417 3206.4324 6447185
-112.24965 1259.5668 3247.2305 7565666
-93.981262 1272.6882 3281.0583 7236703
-73.820808 1260.3491 3249.2473 8026219
-55.058815 1271.6031 3278.2607 9210492
-35.893314 1280.7252 3301.7781 8092010
-16.333731 1280.7955 3301.9595 6315340
3.2430208 1286.8257 3317.5054 6973526
22.73637 1277.8164 3294.2791 6643791
41.742599 1262.3979 3254.5295 5854787
60.293621 1247.3058 3215.6208 6051910
78.732712 1237.701 3190.8594 6973270
98.143417 1244.1323 3207.4395 6512718
119.71801 1271.4589 3277.8887 7828580
137.4032 1255.6152 3237.043 6315599
154.42252 1238.313 3192.437 7828838
173.91025 1242.4209 3203.0273 7828837
191.82018 1235.5576 3185.3335 7368287
211.74527 1241.7412 3201.2751 7433824
229.80217 1236.8531 3188.6736 7763044
250.59079 1246.2938 3213.012 8025960
267.46942 1236.3281 3187.3201 7960422
284.80801 1229.6627 3170.136 8814704
301.83029 1222.5408 3151.7751 8551275
320.69626 1223.2812 3153.6843 10393736
338.9126 1221.5986 3149.3467 8025701
368.43274 1258.71 3245.0215 8091750
378.97076 1230.506 3172.3103 7960164
402.37802 1244.7791 3209.1069 8157542
420.98907 1243.5962 3206.0574 7565404
449.6821 1271.0118 3276.7363 7828577
464.89648 1259.6381 3247.4141 7631199
474.6969 1235.0819 3184.1072 8552812
495.49188 1239.9155 3196.5684 7894626
518.27777 1249.192 3220.4839 6513229
534.02832 1241.4547 3200.5364 8552557
553.75879 1243.1827 3204.9915 7828834
568.37238 1233.6898 3180.5183 8552557
590.30011 1240.1724 3197.2305 8354922
605.86786 1233.3057 3179.5276 6446924
632.966 1249.6165 3221.5779 7104340
662.45789 1269.5599 3272.9932 5525305
663.32349 1235.0687 3184.073 5788737
685.80219 1241.6144 3200.9482 6644304
701.85028 1236.479 3187.7087 7499614
744.953 1278.0269 3294.8215 9341820
747.3609 1249.4204 3221.0725 7828582
758.12817 1235.8656 3186.1274 7960167
779.4632 1239.778 3196.2136 7104860
795.43115 1235.1703 3184.335 8683636
818.48566 1241.5255 3200.7192 7368289
855.00934 1267.5613 3267.8408 7434081
879.6203 1275.1744 3287.4678 6973531
896.60352 1271.6394 3278.3542 7368290
900.22229 1249.7015 3221.7974 7499876
928.29559 1261.918 3253.2917 8223599
938.53888 1249.8923 3222.2891 7763047
952.38092 1243.0433 3204.6318 7894632
963.36591 1232.8058 3178.2393 8289391
992.23877 1245.4128 3210.741 8486770
1020.4756 1256.7625 3240.0007 8552819
1027.814 1242.4307 3203.0525 8354927
1044.2155 1239.3755 3195.1763 8618356
1071.145 1248.7021 3219.2209 8487284
1057.7391 1211.5037 3123.3213 7763562
1100.5603 1238.8779 3193.8933 8159093
1148.1614 1270.6163 3275.7168 5593685
1169.0436 1272.2229 3279.8584 13029327
1165.1116 1247.2139 3215.3838 1909022
1178.6919 1241.4543 3200.5356 5659735
1191.8381 1235.4274 3184.9976 2567208
1216.672 1241.5144 3200.6902 5001808
1262.3815 1268.3895 3269.9758 1120025
1258.953 1245.8267 3211.8076 8422796
1271.2932 1239.3076 3195.0012 1381919
1306.2347 1254.6892 3234.6558 5263452
1309.3405 1239.4889 3195.4683 5526376
1332.521 1243.4546 3205.6924 592150
1333.3492 1226.7437 3162.6108 6579839
1349.3749 1224.2847 3156.2712 9474469
1335.8721 1195.4678 3081.9797 4606553
1373.853 1212.8795 3126.8682 395282
1386.3951 1207.6686 3113.4341 8555683
1397.9564 1201.7513 3098.179 7830643
1442.2981 1223.8018 3155.0264 6974564
1478.1685 1238.192 3192.125 7368807
1490.1113 1232.429 3177.2678 6117969
1509.8975 1233.2158 3179.2961 7565412
1510.9178 1218.845 3142.2473 5919559
1521.9956 1212.8384 3126.7622 6841432
1559.8203 1228.0339 3165.937 6644053
1568.3287 1220.0621 3145.3855 7038811
1565.0845 1203.2422 3102.0227 7301981
1583.3815 1203.1814 3101.8657 7499615
1596.7058 1199.3866 3092.0825 8091754
1657.719 1231.0938 3173.8254 7499104
1667.269 1224.2996 3156.3096 7170394
1656.4854 1202.8903 3101.1152 6511951
1660.1742 1192.3451 3073.9292 5525054
1688.8838 1199.8036 3093.1577 7499097
1697.5021 1192.9821 3075.5715 4998450
1762.8805 1225.7722 3160.1062 7697769
1792.6771 1233.3925 3179.7515 7697770
1807.0062 1230.3228 3171.8376 7302754
1836.0535 1237.2341 3189.6555 7170912
1882.3439 1255.5057 3236.7607 5855053
1886.9929 1245.9147 3212.0344 6249555
1884.3688 1231.7607 3175.5449 5986636
1903.0671 1231.6868 3175.354 6381651
1905.3599 1221.1001 3148.0613 6644313
1932.58 1226.5396 3162.0842 6709850
1960.3352 1232.2106 3176.7046 6710107
1966.6877 1224.4489 3156.6943 6446934
1988.6888 1226.484 3161.9414 8618103
2014.1166 1230.575 3172.4878 7236191
2041.3698 1235.6951 3185.688 6907225
2048.7451 1228.7993 3167.9102 6116939
2076.6414 1234.2249 3181.8977 5788487
2138.2874 1259.4312 3246.8809 6314574
2130.4187 1243.6094 3206.0916 5261886
2142.1973 1239.4349 3195.3296 6051659
2150.7734 1233.4971 3180.0212 6183246
2155.6018 1225.5314 3159.4854 6644053
2187.9568 1233.2179 3179.3018 6972763
2215.134 1237.8799 3191.3206 5196608
2234.1541 1237.9431 3191.4834 6512468
2239.7424 1230.6251 3172.6174 6249296
2253.9026 1228.0995 3166.1062 7104348
2259.5591 1221.0204 3147.856 6973531
2303.6248 1234.6429 3182.9753 6776153
2331.9312 1239.6665 3195.9263 7499876
2345.0393 1236.5946 3188.0071 6907226
2344.1187 1226.2334 3161.2952 6907225
2390.0903 1240.3717 3197.7446 6446674
2410.3293 1241.0385 3199.4634 5920330
2389.7632 1220.8488 3147.4131 7433569
2449.9907 1241.9269 3201.7539 7236190
2463.1936 1239.027 3194.2776 7170397
2462.9856 1229.4768 3169.6567 8157293
2417.4744 1197.6278 3087.5483 6578260
2505.8464 1232.0854 3176.3818 5854538
2540.407 1239.7683 3196.1887 6183502
2492.3513 1207.3173 3112.5286 6907228
2566.8074 1234.2531 3181.9702 6183762
2627.0747 1254.0231 3232.9385 6381398
2637.2605 1249.7738 3221.9834 5920590
2648.627 1246.1411 3212.6182 6381140
2662.4451 1243.7054 3206.3389 5854797
2665.7119 1236.4103 3187.5317 5789517
2691.2886 1239.4929 3195.4788 4539194
2708.4661 1238.6909 3193.4114 5920590
2722.7273 1236.5759 3187.9585 6052688
2706.7617 1220.8563 3147.4326 6578519
2709.1799 1213.5869 3128.6919 8223858
2750.5386 1223.7415 3154.8706 6907998
2798.9136 1236.8593 3188.6892 7236706
2767.5269 1214.7904 3131.7944 7697001
2814.4736 1227.1704 3163.7109 7104864
2804.8945 1214.9034 3132.0857 7236450
2914.2698 1253.9823 3232.8335 7039071
2886.4626 1233.9081 3181.0811 6117969
2834.1372 1203.6813 3103.1548 5854796
2835.0784 1196.321 3084.1794 7236450
2899.0891 1215.4982 3133.6191 6512727
2893.0371 1205.2429 3107.1807 5328453
2911.1282 1205.1118 3106.8428 5986383
3017.7961 1241.4202 3200.4473 6841692
2991.2151 1222.8029 3152.4512 6907485
3022.188 1227.7987 3165.3306 5591369
0 0 0 0
0 0 0 0
0 0 0 0
0 0 0 0
0 0 0 0
0 0 0 0
0 0 0 0
0 0 0 0
-2542.8542 1128.1517 2864.6831 3420452
-2569.7871 1147.7607 2914.4758 1446668
-2568.3005 1154.8562 2932.4929 5328449
-2564.874 1161.1698 2948.5251 920840
-2567.4468 1170.3048 2971.7212 920578
-2534.9849 1163.486 2954.4062 328704
-2563.9167 1184.9463 3008.8999 6907738
-2513.0986 1169.5914 2969.9099 2895133
-2510.9065 1176.8102 2988.2402 6711129
-2501.0281 1180.5034 2997.6184 5987151
-2526.0647 1200.8477 3049.2776 526084
-2524.8188 1208.9005 3069.7261 7764847
-2478.3157 1195.2435 3035.0476 3751471
-2476.0952 1202.8998 3054.4888 856839
-2478.5933 1212.9779 3080.0798 2895911
-2446.124 1205.9663 3062.2754 3619379
-2451.1016 1217.4495 3091.4341 2566692
-2451.3037 1226.7157 3114.9639 0
-2446.0454 1233.3691 3131.8589 197892
-2427.8154 1233.5338 3132.2769 1052944
-2423.2239 1240.6836 3150.4321 2
0 0 0 0
0 0 0 0
0 0 0 0
0 0 0 0
0 0 0 0
0 0 0 0
0 0 0 0
0 0 0 0
0 0 0 0
0 0 0 0
-1160.7346 649.30377 1648.7583 5
-1139.5033 642.83661 1632.3364 4
-1126.1075 640.71698 1626.9541 4
0 0 0 0
0 0 0 0
-1923.0886 1123.0079 2851.6216 65794
-2250.7188 1325.9792 3367.0208 6911099
-2254.467 1340.0637 3402.7854 5596528
-2297.2505 1377.8146 3498.6448 9479343
-2226.4932 1347.5347 3421.7559 10137531
-2160.9568 1319.8871 3351.5513 8887204
-2162.2734 1332.9387 3384.6931 9873843
-2125.9507 1322.8145 3358.9846 10267830
-2106.1409 1322.8708 3359.1277 10135731
-2094.9412 1328.3878 3373.1367 10333623
-2079.2256 1331.12 3380.0745 10334136
-2057.7456 1330.1788 3377.6848 10334137
-2060.4033 1344.9758 3415.2585 10268087
-2021.2483 1332.5015 3383.5825 10202294
-1998.2615 1330.5427 3378.6086 10070965
-1975.4231 1328.644 3373.7876 9939122
-1942.9764 1320.1783 3352.2908 10201523
-1926.1859 1322.2853 3357.6409 10464438
-1903.1284 1320.0892 3352.0645 9937060
-1850.9415 1297.4283 3294.5222 6844015
-1796.6251 1272.7759 3231.9231 4804168
-1765.9785 1264.5413 3211.0132 4803394
-1750.9738 1267.4497 3218.3984 6250585
-1738.9814 1272.6267 3231.5444 5395273
-1729.8656 1280.0476 3250.3879 5395269
-1690.3154 1264.8615 3211.8262 5526595
-1682.9152 1273.6611 3234.1711 5855817
-1668.8828 1277.5867 3244.1392 5789768
-1672.6743 1295.4072 3289.3901 5131583
-1666.8181 1306.0881 3316.512 4934203
-1670.6334 1324.6926 3363.7539 4736310
-1641.4967 1317.3024 3344.9878 6973783
-1630.0122 1324.0704 3362.1738 5789509
-1597.8942 1314.038 3336.6985 6052681
-1556.0521 1295.6571 3290.0249 6907988
-1498.9901 1263.9766 3209.5793 5723715
-1518.2988 1296.7064 3292.6892 7039575
-1502.639 1300.0345 3301.1401 4671028
-1470.5479 1289.0472 3273.2405 6907735
-1457.9044 1295.0413 3288.4609 6183759
-1434.2867 1291.3176 3279.0054 5460549
-1408.3552 1285.3796 3263.9275 4473654
-1392.1738 1288.2991 3271.3408 7237217
-1382.8955 1297.7792 3295.4131 7632231
-1358.7961 1293.4229 3284.3513 7040094
-1342.1115 1296.1002 3291.1499 9277056
-1330.4047 1303.7349 3310.5364 8816505
-1294.5677 1287.5977 3269.5596 8948602
-1275.5468 1287.9497 3270.4534 7435363
-1270.1805 1302.3126 3306.925 8093293
-1252.7783 1304.5919 3312.7126 4013616
-1233.2076 1304.6498 3312.8596 5921866
-1194.0509 1283.6534 3259.5442 8224101
-1174.2076 1283.0713 3258.0657 6316107
-1161.754 1290.679 3277.3838 5723709
-1131.548 1278.4878 3246.427 7894630
-1140.0085 1310.318 3327.2527 6446925
-1108.5441 1296.5714 3292.3464 6118214
-1101.6902 1311.6328 3330.5916 6315594
-1078.8579 1307.8734 3321.0454 6710352
-1062.896 1312.458 3332.6868 7039574
-1037.5612 1305.4233 3314.8237 8553326
-1011.5036 1297.1902 3293.9177 9671807
-988.76233 1292.97 3283.2014 4868405
-962.44598 1283.8115 3259.9456 8552812
-949.67725 1292.7192 3282.5647 7894883
-918.15668 1275.9403 3239.9585 7106137
-918.94781 1304.3066 3311.9883 6711126
-888.03162 1287.9249 3270.3906 8553329
-869.1001 1288.5818 3272.0586 6908506
-850.20087 1289.3176 3273.927 7303008
-831.48828 1290.3773 3276.6179 7105373
-811.67963 1289.7462 3275.0154 6118735
-797.44952 1298.1653 3296.3938 5066302
-769.02124 1283.3138 3258.6819 7434852
-746.34888 1277.5502 3244.0461 8026989
-728.82013 1280.5189 3251.5847 8290418
-712.69421 1286.1805 3265.9612 7105887
-694.38141 1288.1014 3270.8389 8948348
-673.40845 1285.0563 3263.1064 8158575
-654.99005 1286.8499 3267.6609 7434852
-635.36371 1286.3075 3266.2834 6184529
-612.7619 1279.5176 3249.0422 7171680
-595.95245 1284.7749 3262.3918 7039837
-567.70868 1264.9078 3211.9441 7368802
-548.00909 1263.3604 3208.0144 9013113
-531.50763 1269.3391 3223.1963 4210224
-507.97583 1258.3484 3195.2876 7499875
-483.55029 1244.207 3159.3789 7236703
-468.09442 1252.9355 3181.543 6973531
-451.18878 1258.3533 3195.3 7763304
-434.02454 1263.4927 3208.3506 7302751
-409.32266 1246.1549 3164.3252 6645335
-394.99954 1260.2671 3200.1597 5724235
-379.13931 1270.6504 3226.5261 6645081
-365.81479 1291.0858 3278.417 7303011
-343.80563 1281.4432 3253.9316 6908506
-321.17743 1268.2107 3220.3308 5131325
-301.81161 1267.0023 3217.2625 7104859
-279.354 1251.7767 3178.6006 7368031
-259.6918 1247.7817 3168.4561 7039323
-239.34392 1239.6129 3147.7134 8026217
-221.81711 1245.9092 3163.7012 7828838
-204.35179 1253.7449 3183.5981 7368543
-184.05688 1244.0486 3158.9768 8157803
-164.90076 1240.7257 3150.5391 6841687
-146.17578 1240.2126 3149.2363 8092011
-128.81139 1252.7821 3181.1536 8355184
-109.93988 1252.4901 3180.4121 8815735
-91.019646 1251.4073 3177.6626 8881529
-72.566124 1257.8499 3194.022 9013115
-55.267784 1295.9241 3290.7026 8026217
-35.788212 1296.4781 3292.1096 8289388
-15.731251 1252.3926 3180.1646 6643788
3.1056497 1251.1383 3176.9795 6709835
21.809015 1244.4178 3159.9143 6841419
40.394711 1240.2926 3149.4392 5328181
59.238739 1244.2001 3159.3613 5920065
77.653603 1239.3815 3147.1255 6775374
94.905838 1221.4653 3101.6318 6775890
115.63692 1246.8727 3166.1477 7697507
134.30945 1246.0891 3164.1582 4407860
150.77287 1227.5122 3116.9863 6118476
171.32159 1242.6205 3155.3506 7828581
191.54091 1252.6018 3180.6958 6710100
207.69997 1236.6211 3140.1165 7960422
228.14375 1246.6813 3165.6619 8749682
244.4834 1234.4897 3134.7043 7630687
260.42596 1222.1562 3103.3862 7368025
277.73819 1217.453 3091.4434 7828063
295.6615 1215.8447 3087.3594 7433306
314.62936 1218.4691 3094.0234 8749936
334.69421 1224.8188 3110.1472 7434334
353.01987 1224.4736 3109.2705 7762786
375.23691 1236.9906 3141.0547 7236183
393.91223 1237.201 3141.5889 7959905
415.69223 1246.7039 3165.719 7039061
424.79581 1219.0093 3095.3953 7828577
441.508 1214.5374 3084.0398 8157287
464.51834 1227.0581 3115.833 8487023
481.21887 1222.5906 3104.489 8487023
502.94955 1230.7614 3125.2368 9342076
522.76904 1233.8412 3133.0574 8289388
549.14343 1251.6503 3178.2793 8026215
562.50299 1239.5974 3147.6741 8749937
577.27484 1231.3306 3126.6821 8025957
599.98248 1239.9786 3148.6418 7104342
622.18176 1247.0862 3166.6899 7038547
640.16077 1245.5662 3162.8303 5196598
650.98517 1230.6078 3124.8469 5723201
663.99597 1220.4955 3099.1689 5986373
700.38208 1252.7374 3181.04 7697249
712.88379 1241.6886 3152.9839 9144696
725.41858 1231.2599 3126.5027 8025960
743.7807 1230.9951 3125.8306 8223338
764.10187 1233.9067 3133.2239 7499616
775.62671 1222.8125 3105.0525 6973272
816.19934 1256.9664 3191.7786 7894374
836.94812 1259.7358 3198.811 7236702
853.45923 1256.1455 3189.6941 6512980
864.13892 1244.314 3159.6504 8355184
888.45502 1252.2031 3179.6833 7302497
897.48242 1238.6642 3145.3042 8881528
921.82343 1246.3812 3164.8999 6118222
938.91571 1244.1851 3159.3232 7565155
955.38818 1241.2697 3151.9202 8288877
976.83734 1244.8076 3160.9043 7631204
976.91187 1221.4868 3101.6863 7762534
1007.6652 1236.6781 3140.2612 7828326
1010.8064 1218.0457 3092.9482 9210493
1035.8273 1225.9727 3113.0771 7828841
1045.0151 1215.2108 3085.7498 8158321
1093.157 1249.3383 3172.4084 7368806
1117.2563 1255.299 3187.5444 7961459
1129.4489 1247.906 3168.7717 6053720
1156.1404 1256.5123 3190.6257 6645346
1139.7531 1218.7765 3094.804 6777188
1173.668 1235.1736 3136.4407 8422268
1202.2452 1245.5298 3162.7378 7698034
1222.3788 1246.9547 3166.356 7369581
1250.6643 1256.5265 3190.6616 8290428
1259.9194 1246.9785 3166.4167 7697780
1261.3052 1230.0365 3123.396 5855578
1285.426 1235.4351 3137.1047 8421756
1311.2538 1242.297 3154.5291 5460817
1311.0424 1224.6429 3109.7007 6908266
1324.973 1220.5052 3099.1938 4671561
1346.6272 1223.4979 3106.793 5527385
1365.0931 1223.5522 3106.9309 3684921
1371.533 1212.9694 3080.0581 5593694
1410.9988 1231.4888 3127.0837 9211797
1412.1769 1216.5444 3089.1362 6711394
1440.2209 1224.8307 3110.177 6974306
1447.9221 1215.8253 3087.3103 8091757
1464.1071 1214.08 3082.8782 7039324
1467.9878 1202.3002 3052.9661 6841175
1490.145 1205.5935 3061.3289 6512467
1558.0264 1245.3558 3162.2961 6446674
1545.762 1220.8726 3100.1265 7696741
1538.3494 1200.7513 3049.0332 6841686
1560.6058 1203.9863 3057.2478 9473405
1544.3958 1177.8113 2990.7822 6446927
1578.3894 1190.0829 3021.9431 7499615
1625.5179 1211.8716 3077.2705 6117449
1641.9366 1210.5359 3073.8789 7038037
1623.498 1183.8124 3006.0208 6643535
1647.4496 1188.2433 3017.2717 5459517
1712.0955 1221.6151 3102.0122 4078126
1757.9497 1241.0127 3151.2676 6381137
1737.4781 1213.6721 3081.8425 6973019
1772.1509 1225.0192 3110.656 7630949
1810.5469 1238.6799 3145.3445 7104604
1848.9684 1252.08 3179.3706 6051912
1871.6572 1254.6633 3185.9302 5327676
1882.774 1249.515 3172.8574 5328191
1851.8206 1216.8242 3089.8467 5722951
1871.4187 1217.6656 3091.9832 5722951
1886.4644 1215.5575 3086.6299 5328707
1914.2349 1221.6101 3101.9995 6052430
1928.7446 1219.1658 3095.7925 7499876
1939.9286 1214.6849 3084.4143 8881274
1964.2007 1218.4062 3093.864 5788745
1981.3397 1217.675 3092.0073 8025706
2004.5576 1220.6592 3099.5845 7038555
2044.0863 1233.4309 3132.0156 6841689
2066.3896 1235.6726 3137.7078 7499362
2073.6624 1228.9662 3120.6785 6315088
2055.9954 1207.7283 3066.7495 7038811
2101.2141 1223.4791 3106.7451 5657159
2130.979 1230.0363 3123.3955 5788745
2149.7493 1230.1887 3123.7827 6117709
2172.9719 1232.8647 3130.5781 4736057
2177.946 1225.2297 3111.1904 6315089
2204.0701 1229.521 3122.0872 7367777
2240.5886 1239.4911 3147.4038 6380882
2231.5325 1224.2927 3108.8113 7038299
2256.9324 1228.0923 3118.4592 5722438
2299.3015 1240.9889 3151.2073 7235935
2324.085 1244.2626 3159.52 6512468
2320.3218 1232.323 3129.2024 4604471
2364.7744 1245.9773 3163.874 6051917
2377.0898 1242.6169 3155.3413 5920331
2355.1333 1221.5333 3101.8044 5657160
2370.7073 1220.0913 3098.1426 6709846
