# .PCD v0.7 - Point Cloud Data file format
VERSION 0.7
FIELDS x y z rgb
SIZE 4 4 4 4
TYPE F F F U
COUNT 1 1 1 1
WIDTH 1359
HEIGHT 1
VIEWPOINT 0 0 0 1 0 0 0
POINTS 1359
DATA ascii
-2197.7856 884.6701 6644.2695 3290177
-2139.6689 876.98309 6586.5371 5724774
-2063.6294 861.52826 6470.4639 4079949
-1913.3842 813.92242 6112.9229 4211534
0 0 0 0
0 0 0 0
0 0 0 0
0 0 0 0
0 0 0 0
0 0 0 0
0 0 0 0
0 0 0 0
-641.64209 328.9837 2470.8152 27
-625.48914 328.18863 2464.844 2436186
-614.76575 330.27252 2480.4949 8361677
-596.21478 328.15024 2464.5557 7440589
-586.69397 331.01627 2486.0808 264269
-574.93408 332.7341 2498.9824 6848194
-568.21204 337.53537 2535.042 8098256
-556.75122 339.7059 2551.3438 5071264
-534.6709 335.33716 2518.5327 276
-525.86554 339.2825 2548.1638 15
0 0 0 0
0 0 0 0
-1208.5176 853.19977 6407.9131 3026487
-1155.9169 842.52979 6327.7769 1974058
-1131.4039 852.30341 6401.1812 3289661
-1090.2019 849.74683 6381.98 3026489
-1075.6156 868.49719 6522.8042 3290435
-1047.0157 876.90839 6585.9756 3620430
-1010.1046 878.7403 6599.7339 6450827
-953.44952 862.85168 6480.4038 9807809
-915.37579 863.15125 6482.6533 10663886
-811.90198 799.10748 6001.6558 10598091
-782.04858 804.97644 6045.7344 10729677
-751.67413 810.84674 6089.8228 10729677
-719.04498 814.75403 6119.1685 10729417
-683.62238 815.74292 6126.5957 10267576
-646.88586 815.18695 6122.4199 8161168
-612.74164 818.0257 6143.7402 6909808
-556.80426 790.29132 5935.4424 7764599
-517.38776 783.84705 5887.043 5264719
-484.91656 787.75397 5916.3857 8356470
-449.93921 787.88116 5917.3413 8487796
-416.65662 791.24829 5942.6299 8158832
-384.33368 797.22766 5987.5376 7500904
-341.97726 781.4942 5869.3721 9342850
-297.93564 757.91199 5692.2593 8422007
-266.70081 765.04724 5745.8481 7829870
-232.56168 764.7204 5743.3931 5395530
-199.83742 769.73108 5781.0259 8356215
-163.7549 761.20404 5716.9839 7632237
-129.73541 760.32031 5710.3467 7895409
-94.927917 752.5661 5652.1094 7566444
-61.519619 753.49786 5659.1074 7500394
-28.165819 758.12854 5693.8857 7829358
5.4624362 744.01617 5587.8955 6514010
38.45591 741.88477 5571.8877 7763818
71.401131 741.22137 5566.9053 6579801
105.03263 745.85059 5601.6729 6711386
136.55161 736.85736 5534.1294 7435111
169.24667 736.46405 5531.1758 8553593
201.17628 733.4079 5508.2227 8356214
233.65334 732.92194 5504.5728 8487546
264.91779 729.21729 5476.749 9540491
301.89023 740.3186 5560.125 8619132
335.18356 741.10101 5566.0015 3092262
360.84933 726.3891 5455.5083 7895150
398.16489 735.61908 5524.8296 7500646
420.76706 718.32843 5394.9688 8356212
456.9621 725.04639 5445.4238 7895660
479.72519 710.97174 5339.7168 8092784
504.67267 701.67548 5269.8979 7764075
537.15649 703.33026 5282.3257 8619640
577.711 714.78839 5368.3818 9210754
608.78711 713.93536 5361.9751 8882558
631.35352 703.68231 5284.9702 8685179
664.13629 705.24701 5296.7217 8553080
700.72223 710.52679 5336.375 7829357
732.40833 710.59686 5336.9014 7895150
753.87726 701.15845 5266.0146 7895150
792.80762 708.06519 5317.8872 8158322
826.19006 709.67841 5330.0034 8092015
842.14795 696.75647 5232.9536 7368805
861.5531 687.50305 5163.4565 7171426
895.80731 690.32715 5184.667 6645082
916.7431 683.04083 5129.9434 7237218
945.67334 681.98743 5122.0317 7171680
964.11108 673.66791 5059.5483 8026733
1009.5203 684.12805 5138.1089 8026990
1035.6254 681.27686 5116.6948 7040094
1045.6919 668.33698 5019.5107 6645337
1081.6389 672.19647 5048.4971 7368547
1096.7966 663.27606 4981.501 7565926
1129.8438 665.35815 4997.1382 6842203
1151.9927 661.07996 4965.0073 6776154
1182.8593 661.89282 4971.1123 6973789
1205.109 657.96173 4941.5879 5987151
1236.2217 658.94116 4948.9438 6381397
1288.5796 670.93719 5039.0396 6842205
1297.1864 660.12549 4957.8389 8158321
1326.6392 660.16602 4958.1431 7764077
1348.6929 656.60266 4931.3804 8026992
1364.1923 650.06708 4882.2954 7500648
1398.9089 652.77014 4902.5967 7698282
1399.6951 639.85242 4805.5786 8421749
1433.0486 642.04059 4822.0132 7500647
1466.9015 644.36273 4839.4531 7237475
1467.7307 632.36755 4749.3643 8289908
1528.5355 646.17792 4853.0864 6776669
1554.0056 644.81665 4842.8623 6842463
1573.2886 640.98401 4814.0776 6645856
1595.1503 638.3197 4794.0674 7237740
1623.7378 638.39294 4794.6177 4606282
1565.7661 605.01703 4543.9492 261
1548.8146 588.35162 4418.7847 1253159
1577.7208 589.37079 4426.4395 923421
1609.5908 591.44574 4442.0229 132380
1611.6797 582.68683 4376.2397 8293526
1625.9263 578.53119 4345.0288 275
1659.9755 581.44135 4366.8853 7243151
1694.8899 584.56055 4390.312 537
1714.2604 582.30548 4373.3755 13028316
1746.6569 584.47644 4389.6802 11974856
1760.5382 580.47894 4359.6572 12171465
1764.3251 573.31677 4305.8662 11256536
1766.1848 565.74152 4248.9727 6
1774.7463 560.49567 4209.5742 3033425
1797.9088 559.94257 4205.4199 1118995
1869.5775 574.30493 4313.2876 6382431
1920.9509 582.12958 4372.0547 6711137
2003.7806 599.15192 4499.8999 6842463
2066.8472 609.89532 4580.5879 6052688
2094.062 609.91815 4580.7593 5723466
2097.3218 603.05255 4529.1953 6776152
2075.428 589.21912 4425.3003 3091742
2078.7576 582.80255 4377.1089 6381394
2091.8723 579.25372 4350.4556 7697255
2106.2939 576.14862 4327.1348 7565669
2151.4617 581.42737 4366.7803 6315602
2173.0635 580.2876 4358.2202 6644567
2166.9304 571.85541 4294.8906 6775898
2257.1948 588.76306 4421.875 7697258
2300.24 593.10748 4454.5034 5987410
2291.126 584.05695 4386.5298 6907743
2355.7158 593.78735 4459.6094 5263432
2379.6533 593.16864 4454.9624 6645086
2354.5039 580.46191 4359.5293 7039588
2300.804 561.06866 4213.8774 6908259
2380.0308 574.15906 4312.1924 6447451
2372.7314 566.31946 4253.3135 7698029
2354.2456 556.00281 4175.8306 6645083
2408.4756 562.89539 4227.5967 6249812
2427.1641 561.42493 4216.5532 6644313
2459.8103 563.18024 4229.7363 6183762
2546.5835 577.1676 4334.7876 5920590
2554.3865 573.15631 4304.6611 5460295
2563.4814 569.51123 4277.2852 6710106
2621.8335 576.77362 4331.8291 5854797
2596.6646 565.69965 4248.6582 7038814
2627.9658 567.02252 4258.5938 6446677
2637.1118 563.58539 4232.7793 6578006
2728.1985 577.55994 4337.7344 3946543
2710.1877 568.39313 4268.8877 5525833
2720.4089 565.26208 4245.3721 3946801
2781.2896 572.61829 4300.6206 6117970
2745.5005 560.11902 4206.7451 5525832
2761.658 558.34711 4193.4375 5789007
2775.1196 556.06659 4176.3096 5854541
2823.853 560.83148 4212.0962 6776412
2858.3059 562.7016 4226.1416 6118741
2867.9888 559.70526 4203.6377 6184534
2889.0083 558.95386 4197.9941 5855570
2896.7261 555.66364 4173.2832 7039843
2964.741 563.89771 4235.125 7500394
2948.3147 556.06757 4176.3169 6974050
2950.8872 551.9212 4145.1758 7566187
2977.7983 552.35785 4148.4556 6776671
2965.7761 545.62463 4097.8862 7697772
2996.3232 546.76886 4106.4795 7763566
3036.7104 549.67584 4128.312 6974050
3036.272 545.20551 4094.7378 7368808
3043.7695 542.21973 4072.3135 7368808
3049.4756 538.96436 4047.864 7763566
3085.5864 541.09149 4063.8401 8289908
3066.8208 533.63708 4007.854 7237221
3073.3616 530.66675 3985.5454 6184020
3098.3145 530.89661 3987.272 6644315
3172.094 539.42615 4051.3328 6841694
3170.1609 535.04913 4018.459 6907743
3144.4861 526.76007 3956.2046 6841950
3159.0503 525.28473 3945.1238 6776158
3201.4482 528.42511 3968.7097 7039586
3216.0818 526.9704 3957.7842 6052691
3239.043 526.89136 3957.1909 6710622
3242.9773 523.74078 3933.5281 6645085
3310.2002 530.7832 3986.4199 6250072
3341.3391 531.98083 3995.4148 5789522
3354.9849 530.39612 3983.5129 6447453
3280.6384 515.01984 3868.03 6250073
3352.4304 522.63971 3925.2588 6579038
3339.4678 517.03241 3883.1455 6315866
3408.2788 524.07587 3936.0449 5723730
3418.8218 522.12482 3921.3918 7500139
3429.8516 520.27405 3907.4915 6250073
3396.457 511.75449 3843.5059 7434347
3382.3037 506.22818 3802.001 7960433
3403.4683 506.02612 3800.4832 6447450
3476.718 513.51978 3856.7639 7236965
3540.6436 519.5473 3902.0337 4737087
3511.2715 511.89523 3844.563 6381141
3583.5481 519.06519 3898.4126 6776669
3553.7227 511.44891 3841.2109 6316119
3617.7834 517.35565 3885.573 5921361
3562.8259 506.27527 3802.3542 6579292
3561.6482 502.92807 3777.2156 7171429
3564.3088 500.16141 3756.4365 6908257
3573.2559 498.30569 3742.4995 6316120
0 0 0 0
0 0 0 0
0 0 0 0
0 0 0 0
0 0 0 0
0 0 0 0
0 0 0 0
0 0 0 0
0 0 0 0
0 0 0 0
0 0 0 0
0 0 0 0
0 0 0 0
0 0 0 0
0 0 0 0
0 0 0 0
0 0 0 0
0 0 0 0
0 0 0 0
0 0 0 0
0 0 0 0
0 0 0 0
0 0 0 0
0 0 0 0
0 0 0 0
0 0 0 0
-5003.7231 890.98584 6406.6489 5652036
0 0 0 0
-4852.5225 877.37256 6308.7622 3810861
-4791.2222 873.01306 6277.415 3153701
-4687.5962 860.81287 6189.689 1576207
-4661.4707 862.76422 6203.7207 1050377
-4573.2764 853.16742 6134.7148 1840152
-4568.2686 859.06012 6177.0859 327682
-4482.0493 849.65283 6109.4429 262147
-4416.7427 844.08893 6069.436 262147
-4356.2964 839.37036 6035.5068 262147
-4323.3779 839.92151 6039.4702 460299
-4288.5161 840.10126 6040.7627 591884
-4322.8892 853.96094 6140.4204 2893102
-4380.5947 872.70416 6275.1938 4340548
-4402.1001 884.49475 6359.9741 5656920
-4430.0742 897.7998 6455.6445 6578536
-4398.957 899.25684 6466.1216 3420472
-4453.7993 918.466 6604.2456 3223606
-4464.7295 928.88 6679.127 2368038
-4359.6528 915.12927 6580.2524 2762795
-4250.4141 900.24896 6473.2549 1973278
-4254.1191 909.23718 6537.8853 2104864
-4300.4648 927.58795 6669.8369 3354927
-4284.7061 932.75934 6707.0215 5393744
-4217.709 926.76862 6663.9453 4209213
-4243.0308 941.14203 6767.2974 5459538
-4063.7007 909.96301 6543.104 4670023
-3987.8176 901.5708 6482.7598 4472388
-3911.667 892.95428 6420.8027 3486006
-3970.2769 915.2337 6581.0034 3222578
-3915.9495 911.66241 6555.3242 2235938
-3856.2002 906.74475 6519.9634 2565160
-3843.771 912.96686 6564.7036 1248787
-3851.0652 924.04889 6644.3887 1643033
-3918.397 949.91425 6830.374 1379863
-3838.708 940.30597 6761.2861 393995
-3816.5247 944.73004 6793.0972 591376
-3698.0764 925.16528 6652.4165 1117977
-3654.1565 924.0249 6644.2168 723731
-3590.2859 917.75995 6599.1685 2039079
-3545.8398 916.37701 6589.2241 2302250
-3504.96 915.8952 6585.7598 3552576
0 0 0 0
0 0 0 0
0 0 0 0
0 0 0 0
-3590.9954 993.68341 7145.0977 3816004
-3469.3071 971.46173 6985.312 2828848
-3314.5957 939.34467 6754.3735 920848
-3280.6313 941.08026 6766.8535 3157555
-3145.4338 913.45966 6568.2476 3815486
-3089.8374 908.55371 6532.9707 2302503
-3014.7283 897.71271 6455.0186 1184277
-2855.374 861.18488 6192.3643 2105383
-2856.4133 872.71063 6275.2402 4144969
-2858.384 884.82861 6362.3755 6381673
-2756.0132 864.53949 6216.4858 3026745
-2753.686 875.50861 6295.3599 2960696
-2716.8894 875.66931 6296.5151 4079177
-2728.1479 891.53857 6410.623 4276811
-2796.1743 926.66907 6663.2295 5264218
-2753.1733 925.48364 6654.7056 4540752
-2682.1997 914.72406 6577.3389 3881797
-2716.437 940.05695 6759.4951 3158330
-2666.4641 936.56964 6734.4199 2960695
-2613.2285 931.81323 6700.2188 4079435
-2563.3474 928.12463 6673.6958 3750470
-2500.3833 919.50903 6611.7456 4737622
-2440.8662 911.90729 6557.0845 3948106
-2444.0308 927.85614 6671.7651 2631733
-2399.4524 925.90601 6657.7432 5000281
-2328.1208 913.3949 6567.7812 5131869
-2287.9197 912.87927 6564.0737 3684936
-2241.772 909.93219 6542.8828 3816780
-2185.8015 902.8241 6491.772 4079695
-2141.8567 900.51764 6475.1875 4014160
-2114.4065 905.18835 6508.772 4474711
-2050.1235 893.9715 6428.1167 4014418
-1940.6332 862.24384 6199.9785 2500922
0 0 0 0
0 0 0 0
0 0 0 0
0 0 0 0
0 0 0 0
0 0 0 0
0 0 0 0
0 0 0 0
-642.26465 343.9548 2473.2126 22
-628.12213 344.23395 2475.22 1646156
-606.4975 340.32791 2447.1335 7373506
-601.11652 345.56876 2484.8179 4347290
-584.83832 344.65088 2478.2178 296
-573.56555 346.71136 2493.0339 26
-565.45068 350.84021 2522.7224 23
-551.11877 351.23105 2525.5327 26
-537.45758 352.08307 2531.6592 20
-526.02832 354.4881 2548.9526 14
0 0 0 0
0 0 0 0
-1158.2126 854.06683 6141.1816 5790310
-1123.4132 855.27136 6149.8433 3027258
-1101.5818 866.76038 6232.4556 3027518
-1091.9895 889.0105 6392.4448 3750995
-1053.3835 888.39001 6387.9834 8754091
-969.95349 848.51147 6101.2358 10597581
-871.33527 791.74487 5693.0547 10466764
-865.28406 817.90515 5881.1606 10532301
-840.83905 828.14453 5954.7871 10598093
-807.53101 830.16925 5969.3457 10795469
-771.46869 829.41803 5963.9448 10729677
-734.539 827.61774 5950.9995 10663627
-701.9295 830.74878 5973.5132 9412267
-636.46301 793.26074 5703.9551 6581864
-597.93127 787.02155 5659.0918 5593680
-557.70331 777.67584 5591.8911 6053974
-530 785.71729 5649.7129 6645854
-496.31415 785.37585 5647.2588 7106405
-470.99371 799.17981 5746.5156 6645853
-434.52441 794.74329 5714.6147 8553590
-404.34003 802.02332 5766.9624 8224626
-362.44757 785.28052 5646.5732 8027247
-326.68967 779.77563 5606.9897 7829868
-292.84735 778.11438 5595.0444 7500903
-260.62064 780.86969 5614.8564 8487799
-224.85283 772.26904 5553.0137 7961713
-192.27661 773.56091 5562.3027 7764334
-159.69211 775.34686 5575.1445 8553593
-125.49822 768.21259 5523.8457 8619386
-92.081108 762.47748 5482.6074 7698284
-58.398586 747.09619 5372.0078 5001027
-26.441465 743.38147 5345.2969 9408901
5.3608508 762.66803 5483.9775 8816765
37.820858 762.09747 5479.8745 5263943
69.972977 758.71552 5455.5566 6579803
102.8222 762.64124 5483.7847 8158835
133.26807 751.1358 5401.0547 7895663
163.48274 743.03473 5342.8037 9277316
191.04176 727.44952 5230.7383 8093042
224.64803 736.02765 5292.4194 8422007
256.52991 737.54688 5303.3433 7566444
294.97992 755.55798 5432.8525 8422009
320.65808 740.53009 5324.7939 7632235
347.55884 730.76459 5254.5752 7566955
382.27536 737.68701 5304.3511 7961455
405.53699 723.13202 5199.6929 7764333
433.84683 718.99823 5169.9692 8487799
469.66867 727.03815 5227.7798 6974560
501.57272 728.3938 5237.5278 8158578
532.09174 727.69727 5232.5195 7631976
558.73694 722.07117 5192.0649 7895150
591.48279 724.50494 5209.5649 7697771
619.5011 721.19366 5185.7554 8224115
650.86578 721.90704 5190.8848 8421493
690.02832 730.8147 5254.9355 8354929
699.90863 709.27905 5100.083 7368035
734.45361 713.48633 5130.3354 7039582
763.0462 711.80664 5118.2573 6513238
794.44763 712.77527 5125.2227 7499876
810.62537 700.51691 5037.0786 7829355
839.55994 699.7616 5031.6475 6842460
883.88245 711.44391 5115.6494 6184529
878.34039 683.5459 4915.0483 7303011
913.49585 688.09375 4947.7495 8289906
943.091 688.3006 4949.2373 6645080
973.24188 688.88849 4953.4644 8026989
1002.0558 688.52332 4950.8384 8158574
1017.8979 679.51929 4886.0947 6842715
1015.7598 659.34192 4741.0093 7566182
1082.6139 683.82922 4917.0854 7434597
1094.77 673.38867 4842.0127 7303011
1111.9781 666.5094 4792.5469 6776668
1144.4948 668.92004 4809.8809 8421493
1185.2018 675.88434 4859.9575 8224114
1198.7761 667.41217 4799.0386 7763561
1233.3448 670.75037 4823.042 6579288
1240.4237 659.32568 4740.8926 7565927
1273.0056 661.66241 4757.6948 7960941
1305.8108 664.01147 4774.5859 7960941
1329.2778 661.61316 4757.3403 7368547
1335.2931 650.80847 4679.6494 5855565
1374.4438 656.26483 4718.8833 6513495
1387.7703 649.41888 4669.6577 6710875
1414.4619 648.97272 4666.4492 7895149
1425.6871 641.5835 4613.3169 7105891
1466.9315 647.72729 4657.4941 7040610
1504.7079 652.14124 4689.2324 7829614
1531.0232 651.51782 4684.75 7566446
1544.3361 645.48212 4641.3501 7369581
1562.9539 641.83606 4615.1333 6909033
1539.5422 621.35254 4467.8457 132102
1576.4244 625.48438 4497.5562 66056
1545.0443 602.84442 4334.7627 2172992
1595.7372 612.44427 4403.791 799
1647.0325 621.96277 4472.2339 3226453
1625.4773 604.10522 4343.8291 198682
1656.3342 605.97955 4357.3062 6716049
1686.4269 607.521 4368.3901 10
1716.3352 608.9505 4378.6689 12308437
1714.6425 599.29242 4309.2222 6448262
1725.2954 594.16931 4272.3843 8225676
1722.4038 584.59729 4203.5566 10926017
1763.418 589.98767 4242.3164 6119533
1771.0071 584.20062 4200.7046 24
1800.9163 585.83472 4212.4546 7633789
1842.8076 591.26862 4251.5269 6184025
1925.6969 609.5329 4382.8564 6645086
1958.8019 611.76276 4398.8906 6710105
1984.3422 611.6026 4397.7388 7631208
1997.865 607.79065 4370.3286 6775898
1970.7194 591.8623 4255.7959 6907484
1996.9526 592.16504 4257.9727 7302497
2037.5299 596.66064 4290.2983 7236704
2035.7697 588.80035 4233.7788 7565669
2062.543 589.28363 4237.2539 6446674
2073.0481 585.16315 4207.6255 6183503
2065.7532 576.17596 4143.0029 6973019
2135.9399 588.75702 4233.4673 6446676
2188.8562 596.34088 4287.999 7170912
2216.3357 596.90009 4292.02 6644311
2247.7673 598.49896 4303.5166 6183762
2260.8979 595.24359 4280.1094 5328451
2317.8545 603.47095 4339.2681 4670777
2317.2891 596.70581 4290.6235 5525831
2313.6895 589.3147 4237.4771 5263174
2274.3074 573.06592 4120.6401 6381913
2326.3684 579.95886 4170.2041 6579548
2342.2202 577.7749 4154.5005 6776670
2353.0085 574.40033 4130.2354 7105633
2345.8513 566.75952 4075.2939 5591625
2410.0635 576.34161 4144.1943 6512725
2411.7112 570.9198 4105.2085 7302755
2395.3472 561.38489 4036.6475 7697512
2482.2129 575.99268 4141.6851 7236961
2527.365 580.72968 4175.7466 6249555
2531.6819 576.08289 4142.334 6710106
2588.5164 583.3609 4194.6665 5986639
2610.1299 582.63837 4189.4712 5986638
2664.6316 589.20172 4236.665 4604731
2659.4939 582.57825 4189.0386 4604473
2692.907 584.44391 4202.4536 2762524
2690.6218 578.59869 4160.4238 4473139
2684.6892 572.08246 4113.5684 6382164
2700.5356 570.28247 4100.626 5658187
2748.4802 575.2326 4136.2197 6973535
2746.4023 569.71838 4096.5698 6710106
2810.8027 577.9704 4155.9058 5196866
2810.1985 572.82855 4118.9336 5723981
2879.6794 581.93848 4184.4385 7303272
2845.8127 570.18616 4099.9331 7171428
2882.1777 572.58521 4117.1836 6974306
2902.9517 571.87262 4112.0596 6776670
2894.4067 565.44427 4065.8364 8026738
2913.3926 564.45593 4058.73 7763566
2913.5317 559.86218 4025.6987 7171429
2938.8416 560.14069 4027.7009 6579293
2990.1978 565.33899 4065.0793 6710624
3000.9912 562.84662 4047.158 6973796
2996.2922 557.51105 4008.7927 6447962
3017.4937 557.04077 4005.4111 7763823
3005.2893 550.45911 3958.0854 7566187
3034.2405 551.45917 3965.2766 7763567
3058.1343 551.53174 3965.7986 7105636
3043.3623 544.68311 3916.553 7303015
3083.0261 547.60699 3937.5771 7434601
3085.7354 543.97229 3911.4421 6118998
3055.0015 534.54022 3843.6206 6053205
3091.4302 536.91241 3860.6777 6184790
3202.927 552.19159 3970.5427 6974307
3209.7346 549.33093 3949.9731 7170659
3219.3816 546.99408 3933.1702 6644314
3237.5034 546.12042 3926.8882 5854799
3218.6011 539.05835 3876.1082 5854799
3278.522 545.20435 3920.301 6381143
3311.9338 546.88654 3932.3967 6447196
3220.3416 528.04797 3796.9375 6841951
3229.3997 525.86005 3781.2056 6381143
3239.8186 523.92249 3767.2734 5460297
3261.4587 523.81354 3766.49 6249557
3300.8523 526.53802 3786.0808 4144181
3329.5161 527.52582 3793.1833 5526090
3335.7505 524.9704 3774.8086 5723725
3323.7869 519.60419 3736.2227 5657676
3330.6155 517.22736 3719.1318 6513242
3341.8616 515.56323 3707.166 6513499
3421.1389 524.34778 3770.3313 5986383
3428.3101 522.03845 3753.7266 5065281
3414.2676 516.54956 3714.2585 6249555
3443.9446 517.703 3722.552 5394502
3473.9067 518.88434 3731.0464 5658188
3519.0664 522.30634 3755.6526 5987152
3527.5364 520.27405 3741.0396 6381912
3504.5535 513.6571 3693.46 6250326
3482.8594 507.31 3647.8213 6710878
0 0 0 0
0 0 0 0
0 0 0 0
0 0 0 0
0 0 0 0
0 0 0 0
0 0 0 0
0 0 0 0
0 0 0 0
0 0 0 0
0 0 0 0
0 0 0 0
0 0 0 0
0 0 0 0
0 0 0 0
-4935.4639 845.70441 5832.5933 7698568
-5085.2817 877.51971 6052.0151 5855592
0 0 0 0
-5361.3257 938.38605 6471.7939 2959668
-5284.7725 931.64966 6425.3345 3287863
-4999.2207 887.70374 6122.2515 3418935
-5165.3013 923.89734 6371.8691 2958636
-4967.8408 895.12006 6173.3994 2103583
-4872.3789 884.43042 6099.6763 1708311
-4752.416 869.10059 5993.9502 5064268
-4719.2866 869.53906 5996.9746 3419448
-4965.5503 921.85358 6357.7734 5328470
-4746.4277 887.90851 6123.6636 4341831
-4795.9409 904.08099 6235.2007 2499626
-4710.7793 894.91992 6172.0195 3289141
-4563.0874 873.64362 6025.2827 3946814
-4480.2847 864.55328 5962.5889 3223348
-4544.2812 883.87122 6095.8198 2763052
-4664.8276 914.58582 6307.6504 3552568
-4623.2612 913.7561 6301.9277 5000014
-4451.6172 886.99457 6117.3608 4868429
-4380.4443 879.97705 6068.9629 4210242
-4338.2046 878.70392 6060.1821 3815741
-4384.2998 895.45105 6175.6826 3881535
-4389.8716 904.13385 6235.5654 2828590
-4404.9258 914.93359 6310.0483 1776416
-4346.104 910.44232 6279.0732 1644831
-4362.583 921.78394 6357.2935 1907747
-4320.9131 920.92987 6351.4028 3092277
-4363.1128 938.09302 6469.7725 1249816
-4358.7036 945.4505 6520.5151 2434090
-4203.7515 919.9931 6344.9424 2039331
-4176.8389 922.35065 6361.2017 2631212
-4110.2524 915.9104 6316.7852 3026480
-4240.9204 953.711 6577.4858 3025966
-4201.4463 953.59576 6576.6909 3618104
-4158.0684 952.58411 6569.7139 2894381
-4164.4019 963.04944 6641.8906 2499623
-4062.0745 948.34613 6540.4858 2236452
-3990.0393 940.49982 6486.3716 1512988
-3909.8872 930.56885 6417.8809 2828848
-3923.0083 942.86041 6502.6523 2170918
-3795.9299 921.36591 6354.4106 1250072
-3818.3013 936.07928 6455.8848 3289655
-3791.2456 938.85046 6474.9966 2631468
-3728.9612 932.86523 6433.7183 3947328
-3784.7729 956.60529 6597.4468 3552571
-3666.3782 936.3504 6457.7544 7960961
-3595.6304 927.96515 6399.9233 4934486
-3593.7534 937.36487 6464.751 4605522
-3602.1179 949.66724 6549.5972 2237229
-3482.0781 928.01617 6400.2754 6776430
-3273.6187 882.06409 6083.3564 4605519
-3272.7366 891.64252 6149.4165 3685443
0 0 0 0
0 0 0 0
0 0 0 0
0 0 0 0
0 0 0 0
0 0 0 0
-3303.5701 976.10132 6731.9058 2039587
-3308.9873 989.64923 6825.3418 4013122
-3201.9717 969.48999 6686.3091 4276297
-3114.6345 954.85852 6585.3999 2105386
-3047.9075 946.25464 6526.061 3223865
-2867.3406 901.63269 6218.3159 5789792
-2657.5789 846.54956 5838.4219 5461597
-2726.134 879.8382 6068.0049 6119525
-2660.9456 870.27502 6002.0508 6514285
0 0 0 0
-2588.8088 869.9317 5999.6826 7172214
-2454.7029 836.35022 5768.0801 6250857
-2567.8508 887.2525 6119.1392 4540240
-2587.9102 906.98755 6255.2471 3487299
-2646.3352 940.93762 6489.3911 2960698
-2655.2188 958.01385 6607.1611 3092796
-2599.2383 951.84766 6564.6348 5395808
-2535.4214 942.58075 6500.7236 6053997
-2490.5356 940.17468 6484.1294 5198176
-2476.1238 949.37726 6547.5967 4606040
-2418.105 941.88696 6495.939 3882061
-2369.3203 937.80963 6467.8184 3223876
-2320.1494 933.44293 6437.7021 4540247
-2235.9878 914.61731 6307.8672 4672089
-2231.9119 928.46735 6403.3867 4211539
-2163.1316 915.41394 6313.3613 4079696
-2136.7532 920.16089 6346.0996 3882316
-2045.5634 896.66809 6184.0762 3092799
-2008.8113 896.61627 6183.7188 3618886
-2016.184 916.62292 6321.6997 2764346
-1905.0287 882.48041 6086.228 7238013
-1818.6846 858.73584 5922.4678 3028029
0 0 0 0
0 0 0 0
0 0 0 0
0 0 0 0
0 0 0 0
0 0 0 0
0 0 0 0
-644.70862 359.97125 2482.6238 23
-630.03601 359.99124 2482.7617 24
-612.75647 358.48703 2472.3877 24
-601.59698 360.57733 2486.804 25
-588.93079 361.84683 2495.5593 24
-579.91479 365.48218 2520.6313 22
-566.04004 366.16663 2525.3518 22
-552.49207 367.10532 2531.8257 20
-538.20563 367.5921 2535.1829 18
-531.49402 373.42889 2575.4377 19
-505.45444 365.62946 2521.647 4342613
0 0 0 0
-1124.2375 864.32806 5961.0356 2172214
-1091.6558 866.49713 5975.9951 7634589
-1006.4001 825.60052 5693.9429 10070982
-951.30078 807.46417 5568.8608 10729167
-949.77869 835.13477 5759.6978 10465738
-927.12317 845.59265 5831.8232 8754864
-895.61298 848.47156 5851.6777 10597325
-862.20941 849.71631 5860.2627 10466251
-830.38965 852.69196 5880.7847 10532039
-770.56494 825.91174 5696.0889 8820132
-737.14911 826.28064 5698.6328 7766412
-703.6524 826.5899 5700.7656 8291978
-654.565 807.69244 5570.4355 7830649
-617.17242 801.98517 5531.0737 8093817
-588.45343 807.54071 5569.3892 7303787
-550.35016 800.11322 5518.1636 8092786
-518.91315 802.05121 5531.5293 8948093
-487.05457 803.55493 5541.8999 7237731
-454.99667 804.9234 5551.3384 7895660
-416.1586 793.57605 5473.0781 7303524
-387.26428 800.87506 5523.4175 6579543
-345.00543 779.33215 5374.8423 7500646
-311.84491 776.05035 5352.2085 7500903
-279.30731 773.7514 5336.353 8290419
-251.77652 786.50586 5424.3169 8158835
-216.56766 775.49835 5348.4014 7172196
-182.79898 766.75885 5288.1274 8619386
-157.54997 797.53156 5500.3584 7566443
-122.23608 780.11792 5380.2617 8158579
-88.073204 760.35657 5243.9727 8290166
-56.518089 753.83917 5199.0239 7632492
-25.933693 760.16449 5242.6479 7040354
5.1501865 763.90924 5268.4746 7764077
36.328079 763.20032 5263.5854 7435111
67.494637 763.01825 5262.3296 7632491
98.579712 762.32111 5257.5215 7566697
128.10588 752.79791 5191.8428 9737866
158.77797 752.39252 5189.0469 9342854
188.52892 748.46167 5161.9365 7895409
217.29956 742.2793 5119.2988 7829613
248.51393 744.93658 5137.6255 7895406
280.43402 748.89874 5164.9512 7369062
311.53873 750.11792 5173.3594 7566186
342.07803 749.87927 5171.7139 7105891
371.08875 746.60449 5149.1284 9277316
397.02557 738.11261 5090.562 8685435
430.71069 744.20752 5132.5972 7435113
456.51703 736.78296 5081.3921 7961457
478.57672 724.60425 4997.3984 8356214
507.63043 723.81714 4991.9702 8290421
550.04083 741.11328 5111.2568 7631978
566.50714 723.4718 4989.5884 8092272
601.80951 730.44226 5037.6616 8355701
627.12946 725.21033 5001.5786 8224116
662.25641 731.27972 5043.4375 8421495
691.66797 730.78638 5040.0352 8092531
715.66211 724.84692 4999.0723 8684667
738.4303 718.18719 4953.1421 8026736
771.99097 722.13196 4980.3481 7236963
790.82245 712.51569 4914.0269 7697769
803.08978 697.87787 4813.0742 8289906
839.66736 704.64502 4859.7451 8092527
861.54858 699.03918 4821.0835 7631462
879.21643 690.48431 4762.0825 7039324
904.47949 688.2406 4746.6084 6710358
938.92737 692.91052 4778.8154 6315601
957.53827 685.96167 4730.8911 7302753
982.64935 683.93225 4716.895 7236703
995.99298 674.05127 4648.7485 7960941
997.4057 656.84491 4530.0811 7895148
1048.9921 672.71649 4639.543 8092527
1083.4484 677.07263 4669.5859 8092526
1131.7665 689.65869 4756.3887 8947835
1147.2798 682.12878 4704.457 8224112
1185.3925 688.0741 4745.46 7960940
1185.6467 672.27777 4636.5171 7697768
1200.9855 665.55609 4590.1597 7105632
1223.1097 662.80927 4571.2153 8355698
1262.5865 669.38116 4616.54 6776922
1271.277 659.69855 4549.7617 6578513
1309.2844 665.31549 4588.5 6052425
1340.1501 667.14862 4601.1426 6184527
1370.6711 668.74048 4612.1216 7105632
1375.0175 657.74933 4536.3184 7434598
1398.8804 656.33649 4526.5742 7763821
1421.8715 654.57538 4514.4287 7566441
1457.8463 658.74634 4543.1943 7105891
1479.7921 656.54163 4527.9893 7040101
1492.9886 650.60278 4487.0308 6974310
1521.1377 651.27362 4491.6572 6382434
1540.7976 648.34937 4471.4893 2
1556.1471 643.74066 4439.7046 263
1575.0177 640.71771 4418.856 660253
1604.1024 641.88068 4426.8765 198678
1628.1398 641.01898 4420.9341 68120
1636.4119 634.07599 4373.0498 3620683
1657.0015 632.04773 4359.0615 461585
1688.6781 634.24591 4374.2217 3094843
1718.2246 635.58966 4383.4893 6450306
1712.6211 624.08453 4304.1416 13554394
1746.0861 626.94501 4323.8691 592402
1766.8623 625.23248 4312.0586 13227736
1762.8112 614.90845 4240.8564 11911629
1785.2618 613.98914 4234.5161 657941
1801.4524 610.97205 4213.7085 11911103
1833.7228 613.41656 4230.5674 6908517
1868.5256 616.6308 4252.7354 7105636
1876.8053 611.12317 4214.7505 6776154
1907.7761 613.05182 4228.0518 7302243
1948.7286 618.09637 4262.8428 6117969
1934.5009 605.73383 4177.5815 6710360
1950.3271 602.97522 4158.5562 7565669
1972.8323 602.32452 4154.0688 7763048
2006.8453 605.16016 4173.625 7039325
2033.5234 605.7417 4177.6362 7499875
2043.8652 601.50171 4148.394 5920587
2050.6992 596.34235 4112.811 4867642
2110.3489 606.48254 4182.7456 7038811
2124.7122 603.52386 4162.3398 5591366
2171.6448 609.77814 4205.4741 5986637
2176.2507 604.14044 4166.5923 7039072
2222.3604 610.02167 4207.1538 5592394
2235.4617 606.81238 4185.02 5460811
2226.4873 597.74683 4122.4976 7039843
2240.7339 595.04449 4103.8604 6513500
2234.0496 586.90149 4047.7002 5395018
2269.3687 589.84888 4068.0273 6776671
2272.3213 584.41003 4030.5176 6579291
2333.563 593.91968 4096.1025 7039842
2320.6497 584.55444 4031.5129 5393991
2337.0417 582.68658 4018.6309 6644313
2341.2434 577.84766 3985.2583 7104864
2393.2878 584.79565 4033.1768 6381141
2412.3391 583.62421 4025.0974 6973278
2484.0793 595.09808 4104.2295 6183762
2514.2085 596.4776 4113.7437 5130818
2626.4824 617.13171 4256.1899 7302243
2583.2908 601.21143 4146.3921 5328452
2592.2266 597.60858 4121.5439 6578519
2593.8862 592.41107 4085.6982 7302499
2620.1714 592.88184 4088.9451 2960161
2643.3896 592.65637 4087.3901 6249554
2617.0688 581.42902 4009.958 6513237
2648.9712 583.2226 4022.3281 6644824
2665.8982 581.71655 4011.9409 6249552
2703.1787 584.6391 4032.0969 5854539
2732.4785 585.7995 4040.0999 6446677
2750.6096 584.56616 4031.594 2696474
2769.8921 583.59662 4024.9075 4143922
2796.8469 584.2464 4029.3887 6249298
2833.1172 586.81458 4047.1006 6315603
2825.7041 580.36768 4002.6379 6052176
2832.5127 576.92468 3978.8926 6381142
2849.8909 575.67352 3970.2639 6974307
2859.5872 572.90387 3951.1624 7434602
2895.4285 575.37469 3968.2029 6250072
2907.0703 573.03552 3952.0703 7237224
2937.5334 574.41412 3961.5781 5131846
2914.8171 565.45447 3899.7859 5789776
2884.5972 555.19153 3829.0049 6381399
2974.5308 568.03381 3917.5752 6447191
2991.1531 566.78589 3908.9683 6513241
3015.7725 567.06073 3910.8638 6315348
2980.4602 556.14825 3835.6035 5591625
3003.467 556.20081 3835.9658 5789004
3042.0684 559.11877 3856.0903 7039071
3029.0667 552.57959 3810.9912 5394246
3037.6345 550.04279 3793.4956 6578520
3094.3599 556.1994 3835.9563 5854797
3123.1365 557.2793 3843.4038 6315349
3162.55 560.22772 3863.7385 6578522
3132.8394 550.97681 3799.9375 6841694
3144.6741 549.11249 3787.0793 7894383
3142.8413 544.90479 3758.0603 6447193
3153.46 542.90002 3744.2339 5460810
3188.1973 545.04651 3759.0376 6381913
3186.0103 540.89453 3730.4026 7434858
3195.6665 538.79651 3715.9329 6908257
3184.0618 533.16705 3677.1082 6842721
3241.2561 539.05615 3717.7241 6776157
3225.2747 532.77795 3674.425 6710364
3215.9873 527.68237 3639.2822 7105121
3222.1804 525.17773 3622.0083 6184021
3236.0874 523.95526 3613.5771 5921361
3275.4409 526.8418 3633.4849 6118484
3294.0112 526.36957 3630.2278 5723469
3340.2581 530.29736 3657.3167 6973280
3330.6367 525.36212 3623.2795 6052434
3325.1711 521.1413 3594.1702 6776157
3334.646 519.30096 3581.4775 5525832
3348.5129 518.16351 3573.6331 5393989
3460.8386 532.18054 3670.3047 6709850
3425.3271 523.43134 3609.9634 5789260
3454.4988 524.61359 3618.1177 5460295
0 0 0 0
0 0 0 0
0 0 0 0
0 0 0 0
0 0 0 0
0 0 0 0
0 0 0 0
-5019.3838 847.74438 5617.1582 10464704
-4937.9312 839.55359 5562.8857 9609655
-4918.1357 841.80615 5577.8115 7635610
-4633.9697 798.53259 5291.0801 5595514
-4516.1147 783.52356 5191.6304 4148066
0 0 0 0
-4851.7974 853.38654 5654.543 3752022
-5089.123 901.35333 5972.3711 1711663
-5258.0479 937.79205 6213.8145 724253
-5345.1777 960.05347 6361.3184 1447464
-5263.1558 952.03363 6308.1792 1776685
-5218.5596 950.71735 6299.4575 2894136
-5156.8188 946.23621 6269.7651 3552321
-5104.5322 943.4375 6251.2207 2104873
-5215.752 971.03845 6434.105 2631470
-5150.7988 966.00543 6400.7563 3420984
-4882.3413 922.44861 6112.1484 3289399
-4720.0332 898.44611 5953.1079 1052435
-4736.7119 908.40839 6019.1177 3486777
-4842.6699 935.77368 6200.4404 2499882
-4885.417 951.24933 6302.9824 3289399
-4675.0981 917.30896 6078.0933 3618363
-4671.2627 923.67053 6120.2451 1381402
-4531.5464 903.05316 5983.6343 2565676
-4504.6562 904.77216 5995.0244 2565676
-4519.0703 914.88037 6062.0015 1249815
-4610.4775 940.86267 6234.1602 1447191
-4418.833 909.03546 6023.2734 1118226
-4344.6768 901.05646 5970.4043 1512987
-4328.5 905.0697 5996.9956 2565675
-4291.4697 904.75293 5994.897 5657947
-4463.4614 948.86584 6287.189 4934479
-4397.8877 942.79321 6246.9521 7039857
-4441.2676 960.17261 6362.1079 3816771
-4367.8647 952.38574 6310.5122 6316907
-4290.1016 943.50549 6251.6719 4738390
-4129.9702 916.198 6070.7319 5658721
-4160.0688 930.98224 6168.6924 6777201
-4208.8789 950.25299 6296.3809 6053732
-4228.6367 963.25067 6382.5034 1776672
-4094.2971 941.0639 6235.4937 3092019
-4057.1172 941.00836 6235.1255 3420983
-4097.7334 959.16156 6355.4087 3618620
-4107.4219 970.34515 6429.5112 3355963
-4105.3862 978.94238 6486.4766 3685187
-3692.1885 888.73279 5888.7476 2829878
-3947.3152 959.20667 6355.7075 5000531
-3787.0642 929.12805 6156.4067 4013634
-3785.4766 937.76984 6213.6675 3420984
-3749.5632 937.99451 6215.1558 2762797
-3699.2546 934.58667 6192.5757 1973538
-3710.7097 946.87109 6273.9722 2105123
-3579.6724 922.6759 6113.6548 1118227
-3745.1106 975.18524 6461.5815 2039332
-3900.0117 1026.0068 6798.3257 3881536
-3676.626 977.33173 6475.8042 4802639
-3562.5112 956.98315 6340.9746 5395033
-3412.3728 926.42078 6138.4683 4144711
-3396.5178 932.04919 6175.7622 4803671
-3303.6526 916.43744 6072.3184 2632247
-3165.186 887.69281 5881.8564 3619399
0 0 0 0
0 0 0 0
-2357.5913 683.78192 4530.7422 2764343
-2306.6863 676.72217 4483.9639 4935254
-2313.9995 686.77673 4550.5854 3816771
0 0 0 0
0 0 0 0
0 0 0 0
0 0 0 0
-3127.542 985.64471 6530.8862 5330268
-2767.9951 883.26019 5852.4863 6448235
-2566.4229 829.32709 5495.125 5527132
-2766.9998 905.63019 6000.7095 4868943
-2612.5078 866.19409 5739.4058 5462107
-2177.3801 731.44434 4846.5532 6646124
-2028.5082 690.53973 4575.5195 6382952
-2180.3997 752.29901 4984.7368 5198166
-2372.1497 829.69531 5497.5649 5066582
-2403.5129 852.36786 5647.7935 3487292
-2512.1353 903.46606 5986.3701 2697522
-2622.4561 956.64722 6338.7485 2302764
-2530.5566 936.53369 6205.4766 1512989
-2521.0583 946.77283 6273.3208 1052437
-2458.4282 937.06622 6209.0049 2236715
-2445.3469 946.23785 6269.7764 986647
-2346.4519 921.97437 6109.0063 2104875
-2298.259 917.18475 6077.27 2105390
-2304.4226 934.28027 6190.5454 3619401
-2244.8718 924.85547 6128.0967 4079696
-2184.7847 914.89624 6062.1064 4540249
-2196.1489 935.0249 6195.479 3093059
-2112.8474 914.84839 6061.7891 6448501
-2106.199 927.73792 6147.1958 5593192
-2065.1628 925.66779 6133.479 6053741
-2034.0785 928.0639 6149.3555 5396065
-1947.3982 904.71875 5994.6709 4211791
-1923.6254 910.27466 6031.4844 3357764
0 0 0 0
0 0 0 0
0 0 0 0
0 0 0 0
0 0 0 0
0 0 0 0
0 0 0 0
0 0 0 0
-644.9209 366.44266 2428.0505 18
-647.07275 376.0528 2491.7275 21
-632.63062 376.24277 2492.9863 20
-618.11987 376.40005 2494.0283 23
-605.61499 377.81641 2503.4131 22
-592.01013 378.60037 2508.6079 21
-579.31274 380.02002 2518.0144 19
-565.62915 380.85071 2523.5186 17
-551.76868 381.60419 2528.511 131856
-537.15784 381.86624 2530.2473 1185061
-517.95734 378.7869 2509.8435 1645619
-501.20172 377.3663 2500.4309 6056322
0 0 0 0
-1046.2445 837.23065 5547.4937 10729424
-1004.9735 830.28552 5501.4751 10466250
-991.28632 846.42773 5608.4336 10531787
-967.27637 854.56952 5662.3813 10465738
-941.07751 861.29309 5706.9316 10334151
-896.36096 850.93848 5638.3218 9939391
-873.41284 861.24738 5706.6289 9807289
-833.09143 854.56537 5662.354 9477544
-786.67523 840.80859 5571.2012 8489871
-727.30243 811.39221 5376.2886 6383458
-691.70227 807.01727 5347.2998 7961715
-665.92114 814.22815 5395.0796 7830127
-628.41003 807.10077 5347.853 7829869
-599.8147 811.27539 5375.5146 7566697
-573.04742 818.52942 5423.5796 7961714
-530.23181 802.36047 5316.4438 8684924
-503.18771 809.52228 5363.8984 7435112
-465.51672 799.40094 5296.834 5592649
-435.26318 801.47443 5310.5732 7698025
-402.71503 799.31671 5296.2759 5790032
-367.71243 791.51105 5244.5562 5198148
-335.5191 788.86981 5227.0547 8290420
-302.17715 782.71606 5186.2803 8290421
-272.84583 786.73383 5212.9019 8422007
-242.62262 788.8772 5227.1035 7500905
-210.77791 785.60413 5205.4165 7500651
-179.29338 782.78162 5186.7148 8421753
-146.48918 771.83862 5114.2061 8619132
-115.03455 764.15338 5063.2837 8224373
-84.986115 763.68256 5060.1641 7961201
-55.776363 774.34198 5130.7935 7566699
-25.470097 777.07898 5148.9292 8290421
5.010232 773.51367 5125.3052 8488057
34.785042 760.6416 5040.0146 9079937
65.759636 773.77808 5127.0571 8948351
96.616066 777.66235 5152.7944 8487800
124.21799 759.77545 5034.2754 8093039
153.62517 757.71863 5020.647 8882301
182.17624 752.79144 4987.9995 8553337
215.34187 765.64667 5073.1782 8750716
239.16003 746.1886 4944.249 7895406
271.1235 753.61743 4993.4727 7631978
293.9216 736.61475 4880.8125 7895150
326.71872 745.47247 4939.5039 8093042
355.87048 745.24005 4937.9639 8750715
386.00598 746.94653 4949.271 6974561
420.69788 756.60657 5013.2783 7237733
443.72153 745.3916 4938.9683 8158835
468.39142 738.15851 4891.0415 8224628
498.28033 739.51392 4900.0225 8619386
524.59406 735.70612 4874.792 7895150
556.64642 739.92389 4902.7388 7895150
584.33905 738.21545 4891.4189 6710875
603.15314 725.98187 4810.3594 7368805
634.83325 729.63965 4834.5957 7895149
663.79865 729.99609 4836.9575 7500391
671.67859 708.09442 4691.8369 8289907
719.30267 728.16736 4824.8403 8092529
748.97406 729.22662 4831.8589 6842719
766.7923 719.0921 4764.7075 7895149
775.51062 701.44641 4647.7871 7960942
811.80664 709.09937 4698.4956 8289905
834.3623 704.64087 4668.9536 7171681
857.57489 701.00549 4644.8657 7763304
869.63959 688.76691 4563.7725 6249806
904.46344 694.74847 4603.4062 6381647
933.26068 695.88593 4610.9434 6907991
935.20392 677.50458 4489.1484 6907737
967.94403 681.83344 4517.8315 7631461
997.59973 683.81512 4530.9624 8420977
1041.1267 694.95209 4604.7559 7828840
1047.9181 681.62537 4516.4526 6644566
1089.2585 690.87543 4577.7437 7236704
1103.4413 682.86938 4524.6958 8026734
1153.7605 697.07599 4618.8286 7895404
1158.1794 683.53485 4529.105 8421491
1188.2897 685.42609 4541.6362 8684663
1197.6233 675.51465 4475.9629 7829610
1225.1182 676.05444 4479.54 7566437
1246.0237 673.01233 4459.3828 6777178
1282.0281 678.08252 4492.9775 6579800
1288.7249 667.7605 4424.584 7105632
1312.5366 666.5415 4416.5068 6447703
1337.4713 665.9292 4412.4497 6250325
1359.2897 663.81848 4398.4644 6776669
1371.4974 657.18213 4354.4917 7763307
1413.91 664.99683 4406.272 7763565
1439.5973 664.80457 4404.998 8290168
1469.2388 666.4126 4415.6528 6579808
1493.8376 665.71716 4411.0449 7566702
1545.4554 676.87946 4485.0063 7106410
1550.1268 667.45032 4422.5288 1975071
1590.5632 673.47833 4462.4702 2107686
1613.7382 672.11969 4453.4683 2831152
1623.3496 665.24664 4407.9272 3160376
1646.8877 664.20795 4401.0449 1448217
1654.2205 656.7677 4351.7456 2171940
1640.4701 641.31366 4249.3472 8291721
1704.7644 656.37592 4349.1499 6316389
1717.2251 651.32953 4315.7124 5789534
1716.1489 641.37213 4249.7349 5328981
1730.4121 637.3526 4223.1011 5197907
1745.1243 633.6106 4198.3066 5395542
1770.4041 633.75665 4199.2744 6251366
1784.2592 629.86566 4173.4927 8422018
1823.0394 634.75958 4205.9199 7105643
1809.9976 621.72101 4119.5264 6513501
1858.5352 629.90015 4173.7212 6578521
1883.3932 629.94427 4174.0137 6907739
1896.0908 625.97266 4147.6978 6775898
1917.0846 624.80646 4139.9707 5262659
1923.2062 618.88397 4100.728 7433829
1946.9209 618.70001 4099.5088 6841948
1972.7953 619.19843 4102.8115 6973534
1986.0415 615.76929 4080.0903 7302243
2023.1195 619.7229 4106.2866 6710361
2032.2839 615.13361 4075.8782 8355185
2067.9551 618.58093 4098.7202 7631462
2082.7922 615.78864 4080.218 6907739
2083.5139 608.93494 4034.8054 6578519
2129.8088 615.40503 4077.6765 6512727
2163.9893 618.26874 4096.6514 6316120
2182.2537 616.57208 4085.4094 6842464
2184.5967 610.46356 4044.9343 7500394
2196.3232 607.08124 4022.5232 6842463
2204.6042 602.82941 3994.3503 7237222
2225.0815 601.96741 3988.6389 6776671
2233.1592 597.80426 3961.054 6776671
2251.7009 596.49976 3952.4099 6842463
2264.512 593.71954 3933.9885 6512470
2304.2898 597.99426 3962.3127 6183761
2260.0884 580.60876 3847.1165 6249555
2343.2249 595.95654 3948.8105 6644313
2353.2329 592.58575 3926.4761 6249555
2400.8892 598.66876 3966.7817 6249298
2436.5811 601.67932 3986.7297 6249297
2472.6816 604.73206 4006.9573 5196607
2483.1133 601.50873 3985.5994 5459780
2500.3088 599.96912 3975.3982 5394243
2512.3047 597.22223 3957.197 4670262
2535.3677 597.13263 3956.6033 4012590
2550.677 595.23523 3944.0315 5986639
2523.1785 583.47327 3866.0964 6776155
2528.5952 579.46588 3839.5435 7828842
2582.6863 586.58496 3886.7144 6710106
2647.7061 596.03845 3949.3533 5789004
2672.7163 596.39844 3951.7388 5196866
2709.5852 599.37543 3971.4641 5656903
2670.2219 585.58331 3880.0774 5525573
2710.0439 589.24384 3904.3323 5262145
2755.4597 594.04834 3936.167 5392959
2788.1265 596.04681 3949.4089 4538421
2770.1675 587.27917 3891.3147 5328196
2756.9812 579.65985 3840.8289 6446935
2769.9685 577.62323 3827.3342 5591369
2797.6401 578.65692 3834.1833 5196866
2875.9333 590.06006 3909.7407 7301988
2877.7839 585.72247 3880.9998 7433573
2832.1992 571.87549 3789.2498 5920336
2886.6523 578.28711 3831.7329 6315348
2933.7073 583.12805 3863.8091 6644057
2888.2754 569.65302 3774.5232 6973279
2913.6482 570.24237 3778.4285 5723211
2913.262 565.81989 3749.125 6578519
2921.1694 563.06287 3730.8569 5920590
2970.8801 568.34448 3765.8533 6117969
2995.6208 568.80609 3768.9116 5789004
3030.6118 571.19275 3784.7256 5920590
3007.0586 562.59125 3727.7324 5591625
3058.886 568.11542 3764.3354 6578520
3045.8813 561.60571 3721.2021 6315348
3015.1108 551.9375 3657.1401 7368035
3085.9304 560.87122 3716.3352 6907485
3078.854 555.62103 3681.5476 4736316
3052.8772 547.0578 3624.8076 7302243
3087.9519 549.47797 3640.8435 8618103
3107.7415 549.16351 3638.7598 7170656
3092.2078 542.65448 3595.6309 6578519
3116.3647 543.15216 3598.9287 6710108
3137.0037 543.03412 3598.1465 6973280
3154.9998 542.4632 3594.3638 6710621
3165.3035 540.58624 3581.927 6842206
3155.5598 535.33337 3547.1211 5461067
3172.512 534.6488 3542.5857 5987411
3154.3777 528.09924 3499.1877 7632237
3163.0605 526.09552 3485.9111 7039844
3193.6172 527.73224 3496.7563 5855567
3241.1064 532.12805 3525.8826 6381911
3260.8403 531.93976 3524.6353 6447703
3318.8982 537.96582 3564.564 6513496
3281.8818 528.60242 3502.522 6381910
3293.0098 527.06238 3492.3179 7039841
3337.6772 530.87628 3517.5889 7237220
3354.3372 530.21576 3513.2119 5921360
0 0 0 0
0 0 0 0
0 0 0 0
0 0 0 0
0 0 0 0
-4813.0117 833.74347 5315.7246 2570588
-4907.4141 855.69531 5455.6841 2370894
-4929.3169 865.21289 5516.3652 1053748
-4757.2026 840.57544 5359.2837 987180
-4881.9375 868.41132 5536.7578 2370374
-4955.2256 887.4104 5657.8906 1844283
-4958.8755 894.11206 5700.6187 3159113
-5187.0415 941.66473 6003.8018 2369595
-5133.5488 938.38818 5982.9111 1382439
-5334.1011 981.82709 6259.8662 3027264
-5197.7271 963.4234 6142.5293 987682
-5253.7051 980.66486 6252.4561 1316136
-5177.7002 973.34021 6205.7559 3224129
-5068.3799 959.60309 6118.1719 3288894
-5205.7617 992.71289 6329.271 4473422
-5093.7568 978.40131 6238.0244 3091768
-5078.7153 982.64124 6265.0571 2368298
-4850.0264 945.30243 6026.9946 2763055
-4760.5239 934.73926 5959.6465 4013121
-4726.2178 934.93701 5960.9077 3618363
-4726.833 942.09802 6006.5645 4013122
-4778.189 959.55737 6117.8804 2434091
-4794.793 970.25134 6186.0625 3749951
-4762.9785 971.23688 6192.3462 3420985
-4712.1279 968.32587 6173.7861 5065810
-4504.606 932.92218 5948.0615 5723743
-4407.2397 919.95355 5865.377 5395292
-4369.5107 919.32635 5861.3784 3619652
-4300.7119 912.09973 5815.3032 4276812
-4291.395 917.47333 5849.564 4605775
-4280.1714 922.52338 5881.7617 3158329
-4339.0723 942.89459 6011.6431 3618878
-4390.4609 961.95715 6133.1807 2631727
-4360.9453 963.46356 6142.7852 5000274
-4385.3657 977.01172 6229.165 3092278
-4328.6172 972.55292 6200.7368 3618622
-4283.6362 970.6842 6188.8223 4276553
-4169.9878 953.08881 6076.6382 2368559
-4095.8723 944.30103 6020.6104 2303023
-4147.6938 964.6488 6150.3418 2960696
-4246.4312 996.36523 6352.5576 3618370
-4189.4346 991.78156 6323.3335 3223609
-4169.5483 995.97961 6350.0991 3750212
-4065.7627 980.03058 6248.4121 4408396
-3933.7185 956.91425 6101.0288 4079430
-3977.4229 976.51837 6226.019 4408138
-3957.8689 980.81293 6253.4004 4145222
-3898.3091 975.18115 6217.4937 6710892
-3717.876 938.91644 5986.2793 3948356
-3679.0537 938.06024 5980.8203 1908516
-3621.5022 932.36536 5944.5117 4934992
-3614.1282 939.60406 5990.6631 3290167
-3309.6001 868.96558 5540.2915 2895152
-3510.676 930.9928 5935.7603 3816000
-3264.4023 874.44257 5575.2109 3881537
-3562.6008 964.07599 6146.6899 4737615
-3629.0374 992.19586 6325.9751 7763836
-3678.885 1016.3199 6479.7832 4803151
-3633.0896 1014.2519 6466.5981 4737104
-3386.6729 955.53528 6092.2368 4803667
-3146.8022 897.42078 5721.7139 4277325
-3223.3618 929.26422 5924.7393 3619397
0 0 0 0
0 0 0 0
0 0 0 0
-2338.219 704.78381 4493.5127 7962245
-2252.4023 686.73553 4378.4414 5264732
-2297.323 708.59161 4517.79 1316636
-2249.5566 702.03735 4476.002 4145992
0 0 0 0
0 0 0 0
0 0 0 0
0 0 0 0
0 0 0 0
-2123.2278 713.04327 4546.1729 6513507
-2133.5208 725.70538 4626.9028 5921368
-2135.1155 735.69977 4690.6245 5987676
-2151.2947 751.0495 4788.4902 3158066
-2142.0652 757.82037 4831.6597 5593179
-2120.0344 760.18451 4846.7324 4474443
-2134.4854 775.87439 4946.7671 3290427
-2381.0686 877.55469 5595.0537 4079689
0 0 0 0
-2411.8088 914.34082 5829.5918 3685188
-2442.687 939.50018 5990.0015 2171179
-2396.1375 935.18231 5962.4717 2763316
-2371.6235 939.46417 5989.7715 1644837
-2386.114 959.56128 6117.9053 3158076
-2324.5889 949.23773 6052.0854 3684935
-2239.7415 928.91809 5922.5327 4408406
-2199.5933 926.7854 5908.9351 3093054
-2183.8608 935.03735 5961.5479 4540503
-2183.5557 950.2746 6058.6958 4013904
-2186.7488 967.56909 6168.9609 4803420
-2131.3486 959.08502 6114.8687 7040382
-2038.8165 933.30975 5950.5327 7237761
-2009.6281 936.1344 5968.542 6185330
-1996.3452 946.60223 6035.2817 5001053
-1903.3033 918.94299 5858.9341 4474710
-1900.4757 934.62195 5958.8989 3817804
-1856.1056 930.078 5929.9277 4278100
-1848.6602 944.2182 6020.082 3685707
-1707.0786 889.05585 5668.3818 3356999
0 0 0 0
0 0 0 0
0 0 0 0
0 0 0 0
0 0 0 0
0 0 0 0
-645.74652 390.01334 2486.6204 19
-631.20337 390.12961 2487.3618 18
-619.15869 391.83267 2498.22 12
-607.98633 394.1846 2513.2153 921628
-592.89325 394.04886 2512.3499 2171694
-579.65863 395.1731 2519.5178 3619662
-565.51886 395.72345 2523.0266 3488592
-564.91058 406.02939 2588.7346 3883612
-530.28198 391.77606 2497.8591 8228264
0 0 0 0
0 0 0 0
-1046.0227 843.41736 5377.4028 10400971
-1028.134 855.03387 5451.4663 10335435
-1004.6674 862.61456 5499.7993 10532041
-972.6499 863.1156 5502.9937 10268097
-951.53638 873.66284 5570.2402 9807284
-917.31329 872.49896 5562.8193 9016477
-882.76801 870.93042 5552.8188 7831167
-832.1355 852.75458 5436.9346 7830390
-777.18536 828.51221 5282.3716 7106149
-738.1781 819.94458 5227.7466 7895153
-710.61481 823.89471 5252.9316 8487289
-675.38251 818.90802 5221.1377 7500907
-645.27319 819.95233 5227.7964 8685179
-617.75043 824.55444 5257.1382 7435112
-594.00623 834.95654 5323.459 7106146
-553.79047 822.07397 5241.3232 7764077
-518.75531 815.80804 5201.3735 8158835
-491.45602 821.68463 5238.8408 7961457
-459.9137 820.78119 5233.0806 6052949
-426.33105 815.84259 5201.5938 7040100
-393.64624 811.98651 5177.0083 6710879
-358.86252 802.78357 5118.3325 7500907
-325.46066 795.25842 5070.3545 7500650
-292.64597 787.78351 5022.6963 8092787
-260.61813 780.97443 4979.2837 7171941
-233.14119 787.80511 5022.834 7566443
-204.36151 791.58844 5046.9556 8553593
-173.87323 788.91608 5029.9175 9342851
-143.058 783.34802 4994.417 7303268
-112.32926 775.47327 4944.2095 7171168
-82.753914 772.81427 4927.2563 7369062
-53.780491 775.94153 4947.1953 8224628
-24.546383 778.29419 4962.1953 9277316
4.8774366 782.57068 4989.4604 9211524
34.44294 782.72546 4990.4473 8882559
64.078476 783.59363 4995.9829 7698284
94.463966 790.18646 5038.0171 8488057
122.03486 775.72241 4945.7979 7302755
151.23547 775.21289 4942.5493 7434597
181.5535 779.66718 4970.9487 7631975
207.06602 765.12152 4878.21 7499364
234.81291 761.38379 4854.3789 6381139
258.6593 747.19434 4763.9106 8026222
291.93042 760.34369 4847.7476 8289651
316.83206 751.29132 4790.0322 8487031
349.79459 761.27045 4853.6562 7763564
375.99249 756.12982 4820.8809 7368806
406.61926 759.99268 4845.5098 7566185
433.1492 756.19391 4821.2896 8947838
453.53656 742.80475 4735.9238 8355701
487.00549 751.15259 4789.1475 7829357
509.51358 742.60608 4734.6572 8816254
543.55469 750.88348 4787.4316 8487288
568.79852 746.78979 4761.3315 7697772
589.41766 737.29797 4700.814 5789774
622.34265 743.36133 4739.4727 7303015
