# .PCD v0.7 - Point Cloud Data file format
VERSION 0.7
FIELDS x y z rgb
SIZE 4 4 4 4
TYPE F F F U
COUNT 1 1 1 1
WIDTH 1294
HEIGHT 1
VIEWPOINT 0 0 0 1 0 0 0
POINTS 1294
DATA ascii
-1964.7576 900.6391 2321.8958 4472617
-1928.6335 890.31317 2295.2749 4407081
-1914.5914 890.10657 2294.7422 6183495
-1884.5693 882.41473 2274.9121 6381384
-1894.4974 893.45264 2303.3687 2762259
-1878.7395 892.44934 2300.782 4604205
-1875.7715 897.55121 2313.9348 2959125
-1855.9791 894.61853 2306.3743 2761745
-1849.0232 897.87573 2314.7715 4209445
-1833.4493 896.96545 2312.4248 5196340
-1804.4193 889.40881 2292.9434 4933681
-1779.5717 883.8147 2278.5215 4472362
-1760.0052 880.77802 2270.6929 5327928
-1748.1537 881.58521 2272.7737 4406825
-1738.7744 883.66138 2278.1262 6118471
-1687.7017 864.41522 2228.5085 5263162
-1699.2103 877.17139 2261.3948 5854788
-1704.8901 887.0976 2286.9851 5525567
-1705.0632 894.29462 2305.5393 5657410
-1713.2726 905.85675 2335.3472 5723461
-1708.8895 910.89508 2348.3362 5262911
-1683.3861 904.66571 2332.2766 5723461
-1667.4038 903.49255 2329.252 5394497
-1623.1818 886.87 2286.3982 3881257
-1609.4951 886.79199 2286.197 4078377
-1602.7576 890.57391 2295.9473 4670000
-1588.036 889.94653 2294.3296 2959383
-1577.2491 891.5321 2298.4172 5591869
-1558.9141 888.84167 2291.4812 6381387
-1545.5914 888.98688 2291.8557 4407600
-1529.1968 887.35217 2287.6414 7631459
-1511.5847 884.97546 2281.5139 5920842
-1505.0089 889.0755 2292.084 5197377
-1496.9501 892.36609 2300.5674 5591622
-1481.2255 891.10547 2297.3174 7696996
-1463.1332 888.38373 2290.3008 3289122
-1449.4221 888.29626 2290.0752 2696988
-1433.5676 886.88104 2286.4265 5262912
-1396.5095 872.19598 2248.5679 5262655
-1380.9672 870.79535 2244.9568 6842203
-1372.3666 873.78729 2252.6702 5592135
-1387.1768 891.88983 2299.3396 5328453
-1384.7855 899.18231 2318.1399 7960426
-1366.6874 896.31952 2310.7595 3025954
-1360.4215 901.23743 2323.4382 3552553
-1335.2891 893.62952 2303.8247 6381654
-1316.2273 889.9693 2294.3884 6645081
-1297.4282 886.41217 2285.2178 7302497
-1278.1658 882.46008 2275.0291 7039324
-1256.913 877.03479 2261.0425 3618087
-1239.6997 874.34186 2254.0999 5263169
-1210.1993 862.82996 2224.4216 5591877
-1208.1353 870.841 2245.0745 7565409
-1184.5935 863.37665 2225.8311 6776151
-1180.0967 869.78119 2242.3423 6381392
-1166.6763 869.67957 2242.0803 5196861
-1151.2888 868.09241 2237.9885 4012587
-1146.6888 874.69708 2255.0159 4736058
-1133.0164 874.4552 2254.3923 4473138
-1115.2935 871.04437 2245.5989 5723461
-1116.7458 882.70789 2275.668 5855304
-1104.9165 884.02979 2279.0759 6250061
-1090.5775 883.35168 2277.3276 5328958
-1080.7708 886.37347 2285.1182 6381392
-1060.5293 880.8056 2270.7639 6381136
-1047.1273 880.84821 2270.8738 7170910
-1033.2192 880.46057 2269.8743 6381394
-1010.6489 872.5838 2249.5676 4671802
-1012.5972 885.94849 2284.0225 7697769
-996.26471 883.46423 2277.6179 6710873
-970.40027 872.34308 2248.947 8618871
-958.92719 874.02942 2253.2944 5855565
-942.58771 871.2652 2246.1682 6974046
-926.23132 868.40607 2238.7971 6250835
-914.47803 869.84222 2242.4995 7170910
-908.62219 877.013 2260.9863 6249806
-886.50391 868.46674 2238.9536 7236701
-866.94592 862.20728 2222.8164 5262653
-850.70972 859.10925 2214.8296 4604465
-837.71436 859.23828 2215.1621 5064761
-829.18097 864.02094 2227.4919 4406832
-816.31836 864.37415 2228.4026 7038038
-791.14691 851.49115 2195.1897 5328445
-787.7998 862.05914 2222.4346 1973264
-753.56177 838.60919 2161.9792 7631205
-751.69293 850.99353 2193.9067 7631462
-746.9317 860.48145 2218.3672 6249809
-736.47083 863.62573 2226.4731 6315602
-727.62762 868.8161 2239.8542 3420456
-708.50433 861.69647 2221.4995 5196864
-694.26587 860.36084 2218.0562 6315345
-668.84259 844.84564 2178.0571 5197634
-657.45233 846.79437 2183.0811 7763303
-647.60455 850.84802 2193.5315 6249808
-637.54346 854.78149 2203.6724 7697253
-616.75146 844.19141 2176.3706 5591876
-601.40308 840.75928 2167.5222 8026217
-588.1311 840.14343 2165.9346 6841687
-578.99524 845.54041 2179.8481 9078905
-563.13757 841.14349 2168.5127 6184267
-552.72552 844.86493 2178.1069 5921352
-543.58893 850.76056 2193.3062 6513233
-525.43066 842.47968 2171.9575 7303521
-510.38419 838.89758 2162.7227 8158316
-500.31781 843.5274 2174.6587 6118221
-484.99478 839.30511 2163.7734 6118223
-471.08176 837.35992 2158.7585 7236704
-453.29388 828.22638 2135.2117 7763562
-443.98117 834.49799 2151.3804 6645338
-427.29987 826.88116 2131.7439 9342852
-417.80093 833.12262 2147.8347 3881778
-408.02969 839.19617 2163.4924 5460808
-395.88324 840.62006 2167.1633 5921359
-387.4935 850.38379 2192.3347 7171681
-370.28214 840.79358 2167.6108 7368289
-362.93951 853.72821 2200.9568 7302496
-347.95828 848.9892 2188.7395 8355183
-331.50021 840.14056 2165.9272 8157803
-319.77267 843.0509 2173.4302 7763046
-306.12222 840.92316 2167.9448 5920843
-293.91068 842.73486 2172.6155 5328964
-281.13776 843.02917 2173.3743 5921357
-267.54263 840.76794 2167.5447 6908254
-254.89024 841.39062 2169.1499 6184530
-241.8943 840.88513 2167.8467 7104861
-229.90555 844.02051 2175.9299 5723463
-216.99161 843.93018 2175.697 5591878
-203.6248 841.95575 2170.6069 5262915
-190.32294 840.00195 2165.5698 6776156
-180.69872 855.17041 2204.6748 6776669
-166.61244 849.94012 2191.1909 7236706
-153.89523 851.40009 2194.9548 6710363
-140.59036 849.57831 2190.2583 6973278
-126.50074 842.1618 2171.1382 7828586
-111.9596 829.72021 2139.063 6973021
-100.23225 837.61682 2159.4209 7367779
-87.144142 834.78894 2152.1304 8091759
-74.199455 832.60101 2146.49 5328453
-61.770508 836.49225 2156.5217 9013117
-48.66629 830.88385 2142.063 8158323
-35.957623 830.45422 2140.9553 7368548
-23.154453 826.18433 2129.9473 8092271
-10.539384 826.43677 2130.5981 8355186
2.0822525 826.23468 2130.0771 6776668
14.90473 837.66705 2159.5505 8487288
27.566006 833.66333 2149.2285 9342342
40.334381 834.40503 2151.1409 4802627
53.027252 833.6037 2149.075 6052949
66.010773 836.79724 2157.3079 6447450
79.061302 839.66632 2164.7046 6381912
91.272026 834.06036 2150.252 8355449
102.62984 822.98798 2121.7068 6908003
115.30367 823.73346 2123.6289 8487035
128.1087 825.17731 2127.3513 7697004
143.33725 840.57501 2167.0474 5986640
156.59915 842.85614 2172.9282 5526347
169.28178 841.90973 2170.4883 7236965
181.42595 838.60803 2161.9763 6710619
194.73453 840.76904 2167.5476 5921100
207.44862 840.25494 2166.2222 6579287
220.67467 841.75348 2170.0854 6908513
234.96028 846.90619 2183.3694 8815740
244.56084 835.5152 2154.0027 8750717
258.14426 838.18628 2160.8889 8026480
271.34866 839.43231 2164.1013 7961200
286.78235 847.15131 2184.0012 6776927
300.55896 849.52008 2190.1082 8224116
311.3999 843.73865 2175.2034 6974048
329.90329 858.35321 2212.8804 7632234
339.99774 850.80811 2193.4287 7697514
347.18304 836.8067 2157.3323 4868670
354.28458 823.60474 2123.2969 8749941
369.54028 829.61414 2138.7896 7105889
385.45181 836.64868 2156.9248 5987153
396.2634 832.51709 2146.2734 8618874
403.36072 821.08173 2116.7925 7303272
412.04645 813.4718 2097.1738 8816768
427.10266 818.51599 2110.178 5395532
446.08215 830.57831 2141.2751 6776670
458.26273 829.66437 2138.9189 8158324
480.32928 846.21613 2181.5903 7369063
492.20148 844.41125 2176.9373 3157545
507.10062 847.75897 2185.5679 4736313
519.24664 846.45197 2182.1982 5328707
533.48816 848.54138 2187.585 5789003
542.51837 842.43951 2171.854 8025962
553.67627 839.84766 2165.1721 5525571
566.94305 840.49969 2166.853 2039316
565.53082 819.84283 2113.5986 7763048
586.35944 831.62482 2143.9731 8749943
599.7735 832.61426 2146.5239 7104861
603.31274 820.13867 2114.3613 7038811
616.06567 820.44098 2115.1406 8223088
611.05408 797.54504 2056.1138 6578520
627.61426 803.14923 2070.5615 7433828
663.1842 832.39862 2145.968 8947067
677.00378 833.76117 2149.4807 6709849
682.91534 825.5141 2128.2195 6841692
699.84119 830.63892 2141.4314 7960174
709.73572 827.3844 2133.041 7696999
730.78735 837.02264 2157.8889 7434082
745.34131 839.01532 2163.0261 7433823
759.59515 840.60834 2167.1333 7368030
769.13196 837.01526 2157.8699 6907736
777.95477 832.77515 2146.9387 8683375
793.42474 835.67273 2154.4089 8090984
805.36743 834.82214 2152.2161 5130301
805.9248 822.38037 2120.1404 5920333
827.41162 831.34943 2143.2632 6775897
841.10754 832.33777 2145.8113 8947323
861.26117 839.59192 2164.5127 3486248
864.22168 830.11853 2140.0898 8091760
864.43024 818.31403 2109.6572 5723465
890.18768 830.68713 2141.5557 3617576
900.35004 828.3642 2135.5671 5656902
908.75232 824.50891 2125.6279 6117194
914.00287 817.93842 2108.6887 3880235
928.85297 820.01984 2114.0549 5458754
955.96991 832.73145 2146.8262 6446418
965.55786 830.04047 2139.8887 8420465
967.94995 821.31354 2117.3901 4999227
990.79034 829.93835 2139.6255 5788485
1005.0889 831.28064 2143.0859 6314828
1014.9926 828.99994 2137.2061 3287578
1020.8888 823.5426 2123.1367 2958356
1028.5072 819.59052 2112.948 5590591
1046.2666 823.71729 2123.5872 5524798
1051.9531 818.35413 2109.7605 4866868
1070.5229 823.02167 2121.7937 5130039
1079.6426 820.39978 2115.0344 5524282
1086.5365 816.1662 2104.1201 4866608
1099.2931 816.38251 2104.6777 4208680
1105.0771 811.47394 2092.0232 5525568
1123.2748 815.68866 2102.8889 5525313
1135.1848 815.29517 2101.8745 5986378
1169.4487 830.79065 2141.8225 5196091
1166.7543 819.97955 2113.9512 6051401
1186.7363 825.16565 2127.321 6445903
1194.3917 821.76172 2118.5457 4341298
1214.2509 826.73779 2131.3743 5722952
1213.4266 817.67383 2108.0068 6446931
1232.7571 822.23743 2119.772 6578261
1247.3418 823.57568 2123.2219 6709848
1266.489 827.86945 2134.2915 7894124
1276.1692 825.95129 2129.3464 7696742
1290.6344 827.13702 2132.4036 5657159
1312.6707 833.10516 2147.7896 5854026
1328.9419 835.3349 2153.5378 4999230
1332.3868 829.53656 2138.5896 7236193
1336.9176 824.51715 2125.6492 4604729
1368.7446 836.2688 2155.9456 6052687
1380.6864 835.76605 2154.6494 3814186
1378.375 826.72375 2131.3379 3222303
1377.5032 818.70111 2110.6553 5261886
1377.4056 811.27899 2091.5205 4340783
1388.1982 810.34613 2089.1155 4471855
1404.027 812.34363 2094.2651 4866357
1422.1342 815.61285 2102.6934 3945512
1434.7107 815.68079 2102.8687 5130296
1418.3358 799.42963 2060.9722 5525055
1430.7065 799.51959 2061.2041 5854020
1453.7474 805.52039 2076.6746 4867382
1460.6857 802.57288 2069.0757 5196093
1471.4349 801.75098 2066.9568 3880232
1502.5647 811.95587 2093.2656 4669750
1517.4207 813.27167 2096.6577 5722438
1531.1639 813.97455 2098.4697 2433044
1543.0544 813.68903 2097.7339 5525829
1563.1794 817.71576 2108.115 5722952
1562.939 811.10968 2091.084 5130815
1575.463 811.17969 2091.2644 8815479
1580.1335 807.23645 2081.0986 4802363
1600.3883 811.25421 2091.4565 6315088
1612.6218 811.17523 2091.2532 6709846
1647.1157 822.20966 2119.7004 6446674
1654.0472 819.42249 2112.5149 5854791
1660.2565 816.32202 2104.5217 5920328
1640.2601 800.47894 2063.6775 5920584
1642.5919 795.68628 2051.3215 7104858
1692.9326 814.04913 2098.6621 4670521
1671.5867 797.92487 2057.093 6249807
1716.3783 813.3761 2096.927 4671033
1703.2151 801.33826 2065.8928 6052174
1741.5844 813.54468 2097.3616 7104605
1757.9855 815.38867 2102.1155 7828842
1769.4636 814.93951 2100.9575 7434087
1754.9309 802.60083 2069.1477 6841693
1774.8068 806.06061 2078.0671 7433574
1802.0258 812.78467 2095.4023 9144192
1815.7787 813.38458 2096.949 5722958
1815.6329 807.79279 2082.533 3684146
1819.65 804.11584 2073.0537 6842210
1837.4858 806.55408 2079.3394 6842467
1848.453 805.9649 2077.8206 6118486
1846.6282 799.84277 2062.0374 6907490
1845.6312 794.15735 2047.3801 7367784
1865.455 797.44666 2055.8601 3354667
1867.3085 793.06128 2044.5542 5130822
1854.838 782.68793 2017.8113 7170911
1868.3395 783.33685 2019.4841 4473401
1884.548 785.1051 2024.043 8025965
1884.7944 780.24329 2011.5089 6183762
1888.9335 777.04382 2003.2605 6710106
1900.6167 776.96844 2003.0662 6775899
1891.0521 768.26172 1980.6198 6381141
0 0 0 0
0 0 0 0
0 0 0 0
0 0 0 0
0 0 0 0
0 0 0 0
0 0 0 0
0 0 0 0
0 0 0 0
0 0 0 0
0 0 0 0
0 0 0 0
0 0 0 0
-1927.379 884.61224 2246.2703 4999214
-1936.9103 895.16736 2273.0725 4736042
-1928.7823 897.65179 2279.3813 4407077
-1921.3964 900.51898 2286.6619 5920574
-1903.666 898.54425 2281.6475 7367507
-1878.4054 892.96149 2267.4714 3880480
-1861.0444 891.08081 2262.6958 4077859
-1850.8805 892.64374 2266.6646 3485467
-1841.5343 894.62683 2271.7002 1907461
-1827.3069 894.25037 2270.7441 2170635
-1828.9716 901.70325 2289.6689 5789507
-1819.3062 903.63989 2294.5867 5131060
-1808.0233 904.79633 2297.5232 4274982
-1776.0121 895.51843 2273.9641 5327927
-1737.4788 882.78485 2241.6301 2828052
-1742.2863 892.04553 2265.1455 6183752
-1705.1052 879.78516 2234.0132 6183751
-1687.3555 877.43744 2228.0515 8157800
-1674.4965 877.61578 2228.5044 5920841
-1699.9308 898.02643 2280.3325 3749928
-1704.3898 907.59442 2304.6284 4539701
-1702.2385 913.76874 2320.3066 6579281
-1667.8713 902.60907 2291.9692 4407599
-1659.0216 905.18909 2298.5205 5197638
-1637.9507 901.08832 2288.1077 5065785
-1610.6685 893.47363 2268.772 4407598
-1589.2983 889.03809 2257.5088 4078376
-1590.1294 897.0517 2277.8574 5920579
-1570.1584 893.36682 2268.5007 5855298
-1566.0973 898.74866 2282.1665 5855039
-1544.83 894.26392 2270.7786 5394487
-1536.1724 897.06409 2277.8889 5920833
-1521.7727 896.53094 2276.5352 5065529
-1512.6842 899.14526 2283.1736 6512979
-1496.3961 897.48865 2278.967 5526855
-1469.2438 889.22656 2257.9873 6513494
-1444.1603 882.07629 2239.8308 5789771
-1448.24 892.77106 2266.9878 5197376
-1436.0912 893.56836 2269.0125 4276019
-1429.5516 897.90387 2280.0215 3420710
-1387.6062 879.87152 2234.2324 4736059
-1363.8899 873.16211 2217.1953 7038816
-1352.974 874.59668 2220.8381 5526089
-1354.0065 883.85901 2244.3577 6841951
-1349.8333 889.87323 2259.6294 4868674
-1332.7429 887.40704 2253.3672 6118739
-1325.6416 891.6095 2264.0383 5790030
-1306.2324 887.53516 2253.6924 8026734
-1282.7742 880.59698 2236.0745 6381909
-1261.7599 875.20929 2222.3936 5658186
-1241.7169 870.38879 2210.1531 7566183
-1233.358 873.74292 2218.6702 6053199
-1228.4718 879.65576 2233.6846 6118735
-1212.6913 877.81165 2229.002 6711129
-1201.9171 879.5907 2233.5193 6316115
-1175.3527 869.72504 2208.4675 7828840
-1149.9276 860.48981 2185.0168 6578514
-1162.0724 879.47784 2233.2327 6578258
-1156.8901 885.63879 2248.877 4144173
-1137.0925 880.62445 2236.1443 3420446
-1119.7675 877.42926 2228.0308 4933945
-1102.0027 873.8092 2218.8386 5855559
-1096.4594 879.90948 2234.3289 4342319
-1091.0485 886.26636 2250.4707 6052681
-1077.8823 886.40302 2250.8176 7106136
-1065.6034 887.2818 2253.0491 5263422
-1054.0259 888.77448 2256.8394 4276273
-1032.5863 881.88263 2239.3391 6250065
-1015.2941 878.39954 2230.4946 5526339
-1006.0242 881.85687 2239.2737 7171679
-991.65454 880.87646 2236.7842 5987151
-977.3335 879.91321 2234.3381 7368805
-961.20471 877.27368 2227.6357 8158322
-962.12463 890.33734 2260.8079 6908253
-934.09583 876.60278 2225.9321 6974302
-925.53717 881.00836 2237.1191 5197890
-881.93231 851.69733 2162.6904 5789512
-880.63837 862.98474 2191.3523 5723459
-868.86157 864.18353 2194.3962 7367769
-848.30396 856.55249 2175.019 5591616
-837.83148 859.02631 2181.3008 3815205
-828.5968 862.86682 2191.0527 5854270
-816.68811 864.00043 2193.9314 5854270
-784.05804 842.89435 2140.3374 5459514
-778.39752 850.56451 2159.814 4998967
-764.10822 848.90466 2155.5991 9407612
-747.29199 844.33331 2143.9912 6381906
-737.60638 847.79974 2152.7935 6710359
-728.83722 852.46008 2164.6272 8815735
-719.23187 856.29175 2174.3569 5855051
-714.50055 866.17188 2199.4453 6447186
-708.12653 874.39062 2220.3149 4868154
-678.58606 853.77332 2167.9619 6973273
-672.85419 862.89355 2191.1206 6512980
-651.7392 852.25659 2164.1106 6710358
-634.97858 847.00104 2150.7654 7631460
-622.5412 847.41528 2151.8171 7631460
-605.21021 841.0462 2135.6443 6052429
-584.95569 830.25562 2108.2441 4276018
-579.29407 840.15851 2133.3901 7236699
-571.56958 847.44458 2151.8916 6973783
-555.95691 843.10071 2140.8613 5394750
-548.59503 851.35852 2161.8301 6381644
-532.72131 846.48584 2149.457 7894884
-514.13751 836.96277 2125.2754 6907991
-504.43033 841.77454 2137.4937 7697252
-495.01135 847.32739 2151.594 6249807
-478.29129 840.34595 2133.8662 8684150
-463.9158 837.21667 2125.9202 7368290
-452.32056 839.07019 2130.6267 6710616
-442.85614 845.09644 2145.929 6973787
-430.9534 846.68817 2149.9709 7698024
-418.4563 847.17371 2151.2039 5395271
-405.1705 846.04291 2148.3323 9276803
-394.37402 850.20526 2158.9016 7434598
-381.21234 849.37671 2156.7976 7237474
-365.11047 841.71246 2137.3362 7828583
-355.32712 848.58734 2154.7935 5788998
-342.92163 849.47913 2157.0579 6710100
-328.03577 844.05774 2143.2915 7236700
-312.04657 835.24658 2120.9175 6512719
-301.07764 839.69733 2132.2192 5131324
-291.35825 848.17554 2153.7478 7236702
-274.52133 835.76154 2122.2251 5526085
-262.4617 837.39789 2126.3804 6118223
-254.45145 852.77051 2165.4155 7170910
-238.18364 840.63171 2134.5918 5723465
-226.51071 844.25787 2143.7996 4933692
-214.13271 845.53076 2147.0317 6973278
-201.61412 846.37421 2149.1736 6973278
-188.98126 846.81927 2150.3037 3815216
-174.50334 838.46344 2129.0859 6447189
-162.39633 841.08496 2135.7429 2696992
-151.12563 848.84711 2155.4529 6973278
-137.84793 845.72845 2147.5339 6381396
-124.74158 843.13385 2140.9456 8289394
-110.14755 828.75854 2104.4426 7566184
-98.056984 831.95392 2112.5566 4276535
-86.514694 841.41681 2136.5854 8355443
-74.02372 843.31525 2141.4062 7500136
-60.849781 836.60913 2124.3774 8091758
-48.148945 834.60626 2119.2917 3486248
-35.273144 827.08801 2100.2007 4341814
-22.85342 827.89728 2102.2556 7039327
-10.471297 833.63849 2116.8342 8552824
2.0643532 831.64288 2111.7668 6907997
14.764525 842.46082 2139.2363 7565928
27.443708 842.64075 2139.6934 7237220
40.074207 841.68445 2137.2651 7895408
52.561817 838.90692 2130.2122 6908768
65.37793 841.43268 2136.6257 5197636
77.642723 837.19446 2125.8638 9013631
89.695908 832.17609 2113.1206 7499620
102.98897 838.48126 2129.1313 7762793
115.65543 838.86572 2130.1074 8092013
129.02991 843.80469 2142.6489 7762793
141.83867 844.49066 2144.3909 4407087
155.00748 847.03143 2150.8425 5000000
167.75633 847.06561 2150.9292 6842972
181.16367 850.18524 2158.8508 3881007
195.05232 855.00323 2171.085 7697256
207.27448 852.37195 2164.4036 7433828
219.53075 850.17944 2158.8362 6446677
230.57324 843.7865 2142.6028 7697772
241.58043 837.93829 2127.7524 7237220
253.98544 837.27802 2126.0759 9013630
266.82297 838.03864 2128.0073 5395016
283.14075 849.16821 2156.2683 6579291
296.71011 851.45007 2162.0625 7236707
312.12317 858.61475 2180.2556 6907485
324.09732 856.12585 2173.9358 7368292
335.54236 852.48303 2164.6855 7960429
345.46478 845.38245 2146.6553 4144179
356.93076 842.42914 2139.156 9078909
370.27188 843.95233 2143.0237 3355687
378.67542 834.49347 2119.0051 8356209
391.69803 835.4942 2121.5464 7434853
399.92032 826.51178 2098.7375 7829355
406.33875 814.45557 2068.1235 8355699
420.7601 818.67651 2078.8416 7632235
442.40408 836.31079 2123.6199 6512727
452.39252 831.54572 2111.52 7368036
465.09665 831.89447 2112.4058 8289393
486.08133 846.64795 2149.8687 5723724
505.54816 858.07172 2178.8767 6907226
511.91864 847.25153 2151.4014 6051915
525.76434 849.02838 2155.9133 7236446
529.12317 834.18787 2118.2292 7301987
544.51538 838.56665 2129.3481 5657160
563.68652 848.43512 2154.4067 7039071
557.72858 820.8808 2084.439 6841690
577.72778 831.89716 2112.4124 8420208
588.10614 828.88654 2104.7676 6380882
598.70673 826.30768 2098.2192 9472896
610.54932 825.51306 2096.2014 8486516
618.20746 819.20508 2080.1838 5986384
627.60132 815.39886 2070.5188 8289138
636.68243 811.34003 2060.2122 9210241
661.42017 827.01013 2100.0029 7960173
671.99207 824.71637 2094.1785 8091503
685.87817 826.49945 2098.7063 8223345
701.86005 830.69952 2109.3713 7631463
720.91656 838.32806 2128.7424 7302239
730.9035 835.32898 2121.1267 5854794
748.94708 841.48322 2136.7542 7433569
768.62201 849.23553 2156.4392 8156519
778.1228 845.6767 2147.4026 8617324
791.51263 846.39124 2149.2168 4406064
796.36072 838.09363 2128.147 4668979
805.99402 835.01227 2120.3225 6971736
814.01599 830.38165 2108.5642 5854539
825.90137 829.77258 2107.0176 8947323
854.49463 845.71802 2147.5073 5986383
856.36401 835.13409 2120.6318 8157808
863.72815 830.13727 2107.9436 4210485
876.40631 830.3175 2108.4014 7302244
893.90308 834.99365 2120.2754 6052434
897.77454 826.98932 2099.9502 6447193
909.37311 826.22437 2098.0076 6644312
918.16132 822.96094 2089.7209 5394500
935.51678 827.36127 2100.8945 6512725
943.85596 823.77673 2091.7925 3946540
958.36053 825.59637 2096.4131 6117964
969.49945 824.50726 2093.6475 6315085
982.76331 825.22992 2095.4824 5591359
984.87848 816.6897 2073.7966 5459258
1009.891 827.11316 2100.2646 5853761
999.14325 808.35126 2052.623 7827808
1014.5175 810.92041 2059.1467 5525309
1041.9773 822.97369 2089.7534 5064500
1046.9136 817.16345 2074.9995 5525051
1056.1331 814.79236 2068.9788 4932913
1082.9861 825.92389 2097.2446 5327415
1085.7715 818.65607 2078.7898 2695957
1094.1312 815.70709 2071.3015 5458743
1101.0272 811.74445 2061.2393 4538153
1129.7936 823.81598 2091.8921 5393208
1143.6207 824.85046 2094.519 4801586
1156.1215 824.91638 2094.6863 5393468
1172.1938 827.5022 2101.2524 7696225
1182.9291 826.30554 2098.2139 4800820
1191.3494 823.53363 2091.1753 4801334
1210.604 828.23108 2103.1033 6446674
1225.6422 829.97736 2107.5376 6973019
1236.9551 829.19128 2105.5415 6841433
1238.6792 822.05737 2087.4265 7170398
1262.3218 829.46686 2106.2412 8552051
1265.2213 823.23456 2090.4158 7103836
1284.7728 827.85303 2102.1433 7103835
1298.8665 828.8996 2104.8008 3879465
1319.5372 834.08374 2117.9648 5525058
1332.6636 834.44635 2118.8855 4208942
1342.5259 832.77747 2114.6477 3024923
1354.4664 832.41656 2113.7314 2958874
1366.6569 832.21454 2113.2185 3419683
1363.0228 822.46753 2088.468 4011817
1363.8209 815.54608 2070.8928 5196090
1360.8285 806.50165 2047.9265 3551005
1371.2544 805.49927 2045.381 3682849
1381.3932 804.34729 2042.4558 2892821
1422.9236 821.33502 2085.5923 3814437
1425.3875 815.6745 2071.2188 1447183
1427.7937 810.07794 2057.0076 6117961
1440.3151 810.26654 2057.4863 6512719
1443.1442 805.04517 2044.228 4867127
1469.1873 812.75275 2063.7996 4077868
1480.7842 812.40741 2062.9226 4340784
1495.8947 813.97955 2066.9148 2630166
1505.8422 812.7395 2063.7661 3288096
1516.3615 811.82568 2061.4456 5064508
1535.1483 815.31726 2070.3118 3748135
1543.2555 813.12665 2064.749 4801851
1563.5861 817.36011 2075.499 5591366
1582.6777 820.88507 2084.4497 7039070
1581.0474 813.69055 2066.1809 8223089
1577.8867 805.82532 2046.2089 7960172
1596.7643 809.24884 2054.9023 4736059
1634.1482 821.92889 2087.1003 6380883
1621.6931 809.53906 2055.6392 6249296
1633.4357 809.32324 2055.0913 8683893
1628.527 800.92151 2033.757 7104861
1651.7076 806.35626 2047.5571 6512724
1670.7347 809.69873 2056.0447 7236192
1678.3461 807.50037 2050.4624 8157037
1676.0234 800.58838 2032.911 6644054
1703.2617 807.79474 2051.21 6841178
1713.5541 806.91913 2048.9866 7236450
1718.8224 803.70667 2040.8291 6513240
1735.0028 805.60571 2045.6515 5790030
1745.2428 804.7395 2043.4517 8092786
1768.1835 809.70093 2056.0503 7565160
1796.1407 816.87622 2074.2703 5131078
1795.8333 811.18652 2059.8225 6052180
1800.1486 807.64771 2050.8367 5394250
1813.5156 808.19037 2052.2144 6578782
1824.6329 807.72968 2051.0447 4210234
1828.0154 803.87384 2041.2535 4276283
1829.6882 799.32172 2029.6945 5855057
1824.7111 791.94287 2010.9576 5789007
1868.0454 805.49133 2045.361 4867648
1855.9608 795.12299 2019.0328 5393732
1859.434 791.50977 2009.858 4538680
1877.5483 794.13538 2016.525 5327938
1886.6611 792.94452 2013.5011 4933436
1884.7565 787.16711 1998.8307 5591623
1889.3542 784.16064 1991.1965 6183503
1887.1794 778.39807 1976.5637 6249298
0 0 0 0
0 0 0 0
0 0 0 0
0 0 0 0
0 0 0 0
0 0 0 0
0 0 0 0
0 0 0 0
0 0 0 0
0 0 0 0
0 0 0 0
0 0 0 0
0 0 0 0
-1914.5288 891.93298 2231.2939 5327923
-1893.1415 888.10095 2221.7075 5459509
-1899.4888 897.31708 2244.7629 3551515
-1890.6909 899.45813 2250.1191 3814686
-1875.9274 898.77142 2248.4011 4867118
-1842.4523 889.04596 2224.0715 4144681
-1835.1899 891.92004 2231.2615 6579279
-1817.7478 889.85236 2226.0889 3486751
-1804.1473 889.64893 2225.5801 3420959
-1801.3252 894.79663 2238.4575 3618080
-1797.8419 899.68964 2250.6982 4341802
-1802.8816 908.95282 2273.8713 4407594
-1753.949 890.93964 2228.8088 5723197
-1742.2509 891.71039 2230.7371 5394489
-1726.5996 890.45404 2227.5942 5657663
-1708.9125 888.12048 2221.7563 5131063
-1688.0333 884.07874 2211.6455 6183752
-1645.5808 868.58691 2172.8904 8421483
-1624.7357 864.34564 2162.2803 6118474
-1622.0312 869.76447 2175.8362 2894365
-1642.5017 887.79633 2220.9453 4078637
-1679.0109 914.85852 2288.6453 3222815
-1624.171 892.18207 2231.917 4143917
-1607.9911 890.54407 2227.8193 4341551
-1577.6821 880.98926 2203.9167 3946792
-1545.7434 870.3573 2177.3193 4407343
-1571.6023 892.36414 2232.3726 5130295
-1544.692 884.52771 2212.7686 4933172
-1541.2332 890.10095 2226.7107 5591101
-1527.7339 889.92163 2226.2622 5854272
-1519.6365 892.91327 2233.7461 6973267
-1514.7227 897.84454 2246.0825 5262908
-1496.824 895.09827 2239.2124 5855046
-1477.6136 891.51166 2230.2397 4341807
-1456.0817 886.44678 2217.5693 3880744
-1434.2683 881.11682 2204.2358 5723204
-1429.7646 886.42059 2217.5039 4867896
-1420.7555 889.00348 2223.9653 4802618
-1407.1339 888.7215 2223.26 4868155
-1401.4751 893.51105 2235.2417 3683881
-1396.9471 899.11975 2249.2725 6776152
-1347.6719 875.7583 2190.8306 6907742
-1348.2419 884.6485 2213.0708 5461067
-1344.0931 890.58655 2227.9255 7237220
-1311.7201 877.75586 2195.8279 6250325
-1276.6061 862.81549 2158.4524 4276535
-1285.9052 877.89386 2196.1731 6908253
-1274.7832 879.19647 2199.4316 5987407
-1252.9594 873.06879 2184.1025 4671803
-1229.6362 865.75775 2165.8127 5592647
-1223.4299 870.47101 2177.6038 6382162
-1220.2327 877.44855 2195.0591 4868925
-1206.4602 876.89008 2193.6619 8224368
-1185.713 871.1947 2179.4141 8421744
-1172.7596 871.16339 2179.3359 6974298
-1152.2917 865.48737 2165.1365 5527109
-1148.4532 872.31445 2182.2153 4605750
-1143.0692 878.10974 2196.7131 5658181
-1147.3229 891.52747 2230.2793 3092252
-1122.2023 882.1665 2206.8618 4473647
-1113.9371 885.99133 2216.4302 4868404
-1098.2462 883.93066 2211.2749 6907987
-1090.9552 888.66266 2223.1125 6776402
-1077.2943 888.25806 2222.1003 5657921
-1069.8279 893.01416 2233.9985 3881510
-1056.8097 893.19714 2234.4563 6513232
-1041.8265 891.70294 2230.7185 4012591
-1022.385 886.30542 2217.2158 5658437
-987.33508 867.0603 2169.0715 6645334
-1003.3134 892.71082 2233.2397 7171680
-990.98474 893.52362 2235.2732 4934720
-970.74554 887.12946 2219.2771 8158577
-958.39673 887.86932 2221.1282 8158320
-942.7489 885.53101 2215.2786 4802620
0 0 0 0
-891.7002 861.56812 2155.3318 5723973
-887.08502 869.56042 2175.3259 7171932
-863.74432 859.16241 2149.3137 6381646
-854.78412 862.97131 2158.8423 7302748
-845.7218 866.79132 2168.3984 4802100
-828.56866 862.3089 2157.1851 4802097
-812.82654 859.17737 2149.3513 7434073
-797.85516 856.77411 2143.3391 4933684
-787.33325 859.14825 2149.2783 5722690
-763.22125 846.52704 2117.7046 6709844
-749.01477 844.65424 2113.0195 5197121
-737.74438 846.08502 2116.5989 7303010
-734.17151 856.5459 2142.7683 7894892
-712.17188 845.49854 2115.1316 7960684
-707.51453 855.01294 2138.9333 6381651
-687.78967 846.33374 2117.2212 6052429
-683.88904 857.16577 2144.3188 7828583
-665.39362 849.76886 2125.8145 5460035
-661.77979 861.45837 2155.0574 4341553
-620.63458 823.79095 2060.8271 4802359
-619.39972 838.64941 2097.9976 7960427
-609.71161 842.43646 2107.4714 6776152
-598.16272 843.7572 2110.7754 7434080
-586.33191 844.72803 2113.2041 6907735
-571.40674 841.18591 2104.343 7829348
-554.50928 834.5177 2087.6616 6842453
-546.09412 840.60187 2102.8821 6052681
-540.90308 852.04907 2131.5188 5657923
-528.67627 852.69543 2133.1357 7368285
-511.68671 845.50372 2115.1445 6710098
-501.754 849.90411 2126.1528 6381132
-485.24188 843.09961 2109.1304 6644307
-477.66602 851.87238 2131.0767 4868153
-459.53595 841.78796 2105.8491 7434339
-446.99814 841.67072 2105.5559 7368801
-437.39243 847.2262 2119.4536 5920843
-426.59818 850.73981 2128.2434 6710615
-412.66299 848.01288 2121.4216 6841946
-401.04846 850.03333 2126.4761 7237218
-388.13382 849.33972 2124.741 6447702
-375.40009 849.00903 2123.9136 7960940
-359.12906 840.37781 2102.3213 6447187
-352.27249 853.94806 2136.2693 6447186
-336.59894 846.35999 2117.2866 6380882
-322.82919 843.15668 2109.2732 6644567
-307.96677 836.72668 2093.1877 5657671
-296.38339 839.04004 2098.9749 6973531
-286.91907 847.8175 2120.9329 7302497
-273.80795 846.12958 2116.7102 5065535
-258.61844 837.54852 2095.2437 4605241
-250.55997 852.36084 2132.2986 7170911
-234.43193 839.83728 2100.9692 5065278
-224.31935 848.6676 2123.0596 6381139
-212.11771 850.17407 2126.8281 4012337
-199.76996 851.24811 2129.5149 7236449
-185.741 844.82019 2113.4348 6578520
-172.81313 842.83325 2108.4641 4407607
-161.32518 848.10651 2121.6558 6776669
-149.71877 853.59546 2135.3872 3092007
-135.59854 844.44281 2112.4907 8092273
-123.28131 845.79883 2115.8828 7433829
-110.93478 847.23804 2119.4832 7237221
-98.465683 847.98895 2121.3618 4605500
-85.433105 843.39691 2109.8743 8750972
-72.716606 840.88617 2103.5933 6710878
-60.045151 837.96533 2096.2864 7171429
-47.506504 835.85797 2091.0144 5132101
-35.033894 833.83569 2085.9553 6447705
-22.647438 832.77728 2083.3076 5329480
-10.38854 839.49146 2100.1042 7697770
2.060817 842.7074 2108.1492 7500391
14.596544 845.40497 2114.8975 7434598
27.133705 845.65515 2115.5234 6842462
39.726887 846.94165 2118.7417 6513754
52.361542 848.2821 2122.0952 7631980
64.753586 845.93427 2116.2217 6316120
77.092422 843.76569 2110.7966 6381141
89.499123 842.84143 2108.4846 6907484
101.74249 840.79388 2103.3623 6446417
115.1133 847.49371 2120.1228 6841429
128.09587 850.2981 2127.1384 7828330
141.01562 852.22052 2131.9475 6578521
153.25208 850.03687 2126.4849 6841695
166.786 854.83496 2138.488 7170403
180.2998 858.8598 2148.5566 5131076
193.40715 860.54517 2152.7729 6117971
205.33051 857.07996 2144.1042 6841436
217.0807 853.33789 2134.7429 8487287
226.89633 842.82159 2108.4351 7499621
240.92175 848.22449 2121.9512 5328450
254.21692 850.64801 2128.0137 6973533
265.48578 846.38239 2117.3428 8223602
280.79272 854.79456 2138.387 8158066
290.99011 847.59729 2120.3821 7566187
305.00131 851.6449 2130.5078 6381913
319.71753 857.26117 2144.5576 7697773
330.86575 853.24695 2134.5154 5855567
342.94965 851.85236 2131.0266 7303522
354.08936 848.29486 2122.127 7829864
368.69208 852.99316 2133.8804 9408640
377.04471 843.39935 2109.8801 6711385
388.07245 840.21295 2101.9089 8684919
390.77612 819.76276 2050.75 8026988
402.49893 818.89532 2048.5801 8619126
418.03149 825.60303 2065.3604 7500645
436.67688 837.9021 2096.1282 7960427
453.6297 846.36322 2117.2947 6907738
462.31897 839.36597 2099.79 8025962
477.16699 843.6239 2110.4419 6381137
491.42877 846.65442 2118.0232 6051916
502.97055 844.9646 2113.7959 5854536
514.70819 843.67792 2110.5771 8223085
526.37268 842.33527 2107.2183 4604729
545.40619 852.57391 2132.8318 7302241
552.76837 844.51752 2112.6775 9276542
562.78809 840.78821 2103.3481 7105117
573.9549 838.89709 2098.6172 8354928
590.11493 844.22955 2111.957 7499362
598.07452 837.85229 2096.0037 6249548
607.30566 833.47974 2085.0649 7368547
616.08466 828.67328 2073.041 5591879
626.90417 826.74567 2068.2188 6644826
637.36749 824.43127 2062.429 8618616
645.94183 819.80646 2050.8594 5854797
658.94342 820.86755 2053.5139 9604998
677.03308 828.11383 2071.6414 7959916
688.64246 827.31671 2069.6472 7828585
699.13257 825.22638 2064.418 6052686
719.17633 834.29071 2087.0938 6315857
734.91858 838.14294 2096.7307 6578515
745.31525 835.87213 2091.0498 7170907
762.90021 841.60541 2105.3923 5197372
778.02484 844.4837 2112.593 4998718
794.06989 848.25415 2122.0251 5920589
798.73712 839.94226 2101.2319 5393990
806.60376 835.19836 2089.3643 8684411
817.79712 833.99036 2086.3423 8421242
831.37195 835.21082 2089.3955 6908003
856.62054 847.95105 2121.2671 9144965
859.38177 838.38501 2097.3362 7434347
866.55664 833.33612 2084.7056 7697516
886.64691 840.6748 2103.0645 7105122
884.48688 827.0058 2068.8694 6907999
898.50702 828.63239 2072.9385 6249810
913.9585 831.51727 2080.1555 7104861
923.21393 828.76312 2073.2659 3485473
929.42749 823.38672 2059.8159 3419680
940.28143 822.20728 2056.8652 5131067
952.21118 821.98657 2056.3132 4077608
963.44971 821.18225 2054.3013 5063731
970.91125 817.21918 2044.3868 7170653
983.29755 817.44763 2044.9584 6315087
1000.5721 821.68488 2055.5586 6841173
1011.2814 820.49359 2052.5784 6709587
1006.2989 806.75049 2018.198 5722690
1034.1877 819.3736 2049.7766 8551788
1045.3734 818.62372 2047.9006 3815204
1064.1271 823.74951 2060.7234 7236441
1086.1672 831.27411 2079.5474 8947062
1077.0045 815.0174 2038.8789 4670257
1111.1165 831.50586 2080.1272 4472623
1113.3665 824.05042 2061.4763 5788740
1122.511 821.80414 2055.8569 5788484
1136.3339 822.99451 2058.8347 3485986
1165.5957 835.22247 2089.4248 5196091
1155.7817 819.48755 2050.0615 6314573
1172.743 822.86688 2058.5154 4011816
1201.0535 834.05804 2086.5117 5787969
1196.4994 822.43115 2057.4255 1906966
1200.9218 817.14679 2044.2058 8815735
1217.0365 819.8443 2050.9541 6973275
1241.7067 828.19482 2071.844 6578258
1259.5579 831.8783 2081.0586 8025191
1267.5309 829.02936 2073.9319 4736057
1273.0687 824.65784 2062.9958 5261886
1286.7537 825.59674 2065.3445 4472369
1311.0385 833.25482 2084.5024 4867127
1313.1827 826.82947 2068.4285 4998713
1326.1796 827.29303 2069.5881 3748390
1337.0632 826.44189 2067.4587 3025435
1346.1954 824.53345 2062.6846 5722433
1332.1255 808.57599 2022.7649 5919555
1352.9454 813.89185 2036.0632 4669486
1358.4368 809.974 2026.2621 3551005
1374.1007 812.13721 2031.6736 3485215
1392.0903 815.62537 2040.3997 1446667
1404.4135 815.76196 2040.7416 7301725
1424.6707 820.46564 2052.5083 7696740
1431.0122 817.14331 2044.1973 7696739
1435.7411 812.96381 2033.7416 4932666
1450.0146 814.21326 2036.8673 4538420
1457.5244 811.67548 2030.5187 3946026
1486.5197 821.04626 2053.9609 4340784
1492.7205 817.77716 2045.7827 4143661
1495.772 812.84918 2033.4548 3682854
1512.0012 815.104 2039.0955 4143405
1521.6586 813.80835 2035.8542 3880748
1528.9276 811.26569 2029.4935 6249296
1570.0654 826.59369 2067.8386 5920590
1569.4733 819.88489 2051.0554 7565416
1581.3535 819.74463 2050.7046 7105120
1583.5885 814.64453 2037.9462 5920333
1596.6611 815.15472 2039.2225 3946801
1604.9702 813.24365 2034.4415 6907739
1613.2401 811.34131 2029.6826 4999742
1621.9071 809.66528 2025.4899 7301984
1649.0536 817.1712 2044.267 7170400
1649.4586 811.41284 2029.8617 5262660
1667.3098 814.25806 2036.9792 6183505
1670.7444 810.0722 2026.5079 5854540
1674.1925 805.95276 2016.2025 7433317
1666.5118 796.5722 1992.7357 6183763
1688.6207 801.46246 2004.9694 6446934
1707.5895 804.80457 2013.3301 6117971
1725.9441 807.81268 2020.8553 8223347
1755.1602 815.82806 2040.9069 8289399
1758.3912 811.73804 2030.6752 6776417
1771.1758 812.08386 2031.5403 6381145
1799.9001 819.6842 2050.5535 6775903
1808.6971 818.16852 2046.7617 5064774
1811.952 814.18243 2036.7902 5591374
1807.6281 806.86639 2018.488 5196360
1816.4951 805.49573 2015.0592 4933443
1850.7498 815.32727 2039.6541 4736063
1833.1343 802.32861 2007.1361 4341562
1842.6705 801.30481 2004.575 6841181
1846.2526 797.72131 1995.6104 2892829
1861.9128 799.36902 1999.7322 3945771
1871.1292 798.2467 1996.9247 4011563
1856.8101 787.16119 1969.1927 4208943
1859.0424 783.18695 1959.2506 5919561
1866.6228 781.50116 1955.0333 5853768
0 0 0 0
0 0 0 0
0 0 0 0
0 0 0 0
0 0 0 0
0 0 0 0
0 0 0 0
0 0 0 0
0 0 0 0
0 0 0 0
0 0 0 0
0 0 0 0
0 0 0 0
-1900.7292 898.62756 2215.2112 3748635
-1877.8486 893.98242 2203.7605 3880221
-1857.1276 890.30762 2194.7017 1775108
-1855.5713 895.83337 2208.3232 5065010
-1843.7517 896.44745 2209.8369 4473388
-1811.1844 886.91046 2186.3274 5855045
-1813.5188 894.44995 2204.9131 4736307
-1805.2056 896.80939 2210.7292 4078377
-1827.6448 914.59235 2254.5662 2170382
-1794.0123 904.37115 2229.3699 2236175
-1774.3108 901.07306 2221.2397 2104586
-1746.3085 893.47876 2202.5188 4472620
-1723.9863 888.69806 2190.7341 5788478
0 0 0 0
-1694.3453 886.76996 2185.981 4801583
-1661.9011 876.48883 2160.637 4670257
-1676.9797 891.30621 2197.1633 6183751
-1637.069 876.90027 2161.6511 5789249
-1618.6514 873.87079 2154.1831 6052423
-1614.3318 878.46472 2165.5078 4670516
-1636.6101 897.72186 2212.9788 3223074
-1627.0439 899.68158 2217.8096 3946539
-1606.1803 895.37543 2207.1943 4407345
-1581.8347 889.0415 2191.5806 3815207
-1551.0071 878.92938 2166.6533 5460031
-1535.2015 877.23248 2162.4702 3026205
-1528.9266 880.99866 2171.7542 6514000
-1517.5841 881.88391 2173.9365 3090968
-1506.9933 883.22491 2177.2422 6841168
-1489.3215 880.40326 2170.2864 4341294
-1482.427 883.9588 2179.0513 3354656
-1473.4084 886.29913 2184.8203 2565397
-1446.3378 877.72589 2163.6863 3815208
-1436.231 879.38593 2167.7786 5460289
-1437.6677 888.20776 2189.5254 5723204
-1415.6788 882.58588 2175.6667 3355171
-1401.3615 881.68732 2173.4517 2039057
-1391.865 883.83325 2178.7417 4999741
-1381.0055 885.14575 2181.9773 4605497
-1389.7822 899.18787 2216.5925 5327940
-1371.3137 895.7019 2207.9993 6117712
-1333.1993 879.19324 2167.3035 4999487
-1322.8936 880.88043 2171.4626 3223076
-1317.4512 885.87091 2183.7649 5920334
-1298.1025 881.51691 2173.0317 6973278
-1272.9696 873.10846 2152.304 5657674
-1255.8278 870.06622 2144.8044 8289392
-1250.045 874.91205 2156.75 5723208
-1243.1942 879.10266 2167.0803 4078639
-1226.6639 876.46472 2160.5776 6315600
-1214.3071 876.78455 2161.366 3750192
-1198.6475 874.70099 2156.2297 7171680
-1182.0579 871.88654 2149.2917 8684920
-1166.0709 869.46027 2143.3108 6580054
-1130.6493 852.32983 2101.0825 6185038
-1122.4716 855.58423 2109.105 5856071
-1136.563 876.07727 2159.6223 6053194
-1127.3744 878.888 2166.5513 3091744
-1113.4457 878.0257 2164.4255 2039055
-1107.5316 883.53687 2178.0112 5262650
-1110.995 896.74725 2210.5762 5591615
-1093.4156 893.08527 2201.5488 4802099
-1077.8607 891.00824 2196.429 4802099
-1061.1958 887.95184 2188.8945 3223070
-1056.8423 895.24878 2206.8823 5788996
-1049.8973 900.5058 2219.8413 5526594
-1023.7902 889.25201 2192.0996 7302750
-1002.4471 881.90039 2173.9771 6053199
-979.49719 872.92529 2151.8525 7303011
-988.72107 892.76489 2200.759 5987663
-967.25629 885.05414 2181.7512 6513752
-954.69287 885.38953 2182.5781 5723978
-936.45856 880.40289 2170.2854 9606022
-918.328 875.37628 2157.8943 7237474
-896.44177 866.57703 2136.2034 7105888
-876.37457 859.30957 2118.2883 7435366
-863.96649 859.44989 2118.6343 6513750
-861.53284 869.66296 2143.8105 6710359
-837.40222 857.95239 2114.9426 5197117
-830.74963 864.06488 2130.0105 5328187
-821.84039 867.98254 2139.668 6973268
-803.45367 861.85651 2124.5669 6249545
-786.05945 856.61719 2111.6514 3354911
-774.29956 857.44781 2113.6987 6183754
-754.58453 849.35132 2093.7402 7369055
-745.92987 853.64197 2104.3169 6118735
-734.31055 854.62787 2106.7473 6381395
-720.28967 852.80438 2102.2524 6841947
-706.57947 851.2912 2098.5222 7105115
-682.07697 836.48834 2062.0315 5197118
-681.93323 851.56348 2099.1934 6710872
-668.74866 850.61145 2096.8464 6776665
-654.72656 848.53796 2091.7351 2631195
-644.52112 851.42627 2098.8552 6315344
-633.328 853.0979 2102.9758 4802363
-608.29681 835.82263 2060.3904 8618356
-600.94165 842.62463 2077.1582 6841944
-590.16229 844.80939 2082.5437 7302494
-571.26245 835.21484 2058.8921 6644563
-558.5647 834.46729 2057.0493 7697506
-549.21161 838.79443 2067.7163 6117703
-536.54547 838.14386 2066.1125 7236440
-529.71375 846.78955 2087.425 6446925
-518.08435 847.99579 2090.3987 6841685
-488.85785 819.75317 2020.7775 7236700
-489.61179 841.62781 2074.7009 6776405
-477.53189 842 2075.6184 6512978
-470.97519 852.38806 2101.2261 4473396
-455.11929 846.0531 2085.6096 7368803
-446.94144 854.03619 2105.2888 7434852
-434.27417 853.65265 2104.3435 7303011
-416.88632 843.69324 2079.7922 6579544
-404.47864 843.5127 2079.3474 8750202
-396.18088 852.16107 2100.6665 5197636
-385.28528 855.60144 2109.1475 6776667
-372.0354 853.86908 2104.877 6578517
-359.26205 853.14819 2103.0999 6249808
-340.90219 838.63245 2067.3169 5131325
-328.10504 837.22925 2063.8579 4999739
-320.23416 848.77448 2092.3181 7171166
-308.10144 849.4986 2094.1033 4802362
-292.61575 840.65088 2072.2925 6052174
-281.88507 845.28705 2083.7212 7697000
-272.48123 854.50885 2106.4539 6118479
-257.0321 844.74762 2082.3916 6447957
-245.1544 846.33179 2086.2966 6184272
-233.49518 848.8783 2092.5742 6316370
-222.02609 852.44043 2101.3552 7105630
-210.94334 857.99725 2115.0532 6710106
-198.35495 857.74481 2114.4312 6381141
-184.60014 852.07471 2100.4536 3815728
-173.10614 856.77448 2112.0391 6381654
-161.41379 861.1485 2122.8213 6381398
-149.49979 864.97894 2132.2639 6315605
-135.20003 854.43921 2106.2822 7368549
-121.96185 849.14709 2093.2368 7368807
-109.47427 848.47455 2091.5789 7566185
-97.346825 850.77795 2097.2568 6710877
-83.90387 840.57599 2072.1079 8158322
-71.462067 838.62598 2067.301 7303012
-59.422298 841.56311 2074.5413 7434341
-47.021721 839.5896 2069.6765 6974046
-34.592716 835.53729 2059.6873 6974047
-22.631468 844.52338 2081.8386 7763565
-10.339368 847.90051 2090.1638 8618873
2.0509584 851.10547 2098.0642 7829356
14.511886 852.95807 2102.6311 6316115
26.886215 850.36035 2096.2275 6776665
39.071404 845.31213 2083.783 4539189
51.307468 843.52429 2079.376 6907741
63.225548 838.2132 2066.2834 5789005
75.551651 839.15704 2068.6101 8552310
88.218895 843.09753 2078.324 7302496
101.71163 852.99591 2102.7244 6841946
114.1501 852.85736 2102.3828 5789261
126.81938 854.30084 2105.9412 7302757
140.09682 859.21564 2118.0566 6513498
151.95822 855.35175 2108.5317 7171429
165.19989 859.25397 2118.1511 4868673
177.84427 859.71796 2119.2949 7303014
188.76367 852.33185 2101.0874 6053202
201.0002 851.43884 2098.8862 9145217
212.44632 847.49695 2089.1689 6250324
229.02567 863.33923 2128.2219 6052946
238.11078 850.75201 2097.1931 7894893
251.63548 854.48889 2106.4048 8223344
264.16711 854.65979 2106.8262 6775898
275.36978 850.70953 2097.0884 7697257
289.10999 854.60132 2106.6819 6908252
302.76981 857.9433 2114.9202 6644312
314.08157 854.63043 2106.7537 6052947
326.37912 854.15057 2105.5708 8289908
339.08685 854.74005 2107.0239 8158063
352.2114 856.30096 2110.8718 6711129
365.71201 858.63794 2116.6326 5328704
372.9274 846.55231 2086.8403 8092782
379.94449 834.80652 2057.8857 6974046
390.83133 832.02942 2051.0398 9211008
402.18234 830.37799 2046.9689 8882045
409.79788 821.33661 2024.6808 8684666
426.45682 830.41907 2047.0701 6446933
441.79108 836.49115 2062.0383 7039325
462.33069 851.82703 2099.843 6578261
469.6293 842.6026 2077.1038 6578517
487.69745 852.67822 2101.9414 6709846
498.90454 850.55524 2096.708 6578260
504.76541 839.64233 2069.8064 6973018
523.57275 850.27179 2096.0093 6775640
538.58368 854.38635 2106.1521 9078652
550.97955 854.26007 2105.8408 6776410
561.97968 852.02332 2100.3269 8815226
573.20947 850.22412 2095.8916 7170401
587.08374 852.34045 2101.1086 5394247
597.72467 849.77222 2094.7776 2959650
607.77747 846.48926 2086.6848 8289392
613.53613 837.47577 2064.4656 7565668
623.21863 834.0658 2056.0598 6841688
636.3255 835.28174 2059.0571 8091498
641.54968 826.29926 2036.9144 5130814
653.20972 825.78455 2035.6456 7433826
668.06622 829.25623 2044.2037 8552309
682.37512 831.93677 2050.8115 6907738
696.92261 834.8092 2057.8923 7039071
693.42493 816.33905 2012.3615 7960173
700.92749 811.22455 1999.7537 7697000
745.70184 848.70001 2092.1345 9078653
751.02118 840.77942 2072.6096 5986640
760.05072 837.20062 2063.7874 7961201
765.79724 830.17609 2046.4711 5921362
782.15808 834.69775 2057.6174 6974050
788.43408 828.48352 2042.2988 9013892
792.54297 820.21442 2021.9146 8816513
807.66516 823.41962 2029.8157 8552829
826.99414 830.75677 2047.9025 7236969
841.67175 833.27679 2054.1147 6513245
857.06421 836.42255 2061.8694 7499626
873.99408 840.95917 2073.0527 4867647
881.81879 836.73059 2062.6287 6973022
889.22815 832.22876 2051.5312 8091502
906.30786 836.77679 2062.7427 8157294
913.40527 832.11005 2051.2385 3551270
925.78668 832.31628 2051.7471 4077866
933.53558 828.40637 2042.1086 4736310
939.27014 822.83179 2028.3668 6315088
954.63049 825.72412 2035.4966 4012587
969.99976 828.55194 2042.4674 7038812
981.40741 827.96783 2041.0275 5064768
991.92285 826.6543 2037.7897 6906963
1010.436 831.95752 2050.8625 6709582
1010.5853 822.19409 2026.7947 5525054
1019.7295 819.89209 2021.1201 6248777
1033.2733 821.13995 2024.1963 7367258
1056.8114 830.21063 2046.5563 7169879
1073.0068 833.37256 2054.3508 6117191
1081.3989 830.47089 2047.198 6248777
1092.795 829.91498 2045.8275 5985606
1103.9252 829.17163 2043.9951 5722435
1124.4097 835.3941 2059.3342 3814438
1130.9036 831.20026 2048.9958 3748646
1133.0659 823.94562 2031.1125 4538159
1153.0044 829.63422 2045.1353 6446156
1157.1545 823.96204 2031.153 4077612
1176.1508 828.86926 2043.2496 4078382
1186.5742 827.69659 2040.3589 5920328
1197.2793 826.74194 2038.0056 4801849
1208.8601 826.40503 2037.1752 7696485
1219.6504 825.53973 2035.0421 6512980
1232.6198 826.15186 2036.5511 7565413
1265.4589 839.94061 2070.5417 5591623
1269.4001 834.4679 2057.051 5262657
1270.871 827.49072 2039.8516 6841433
1257.8612 811.30518 1999.9525 5920585
1291.4703 825.20984 2034.2288 3880234
1301.2467 823.76965 2030.6787 2629651
1320.8293 828.50702 2042.3568 3419166
1317.0093 818.612 2017.9645 4735026
1326.505 817.09723 2014.2303 3024662
1346.9868 822.31628 2027.0959 2958613
1345.4508 814.12042 2006.8922 3484955
1370.9663 822.29327 2027.0391 3550235
1381.1351 821.19928 2024.3425 4208935
1399.3755 824.88202 2033.4209 6182727
1400.7197 818.62738 2018.0023 4274986
1428.2911 827.67688 2040.3103 7893603
1421.3113 816.7204 2013.3015 5656132
1427.0684 813.20435 2004.6342 6182473
1448.0959 818.37634 2017.3835 5590849
1463.3826 820.24579 2021.9919 5524798
1469.4403 816.95386 2013.8771 6116932
1500.4263 827.46259 2039.7822 3222044
1484.1591 811.95221 2001.5474 4208941
1495.8654 811.87012 2001.345 5196605
1509.162 812.64563 2003.2567 3880747
1543.0485 824.40961 2032.2562 5591367
1546.7559 819.99243 2021.3674 4867643
1556.942 819.05139 2019.0476 5262660
1570.5598 819.91614 2021.1793 4802364
1570.949 813.914 2006.3834 6249555
1589.5138 817.34827 2014.8492 6578520
1609.675 821.54608 2025.1973 6775642
1623.0488 822.24316 2026.9156 6775642
1644.564 827.02423 2038.7014 6973019
1634.891 816.16577 2011.9343 6249297
1650.3269 817.90875 2016.2308 7236193
1666.2605 819.87146 2021.0692 8091503
1680.736 821.09387 2024.0826 6446934
1662.8976 806.62451 1988.4139 6052178
1669.3765 804.07117 1982.1199 7039073
1668.6469 798.10583 1967.4147 7762796
1701.7214 808.27942 1992.4937 6644316
1699.2241 801.53357 1975.8643 7433833
1717.8394 804.77057 1983.8439 7104868
1720.2131 800.40668 1973.0863 6316122
1766.7078 816.49213 2012.7389 6908514
1783.4352 818.69727 2018.1747 8158070
1750.9601 798.43658 1968.23 5723472
1791.9172 811.70758 2000.9445 6183766
1805.9517 812.6889 2003.3633 6513245
1812.071 810.11859 1997.0273 5723472
1819.2158 808.03723 1991.8966 6710881
1832.8197 808.83313 1993.8585 6579293
1835.0002 804.6098 1983.4476 985865
1845.4531 804.04462 1982.0542 3683625
1842.2217 797.56201 1966.074 3879978
1845.881 794.12531 1957.6022 4933436
1825.0612 780.26611 1923.4379 6512212
1822.5895 774.37457 1908.9146 6051916
0 0 0 0
0 0 0 0
0 0 0 0
0 0 0 0
0 0 0 0
0 0 0 0
0 0 0 0
0 0 0 0
0 0 0 0
0 0 0 0
0 0 0 0
0 0 0 0
0 0 0 0
-1857.5221 891.02509 2164.8552 4144680
-1855.0992 896.04956 2177.0627 2038282
-1818.9202 884.7254 2149.5493 1643529
-1814.7531 888.92194 2159.7451 1643273
-1810.5781 893.17419 2170.0767 3419174
-1802.6295 895.61243 2176.0005 1314313
-1789.7638 895.625 2176.0312 3156772
-1786.8855 900.67206 2188.2937 1248777
-1763.5975 895.4303 2175.5581 393728
-1743.8256 891.90955 2167.0042 196608
-1709.5363 880.85645 2140.1492 393728
-1667.676 865.70801 2103.3442 1512203
-1653.0841 864.59332 2100.636 4011823
-1669.3612 879.72937 2137.4109 2762011
-1663.6475 883.41925 2146.3757 4999224
-1654.2321 885.18512 2150.6663 4603696
