# .PCD v0.7 - Point Cloud Data file format
VERSION 0.7
FIELDS x y z rgb
SIZE 4 4 4 4
TYPE F F F U
COUNT 1 1 1 1
WIDTH 1289
HEIGHT 1
VIEWPOINT 0 0 0 1 0 0 0
POINTS 1289
DATA ascii
698.50208 825.60352 2304.4272 5328453
709.32892 822.32843 2295.2856 7894635
722.87457 822.2691 2295.1201 9144704
739.36139 825.49573 2304.1265 5394504
758.04895 831.01807 2319.5403 6447710
768.05243 826.99323 2308.3062 4276540
779.54974 824.68951 2301.876 7829105
791.24481 822.67065 2296.241 5526862
817.71472 835.82196 2332.949 7960434
823.02972 827.27228 2309.085 7631980
825.5191 816.20825 2278.2031 8224116
837.27869 814.51843 2273.4866 7763563
860.60187 823.95331 2299.8213 8026480
868.74817 818.7901 2285.4094 7829102
882.81311 819.27783 2286.771 7565930
900.43372 823.00079 2297.1626 7500394
922.32196 830.45557 2317.9702 5263175
939.25433 833.29462 2325.8948 8553083
936.12604 818.51154 2284.6321 3881779
943.58612 813.27582 2270.0181 7105636
963.30066 818.60095 2284.8816 6184278
967.33929 810.64197 2262.6665 7894896
999.72791 826.33337 2306.4644 7105380
1006.8977 821.03784 2291.6836 7040099
1022.35 822.54718 2295.8962 7434601
1031.5288 819.03564 2286.095 7895153
1044.6357 818.69354 2285.1401 6447193
1058.917 819.26886 2286.7458 5526347
1073.6841 820.20068 2289.3469 5789004
1096.5054 827.18524 2308.8423 4210228
1105.2151 823.4834 2298.5095 6183760
1112.418 818.76257 2285.3328 6710103
1122.0165 815.89728 2277.3352 6709847
1138.1812 817.81812 2282.6965 3617578
1154.1744 819.57208 2287.5923 6907225
1165.6727 818.13055 2283.5686 8025705
1177.9275 817.24695 2281.1023 4407086
1169.6433 802.29498 2239.3684 5855049
1187.2192 805.2179 2247.5266 5657412
1211.1156 812.315 2267.3362 5920586
1223.3518 811.52161 2265.1218 5986635
1238.0588 812.36664 2267.4805 7565669
1248.6078 810.49457 2262.2551 9013116
1258.7725 808.41541 2256.4517 7301987
1268.2343 805.93329 2249.5237 4341816
1273.6208 800.94 2235.5864 6183762
1308.0795 814.1438 2272.4409 6841949
1330.1716 819.46027 2287.28 5920847
1344.5787 819.98273 2288.7383 5460041
1360.2522 821.2594 2292.3018 5525832
1368.6241 818.14594 2283.6116 5657674
1348.0815 797.97791 2227.3186 5986382
1394.0815 817.20813 2280.9939 5789257
1411.2883 819.35254 2286.9795 4934205
1403.902 807.31396 2253.3772 5986636
1402.5366 798.93182 2229.981 5459778
1428.7538 806.27148 2250.4675 5262140
1465.5519 819.39124 2287.0874 4012073
1493.371 827.29645 2309.1526 4932662
1513.3877 830.77509 2318.8621 3946025
1516.2601 824.86438 2302.364 5394242
1533.0869 826.58264 2307.1602 6841945
1551.1044 828.90692 2313.6477 6249809
1576.3909 835.04095 2330.769 8289392
1585.7001 832.67859 2324.1753 6578775
1591.1558 828.35077 2312.0952 7697001
1603.0715 827.43121 2309.5286 7499623
1602.0093 819.88513 2288.4661 5065282
1616.7814 820.50165 2290.1868 6381142
1639.3011 825.00702 2302.7622 6578777
1641.2256 819.15857 2286.438 8223602
1652.0914 817.83209 2282.7356 8355188
1640.5042 805.5025 2248.3213 7434086
1699.6527 827.82367 2310.6243 7236450
1738.7987 840.12378 2344.9563 8223345
1743.2622 835.60431 2332.3416 8223858
1747.8678 831.22363 2320.114 5657931
1767.1354 833.82959 2327.3877 6644313
1748.3777 818.59161 2284.8555 8289910
1761.2987 818.30585 2284.0581 8816510
1769.3668 815.78705 2277.0273 8618874
1781.1416 815.00238 2274.8372 8355703
1808.9135 821.49432 2292.9575 6579292
1828.5874 824.23938 2300.6196 6184791
1829.3168 818.46777 2284.5098 6249814
1828.702 812.18372 2266.97 6183764
1849.3019 815.34497 2275.7935 5657164
1864.5668 816.12518 2277.9712 5328455
1886 819.57477 2287.5996 5394248
1880.3048 811.27032 2264.4202 7960430
1889.6381 809.52173 2259.5396 5262146
1883.8077 801.34729 2236.7231 5459782
1878.1488 793.35944 2214.4275 6183761
1840.6045 772.10706 2155.1077 5196868
1917.1168 798.66296 2229.2307 4802111
1930.8208 798.86877 2229.8052 7236452
1944.27 798.96716 2230.0796 5262660
1935.8489 790.13757 2205.4346 6249553
1954.8502 792.54413 2212.1516 6973019
1952.869 786.46844 2195.1931 7039326
1972.2947 789.03717 2202.363 4933431
1991.1847 791.35913 2208.8442 3815466
2006.2124 792.12598 2210.9846 5196607
1999.5405 784.37061 2189.3379 6644311
1975.4937 769.9433 2149.0681 7368037
1965.5699 761.17004 2124.5803 6381142
1999.9464 769.55457 2147.9832 5854796
2016.9915 771.2063 2152.5935 8946554
2036.0743 773.61157 2159.3071 6315090
2059.3433 777.56726 2170.3484 7104605
2077.3965 779.51691 2175.79 5788745
0 0 0 0
0 0 0 0
0 0 0 0
0 0 0 0
0 0 0 0
0 0 0 0
0 0 0 0
0 0 0 0
0 0 0 0
-2218.407 916.29584 2515.9646 6712433
-2188.7136 910.14648 2499.0796 5659741
-2137.5349 894.91797 2457.2651 4145988
-2121.4111 894.25763 2455.4521 5856604
-2106.4065 894.06323 2454.9182 5527640
-2116.1587 904.44727 2483.4309 6317154
-2106.3442 906.5553 2489.219 3355954
-2078.5037 900.88007 2473.636 2303265
-2083.4607 909.44055 2497.1414 855821
-2075.0698 912.25531 2504.8701 921616
-2086.824 924.0307 2537.2031 132099
-2012.0968 897.40594 2464.0967 2
-1973.9911 886.84473 2435.0977 2
-1958.9595 886.57062 2434.3452 4
-1925.4247 877.85638 2410.4175 4
-1907.4172 876.1441 2405.7161 4
-1884.4142 872.09424 2394.5959 3
-1873.9205 873.81604 2399.3237 4
-1860.6897 874.27808 2400.5923 3
-1847.2944 874.66943 2401.6667 259
-1842.6089 879.22266 2414.1692 0
-1847.9413 888.66473 2440.0952 2763046
-1829.1338 886.55548 2434.3035 2828837
-1849.0951 903.35278 2480.4255 5723207
-1839.6627 905.94415 2487.541 5525825
-1820.5461 903.7699 2481.5708 4473133
-1811.9346 906.81769 2489.9395 4538929
-1810.2173 913.39417 2507.9971 5986886
-1795.1118 913.26825 2507.6514 6710095
-1759.3309 902.53375 2478.1768 5065529
-1712.5729 885.94 2432.6135 4407595
-1686.41 879.80908 2415.7793 7434074
-1658.4825 872.64484 2396.1077 3420701
-1653.1652 877.35632 2409.0444 7170901
-1629.4329 872.29175 2395.1382 3881250
-1621.3446 875.58667 2404.1853 4078628
-1614.4115 879.56915 2415.1204 3815458
-1612.6512 886.46643 2434.0591 4341802
-1586.9192 880.19202 2416.8308 7368796
-1584.0732 886.61304 2434.4617 6579024
-1564.3724 883.63141 2426.2747 5131578
-1536.3979 875.87787 2404.9851 4867894
-1507.5458 867.47418 2381.9102 4670258
-1520.3378 883.10101 2424.8181 2959638
-1506.093 883.17151 2425.012 4932914
-1476.6613 874.25214 2400.521 5525050
-1456.504 870.70355 2390.7773 4867118
-1462.3373 882.77509 2423.9233 5722429
-1453.0416 885.86249 2432.4009 5525308
-1431.7054 881.59772 2420.6904 6315338
-1418.7373 882.45148 2423.0347 6052167
-1375.1781 864.10059 2372.647 5591874
-1397.3654 887.1095 2435.8247 6446928
-1361.7413 873.5144 2398.4954 7302493
-1357.2335 879.80322 2415.7632 6973527
-1355.8241 888.2558 2438.9724 5329215
-1349.3418 893.53143 2453.458 6118730
-1339.6329 896.7619 2462.3284 6513232
-1312.251 888.10291 2438.5525 6315595
-1283.3755 878.22894 2411.4407 6381131
-1277.2673 883.88806 2426.9795 3551779
-1282.1384 897.36041 2463.9717 5722948
-1249.3965 884.51465 2428.7 6644564
-1227.7321 879.30347 2414.3909 4999739
-1216.3036 881.38678 2420.1113 5986634
-1207.7229 885.60797 2431.7019 6841688
-1191.1689 884.01398 2427.325 6183759
-1175.7766 883.25336 2425.2366 5329220
-1156.1703 879.26941 2414.2974 7369060
-1146.8945 883.14032 2424.9263 6710874
-1128.6649 880.12738 2416.6533 2697759
-1119.4889 884.18762 2427.802 5658186
-1079.8828 864.00684 2372.3894 6513495
-1090.092 883.67603 2426.3972 6447703
-1078.556 886.00781 2432.7998 7105377
-1072.3473 892.83826 2451.5549 6183761
-1049.2174 885.57416 2431.6091 4539449
-1036.5853 887.0918 2435.7761 7104861
-1014.6649 880.59113 2417.9268 2302489
-1002.0217 882.07111 2421.9902 5591109
-993.2301 887.03381 2435.6169 6381395
-973.58856 882.31012 2422.6465 5525829
-945.79718 869.94873 2388.7048 7434080
-937.1676 875.10474 2402.8621 6973527
-906.47363 859.49878 2360.0112 6315599
-908.66357 875.0722 2402.7727 5262656
-876.96875 857.98975 2355.8679 7894376
-877.84631 872.73767 2396.3625 6513237
-852.11554 861.08209 2364.3589 8420977
-833.75238 856.60657 2352.0698 4144431
-822.20856 859.10419 2358.9277 7302754
-807.69208 858.52838 2357.3469 6381651
-811.53821 877.79419 2410.2468 6315859
-804.00134 885.21735 2430.6292 6908253
-787.07343 882.38275 2422.8462 6250578
-769.93585 879.20361 2414.1167 8223341
-754.10718 877.42694 2409.2385 7170397
-729.67749 865.38129 2376.1633 6183759
-707.62994 855.74237 2349.6968 6907482
-697.97986 861.0097 2364.1602 5263428
-679.11102 854.88806 2347.3511 7105375
-667.5672 857.92413 2355.6875 7368803
-653.1015 857.25458 2353.8491 7171427
-645.79492 866.15778 2378.2957 8355701
-627.01605 859.72815 2360.6411 8093042
-611.49268 857.57056 2354.7168 6514010
-595.55688 854.72052 2346.8911 8816508
-567.77875 834.33221 2290.9089 7434599
-565.92078 851.96698 2339.3303 6513497
-554.29993 855.42053 2348.8132 5262915
-544.14813 861.37738 2365.1697 5131070
-531.66699 863.86444 2371.9985 5262912
-520.58685 868.82471 2385.6184 5855563
-501.86282 860.94873 2363.9924 6183758
-489.21103 863.33649 2370.5488 6513234
-470.66785 855.16125 2348.1013 4736823
-450.8353 844.07404 2317.658 7367775
-433.28244 836.69257 2297.3899 4999742
-428.59387 854.47955 2346.2295 7762794
-414.89166 854.88623 2347.3462 7697257
-400.61206 854.09021 2345.1604 6117968
-386.4707 853.54236 2343.656 5723724
-373.31638 855.21472 2348.248 7105633
-357.83072 851.46906 2337.9631 7500648
-341.25244 844.7171 2319.4238 8224627
-325.88766 840.52856 2307.9229 7237729
-315.53122 849.45636 2332.4368 3684394
-300.95392 847.31812 2326.5657 8092009
-283.01401 835.05322 2292.8887 8092010
-268.48767 832.13135 2284.8657 6841943
-255.00734 832.31323 2285.3652 8026473
-237.81915 819.73499 2250.8279 5986632
-222.79738 813.57336 2233.9092 7170650
-210.13385 815.78882 2239.9924 4868152
-195.97385 812.10162 2229.8682 5394751
-185.30678 823.4021 2260.897 6973528
-171.13728 819.68805 2250.699 7434078
-156.0004 810.32141 2224.98 7960424
-143.1046 811.94122 2229.4277 7565412
-132.38841 827.51434 2272.1885 5197120
-120.02469 835.14911 2293.1519 6907482
-106.80257 837.99744 2300.9729 7171425
-93.226646 838.49719 2302.3452 7960941
-80.015472 843.01111 2314.7395 7829355
-66.196327 841.66205 2311.0352 8158319
-52.22958 837.24329 2298.9023 7895148
-38.197094 828.2818 2274.2957 7171425
-24.689461 827.13641 2271.1506 8882043
-11.089906 816.47961 2241.8894 8092527
2.2036562 820.98828 2254.269 8026735
15.741446 830.64417 2280.7825 5460807
29.513401 838.0293 2301.0603 8223598
42.598755 827.41162 2271.9062 7302496
56.556511 834.76886 2292.1079 6644824
69.948586 832.54449 2286.0002 5395273
82.960518 827.25098 2271.4653 6513753
96.947395 831.80017 2283.9563 7368807
109.90429 827.4801 2272.0945 7697770
122.45671 821.38971 2255.3713 6776669
137.66988 832.58917 2286.1228 5987151
150.4872 828.5907 2275.1438 9013884
166.47772 841.28522 2310.0005 6052948
178.42746 833.18237 2287.7517 4013361
191.46883 830.9613 2281.6531 7237219
206.50574 837.12244 2298.5703 6711131
219.26691 833.86688 2289.6311 6118736
234.51753 839.90637 2306.2144 6118738
250.99188 849.42224 2332.343 7368806
265.38177 851.25885 2337.386 5131845
278.93317 850.35706 2334.9099 8026738
288.18906 837.06384 2298.4094 7303013
298.59283 828.15381 2273.9443 9013374
312.53354 829.39935 2277.3643 8092272
323.5741 823.16394 2260.2432 7434596
336.64731 822.38959 2258.1169 7829099
353.05768 829.51514 2277.6824 8289138
365.9762 828.21393 2274.1094 9934991
383.80096 837.71393 2300.1943 7236963
395.54926 833.75415 2289.3215 7368552
400.02209 815.22992 2238.4578 7829360
415.2785 819.16565 2249.2646 6579038
433.76675 829.03363 2276.3601 7434347
448.40714 831.17395 2282.2371 6315866
461.60202 830.58807 2280.6284 5592399
476.53357 833.07153 2287.4475 6579294
493.9057 839.56635 2305.2808 4605247
512.40564 847.57703 2327.2766 7434856
520.13312 837.81604 2300.4749 7039843
534.50916 838.98938 2303.6965 6316376
545.04102 834.22058 2290.6023 6053204
557.88666 833.13873 2287.6318 6776670
572.12695 834.1416 2290.3855 6908767
600.90552 855.80328 2349.864 5132358
608.8974 847.54999 2327.2024 4737083
619.37115 843.04047 2314.8201 7039324
639.00452 850.92352 2336.4653 7170910
652.53827 850.52222 2335.3633 5921101
666.31677 850.44983 2335.1646 6578520
668.71936 836.15601 2295.9167 5460038
670.54779 821.72858 2256.302 4473144
687.95276 826.58044 2269.624 7236449
706.75415 832.89185 2286.9541 7302243
722.98285 835.99109 2295.4639 7499624
733.58899 832.59448 2286.1375 5789519
748.06 833.62805 2288.9753 6447196
763.90686 836.13055 2295.8469 8618621
773.05981 831.34711 2282.7124 8223863
787.67578 832.50189 2285.8833 5657936
796.6759 827.78259 2272.925 7631726
814.87842 832.62305 2286.2158 7632238
828.98108 833.18427 2287.7571 6447707
837.77435 828.47729 2274.8325 7434859
831.73267 809.48108 2222.6729 7960946
858.99329 822.9834 2259.7473 8487290
875.29407 825.73187 2267.2942 5658448
891.56775 828.37225 2274.5439 5329483
908.36224 831.41052 2282.8867 8355704
923.13245 832.53418 2285.9719 8355703
933.16479 829.41418 2277.405 6316120
929.65698 814.5199 2236.5083 6118741
960.59064 829.79608 2278.4536 7763564
977.84064 832.99231 2287.2297 6446934
986.02319 828.48242 2274.8464 7301986
996.44116 825.94702 2267.8848 7302245
1010.9755 826.84576 2270.3525 8355703
1026.7142 828.69287 2275.4246 4737088
1043.1796 831.07117 2281.9548 8158324
1038.943 817.10687 2243.6116 7960945
1049.8717 815.27203 2238.5735 8092785
1074.3381 823.86438 2262.1663 4407349
1098.2963 831.85992 2284.1206 6775896
1107.1027 828.32458 2274.4131 6380882
1123.4819 830.47198 2280.3096 5130814
1133.0806 827.61578 2272.467 8223085
1139.6238 822.62109 2258.7527 6051916
1152.1836 822.03497 2257.1433 7368288
1161.4205 819.11877 2249.136 5526085
1168.272 814.60535 2236.7429 6052685
1181.312 814.45984 2236.3435 6250323
1203.395 820.48328 2252.8826 6710874
1202.0818 810.59772 2225.7388 8420979
1211.0535 807.78687 2218.0208 8749435
1243.8939 820.78619 2253.7144 5986643
1264 825.19592 2265.8225 8486779
1254.9788 810.69714 2226.0117 8026227
1273.8441 814.32684 2235.9783 7434346
1285.085 813.05792 2232.4941 6841693
1298.9091 813.43256 2233.5227 5986384
1333.8276 826.87677 2270.4377 6973278
1330.4631 816.55676 2242.1011 5854796
1347.2054 818.659 2247.8735 4999998
1343.0533 808.14752 2219.011 6381141
1351.1549 805.1416 2210.7573 5460807
1367.6376 807.13971 2216.2439 6512980
1372.5504 802.33655 2203.0554 6184015
1380.9281 799.63019 2195.6243 4802362
1427.65 818.97058 2248.729 6381394
1444.7902 821.14062 2254.6875 5986124
1452.6394 818.03882 2246.1707 5525572
1480.6825 826.26208 2268.75 4933436
1511.0327 835.61322 2294.4263 5459523
1507.6324 826.2998 2268.8535 6446930
1522.0873 826.85046 2270.3655 5920843
1541.4801 830.05035 2279.1519 7565669
1554.9894 830.0542 2279.1624 6841946
1535.2178 812.44543 2230.8123 8223599
1565.2626 821.27539 2255.0576 6446677
1587.4229 825.85406 2267.6296 6052176
1577.6821 813.89862 2234.8025 5723211
1620.0712 828.81122 2275.7493 5920590
1557.1812 790.0625 2169.3533 7499621
1592.9907 801.6153 2201.0747 6907485
1606.1912 801.69556 2201.2952 6907485
1630.3076 807.17908 2216.3518 6446934
1696.1606 833.07397 2287.4541 8025709
1709.8665 833.14929 2287.6609 6513242
1720.2024 831.5943 2283.3911 7039844
1711.8846 821.11609 2254.6201 9342855
1725.6047 821.28888 2255.0947 6184791
1759.3269 830.90588 2281.501 6381656
1744.6403 817.68762 2245.2063 8224117
1747.04 812.61707 2231.2834 8421495
1768.7831 816.55231 2242.0889 7500392
1772.6821 812.25269 2230.283 8092786
1785.1221 811.90125 2229.3179 7829357
1801.0704 813.13892 2232.7163 7434600
1820.0422 815.71356 2239.7859 5657419
1841.1824 819.2157 2249.4021 6578265
1846.0787 815.49194 2239.1775 5657164
1853.828 813.07263 2232.5344 6382170
1859.3544 809.7196 2223.3276 4210745
1864.9984 806.46466 2214.3901 6776416
1861.6509 799.3941 2194.9758 2301466
1884.7556 803.70135 2206.8027 4801599
1894.2271 802.17596 2202.6143 3683630
1904.8757 801.1665 2199.8425 5131076
1887.403 788.42358 2164.853 6447192
1910.2673 792.58899 2176.2905 5262661
1941.1674 800.01031 2196.6677 6775900
1930.6221 790.36566 2170.1855 6446934
1946.7571 791.69885 2173.8464 6117712
1971.2716 796.40002 2186.7546 3223076
1966.8531 789.42682 2167.6079 6710106
1960.1874 781.64825 2146.2493 6578775
1975.2159 782.56482 2148.7661 7039070
1973.923 777.04468 2133.6089 7302499
1980.1193 774.52429 2126.6885 6380884
2008.6927 780.73322 2143.7368 6446675
2028.6539 783.53772 2151.4375 7038812
2061.5349 791.26611 2172.6582 6380882
2094.0964 798.77686 2193.281 6380882
0 0 0 0
0 0 0 0
0 0 0 0
0 0 0 0
0 0 0 0
0 0 0 0
0 0 0 0
0 0 0 0
0 0 0 0
-2200.9541 923.87506 2496.1709 5790812
-2164.4541 914.6994 2471.3799 3224883
-2148.2349 914.02795 2469.5657 2896431
-2107.4937 902.8421 2439.3433 1974304
-2087.3171 900.37244 2432.6704 4408642
-2092.606 908.92938 2455.7903 1184527
-2085.8335 912.33075 2464.98 3684918
-2080.2517 916.30444 2475.7163 2500647
-2072.0076 919.1535 2483.4141 0
-2030.377 907.12695 2450.9202 256
-1986.001 893.69177 2414.6204 2
-1979.4336 897.19879 2424.0959 1
-1932.2323 882.20483 2383.5845 4
-1916.3352 881.38788 2381.3772 4
-1904.3867 882.38849 2384.0806 4
-1888.9808 881.78986 2382.4634 4
-1861.0616 875.29712 2364.9209 592395
-1839.161 871.55798 2354.8184 1
-1853.26 884.95203 2391.0068 65794
-1838.5608 884.69489 2390.3123 328962
-1833.139 888.93268 2401.762 526342
-1835.8564 897.21436 2424.1379 5132100
-1823.5507 898.22681 2426.8735 4671034
-1832.1847 909.65161 2457.7415 3683880
-1824.3607 913.02277 2466.8499 5723719
-1815.1147 915.73114 2474.1675 5525826
-1795.0472 912.97955 2466.7329 5460034
-1785.8549 915.7594 2474.2437 5591617
-1763.2037 911.62671 2463.0779 5394491
-1737.9475 906.06689 2448.0562 5788735
-1694.7421 890.97705 2407.2856 4538408
-1653.3529 876.59406 2368.425 6644039
-1638.1552 875.97028 2366.7395 6381124
-1632.7738 880.63 2379.3296 6315077
-1617.891 880.20184 2378.1726 5460282
-1596.4135 876.14679 2367.2166 4735789
-1607.5529 890.07935 2404.8601 3288856
-1602.6587 895.30414 2418.9768 5591611
-1594.4823 898.77307 2428.3494 8552040
-1564.5074 889.90607 2404.3921 4604204
-1521.3634 873.31659 2359.5696 3748639
-1505.4692 872.20673 2356.571 4604461
-1509.9918 883.01544 2385.7747 2959123
-1492.8588 881.24512 2380.9915 3485467
-1470.8328 876.52502 2368.2383 4274983
-1453.578 874.58466 2362.9958 5787965
-1442.0902 876.11029 2367.1179 4538154
-1441.5374 884.37433 2389.446 5590587
-1432.6041 887.60999 2398.1882 4143654
-1398.636 875.24408 2364.7776 5393722
-1379.5432 872.03082 2356.0957 6380874
-1384.1896 883.91119 2388.1948 6183497
-1348.1945 869.81616 2350.1121 5788999
-1334.0751 869.68787 2349.7656 6052681
-1344.7181 885.86981 2393.4866 5986631
-1337.723 890.6532 2406.4106 4605235
-1303.948 877.51758 2370.9202 5657409
-1317.207 896.09308 2421.1084 3880997
-1306.0685 898.29718 2427.0635 4144425
-1284.7998 893.50543 2414.1169 5328957
-1277.9603 898.75342 2428.2961 4276268
-1261.6892 897.41241 2424.6731 5065786
-1234.7382 888.35669 2400.2058 5723972
-1199.5651 873.10541 2358.9993 5395009
-1201.6189 884.90985 2390.8928 6052940
-1176.4941 876.74182 2368.824 5987405
-1170.4055 882.73389 2385.0137 6316115
-1160.6357 886.06207 2394.0061 5986893
-1143.8606 884.05841 2388.5925 6908253
-1133.8517 887.2995 2397.3494 4737084
-1106.197 876.63885 2368.5459 4210742
-1096.1372 879.82703 2377.1599 6908253
-1069.3942 869.53284 2349.3467 3355434
-1064.2147 876.73206 2368.7979 4408120
-1051.5682 877.88977 2371.9258 4868413
-1037.6555 878.00757 2372.2439 4867902
-1030.311 883.76239 2387.7927 5065537
-1014.5494 882.35712 2383.9958 3815214
-994.27411 876.93127 2369.3359 4078641
-992.7785 888.15045 2399.6487 4670264
-968.49994 879.01764 2374.9731 5262400
-959.55615 883.73877 2387.7288 6184015
-932.96448 872.10431 2356.2944 7434080
-918.60352 871.72314 2355.2644 6315599
-853.20111 822.14655 2221.3159 5460291
-882.08972 863.29901 2332.5037 6973528
-853.29303 848.40643 2292.2661 7565666
-839.98834 848.68445 2293.0173 5986634
-844.97156 867.75262 2344.5366 6118222
-818.25006 854.35449 2308.3369 5526085
-808.29376 858.30328 2319.0061 6907739
-788.64001 851.91327 2301.7412 5657417
-791.70416 870.27075 2351.3403 6052945
-784.09558 877.34387 2370.4507 5855565
-777.82037 886.19391 2394.3623 6908762
-758.33612 880.04401 2377.7461 8487795
-735.14105 869.27319 2348.645 5790027
-723.41705 871.9126 2355.7764 7302753
-702.95251 863.914 2334.1653 4868668
-689.69678 864.63159 2336.104 6052942
-674.44702 862.82745 2331.2297 6776410
-666.07202 869.92688 2350.4114 7303011
-654.31665 872.82025 2358.2285 7368805
-642.2298 875.38794 2365.166 7303013
-613.7793 855.26843 2310.8062 7303013
-602.35406 858.49585 2319.5261 6184275
-587.0896 856.27435 2313.5242 8158322
-569.88129 851.04388 2299.3923 7171427
-559.25934 855.63397 2311.7939 5460807
-545.70264 855.85187 2312.3826 6316372
-532.87903 857.26013 2316.1877 4999739
-516.02197 852.08276 2302.1992 5526083
-510.23611 865.40198 2338.1855 5591879
-495.8447 864.46143 2335.6443 6710359
-480.90512 862.48383 2330.3013 6118222
-463.06396 855.03162 2310.1665 6250065
-447.47781 851.41608 2300.3979 5197121
-431.98184 847.75049 2290.4939 3749935
-418.50031 847.92847 2290.9749 4013363
-403.04364 843.98242 2280.3132 6315861
-388.92838 842.66907 2276.7646 6250326
-382.90497 859.4234 2322.0325 7829357
-364.14743 847.77972 2290.573 7434598
-350.56781 847.75623 2290.5095 5131585
-334.53607 841.56219 2273.7739 7236703
-324.60947 850.85077 2298.8706 4407861
-312.08398 853.84271 2306.9543 6118736
-293.37192 839.40741 2267.9521 8158062
-279.86502 839.19434 2267.3765 5854794
-263.46857 829.85846 2242.1523 8420977
-249.95612 829.09747 2240.0964 7236703
-234.2919 820.71362 2217.4443 5921095
-220.40033 817.91199 2209.875 7500386
-207.72362 819.5498 2214.2998 6250574
-197.05109 829.84839 2242.1252 5263420
-181.98683 821.80414 2220.3909 7763815
-168.78441 821.56891 2219.7554 7303008
-156.18422 824.47308 2227.6018 7434335
-142.40974 821.14227 2218.6025 7368287
-129.8179 824.64667 2228.0708 6381395
-116.48122 823.67719 2225.4517 8355957
-103.38336 824.36469 2227.3091 7237476
-90.483589 827.0639 2234.6021 8618873
-78.943062 845.24182 2283.7161 7171427
-65.045586 840.48389 2270.8606 6908255
-50.481785 822.38953 2221.9724 7368806
-37.586048 828.28949 2237.9133 8684666
-24.347399 828.94507 2239.6846 8355700
-11.081686 829.14612 2240.2278 6184016
2.1819346 826.1189 2232.0486 8684151
15.449967 828.52515 2238.55 7170656
28.747477 829.55914 2241.3438 8157806
39.965691 788.89587 2131.4778 6645081
56.141594 842.12415 2275.2925 5329223
68.264389 825.71552 2230.9587 6908255
80.66922 817.48804 2208.7295 7631980
94.819069 826.77289 2233.8157 7368809
108.51293 830.29449 2243.3303 6842464
121.6381 829.17084 2240.2944 4802881
136.21555 837.19415 2261.9724 6316376
148.52429 831.08557 2245.4678 7434344
162.28419 833.43378 2251.8123 6710622
175.55775 833.11725 2250.9573 6118482
192.72891 850.03595 2296.6689 7500135
204.71716 843.37134 2278.6624 5065793
219.08536 846.72949 2287.7354 6381653
231.91418 844.09351 2280.6133 6578521
245.6075 844.72101 2282.3086 6052944
259.70798 846.61023 2287.4133 5658188
273.25333 846.59229 2287.3647 9079426
283.11487 835.70209 2257.9409 7960945
292.83508 825.39618 2230.0959 6578775
307.05234 828.10846 2237.4241 7631463
316.4903 818.24005 2210.7612 6446935
331.98325 824.18817 2226.832 8618103
345.3299 824.5567 2227.8279 7565924
363.81885 836.72473 2260.7041 7039837
377.07419 836.41956 2259.8794 6645340
390.17542 835.80518 2258.2195 7237220
395.67694 819.49176 2214.1431 8487031
401.18527 804.23877 2172.9319 5789779
431.09485 837.32959 2262.3381 8816000
446.21017 840.55597 2271.0554 7829105
456.85037 835.41016 2257.1521 6315866
470.44424 835.80444 2258.2175 7302761
483.7576 835.69244 2257.915 7368552
501.19235 842.51465 2276.3477 7829362
510.6535 835.92664 2258.5479 5658189
522.28467 833.13678 2251.01 4868674
533.43353 829.73553 2241.8203 4934467
542.54456 823.40692 2224.7212 7236968
554.76794 821.98981 2220.8926 7434347
564.84338 817.5296 2208.8418 7171175
584.63312 827.01312 2234.4646 5921362
594.94452 822.96558 2223.5288 7236964
630.71606 853.54852 2306.1594 7565927
650.13068 861.16821 2326.7466 4538936
641.06555 831.53033 2246.6694 6315604
660.33667 839.10547 2267.1365 6776154
672.63 837.68866 2263.3083 7236450
678.1731 828.08472 2237.3601 3749164
690.23462 826.65582 2233.4993 7433572
703.94537 827.21869 2235.02 6841694
714.17401 823.74451 2225.6333 8290166
728.71057 825.2749 2229.7683 7171173
738.88275 821.89612 2220.6394 8486778
753.25647 823.22754 2224.2366 7434860
769.34235 826.35199 2232.6785 7369067
778.16858 821.7052 2220.1235 7632239
797.79749 828.4303 2238.2937 7434860
813.60675 831.034 2245.3284 7763826
819.5423 823.63092 2225.3264 8355962
831.2901 822.21106 2221.4902 8290169
845.48962 823.2226 2224.2234 8224376
866.57037 830.80023 2244.697 8553341
877.43042 828.49811 2238.4771 9342856
899.6142 836.79779 2260.9014 7369323
903.80432 828.362 2238.1091 7895153
928.37939 838.5835 2265.7261 7237222
940.22986 837.18359 2261.9438 5329225
957.97235 840.99567 2272.2434 7171427
968.79187 838.70856 2266.064 5789003
974.72137 832.30841 2248.772 8553335
980.24554 825.73956 2231.0237 7566183
989.25916 822.24579 2221.584 6316374
1020.8231 837.34088 2262.3687 7763564
1018.0416 824.23761 2226.9656 8026736
1026.9855 820.84125 2217.7893 8816252
1039.1134 820.04364 2215.6343 6776156
1061.6462 827.37463 2235.4417 7697513
1083.9684 834.36304 2254.323 5855052
1094.0388 831.86542 2247.575 8288879
1105.7738 830.67841 2244.3679 4472884
1119.9117 831.30334 2246.0562 6512467
1113.7631 817.03168 2207.4963 7696742
1128.5953 818.30383 2210.9336 6315602
1147.0592 822.14978 2221.3247 7631462
1162.234 823.5777 2225.1826 7105118
1165.7588 816.81085 2206.8997 7170911
1184.7257 820.89392 2217.9316 7763048
1195.5667 819.31885 2213.6758 8289392
1207.1591 818.28711 2210.8882 7499877
1229.8102 824.69342 2228.1973 7039325
1238.8621 821.94104 2220.7607 5920591
1247.9795 819.28955 2213.5969 8026994
1268.0814 823.82947 2225.863 8618875
1257.9872 808.86041 2185.4189 7500394
1287.9254 819.67419 2214.636 5000515
1304.4216 821.80127 2220.3831 7500649
1311.6071 818.07855 2210.3247 8421492
1327.9963 820.11322 2215.8223 8223344
1338.7136 818.63965 2211.8408 5921360
1346.6906 815.5351 2203.4529 6184532
1362.8882 817.42065 2208.5474 7236963
1377.3314 818.22821 2210.7292 7960426
1376.5865 810.08276 2188.7214 4144175
1399.6771 815.98499 2204.6682 4867643
1418.7546 819.45996 2214.0574 5328702
1437.7465 822.82245 2223.1421 4867639
1446.8265 820.50275 2216.8748 5721921
1484.2115 834.13232 2253.6997 5459006
1497.9 834.32007 2254.207 3749158
1490.0586 822.61853 2222.5911 5920585
1514.3324 828.69641 2239.0127 4407349
1519.5303 824.32043 2227.1895 7433827
1536.2845 826.23499 2232.3623 7105118
1535.2233 818.61725 2211.7803 5789001
1553.3508 821.27374 2218.9578 6249552
1578.0648 827.33875 2235.3445 4538936
1534.8356 797.97839 2156.0171 3814446
1542.8424 795.52081 2149.3774 6907731
1566.9683 801.34692 2165.1187 4539187
1575.9608 799.40222 2159.8643 7565669
1617.3003 813.7644 2198.6687 7105120
1608.0958 802.66858 2168.6895 9078654
1666.8364 825.39404 2230.0901 7301987
1673.3009 822.07922 2221.134 6512470
1690.2865 823.94482 2226.1746 6842464
1670.2743 807.88617 2182.7866 5460811
1715.7865 823.52399 2225.0376 6710877
1721.9314 820.17236 2215.9819 8421752
1707.4442 807.11841 2180.7124 7039844
1737.0605 814.95209 2201.8777 7829360
1750.4369 815.10669 2202.2954 7960177
1765.7953 816.17499 2205.1819 6316120
1798.4744 825.1748 2229.498 6052948
1805.2095 822.22662 2221.5322 5592397
1822.2992 824.00311 2226.3323 5986899
1834.8627 823.72217 2225.5732 2894366
1846.4177 822.99573 2223.6104 3814955
1833.4966 811.44727 2192.4082 6578002
1843.6449 810.19922 2189.0361 6117965
1855.1201 809.54767 2187.2756 5789256
1865.5721 808.46167 2184.3416 3025695
1874.701 806.82129 2179.9094 4077358
1869.6179 799.1286 2159.125 6511955
1878.3518 797.40625 2154.4714 3748393
1892.6243 798.04254 2156.1904 4012847
1865.2793 781.2395 2110.7913 6512470
1913.4052 796.05939 2150.8323 6249298
1936.3707 800.28467 2162.2485 4012079
1946.3973 799.14203 2159.1611 8354674
1933.4529 788.64459 2130.7986 6314579
1954.5552 792.08063 2140.0823 5196612
1938.5835 780.54504 2108.915 6578266
1969.619 787.96283 2128.9568 7039073
1978.4449 786.4577 2124.8901 6117202
1999.698 789.88025 2134.1372 6446678
2020.0184 792.89374 2142.2793 7038812
2048.7332 799.14398 2159.1665 5130815
2079.2559 806.01746 2177.7375 3814955
0 0 0 0
0 0 0 0
0 0 0 0
0 0 0 0
0 0 0 0
0 0 0 0
0 0 0 0
0 0 0 0
0 0 0 0
-2105.8481 898.10205 2388.3081 4671811
-2137.8801 917.93054 2441.0376 2368804
-2117.251 915.26416 2433.947 921359
-2110.0171 918.3916 2442.2639 1513752
-2084.5779 913.58362 2429.478 2763819
-2075.2803 915.83215 2435.4575 4211520
-2067.4092 918.74622 2443.2068 4868936
-2063.3289 923.39758 2455.5762 395270
-2022.0884 911.36694 2423.5833 2
-2023.5846 918.56348 2442.7209 2
-1958.9595 895.63324 2381.7429 2
-1938.2894 892.61224 2373.7092 2
-1910.7821 886.37543 2357.1238 4
-1892.442 884.33057 2351.6858 4
-1869.3976 880.04065 2340.2778 4
-1850.4083 877.61005 2333.8142 3
-1833.3336 876.05774 2329.686 2960944
-1832.0823 882.10034 2345.7551 0
-1854.8875 899.90643 2393.1064 1644821
-1842.3516 900.70892 2395.2405 921353
-1842.3619 907.7052 2413.8457 4276021
-1828.792 908.06781 2414.8098 2631195
-1817.5355 909.59387 2418.8682 3485733
-1804.8507 910.42371 2421.075 4736313
-1779.7821 904.96997 2406.572 4078381
-1776.6893 910.69263 2421.79 5789000
-1769.6425 914.46503 2431.822 5065273
-1759.0344 916.44409 2437.085 5065784
-1742.3254 915.2511 2433.9124 6315849
-1714.0428 907.90778 2414.3843 7434072
-1668.0269 890.96857 2369.3381 4013091
-1644.2506 885.72211 2355.3862 5328690
-1630.3734 885.76355 2355.4966 5393970
-1617.702 886.46667 2357.3665 4998953
-1585.6205 876.45319 2330.7375 4406818
-1578.0206 879.91467 2339.9429 5261872
-1571.2385 883.89771 2350.5347 4867116
-1570.2125 891.21893 2370.0039 4209186
-1557.2478 891.83508 2371.6423 5393720
-1531.6281 885.1488 2353.8618 3485725
-1517.9559 885.30786 2354.2847 5788225
-1505.6174 886.25482 2356.803 2893331
-1493.3318 887.25092 2359.4519 2104079
-1475.103 884.70154 2352.6724 5262389
-1438.5771 871.0249 2316.3025 5854526
-1450.1375 886.48041 2357.4028 5196339
-1437.3048 887.17975 2359.2627 5459511
-1422.0239 886.36688 2357.1011 4143654
-1412.8577 889.38708 2365.1326 5788994
-1357.6582 863.19983 2295.4934 6249547
-1344.7278 863.62927 2296.6353 6644560
-1318.4504 855.40802 2274.7725 8157803
-1308.6304 857.80457 2281.1458 6512978
-1328.1642 879.69336 2339.3542 3749673
-1316.288 881.02045 2342.8833 6644564
-1311.5776 887.22321 2359.3782 3289121
-1297.2285 886.96906 2358.7024 5393982
-1293.4026 893.98297 2377.3542 4078637
-1273.0132 889.57672 2365.637 4341550
-1267.9028 895.86816 2382.3677 5131578
-1265.8933 904.51697 2405.3672 5921096
-1248.0616 901.92865 2398.4841 4604980
-1228.2805 897.85553 2387.6526 7434081
-1202.3983 889.1759 2364.571 5855051
-1184.0962 885.96313 2356.0273 3355169
-1167.9418 884.29993 2351.6042 5986889
-1165.8785 893.39423 2375.7888 5000768
-1148.3894 890.74591 2368.7461 5658440
-1124.3296 882.87244 2347.8083 6118990
-1111.3866 883.64044 2349.8506 6842716
-1108.501 892.5257 2373.479 3881518
-1082.7191 882.96735 2348.0605 5197634
-1068.3628 882.59894 2347.0808 4342327
-1056.3284 884.16431 2351.2437 2960676
-1050.1188 890.71216 2368.6562 7434087
-1032.9504 888.01636 2361.4873 5986384
-1016.8269 886.15698 2356.5427 4341559
-1003.4427 886.66626 2357.8972 5065537
-985.96313 883.5202 2349.531 6710876
-960.30646 872.85162 2321.1602 7039842
-962.51746 887.5708 2360.3027 7434598
-937.94763 877.66443 2333.9587 7434853
-929.71167 882.97437 2348.0793 8289389
-891.2041 859.25903 2285.0134 4802614
-876.74048 858.35181 2282.6008 5855045
-862.09222 857.23248 2279.6243 6776661
-846.00452 854.62354 2272.6863 8618352
-833.55292 855.66266 2275.4497 5723206
-825.45483 861.27838 2290.3835 5920838
-808.88647 858.09619 2281.9214 5723460
-796.96405 859.81842 2286.501 3618340
-786.31818 863.0011 2294.9648 3157791
-774.46851 864.95129 2300.1509 6118479
-764.37219 868.96466 2310.8235 5131841
-746.48633 864.10748 2297.907 6513495
-738.61151 870.8736 2315.8999 5723979
-725.64661 871.78064 2318.312 6645337
-714.65753 875.14227 2327.2515 5658186
-700.74176 874.98163 2326.8245 6118480
-683.43103 870.49042 2314.8811 5789773
-672.05096 873.5238 2322.9478 6645081
-656.40808 871.02759 2316.3096 5987150
-634.60944 860.08179 2287.2014 7303013
-617.42029 855.04193 2273.7991 7763564
-605.9386 857.85767 2281.2869 7039841
-594.4729 860.82495 2289.1777 6316117
-579.22357 858.32391 2282.5269 7105633
-560.237 850.03308 2260.479 6710874
-553.91687 861.02509 2289.71 6118737
-535.19897 852.81384 2267.874 6908506
-521.92743 853.08167 2268.5862 5000508
-512.41229 859.66565 2286.095 5131580
-499.42642 860.62634 2288.6497 6052427
-486.1185 861.07019 2289.8298 5657669
-474.40158 864.43854 2298.7874 5722948
-458.21432 859.61951 2285.9722 6644050
-443.38608 857.13416 2279.363 789254
-428.8335 855.04236 2273.8003 7566439
-412.39688 848.93652 2257.563 8750457
-398.78238 848.42554 2256.2043 4934463
-384.01517 845.34161 2248.0032 6447448
-373.76312 852.33252 2266.594 6052430
-360.02911 851.60828 2264.668 6052429
-348.66843 856.65906 2278.0994 5197372
-326.78329 835.21741 2221.0801 6250060
-315.10303 839.1532 2231.5464 6446930
-303.94995 844.89917 2246.8267 5986634
-287.58139 836.00989 2223.1875 7368287
-274.62463 836.66162 2224.9207 6644818
-257.78903 824.96606 2193.8188 8158057
-244.56682 824.20612 2191.7979 7368287
-229.65254 817.33862 2173.5354 7039325
-218.98195 825.65588 2195.6533 7500902
-206.6129 828.21545 2202.4597 7171680
-193.45433 827.74176 2201.2002 5724233
-179.51854 823.63367 2190.2756 7434338
-165.03061 816.15491 2170.3875 6907736
-154.08961 826.43585 2197.7273 8223852
-139.54718 817.51581 2174.0066 6184013
-126.84927 818.68658 2177.1199 7105374
-115.50893 829.87579 2206.8752 9803145
-100.70335 815.84772 2169.5706 7631721
-87.442612 812.06134 2159.5015 4934467
-76.953293 837.12573 2226.1548 8092528
-63.79554 837.526 2227.2192 7237220
-50.086422 829.00909 2204.5703 6842464
-36.279278 812.289 2160.1069 9408390
-23.6425 817.83002 2174.842 8224117
-10.95779 832.99927 2215.1814 8486774
2.1625893 831.90033 2212.259 8881274
15.193376 827.80646 2201.3723 7631463
28.309872 830.00745 2207.2253 6250066
41.308735 828.45844 2203.106 6513494
55.0728 839.31494 2231.9766 7039840
67.150269 825.24017 2194.5479 8224372
80.354507 827.3327 2200.1125 9474183
93.722778 830.29449 2207.9885 5855569
107.50529 835.75098 2222.499 6644830
120.97529 837.85242 2228.0872 6908003
134.1673 837.80438 2227.9595 5855826
147.89688 840.82129 2235.9822 7303016
160.21124 835.95764 2223.0486 7303016
173.89606 838.44055 2229.6514 4934466
188.14111 843.08337 2241.998 6908255
202.39168 847.13702 2252.7778 6579290
215.06844 844.50928 2245.7898 6842205
229.70303 849.42767 2258.8691 7105632
239.86909 838.18988 2228.9846 7368804
256.24576 848.69446 2256.9194 6315862
263.81018 830.41815 2208.3174 8421494
0 0 0 0
288.53281 826.28711 2197.3318 7105628
302.40076 828.61755 2203.5291 7368285
314.99216 827.40179 2200.2961 7368286
327.86087 826.9823 2199.1804 8420722
343.40274 833.07971 2215.3953 8618103
359.09204 839.07281 2231.3325 8487288
371.40799 837.03772 2225.9209 7763565
383.59003 834.85083 2220.1052 9671309
395.5957 832.43787 2213.6885 7170919
404.17603 823.20306 2189.1306 7302761
424.85751 838.42328 2229.6052 6250072
441.66064 845.30273 2247.8999 4210488
450.26059 836.53882 2224.594 5329224
453.93814 819.38806 2178.9854 7829358
475.74921 835.01282 2220.5361 8224116
488.98544 835.15179 2220.9055 6579037
500.77698 832.88049 2214.8655 6579038
515.9046 836.13196 2223.5122 7171432
531.15155 839.41028 2232.23 6316379
542.08484 835.87769 2222.8359 3421233
544.46515 819.63708 2179.6475 8026739
565.74982 831.94818 2212.3862 7171687
580.69513 834.59076 2219.4136 4408125
587.74451 826.01929 2196.6196 8092532
604.97687 831.82043 2212.0464 8026737
635.20404 854.86401 2273.3259 7170657
644.75916 849.70776 2259.614 4604730
649.25842 838.23376 2229.1013 6578775
660.20013 835.36914 2221.4834 7697000
672.03101 833.71948 2217.0967 8025966
684.68347 833.13281 2215.5366 5262661
695.75604 830.68195 2209.019 6184021
695.45032 814.98755 2167.2832 7105636
707.98438 814.63617 2166.3486 7828849
718.56171 812.08582 2159.5667 7829360
735.30457 816.47083 2171.2275 7698030
742.27533 810.04083 2154.1284 9211271
765.32135 821.07452 2183.4702 8684927
778.90283 821.75629 2185.283 7763823
792.49255 822.42413 2187.0591 8158581
811.39099 828.49121 2203.1931 8619132
814.80505 818.80566 2177.4365 6842721
825.62305 816.7464 2171.9604 7829361
836.53577 814.84259 2166.8977 6513502
858.52283 823.62054 2190.2407 7894898
882.9364 834.43024 2218.9868 7566443
893.09247 831.64624 2211.5833 7500393
909.60956 834.78052 2219.9182 5000259
920.13043 832.40088 2213.5901 10526872
934.44855 833.47504 2216.4465 6842463
959.27429 843.76184 2243.802 6907999
961.99994 834.59406 2219.4224 5066051
963.66559 824.76642 2193.2878 6645082
962.31482 812.65308 2161.075 7697771
1000.862 834.10822 2218.1304 7434599
1018.6824 837.95776 2228.3674 7369063
1008.9766 819.35559 2178.8989 7762281
1013.3887 812.54327 2160.783 7170401
1033.4622 818.30164 2176.0962 8420723
1053.3149 823.74561 2190.5732 6709593
1061.1437 819.76807 2179.9958 6315347
1081.2788 825.27887 2194.6506 6315603
1092.761 824.133 2191.6035 5328450
1101.1462 820.70575 2182.4895 8288878
1122.7173 827.07172 2199.4182 5130814
1123.151 817.89893 2175.0254 6578773
1132.9487 815.67609 2169.114 7697254
1140.2003 811.69043 2158.5151 8881530
1149.7432 809.40619 2152.4407 7960172
1171.2664 815.51355 2168.6819 8486517
1195.4675 823.33289 2189.4756 7104864
1223.9025 833.86871 2217.4934 6446934
1231.7728 830.3186 2208.0527 6052177
1238.7897 826.2738 2197.2964 7630953
1239.2372 817.97687 2175.2327 7302244
1244.9828 813.31195 2162.8271 8881533
1245.9861 805.67554 2142.5198 5196867
1275.6802 816.55804 2171.4595 6907740
1288.4464 816.49585 2171.2942 7697256
1311.0779 822.62494 2187.593 7828840
1335.6095 829.81451 2206.7122 6052429
1333.1038 820.22919 2181.2222 4473655
1351.9653 823.84863 2190.8472 8618360
1376.1793 830.62976 2208.8801 7829356
1380.1373 825.17212 2194.3669 5986894
1376.2228 815.15356 2167.7246 5526599
1396.3634 819.43665 2179.1145 8026219
1420.5287 825.98138 2196.5188 5723207
1424.2694 820.63898 2182.312 4735798
1438.4784 821.37018 2184.2563 4669747
1467.5841 830.51849 2208.5842 4998712
1478.01 829.0274 2204.6191 5393469
1484.2772 825.25024 2194.5747 5459775
1487.3474 819.77667 2180.0188 4867894
1522.6555 832.01276 2212.5581 5854793
1525.9333 826.68744 2198.3965 5328707
1518.1665 815.51929 2168.697 4341302
1528.2303 814.03625 2164.7534 7237475
1526.6703 806.43787 2144.5471 1381134
1540.3036 806.92426 2145.8406 5789515
1546.0955 803.32849 2136.2783 5789257
1559.3376 803.63074 2137.082 5328706
1573.0282 804.15723 2138.4822 6446932
1591.4906 807.09528 2146.2954 7039071
1606.2026 808.09998 2148.9673 5394759
1631.016 814.13098 2165.0051 6512728
1643.5094 813.96619 2164.5671 6315604
1669.6306 820.50116 2181.9453 7170916
1680.7159 819.60345 2179.5581 6118740
1682.3817 814.16095 2165.085 5986385
1699.2222 816.08875 2170.2114 7038816
1725.0128 822.25385 2186.6062 5328455
1725.1403 816.18536 2170.4685 7170401
1744.5426 819.25867 2178.6411 6644314
1756.5042 818.81793 2177.4692 5394246
1792.3849 829.4527 2205.75 6644313
1804.8784 829.18915 2205.0491 5920332
1805.5696 823.54602 2190.0425 5394501
1813.0455 821.05603 2183.4209 4078638
1837.9591 826.44226 2197.7444 4999477
1829.8735 817.01886 2172.6848 6249029
1838.1055 814.96173 2167.2146 6051650
1854.6355 816.58685 2171.5361 4340523
1852.6198 810.08026 2154.2332 4801075
1872.8762 813.33478 2162.8879 4735027
1902.292 820.49573 2181.9309 3485475
1909.9598 818.24292 2175.9402 2499353
1876.649 798.58258 2123.6575 5459781
1906.4371 805.85602 2142.9998 6249811
1900.17 797.89337 2121.825 4144178
1898.4413 791.92865 2105.9629 4999232
1928.5183 799.22284 2125.3604 6578521
1943.2775 800.11554 2127.7341 6644571
1944.2321 795.34943 2115.0598 5065281
1946.4095 791.14154 2103.8699 5394247
1963.7253 793.10107 2109.0808 8223346
1972.442 791.58502 2105.0491 6315348
1993.0652 794.83612 2113.6948 6117711
2028.3405 803.85352 2137.6746 4341300
2025.6139 797.79187 2121.5549 5657159
0 0 0 0
0 0 0 0
0 0 0 0
0 0 0 0
0 0 0 0
0 0 0 0
0 0 0 0
0 0 0 0
0 0 0 0
0 0 0 0
-2120.0422 924.61212 2420.6702 789515
-2111.2842 927.06348 2427.0879 263171
-2097.9741 927.53583 2428.3247 1710616
-2087.7737 929.39917 2433.2029 1776409
-2087.7822 935.86444 2450.1294 987406
-2064.8508 932.06543 2440.1833 0
-2030.2538 922.90985 2416.2136 394756
-2012.2351 921.21387 2411.7734 256
-1973.0695 909.74323 2381.7429 723979
-1881.7606 873.89203 2287.8831 2895405
-1865.6931 872.71619 2284.8047 257
-1875.3086 883.62476 2313.3638 263431
-1857.2212 881.54456 2307.9177 526602
-1849.7634 884.5163 2315.698 0
-1824.1052 878.76453 2300.6394 921100
-1814.6077 880.77008 2305.8901 3158314
-1826.2634 893.15137 2338.3047 3224105
-1831.6508 902.63281 2363.1274 4803134
-1822.4519 905.01685 2369.3689 3881775
-1801.9197 901.76617 2360.8586 2697244
-1776.9541 896.22852 2346.3608 2565401
-1764.4572 896.94202 2348.2288 3486503
-1742.8015 892.974 2337.8403 2959902
-1736.2198 896.72791 2347.6682 7236442
-1738.4471 905.12885 2369.6624 4407342
-1721.7484 903.73248 2366.0066 5723200
-1718.5577 909.46155 2381.0056 3880997
-1705.4736 910.00677 2382.4329 4209448
-1680.8287 904.34082 2367.5991 4011812
-1655.1331 898.00946 2351.0234 5393463
-1644.1259 899.60767 2355.2075 5525559
-1613.4946 890.40363 2331.1111 4538408
-1604.7244 893.20892 2338.4553 4538150
-1588.6714 891.97388 2335.2222 4208927
-1576.2123 892.75287 2337.2615 4801065
-1543.8324 882.16266 2309.5359 4932907
-1554.6321 896.27704 2346.4878 4012063
-1530.2572 890.18414 2330.5364 5327924
-1528.3304 897.1579 2348.7939 7762524
-1506.5164 892.47821 2336.5425 6184007
-1500.3641 897.07605 2348.5798 3815460
-1490.9401 899.78546 2355.6731 3551516
-1460.217 889.57068 2328.9304 4736047
-1431.903 880.64252 2305.5562 4998958
-1444.1664 896.73859 2347.696 5723452
-1426.2727 894.23981 2341.1543 5328952
-1381.4562 874.64618 2289.8574 6644556
-1360.1993 869.72827 2276.9822 5987139
-1352.019 873.15698 2285.9587 5592128
-1335.7776 871.39636 2281.3494 6381646
-1318.4043 868.85388 2274.6929 7433824
-1308.4042 871.16803 2280.7515 5920840
-1301.541 875.64099 2292.4619 1710352
-1309.533 890.30774 2330.8599 3354915
-1294.5282 889.48584 2328.7083 2368023
-1279.3663 888.53705 2326.2241 4275757
-1275.218 895.29999 2343.9299 5131065
-1248.8369 886.43085 2320.7102 3946533
-1251.4327 898.16119 2351.4207 4736306
-1230.9174 893.38184 2338.9082 4802356
-1221.2272 896.43994 2346.9143 6315085
-1198.8215 890.1272 2330.3875 5723462
-1187.248 891.80402 2334.7773 7170909
-1184.4301 900.1745 2356.6917 6447185
-1154.7537 888.08875 2325.0505 5723463
-1148.382 893.85052 2340.135 5525829
-1115.999 879.25958 2301.9355 4539190
-1107.0577 883.00507 2311.7415 5789258
-1106.4663 893.58777 2339.4473 5789514
-1095.7432 896.15277 2346.1626 4670778
-1081.1586 895.58502 2344.676 4737082
-1054.4974 884.86871 2316.6204 7105888
-1051.3677 893.87616 2340.2021 4276539
-1040.0165 896.04089 2345.8696 7566187
-1013.0145 884.5976 2315.9106 6053205
-1010.9963 894.9563 2343.03 5395274
-986.70331 885.61072 2318.563 5987154
-982.36389 894.16327 2340.9541 8947580
-951.53949 878.50867 2299.9697 5986637
-940.64819 881.0697 2306.6746 6184014
-926.22137 880.34583 2304.7795 6841946
-906.69531 874.68115 2289.9492 7039323
-887.35608 869.02734 2275.1472 5657670
-853.21411 848.47852 2221.3496 5920842
-848.97449 857.48822 2244.9373 6842457
-839.21606 861.12177 2254.45 7895400
-822.43341 857.54871 2245.0955 6645593
-818.75946 867.75116 2271.8059 5262912
-804.2359 866.6037 2268.802 5065532
-787.33496 862.81201 2258.875 4933944
-777.01306 866.22351 2267.8066 3881001
-771.46051 875.16559 2291.2173 5131324
-754.29926 871.02277 2280.3713 4999738
-741.84949 872.26874 2283.6333 6052425
-734.60608 879.79645 2303.3411 6841941
-724.61499 884.25592 2315.0161 5394750
-703.23657 874.72339 2290.0596 6841687
-688.97772 873.8457 2287.7617 6578779
-679.13831 878.65039 2300.3408 4144947
-664.91583 877.8653 2298.2852 7632230
-651.65375 878.34167 2299.5325 6645080
-632.39197 870.57904 2279.2095 6908255
-617.04144 867.97961 2272.4041 8026734
-601.15515 864.49365 2263.2778 7039839
-578.82776 851.37463 2228.9316 5066048
-545.96448 821.78461 2151.4639 7631976
-540.7652 833.41504 2181.9128 5197631
-539.77716 852.26447 2231.2612 6513491
-526.31873 851.87604 2230.2444 6644818
-515.34314 855.5899 2239.9673 4736818
-507.18896 864.30798 2262.7915 5066038
-496.18008 868.50256 2273.7732 5789249
-480.51108 864.54669 2263.4165 6249545
-463.89627 858.61304 2247.8821 6578514
-458.54071 873.78412 2287.6006 4407857
-439.99857 863.9859 2261.9485 5592133
-421.62302 853.90967 2235.5684 7303265
-402.6524 841.93549 2204.2195 5789770
-395.61932 854.95618 2238.3083 8289648
-380.95688 851.82098 2230.1001 5329219
-366.61624 849.20569 2223.2534 6841688
-351.97672 845.67749 2214.0164 5657670
-338.64407 845.13763 2212.603 4539189
-318.65485 827.27295 2165.8325 6184014
-309.20828 836.42773 2189.8 8552563
-300.29926 847.90222 2219.8406 6973788
-286.51358 846.02753 2214.9329 8355441
-273.17578 845.35895 2213.1824 7105630
-254.29686 826.61127 2164.1001 7894888
-243.3562 833.04663 2180.9482 7434080
-231.89551 838.32373 2194.7639 7499872
-218.92329 838.4389 2195.0654 7763044
-204.64194 833.2381 2181.4495 7105115
-191.48747 832.23383 2178.8203 6907736
-177.22122 825.90326 2162.2466 7104859
-164.54169 826.55676 2163.9575 8157803
-152.65398 831.63446 2177.2512 7039323
-138.83383 826.15027 2162.8933 7434083
-126.04839 826.33405 2163.3745 7697512
-115.05485 839.63605 2198.1997 9079423
-100.16479 824.26886 2157.9678 7434598
-86.430969 815.31183 2134.5178 9013630
-74.464111 822.80914 2154.146 4605500
-63.321438 844.39838 2210.6675 6250068
-50.212296 844.18579 2210.1108 6776155
-36.528061 830.74396 2174.9197 7301986
-23.559923 827.81281 2167.2458 8157550
-10.788377 833.04102 2180.9336 4868413
2.1494594 839.87598 2198.8276 7961201
15.168282 839.45917 2197.7366 7829616
28.055838 835.51825 2187.4189 5658189
41.109558 837.45258 2192.4832 5855568
54.612076 845.40558 2213.3044 4671546
67.661301 844.62048 2211.249 6974305
79.582153 832.28937 2178.9656 8289909
92.32119 830.7627 2174.9688 6974306
107.09337 845.66479 2213.9832 5460549
119.68192 841.95325 2204.2661 4276276
133.17099 844.68384 2211.415 5065790
146.98021 848.77405 2222.1233 5329225
160.48051 850.55457 2226.7847 7631980
172.56512 845.13135 2212.5864 6316119
184.56212 840.07489 2199.3486 3224109
201.42342 856.36633 2242.0002 6776670
212.95866 849.39899 2223.7593 6579292
223.89981 841.01166 2201.801 7434600
237.89487 844.38757 2210.6392 4473915
247.13361 831.40979 2176.6628 7960431
259.05441 828.29474 2168.5076 9144705
276.71967 842.97345 2206.937 5591885
285.93704 831.75385 2177.5637 7499879
301.4769 839.10028 2196.7969 8618360
312.42978 833.60022 2182.3975 8355190
324.33472 830.97632 2175.5281 5262918
338.12421 833.19696 2181.3418 4802623
356.19406 845.41339 2213.325 8158579
364.80176 835.10162 2186.3284 8092528
375.54236 830.21228 2173.5278 8750461
391.06656 835.87158 2188.344 7697775
404.4827 836.8064 2190.7915 7894898
419.71295 841.31964 2202.6074 6184279
435.91867 847.45703 2218.6753 4802626
446.80365 843.19403 2207.5144 9934735
453.60001 831.67694 2177.3623 9737356
473.10071 843.44617 2208.1746 7237222
482.85782 837.67847 2193.0745 6250072
499.30847 843.52094 2208.3704 7434860
511.35474 841.81439 2203.9026 5526605
522.36823 838.5351 2195.3171 8290166
537.83386 842.38824 2205.4048 6513755
545.94543 834.81329 2185.5735 6645085
563.61481 841.86578 2204.0371 7039843
576.17944 841.14673 2202.1545 8750461
584.42596 834.2951 2184.2168 7434858
600.29749 838.38965 2194.9365 7697773
602.55786 823.70398 2156.4888 8223345
618.93744 828.52838 2169.1194 6512727
640.14093 839.48279 2197.7983 7499621
659.57538 847.72668 2219.3811 5789004
669.38611 843.52112 2208.3708 6052176
680.81067 841.47156 2203.0049 5460809
692.19708 839.45258 2197.7192 6052949
694.90668 827.17993 2165.5889 8158324
705.32294 824.35944 2158.2048 8026227
715.12317 820.93225 2149.2324 7698032
714.97888 806.40875 2111.2092 6842723
721.59924 799.8833 2094.1252 7369321
741.41089 807.95349 2115.2534 8224631
