# .PCD v0.7 - Point Cloud Data file format
VERSION 0.7
FIELDS x y z rgb
SIZE 4 4 4 4
TYPE F F F U
COUNT 1 1 1 1
WIDTH 1308
HEIGHT 1
VIEWPOINT 0 0 0 1 0 0 0
POINTS 1308
DATA ascii
4596.0815 276.69928 6248.228 9150151
4630.5483 276.54706 6244.7905 9150151
4679.6357 277.26346 6260.9678 9084101
4728.8687 277.97717 6277.0845 9149894
4767.5322 278.06332 6279.0298 9084358
4790.2939 277.22784 6260.1636 9084357
4835.4424 277.6908 6270.6177 9018565
4854.1772 276.64139 6246.9209 8952771
4865.231 275.1734 6213.772 8953025
4563.8726 256.19043 5785.1118 8953025
4589.2832 255.69672 5773.9629 8953026
5046.6196 279.09741 6302.3809 8887232
5104.0356 280.19974 6327.2725 8887232
5154.5439 280.90948 6343.3003 8886975
5344.645 289.16141 6529.6392 8886975
5170.3276 277.72025 6271.2827 8821439
5402.3374 288.11221 6505.9463 8821438
5377.6445 284.76364 6430.332 8886975
5366.1821 282.15793 6371.4907 8886717
5244.9067 273.85483 6183.9966 8821436
5364.3823 278.15021 6280.9917 8886459
5441.541 280.20734 6327.4443 8820924
5420.6763 277.22321 6260.0591 8886203
5542.5908 281.53204 6357.3574 8754872
5760.9243 290.64713 6563.1885 8096429
5800.8813 290.70102 6564.4053 7569314
5871.1738 292.26428 6599.7056 7042713
6122.6729 302.76755 6836.8828 6385040
0 0 0 0
6327.5972 308.81528 6973.4487 4344430
6255.2549 303.30441 6849.0063 3291743
6218.27 299.56793 6764.6313 1843007
6377.0161 305.24835 6892.9028 1317438
6245.5127 297.05148 6707.8071 1449281
6411.2222 303.0051 6842.2476 1646916
6539.0723 307.10583 6934.8472 1778502
6618.4048 308.89099 6975.1582 1712710
6659.7271 308.89099 6975.1582 1646917
0 0 0 0
0 0 0 0
0 0 0 0
0 0 0 0
-5668.3213 312.28162 6219.6753 6901577
-5817.0879 322.57437 6424.6753 7361616
-5868.7446 327.58228 6524.4165 8348768
-5873.6177 330.02786 6573.1255 8545890
-5822.8574 329.35931 6559.8101 8217439
-5968.3442 339.85672 6768.8857 8480611
-5822.917 333.81851 6648.623 8480608
-5763.2026 332.64532 6625.2568 8217947
-5705.0952 331.54938 6603.4292 8876129
-5618.6431 328.77972 6548.2661 10850428
-5569.9995 328.19928 6536.7061 9336927
-5654.4009 335.50504 6682.2134 7429439
-5679.6899 339.38159 6759.4224 7362616
-5596.4683 336.78329 6707.6724 8481100
-5473.916 331.76407 6607.7051 8548180
-5508.6431 336.27359 6697.521 3086611
-5585.7939 343.45709 6840.5938 6506821
-5659.2964 350.51959 6981.2568 7032649
-5615.9644 350.39648 6978.8047 7163723
-5567.0444 349.92029 6969.3203 7031879
-5459.8589 345.74731 6886.2075 7293769
-5355.6484 341.70132 6805.624 6965574
-5355.2358 344.26666 6856.7178 5386798
-5194.7217 336.50027 6702.0356 6307385
-5230.5195 341.42877 6800.1958 8544861
-5165.8345 339.82373 6768.2285 9926259
-5079.8965 336.78455 6707.6973 10584701
-5066.7173 338.5592 6743.043 10716546
-5198.978 350.15765 6974.0479 9466480
-4904.2441 332.95291 6631.3828 9072235
-4883.1577 334.19843 6656.1899 8742758
-4701.686 324.39828 6461.002 7756119
-4645.7617 323.17065 6436.5513 6966604
-4589.5649 321.90363 6411.3159 6505797
-4590.7427 324.67316 6466.4761 5782589
-4629.6914 330.18301 6576.2158 4795696
-4633.8955 333.28748 6638.0469 4204074
-4566.6548 331.26254 6597.7158 2756887
-4487.6602 328.34262 6539.5605 2560283
-4462.6177 329.35364 6559.6968 2234911
-4418.1157 328.93372 6551.333 3353394
-4554.209 342.07095 6812.9863 3353654
-4530.7783 343.35403 6838.541 5195604
-4570.8599 349.51682 6961.2847 4735310
-4512.1289 348.16718 6934.4038 5919585
-4567.9805 355.71545 7084.7422 6709615
-4498.103 353.52228 7041.0605 4143946
-4465.4414 354.24026 7055.3608 4605008
-4427.8765 354.57922 7062.1118 5921125
-4333.7441 350.35156 6977.9102 5592158
-4134.5059 337.46359 6721.2222 5328987
-4123.5527 339.8425 6768.6021 4605007
-4110.7456 342.11383 6813.8403 4210246
-4138.2075 347.81479 6927.3857 4144455
-4092.4836 347.41714 6919.4653 3617855
-4085.5542 350.33804 6977.6406 3617854
-3945.4915 341.78574 6807.3057 2894129
-3882.6543 339.81573 6768.0688 3288885
-3776.7058 333.99203 6652.0791 2827821
0 0 0 0
0 0 0 0
0 0 0 0
0 0 0 0
0 0 0 0
-1328.9585 125.37558 2497.0903 3355987
-1308.0427 124.79147 2485.4568 8163766
-1304.3145 125.85248 2506.5889 5860763
-1300.6664 126.94576 2528.3635 2569565
-1250.4657 123.46802 2459.0977 27
-1234.3484 123.31326 2456.0154 22
-1221.672 123.50267 2459.7878 394796
-1204.571 123.24397 2454.6353 9149397
-1212.5774 125.57913 2501.1445 790843
-1207.7957 126.63131 2522.1006 5860524
-1192.6584 126.61054 2521.687 4213893
-1190.4443 127.97854 2548.9331 8428751
-1196.8497 130.32022 2595.5723 528162
-1181.1443 130.28397 2594.8501 19
0 0 0 0
0 0 0 0
-2778.7371 318.95709 6352.6304 11586257
-3065.0908 356.65665 7103.4878 11388625
-3003.3394 354.33612 7057.27 11256525
-2969.4854 355.2879 7076.2266 11058633
-2930.5254 355.64728 7083.3838 11189451
-2885.135 355.22534 7074.9805 11057605
-2807.2273 350.72836 6985.4146 8951446
-2768.5942 351.07709 6992.3599 7568762
-2717.0383 349.7728 6966.3828 7567732
-2572.3882 336.25916 6697.2334 8159354
-2517.7949 334.27859 6657.7871 7764595
-2497.9705 336.92468 6710.4883 7961719
-2458.2163 336.92468 6710.4883 7896182
-2456.9111 342.28122 6817.1738 8224889
-2425.3005 343.52426 6841.9316 8488060
-2353.5845 339.03235 6752.4668 8948612
-2304.3975 337.68658 6725.6631 9014403
-2278.842 339.81732 6768.1006 8290167
-2203.7639 334.50739 6662.3433 8093042
-2143.0435 331.22281 6596.9253 8224374
-2128.2507 335.04657 6673.0825 8158835
-2077.4358 333.23688 6637.0386 8356213
-2028.8696 331.72498 6606.9263 9277058
-1984.386 330.83426 6589.186 8290162
-1949.9298 331.61307 6604.6978 8487798
-1918.4445 332.93939 6631.1138 9211520
-1903.8394 337.31192 6718.2007 8355955
-1843.7462 333.63974 6645.0625 8290418
-1813.2028 335.27121 6677.5566 6908765
-1744.2634 329.71756 6566.9448 6974301
-1700.2081 328.72159 6547.1084 8422001
-1655.2017 327.49094 6522.5977 8553589
-1602.481 324.63867 6465.7896 7829866
-1576.5782 327.21268 6517.0557 7698281
-1550.0233 329.77713 6568.1318 7237218
-1502.7363 327.94925 6531.7256 7500390
-1449.5107 324.69446 6466.9004 9803658
-1421.0159 326.95303 6511.8848 8553591
-1380.0752 326.39423 6500.7549 7829868
-1336.4869 325.15924 6476.1572 7895661
-1327.1593 332.43292 6621.0269 8553335
-1260.2345 325.28311 6478.6245 8158576
-1238.8188 329.79959 6568.5791 7895661
-1192.3099 327.71204 6527.0015 8685176
-1163.3344 330.46518 6581.835 8159089
-1126.9597 331.23456 6597.1587 7171938
-1073.8126 326.95236 6511.8706 8093039
-1039.1815 328.19879 6536.6963 6842715
-1011.9534 331.97028 6611.8125 6447955
-955.06921 325.92517 6491.4126 6974299
-905.43756 321.9516 6412.271 8224366
-871.13251 323.31839 6439.4937 8948089
-831.66174 322.80536 6429.2759 7303264
-802.20862 326.31802 6499.2368 7566438
-771.35675 329.58719 6564.3486 8026989
-725.16797 326.30237 6498.9253 6974301
-674.41809 320.48181 6382.9976 6447701
-639.98413 322.18356 6416.8911 5921356
-585.42755 313.33026 6240.5615 4342068
-558.9231 319.30948 6359.6484 7171680
-525.37341 321.83719 6409.9927 6710874
-475.59375 314.0419 6254.7349 7566183
-441.02203 315.81985 6290.146 5592393
-399.67407 312.62555 6226.5254 5526344
-368.27499 317.35498 6320.7207 5591879
-327.02206 313.70248 6247.9751 6381910
-291.44757 315.26007 6278.9971 6381910
-256.10919 317.56619 6324.9277 6776670
-210.53972 305.80237 6090.6294 7303274
-163.66399 286.88278 5713.8101 7369071
-120.85597 267.08578 5319.5156 8
-88.456734 264.43942 5266.8081 329228
-57.230461 264.32623 5264.5537 24
-26.11227 265.03894 5278.7485 28
5.164124 265.23892 5282.7319 29
36.597507 266.23767 5302.6235 30
68.224648 267.07227 5319.2461 28
99.953728 267.65244 5330.8013 23
131.8138 268.22058 5342.1167 394768
164.73447 270.30899 5383.7119 6119278
192.14456 264.14444 5260.9331 3026995
228.44736 270.21936 5381.9268 5724748
291.16931 302.22891 6019.457 6184788
338.49689 313.01767 6234.3354 5263431
373.1011 311.07553 6195.6538 6908256
410.65964 311.72385 6208.5664 6250326
453.58102 316.00177 6293.7695 7171428
504.42624 324.7309 6467.626 7895150
539.45477 322.7641 6428.4541 5131329
572.05719 319.7009 6367.4443 4933692
609.45013 319.52829 6364.0063 6710358
649.79144 320.83151 6389.9629 3355176
697.35828 325.36243 6480.2046 5789775
727.28479 321.6196 6405.6592 6974050
735.61292 309.17047 6157.7109 7039844
806.00958 322.75189 6428.2109 7039842
851.48254 325.57791 6484.4961 7039843
872.82776 319.33249 6360.1069 5987155
922.51617 323.54456 6443.998 6776671
967.60785 325.87375 6490.3882 6381913
1009.5063 326.99057 6512.6318 7236965
1036.9452 323.51398 6443.3887 6710878
1077.1361 324.1214 6455.4873 6776927
1109.4548 322.39966 6421.1953 6710878
1152.1926 323.71936 6447.48 5592397
1194.0535 324.71591 6467.3276 6316120
1252.3169 329.97241 6572.021 7105636
1293.8617 330.63953 6585.3081 6381913
1318.3402 327.03409 6513.4985 6382170
1360.8419 327.97745 6532.2876 6776158
1379.4503 323.26935 6438.5171 7170659
1393.1525 317.6958 6327.5093 5591369
1433.9398 318.42902 6342.1123 6316118
1484.1423 321.16217 6396.5483 7368806
1511.3428 318.90561 6351.605 6645083
1504.4878 309.74728 6169.1997 7631978
1527.639 307.05463 6115.5698 7500392
1601.3101 314.40585 6261.9839 7368806
1620.4131 310.95282 6193.21 6250325
1657.0861 310.94962 6193.1465 7434599
1671.6049 306.87939 6112.0806 6250325
1736.5911 312.05038 6215.0698 6053203
1769.9911 311.44867 6203.0859 6052432
1825.0769 314.60971 6266.0439 5131588
1853.0712 313.06769 6235.3315 6053202
1842.0798 305.12827 6077.2031 5921617
1899.3003 308.57547 6145.8608 6710876
1943.8193 309.86826 6171.6089 6118225
2010.3684 314.56027 6265.0596 5394246
2050.1768 314.97397 6273.2988 5131073
2081.7905 314.13638 6256.6167 6249555
2123.5203 314.82788 6270.3892 5394503
2106.2327 306.89627 6112.4165 6579034
2177.6111 311.93381 6212.7485 7303271
2197.5088 309.55203 6165.311 6711137
2267.4587 314.18353 6257.5557 6842466
2282.0674 311.12109 6196.562 6710881
2300.6016 308.68243 6147.9912 6250586
2319.6628 306.38934 6102.3198 5987414
2415.7024 314.17819 6257.4492 6645344
2475.1204 317.04068 6314.4614 6579551
2490.5369 314.26569 6259.1919 6184793
2479.8145 308.32217 6140.8154 5658449
2543.2117 311.63278 6206.7524 6447966
2551.7515 308.22284 6138.8374 6842724
2624.5022 312.55576 6225.1353 6776931
2659.9424 312.38675 6221.7695 6842724
2677.5996 310.16248 6177.4688 7763826
2702.4988 308.82574 6150.8452 6250844
2769.3743 312.2576 6219.1968 6448223
2860.4861 318.29614 6339.4663 7303275
2920.9395 320.81094 6389.5532 7303274
2910.1931 315.54147 6284.6021 6513759
2978.9485 318.91635 6351.8188 5790292
2998.145 316.96759 6313.0054 5592658
3033.7131 316.77634 6309.1963 6382687
3032.5427 312.80023 6230.0049 6448225
3070.9556 312.95361 6233.0596 6514019
3107.7861 312.944 6232.8677 6250849
3133.4543 311.82379 6210.5571 6053468
3191.2185 313.88651 6251.6401 5724503
3227.5178 313.81488 6250.2134 5790296
3278.3264 315.13962 6276.5981 5922140
3266.7273 310.50275 6184.2461 5198161
3388.0957 318.46716 6342.8726 6448485
3521.5056 327.37634 6520.3149 6843502
3460.031 318.1713 6336.9795 6053986
3576.8594 325.38391 6480.6323 5988449
3641.5894 327.75436 6527.8442 7435639
3553.0281 316.42328 6302.1641 6317157
3662.5659 322.78653 6428.9009 6251877
3744.4963 326.61084 6505.0688 6317931
3677.7383 317.52005 6324.0088 7963790
3671.0442 313.74603 6248.8418 8754343
3684.8225 311.77954 6209.6753 9280952
3690.3013 309.15662 6157.4355 9413314
3739.2224 310.18884 6177.9941 9281732
3710.8713 304.85303 6071.7212 9479112
3750.8936 305.18271 6078.2876 9479114
3775.8833 304.29468 6060.6006 9413321
3801.8047 303.49777 6044.7285 9347530
3839.8228 303.67233 6048.2056 9281993
3867.2783 303.01608 6035.1353 9347529
3884.2361 301.55685 6006.0718 9215944
3909.6724 300.7764 5990.5273 9150150
3950.1489 301.15662 5998.1001 9084358
3996.1765 301.94949 6013.8921 8821185
4037.9641 302.41086 6023.0806 8755393
4054.6082 300.99753 5994.9316 8887234
4078.9001 300.1716 5978.4814 8953539
4123.0088 300.80566 5991.1104 9019333
4151.665 300.3111 5981.2603 9084869
4179.6704 299.77829 5970.6484 9149894
4211.9199 299.55624 5966.2261 9149895
4299.9961 303.27533 6040.2983 9150149
4362.8599 305.16949 6078.0239 9216197
4391.1304 304.63269 6067.333 9216197
4428.4507 304.72742 6069.2192 9150405
4460.5483 304.46411 6063.9751 9150405
4501.0796 304.77606 6070.188 9150405
4547.373 305.47012 6084.0117 9018565
4624.9722 308.23969 6139.1729 9018565
4655.9609 307.88385 6132.0854 8886979
4679.21 307.0257 6114.9941 8887233
4693.7314 305.61246 6086.8467 8886977
4744.4526 306.55978 6105.7144 8821440
4747.3462 304.42581 6063.2124 8887232
4747.9849 302.18036 6018.4902 8821439
4747.6289 299.90558 5973.1836 8821440
4959.3096 310.95959 6193.3452 8755646
5030.5952 313.11288 6236.2314 8821439
5081.7036 313.98801 6253.6611 8689853
5129.3701 314.63937 6266.6343 8755646
5126.8413 312.22443 6218.5366 8689853
5377.3462 325.14377 6475.8496 8689853
5278.9438 316.93271 6312.3105 8821440
5877.0474 350.35922 6978.0625 8755645
5224.5786 309.28683 6160.0288 8821694
5311.9272 312.27652 6219.5737 8820925
5094.9736 297.45895 5924.4546 8820924
5037.7964 292.10852 5817.8906 8689595
5037.3037 290.09528 5777.7925 8557753
5116.3423 292.65839 5828.8423 8557753
5287.4839 300.42023 5983.4336 8491960
5025.5483 283.63629 5649.1499 8557753
5382.8462 301.79202 6010.7554 8426166
5546.29 308.91208 6152.5645 8491444
0 0 0 0
0 0 0 0
0 0 0 0
0 0 0 0
0 0 0 0
6167.2529 330.46722 6581.876 5923717
6180.9619 329.12094 6555.0625 5067894
6260.6401 331.28223 6598.1084 3291739
6196.6484 325.86157 6490.146 1515071
0 0 0 0
0 0 0 0
0 0 0 0
0 0 0 0
-5714.1597 351.95166 6269.9717 6769480
-5775.3486 358.04797 6378.5767 6703687
-5791.9751 361.4437 6439.0708 6441028
-5822.498 365.75732 6515.918 6506822
-5766.2563 364.64182 6496.0454 6967116
-5644.7061 359.35367 6401.8374 6309186
-5638.9546 361.4158 6438.5742 6243904
-5560.7915 358.8334 6392.5688 7560018
-5425.8135 352.52417 6280.1709 8217946
-5456.4531 356.96262 6359.2412 7757905
-5440.9209 358.42114 6385.2251 8350042
-5445.0596 361.20505 6434.8198 8021077
-5487.0112 366.55426 6530.1152 8613215
-5478.6816 368.59656 6566.4985 8021079
-5452.8013 369.47888 6582.2168 7297358
-5282.5229 360.51907 6422.5991 4401443
-5364.1636 368.74686 6569.1758 5058605
-5510.2905 381.56024 6797.4448 6111294
-5544.9917 386.78983 6890.6089 6176576
-5565.0864 391.07053 6966.8691 6571336
-5485.353 388.34766 6918.3618 6110531
-5402.7388 385.37833 6865.4634 4994102
-5298.3447 380.79855 6783.8755 4468531
-5163.7681 373.96298 6662.1006 3548455
-5018.6333 366.25156 6524.7227 2758682
-4961.252 364.87427 6500.1865 1574922
-4937.4116 365.96149 6519.5552 2298392
-4926.4067 368.02475 6556.3115 4075320
-4934.7988 371.5813 6619.6709 3088939
-4814.7686 365.44739 6510.3965 4075835
-4738.541 362.56601 6459.0649 4208445
-4642.4482 358.10532 6379.5981 3813688
-4509.918 350.73767 6248.3447 3353649
-4518.1426 354.28522 6311.5435 2169377
-4558.8887 360.46338 6421.6069 1840669
-4533.4702 361.46994 6439.5391 3288115
-4412.4409 354.80554 6320.8135 3881023
-4420.7593 358.51697 6386.9316 4736332
-4318.751 353.26791 6293.4204 5328726
-4398.708 362.94153 6465.7549 3487037
-4383.1733 364.83682 6499.519 3091766
-4405.6836 369.96048 6590.7964 2894388
-4363.5425 369.69818 6586.1235 1184028
-4401.9121 376.31387 6703.9814 3684161
-4433.0845 382.42923 6812.9258 2433326
-4330.1035 376.9776 6715.8052 3815493
-4286.8374 376.67181 6710.3579 4275786
-4374.4541 387.96823 6911.6021 3486270
-4293.8711 384.41959 6848.3838 1841701
-4299.646 388.60846 6923.0078 196870
-4211.1938 384.2796 6845.8896 131336
-4082.428 376.15204 6701.0981 591628
-4039.3237 375.83517 6695.4536 1183254
-4011.7134 376.96796 6715.6338 1249306
-3984.0439 378.11783 6736.1182 2433580
-3971.5593 380.74667 6782.9512 2960439
-3889.3242 376.67407 6710.3984 3354940
-3779.6187 369.82941 6588.4614 2697010
0 0 0 0
0 0 0 0
0 0 0 0
0 0 0 0
0 0 0 0
0 0 0 0
0 0 0 0
-1319.7794 140.76772 2507.7581 9938886
-1291.4667 139.31615 2481.8984 10925007
-1278.1761 139.47029 2484.6448 3032667
-1242.2074 137.12465 2442.8574 537
-1235.7031 138.01457 2458.7112 29
-1219.8533 137.86946 2456.126 48
-1201.4214 137.42549 2448.2168 8295888
-1203.2034 139.31111 2481.8088 7637711
-1198.8842 140.52824 2503.4919 526420
-1187.5006 140.93744 2510.7815 7573704
-1207.996 145.18851 2586.5139 8034506
-1194.7776 145.44473 2591.0784 791847
-1184.6016 146.08279 2602.4456 275
0 0 0 0
0 0 0 0
-2999.0193 384.86005 6856.2305 10927562
-2949.7939 383.7403 6836.2822 10796235
-2941.356 387.96927 6911.6206 10598084
-2940.7041 393.35919 7007.6411 10136244
-2849.9146 386.67361 6888.5391 8095625
-2766.1841 380.76553 6783.2871 5857117
-2614.1707 365.14551 6505.0181 8225149
-2579.3809 365.67679 6514.4829 8290683
-2520.4272 362.74646 6462.2798 8159096
-2502.4246 365.71042 6515.0825 7698287
-2474.7773 367.33566 6544.0361 8224373
-2414.3271 364.06619 6485.7905 8026996
-2371.2371 363.3511 6473.0513 7961202
-2359.4824 367.49304 6546.8394 9408648
-2316.7878 366.87393 6535.8101 10001042
-2274.7236 366.33527 6526.2139 9277574
-2265.5369 371.16434 6612.2432 9145732
-2202.2593 367.14569 6540.6514 9145730
-2115.7429 359.03955 6396.2412 8882558
-2060.0828 355.96942 6341.5479 8553593
-2010.5311 353.86041 6303.9756 8093040
-1994.876 357.75034 6373.2744 7895661
-1941.9231 354.97256 6323.7886 8158833
-1925.8784 358.96484 6394.9106 8027246
-1876.7853 356.83377 6356.9463 7698281
-1852.1244 359.35593 6401.8779 6184785
-1801.8688 356.91373 6358.3701 6974300
-1755.6268 355.17923 6327.4707 7369057
-1729.8798 357.6058 6370.6997 7369057
-1674.9832 353.98038 6306.1128 6776922
-1630.5994 352.46188 6279.0615 8026989
-1612.4901 356.68448 6354.2861 8619125
-1575.8956 356.92221 6358.5215 9013884
-1489.0889 345.5206 6155.4033 7961196
-1495.8854 355.811 6338.7256 8224370
-1449.1685 353.57489 6298.8896 8356212
-1407.4398 352.46988 6279.2036 8224626
-1328.6322 341.76691 6088.5317 9540486
-1293.3088 341.96426 6092.0479 8816763
-1257.3859 342.00992 6092.8608 7961196
-1253.4354 351.01175 6253.2275 6777175
-1202.7103 347.0643 6182.9038 6316111
-1172.2233 348.89233 6215.4702 8619126
-1148.545 352.93115 6287.4214 8750457
-1073.3409 340.87689 6072.6763 7763562
-1057.287 347.42325 6189.2988 6118738
-1019.4158 347.01324 6181.9946 4803389
-978.25812 345.41232 6153.4741 7237218
-950.75989 348.69708 6211.9922 6842715
-906.8316 345.97794 6163.5508 7040094
-886.04266 352.22925 6274.917 6974301
-834.5553 346.29007 6169.1113 7039580
-791.49237 343.46262 6118.7407 5789255
-763.29669 347.12497 6183.9849 6184012
-725.85339 346.73898 6177.1089 6184013
-703.04565 353.67462 6300.666 6644307
-667.62677 354.68811 6318.7217 5000253
-607.45862 341.89252 6090.7695 5724490
-572.51514 342.57443 6102.9175 6974301
-536.06488 342.38589 6099.5591 6710873
-503.31161 344.70203 6140.8208 7303010
-462.16119 341.18011 6078.0781 6974047
-424.31754 339.71039 6051.895 5591879
-387.03973 338.4642 6029.6948 4473397
-354.55783 341.58508 6085.2925 4802106
-320.32788 343.53769 6120.0781 6907996
-281.85052 340.85223 6072.2368 7632234
-245.50862 340.34122 6063.1333 8158579
-201.19214 326.70557 5820.2163 7895923
-170.13158 333.40723 5939.6055 8225147
-118.64474 293.13647 5222.187 272
-88.817146 296.84576 5288.2676 6977429
-56.112644 289.74271 5161.7275 283
-26.089607 296.05426 5274.167 28
5.1582942 296.20029 5276.7686 32
36.429222 296.2829 5278.2402 197667
67.040245 293.40112 5226.9019 1908807
98.94783 296.22192 5277.1538 7434360
130.79483 297.55038 5300.8203 8027543
160.17778 293.84412 5234.7939 10263478
190.03015 292.06171 5203.0405 10199231
218.80095 289.34656 5154.6699 9543078
285.44931 331.25171 5901.2051 7435117
320.28555 331.12372 5898.9248 6579550
364.724 339.97141 6056.5449 4803138
403.43274 342.3717 6099.3062 6974305
437.29999 340.60645 6067.8584 8290164
474.08249 341.20749 6078.5659 7566186
514.26831 344.00024 6128.3184 6645083
551.50732 344.58347 6138.708 7039841
582.09027 341.19305 6078.3086 7171427
633.06696 349.45511 6225.4961 7631979
665.54419 347.15796 6184.5723 7434601
681.65692 337.00989 6003.7861 6645085
720.10101 338.36136 6027.8628 7039843
758.02625 339.35291 6045.5269 7961202
804.78455 344.03098 6128.8657 7829617
835.83276 341.87924 6090.5327 7237479
873.61548 342.5462 6102.415 6579290
901.90356 339.58527 6049.666 6579290
943.91718 341.82101 6089.4961 6776671
985.4635 343.72925 6123.4907 6974307
1011.4311 340.26105 6061.7051 5790032
1049.6686 341.01688 6075.1704 7039843
1085.6018 340.99884 6074.8486 6974307
1112.2491 338.15875 6024.2529 7434601
1153.1924 339.70651 6051.8262 7039843
1182.6323 337.87451 6019.189 6184534
1225.7297 339.93744 6055.9399 6579291
1259.4828 339.3652 6045.7456 6052948
1308.2562 342.75992 6106.2222 6645085
1347.2036 343.46686 6118.8159 5789776
1377.0927 341.88776 6090.6851 6513499
1411.8674 341.57141 6085.0488 7237221
1452.7738 342.71719 6105.4614 6579291
1472.6808 338.97385 6038.7739 7960943
1507.1404 338.67825 6033.5078 7105634
1499.0426 329.05457 5862.0635 7368806
1576.9194 338.31168 6026.9775 6645083
1600.7103 335.81216 5982.4492 6250325
1641.4406 336.89771 6001.7876 6052946
1681.3079 337.76382 6017.2173 5921617
1709.6375 336.32428 5991.5718 7171683
1745.4854 336.39215 5992.7812 6776923
1733.3771 327.39944 5832.5776 6447444
1783.8452 330.34665 5885.0815 7105632
1843.9261 334.92691 5966.6782 6315603
1898.9902 338.44073 6029.2764 5723468
1932.7791 338.10312 6023.2617 6907485
1938.7021 332.99152 5932.1997 6578263
1948.8815 328.78 5857.1719 5196865
2023.8798 335.45959 5976.168 4670264
2031.3676 330.91199 5895.1528 5262658
2086.2246 334.10419 5952.0215 6118224
2101.8206 331.0072 5896.8491 6512727
2069.5312 320.59351 5711.3306 6118227
2204.2778 335.97433 5985.3379 6381914
2220.917 333.15137 5935.0469 7500394
2205.1255 325.62732 5801.0073 6118740
2303.2449 334.89716 5966.1479 5723980
2299.1511 329.24936 5865.5332 5329224
2397.0266 338.15485 6024.1831 7631978
2417.3521 336.01929 5986.1387 5789774
2448.1794 335.38419 5974.8247 5657673
2459.3555 332.11349 5916.5576 5394245
2464.6179 328.14734 5845.9009 6117971
2575.1411 338.11169 6023.4146 5921362
2578.749 333.95767 5949.4116 5789520
2618.4583 334.52792 5959.5703 5328971
2606.2358 328.53662 5852.8359 6315866
2671.1367 332.29697 5919.8262 6513245
2756.4062 338.46097 6029.6372 6776674
2782.3374 337.27429 6008.4961 7040103
2827.363 338.40292 6028.603 6579552
2907.9849 343.71075 6123.1611 5592913
2968.4338 346.53278 6173.4351 6382172
2938.0491 338.81137 6035.8789 6777190
2954.0784 336.56363 5995.8359 6974569
3029.0798 341.0083 6075.0171 7369329
3004.3809 334.25629 5954.731 6316641
3068.8169 337.46277 6011.854 7501172
3107.6218 337.80942 6018.0298 7171948
3109.5476 334.18481 5953.458 6316639
3204.4587 340.52264 6066.3657 5987674
3248.9333 341.41971 6082.3467 6053467
3264.7351 339.31696 6044.8862 6777192
3316.9983 341.00833 6075.0176 7566708
3315.8042 337.22659 6007.647 7895416
3440.8779 346.23065 6168.0527 5724504
3443.2163 342.82526 6107.3862 5856090
3503.4707 345.19717 6149.6416 7106157
3532.6128 344.48627 6136.9771 7238256
3507.5107 338.55411 6031.2964 7698553
3540.1133 338.25519 6025.9712 7501430
3602.0183 340.73416 6070.1338 5330007
3677.0237 344.39105 6135.2808 4344139
3696.853 342.85919 6107.9907 6383984
3677.6426 337.77139 6017.3525 8359070
3653.728 332.35345 5920.832 8754864
3674.7109 331.08362 5898.2104 9019068
3691.134 329.43079 5868.7656 9479369
3699.7029 327.11438 5827.499 9479370
3748.4705 328.36215 5849.728 9413578
3768.0615 327.05466 5826.4351 9479369
3803.5754 327.14035 5827.9619 9282246
3806.396 324.43796 5779.8188 8755393
3855.6099 325.70279 5802.3516 8820929
3886.1614 325.38272 5796.6494 9084357
3909.1699 324.4422 5779.8945 9018565
3945.5986 324.62216 5783.1006 8952772
3983.062 324.88342 5787.7544 8952771
4017.3508 324.88348 5787.7559 8887235
4050.9551 324.82864 5786.7793 8886978
4099.9448 325.99808 5807.6123 9018821
4165.6299 328.46451 5851.5513 9215944
4205.1025 328.84036 5858.2476 9216199
4252.606 329.83298 5875.9307 9281735
4291.6548 330.15909 5881.7402 9150407
4330.4839 330.4631 5887.1562 9281736
4365.9072 330.50452 5887.8936 9216200
4404.021 330.74725 5892.2183 9216200
4478.0898 333.66525 5944.2021 9150151
4514.5195 333.75507 5945.8018 9150407
4541.1636 333.12564 5934.5889 9281736
4557.2725 331.73901 5909.8862 9281736
4579.9897 330.85089 5894.0645 9281737
4592.1025 329.21597 5864.9385 9281992
4593.7334 326.85977 5822.9629 9150406
4619.7759 326.2627 5812.3262 9216199
4751.0107 333.04852 5933.2148 9216198
4813.7266 334.96677 5967.3882 9216198
4882.9502 337.30655 6009.0708 9150405
4922.3667 337.5683 6013.7344 9150149
4956.5171 337.4678 6011.9438 9084611
5061.2231 342.13831 6095.1479 9018819
5097.6836 342.16187 6095.5684 9018819
5221.4443 348.00357 6199.6372 9084610
5096.0952 337.27679 6008.541 9084610
4935.001 324.34949 5778.2427 9084353
4915.6895 320.85461 5715.9819 9018305
4808.5259 311.71259 5553.1182 9018304
4873.4702 313.77588 5589.8755 9149890
4901.5591 313.45441 5584.1484 9018304
4756.7046 302.1517 5382.792 9018306
4772.8008 301.15518 5365.0396 9018049
4889.1421 306.45535 5459.4609 9018306
4883.7612 304.10632 5417.6133 8952768
0 0 0 0
0 0 0 0
0 0 0 0
0 0 0 0
0 0 0 0
0 0 0 0
0 0 0 0
0 0 0 0
0 0 0 0
0 0 0 0
0 0 0 0
0 0 0 0
0 0 0 0
-5537.6377 377.07645 6076.2803 6571592
-5569.5786 381.73285 6151.3145 6703435
-5514.9155 380.47574 6131.0571 6967122
-5489.4482 381.22955 6143.2041 6440523
-5476.1245 382.84241 6169.1938 6046795
-5447.6494 383.41055 6178.3491 5586758
-5351.1777 379.16837 6109.9897 5060159
-5327.4951 380.06116 6124.3765 3482158
-5325.7773 382.54388 6164.3833 2823971
-5247.1216 379.49634 6115.2749 2034966
-5201.6567 378.82364 6104.4351 1706776
-5178.2241 379.75739 6119.4814 1510931
-5151.5659 380.46603 6130.9004 3090221
-5216.7202 388.01358 6252.5234 2235425
-5223.5234 391.29807 6305.4497 4537924
-5104.375 385.12671 6206.0034 5130323
-5020.0273 381.51059 6147.7329 4341065
-5132.0063 392.871 6330.7964 2630703
-5088.8901 392.43832 6323.8242 2893622
-5133.418 398.80814 6426.4683 2564913
-5143.7163 402.59402 6487.4751 3025721
-5108.0591 402.81296 6491.0029 2960183
-5072.9912 403.082 6495.3384 2696752
-4967.1455 397.68845 6408.4258 2762800
-4939.8818 398.55182 6422.3379 2763056
-4926.5415 400.56067 6454.7095 2367783
-4946.9775 405.36865 6532.186 3354679
-4863.1108 401.63824 6472.0737 3156785
-4815.1162 400.83472 6459.1255 2235683
-4798.1362 402.62079 6487.9062 2697004
-4683.686 396.19083 6384.2925 3092018
-4721.9736 402.68127 6488.8809 2499370
-4701.9561 404.26532 6514.4067 4209988
-4598.4219 398.63559 6423.688 4999250
-4519.5796 395.07031 6366.2363 4868433
-4429.6782 390.47015 6292.1089 4276296
-4467.394 397.13666 6399.5342 4473676
-4473.499 401.08313 6463.1284 3092022
-4410.1206 398.81427 6426.5674 3486780
-4330.5381 395.02774 6365.5508 3749952
-4325.4048 398.02551 6413.8579 4539469
-4274.2012 396.79953 6394.1016 4078919
-4343.4019 406.82935 6555.7241 2697012
-4236.9673 400.44067 6452.7759 3354942
-4248.1973 405.15756 6528.7847 2762806
-4185.2368 402.82043 6491.1235 1447453
-4089.0947 397.21664 6400.8228 2236462
-4038.2041 395.94489 6380.3296 3683907
-4066.9136 402.52756 6486.4043 3354943
-4096.5913 409.33264 6596.0625 3025976
-4069.5735 410.54916 6615.6655 3091771
-4044.4404 411.98129 6638.7437 3947079
-4032.458 414.79428 6684.0728 4802389
-3942.0386 409.51477 6598.9976 2368046
-3999.8435 419.68185 6762.8315 2697266
-3902.9983 413.66391 6665.8574 2894646
-3781.6946 404.90414 6524.7012 2762802
-3627.4177 392.39664 6323.1523 2762804
0 0 0 0
0 0 0 0
0 0 0 0
0 0 0 0
0 0 0 0
0 0 0 0
0 0 0 0
-1316.7394 155.26578 2501.9817 10665164
-1292.7104 154.1678 2484.2888 9876419
-1274.7996 153.78256 2478.0811 5862542
-1234.3665 150.63979 2427.4377 538
-1235.6382 152.57249 2458.5818 27
-1222.0245 152.69141 2460.4978 47
-1190.5762 150.55783 2426.1169 8557776
-1199.4999 153.53986 2474.1699 7900367
-1195.8942 154.97203 2497.2483 461900
-1175.1726 154.19431 2484.7158 7703746
-1208.5718 160.58812 2587.7468 7442884
-1178.3977 158.59042 2555.5557 791591
-1181.9099 161.1333 2596.532 21
0 0 0 0
0 0 0 0
-2869.9014 407.15961 6561.0464 10137535
-2846.158 409.33502 6596.1011 10399421
-2776.0566 404.81094 6523.1992 8884889
-2731.0845 403.87527 6508.1216 6778219
-2588.0652 388.2059 6255.6221 8224890
-2571.2451 391.28589 6305.2539 7171688
-2557.9692 395.00403 6365.1685 8026996
-2493.3865 390.79199 6297.2954 8290680
-2446.8174 389.31827 6273.5469 8159094
-2410.6301 389.47635 6276.0947 8158837
-2372.9424 389.39319 6274.7544 8619643
-2374.8367 395.90604 6379.7041 8817023
-2282.5171 386.66934 6230.8618 9211782
-2238.845 385.50546 6212.1069 9408905
-2256.6133 395.05893 6366.0532 9145729
-2153.8623 383.47955 6179.4609 7895663
-2098.2966 380.04602 6124.1328 8487799
-2124.9036 391.63672 6310.9067 9079937
-2052.1536 385.00238 6204 8158319
-1999.3988 381.94571 6154.7441 7566183
-1936.6874 376.83813 6072.4399 7434853
-1883.4335 373.41229 6017.2354 7303265
-1860.0204 375.8847 6057.0762 8158572
-1828.0342 376.68777 6070.0171 5921612
-1762.1615 370.40027 5968.6992 5921610
-1731.255 371.35553 5984.0923 7961196
-1701.5022 372.60339 6004.2007 8026988
-1688.4106 377.63095 6085.2158 8356210
-1656.1902 378.50626 6099.3203 7171678
-1617.4938 377.90747 6089.6714 7434852
-1582.4891 378.16367 6093.7998 7961195
-1528.4093 373.767 6022.9512 9606021
-1507.2095 377.39304 6081.3818 8355442
-1471.2931 377.42157 6081.8413 8092527
-1423.9489 374.44638 6033.8989 8816507
-1366.196 368.51047 5938.2461 9935244
-1329.0958 367.97867 5929.6768 9277570
-1299.42 369.52939 5954.6655 9672072
-1247.4174 364.64014 5875.8789 7237731
-1243.8918 374.04761 6027.4731 7369316
-1208.0436 374.00421 6026.7739 6711387
-1163.7125 371.25198 5982.4238 8224369
-1136.0549 373.8132 6023.6953 7434597
-1098.1237 373.05029 6011.4019 6974046
-1047.0446 367.62009 5923.8984 6710874
-1004.6121 364.95438 5880.9429 5395014
-982.39099 369.70325 5957.4673 7697768
-932.63611 364.05814 5866.501 6513494
-897.78345 364.01834 5865.8594 5526855
-869.21759 366.62701 5907.896 6645335
-825.78186 362.91953 5848.1528 6512980
-815.9519 374.30331 6031.5938 7105116
-779.18829 373.80865 6023.6226 6907738
-733.57196 368.8157 5943.165 5789256
-698.47552 368.87494 5944.1196 5460548
-665.27814 369.99664 5962.1948 5854792
-634.57654 372.71002 6005.9189 6315598
-593.11768 369.05234 5946.978 6775893
-555.612 367.54776 5922.7334 4999482
-516.81342 364.9274 5880.5078 5263426
-491.45465 372.10416 5996.1558 7434852
-456.23184 372.34882 6000.0981 7829611
-415.57031 367.82098 5927.1362 6184525
-383.8544 371.10596 5980.0708 5131839
-349.4418 372.18668 5997.4858 4934721
-312.31256 370.29114 5966.9404 7566441
-273.75952 366.00806 5897.9224 7434600
-236.65527 362.69217 5844.4893 7434858
-201.43332 361.61887 5827.1938 6842722
-159.80307 346.2178 5579.0181 7961463
-118.69228 324.20377 5224.2798 7
-87.903389 324.7984 5233.8618 1118752
-56.375763 321.82394 5185.9312 2105389
-25.836658 324.12631 5223.0317 24
5.1108446 324.44882 5228.229 23
35.839912 322.25363 5192.855 7569577
67.175537 325.02109 5237.4502 856632
96.764198 320.25787 5160.6948 264244
125.53671 315.72925 5087.7202 262447
155.92125 316.22357 5095.6855 35
185.51797 315.21893 5079.4966 131103
215.99733 315.78513 5088.6201 9081497
248.22826 318.45975 5131.7197 7369581
317.92535 363.37268 5855.4551 5790033
358.06125 368.98575 5945.9048 5131588
388.6875 364.67123 5876.3804 5987153
425.25281 366.18011 5900.6948 5526602
460.2941 366.24713 5901.7749 6842462
488.26746 361.07794 5818.4771 5789260
527.80151 364.5759 5874.8438 6513497
566.94617 367.38876 5920.1709 7171427
600.64557 366.55084 5906.6689 6842462
629.58356 363.05945 5850.4077 6974048
669.42334 365.89105 5896.0366 7303272
699.50104 363.3707 5855.4233 7434601
748.49139 370.44891 5969.4829 7368551
773.37592 365.49606 5889.6719 7171429
828.3515 374.57791 6036.0186 7434345
844.04803 365.88129 5895.8794 5789776
871.6535 362.83301 5846.7588 5395018
923.04492 369.54037 5954.8428 6052949
949.20081 366.02289 5898.1611 6184535
994.35767 369.82199 5959.3804 6842464
1013.7445 364.1048 5867.2524 6579034
1042.8711 362.14886 5835.7344 4604731
1073.6858 360.88593 5815.3833 5855054
1109.5413 361.34314 5822.7505 6052176
1129.6151 356.78809 5749.3501 6447704
1182.4722 362.55124 5842.2183 6513497
1224.9303 364.88889 5879.8877 6250582
1263.5779 365.99353 5897.688 6316118
1316.825 371.15369 5980.8398 5790030
1357.6245 372.62698 6004.5806 5065795
1378.5687 368.71448 5941.5337 4933953
1416.5671 369.44458 5953.2988 6974049
1436.2144 365.46939 5889.2422 7895152
1463.733 363.63834 5859.7358 6974307
1489.5984 361.49088 5825.1313 8289910
1532.2067 363.41174 5856.085 7434601
1555.8105 360.8399 5814.6416 7171429
1614.2411 366.28189 5902.335 7303013
1653.932 367.33109 5919.2417 8158321
1642.1932 357.15161 5755.2075 7039840
1666.0925 354.97928 5720.2021 7566185
1686.7533 352.21729 5675.6948 7434341
1720.7622 352.29605 5676.9644 6776156
1767.2517 354.87799 5718.5703 6579291
1797.8636 354.2345 5708.2007 5790033
1865.9268 360.85751 5814.9253 6578521
1881.7677 357.3241 5757.9873 6644828
1930.2499 360.00427 5801.1763 6118739
1984.2211 363.59656 5859.063 6775899
1968.1648 354.45383 5711.7349 5921103
1983.1616 351.11804 5657.9814 5921102
2029.2603 353.30823 5693.2744 6315348
2054.5771 351.86768 5670.0615 6118739
2122.5618 357.66324 5763.4521 6381913
2156.9844 357.70944 5764.1968 6513499
2184.5112 356.62845 5746.7773 7697773
2252.0151 362.0069 5833.4468 6184534
2236.7456 354.11813 5706.3257 6513498
2323.646 362.39886 5839.7632 6250326
2304.0862 354.0766 5705.6562 6184275
2322.9282 351.81094 5669.147 6250068
2346.762 350.35507 5645.687 4013620
2355.8235 346.76578 5587.8481 6513499
2378.0959 345.19357 5562.5137 5723729
2437.3938 348.9653 5623.292 6710624
2469.1646 348.74738 5619.7803 6579038
2515.291 350.53589 5648.6006 5855572
2539.5881 349.27524 5628.2861 5723729
2583.0669 350.65112 5650.4575 5723729
2665.1145 357.16055 5755.3516 6052694
2703.0847 357.67316 5763.6123 5986902
2745.2666 358.72336 5780.5352 6119001
2766.7148 357.07178 5753.9214 6381918
2818.3643 359.31076 5790.0005 6579297
2817.9202 354.93433 5719.478 6710884
2819.6292 350.92993 5654.9502 6645604
2911.8354 358.15054 5771.3047 6711142
3009.6692 365.8877 5895.9824 7171949
3061.0012 367.85895 5927.7476 6250849
3003.7395 356.88309 5750.8809 5461332
3133.833 368.16406 5932.6641 6908779
3065.3215 356.12134 5738.6055 6448228
3158.5164 362.92337 5848.2148 6185053
3162.8533 359.47855 5792.7041 6645606
3224.1709 362.51431 5841.6235 6119262
3308.3301 368.02667 5930.4502 6579813
3309.0654 364.24036 5869.437 6777192
3397.9355 370.13321 5964.3955 7632501
3423.3257 369.0611 5947.1196 7435636
3415.1013 364.42392 5872.395 6646122
3464.127 365.92773 5896.6274 7172723
3435.4817 359.27881 5789.4854 7501431
3423.179 354.45349 5711.7295 7961982
3454.9614 354.24277 5708.334 7106673
3529.7805 358.40601 5775.4214 7238260
3562.0481 358.21014 5772.2651 1908771
3625.4983 361.12408 5819.2207 5200745
3671.8765 362.29858 5838.147 8688813
3632.7832 355.09656 5722.0923 9215681
3624.1006 350.97278 5655.6406 9019074
3667.667 351.9382 5671.1978 9348295
3699.2439 351.74609 5668.1021 9282245
3692.6731 347.96271 5607.1362 6846106
3714.4861 346.89761 5589.9731 8557752
3759.4414 347.99353 5607.6323 9084612
3789.9929 347.7486 5603.6855 9019333
3838.1221 349.10675 5625.5713 9215943
3867.8611 348.78317 5620.3569 9084614
3911.4307 349.70166 5635.1577 9150150
3939.1787 349.20206 5627.1069 9018565
3971.7468 349.13452 5626.0186 9018565
4054.3345 353.4285 5695.2124 9018565
4087.9731 353.41971 5695.0713 9084358
4115.0918 352.85208 5685.9243 9150151
4177.1802 355.26779 5724.8516 9150150
4208.3521 355.03635 5721.1221 9150151
4238.0215 354.68286 5715.4258 9281736
4266.959 354.2742 5708.8408 9215943
4326.0801 356.35831 5742.4243 9216200
4363.6797 356.65097 5747.1401 9150407
4381.6987 355.35104 5726.1934 9215944
4407.1646 354.67044 5715.2256 9215943
4431.2056 353.88638 5702.5913 9150150
4445.0176 352.3035 5677.0845 9216197
4460.4951 350.8754 5654.0718 9150405
4539.4355 354.42355 5711.2471 9216198
4604.9629 356.87973 5750.8262 9281735
4638.3677 356.82858 5750.0024 9281991
4691.979 358.32135 5774.0571 9281991
4706.0317 356.79337 5749.4346 9216454
4745.5225 357.20209 5756.021 9216198
4792.8794 358.19281 5771.9858 9150405
4828.5679 358.30368 5773.7725 9150404
4915.083 362.15802 5835.8818 9084611
4916.0073 359.69601 5796.2085 9084612
5656.5674 411.01065 6623.1025 9018819
4967.7061 358.47089 5776.4668 8953282
4984.7715 357.24142 5756.6548 8953025
4761.7139 338.9368 5461.6904 8953025
4912.5493 347.31317 5596.6694 8887233
4861.8179 341.42215 5501.7402 8887233
4716.0107 328.97739 5301.2026 8953025
4682.3462 324.46826 5228.542 8953025
4579.6235 315.2644 5080.2295 8953025
4570.3315 312.57062 5036.8213 8887490
4531.3096 307.89163 4961.4233 8953023
4651.7256 314.03659 5060.4443 9018816
4707.457 315.76401 5088.2803 9018816
0 0 0 0
4355.165 288.43912 4647.9619 8953024
4382.7002 288.43912 4647.9619 8953023
4738.2954 309.89493 4993.7046 8886973
4688.3096 304.72318 4910.3662 8952509
0 0 0 0
0 0 0 0
0 0 0 0
0 0 0 0
-5351.3145 399.17511 5871.833 2891297
-5150.2944 386.69397 5688.2363 4601659
-5207.3354 393.55173 5789.1133 3351592
-5198.9297 395.52139 5818.0869 3418155
-5252.3926 402.25555 5917.1465 13090238
-5373.2788 414.27856 6094.0034 2760740
-5189.0542 402.7811 5924.877 3945786
-5125.8232 400.5827 5892.5386 6051929
-5183.4312 407.86243 5999.623 9736338
-5198.7354 411.89105 6058.8833 7236202
-5083.2358 405.54013 5965.4619 8420733
-4997.646 401.50317 5906.0786 5789272
-5035.5127 407.39755 5992.7847 4933962
-5065.228 412.71149 6070.9521 6052189
-4928.1343 404.41269 5948.8774 1380884
-4978.3896 411.47934 6052.8276 1578264
-5058.2417 421.11255 6194.5312 1709595
-4920.1455 412.60922 6069.4473 3025201
-4866.6807 411.13016 6047.6904 3222579
-4859.125 413.53625 6083.0845 2433063
-4829.3237 414.07098 6090.9497 1906976
-4955.2183 428.06372 6296.7822 2104097
-4799.4009 417.74808 6145.0396 2235424
-4880.8042 428.08066 6297.0312 1972510
-4787.1045 423.09634 6223.7124 1314068
-4681.832 417.00388 6134.0928 1248787
-4685.7949 420.62167 6187.3101 2366756
-4790.9028 433.44739 6375.9756 2564392
-4626.5298 421.90247 6206.1504 2433318
-4632.5542 425.83594 6264.0112 1840926
-4536.8057 420.40216 6184.0811 3288372
-4615.2749 431.15515 6342.2568 3025200
-4581.522 431.51495 6347.5493 4472902
-4584.1055 435.33145 6403.6895 4341573
-4560.5742 436.71088 6423.981 1709854
-4478.3804 432.44885 6361.2871 3157045
-4377.853 426.32916 6271.2666 3947587
-4418.0396 433.92514 6383.0029 2433581
-4351.6562 431.09494 6341.3711 5197146
-4220.1626 421.70914 6203.3071 4605522
-4236.1519 427.02554 6281.5103 3881799
-4209.7012 428.12006 6297.6108 2829367
-4231.7573 434.21136 6387.2134 4079178
-4173.4961 432.09702 6356.1113 3092281
-4149.272 433.50021 6376.7524 3092280
-4104.3252 432.74426 6365.6328 3355195
-3936.3188 418.87909 6161.6768 2434091
-3886.2925 417.42657 6140.3105 1644574
-3983.8618 431.94965 6353.9434 1315609
-3976.6313 435.27844 6402.9102 723471
-3964.3274 438.11075 6444.5728 1841954
-3911.5508 436.48184 6420.6118 2302252
-3868.2195 435.88525 6411.8364 4079436
-3874.9756 440.9769 6486.7339 3355716
-3860.8667 443.77228 6527.8535 3750990
-3811.0017 442.47278 6508.7378 4079956
-3726.0173 437.02753 6428.6387 4211541
-3630.8572 430.26398 6329.1475 3026751
0 0 0 0
0 0 0 0
0 0 0 0
0 0 0 0
0 0 0 0
0 0 0 0
-1330.6931 169.97714 2500.3496 1775925
0 0 0 0
-1285.4126 167.93187 2470.2639 9083829
-1278.8424 168.99754 2485.9399 5927303
-1248.8395 166.95537 2455.8997 282
-1236.6663 167.27676 2460.6274 29
-1222.9165 167.39005 2462.2937 38
-1196.3821 165.73499 2437.948 8426442
-1202.8649 168.66927 2481.1108 7637965
-1197.8663 170.04626 2501.3665 592963
-1196.0281 171.912 2528.8115 3160951
-1188.1407 172.9446 2544.0007 1120058
-1169.5603 172.42723 2536.3904 27
-1176.2251 175.66673 2584.0432 20
0 0 0 0
0 0 0 0
-2655.0081 412.63092 6069.7666 6778477
-2605.554 410.50467 6038.4902 6975336
-2561.0239 409.10587 6017.9136 5856082
-2567.7717 415.97449 6118.9507 5461067
-2516.731 413.5441 6083.1997 6974049
-2490.8301 415.23407 6108.0591 7566185
-2469.4614 417.74048 6144.9282 7829356
-2374.3467 407.66028 5996.6489 8158321
-2376.7825 414.27692 6093.9795 7763306
-2347.7241 415.52365 6112.3188 8290162
-2281.2021 410.0748 6032.1665 8816763
-2271.6511 414.85681 6102.5093 8224625
-2236.3193 415.00912 6104.75 8750970
-2177.5608 410.74753 6042.0625 8158833
-2144.8647 411.34177 6050.8032 8092784
-2120.8027 413.64023 6084.6133 7829355
-2069.5522 410.62357 6040.2388 6776667
-2002.1702 404.2438 5946.3926 7106144
-1959.2358 402.65994 5923.0942 6776152
-1922.5166 402.31888 5918.0776 7303009
-1875.1683 399.69962 5879.5483 7500645
-1822.3666 395.79678 5822.1377 8026989
-1808.6918 400.40518 5889.9268 7040093
-1769.058 399.33505 5874.186 7829610
-1706.7994 393.01233 5781.1792 8553076
-1657.0931 389.38028 5727.7515 8948348
-1633.3584 391.82657 5763.7368 8816506
-1603.3693 392.84497 5778.7173 8553591
-1593.9144 399.04877 5869.9741 10264208
-1537.6112 393.53885 5788.9238 9606278
-1525.6898 399.39572 5875.0786 8553335
-1512.3219 405.13861 5959.5562 8553332
-1455.6494 399.27786 5873.3442 9737607
-1383.6647 388.82706 5719.6143 9605765
-1389.9987 400.41263 5890.0366 8158833
-1342.9569 396.82315 5837.2358 5921871
-1292.5092 392.01086 5766.4478 8619385
-1238.3446 385.77945 5674.7837 9343108
-1209.3556 387.26196 5696.5913 9408900
-1174.474 386.88852 5691.0981 6777180
-1140.1326 386.67618 5687.9746 7763561
-1125.5211 393.34613 5786.0894 8092271
-1086.67 391.69772 5761.8413 6776667
-1057.3218 393.47891 5788.0425 7303012
-1034.2466 397.79227 5851.4912 7960942
-978.48077 389.39517 5727.9712 7829355
-943.38177 388.91486 5720.9053 7763561
-902.96649 386.12537 5679.8721 6053200
-890.42621 395.5011 5817.7891 7632231
-841.41852 388.78201 5718.9517 7500645
-808.88275 389.42938 5728.4741 7960682
-783.28473 393.61981 5790.1147 7763302
-744.16669 391.08878 5752.8833 7763046
-721.69519 397.48303 5846.9429 7697252
-679.61902 393.18015 5783.6479 6973530
-646.86572 394.10037 5797.1836 7105371
-611.94391 393.72852 5791.7139 7631715
-578.45148 394.28674 5799.9253 7763559
-539.1889 390.73407 5747.6655 6842713
-511.25452 395.46497 5817.2568 6842715
-481.80432 399.62247 5878.4136 5724234
-442.84216 395.92368 5824.0049 5987407
-410.18518 397.71329 5850.3301 5592392
-377.97812 400.30978 5888.5239 6908253
-336.28058 392.36108 5771.5991 6842459
-298.47867 387.67276 5702.6343 7500392
-265.02002 388.14883 5709.6372 6974048
-228.78256 384.09888 5650.063 6316119
-196.78827 387.00546 5692.8184 6579293
-160.16946 380.13873 5591.8096 4540228
-120.36411 360.15607 5297.8662 7
-88.841644 359.60272 5289.7261 1185053
-56.562107 353.71188 5203.0728 1053478
-25.648373 352.48117 5184.9688 3161693
5.01089 348.47095 5125.979 921625
35.546131 350.12357 5150.2891 1777966
66.481842 352.37213 5183.3647 197906
97.109306 352.08221 5179.1001 13096149
126.28713 347.93759 5118.1333 13556699
157.07556 348.9761 5133.4097 13227483
185.22336 344.7626 5071.4297 6122365
214.15659 342.98322 5045.2549 4409681
249.00427 349.95184 5147.7627 4540484
302.54517 378.80481 5572.1875 5066825
339.97601 383.79443 5645.5845 4737343
372.09799 382.4339 5625.5713 5329223
409.43521 386.21655 5681.2139 5723980
434.41174 378.65054 5569.918 5592137
460.94656 373.41507 5492.9048 6315348
496.12332 375.40936 5522.2407 6710617
533.12958 378.45563 5567.0513 7039839
566.83722 378.94177 5574.2021 6842462
606.89026 383.38284 5639.5298 6974048
644.27307 385.76169 5674.5225 6974048
690.92438 393.17889 5783.6294 6579292
707.86353 383.78607 5645.4614 8092531
739.65985 382.93256 5632.9062 6645085
783.18195 387.96124 5706.8779 7895152
815.09021 387.05872 5693.6021 6974050
846.42743 385.96756 5677.5508 6381913
889.18176 389.96692 5736.3813 5855312
913.58557 385.9202 5676.8545 5854798
932.14032 379.77774 5586.4995 5723469
983.0921 386.80334 5689.8452 6381913
1003.2035 381.63104 5613.7612 6775900
1040.1487 382.98901 5633.7368 6578777
1083.0857 386.40015 5683.9146 5920589
1099.2063 380.32703 5594.5796 5131331
1112.054 373.51016 5494.3037 6644825
1156.3812 377.35355 5550.8394 6184530
1205.2937 382.43927 5625.6499 6250322
1240.0675 382.88577 5632.2183 5987408
1312.8798 394.746 5806.6812 5592395
1338.2737 392.10724 5767.8647 7368807
1332.7012 380.75272 5600.8413 6974305
1386.5188 386.50546 5685.4639 6776927
1434.65 390.43784 5743.3086 7631722
1462.2683 388.73477 5718.2563 6710877
1476.8311 383.71661 5644.4399 7368806
1518.7987 385.88351 5676.3149 7105634
1552.4026 385.87756 5676.2275 7237218
1596.5638 388.44046 5713.9272 6974046
1612.9373 384.27661 5652.6772 6710874
1630.9896 380.67401 5599.6831 7039580
1648.4094 377.07028 5546.6729 6381394
1638.0636 367.38025 5404.1333 6118479
1717.7186 377.85999 5558.2891 6249298
1762.4541 380.40839 5595.7759 6381399
1795.177 380.31772 5594.4424 6184277
1806.9082 375.86386 5528.9263 6776413
1873.5066 382.7785 5630.6401 6513242
1903.4219 382.08755 5620.4766 6512728
1931.8502 381.12708 5606.3477 7171171
1956.2904 379.42551 5581.3179 6842462
1953.793 372.64276 5481.5444 5460039
2013.325 377.71909 5556.2168 6710106
2009.7943 370.9913 5457.2515 6249556
2082.8608 378.39191 5566.1138 6446678
2121.4033 379.38757 5580.7603 7039073
2159.7441 380.31717 5594.4346 6710107
2179.3975 377.97772 5560.021 6315350
2202.363 376.2738 5534.9565 6644828
2246.1101 378.11829 5562.0889 6908257
2260.864 375.09924 5517.6787 6974049
2325.1399 380.26526 5593.6704 6645086
2318.353 373.82742 5498.9707 6579037
2365.7227 376.17966 5533.5718 7104866
2401.7168 376.68338 5540.9814 6117970
2428.0256 375.67505 5526.1489 5196868
2423.0293 369.91428 5441.4082 5065538
2456.229 370.05945 5443.5439 5789520
2524.0293 375.34625 5521.3125 6315866
2546.9302 373.90628 5500.1309 6513245
2587.5852 375.07623 5517.3403 6447452
2642.1604 378.2095 5563.4307 6250073
2694.2732 380.91748 5603.2646 6118487
2668.6057 372.69678 5482.3389 5197385
2689.8154 371.14188 5459.4663 6250074
2690.272 366.79443 5395.5156 5790036
2753.7991 371.04721 5458.0737 6513759
2791.8169 371.80405 5469.207 5855574
2770.106 364.68033 5364.4175 5987417
2889.5115 376.08524 5532.1826 6316125
2973.0308 382.61594 5628.249 6053210
2974.0244 378.49893 5567.688 6250332
3003.353 378.03876 5560.9189 5658196
3033.3435 377.67099 5555.5093 5460817
3090.312 380.63403 5599.0952 5921368
3065.6594 373.58765 5495.4434 5658195
2963.7729 357.37631 5256.9761 6908006
3235.4595 386.07974 5679.2012 7040364
3218.6572 380.12198 5591.563 7434866
3304.5183 386.28653 5682.2432 7435121
3353.3945 388.04703 5708.1396 7040364
3290.2249 376.93604 5544.6982 7237742
3354.0608 380.45099 5596.4028 7566451
3384.5359 380.15009 5591.9766 7304050
3411.9126 379.51035 5582.5659 8027775
3494.7026 384.98734 5663.1323 7369845
3514.5134 383.48825 5641.0806 7369845
3528.8384 381.42441 5610.7217 6251622
3590.9434 384.51538 5656.1895 4869974
3615.3193 383.54651 5641.9375 6712439
3621.0725 380.63779 5599.1504 8423317
3623.3467 377.41953 5551.8101 8160660
3648.4312 376.61374 5539.957 5858162
3694.1389 377.93225 5559.3525 6845315
3674.5288 372.60406 5480.9751 9281212
3710.1685 372.92264 5485.6611 9413829
3734.4377 372.10272 5473.6001 9479370
3761.1838 371.54153 5465.3452 9479115
3793.658 371.55093 5465.4834 9413322
3814.9836 370.47754 5449.6943 9150407
3865.3821 372.2218 5475.3521 9215943
3920.2449 374.36331 5506.8535 9150150
3969.6548 375.95306 5530.2388 9084614
3999.2512 375.6557 5525.8643 9018565
4031.3665 375.59781 5525.0127 8952772
4062.8191 375.47964 5523.2744 8886979
4117.2026 377.46567 5552.4888 8886978
4136.3135 376.21201 5534.0479 8952772
4184.8247 377.63113 5554.9229 9018565
4208.1968 376.77725 5542.3623 9018821
4228.9238 375.70166 5526.5405 9084357
4277.3276 377.08252 5546.8525 9150150
4289.2686 375.25232 5519.9307 9150150
4315.2603 374.66974 5511.3613 9084868
4328.7183 373.0159 5487.0332 9084612
4365.146 373.35126 5491.9663 9018819
4422.4546 375.45444 5522.9038 9150404
4472.7295 376.93393 5544.667 9150405
4499.9932 376.46677 5537.7949 9150404
4528.0103 376.06894 5531.9429 9216197
4563.8818 376.32443 5535.7017 9084867
4603.5752 376.88925 5544.0098 9216197
4681.0073 380.51376 5597.3262 9084868
4768.4233 384.89319 5661.7471 8953026
4729.6899 379.10013 5576.5317 9084611
5432.6929 432.42761 6360.9746 9018818
4733.2378 374.1575 5503.8262 8953025
4746.6953 372.65421 5481.7129 8953025
4783.7358 373.01022 5486.9497 9018305
4802.3564 371.93484 5471.1309 8952769
4968.02 382.18573 5621.9209 8952512
4599.9043 351.51041 5170.689 8821183
4478.3403 339.95697 5000.7388 8952769
