# .PCD v0.7 - Point Cloud Data file format
VERSION 0.7
FIELDS x y z rgb
SIZE 4 4 4 4
TYPE F F F U
COUNT 1 1 1 1
WIDTH 1306
HEIGHT 1
VIEWPOINT 0 0 0 1 0 0 0
POINTS 1306
DATA ascii
1372.1984 765.76794 1512.2573 4275249
1365.7087 757.20264 1495.3424 2893853
1378.9447 759.61389 1500.1041 1775373
1388.4298 759.94128 1500.7507 4340273
1386.6241 754.1239 1489.2625 3090464
1398.981 756.03381 1493.0342 1379846
1411.1219 757.80383 1496.5297 1511435
1419.9308 757.77344 1496.4696 2235157
1433.0939 760.05273 1500.9708 986116
0 0 0 0
0 0 0 0
0 0 0 0
0 0 0 0
0 0 0 0
0 0 0 0
0 0 0 0
0 0 0 0
0 0 0 0
0 0 0 0
0 0 0 0
0 0 0 0
-1540.3354 913.36603 1782.8793 5855049
-1535.182 916.59534 1789.1829 5131325
-1523.4862 915.93628 1787.8964 5131069
-1511.6841 915.20361 1786.4662 5460547
-1490.6042 908.80408 1773.9744 5395011
-1479.5063 908.44269 1773.269 5986633
-1464.7047 905.78577 1768.0828 7631971
-1444.6086 899.79297 1756.3848 6184524
-1441.6725 904.47882 1765.5316 6185037
-1418.7125 896.57886 1750.111 6579538
-1418.4299 902.99951 1762.6439 6316367
-1416.0895 908.19556 1772.7865 6908248
-1401.7566 905.72058 1767.9554 7105883
-1379.7892 898.23822 1753.3499 5395520
-1398.1125 917.0705 1790.1104 4342577
-1376.8522 910.02789 1776.3633 6053194
-1370.9849 913.12915 1782.4167 5855561
-1359.1512 912.27393 1780.7474 5724233
-1342.0349 907.83167 1772.0763 5921615
-1332.9926 908.82428 1774.0138 4671290
-1306.0374 897.52277 1751.9534 3815725
-1312.3163 909.06189 1774.4777 4605754
-1301.601 908.92023 1774.201 5723724
-1276.887 898.92126 1754.6832 5921101
-1275.3085 905.17902 1766.8983 6842460
-1252.1768 896.11597 1749.2073 5197378
-1202.7327 867.91412 1694.1577 6841944
-1204.8107 876.72986 1711.3658 5526856
-1250.5941 917.76898 1791.4739 1973783
-1224.99 906.67346 1769.8154 4144950
-1203.2772 898.29138 1753.4536 7040097
-1210.1365 911.27899 1778.8054 6119249
-1190.2501 904.17755 1764.9435 6514007
-1182.5919 906.32172 1769.1289 5197891
-1177.6433 910.59937 1777.4788 5526857
-1150.5789 897.6991 1752.2976 6250582
-1142.426 899.45343 1755.7219 4277048
-1118.8878 889.01538 1735.3472 8750461
-1108.2657 888.74158 1734.8126 5461067
-1122.4858 908.57056 1773.5184 6382424
-1105.6046 903.362 1763.3516 5790028
-1108.1238 914.05713 1784.2281 6316116
-1104.2993 919.67505 1795.1943 8487284
-1087.9341 914.85651 1785.7886 6250321
-1069.3618 908.06921 1772.5398 6316114
-1045.1565 896.31635 1749.5985 6776153
-1035.9653 897.33319 1751.5834 6053456
-1024.0421 895.98016 1748.9423 7040094
-1006.424 889.56573 1736.4214 5987406
-1002.2535 895.02783 1747.0834 5197634
-994.34668 897.23248 1751.3868 6448213
-985.70923 898.81738 1754.4806 7171425
-971.19379 895.01917 1747.0664 7039839
-957.50555 891.90967 1740.9967 6184786
-954.01331 898.33337 1753.5358 6777179
-933.35992 888.56097 1734.4602 7172193
-925.43329 890.8219 1738.8734 5922124
-915.50031 891.18054 1739.5735 4343092
-918.24768 904.03149 1764.6583 5724489
-899.92218 896.19287 1749.3574 7829612
-898.26276 904.96191 1766.4746 6382422
-881.17163 898.20776 1753.2904 5724494
-865.38098 892.63373 1742.41 7435112
-863.71564 901.67133 1760.0513 7106148
-845.97174 893.93945 1744.9589 7566698
-829.14667 886.99921 1731.4115 8356214
-824.53369 893.11304 1743.3457 5855825
-805.73456 883.82086 1725.2075 5658447
-788.21442 875.711 1709.377 8618618
-780.00928 877.8736 1713.5985 9211011
-765.26917 872.64148 1703.3855 6645083
-747.87653 864.20447 1686.9164 7105634
-737.76813 864.07007 1686.6542 5460809
-729.83234 866.51147 1691.4197 7368806
-736.42804 886.51398 1730.4644 4934463
-729.05365 890.02649 1737.3208 6316115
-713.75714 883.82983 1725.225 6710874
-699.26459 878.46313 1714.7493 5790028
-685.98755 874.48779 1706.9894 6710874
-675.55408 874.07263 1706.1791 6513496
-668.55573 878.15692 1714.1515 5855565
-653.59961 871.7533 1701.6517 7895147
-635.68604 861.14276 1680.9401 6447445
-633.81396 872.27124 1702.6627 3289382
-614.71338 859.66583 1678.0571 7171425
-603.50073 857.85852 1674.5292 8750457
-595.84393 861.1297 1680.9146 3947824
-592.39691 870.69965 1699.595 6711129
-581.75092 869.83667 1697.9104 7829613
-571.75415 869.93097 1698.0946 6908512
-561.49231 869.61816 1697.484 6447963
-553.92938 873.55042 1705.1595 5921620
-539.46259 866.5387 1691.4729 5592911
-531.85474 870.48773 1699.1814 6908769
-519.14673 866.08075 1690.579 3290153
-505.30536 859.57239 1677.8746 5790287
-495.05414 859.03241 1676.8208 8224115
-483.1915 855.61713 1670.1541 5526601
-474.70676 858.16547 1675.1284 7631977
-463.06445 854.99249 1668.9348 2631711
-452.30881 853.35388 1665.7362 8618870
-447.23969 862.61011 1683.8043 7698025
-438.86154 865.76068 1689.9542 6908766
-427.55081 863.13818 1684.8352 4606010
-416.18393 860.27429 1679.2448 8487287
-404.79474 857.22278 1673.2883 5066049
-396.56613 860.87915 1680.4254 5921612
-383.77274 854.55927 1668.0892 5987406
-368.07245 841.26141 1642.132 8224113
-359.73276 844.52148 1648.4956 6710873
-349.2139 842.70477 1644.9495 7039841
-339.26581 842.20087 1643.9657 7631977
-325.59595 832.15497 1624.3562 6118740
-317.51382 836.21313 1632.2778 7105633
-312.32953 848.39801 1656.0624 5526600
-301.14102 844.53455 1648.521 3092007
-289.21976 838.28809 1636.3281 3223847
-277.67896 832.74951 1625.5168 6053716
-270.41031 840.08545 1639.8364 7237732
-260.31461 838.85791 1637.4403 5723980
-247.84021 829.5733 1619.3168 7039841
-236.09013 822.06305 1604.657 7368550
-226.99196 823.54388 1607.5476 6842202
-221.41092 838.47382 1636.6904 5723463
-210.97507 835.54419 1630.9719 6447186
-201.81847 837.64276 1635.0684 4539449
-192.19255 837.90698 1635.5842 3223591
-183.14354 840.8479 1641.3248 5131071
-173.83437 842.85724 1645.2469 3749422
-162.97693 837.1524 1634.1112 2959648
-153.63876 839.02374 1637.764 3156770
-142.77359 832.24622 1624.5344 3091232
-133.27573 833.03546 1626.075 4999230
-122.17548 823.15143 1606.7815 4999744
-112.07861 818.92865 1598.5387 6381141
-103.25807 824.11292 1608.6583 4737086
-93.392479 821.16266 1602.8994 8158321
-83.46331 816.9223 1594.6223 6118738
-73.23542 808.30255 1577.7966 5855567
-63.977993 809.43872 1580.0143 9079937
-55.041599 815.72186 1592.2791 9343111
-45.766388 818.54443 1597.7886 3551784
-36.400024 820.78339 1602.1592 5920328
-27.051651 825.15076 1610.6842 3485988
-17.574621 828.21527 1616.666 5920330
-7.9470253 823.02655 1606.5377 6380882
1.5725646 824.12549 1608.6827 4143919
11.070889 821.7594 1604.0642 6249296
20.660738 825.23474 1610.848 4867900
30.332106 828.74121 1617.6926 5131070
39.845749 827.28931 1614.8585 4867640
49.596882 830.37573 1620.8832 4340781
58.655735 822.75043 1605.9987 1775376
67.575485 815.57471 1591.9918 5722695
77.230064 817.93921 1596.6073 3419934
86.651703 817.5899 1595.9254 3484707
96.74099 822.98907 1606.4645 5524289
105.4043 816.37671 1593.5573 2037263
113.80769 809.00354 1579.165 6971989
124.52808 817.97015 1596.6676 7565408
133.73071 816.40497 1593.6123 3486243
143.25534 816.88232 1594.5442 6118219
151.27678 809.25922 1579.6639 2696986
160.77411 809.95966 1581.0312 7697256
170.49153 811.63086 1584.2933 5789260
180.74678 815.55426 1591.9518 2630683
189.06143 810.76654 1582.6063 4275763
199.26059 814.13098 1589.1736 2236181
210.33577 820.6095 1601.8196 5657160
220.20403 822.02325 1604.5792 4341301
228.73651 818.53979 1597.7797 5657421
237.58348 816.414 1593.6301 5262408
246.09805 813.35211 1587.6533 1381648
253.68114 807.55035 1576.3284 6775902
264.30841 811.50726 1584.0521 4078388
272.33115 807.47021 1576.1719 1907218
281.16226 806.01819 1573.3376 3223077
291.32553 808.35583 1577.9008 7894125
302.60345 813.54486 1588.0295 3552301
314.82712 820.8869 1602.3611 5657934
321.56909 813.92438 1588.7703 3618353
328.80188 808.56488 1578.3087 5526606
336.89581 805.56085 1572.4448 4736834
346.44485 806.10419 1573.5054 5855314
355.18491 804.78607 1570.9324 5196871
365.53564 807.09149 1575.4327 6250073
374.03943 805.30573 1571.9469 8420986
384.66016 808.05383 1577.311 5262923
394.1402 808.33215 1577.8544 7104869
403.51294 808.38251 1577.9528 3946807
417.24042 816.9574 1594.6907 4999492
430.38403 824.0343 1608.5049 6315096
438.42792 821.25226 1603.0743 6249558
447.28769 820.08398 1600.7938 5723212
454.53625 816.07141 1592.9614 5065283
456.64594 803.18347 1567.8042 4078388
461.16043 794.95477 1551.7419 4144181
474.84549 802.54718 1566.5621 7104867
487.15231 807.56366 1576.3544 5591627
495.85529 806.5296 1574.3359 5920594
504.88965 806.06293 1573.4248 6578523
511.28424 801.47504 1564.4694 5460041
522.09424 803.84882 1569.1029 3749422
532.69073 805.81647 1572.9438 5393987
542.63049 806.74011 1574.7468 4209974
546.53601 798.81305 1559.2732 1906962
551.59607 792.80872 1547.553 7433834
560.89758 792.9975 1547.9214 2105115
562.3266 782.229 1526.9014 3684145
570.23462 780.67151 1523.8612 4670785
583.88403 786.90027 1536.0195 3552560
585.20343 776.57556 1515.8658 4670272
591.69995 773.32935 1509.5293 5854545
602.12988 775.24396 1513.2667 6052436
614.06635 779.01373 1520.6251 6381401
626.86163 783.74817 1529.8668 6249558
634.01392 781.39294 1525.2694 5328455
644.32495 782.94232 1528.2937 6644313
649.69775 778.53119 1519.6832 7697003
660.48474 780.63971 1523.7991 4670261
665.4231 775.87201 1514.4927 5393984
678.80823 780.94897 1524.4028 2828055
693.31189 787.1626 1536.5316 7235677
700.15253 784.62756 1531.5834 131072
710.15375 785.65393 1533.5868 7828581
721.78284 788.43262 1539.0107 4209460
729.02386 786.40845 1535.0597 6117453
735.07654 783.16809 1528.7345 5328706
750.78271 790.16656 1542.3954 7565158
759.65637 789.89215 1541.8599 7499623
770.02472 791.16016 1544.3348 3223336
778.48212 790.45782 1542.964 9736587
777.24725 780.0448 1522.6379 5525834
797.95837 791.64288 1545.2772 5525576
807.86353 792.37903 1546.7142 5789258
815.16492 790.57367 1543.1899 2762783
822.0993 788.45612 1539.0566 4538676
827.3844 784.82068 1531.9602 1052169
829.81177 778.58276 1519.7839 6381138
848.84534 787.89258 1537.9567 2039315
854.10498 784.35553 1531.0524 2433561
858.11029 779.75311 1522.0685 3156771
867.61432 780.19098 1522.9232 1577994
871.18164 775.3363 1513.4469 2038287
880.17157 775.35736 1513.488 2630682
886.17346 772.77234 1508.442 4011822
899.7403 776.77002 1516.2455 2828318
907.29376 775.5484 1513.861 3091233
910.89349 771.00415 1504.9906 1314055
917.44342 769.021 1501.1195 1577478
922.35168 765.71295 1494.6622 1512203
930.80219 765.38055 1494.0134 4866613
939.09814 764.92853 1493.1311 2761236
943.42554 761.28259 1486.0143 3616800
953.83252 762.56458 1488.5167 4866868
946.16882 749.5083 1463.031 8617840
963.90381 756.6261 1476.9248 5460291
981.53302 763.53351 1490.408 6907482
988.70984 762.25934 1487.9209 2235924
998.2746 762.83246 1489.0396 1381384
1008.6841 764.03534 1491.3876 3223591
1013.7662 761.2171 1485.8865 8553078
1022.8157 761.40088 1486.2451 4802879
1034.8503 763.78461 1490.8982 4867646
1043.7524 763.83569 1490.9978 4538937
1059.1376 768.59039 1500.2789 3420457
1054.3353 758.73834 1481.0479 4736060
1068.436 762.53998 1488.4686 4341301
1076.3754 761.91791 1487.2544 5064767
1091.8113 766.56952 1496.3342 5986124
1112.0496 774.49066 1511.7963 4736571
1136.5306 785.21667 1532.7333 2959394
1135.0929 778.00745 1518.661 1117192
1141.4581 776.21796 1515.1678 854020
1143.8612 771.78284 1506.5106 1643536
1153.6665 772.37231 1507.6613 2433309
1167.2701 775.47607 1513.7197 3025189
1171.6013 772.41943 1507.7532 1182985
1185.6012 775.73511 1514.2253 1643534
1187.3591 771.05127 1505.0826 722949
1198.295 772.35284 1507.6233 4801084
1204.1211 770.36615 1503.7452 3946032
1211.892 769.64362 1502.3348 3683376
1215.6146 766.37952 1495.9634 6249046
1224.7657 766.56018 1496.316 4275258
1232.5408 765.88324 1494.9946 3551534
1246.2828 768.89722 1500.8779 3551534
1245.4974 762.9693 1489.3066 1840915
1249.2296 759.87268 1483.2621 1972501
1260.7032 761.49542 1486.4297 3090983
1265.9578 759.36511 1482.2714 3222566
1268.6283 755.72491 1475.1658 2300692
1272.9546 753.11414 1470.0695 2366741
1280.8086 752.61169 1469.0887 2564121
1294.8015 755.69897 1475.1151 2498842
1298.0608 752.52228 1468.9142 2301720
1312.0648 755.5755 1474.874 1117701
1321.3877 755.91028 1475.5276 2828062
1314.1383 746.82281 1457.7889 3288612
1297.1461 732.35333 1429.5447 2564631
1315.674 737.99554 1440.5582 6643284
1341.1667 747.44678 1459.007 4998459
1356.9452 751.39764 1466.719 1644306
1371.1379 754.42584 1472.63 3420198
1387.319 758.50281 1480.5881 3025185
1397.9266 759.50055 1482.5356 1643788
1411.8109 762.25488 1487.9121 854790
1419.1025 761.43756 1486.3168 5854793
0 0 0 0
0 0 0 0
0 0 0 0
0 0 0 0
0 0 0 0
0 0 0 0
0 0 0 0
0 0 0 0
0 0 0 0
0 0 0 0
0 0 0 0
0 0 0 0
-1512.1927 907.04761 1750.3052 6447437
-1522.7523 919.68793 1774.6968 4275498
-1500.5963 912.60742 1761.0338 5394489
-1494.817 915.45734 1766.5332 5985857
-1489.116 918.39557 1772.2031 4801838
-1461.5326 907.78412 1751.7264 5657407
-1457.7571 911.91418 1759.6962 4407855
-1434.326 903.71942 1743.8829 5986889
-1435.5811 911.07233 1758.0717 6447182
-1413.389 903.54376 1743.5439 7105626
-1403.8022 904.02191 1744.4666 5855816
-1392.6447 903.48792 1743.4362 6184781
-1404.0371 917.68488 1770.8317 5329474
-1372.9156 904.09906 1744.6155 5987405
-1372.1476 910.4472 1756.8654 4934714
-1361.9634 910.59692 1757.1542 6184781
-1356.3387 913.82086 1763.3754 2565661
-1358.7646 922.56097 1780.241 6974046
-1337.1202 914.96692 1765.5869 5921359
-1318.3647 909.24554 1754.5464 6381911
-1292.7423 898.65961 1734.119 6184018
-1277.642 895.2771 1727.592 2762781
-1277.0228 902.06946 1740.699 5657672
-1270.373 904.67755 1745.7318 4605241
-1265.4944 908.60034 1753.3014 7105117
-1249.7408 904.71527 1745.8044 5986637
-1216.5011 888.00116 1713.5518 6907739
-1217.7922 896.42413 1729.8053 4276534
-1247.3085 925.94293 1786.7671 5987150
-1222.766 915.49316 1766.6023 6185043
-1202.3438 907.9743 1752.0934 7303781
-1199.5238 913.73303 1763.2058 6185299
-1185.8507 911.25281 1758.4199 5329990
-1180.7451 915.37073 1766.3661 5460807
-1166.0035 912.02521 1759.9103 6974303
-1143.8298 902.75348 1742.0189 6053458
-1134.4702 903.51849 1743.4951 8158832
-1109.0962 891.42603 1720.1606 8224369
-1105.6058 896.86133 1730.6489 4474424
-1115.5406 913.39062 1762.5452 7303523
-1108.9972 916.61267 1768.7626 4540217
-1083.5668 904.13672 1744.6881 9737607
-1072.954 903.90344 1744.2379 4079413
-1080.7683 919.34039 1774.0262 4540210
-1055.5745 906.72687 1749.6864 7040092
-1026.0197 890.08008 1717.5635 5987663
-1028.1608 900.87164 1738.3876 3882030
-1014.803 898.16406 1733.163 6645335
-997.23621 891.63788 1720.5695 5263683
-994.08972 898.0033 1732.8527 5000254
-986.96552 900.87091 1738.3861 6052944
-981.85657 905.65778 1747.6232 7500391
-963.33685 898.04486 1732.9327 7632232
-955.06812 899.927 1736.5648 5658185
-934.06195 889.71753 1716.8638 5395526
-924.23096 890.0451 1717.4958 7236703
-914.95111 890.9165 1719.1775 4210740
-914.45892 900.46075 1737.5947 6316371
-912.49561 908.75726 1753.6042 5921358
-898.5022 905.12604 1746.5972 3158051
-889.02307 906.01068 1748.3043 6579288
-866.17566 893.1319 1723.4525 7237732
-847.15167 883.9353 1705.7061 8290677
-851.5929 899.29645 1735.3479 7237991
-841.86902 899.89142 1736.4962 7040101
-828.24994 896.28619 1729.5392 7961712
-815.97601 894.06421 1725.2516 8027250
-801.56873 889.41901 1716.2877 7764078
-788.76697 886.45862 1710.5752 7106147
-773.83185 880.99249 1700.0273 8290421
-759.02185 875.52661 1689.4799 5460550
-746.50812 872.59851 1683.8298 6908253
-740.04211 876.75623 1691.8528 7237218
-724.11444 869.66455 1678.1682 7960941
-726.71777 884.9411 1707.647 4802877
-714.34637 882.15656 1702.2736 7895148
-705.69684 883.95416 1705.7424 7763561
-694.49408 882.55939 1703.051 6645081
-685.03754 883.37524 1704.6254 7960684
-675.19983 883.71674 1705.2843 6447702
-666.07007 885.00922 1707.7783 5000256
-651.09003 878.44836 1695.118 6447702
-639.03571 875.69116 1689.7975 5789516
-623.99457 868.68811 1676.2839 6184529
-616.26978 871.80865 1682.3057 4473912
-604.07849 868.60962 1676.1323 7960941
-602.11804 880.26025 1698.6143 5789774
-590.92023 878.57294 1695.3584 7237220
-576.22052 871.53076 1681.7693 6974306
-566.0321 871.18414 1681.1003 4079415
-554.0271 867.979 1674.9156 6842721
-546.79022 872.26324 1683.1829 5921620
-534.36169 868.27106 1675.4791 6579549
-531.01404 879.16223 1696.4955 5921619
-513.99762 867.40662 1673.811 4868932
-504.39484 867.94562 1674.8512 2697506
-494.85919 868.62415 1676.1605 3750192
-475.99597 852.62262 1645.2827 3224104
-465.44128 851.14563 1642.4326 7040099
-461.18338 861.36627 1662.1552 3421227
-446.73547 852.58551 1645.2112 7039841
-440.43701 859.31299 1658.193 5987152
-432.60706 863.2912 1665.8696 6710876
-422.90805 863.63831 1666.5396 6381911
-413.05188 863.6734 1666.6072 4671296
-405.07159 867.72876 1674.4326 6052946
-391.10663 858.84564 1657.2911 5724238
-377.24817 849.74493 1639.7297 3552812
-366.4787 847.30493 1635.0215 8355441
-355.46191 844.1452 1628.9242 6315601
-346.5224 845.87982 1632.2714 6118220
-334.94971 841.10181 1623.0514 7434601
-325.9769 842.76294 1626.2567 6053459
-315.54291 840.63251 1622.1458 6052945
-309.83734 851.36084 1642.8479 6711388
-299.60446 849.94159 1640.1094 5460551
-287.62634 843.31036 1627.3131 3749933
-276.24911 838.04181 1617.1466 7632490
-268.83267 844.84235 1630.2693 6185043
-256.78592 837.05579 1615.2438 5394500
-245.17274 830.13458 1601.8883 6447187
-234.5616 826.18549 1594.2677 6447188
-226.49844 831.25616 1604.0525 7960425
-217.30907 832.45673 1606.3691 5394497
-208.24144 834.255 1609.8392 5986634
-199.23149 836.46796 1614.1096 6052429
-191.84677 846.07172 1632.6416 2104851
-180.61145 838.81177 1618.6323 5986893
-172.07094 843.9549 1628.557 5460295
-162.06514 842.09552 1624.9689 5855308
-151.08952 834.64386 1610.5896 5065791
-139.91132 824.99286 1591.9664 5723719
-130.96664 828.06879 1597.902 5197374
-121.16389 825.77594 1593.4775 6250326
-111.85131 826.71881 1595.2969 7368036
-101.19991 817.02673 1576.5942 5722955
-92.819656 825.56372 1593.068 6381395
-83.388214 825.62573 1593.1876 5197121
-73.115906 816.31543 1575.2218 6775896
-63.398918 811.38788 1565.7133 7697255
-54.201977 812.56781 1567.99 5986635
-45.359917 820.65613 1583.5979 7039324
-36.165813 824.93268 1591.8502 5065790
-26.315323 811.97308 1566.8424 4473398
-17.495228 834.00806 1609.3627 4210744
-7.95785 833.67804 1608.726 8026481
1.5719249 833.31665 1608.0286 986378
11.033848 828.48102 1598.6974 4472882
20.356079 822.46826 1587.0947 5394500
30.144117 833.12921 1607.6669 3552296
39.642632 832.59009 1606.6266 3552042
49.296692 834.89398 1611.0724 2499096
58.282131 826.96356 1595.7693 5394246
67.363892 822.42273 1587.007 4803133
76.455811 819.10297 1580.6008 4013104
85.80896 819.00098 1580.4039 1644046
95.657822 823.18494 1588.4777 2170392
104.60868 819.58374 1581.5286 2959135
114.17216 820.97986 1584.2225 5788740
124.21741 825.36499 1592.6843 6381140
132.66904 819.28949 1580.9607 4539706
142.40216 821.40729 1585.0475 3157800
150.09404 812.21716 1567.3135 1446154
159.6223 813.45636 1569.7046 3617323
169.29381 815.24872 1573.1633 7960172
178.80138 816.10583 1574.8174 920841
187.79669 814.65582 1572.0193 2695959
197.99294 818.30634 1579.0636 5853515
208.4799 822.77478 1587.6863 6775380
217.15326 820.00879 1582.3489 5788235
228.04939 825.51813 1592.98 3485738
237.14493 824.33051 1590.6884 5065030
246.14026 822.8988 1587.9255 5987155
255.01553 821.18585 1584.6201 4079414
263.02527 816.90625 1576.3619 10724246
271.3006 813.7168 1570.2073 1973268
280.73322 814.09485 1570.9368 1578770
291.24011 817.46399 1577.4381 5525570
301.87506 820.9718 1584.207 4802107
309.91513 817.42389 1577.3607 6052175
319.79114 818.78442 1579.9861 3223850
327.01428 813.46826 1569.7278 3881524
335.89249 812.44952 1567.7618 4473920
344.11847 809.95038 1562.9393 4802627
352.07858 806.97284 1557.1936 3157803
357.2301 797.87433 1539.6365 6250072
368.10776 801.69983 1547.0184 8947586
383.70175 815.36151 1573.3811 5921108
391.86932 812.96851 1568.7633 6315867
401.72647 814.11029 1570.9667 4473920
0 0 0 0
421.7081 816.76013 1576.0798 7762796
431.77811 818.14899 1578.7599 4999492
440.33066 816.66449 1575.8954 1117964
444.52454 807.32568 1557.8745 6249560
453.00531 805.99402 1555.3048 2038809
462.57956 806.62225 1556.5171 8486520
470.7348 804.79993 1553.0006 3223083
480.9075 806.43042 1556.147 5723215
494.43332 813.51678 1569.8213 6512730
500.27411 807.93024 1559.0411 5262662
507.22314 804.30371 1552.043 5525835
514.83197 801.83374 1547.2769 6381144
524.46338 802.54529 1548.6499 4802369
536.09448 806.23969 1555.7789 6579293
545.13098 805.97314 1555.2645 3552560
549.33594 798.69086 1541.212 5526350
557.97638 797.99005 1539.8597 1973786
562.58588 791.63953 1527.6053 6249047
567.80231 786.33069 1517.3611 2104346
582.81403 794.5412 1533.2046 1644047
585.74756 786.28625 1517.2753 4669756
585.29523 773.80457 1493.1897 3880497
598.8028 779.87567 1504.905 4012340
610.92346 783.98907 1512.8424 5130564
621.60016 786.1571 1517.0261 6446937
632.46204 788.49432 1521.5361 7696745
643.37659 790.83051 1526.0443 7433828
652.14697 790.50293 1525.4121 6644053
656.28955 784.65137 1514.1205 5130299
664.72455 784.02026 1512.9027 6972244
677.64093 788.6214 1521.7814 4472367
693.50684 796.48926 1536.9637 6973271
696.7135 789.80249 1524.0604 1776145
701.66595 785.24054 1515.2573 5065275
712.26263 787.03052 1518.7114 6184011
722.91345 788.8349 1522.1934 4802359
739.23376 796.70514 1537.3804 3486503
748.81299 797.20703 1538.3489 6578776
757.87549 797.15332 1538.2452 7368294
762.76471 792.76355 1529.7744 6710365
771.15051 792.0683 1528.4327 8091761
777.10638 788.92224 1522.3619 4276019
791.67841 794.4953 1533.116 7236702
804.65314 798.35699 1540.5677 6380882
812.3985 797.00183 1537.9528 7236961
826.02252 801.38007 1546.4014 5855309
827.23126 793.74951 1531.6769 4473145
830.68109 788.4115 1521.3762 6710105
838.51172 787.30133 1519.234 3880749
848.14484 787.88916 1520.3683 6446676
853.72644 784.7406 1514.2926 4670263
858.7923 781.18829 1507.4379 2235925
866.6756 780.24561 1505.6188 2564631
875.50391 780.16425 1505.4618 2169360
883.72656 779.55023 1504.277 590848
892.99371 779.8606 1504.876 2235154
900.04773 778.25134 1501.7705 656640
910.76489 779.80988 1504.7781 1709836
913.73822 774.77228 1495.057 2235924
918.44611 771.28784 1488.3333 3485992
925.61761 769.91895 1485.6918 1709839
932.25122 768.13263 1482.2448 1511945
941.65021 768.6369 1483.2179 3617576
935.90546 756.88489 1460.5403 4867128
947.17291 758.98029 1464.5836 3287838
966.59863 767.5155 1481.0538 5327670
977.29889 769.03119 1483.9786 4800566
986.79376 769.57977 1485.0372 4012076
983.33667 760.10699 1466.7579 2169873
1001.9368 767.70074 1481.4114 3090975
1010.9809 767.90424 1481.804 8552308
1024.3687 771.37512 1488.5017 3420713
1028.0526 767.54193 1481.1049 4933695
1039.3367 769.39972 1484.6898 6710106
1042.0374 764.9256 1476.0562 5460041
1043.6821 759.75732 1466.0831 2433304
1057.6274 763.55469 1473.4108 2696475
1065.0056 762.58759 1471.5447 4208945
1083.7108 769.68097 1485.2325 3682600
1098.8251 774.13019 1493.818 4011564
1116.2015 780.08936 1505.3173 2760984
1131.6464 784.61469 1514.0498 2827291
1125.1637 773.98535 1493.5386 2433306
1125.9508 768.48358 1482.922 2564636
1132.8289 767.19202 1480.4297 3288359
1148.849 772.06409 1489.8312 920069
1169.4474 779.9151 1504.9811 2498586
1181.8177 782.20154 1509.3931 1774607
1188.8146 780.92383 1506.9275 1577485
1183.679 771.75476 1489.2343 4143668
1193.1259 772.15881 1490.0139 3814701
1199.3738 770.50183 1486.8165 2959648
1212.1626 773.04041 1491.7152 3288358
1219.422 772.04144 1489.7875 3814704
1228.2162 772.02148 1489.749 5065542
1236.6973 771.80646 1489.3341 3354412
1243.8438 770.76752 1487.3292 788743
1246.371 766.901 1479.868 525828
1243.064 759.5235 1465.632 3420204
1256.1854 762.21686 1470.8292 1248779
1262.2908 760.64526 1467.7965 1972500
1264.1792 756.57129 1459.9352 1643535
1273.5201 756.9826 1460.7289 2498843
1284.3817 758.28613 1463.2443 1906962
1290.0541 756.52905 1459.8536 1906706
1306.1323 760.85706 1468.2053 1841423
1312.5017 759.50958 1465.6051 2104338
1310.5012 753.36823 1453.7543 3485736
1311.6909 749.12903 1445.574 5327426
1311.855 744.36285 1436.3768 3354149
1333.2897 751.64954 1450.4377 2959136
1345.4613 753.65424 1454.3062 6051668
1356.0184 754.7348 1456.3914 3551014
1365.7313 755.33484 1457.5492 3814956
1375.027 755.698 1458.25 1906960
1384.9537 756.40131 1459.6072 2828318
1399.1531 759.41492 1465.4224 3617323
0 0 0 0
0 0 0 0
0 0 0 0
0 0 0 0
0 0 0 0
0 0 0 0
0 0 0 0
0 0 0 0
0 0 0 0
0 0 0 0
0 0 0 0
0 0 0 0
-1479.9961 897.88367 1713.0387 3617314
-1492.6238 911.79694 1739.5833 2630162
-1482.5649 911.94873 1739.8729 5196344
-1480.9961 917.36163 1750.2 5130297
-1471.7028 918.03235 1751.4796 4933687
-1463.3502 919.30359 1753.9049 6249806
-1449.6931 917.23682 1749.9618 5986631
-1429.0516 910.68939 1737.4702 7434848
-1396.9402 896.68439 1710.7506 6842713
-1394.3295 901.54932 1720.0322 6776918
-1388.0762 904.11346 1724.9242 7303261
-1391.8459 913.29242 1742.4364 6842710
-1377.1715 910.41547 1736.9475 6974039
-1372.5759 914.20837 1744.1838 6381645
-1352.0116 907.34198 1731.0839 3815978
-1326.0919 896.74921 1710.8743 5855819
-1335.2257 909.88025 1735.9264 6907997
-1316.8 904.28906 1725.2593 6316372
-1313.7312 909.23895 1734.7029 6119249
-1290.3766 900.11646 1717.2985 5987153
-1276.9948 897.86066 1712.9948 4342328
-1268.8574 899.28589 1715.7139 2631966
-1263.7292 902.88391 1722.5784 6250582
-1262.8657 909.61237 1735.4154 2499867
-1262.8655 917.07806 1749.6589 6645594
-1249.9008 915.17493 1746.028 6711128
-1240.6309 915.96783 1747.5408 6579543
-1222.7522 910.36462 1736.8506 7171424
-1207.3459 906.52277 1729.5209 6250835
-1203.5775 911.42804 1738.8795 6316116
-1192.2683 910.65845 1737.4111 5921615
-1183.9093 912.14832 1740.2537 5855564
-1178.6991 916.11169 1747.8152 6842462
-1155.5197 906.0556 1728.6295 6382167
-1147.4592 907.78046 1731.9204 4672062
-1128.0323 900.46313 1717.9598 6908768
-1121.4703 903.37561 1723.5165 6777439
-1110.0732 902.41089 1721.676 5000770
-1108.6819 909.63782 1735.464 5790543
-1086.7037 899.95105 1716.9829 6447958
-1089.8024 911.0448 1738.1483 5526601
-1071.5284 904.31293 1725.3048 5329476
-1055.6769 899.51538 1716.1517 5789767
-1057.8804 910.15833 1736.4569 4342835
-1037.8029 901.65234 1720.2288 4605754
-1027.8898 901.89618 1720.6938 6250835
-1016.5193 900.85352 1718.7046 6842715
-1004.5253 899.23126 1715.6097 4079662
-987.26471 892.81329 1703.3651 5658186
-979.13586 894.6062 1706.7856 5000257
-968.58612 894.20148 1706.0135 7764332
-959.00745 894.69434 1706.9537 7171425
-951.31531 896.97626 1711.3074 9013629
-940.60327 896.42932 1710.2639 5263683
-927.73413 893.7923 1705.2329 6052429
-921.87775 897.92786 1713.1229 4342066
-908.89282 895.13477 1707.7941 5657670
-899.47815 895.83453 1709.1293 7961196
-890.8819 897.37469 1712.0676 5263430
-889.35059 906.1488 1728.8074 6184531
-880.54181 907.62592 1731.6255 5395015
-867.68292 904.914 1726.4515 5395529
-843.54218 890.23108 1698.4385 9408902
-839.31818 896.46649 1710.335 8026995
-832.67914 900.24341 1717.5406 6974306
-815.31378 892.37341 1702.5259 5658702
-803.17889 890.10303 1698.1942 6842720
-791.20197 887.95227 1694.0909 5855569
-773.03174 878.70624 1676.4508 8355704
-764.672 880.51636 1679.9042 5790033
-753.18689 878.72778 1676.4919 8882044
-744.92059 880.69702 1680.2489 8618871
-732.46075 877.69446 1674.5205 7237218
-719.97736 874.58105 1668.5804 5921362
-719.72437 886.44427 1691.2139 4605503
-709.841 886.61389 1691.5374 6447450
-702.9339 890.55896 1699.0641 9408387
-687.42487 883.56244 1685.7157 6513750
-678.05078 884.36139 1687.2399 7829354
-667.97797 884.25909 1687.0448 6250324
-665.70343 894.63379 1706.8384 6776925
-647.81805 884.02563 1686.5994 6447704
-631.64447 875.4577 1670.2531 3684145
-621.88196 875.64417 1670.6088 3421231
-619.8186 886.85284 1691.9934 6052950
-601.96289 875.46246 1670.2621 5197385
-592.64453 876.31506 1671.8888 2696994
-585.13196 879.91229 1678.7517 9342343
-574.21887 878.43188 1675.9272 8948095
-558.23163 869.00031 1657.9332 7631977
-552.32068 875.19763 1669.7567 6645596
-544.16418 877.9978 1675.0992 3684657
-530.88434 872.48218 1664.576 4606011
-521.95886 874.04926 1667.5658 6316371
-513.64594 876.72235 1672.6658 7171427
-502.51559 874.59711 1668.6112 4671806
-494.03503 877.09094 1673.369 4540218
-477.53333 865.15485 1650.5966 6579802
-460.95969 852.58667 1626.6182 6382423
-454.42773 858.45123 1637.807 8553594
-442.73682 854.61353 1630.4851 6908256
-440.01117 868.29614 1656.5897 7829614
-423.67545 855.13287 1631.4761 5329223
-414.96466 857.10437 1635.2373 6710877
-408.8233 864.604 1649.5457 4144950
-394.10382 853.88513 1629.0955 4737342
-381.93903 848.30219 1618.444 5131589
-376.73343 858.28638 1637.4924 6250580
-363.74265 850.5932 1622.8148 8026989
-351.44995 844.15894 1610.5392 5592648
-340.32257 840.24261 1603.0675 5789255
-329.81989 837.68817 1598.194 6250577
-323.09738 844.86761 1611.8912 7763562
-314.50662 847.45013 1616.8184 6974048
-307.11758 853.53473 1628.427 6842459
-295.15955 846.90417 1615.7767 6184016
-283.94006 842.01923 1606.457 4933948
-278.42358 854.29425 1629.876 7697255
-269.56168 856.8175 1634.6901 6183759
-254.7137 839.79279 1602.2092 6447188
-241.34497 826.51581 1576.8787 7894634
-235.04071 837.33716 1597.5242 2302749
-225.16704 835.81677 1594.6235 5723979
-216.91132 840.43201 1603.4288 6053200
-206.95456 838.57764 1599.8909 6711130
-199.52695 847.28497 1616.5033 5263683
-189.0666 843.34265 1608.9819 6645336
-180.05055 845.76617 1613.6056 4737084
-171.34946 850.0238 1621.7286 4013617
-160.97601 845.99841 1614.0487 4276021
-149.65613 836.17651 1595.3098 6644058
-140.38831 837.26874 1597.3937 2499614
-130.41653 834.01721 1591.1902 3617837
-120.28159 829.13428 1581.8743 3025701
-110.46046 825.77209 1575.4596 6841436
-100.71178 822.3808 1568.9895 7236195
0 0 0 0
-80.772209 808.867 1543.207 4342070
-71.612442 808.66974 1542.8308 6512982
-62.994339 815.42651 1555.7217 6512981
-54.070927 819.86975 1564.1989 6447443
-45.036816 824.12524 1572.3177 6578770
-35.930099 828.92517 1581.4752 5459519
-26.115103 815.0069 1554.9211 7499876
-16.860834 812.95453 1551.0056 7237217
-7.8673434 833.61853 1590.4296 4407605
1.56347 838.30951 1599.3793 6578771
10.895209 827.42334 1578.61 4867898
20.478775 836.8847 1596.661 7697256
30.171919 843.43054 1609.1495 7499877
39.000179 828.46082 1580.5895 6710621
48.85146 836.81165 1596.5217 3158058
57.73214 828.52423 1580.7104 3881520
65.829643 812.87939 1550.8621 3223595
75.979591 823.30658 1570.7557 6776411
86.504128 835.07446 1593.2074 5526342
95.254601 829.08575 1581.7817 5790028
105.04883 832.44098 1588.183 4605752
113.94719 828.72888 1581.1008 5987150
123.00004 826.61896 1577.0753 5658441
131.64658 822.26917 1568.7766 5460807
141.18956 823.72302 1571.5503 4407862
150.49139 823.67712 1571.4628 6512982
159.27077 820.94366 1566.2476 2894112
167.65771 816.59967 1557.96 5920590
177.93066 821.41583 1567.1484 6052175
187.12439 821.0191 1566.3916 1644042
197.41832 825.25897 1574.4807 3222563
206.1091 822.71722 1569.6313 7566178
216.01173 825.02313 1574.0308 6512981
224.61588 822.38422 1568.9961 4802361
234.8405 825.65228 1575.2311 6512723
244.17892 825.67395 1575.2725 2893600
253.24103 824.79401 1573.5936 6578008
262.53302 824.69879 1573.412 5131074
272.18893 825.71393 1575.3488 5065792
282.20599 827.72113 1579.1782 3683631
290.69327 825.25659 1574.4762 5328195
300.87903 827.61719 1578.9799 3223077
308.65396 823.40405 1570.9418 4670526
316.9422 820.76685 1565.9103 5658191
325.99799 820.21069 1564.8494 3947831
334.3985 818.08234 1560.7887 7434604
344.04715 819.03986 1562.6154 6250330
351.82916 815.61981 1556.0905 3815732
356.93942 806.33887 1538.3837 7369322
364.97232 803.95795 1533.8413 9210757
376.54224 809.29486 1544.0233 5460812
386.80905 811.64417 1548.5056 5657936
388.78326 796.88751 1520.3518 4012341
403.36035 808.04614 1541.641 6446679
412.56372 808.1839 1541.9038 6381142
421.5224 807.84674 1541.2606 3815732
431.20465 808.88129 1543.2344 8289655
439.81677 807.9071 1541.3757 3487022
452.32443 813.98279 1552.9673 6841951
461.7016 814.29498 1553.563 5262921
469.59027 812.02112 1549.2247 5723729
476.61871 808.37537 1542.2692 7631470
487.06122 810.5484 1546.4149 7894899
495.85284 809.94446 1545.2628 2301979
506.52722 812.3822 1549.9136 6249044
513.7348 809.27191 1543.9796 2367517
524.54559 811.84717 1548.8928 6315352
524.50403 797.82617 1522.1428 8684671
532.88806 796.87885 1520.3353 5394764
542.15521 797.26184 1521.0659 6447452
557.57922 806.53802 1538.7637 4276539
559.10565 795.73633 1518.1555 6842210
558.42853 782.19012 1492.3113 6447453
575.89044 794.07745 1514.9907 986636
583.95551 792.84186 1512.6333 1380623
588.43951 786.8551 1501.2113 8091252
595.02856 783.8194 1495.4197 8552058
608.58185 789.91205 1507.0437 5525066
619.52142 792.48523 1511.9529 5788494
629.12543 793.30084 1513.509 3090464
635.75964 790.40137 1507.9773 5261629
644.93243 790.69464 1508.5367 6643537
656.23938 793.56067 1514.0046 6775122
665.35815 793.73901 1514.345 4340782
675.65192 795.29565 1517.3147 4604213
688.22595 799.46008 1525.26 6183752
694.10889 795.84491 1518.3628 1577994
699.4917 791.75616 1510.562 7170653
705.8808 788.89526 1505.1038 4078385
713.54443 787.51257 1502.4657 5064764
721.6842 786.68274 1500.8826 3617575
740.14087 796.98248 1520.533 4735804
753.53052 801.64392 1529.4264 7038561
760.85535 799.81915 1525.9451 5262149
769.93506 799.86041 1526.0237 6051408
779.85229 800.76056 1527.7411 6249042
783.4939 795.27026 1517.2664 3551530
794.93732 797.73364 1521.9661 4472631
801.10358 794.90546 1516.5704 1512462
801.74915 786.7229 1500.9591 5854026
815.48462 791.4234 1509.9271 3222048
824.62677 791.61243 1510.2877 3025184
829.47992 787.72437 1502.8699 3091234
845.41339 794.32977 1515.472 4670266
844.04498 784.71069 1497.1201 4999233
860.48053 791.67194 1510.4012 5262404
871.83368 793.86194 1514.5796 2236438
876.26868 789.77222 1506.7769 2893340
885.40692 789.96112 1507.1372 2037774
885.91895 782.52686 1492.9537 3814184
892.3266 780.39557 1488.8875 1708811
896.9599 776.76935 1481.9692 1182468
900.39502 772.18604 1473.2249 196608
909.43805 772.45392 1473.7358 1380615
916.33972 770.91504 1470.7999 1973011
922.19244 768.53107 1466.2517 1577996
927.74744 765.9458 1461.3193 4012077
931.80231 762.18121 1454.1371 4932921
942.63818 763.98145 1457.5717 4537648
954.10052 766.2522 1461.9039 5392955
969.00513 771.22168 1471.385 2169101
976.98737 770.64227 1470.2795 1905929
976.47919 763.43506 1456.5292 3156255
985.20264 763.50842 1456.6691 1182470
996.2041 765.33057 1460.1455 4143921
1005.4286 765.76794 1460.98 4472887
1012.6805 764.70831 1458.9584 4736058
1021.6906 764.98297 1459.4824 5854286
1030.8868 765.3913 1460.2614 6051922
1038.5857 764.69031 1458.924 2959905
1044.5132 762.7074 1455.141 4209972
1052.9513 762.57532 1454.8889 5261377
1065.0289 765.05975 1459.6289 3485221
1073.9493 765.25446 1460.0004 2564118
1085.3488 767.1983 1463.709 2103821
1109.3988 777.98291 1484.2844 3616802
1114.4478 775.37781 1479.3143 3682852
1110.2406 766.42365 1462.231 3551011
1131.3396 774.94232 1478.4834 1775117
1142.3677 776.48474 1481.4263 2433305
1153.3428 777.96783 1484.2557 2762016
1166.2572 780.72687 1489.5195 1840657
1177.6703 782.4469 1492.8011 1577740
1172.9172 773.48053 1475.6946 4407094
1180.2916 772.58508 1473.9862 3288614
1197.593 778.15302 1484.6091 4275508
1208.1128 779.26538 1486.7313 1840913
1211.5051 775.79761 1480.1152 3419946
1223.493 777.84442 1484.0203 2367259
1226.0946 773.93707 1476.5656 2630689
1231.915 772.10254 1473.0656 2564895
1234.6311 768.36176 1465.9287 3485741
1241.6755 767.34821 1463.995 5130818
1252.599 768.72937 1466.63 1775374
1257.7697 766.58527 1462.5393 1972241
1254.1674 759.1601 1448.373 393472
1265.0962 760.5719 1451.0667 1643020
1271.1383 759.04663 1448.1566 1708813
1274.6005 756.01154 1442.3661 1643535
1276.5345 752.11646 1434.9348 1906192
1288.1306 753.92804 1438.3911 1840656
1293.673 752.19592 1435.0864 1380105
1297.3669 749.41876 1429.788 1643018
1301.7615 747.07959 1425.3252 2169363
1308.8872 746.328 1423.8912 5129790
1325.3528 750.87738 1432.5709 3221793
1344.9011 757.10443 1444.4512 3945773
1359.1158 760.26904 1450.4889 3616551
1349.2706 750.01984 1430.9348 3156258
1370.4735 757.0495 1444.3464 3617581
1385.052 760.35535 1450.6534 2498587
0 0 0 0
0 0 0 0
0 0 0 0
0 0 0 0
0 0 0 0
0 0 0 0
0 0 0 0
0 0 0 0
0 0 0 0
0 0 0 0
0 0 0 0
0 0 0 0
0 0 0 0
-1471.3202 908.94183 1714.7549 3288861
-1469.5007 914.12939 1724.5414 3881255
-1471.8229 921.98389 1739.3594 5131064
-1455.037 917.89508 1731.6456 4999734
-1444.2378 917.55164 1730.9977 6381646
-1431.5339 915.98462 1728.0414 6316367
-1410.3354 908.92041 1714.7146 7698019
-1389.0289 901.68359 1701.062 7435106
-1382.7086 904.14044 1705.6969 6580054
-1387.2687 913.80035 1723.9207 5987917
-1368.9998 908.45447 1713.8354 5262655
-1366.6681 913.68353 1723.7002 7236701
-1351.1874 910.13434 1717.0046 3223333
-1349.0023 915.55493 1727.2307 5921869
-1317.5642 901.05286 1699.8721 6382165
-1312.0587 904.19885 1705.807 6251092
-1303.1188 905.0083 1707.3341 4342582
-1296.5493 907.48975 1712.0154 6776664
-1272.5737 897.73108 1693.6053 7039840
-1273.3556 905.42126 1708.1132 1447689
-1264.2896 906.17615 1709.5372 4144686
-1254.3773 906.33185 1709.8309 5790533
-1254.1252 913.52673 1723.4044 3684652
-1239.7456 910.46436 1717.6272 8619126
-1229.295 910.2608 1717.2432 6579543
0 0 0 0
-1178.7892 887.55286 1674.4037 4473399
-1188.5858 902.52386 1702.6471 4802877
-1181.3789 904.72943 1706.808 6645081
-1166.3636 900.94159 1699.6621 6974046
-1160.6211 904.31268 1706.0219 7369059
-1135.502 892.51294 1683.7611 6711387
-1141.9757 905.55627 1708.368 7236963
-1128.3503 902.7525 1703.0784 3158054
-1120.0996 904.23676 1705.8787 6447704
-1119.1957 911.73303 1720.0206 6579291
-1105.8256 909.11853 1715.0883 5987152
-1098.3275 911.3277 1719.2559 5987151
-1082.291 906.42719 1710.0109 8553079
-1070.1433 904.7218 1706.7937 4013362
-1059.6603 904.4046 1706.1953 8224113
-1052.3339 906.80151 1710.7172 7500643
-1043.551 907.97766 1712.9359 5593158
-1025.6846 901.19598 1700.142 2632224
-1013.9799 899.74713 1697.4088 7434596
-992.7558 889.73779 1678.5258 7171425
-985.31213 892.0014 1682.796 3421481
-982.37018 898.42816 1694.9205 4605243
-972.97162 899.02191 1696.0405 7829356
-954.79095 891.42871 1681.7157 6118995
-951.33435 897.5672 1693.2963 7763308
-941.4787 897.73486 1693.6124 6842462
-935.06757 901.22595 1700.1986 3815728
-925.46979 901.68823 1701.0708 7039841
-916.83716 903.11163 1703.756 4737088
-901.17157 897.56177 1693.2859 7500391
-893.26624 899.70319 1697.3258 5066049
-882.21106 898.68469 1695.4043 3815982
-876.23303 902.87427 1703.3082 5921101
-867.52039 904.31085 1706.0183 6447958
-848.97302 895.40863 1689.224 6842973
-835.31989 891.51758 1681.8833 6974560
-829.93408 896.46265 1691.2123 7500905
-817.14752 893.43683 1685.504 7566443
-808.14941 894.52948 1687.5654 7434603
-794.27136 890.18042 1679.3607 6974306
-786.04938 892.14044 1683.0583 7632235
-769.23096 884.26874 1668.2081 4671293
-765.07556 890.93835 1680.7906 6974048
-751.75311 886.96814 1673.3005 9408387
-744.93127 890.664 1680.2731 8487290
-737.38281 893.57947 1685.7732 7303268
-721.41296 886.22961 1671.9075 4144957
-714.76758 890.28937 1679.5663 7303519
-709.04285 895.62677 1689.6354 9408642
-697.86194 894.12616 1686.8046 4079413
-683.81958 888.86267 1676.8748 7500391
-677.78552 894.00702 1686.5798 7631721
-663.37482 888.09106 1675.4191 6250325
-658.60278 895.09503 1688.6324 2499873
-645.45813 890.76062 1680.4553 394501
-629.315 882.08746 1664.0931 460037
-622.47485 886.3855 1672.2015 197125
-613.51782 887.75946 1674.7935 65793
-605.10406 889.97742 1678.9779 722697
-592.33643 885.75903 1671.0197 2235933
-581.89001 884.92731 1669.4506 3157288
-569.13306 880.49219 1661.0836 3289129
-554.82269 873.45551 1647.8086 5658190
-544.62616 872.75922 1646.495 7171429
-538.37592 878.47668 1657.2811 5329482
-529.58893 880.19043 1660.5143 6381914
-518.06671 877.33698 1655.1311 7171940
-499.59628 862.37982 1626.9138 6053459
-499.39865 878.99622 1658.2614 5790285
-482.95645 867.11353 1635.8442 5461320
-465.41937 852.73828 1608.7247 8026991
-457.35693 855.48419 1613.9049 4803648
-450.5343 860.71594 1623.7748 7171938
-436.36185 851.82819 1607.0077 6514010
-428.40222 854.94275 1612.8835 7961456
-417.61041 852.41833 1608.1211 6513497
-408.68469 853.67407 1610.49 4474169
-403.41733 862.81415 1627.7332 7368803
-392.7316 860.52948 1623.4231 3486761
-381.57709 857.07727 1616.9103 5395270
-367.42596 846.54297 1597.037 3816234
-354.88745 839.26562 1583.3079 8815985
-347.88055 845.02966 1594.1821 6776403
-338.23395 844.52466 1593.2292 6578771
-328.35425 843.39172 1591.092 6512979
-319.7915 845.67462 1595.3987 6381395
-311.41702 848.60938 1600.9354 6776153
-304.04626 854.54974 1612.142 5131328
-293.25067 850.93726 1605.327 5591624
-284.32916 852.70312 1608.6584 5854796
-276.82117 858.97772 1620.4956 6249553
-271.48807 872.69409 1646.3721 5986381
-255.30368 851.25171 1605.9202 5920590
-244.03616 845.17816 1594.4622 8025966
-232.07689 836.12329 1577.3798 6513496
-222.89154 836.72162 1578.5085 5197635
-214.35269 839.90558 1584.5154 5263171
-206.6418 846.77411 1597.473 6053199
-198.07162 850.61169 1604.7128 7698023
-187.1729 844.33221 1592.8662 5395268
-173.48508 824.13641 1554.7661 5395525
-166.35284 834.56415 1574.4385 6119249
-157.4222 836.67249 1578.4159 2368788
-147.33057 832.48688 1570.5197 9408389
-140.15645 845.33374 1594.7557 2894883
-130.08421 841.29468 1587.1357 3815986
-119.57452 833.57648 1572.5752 4670779
-107.96119 816.21039 1539.8134 6447190
-98.70533 815.10663 1537.7311 7236707
-90.290146 821.42657 1549.6539 4407351
-80.539032 815.64783 1538.7521 3289124
-71.216103 813.28369 1534.292 7763048
-62.410797 817.00391 1541.3104 5197122
-53.563984 821.36285 1549.5337 8092011
-44.471306 822.97491 1552.5748 5920585
-35.747135 834.02533 1573.422 6973268
-26.137775 824.93414 1556.2711 3617576
-16.867826 822.48413 1551.6489 7301987
-7.6864443 823.65601 1553.8597 6644567
1.5381541 834.05719 1573.4821 5262913
10.824953 831.37946 1568.4304 5920844
20.481411 846.45264 1596.8666 6644313
30.011684 848.43372 1600.6039 5065281
39.404495 846.51038 1596.9755 5262660
48.475773 839.76178 1584.2439 7302758
57.563423 835.44012 1576.0909 2894629
66.482208 830.216 1566.2355 4604988
75.99881 832.82263 1571.1531 6512984
85.438095 834.10571 1573.5735 7171423
94.492897 831.75195 1569.1331 6512978
103.9744 833.23938 1571.9392 3157542
113.61172 835.62823 1576.4459 4736569
122.18179 830.40076 1566.584 6184018
129.71519 819.36316 1545.7611 7302753
138.53903 817.39478 1542.0477 1644043
148.04218 819.43018 1545.8876 6643800
156.66188 816.62323 1540.5922 3683370
166.67307 820.97925 1548.8101 5920587
176.35577 823.34729 1553.2773 5460036
185.18895 821.71094 1550.1903 6512982
194.11731 820.63159 1548.1541 3749673
203.89713 823.08673 1552.7859 3750190
213.97865 826.49536 1559.2163 7433569
224.59285 831.59412 1568.8353 5854024
233.67865 830.85327 1567.4377 6117453
239.86784 820.26385 1547.4603 4604728
249.34407 821.28064 1549.3787 6841691
261.00677 829.17126 1564.2646 4144431
269.88443 827.97668 1562.011 6711129
278.93176 827.36456 1560.8561 7434341
289.97449 832.52051 1570.583 6315347
294.32724 818.74603 1544.5969 4802620
308.18683 831.45044 1568.5643 4078899
316.9931 830.177 1566.1619 7763311
325.1781 827.39514 1560.9138 4802884
324.26917 802.26801 1513.5105 9539979
343.51682 827.02032 1560.2067 7632241
350.30847 821.27325 1549.3646 2894106
353.93259 808.58331 1525.4244 9013633
362.5188 807.57904 1523.53 5658449
369.67206 803.50909 1515.8519 6052693
382.02701 810.67035 1529.3618 4144955
389.08475 806.51935 1521.5308 9343113
400.29977 810.97864 1529.9435 5460555
408.06097 808.39838 1525.0756 7105125
417.15134 808.5058 1525.2783 2565154
424.0376 804.42737 1517.5842 6512733
438.53873 814.66443 1536.8967 5328202
448.72247 816.62762 1540.6006 460294
458.35788 817.53473 1542.3118 526086
462.88062 809.46552 1527.0889 5064255
471.55365 808.82434 1525.8793 6842207
486.2984 818.42584 1543.9929 8552826
493.9436 815.94519 1539.313 2696995
499.50201 810.16962 1528.4172 2433566
508.9975 810.87183 1529.7419 5854031
514.60583 805.46527 1519.5424 3683886
521.95392 802.92096 1514.7422 5920333
531.09662 803.17651 1515.2244 6447194
538.67236 801.09332 1511.2943 6250073
541.21179 791.71082 1493.594 5460043
554.57996 798.21625 1505.8667 4144697
562.13458 796.28064 1502.2151 1775380
572.73621 798.65417 1506.6929 5789008
579.45093 795.61804 1500.965 4077619
586.88263 793.64313 1497.2394 4538682
594.15387 791.51337 1493.2214 5262407
601.31036 789.29541 1489.0372 6644574
612.57294 792.45337 1494.9949 6052694
620.13275 790.79968 1491.875 7170660
630.89807 793.2226 1496.446 5854798
637.90009 790.91241 1492.0878 6315090
638.78632 781.18622 1473.7389 7170654
663.41779 800.36932 1509.9286 7828068
666.20197 793.03546 1496.0929 7104604
676.63635 794.88123 1499.5751 3091745
689.06195 798.98798 1507.3226 4735805
691.59302 791.66351 1493.5046 4736061
702.07385 793.50922 1496.9866 6579547
709.9043 792.35052 1494.8008 4078642
722.03522 795.96124 1501.6125 3815216
732.70935 797.89777 1505.2659 6249299
745.25598 801.80219 1512.6317 2894374
754.97095 802.60352 1514.1434 5328971
767.98669 806.85388 1522.162 6117714
771.48541 801.12292 1511.3503 1644305
777.86285 798.47858 1506.3616 4012335
786.73718 798.42804 1506.2664 4670778
785.70874 788.44159 1487.4264 2301976
795.92267 789.83295 1490.0513 2893857
802.45465 787.58008 1485.8011 4209714
808.86542 785.25842 1481.4213 4538680
809.65735 777.59033 1466.9551 4604473
822.00909 781.06915 1473.5179 4275251
833.17798 783.36273 1477.845 5130816
835.16144 777.06213 1465.9586 4472886
857.39392 789.53772 1489.4944 3288613
865.06958 788.49103 1487.5197 3946801
871.89594 786.69904 1484.139 3815215
883.37921 789.10278 1488.6737 2498843
891.75732 788.71259 1487.9376 1051653
895.66138 784.41168 1479.8239 1051396
893.83502 775.2243 1462.4915 328448
901.29529 774.19012 1460.5405 3024929
906.30829 771.09357 1454.6987 2827295
919.5545 774.99426 1462.0575 1116675
925.35175 772.60272 1457.5458 4208431
923.13147 763.62335 1440.6057 2629652
937.43524 768.35199 1449.5265 4471601
947.23621 769.33765 1451.3861 3024156
961.63745 774.00836 1460.1975 3090205
966.39679 770.90436 1454.3417 854018
971.35773 768.01453 1448.8899 4406581
981.54785 769.27368 1451.2654 4209202
983.7688 764.3194 1441.9189 4604730
989.27155 761.97827 1437.5023 5920331
1003.6921 766.48737 1446.0089 5459783
1009.9744 764.75769 1442.7458 5328197
1026.4796 770.73297 1454.0184 2564636
1030.9866 767.67493 1448.2493 5787977
1028.5164 759.51508 1432.8553 2498582
1039.1355 761.0755 1435.7992 4274736
1045.2869 759.36499 1432.5721 3353633
1062.3885 765.57288 1444.2837 1709843
1062.1263 759.26898 1432.3911 7367263
1069.8669 758.74048 1431.394 3682598
1079.6279 759.64185 1433.0946 3946282
1089.6909 760.73999 1435.1663 1709841
1094.5033 758.18402 1430.3442 4736312
1123.8177 772.50989 1457.3706 3420196
1134.5215 773.92194 1460.0345 3222816
1157.6056 783.69397 1478.4698 1906959
1165.9504 783.41595 1477.9453 2170131
1163.3674 775.85406 1463.6796 5196610
1176.9248 779.0885 1469.7815 2762268
1192.6232 783.68237 1478.448 3485993
1203.8138 785.26886 1481.4409 2169878
1211.8264 784.77429 1480.5078 1775121
1216.1764 781.93188 1475.1455 525826
1219.8879 778.7226 1469.0911 1051399
1222.3212 774.74835 1461.5936 460035
1229.7891 773.99884 1460.1796 2038294
1243.3887 777.09198 1466.0149 1512465
1246.9596 773.91803 1460.0271 2235672
1233.2286 760.12335 1434.0029 1051398
1252.8165 766.91357 1446.813 524800
1257.2051 764.37067 1442.0156 1116420
1258.8818 760.22424 1434.1932 984580
1261.8785 756.92529 1427.9696 853250
1258.4038 749.81427 1414.5544 1182468
1266.8295 749.84113 1414.6051 1116676
1274.0304 749.14764 1413.2968 1248262
1280.2721 747.90271 1410.9482 1906192
1289.6368 748.48657 1412.0497 2563864
1297.5406 748.22052 1411.5477 2366741
1312.6019 752.05865 1418.7886 4471860
1320.1693 751.58167 1417.8887 3485737
1334.6802 755.0387 1424.4105 2762015
1350.1816 759.00916 1431.9009 4735805
1366.6085 763.44696 1440.2731 4012340
1367.9602 759.46039 1432.7522 2235930
0 0 0 0
0 0 0 0
0 0 0 0
0 0 0 0
0 0 0 0
0 0 0 0
0 0 0 0
0 0 0 0
0 0 0 0
0 0 0 0
0 0 0 0
0 0 0 0
0 0 0 0
-1466.2675 915.94415 1708.8662 5131317
-1453.6799 914.39435 1705.9747 7039573
-1466.5685 928.95996 1733.1498 4737075
-1428.152 911.00409 1699.6497 5592127
